ply
format ascii 1.0
element vertex 1146
property float x
property float y
property float z
property uchar red
property uchar green
property uchar blue
end_header
-14.684068 7.073804 66.855179 89 74 101
-14.689861 7.220769 66.881561 86 73 100
-14.695384 7.367712 66.906700 82 72 99
-14.700630 7.514622 66.930588 77 70 96
-14.705591 7.661487 66.953178 72 68 94
-14.710256 7.808291 66.974411 70 69 94
-14.311377 -2.541460 65.804192 162 158 161
-14.306843 -2.398848 65.783340 160 155 159
-14.302456 -2.256349 65.763168 160 153 158
-14.298167 -2.113952 65.743454 162 154 160
-14.293924 -1.971646 65.723938 164 154 161
-14.289680 -1.829424 65.704430 166 153 161
-14.285396 -1.687281 65.684731 166 151 161
-14.281044 -1.545216 65.664719 165 150 161
-14.276612 -1.403230 65.644341 162 149 159
-14.272105 -1.261324 65.623619 159 147 157
-14.267550 -1.119504 65.602676 157 146 156
-14.262992 -0.977775 65.581718 155 145 155
-14.258492 -0.836139 65.561028 153 143 154
-14.254132 -0.694599 65.540977 152 142 152
-14.249997 -0.553154 65.521965 150 140 150
-14.246187 -0.411801 65.504448 150 137 148
-14.242798 -0.270531 65.488861 149 136 147
-14.239926 -0.129333 65.475655 149 136 147
-14.237652 0.011809 65.465202 149 136 146
-14.236051 0.152913 65.457840 148 136 145
-14.235174 0.294000 65.453804 146 136 143
-14.235057 0.435092 65.453270 144 135 142
-14.235713 0.576214 65.456284 142 134 141
-14.237140 0.717388 65.462845 141 134 141
-14.239311 0.858634 65.472832 140 133 141
-14.242191 0.999974 65.486069 137 130 140
-14.245728 1.141423 65.502335 135 128 139
-14.249865 1.282997 65.521355 134 125 137
-14.254538 1.424706 65.542847 133 123 134
-14.259686 1.566560 65.566513 132 121 133
-14.265251 1.708565 65.592102 131 120 129
-14.271177 1.850728 65.619354 130 118 124
-14.277420 1.993053 65.648056 131 118 117
-14.283943 2.135543 65.678047 130 119 108
-14.290717 2.278203 65.709198 128 119 95
-14.297723 2.421036 65.741409 124 119 83
-14.304949 2.564048 65.774635 105 104 61
-14.312388 2.707243 65.808838 88 89 46
-14.320038 2.850627 65.844017 131 133 98
-14.327896 2.994207 65.880150 184 184 164
-14.335964 3.137988 65.917244 145 143 133
-14.344238 3.281977 65.955292 80 75 71
-14.352714 3.426178 65.994263 85 77 81
-14.361382 3.570594 66.034111 122 111 119
-14.370228 3.715228 66.074791 139 127 138
-14.379231 3.860080 66.116188 143 131 142
-14.388371 4.005149 66.158218 143 132 143
-14.397619 4.150429 66.200737 140 131 143
-14.406942 4.295916 66.243607 138 130 144
-14.416308 4.441600 66.286667 136 129 145
-14.425679 4.587472 66.329758 133 128 146
-14.435022 4.733521 66.372719 132 127 147
-14.444298 4.879731 66.415367 130 126 148
-14.453475 5.026092 66.457558 127 124 147
-14.462519 5.172586 66.499146 122 120 143
-14.471401 5.319201 66.539986 116 114 137
-14.480097 5.465921 66.579971 113 110 134
-14.488585 5.612733 66.618996 113 109 132
-14.496845 5.759623 66.656982 114 107 131
-14.504863 5.906578 66.693848 113 104 128
-14.512630 6.053587 66.729561 112 99 125
-14.520137 6.200640 66.764076 110 95 121
-14.527379 6.347725 66.797379 105 89 116
-14.534351 6.494833 66.829437 99 82 110
-14.541053 6.641956 66.860252 95 78 106
-14.547482 6.789085 66.889816 93 78 105
-14.553638 6.936210 66.918114 92 78 105
-14.559519 7.083324 66.945152 91 78 104
-14.565120 7.230416 66.970909 88 78 104
-14.570439 7.377476 66.995369 84 77 103
-14.575468 7.524491 67.018494 78 74 99
-14.580194 7.671448 67.040222 73 71 96
-14.584604 7.818328 67.060501 72 72 97
-14.588679 7.965113 67.079239 74 76 99
-14.592395 8.111778 67.096321 75 77 100
-14.595726 8.258300 67.111641 71 75 95
-14.598639 8.404648 67.125038 65 69 88
-14.601102 8.550788 67.136353 59 63 81
-14.603076 8.696688 67.145432 58 61 79
-14.604527 8.842309 67.152107 63 64 81
-14.216123 -3.119090 66.020592 158 154 158
-14.210946 -2.975688 65.996552 160 155 159
-14.206010 -2.832438 65.973625 161 156 160
-14.201301 -2.689329 65.951759 162 157 160
-14.196793 -2.546350 65.930824 162 157 160
-14.192449 -2.403490 65.910652 161 155 158
-14.188225 -2.260736 65.891029 161 153 157
-14.184072 -2.118077 65.871750 162 153 158
-14.179940 -1.975504 65.852554 165 154 159
-14.175785 -1.833011 65.833260 166 153 159
-14.171567 -1.690593 65.813675 166 151 158
-14.167262 -1.548251 65.793678 165 151 158
-14.162859 -1.405985 65.773232 165 151 158
-14.158366 -1.263799 65.752365 163 150 156
-14.153809 -1.121698 65.731201 158 147 154
-14.149235 -0.979687 65.709961 156 145 152
-14.144706 -0.837770 65.688927 154 143 152
-14.140302 -0.695950 65.668472 152 141 149
-14.136108 -0.554226 65.649002 151 139 149
-14.132225 -0.412596 65.630966 151 138 148
-14.128748 -0.271051 65.614822 150 137 147
-14.125769 -0.129580 65.600983 150 136 146
-14.123372 0.011831 65.589851 149 136 145
-14.121628 0.153202 65.581749 149 136 144
-14.120590 0.294553 65.576935 147 136 143
-14.120296 0.435905 65.575562 145 135 142
-14.120756 0.577283 65.577705 143 135 141
-14.121971 0.718708 65.583351 142 134 141
-14.123919 0.860202 65.592392 142 133 141
-14.126565 1.001785 65.604683 139 131 140
-14.129861 1.143474 65.619987 137 128 138
-14.133753 1.285282 65.638062 135 125 137
-14.138182 1.427222 65.658630 134 123 134
-14.143089 1.569305 65.681419 133 121 133
-14.148418 1.711537 65.706169 132 120 130
-14.154120 1.853924 65.732651 131 120 125
-14.160151 1.996472 65.760658 131 120 119
-14.166473 2.139184 65.790016 131 122 112
-14.173064 2.282066 65.820625 129 124 102
-14.179901 2.425123 65.852379 125 125 93
-14.186974 2.568359 65.885223 108 113 74
-14.194270 2.711779 65.919106 89 96 58
-14.201788 2.855390 65.954018 125 131 103
-14.209522 2.999197 65.989937 181 185 169
-14.217468 3.143206 66.026840 154 155 148
-14.225619 3.287421 66.064697 88 87 83
-14.233966 3.431847 66.103455 86 80 80
-14.242496 3.576485 66.143074 121 112 115
-14.251189 3.721338 66.183441 143 133 137
-14.260024 3.866402 66.224472 147 137 142
-14.268972 4.011676 66.266029 143 134 139
-14.278008 4.157154 66.307991 142 133 142
-14.287096 4.302828 66.350197 145 137 148
-14.296205 4.448691 66.392494 142 135 150
-14.305298 4.594732 66.434731 138 132 150
-14.314346 4.740940 66.476746 136 131 152
-14.323314 4.887301 66.518394 136 131 153
-14.332173 5.033804 66.559540 132 129 152
-14.340896 5.180435 66.600044 125 122 146
-14.349459 5.327181 66.639809 116 115 139
-14.357840 5.474029 66.678734 112 110 134
-14.366022 5.620968 66.716736 112 109 134
-14.373991 5.767984 66.753738 114 109 133
-14.381734 5.915068 66.789703 114 106 130
-14.389243 6.062207 66.824577 113 102 127
-14.396509 6.209393 66.858322 112 98 123
-14.403525 6.356613 66.890907 107 92 118
-14.410287 6.503859 66.922302 100 85 111
-14.416786 6.651119 66.952492 95 80 107
-14.423021 6.798385 66.981445 94 80 106
-14.428983 6.945644 67.009125 93 81 107
-14.434666 7.092885 67.035522 93 83 109
-14.440063 7.240098 67.060585 91 84 109
-14.445165 7.387267 67.084282 87 82 106
-14.449961 7.534379 67.106552 80 78 102
-14.454436 7.681416 67.127335 74 74 98
-14.458574 7.828361 67.146553 73 75 99
-14.462357 7.975192 67.164116 75 78 102
-14.465758 8.121884 67.179916 75 79 102
-14.468756 8.268414 67.193832 72 76 99
-14.471318 8.414752 67.205734 68 72 94
-14.473416 8.560866 67.215477 64 68 89
-14.475014 8.706721 67.222900 63 67 87
-14.476084 8.852284 67.227867 67 69 88
-14.476592 8.997521 67.230225 72 71 92
-14.476513 9.142397 67.229858 75 73 94
-14.475822 9.286880 67.226654 74 70 92
-14.121052 -3.700745 66.242226 150 148 155
-14.115394 -3.556523 66.215683 150 147 153
-14.109896 -3.412455 66.189896 152 149 155
-14.104588 -3.268542 66.164993 155 151 156
-14.099489 -3.124782 66.141075 158 153 157
-14.094610 -2.981173 66.118195 160 155 159
-14.089949 -2.837705 66.096329 161 156 159
-14.085489 -2.694371 66.075409 162 157 160
-14.081204 -2.551158 66.055305 163 157 160
-14.077062 -2.408056 66.035873 163 156 159
-14.073013 -2.265054 66.016876 161 152 156
-14.069013 -2.122140 65.998116 161 151 155
-14.065013 -1.979308 65.979355 165 153 157
-14.060969 -1.836550 65.960381 166 153 157
-14.056848 -1.693865 65.941048 164 149 153
-14.052622 -1.551252 65.921219 163 148 151
-14.048284 -1.408713 65.900871 165 151 155
-14.043841 -1.266253 65.880035 164 151 154
-14.039325 -1.123876 65.858849 158 147 150
-14.034780 -0.981589 65.837524 156 145 149
-14.030266 -0.839395 65.816353 156 145 150
-14.025864 -0.697298 65.795700 153 141 148
-14.021659 -0.555298 65.775978 151 139 148
-14.017749 -0.413392 65.757629 151 138 147
-14.014226 -0.271573 65.741104 150 137 147
-14.011182 -0.129829 65.726830 150 135 146
-14.008699 0.011854 65.715179 149 134 145
-14.006849 0.153493 65.706505 147 133 142
-14.005684 0.295110 65.701042 146 132 140
-14.005239 0.436725 65.698952 145 133 140
-14.005532 0.578362 65.700325 144 134 140
-14.006561 0.720043 65.705154 144 134 140
-14.008307 0.861789 65.713341 144 133 140
-14.010737 1.003618 65.724747 142 131 140
-14.013809 1.145550 65.739151 139 128 138
-14.017472 1.287598 65.756332 137 126 137
-14.021670 1.429775 65.776031 136 124 135
-14.026350 1.572090 65.797981 135 122 134
-14.031456 1.714552 65.821938 135 122 131
-14.036944 1.857168 65.847679 134 122 128
-14.042772 1.999943 65.875015 133 123 123
-14.048906 2.142884 65.903793 132 124 116
-14.055321 2.285993 65.933884 130 127 110
-14.061996 2.429277 65.965195 126 129 104
-14.068917 2.572742 65.997665 113 121 91
-14.076077 2.716392 66.031250 92 103 74
-14.083464 2.860234 66.065903 108 119 97
-14.091072 3.004272 66.101593 158 165 153
-14.098895 3.148511 66.138290 154 157 152
-14.106919 3.292956 66.175934 103 103 100
-14.115132 3.437609 66.214462 95 90 88
-14.123516 3.582472 66.253792 128 120 118
-14.132048 3.727544 66.293816 161 151 149
-14.140703 3.872821 66.334419 165 155 154
-14.149453 4.018301 66.375458 144 136 136
-14.158264 4.163975 66.416794 138 130 135
-14.167108 4.309837 66.458275 146 138 148
-14.175948 4.455878 66.499748 145 138 153
-14.184754 4.602087 66.541061 141 134 153
-14.193497 4.748451 66.582069 140 134 155
-14.202147 4.894961 66.622650 140 135 158
-14.210680 5.041605 66.662682 136 132 156
-14.219072 5.188369 66.702049 127 124 149
-14.227306 5.335244 66.740669 117 115 140
-14.235364 5.482217 66.778473 112 110 136
-14.243234 5.629280 66.815392 114 110 136
-14.250903 5.776420 66.851372 116 110 136
-14.258364 5.923628 66.886368 115 108 133
-14.265606 6.070895 66.920341 115 104 129
-14.272622 6.218209 66.953247 112 99 124
-14.279403 6.365560 66.985062 106 92 118
-14.285942 6.512938 67.015732 101 87 113
-14.292230 6.660332 67.045235 97 83 110
-14.298257 6.807729 67.073502 94 82 109
-14.304012 6.955115 67.100502 94 84 109
-14.309485 7.102478 67.126175 95 87 112
-14.314664 7.249802 67.150475 94 89 113
-14.319535 7.397072 67.173317 89 86 110
-14.324082 7.544270 67.194656 80 80 104
-14.328292 7.691379 67.214394 74 75 99
-14.332141 7.838376 67.232460 74 76 100
-14.335614 7.985240 67.248749 76 79 103
-14.338686 8.131948 67.263161 76 80 104
-14.341333 8.278474 67.275581 74 79 102
-14.343531 8.424788 67.285889 72 76 99
-14.345249 8.570860 67.293945 69 73 95
-14.346460 8.716659 67.299629 68 72 93
-14.347136 8.862152 67.302803 70 72 93
-14.347254 9.007308 67.303352 75 75 96
-14.346790 9.152096 67.301178 77 75 98
-14.345726 9.296484 67.296181 75 73 96
-14.344047 9.440447 67.288307 71 68 91
-14.341746 9.583961 67.277512 65 63 86
-14.018275 -4.140954 66.431877 150 150 157
-14.012812 -3.996192 66.405991 150 150 156
-14.007367 -3.851546 66.380188 151 150 155
-14.001987 -3.707028 66.354691 151 149 154
-13.996710 -3.562646 66.329681 151 148 153
-13.991574 -3.418407 66.305344 153 149 155
-13.986607 -3.274312 66.281807 155 151 155
-13.981828 -3.130361 66.259155 157 152 156
-13.977244 -2.986549 66.237442 159 154 157
-13.972857 -2.842871 66.216644 161 156 158
-13.968646 -2.699317 66.196693 163 157 160
-13.964590 -2.555876 66.177467 166 158 160
-13.960649 -2.412539 66.158798 165 157 159
-13.956785 -2.269295 66.140480 161 151 153
-13.952950 -2.126134 66.122307 160 149 151
-13.949097 -1.983049 66.104050 163 151 153
-13.945184 -1.840034 66.085503 165 151 153
-13.941179 -1.697089 66.066528 162 148 149
-13.937060 -1.554212 66.047005 160 146 147
-13.932817 -1.411407 66.026901 162 149 150
-13.928464 -1.268679 66.006271 162 149 151
-13.924025 -1.126033 65.985229 157 146 148
-13.919548 -0.983474 65.964012 157 146 149
-13.915092 -0.841009 65.942902 157 146 149
-13.910737 -0.698640 65.922264 155 143 148
-13.906566 -0.556367 65.902496 152 139 146
-13.902671 -0.414187 65.884041 151 136 145
-13.899146 -0.272094 65.867332 150 135 145
-13.896080 -0.130078 65.852806 149 133 144
-13.893553 0.011877 65.840828 147 131 142
-13.891634 0.153786 65.831734 145 129 139
-13.890376 0.295670 65.825775 143 129 137
-13.889816 0.437551 65.823120 143 130 137
-13.889970 0.579450 65.823845 145 133 139
-13.890838 0.721389 65.827965 145 134 141
-13.892406 0.863389 65.835396 146 134 141
-13.894645 1.005470 65.846001 143 132 140
-13.897513 1.147649 65.859596 140 129 138
-13.900966 1.289940 65.875954 139 127 137
-13.904950 1.432357 65.894836 138 125 136
-13.909417 1.574910 65.916008 138 124 135
-13.914316 1.717607 65.939224 137 123 132
-13.919605 1.860457 65.964287 136 123 129
-13.925242 2.003465 65.990997 135 123 124
-13.931198 2.146637 66.019226 133 125 120
-13.937447 2.289979 66.048836 131 127 116
-13.943968 2.433496 66.079742 129 129 113
-13.950747 2.577194 66.111870 120 125 106
-13.957774 2.721079 66.145172 103 110 94
-13.965036 2.865155 66.179581 100 107 97
-13.972523 3.009429 66.215057 128 134 128
-13.980221 3.153903 66.251541 136 138 137
-13.988118 3.298581 66.288971 111 110 108
-13.996194 3.443465 66.327240 108 103 99
-14.004428 3.588554 66.366257 141 133 127
-14.012794 3.733846 66.405899 185 176 169
-14.021262 3.879338 66.446037 186 177 171
-14.029803 4.025023 66.486511 145 137 134
-14.038384 4.170895 66.527176 130 123 126
-14.046972 4.316945 66.567879 142 134 143
-14.055536 4.463162 66.608459 145 138 153
-14.064046 4.609537 66.648788 143 136 155
-14.072475 4.756058 66.688728 143 137 158
-14.080799 4.902715 66.728180 143 137 161
-14.088997 5.049496 66.767029 138 133 158
-14.097051 5.196392 66.805191 127 124 150
-14.104946 5.343392 66.842613 118 116 142
-14.112674 5.490489 66.879227 115 112 139
-14.120221 5.637671 66.915001 117 113 140
-14.127583 5.784932 66.949883 118 113 139
-14.134748 5.932261 66.983841 116 109 134
-14.141713 6.079649 67.016846 114 105 130
-14.148467 6.227088 67.048851 111 100 125
-14.155002 6.374566 67.079819 107 95 120
-14.161306 6.522071 67.109695 103 90 116
-14.167369 6.669590 67.138428 99 87 113
-14.173175 6.817111 67.165939 96 84 110
-14.178709 6.964617 67.192169 95 85 110
-14.183958 7.112092 67.217041 96 88 113
-14.188902 7.259519 67.240471 95 89 114
-14.193527 7.406880 67.262390 89 86 110
-14.197811 7.554155 67.282692 81 80 104
-14.201738 7.701323 67.301300 76 76 100
-14.205286 7.848362 67.318115 75 77 101
-14.208435 7.995249 67.333038 76 80 104
-14.211164 8.141960 67.345970 76 81 105
-14.213449 8.288468 67.356796 76 81 105
-14.215268 8.434746 67.365417 75 80 103
-14.216597 8.580765 67.371719 72 77 100
-14.217412 8.726496 67.375580 72 74 97
-14.217691 8.871909 67.376907 72 74 97
-14.217415 9.016976 67.375595 74 75 98
-14.216565 9.161668 67.371567 75 75 98
-14.215128 9.305957 67.364754 74 73 97
-14.213096 9.449821 67.355125 72 71 95
-14.210464 9.593239 67.342651 68 68 92
-14.207233 9.736194 67.327347 66 66 90
-14.203413 9.878672 67.309235 65 66 91
-14.199013 10.020662 67.288383 66 69 92
-13.911658 -4.582621 66.607056 145 143 153
-13.906861 -4.437508 66.584091 147 145 153
-13.901948 -4.292458 66.560570 149 148 154
-13.896955 -4.147486 66.536659 150 150 155
-13.891921 -4.002604 66.512558 150 150 154
-13.886889 -3.857828 66.488464 151 149 153
-13.881903 -3.713168 66.464592 152 149 153
-13.877002 -3.568632 66.441124 153 149 153
-13.872221 -3.424227 66.418236 154 150 154
-13.867588 -3.279956 66.396057 155 151 154
-13.863121 -3.135818 66.374664 156 151 154
-13.858830 -2.991810 66.354126 158 153 155
-13.854709 -2.847926 66.334396 161 156 157
-13.850746 -2.704158 66.315422 165 158 158
-13.846914 -2.560496 66.297073 166 158 158
-13.843181 -2.416929 66.279198 164 155 155
-13.839502 -2.273450 66.261581 161 150 149
-13.835837 -2.130048 66.244034 160 148 148
-13.832142 -1.986717 66.226341 161 148 148
-13.828374 -1.843453 66.208305 163 149 149
-13.824506 -1.700255 66.189781 161 147 147
-13.820515 -1.557122 66.170677 159 146 145
-13.816396 -1.414059 66.150955 159 146 146
-13.812160 -1.271070 66.130669 159 146 146
-13.807833 -1.128161 66.109955 157 145 145
-13.803460 -0.985338 66.089020 158 147 148
-13.799104 -0.842607 66.068161 160 148 150
-13.794836 -0.699969 66.047729 158 144 148
-13.790740 -0.557427 66.028114 152 138 144
-13.786904 -0.414977 66.009750 150 134 141
-13.783421 -0.272614 65.993073 149 133 142
-13.780374 -0.130326 65.978485 148 132 141
-13.777842 0.011899 65.966362 146 130 140
-13.775893 0.154079 65.957031 144 128 138
-13.774580 0.296232 65.950745 142 128 135
-13.773938 0.438379 65.947670 142 129 136
-13.773984 0.580542 65.947891 145 133 139
-13.774722 0.722742 65.951424 146 135 141
-13.776140 0.865000 65.958214 146 135 141
-13.778211 1.007335 65.968132 143 132 140
-13.780899 1.149764 65.981003 141 129 139
-13.784163 1.292303 65.996628 140 128 138
-13.787955 1.434964 66.014786 139 126 137
-13.792228 1.577759 66.035240 139 125 135
-13.796937 1.720696 66.057785 138 124 133
-13.802042 1.863783 66.082230 137 124 129
-13.807505 2.007029 66.108383 136 123 125
-13.813297 2.150438 66.136116 135 124 123
-13.819393 2.294017 66.165306 133 126 121
-13.825773 2.437772 66.195854 130 127 119
-13.832422 2.581709 66.227684 125 125 117
-13.839324 2.725833 66.260735 115 116 111
-13.846467 2.870149 66.294930 106 109 107
-13.853836 3.014662 66.330215 116 117 117
-13.861415 3.159375 66.366501 122 121 122
-13.869185 3.304290 66.403702 116 112 112
-13.877125 3.449408 66.441719 120 114 109
-13.885207 3.594726 66.480415 153 144 137
-13.893404 3.740242 66.519661 198 189 180
-13.901683 3.885950 66.559296 191 183 176
-13.910010 4.031844 66.599167 140 133 130
-13.918355 4.177914 66.639122 124 116 119
-13.926683 4.324151 66.678993 137 129 139
-13.934964 4.470545 66.718643 144 135 151
-13.943171 4.617085 66.757935 144 137 156
-13.951279 4.763762 66.796753 144 137 159
-13.959269 4.910563 66.835007 143 137 161
-13.967124 5.057482 66.872620 138 133 158
-13.974831 5.204507 66.909515 129 124 151
-13.982381 5.351631 66.945663 121 117 144
-13.989766 5.498846 66.981026 118 114 141
-13.996984 5.646146 67.015579 119 115 142
-14.004025 5.793522 67.049294 119 114 140
-14.010886 5.940967 67.082146 117 109 134
-14.017561 6.088473 67.114105 113 104 129
-14.024041 6.236030 67.145134 110 100 125
-14.030315 6.383626 67.175171 108 98 123
-14.036371 6.531251 67.204163 106 95 120
-14.042192 6.678890 67.232033 101 89 114
-14.047762 6.826526 67.258698 96 84 109
-14.053060 6.974142 67.284065 94 84 109
-14.058066 7.121720 67.308037 95 87 112
-14.062761 7.269240 67.330513 93 87 112
-14.067122 7.416681 67.351395 87 83 108
-14.071129 7.564022 67.370575 81 79 104
-14.074759 7.711239 67.387955 76 76 101
-14.077990 7.858309 67.403427 76 77 103
-14.080802 8.005207 67.416893 77 79 105
-14.083175 8.151908 67.428253 79 82 107
-14.085089 8.298388 67.437416 79 83 107
-14.086522 8.444620 67.444283 77 81 106
-14.087456 8.590576 67.448746 75 78 101
-14.087871 8.736231 67.450737 72 75 98
-14.087750 8.881556 67.450165 72 73 96
-14.087079 9.026525 67.446953 73 74 97
-14.085848 9.171117 67.441055 74 75 98
-14.084045 9.315305 67.432426 74 75 98
-14.081669 9.459070 67.421043 74 75 98
-14.078717 9.602394 67.406914 72 73 97
-14.075197 9.745263 67.390060 71 72 96
-14.071115 9.887665 67.370514 70 72 95
-14.066486 10.029593 67.348358 70 73 95
-14.061328 10.171041 67.323654 70 73 94
-14.055657 10.312008 67.296501 70 73 93
-13.799885 -5.024951 66.760941 136 136 145
-13.796106 -4.879700 66.742661 139 138 147
-13.792128 -4.734459 66.723412 141 140 149
-13.787964 -4.589241 66.703270 143 141 150
-13.783639 -4.444056 66.682343 145 143 151
-13.779180 -4.298921 66.660774 147 146 152
-13.774625 -4.153849 66.638741 149 147 153
-13.770012 -4.008855 66.616425 150 148 152
-13.765386 -3.863954 66.594040 151 148 152
-13.760785 -3.719156 66.571785 152 149 152
-13.756250 -3.574471 66.549850 153 150 153
-13.751817 -3.429907 66.528397 155 151 154
-13.747510 -3.285465 66.507561 156 151 154
-13.743348 -3.141145 66.487427 157 152 152
-13.739340 -2.996947 66.468033 158 152 153
-13.735480 -2.852862 66.449371 161 154 154
-13.731757 -2.708885 66.431351 165 156 155
-13.728146 -2.565007 66.413887 165 155 154
-13.724614 -2.421218 66.396797 163 152 151
-13.721122 -2.277509 66.379906 162 150 148
-13.717630 -2.133873 66.363014 161 148 146
-13.714097 -1.990304 66.345917 160 147 146
-13.710486 -1.846799 66.328453 160 146 146
-13.706767 -1.703355 66.310455 160 145 145
-13.702924 -1.559974 66.291862 159 144 144
-13.698950 -1.416660 66.272636 158 144 145
-13.694856 -1.273418 66.252838 157 144 145
-13.690671 -1.130254 66.232590 156 143 145
-13.686439 -0.987173 66.212112 158 145 147
-13.682216 -0.844182 66.191681 160 147 150
-13.678073 -0.701283 66.171646 158 143 148
-13.674092 -0.558476 66.152382 153 137 144
-13.670358 -0.415760 66.134315 150 133 141
-13.666955 -0.273129 66.117859 149 132 141
-13.663969 -0.130573 66.103409 149 132 140
-13.661472 0.011922 66.091331 148 131 140
-13.659534 0.154371 66.081947 146 130 139
-13.658201 0.296792 66.075508 145 130 138
-13.657512 0.439206 66.072174 145 131 138
-13.657484 0.581635 66.072037 146 134 140
-13.658124 0.724097 66.075134 148 136 142
-13.659421 0.866615 66.081406 146 135 141
-13.661352 1.009207 66.090752 144 132 139
-13.663885 1.151890 66.103004 141 129 139
-13.666984 1.294680 66.117996 140 127 138
-13.670605 1.437589 66.135513 140 126 137
-13.674706 1.580629 66.155357 139 124 134
-13.679246 1.723809 66.177315 138 124 132
-13.684187 1.867139 66.201218 138 124 130
-13.689492 2.010626 66.226891 137 123 127
-13.695139 2.154277 66.254204 137 124 125
-13.701097 2.298098 66.283028 135 125 125
-13.707351 2.442096 66.313278 133 125 125
-13.713881 2.586277 66.344872 129 124 125
-13.720671 2.730645 66.377724 123 120 122
-13.727704 2.875206 66.411743 118 115 120
-13.734963 3.019964 66.446869 120 116 122
-13.742431 3.164921 66.482986 123 118 122
-13.750080 3.310077 66.519997 123 116 119
-13.757886 3.455432 66.557762 131 122 120
-13.765821 3.600984 66.596146 156 146 141
-13.773849 3.746727 66.634979 188 177 172
-13.781938 3.892654 66.674118 176 166 162
-13.790051 4.038757 66.713371 133 124 124
-13.798157 4.185027 66.752586 121 113 118
-13.806221 4.331453 66.791595 134 126 137
-13.814217 4.478025 66.830276 142 134 151
-13.822116 4.624732 66.868492 144 137 156
-13.829898 4.771563 66.906143 144 137 160
-13.837548 4.918509 66.943153 143 137 161
-13.845055 5.065562 66.979462 138 133 158
-13.852407 5.212715 67.015038 131 126 152
-13.859604 5.359960 67.049850 124 120 146
-13.866641 5.507291 67.083893 122 117 143
-13.873516 5.654704 67.117157 122 116 143
-13.880227 5.802191 67.149620 120 113 139
-13.886772 5.949747 67.181282 115 107 132
-13.893145 6.097364 67.212112 111 101 126
-13.899335 6.245032 67.242065 109 99 124
-13.905334 6.392741 67.271080 110 100 125
-13.911123 6.540477 67.299088 108 98 123
-13.916686 6.688224 67.326004 102 92 117
-13.922001 6.835967 67.351715 95 84 109
-13.927044 6.983683 67.376114 93 83 108
-13.931792 7.131353 67.399078 93 84 110
-13.936220 7.278955 67.420502 91 84 110
-13.940302 7.426466 67.440247 86 80 106
-13.944013 7.573860 67.458199 80 76 102
-13.947330 7.721114 67.474251 76 74 101
-13.950233 7.868202 67.488289 77 76 103
-13.952698 8.015100 67.500221 79 79 105
-13.954705 8.161783 67.509933 80 82 108
-13.956239 8.308224 67.517349 81 83 109
-13.957281 8.454400 67.522392 80 81 106
-13.957816 8.600286 67.524979 75 76 101
-13.957829 8.745854 67.525047 71 72 96
-13.957312 8.891087 67.522545 70 71 94
-13.956251 9.035955 67.517410 72 73 95
-13.954643 9.180443 67.509636 75 76 98
-13.952485 9.324529 67.499191 76 78 99
-13.949777 9.468195 67.486084 76 78 98
-13.946521 9.611429 67.470337 75 77 97
-13.942727 9.754218 67.451988 74 76 96
-13.938406 9.896554 67.431076 74 76 96
-13.933572 10.038430 67.407692 73 75 95
-13.928243 10.179843 67.381912 73 75 94
-13.922437 10.320792 67.353821 72 74 92
-13.916175 10.461276 67.323524 70 72 91
-13.909476 10.601297 67.291122 69 71 90
-13.682247 -5.467192 66.889397 126 128 137
-13.679624 -5.321981 66.876579 129 130 139
-13.676790 -5.176745 66.862724 131 132 140
-13.673736 -5.031487 66.847794 134 134 142
-13.670459 -4.886215 66.831772 137 135 144
-13.666967 -4.740937 66.814705 139 137 145
-13.663276 -4.595665 66.796654 141 139 147
-13.659408 -4.450414 66.777740 143 141 148
-13.655391 -4.305197 66.758110 145 143 149
-13.651262 -4.160031 66.737923 147 146 150
-13.647061 -4.014931 66.717384 149 148 151
-13.642827 -3.869910 66.696686 150 148 152
-13.638603 -3.724980 66.676033 151 148 151
-13.634427 -3.580153 66.655617 152 149 152
-13.630330 -3.435433 66.635590 155 150 152
-13.626339 -3.290825 66.616081 157 151 152
-13.622473 -3.146330 66.597176 157 151 151
-13.618737 -3.001946 66.578911 158 152 150
-13.615129 -2.857667 66.561279 160 152 150
-13.611638 -2.713487 66.544212 161 152 150
-13.608240 -2.569399 66.527596 162 152 149
-13.604906 -2.425393 66.511299 163 151 148
-13.601597 -2.281462 66.495125 163 150 147
-13.598279 -2.137600 66.478897 162 148 145
-13.594912 -1.993800 66.462440 159 146 144
-13.591462 -1.850060 66.445572 159 145 144
-13.587903 -1.706378 66.428177 158 143 144
-13.584221 -1.562758 66.410172 157 142 143
-13.580408 -1.419202 66.391533 156 141 143
-13.576481 -1.275715 66.372337 156 143 144
-13.572463 -1.132303 66.352692 156 142 145
-13.568398 -0.988973 66.332825 156 142 146
-13.564342 -0.845729 66.312988 157 142 148
-13.560361 -0.702574 66.293526 156 140 147
-13.556530 -0.559510 66.274803 155 138 145
-13.552935 -0.416533 66.257217 153 136 143
-13.549653 -0.273638 66.241180 152 135 143
-13.546765 -0.130817 66.227066 152 134 142
-13.544344 0.011944 66.215225 151 134 142
-13.542452 0.154660 66.205978 150 134 142
-13.541138 0.297349 66.199554 149 134 142
-13.540438 0.440030 66.196129 149 134 141
-13.540371 0.582724 66.195801 149 136 142
-13.540943 0.725451 66.198601 149 136 142
-13.542150 0.868230 66.204498 147 135 141
-13.543970 1.011080 66.213394 145 132 140
-13.546376 1.154019 66.225159 142 129 138
-13.549336 1.297061 66.239632 141 127 138
-13.552812 1.440221 66.256622 141 126 138
-13.556764 1.583510 66.275940 140 124 135
-13.561156 1.726938 66.297417 138 122 131
-13.565953 1.870514 66.320869 139 123 130
-13.571124 2.014247 66.346146 139 123 128
-13.576641 2.158144 66.373116 139 123 128
-13.582481 2.302212 66.401672 139 124 128
-13.588624 2.446457 66.431702 138 124 130
-13.595051 2.590886 66.463120 135 124 130
-13.601743 2.735504 66.495834 129 120 127
-13.608681 2.880315 66.529747 125 117 126
-13.615844 3.025323 66.564766 127 117 127
-13.623207 3.170528 66.600769 130 120 127
-13.630745 3.315930 66.637619 132 121 126
-13.638426 3.461528 66.675171 139 128 129
-13.646216 3.607316 66.713257 153 142 141
-13.654082 3.753290 66.751709 165 153 152
-13.661984 3.899440 66.790344 152 141 142
-13.669888 4.045756 66.828979 127 116 120
-13.677756 4.192228 66.867447 120 111 120
-13.685558 4.338846 66.905586 131 122 136
-13.693266 4.485597 66.943268 140 132 150
-13.700857 4.632470 66.980385 143 136 156
-13.708312 4.779457 67.016830 143 137 160
-13.715620 4.926548 67.052559 143 137 161
-13.722775 5.073735 67.087532 139 134 159
-13.729770 5.221014 67.121727 133 128 154
-13.736607 5.368377 67.155151 128 123 149
-13.743286 5.515822 67.187805 125 120 146
-13.749811 5.663343 67.219704 125 119 145
-13.756181 5.810937 67.250847 121 114 139
-13.762396 5.958599 67.281235 112 104 130
-13.768452 6.106320 67.310837 107 97 123
-13.774337 6.254092 67.339607 108 97 123
-13.780042 6.401904 67.367500 110 100 125
-13.785548 6.549741 67.394417 110 99 125
-13.790834 6.697588 67.420258 104 92 119
-13.795876 6.845425 67.444908 96 84 111
-13.800645 6.993230 67.468224 92 81 108
-13.805114 7.140981 67.490074 91 81 109
-13.809256 7.288652 67.510315 89 79 108
-13.813041 7.436220 67.528824 84 76 104
-13.816442 7.583656 67.545448 77 71 99
-13.819433 7.730935 67.560074 75 71 99
-13.821993 7.878030 67.572586 77 74 102
-13.824099 8.024917 67.582886 80 77 105
-13.825734 8.171569 67.590881 81 79 107
-13.826882 8.317963 67.596489 82 81 108
-13.827530 8.464074 67.599655 79 79 105
-13.827665 8.609880 67.600319 73 73 98
-13.827280 8.755361 67.598434 69 69 93
-13.826368 8.900493 67.593979 69 70 93
-13.824925 9.045259 67.586929 73 74 96
-13.822952 9.189642 67.577278 77 80 100
-13.820449 9.333625 67.565041 79 82 101
-13.817422 9.477196 67.550240 77 80 99
-13.813878 9.620343 67.532913 76 79 97
-13.809829 9.763059 67.513123 77 79 97
-13.805287 9.905336 67.490921 77 79 97
-13.800271 10.047172 67.466393 76 78 96
-13.794796 10.188562 67.439629 75 76 94
-13.788882 10.329510 67.410713 73 73 91
-13.782547 10.470012 67.379745 70 70 88
-13.775812 10.610073 67.346825 68 68 87
-13.768694 10.749693 67.312019 68 66 87
-13.761213 10.888875 67.275452 68 65 87
-13.557233 -5.763727 66.984146 118 120 130
-13.555518 -5.618621 66.975677 121 123 133
-13.553619 -5.473477 66.966293 125 126 135
-13.551515 -5.328293 66.955902 127 128 136
-13.549186 -5.183068 66.944389 130 130 138
-13.546623 -5.037805 66.931725 132 132 139
-13.543825 -4.892512 66.917908 135 133 141
-13.540800 -4.747200 66.902962 136 134 141
-13.537562 -4.601879 66.886963 138 136 142
-13.534134 -4.456564 66.870026 140 138 144
-13.530546 -4.311272 66.852295 142 141 146
-13.526831 -4.166016 66.833939 145 144 148
-13.523027 -4.020814 66.815147 148 147 150
-13.519177 -3.875679 66.796127 149 148 151
-13.515318 -3.730624 66.777054 149 147 150
-13.511487 -3.585659 66.758133 150 147 150
-13.507717 -3.440790 66.739502 153 149 151
-13.504032 -3.296023 66.721298 156 151 151
-13.500449 -3.151358 66.703590 157 151 150
-13.496977 -3.006794 66.686440 158 150 148
-13.493611 -2.862326 66.669807 158 149 147
-13.490343 -2.717950 66.653656 159 149 146
-13.487149 -2.573658 66.637878 160 149 144
-13.484005 -2.429443 66.622345 162 149 145
-13.480876 -2.285297 66.606888 163 150 146
-13.477728 -2.141215 66.591331 162 148 144
-13.474526 -1.997192 66.575508 159 144 142
-13.471242 -1.853226 66.559280 159 143 142
-13.467850 -1.709316 66.542526 159 143 144
-13.464339 -1.565464 66.525177 156 140 142
-13.460704 -1.421675 66.507217 155 138 142
-13.456960 -1.277952 66.488716 157 140 145
-13.453132 -1.134302 66.469803 157 141 146
-13.449260 -0.990730 66.450676 155 138 145
-13.445397 -0.847242 66.431587 153 137 145
-13.441607 -0.703839 66.412865 155 138 146
-13.437963 -0.560523 66.394852 157 139 147
-13.434539 -0.417292 66.377937 156 138 146
-13.431414 -0.274140 66.362495 156 138 146
-13.428661 -0.131058 66.348900 155 137 145
-13.426352 0.011966 66.337486 154 137 145
-13.424543 0.154947 66.328552 153 137 145
-13.423284 0.297901 66.322327 152 137 145
-13.422607 0.440847 66.318985 152 137 144
-13.422535 0.583805 66.318626 151 137 143
-13.423075 0.726795 66.321297 150 137 143
-13.424222 0.869836 66.326965 149 135 142
-13.425961 1.012946 66.335556 146 133 141
-13.428269 1.156142 66.346962 144 130 140
-13.431118 1.299439 66.361038 143 128 138
-13.434474 1.442851 66.377617 142 126 138
-13.438302 1.586391 66.396538 141 124 135
-13.442572 1.730069 66.417625 139 122 132
-13.447248 1.873895 66.440735 140 122 131
-13.452304 2.017877 66.465714 140 122 129
-13.457713 2.162024 66.492439 140 123 129
-13.463454 2.306342 66.520805 141 123 130
-13.469506 2.450840 66.550705 141 124 133
-13.475848 2.595522 66.582039 139 124 133
-13.482459 2.740395 66.614708 133 120 129
-13.489317 2.885460 66.648590 129 116 126
-13.496397 3.030722 66.683571 130 117 127
-13.503673 3.176181 66.719513 133 120 128
-13.511110 3.321834 66.756264 137 124 131
-13.518677 3.467679 66.793655 145 131 136
-13.526335 3.613709 66.831490 151 137 141
-13.534045 3.759918 66.869583 149 136 140
-13.541769 3.906294 66.907745 137 125 131
-13.549468 4.052827 66.945786 122 111 120
-13.557105 4.199505 66.983521 119 109 121
-13.564650 4.346317 67.020790 128 119 134
-13.572075 4.493249 67.057480 137 129 148
-13.579360 4.640292 67.093475 142 135 155
-13.586490 4.787436 67.128700 144 138 160
-13.593455 4.934671 67.163124 143 139 161
-13.600255 5.081993 67.196716 140 135 159
-13.606890 5.229396 67.229500 136 132 157
-13.613362 5.376877 67.261475 132 128 154
-13.619678 5.524432 67.292686 131 126 151
-13.625845 5.672059 67.323151 129 123 149
-13.631863 5.819755 67.352890 122 115 140
-13.637735 5.967514 67.381905 111 101 127
-13.643459 6.115333 67.410187 105 94 120
-13.649025 6.263200 67.437683 108 96 122
-13.654419 6.411106 67.464333 111 99 125
-13.659623 6.559035 67.490044 110 98 124
-13.664613 6.706970 67.514694 104 91 118
-13.669359 6.854889 67.538155 96 83 110
-13.673834 7.002769 67.560257 92 78 107
-13.678005 7.150588 67.580872 90 78 107
-13.681841 7.298316 67.599823 89 77 106
-13.685310 7.445925 67.616959 84 73 103
-13.688384 7.593390 67.632149 78 69 98
-13.691036 7.740681 67.645248 76 69 98
-13.693241 7.887772 67.656143 78 72 102
-13.694980 8.034636 67.664742 80 74 105
-13.696235 8.181248 67.670937 81 77 107
-13.696993 8.327584 67.674683 82 78 108
-13.697246 8.473624 67.675934 79 77 104
-13.696983 8.619347 67.674637 73 72 98
-13.696203 8.764730 67.670784 70 69 93
-13.694905 8.909761 67.664368 71 71 94
-13.693089 9.054422 67.655396 75 76 97
-13.690760 9.198700 67.643890 80 82 101
-13.687925 9.342583 67.629883 82 84 102
-13.684594 9.486060 67.613426 79 82 99
-13.680779 9.629127 67.594574 78 81 97
-13.676492 9.771775 67.573395 82 83 99
-13.671750 9.914002 67.549965 83 84 101
-13.666572 10.055806 67.524376 82 81 99
-13.660974 10.197187 67.496712 78 77 95
-13.654973 10.338145 67.467072 74 72 91
-13.648593 10.478683 67.435547 70 68 87
-13.641848 10.618800 67.402222 67 65 85
-13.634755 10.758501 67.367180 67 63 85
-13.627336 10.897788 67.330513 67 63 85
-13.619603 11.036664 67.292313 67 62 85
-13.611579 11.175136 67.252663 66 61 83
-13.428656 -6.059656 67.063148 112 112 122
-13.427742 -5.914688 67.058586 115 115 125
-13.426697 -5.769683 67.053368 117 119 129
-13.425487 -5.624631 67.047318 120 122 132
-13.424083 -5.479527 67.040314 125 124 134
-13.422462 -5.334367 67.032219 127 127 136
-13.420608 -5.189151 67.022957 130 129 137
-13.418510 -5.043883 67.012482 132 131 139
-13.416166 -4.898571 67.000778 134 132 140
-13.413586 -4.753225 66.987885 135 133 140
-13.410781 -4.607859 66.973877 135 133 140
-13.407776 -4.462485 66.958870 135 134 140
-13.404598 -4.317121 66.943001 138 137 143
-13.401282 -4.171782 66.926445 141 140 146
-13.397863 -4.026484 66.909370 145 144 148
-13.394383 -3.881242 66.891991 148 146 149
-13.390877 -3.736067 66.874481 148 146 149
-13.387382 -3.590970 66.857025 149 147 149
-13.383926 -3.445959 66.839767 151 148 150
-13.380536 -3.301039 66.822838 153 149 149
-13.377227 -3.156211 66.806313 155 150 148
-13.374006 -3.011474 66.790230 157 150 147
-13.370872 -2.866825 66.774574 158 150 146
-13.367817 -2.722259 66.759315 159 149 145
-13.364820 -2.577770 66.744347 160 148 144
-13.361858 -2.433352 66.729561 163 149 145
-13.358901 -2.288999 66.714790 164 150 146
-13.355921 -2.144706 66.699905 164 148 146
-13.352883 -2.000468 66.684738 161 143 142
-13.349766 -1.856285 66.669167 158 140 140
-13.346545 -1.712156 66.653084 159 141 143
-13.343212 -1.568083 66.636436 158 140 144
-13.339767 -1.424069 66.619232 156 138 142
-13.336220 -1.280120 66.601517 157 139 145
-13.332598 -1.136241 66.583427 157 140 147
-13.328940 -0.992437 66.565163 155 137 146
-13.325295 -0.848713 66.546959 153 136 145
-13.321724 -0.705071 66.529129 155 138 147
-13.318293 -0.561512 66.511986 158 139 148
-13.315072 -0.418034 66.495911 159 140 148
-13.312137 -0.274630 66.481247 158 140 148
-13.309555 -0.131294 66.468353 157 140 148
-13.307391 0.011988 66.457550 156 140 147
-13.305701 0.155228 66.449112 155 140 147
-13.304531 0.298444 66.443260 154 140 147
-13.303913 0.441653 66.440178 153 139 145
-13.303868 0.584873 66.439957 152 138 144
-13.304408 0.728125 66.442650 151 137 143
-13.305528 0.871426 66.448242 150 135 143
-13.307218 1.014795 66.456680 148 134 142
-13.309457 1.158248 66.467865 147 131 141
-13.312222 1.301801 66.481674 144 128 138
-13.315485 1.445467 66.497971 142 126 137
-13.319216 1.589260 66.516602 141 124 135
-13.323385 1.733189 66.537422 140 122 132
-13.327965 1.877267 66.560295 140 122 131
-13.332930 2.021501 66.585091 140 122 130
-13.338255 2.165901 66.611679 141 122 130
-13.343919 2.310474 66.639969 142 122 131
-13.349899 2.455227 66.669838 142 124 133
-13.356176 2.600167 66.701180 141 124 134
-13.362725 2.745297 66.733887 136 120 130
-13.369521 2.890622 66.767822 131 116 126
-13.376535 3.036144 66.802856 132 117 127
-13.383738 3.181860 66.838829 136 120 130
-13.391091 3.327770 66.875549 141 125 134
-13.398558 3.473866 66.912834 147 132 140
-13.406097 3.620144 66.950493 150 135 143
-13.413666 3.766592 66.988289 145 130 139
-13.421223 3.913199 67.026024 133 119 130
-13.428726 4.059954 67.063499 121 109 122
-13.436143 4.206842 67.100540 119 109 123
-13.443439 4.353851 67.136971 127 118 134
-13.450588 4.500968 67.172684 135 127 146
-13.457573 4.648182 67.207565 141 134 154
-13.464382 4.795485 67.241562 144 139 160
-13.471010 4.942867 67.274666 144 139 161
-13.477458 5.090323 67.306870 141 136 161
-13.483729 5.237851 67.338188 139 135 160
-13.489835 5.385447 67.368683 138 134 159
-13.495784 5.533109 67.398384 137 132 157
-13.501583 5.680838 67.427345 133 126 152
-13.507241 5.828630 67.455605 124 114 140
-13.512760 5.976482 67.483162 112 100 127
-13.518138 6.124390 67.510025 107 93 120
-13.523367 6.272344 67.536140 109 94 121
-13.528432 6.420333 67.561432 111 97 122
-13.533314 6.568342 67.585815 110 95 121
-13.537985 6.716352 67.609138 103 87 114
-13.542416 6.864340 67.631271 95 79 107
-13.546575 7.012283 67.652039 92 76 104
-13.550426 7.160153 67.671280 91 77 105
-13.553937 7.307922 67.688805 90 76 105
-13.557074 7.455562 67.704468 86 73 102
-13.559803 7.603040 67.718102 82 70 99
-13.562101 7.750331 67.729576 80 69 98
-13.563940 7.897404 67.738762 80 70 100
-13.565302 8.044233 67.745560 80 72 102
-13.566172 8.190795 67.749908 82 74 105
-13.566538 8.337067 67.751740 82 76 107
-13.566396 8.483027 67.751022 79 74 105
-13.565740 8.628658 67.747749 74 70 99
-13.564570 8.773943 67.741913 71 68 94
-13.562894 8.918870 67.733536 72 70 94
-13.560715 9.063424 67.722656 76 74 95
-13.558043 9.207597 67.709312 79 78 98
-13.554892 9.351380 67.693573 80 81 98
-13.551271 9.494769 67.675491 80 81 96
-13.547199 9.637757 67.655159 82 83 97
-13.542693 9.780345 67.632652 88 87 102
-13.537768 9.922528 67.608063 91 90 105
-13.532446 10.064310 67.581482 87 85 102
-13.526743 10.205690 67.553001 80 79 96
-13.520679 10.346671 67.522713 74 72 91
-13.514272 10.487255 67.490715 69 66 85
-13.507540 10.627446 67.457100 65 62 83
-13.500498 10.767244 67.421928 65 61 82
-13.493162 10.906654 67.385300 66 61 83
-13.485552 11.045680 67.347290 67 61 83
-13.477682 11.184328 67.307983 65 59 80
-13.469573 11.322605 67.267487 59 54 73
-13.296884 -6.354901 67.127731 122 119 130
-13.296626 -6.210076 67.126434 119 117 127
-13.296299 -6.065225 67.124779 118 116 126
-13.295866 -5.920333 67.122597 119 117 127
-13.295292 -5.775391 67.119698 120 119 129
-13.294548 -5.630388 67.115944 122 122 132
-13.293602 -5.485318 67.111168 125 124 134
-13.292430 -5.340178 67.105247 127 126 135
-13.291017 -5.194970 67.098114 130 128 137
-13.289352 -5.049696 67.089714 132 130 138
-13.287436 -4.904366 67.080040 134 132 139
-13.285274 -4.758989 67.069122 134 132 139
-13.282880 -4.613580 67.057037 133 131 138
-13.280278 -4.468152 67.043900 132 131 137
-13.277494 -4.322722 67.029846 134 134 139
-13.274561 -4.177305 67.015045 138 137 142
-13.271514 -4.031918 66.999657 142 141 145
-13.268390 -3.886574 66.983887 145 144 147
-13.265225 -3.741286 66.967911 148 145 149
-13.262053 -3.596066 66.951897 149 146 149
-13.258902 -3.450920 66.935982 150 147 149
-13.255795 -3.305854 66.920303 151 147 148
-13.252748 -3.160869 66.904915 153 148 148
-13.249768 -3.015967 66.889877 156 150 148
-13.246856 -2.871144 66.875175 158 150 148
-13.244003 -2.726396 66.860771 160 149 147
-13.241194 -2.581719 66.846588 161 148 145
-13.238408 -2.437107 66.832527 163 149 146
-13.235619 -2.292556 66.818443 166 150 148
-13.232800 -2.148060 66.804214 167 149 150
-13.229925 -2.003618 66.789703 162 143 144
-13.226974 -1.859226 66.774803 157 138 139
-13.223927 -1.714887 66.759422 159 140 142
-13.220779 -1.570603 66.743530 162 142 146
-13.217529 -1.426375 66.727119 159 140 145
-13.214192 -1.282210 66.710274 157 139 145
-13.210792 -1.138113 66.693108 159 140 148
-13.207364 -0.994087 66.675804 158 140 148
-13.203959 -0.850137 66.658607 156 138 148
-13.200628 -0.706265 66.641800 158 139 149
-13.197435 -0.562472 66.625679 160 140 149
-13.194448 -0.418754 66.610596 160 140 149
-13.191730 -0.275108 66.596878 159 141 148
-13.189349 -0.131524 66.584854 158 141 148
-13.187362 0.012009 66.574829 156 141 148
-13.185823 0.155504 66.567062 155 141 148
-13.184775 0.298976 66.561768 155 141 148
-13.184249 0.442443 66.559113 154 140 146
-13.184265 0.585923 66.559189 152 139 144
-13.184834 0.729434 66.562065 152 138 143
-13.185959 0.872993 66.567741 150 135 143
-13.187629 1.016620 66.576172 150 134 142
-13.189828 1.160329 66.587273 149 132 140
-13.192538 1.304137 66.600960 146 128 137
-13.195735 1.448057 66.617096 143 125 136
-13.199394 1.592102 66.635574 141 123 134
-13.203490 1.736285 66.656250 140 122 132
-13.207998 1.880615 66.679008 140 121 131
-13.212894 2.025103 66.703728 140 121 131
-13.218159 2.169758 66.730301 141 121 131
-13.223766 2.314587 66.758614 141 121 132
-13.229698 2.459599 66.788559 142 121 132
-13.235930 2.604799 66.820015 141 122 133
-13.242438 2.750192 66.852875 139 120 131
-13.249192 2.895781 66.886971 134 116 126
-13.256161 3.041565 66.922150 136 118 128
-13.263308 3.187545 66.958229 141 124 134
-13.270596 3.333715 66.995018 145 128 137
-13.277980 3.480069 67.032303 148 132 141
-13.285417 3.626598 67.069847 150 133 143
-13.292860 3.773291 67.107422 144 129 139
-13.300264 3.920134 67.144806 134 119 131
-13.307590 4.067114 67.181778 123 111 125
-13.314797 4.214217 67.218170 121 110 126
-13.321856 4.361428 67.253807 126 117 134
-13.328741 4.508733 67.288559 133 125 144
-13.335436 4.656122 67.322357 140 133 154
-13.341931 4.803585 67.355156 144 138 160
-13.348228 4.951115 67.386932 144 138 161
-13.354326 5.098708 67.417725 142 137 162
-13.360239 5.246359 67.447578 142 138 163
-13.365977 5.394069 67.476540 143 138 164
-13.371553 5.541837 67.504692 141 135 161
-13.376982 5.689663 67.532097 134 125 152
-13.382270 5.837546 67.558800 124 112 139
-13.387424 5.985485 67.584816 114 100 127
-13.392444 6.133474 67.610161 110 93 121
-13.397320 6.281505 67.634773 110 92 120
-13.402037 6.429565 67.658585 110 92 119
-13.406577 6.577642 67.681503 108 90 116
-13.410909 6.725713 67.703377 102 83 109
-13.415004 6.873757 67.724045 94 76 103
-13.418824 7.021746 67.743332 92 75 102
-13.422336 7.169653 67.761063 93 76 103
-13.425501 7.317449 67.777039 91 75 103
-13.428285 7.465101 67.791100 89 74 101
-13.430655 7.612579 67.803062 87 72 100
-13.432584 7.759854 67.812798 85 71 100
-13.434046 7.906896 67.820183 84 71 101
-13.435024 8.053680 67.825119 83 71 102
-13.435504 8.200181 67.827545 84 73 105
-13.435478 8.346378 67.827408 85 75 107
-13.434942 8.492252 67.824707 82 74 105
-13.433897 8.637788 67.819427 77 70 100
-13.432347 8.782970 67.811607 74 68 96
-13.430303 8.927790 67.801285 74 69 94
-13.427773 9.072237 67.788506 75 71 94
-13.424771 9.216306 67.773361 76 74 94
-13.421315 9.359993 67.755913 77 76 94
-13.417422 9.503294 67.736259 79 78 94
-13.413110 9.646209 67.714485 82 81 96
-13.408399 9.788739 67.690704 89 87 102
-13.403308 9.930885 67.665001 93 90 106
-13.397857 10.072651 67.637489 89 86 104
-13.392066 10.214038 67.608246 83 80 99
-13.385954 10.355050 67.577393 76 73 92
-13.379538 10.495690 67.545006 68 64 84
-13.372835 10.635964 67.511162 63 58 78
-13.365861 10.775873 67.475960 63 58 78
-13.358631 10.915421 67.439461 64 59 80
-13.351162 11.054613 67.401756 65 60 80
-13.343470 11.193456 67.362915 64 57 77
-13.335574 11.331958 67.323059 57 51 69
-13.327496 11.470132 67.282272 52 46 62
-13.319263 11.607995 67.240715 50 45 59
-13.162334 -6.649441 67.179565 137 134 147
-13.162584 -6.504748 67.180847 135 132 144
-13.162819 -6.360042 67.182037 132 129 141
-13.163010 -6.215311 67.183014 129 126 137
-13.163123 -6.070539 67.183594 127 123 134
-13.163126 -5.925714 67.183601 125 122 132
-13.162982 -5.780827 67.182869 124 122 132
-13.162660 -5.635865 67.181229 124 122 133
-13.162130 -5.490824 67.178528 126 124 135
-13.161370 -5.345701 67.174644 128 126 136
-13.160363 -5.200497 67.169510 131 129 137
-13.159101 -5.055218 67.163063 133 131 139
-13.157582 -4.909870 67.155312 134 132 139
-13.155812 -4.764464 67.146278 134 133 138
-13.153807 -4.619015 67.136040 133 133 137
-13.151587 -4.473537 67.124710 133 132 137
-13.149177 -4.328046 67.112411 133 134 138
-13.146610 -4.182558 67.099312 137 136 140
-13.143918 -4.037087 67.085571 140 139 143
-13.141137 -3.891650 67.071373 143 142 145
-13.138300 -3.746258 67.056892 146 144 148
-13.135439 -3.600921 67.042290 148 145 149
-13.132580 -3.455648 67.027702 150 146 150
-13.129745 -3.310445 67.013237 151 146 149
-13.126951 -3.165313 66.998970 153 147 148
-13.124203 -3.020253 66.984947 155 149 149
-13.121503 -2.875265 66.971161 157 150 149
-13.118846 -2.730345 66.957603 159 149 148
-13.116216 -2.585488 66.944183 160 148 147
-13.113598 -2.440692 66.930824 162 147 148
-13.110970 -2.295951 66.917404 165 149 150
-13.108310 -2.151263 66.903831 168 150 151
-13.105596 -2.006625 66.889977 163 144 146
-13.102810 -1.862037 66.875755 158 138 140
-13.099939 -1.717499 66.861107 160 140 143
-13.096979 -1.573014 66.846001 164 144 147
-13.093932 -1.428584 66.830444 161 142 146
-13.090814 -1.284214 66.814529 158 139 145
-13.087646 -1.139909 66.798363 161 142 148
-13.084465 -0.995672 66.782127 162 143 151
-13.081314 -0.851507 66.766045 159 141 151
-13.078244 -0.707416 66.750374 160 141 151
-13.075313 -0.563398 66.735413 161 141 150
-13.072579 -0.419451 66.721466 161 141 150
-13.070107 -0.275570 66.708847 160 141 150
-13.067954 -0.131747 66.697861 158 141 149
-13.066174 0.012030 66.688766 156 141 148
-13.064816 0.155772 66.681839 155 141 148
-13.063919 0.299495 66.677261 155 141 148
-13.063515 0.443215 66.675201 154 140 147
-13.063622 0.586949 66.675743 153 140 145
-13.064254 0.730715 66.678970 153 138 144
-13.065412 0.874530 66.684875 151 136 142
-13.067090 1.018411 66.693443 151 134 141
-13.069278 1.162374 66.704613 149 131 138
-13.071960 1.306435 66.718307 146 128 136
-13.075118 1.450607 66.734421 144 125 135
-13.078732 1.594905 66.752861 142 123 133
-13.082778 1.739339 66.773514 141 121 132
-13.087238 1.883922 66.796280 141 121 132
-13.092091 2.028665 66.821045 140 121 132
-13.097315 2.173575 66.847710 140 120 132
-13.102890 2.318663 66.876167 140 120 132
-13.108794 2.463935 66.906303 139 119 132
-13.115004 2.609398 66.937996 140 120 132
-13.121490 2.755056 66.971107 139 120 132
-13.128222 2.900911 67.005463 138 119 129
-13.135167 3.046963 67.040909 141 122 132
-13.142282 3.193209 67.077217 146 128 138
-13.149523 3.339644 67.114174 149 131 140
-13.156844 3.486259 67.151543 148 131 141
-13.164197 3.633045 67.189072 147 130 141
-13.171534 3.779987 67.226517 142 126 137
-13.178804 3.927072 67.263634 133 118 131
-13.185967 4.074283 67.300186 124 111 126
-13.192984 4.221604 67.335999 121 109 126
-13.199821 4.369020 67.370888 123 114 131
-13.206454 4.516519 67.404755 131 124 141
-13.212872 4.664086 67.437508 140 134 153
-13.219065 4.811713 67.469116 144 139 160
-13.225037 4.959393 67.499596 145 139 162
-13.230795 5.107121 67.528984 144 139 164
-13.236351 5.254897 67.557343 146 141 167
-13.241723 5.402720 67.584763 147 141 167
-13.246927 5.550591 67.611320 142 133 161
-13.251980 5.698510 67.637108 132 121 150
-13.256891 5.846479 67.662178 123 109 137
-13.261671 5.994497 67.686577 115 99 128
-13.266317 6.142558 67.710289 111 92 121
-13.270824 6.290655 67.733292 111 90 118
