ply
format ascii 1.0
element vertex 1258
property float x
property float y
property float z
property uchar red
property uchar green
property uchar blue
end_header
5.324874 13.701307 47.402935 83 41 46
5.323603 13.800198 47.391621 82 41 45
5.322197 13.898685 47.379101 81 41 45
5.704176 -1.172441 49.823437 126 54 77
5.703699 -1.064949 49.819267 125 53 75
5.703236 -0.957478 49.815220 125 54 74
5.702870 -0.850038 49.812027 125 55 74
5.702680 -0.742635 49.810364 125 55 75
5.702735 -0.635267 49.810844 124 55 75
5.703101 -0.527926 49.814041 124 56 77
5.703842 -0.420598 49.820511 124 56 78
5.705014 -0.313266 49.830750 126 56 81
5.706670 -0.205908 49.845215 128 57 84
5.708860 -0.098496 49.864342 129 58 84
5.711628 0.008999 49.888527 128 57 82
5.715015 0.116611 49.918106 127 57 79
5.719051 0.224376 49.953362 127 58 78
5.723762 0.332332 49.994499 126 58 78
5.729164 0.440519 50.041683 124 55 75
5.735265 0.548976 50.094982 123 55 74
5.742064 0.657742 50.154362 124 55 75
5.749545 0.766856 50.219707 125 56 75
5.757685 0.876352 50.290810 126 55 75
5.766448 0.986261 50.367352 125 55 75
5.775786 1.096609 50.448910 125 54 75
5.785641 1.207416 50.534992 124 53 74
5.795946 1.318697 50.625000 123 52 73
5.806624 1.430458 50.718273 123 52 72
5.817593 1.542698 50.814075 122 51 72
5.828760 1.655408 50.911613 121 51 71
5.840032 1.768570 51.010075 121 51 70
5.851314 1.882159 51.108608 121 52 69
5.862505 1.996143 51.206364 121 53 69
5.873509 2.110480 51.302479 122 53 70
5.884228 2.225125 51.396107 123 54 71
5.894572 2.340024 51.486450 125 55 72
5.904449 2.455118 51.572720 125 56 72
5.913775 2.570345 51.654186 126 56 71
5.922473 2.685638 51.730164 126 55 71
5.930472 2.800929 51.800026 127 55 71
5.937706 2.916145 51.863209 127 55 70
5.944118 3.031215 51.919224 127 54 69
5.949662 3.146066 51.967640 127 54 69
5.954297 3.260629 52.008121 127 53 68
5.957993 3.374835 52.040405 126 52 67
5.960727 3.488616 52.064289 126 52 65
5.962489 3.601914 52.079674 125 51 63
5.963272 3.714668 52.086517 124 51 62
5.963080 3.826826 52.084846 123 50 61
5.961926 3.938340 52.074757 123 50 61
5.959823 4.049167 52.056389 122 50 60
5.956794 4.159268 52.029934 121 50 61
5.952865 4.268610 51.995613 120 49 61
5.948062 4.377161 51.953671 120 48 62
5.942418 4.484896 51.904369 121 49 65
5.935966 4.591794 51.848015 122 50 67
5.928741 4.697834 51.784904 121 49 67
5.920781 4.803009 51.715378 120 48 66
5.912129 4.907308 51.639805 118 48 65
5.902833 5.010735 51.558613 118 48 65
5.892947 5.113300 51.472263 117 48 64
5.882532 5.215024 51.381290 116 49 64
5.871656 5.315938 51.286301 116 50 64
5.860398 5.416089 51.187962 116 49 63
5.848840 5.515533 51.087006 115 48 63
5.837074 5.614343 50.984234 115 48 63
5.825196 5.712599 50.880486 115 48 63
5.813304 5.810394 50.776615 114 48 62
5.801495 5.907826 50.673466 113 47 61
5.789861 6.004995 50.571854 112 47 60
5.778488 6.102001 50.472515 111 46 58
5.767449 6.198938 50.376095 110 45 56
5.756805 6.295892 50.283127 111 45 56
5.746602 6.392934 50.194004 113 46 56
5.736868 6.490124 50.108982 114 47 57
5.727617 6.587501 50.028175 114 48 58
5.718844 6.685090 49.951550 114 48 58
5.710536 6.782900 49.878979 113 47 57
5.702664 6.880925 49.810226 113 46 57
5.695196 6.979147 49.744995 111 45 57
5.688094 7.077544 49.682961 109 45 58
5.681322 7.176090 49.623814 108 44 59
5.674848 7.274763 49.567265 108 44 60
5.668645 7.373544 49.513081 107 44 60
5.662695 7.472426 49.461113 107 44 60
5.656991 7.571414 49.411293 107 44 60
5.651534 7.670520 49.363621 107 44 60
5.646332 7.769774 49.318192 107 45 59
5.641404 7.869213 49.275143 106 45 57
5.636768 7.968880 49.234650 104 46 56
5.632445 8.068821 49.196896 101 46 54
5.628455 8.169081 49.162041 96 46 52
5.624809 8.269697 49.130196 92 45 49
5.621514 8.370700 49.101418 87 43 47
5.618565 8.472098 49.075657 81 42 45
5.615946 8.573891 49.052784 76 40 44
5.613628 8.676049 49.032536 72 38 42
5.611571 8.778529 49.014565 69 37 42
5.609722 8.881261 48.998417 67 36 43
5.608020 8.984158 48.983551 66 35 44
5.606394 9.087115 48.969353 67 34 45
5.604771 9.190014 48.955170 69 34 47
5.603070 9.292726 48.940319 72 34 48
5.601215 9.395112 48.924114 74 34 47
5.599128 9.497036 48.905884 77 33 46
5.596737 9.598360 48.885002 79 33 43
5.593977 9.698956 48.860897 82 32 42
5.590793 9.798702 48.833084 85 31 42
5.587140 9.897498 48.801174 89 33 43
5.582985 9.995257 48.764877 94 35 46
5.578309 10.091919 48.724037 98 38 48
5.573110 10.187448 48.678623 101 40 50
5.567397 10.281832 48.628723 102 42 51
5.561196 10.375091 48.574562 103 42 52
5.554549 10.467276 48.516506 102 42 50
5.547511 10.558464 48.455029 101 42 49
5.540147 10.648763 48.390709 100 42 49
5.532535 10.738303 48.324223 99 43 48
5.524761 10.827239 48.256321 97 43 49
5.516915 10.915740 48.187794 97 44 50
5.509091 11.003987 48.119450 96 43 52
5.501380 11.092171 48.052101 96 43 56
5.493874 11.180479 47.986538 95 43 59
5.486655 11.269094 47.923485 94 43 61
5.479797 11.358186 47.863579 94 43 61
5.473362 11.447905 47.807373 94 43 61
5.467401 11.538382 47.755306 97 45 61
5.461951 11.629721 47.707703 104 51 64
5.457032 11.721996 47.664738 116 64 73
5.452651 11.815252 47.626472 130 78 84
5.448802 11.909507 47.592857 134 80 84
5.445467 12.004747 47.563721 122 67 71
5.442612 12.100932 47.538784 103 49 53
5.440199 12.198000 47.517712 93 41 46
5.438181 12.295869 47.500084 94 43 49
5.436506 12.394444 47.485455 95 45 52
5.435121 12.493623 47.473354 93 45 52
5.433970 12.593293 47.463306 93 45 53
5.433002 12.693345 47.454845 92 45 53
5.432166 12.793674 47.447548 91 44 53
5.431417 12.894177 47.441010 91 44 54
5.430716 12.994765 47.434879 90 45 53
5.430026 13.095355 47.428852 89 45 52
5.429318 13.195876 47.422672 89 45 52
5.428569 13.296268 47.416126 90 46 53
5.427758 13.396480 47.409042 91 47 54
5.426869 13.496468 47.401283 91 46 52
5.425891 13.596196 47.392735 87 43 49
5.424813 13.695637 47.383316 85 42 47
5.423629 13.794767 47.372974 83 42 46
5.422336 13.893576 47.361683 82 42 45
5.420935 13.992054 47.349442 81 42 45
5.800164 -1.170138 49.725571 128 57 80
5.799889 -1.062896 49.723217 128 56 78
5.799640 -0.955668 49.721077 128 57 77
5.799496 -0.848465 49.719845 128 58 77
5.799535 -0.741291 49.720177 128 58 76
5.799824 -0.634143 49.722656 127 58 76
5.800428 -0.527012 49.727837 126 58 77
5.801410 -0.419887 49.736252 125 57 78
5.802824 -0.312748 49.748383 127 57 80
5.804722 -0.205575 49.764648 130 59 83
5.807152 -0.098340 49.785480 131 60 84
5.810157 0.008985 49.811249 130 59 82
5.813775 0.116434 49.842258 129 58 79
5.818034 0.224041 49.878769 127 58 78
5.822957 0.331843 49.920982 127 57 77
5.828562 0.439879 49.969032 125 56 76
5.834853 0.548187 50.022968 125 55 75
5.841826 0.656803 50.082748 126 55 76
5.849468 0.765765 50.148258 127 56 77
5.857751 0.875105 50.219276 127 56 77
5.866643 0.984854 50.295509 127 56 77
5.876095 1.095036 50.376537 126 55 77
5.886051 1.205670 50.461891 126 54 77
5.896444 1.316769 50.550991 125 53 76
5.907201 1.428341 50.643215 124 52 74
5.918242 1.540385 50.737865 123 51 73
5.929477 1.652890 50.834190 122 51 73
5.940817 1.765843 50.931412 122 51 71
5.952168 1.879217 51.028717 122 52 70
5.963432 1.992983 51.125294 123 52 70
5.974515 2.107100 51.220306 124 53 71
5.985321 2.221524 51.312943 125 54 71
5.995757 2.336204 51.402412 125 55 71
6.005733 2.451082 51.487938 126 55 71
6.015163 2.566096 51.568790 126 55 70
6.023968 2.681179 51.644268 127 55 70
6.032070 2.796263 51.713734 127 55 69
6.039403 2.911275 51.776604 127 54 68
6.045906 3.026143 51.832352 127 53 68
6.051527 3.140793 51.880539 127 53 67
6.056220 3.255153 51.920773 127 52 66
6.059953 3.369152 51.952778 126 52 65
6.062700 3.482722 51.976326 125 51 64
6.064445 3.595800 51.991287 125 51 63
6.065184 3.708328 51.997620 124 50 61
6.064919 3.820250 51.995350 124 50 61
6.063661 3.931520 51.984570 123 50 60
6.061428 4.042092 51.965424 122 49 59
6.058247 4.151931 51.938148 121 49 60
6.054143 4.261004 51.902973 120 49 61
6.049152 4.369285 51.860184 120 48 63
6.043309 4.476749 51.810081 122 50 65
6.036651 4.583379 51.753002 123 51 67
6.029221 4.689162 51.689304 122 50 67
6.021061 4.794090 51.619350 119 48 64
6.012220 4.898162 51.543560 117 47 64
6.002753 5.001384 51.462391 117 48 64
5.992714 5.103770 51.376328 116 48 64
5.982168 5.205344 51.285919 116 49 63
5.971189 5.306143 51.191795 115 49 63
5.959855 5.406213 51.094620 116 49 62
5.948247 5.505612 50.995110 115 49 62
5.936460 5.604413 50.894062 115 48 62
5.924588 5.702696 50.792278 114 48 61
5.912726 5.800550 50.690582 114 47 60
5.900967 5.898068 50.589767 113 46 60
5.889399 5.995347 50.490597 112 46 59
5.878105 6.092482 50.393772 111 46 58
5.867152 6.189559 50.299873 111 46 57
5.856597 6.286658 50.209381 112 46 57
5.846480 6.383846 50.122650 113 46 56
5.836826 6.481174 50.039883 114 47 56
5.827644 6.578677 49.961159 115 47 56
5.818926 6.676374 49.886425 114 48 56
5.810656 6.774271 49.815521 114 47 56
5.802806 6.872360 49.748226 113 46 56
5.795343 6.970624 49.684246 112 46 57
5.788231 7.069040 49.623272 110 45 57
5.781437 7.167588 49.565022 109 45 58
5.774930 7.266247 49.509243 108 45 59
5.768691 7.365006 49.455750 108 46 60
5.762705 7.463863 49.404434 108 46 60
5.756971 7.562829 49.355274 108 46 60
5.751494 7.661927 49.308319 108 46 60
5.746290 7.761190 49.263706 108 46 59
5.741379 7.860662 49.221603 106 46 57
5.736784 7.960392 49.182213 104 46 56
5.732530 8.060430 49.145733 101 47 53
5.728633 8.160821 49.112328 96 46 50
5.725108 8.261603 49.082111 91 45 48
5.721959 8.362805 49.055115 86 44 46
5.719179 8.464437 49.031277 80 42 44
5.716746 8.566487 49.010422 74 40 42
5.714629 8.668925 48.992271 69 37 40
5.712782 8.771699 48.976433 67 36 41
5.711147 8.874736 48.962418 66 35 41
5.709658 8.977941 48.949650 66 34 43
5.708240 9.081203 48.937492 67 34 44
5.706813 9.184401 48.925266 69 34 46
5.705297 9.287399 48.912270 72 34 47
5.703610 9.390059 48.897804 75 34 46
5.701674 9.492243 48.881199 78 33 44
5.699415 9.593813 48.861839 80 33 42
5.696770 9.694640 48.839157 83 32 41
5.693683 9.794612 48.812698 85 31 41
5.690112 9.893626 48.782082 90 33 43
5.686025 9.991603 48.747047 94 36 46
5.681407 10.088485 48.707455 98 39 49
5.676256 10.184239 48.663292 101 41 51
5.670585 10.278860 48.614674 102 42 52
5.664420 10.372370 48.561825 103 43 52
5.657806 10.464819 48.505119 103 43 51
5.650797 10.556287 48.445034 101 42 49
5.643460 10.646874 48.382130 100 43 49
5.635871 10.736713 48.317070 99 42 48
5.628116 10.825951 48.250584 97 42 48
5.620283 10.914750 48.183426 96 43 49
5.612462 11.003285 48.116379 96 43 51
5.604745 11.091737 48.050220 96 43 53
5.597219 11.180284 47.985699 95 44 56
5.589964 11.269099 47.923504 95 44 57
5.583052 11.358343 47.864243 95 43 57
5.576543 11.448160 47.808441 95 43 57
5.570487 11.538673 47.756516 97 45 58
5.564918 11.629982 47.708775 100 47 58
5.559857 11.722157 47.665390 105 51 60
5.555312 11.815241 47.626427 111 56 63
5.551278 11.909253 47.591843 114 58 65
5.547737 12.004183 47.561481 110 55 61
5.544661 12.099997 47.535110 102 48 54
5.542013 12.196639 47.512409 97 43 50
5.539752 12.294041 47.493019 96 44 51
5.537828 12.392117 47.476536 95 45 51
5.536196 12.490777 47.462543 94 45 51
5.534803 12.589922 47.450600 94 45 52
5.533604 12.689459 47.440319 93 45 53
5.532552 12.789292 47.431297 92 45 53
5.531607 12.889337 47.423195 92 45 52
5.530732 12.989510 47.415695 91 45 52
5.529896 13.089743 47.408527 89 44 51
5.529071 13.189973 47.401459 89 44 50
5.528236 13.290147 47.394299 90 45 51
5.527372 13.390219 47.386890 90 46 51
5.526462 13.490149 47.379089 89 44 49
5.525494 13.589900 47.370789 87 43 48
5.524456 13.689444 47.361889 86 42 47
5.523341 13.788755 47.352329 84 42 46
5.522142 13.887818 47.342056 82 42 46
5.520856 13.986612 47.331028 81 42 45
5.895800 -1.274830 49.628300 127 56 82
5.895778 -1.167844 49.628117 129 58 80
5.895704 -1.060850 49.627499 130 59 79
5.895665 -0.953863 49.627163 130 60 78
5.895741 -0.846894 49.627804 130 60 77
5.896004 -0.739947 49.630020 131 60 76
5.896523 -0.633017 49.634384 129 59 76
5.897360 -0.526096 49.641430 128 58 76
5.898575 -0.419173 49.651661 126 56 76
5.900223 -0.312228 49.665539 127 56 79
5.902353 -0.205239 49.683460 131 59 82
5.905009 -0.098183 49.705822 133 62 84
5.908235 0.008971 49.732975 132 61 82
5.912065 0.116254 49.765209 129 58 78
5.916523 0.223699 49.802746 127 57 76
5.921635 0.331343 49.845768 128 57 77
5.927411 0.439222 49.894390 128 57 77
5.933856 0.547372 49.948647 128 56 78
5.940966 0.655829 50.008492 128 56 78
5.948724 0.764628 50.073792 128 57 79
5.957106 0.873800 50.144348 129 57 80
5.966075 0.983372 50.219849 129 57 80
5.975587 1.093370 50.299915 128 56 80
5.985587 1.203811 50.384094 128 55 79
5.996013 1.314708 50.471855 127 53 78
6.006793 1.426068 50.562595 125 52 76
6.017850 1.537889 50.655666 124 51 74
6.029101 1.650165 50.750370 124 51 73
6.040458 1.762880 50.845970 124 51 72
6.051831 1.876013 50.941708 124 52 71
6.063128 1.989533 51.036800 125 52 71
6.074255 2.103404 51.130459 126 53 71
6.085118 2.217582 51.221897 126 54 71
6.095624 2.332019 51.310341 126 54 70
6.105685 2.446659 51.395027 126 54 69
6.115212 2.561440 51.475224 126 54 68
6.124122 2.676296 51.550213 127 54 68
6.132335 2.791160 51.619354 127 54 67
6.139780 2.905957 51.682022 127 54 66
6.146390 3.020615 51.737663 127 53 66
6.152109 3.135058 51.785797 127 52 66
6.156886 3.249211 51.826008 127 52 66
6.160682 3.363003 51.857964 126 51 65
6.163470 3.476364 51.881435 126 51 64
6.165230 3.589227 51.896244 125 50 62
6.165953 3.701533 51.902336 125 50 61
6.165644 3.813225 51.899727 124 49 61
6.164310 3.924254 51.888508 123 49 60
6.161974 4.034579 51.868843 122 49 60
6.158662 4.144162 51.840965 121 49 60
6.154407 4.252973 51.805145 121 49 61
6.149245 4.360987 51.761692 122 50 63
6.143218 4.468184 51.710960 123 52 65
6.136370 4.574550 51.653313 125 54 68
6.128747 4.680076 51.589146 124 52 67
6.120399 4.784760 51.518887 119 48 63
6.111382 4.888603 51.442978 117 47 61
6.101752 4.991619 51.361919 117 48 62
6.091571 5.093825 51.276222 116 48 63
6.080909 5.195250 51.186470 115 49 63
6.069839 5.295932 51.093288 115 49 62
6.058442 5.395921 50.997353 115 49 61
6.046803 5.495276 50.899376 115 49 61
6.035012 5.594070 50.800133 115 48 61
6.023164 5.692380 50.700397 115 48 60
6.011352 5.790295 50.600964 114 47 59
5.999663 5.887903 50.502575 114 46 58
5.988185 5.985297 50.405960 113 45 58
5.976992 6.082564 50.311741 112 45 58
5.966148 6.179788 50.220467 112 46 57
5.955705 6.277039 50.132553 113 46 57
5.945697 6.374378 50.048309 114 46 56
5.936143 6.471849 49.967892 115 47 56
5.927051 6.569486 49.891357 116 47 55
5.918408 6.667298 49.818607 116 46 55
5.910197 6.765292 49.749493 115 47 55
5.902388 6.863454 49.683758 114 46 56
5.894950 6.961771 49.621143 112 46 56
5.887846 7.060219 49.561352 111 45 57
5.881048 7.158782 49.504128 110 45 57
5.874529 7.257442 49.449253 109 46 58
5.868274 7.356197 49.396599 109 47 59
5.862272 7.455048 49.346081 109 47 60
5.856529 7.554013 49.297737 109 47 60
5.851055 7.653122 49.251656 110 47 59
5.845868 7.752414 49.208000 109 47 58
5.840995 7.851939 49.166981 107 47 56
5.836461 7.951749 49.128811 104 47 54
5.832291 8.051897 49.093712 100 46 52
5.828505 8.152431 49.061836 95 46 50
5.825114 8.253387 49.033298 90 45 48
5.822120 8.354791 49.008099 85 45 46
5.819514 8.456648 48.986160 79 43 44
5.817272 8.558948 48.967289 74 40 42
5.815355 8.661649 48.951149 69 38 40
5.813714 8.764697 48.937336 67 36 40
5.812286 8.868011 48.925316 66 35 40
5.811000 8.971492 48.914490 66 34 41
5.809777 9.075025 48.904198 67 33 42
5.808534 9.178482 48.893738 70 33 43
5.807187 9.281728 48.882397 73 33 44
5.805652 9.384620 48.869476 76 33 43
5.803851 9.487022 48.854317 77 33 42
5.801710 9.588797 48.836288 81 32 41
5.799165 9.689819 48.814873 84 32 41
5.796164 9.789978 48.789608 86 32 40
5.792665 9.889178 48.760151 90 34 42
5.788638 9.987342 48.726257 94 37 46
5.784070 10.084416 48.687813 98 40 49
5.778964 10.180374 48.644825 101 42 51
5.773332 10.275212 48.597416 103 43 52
5.767204 10.368955 48.545837 103 44 52
5.760623 10.461653 48.490444 103 43 51
5.753646 10.553385 48.431717 102 43 50
5.746340 10.644254 48.370216 101 43 49
5.738780 10.734382 48.306580 99 42 48
5.731049 10.823913 48.241501 98 42 49
5.723235 10.913006 48.175724 97 43 49
5.715425 11.001822 48.109982 96 43 51
5.707709 11.090539 48.045036 96 44 53
5.700171 11.179323 47.981579 95 44 54
5.692887 11.268338 47.920269 95 44 55
5.685928 11.357738 47.861694 95 44 55
5.679353 11.447659 47.806347 96 44 55
5.673209 11.538218 47.754627 97 45 55
5.667529 11.629505 47.706818 99 46 56
5.662334 11.721592 47.663094 101 48 56
5.657634 11.814521 47.623520 104 49 58
5.653422 11.908310 47.588070 105 50 58
5.649684 12.002952 47.556606 104 49 57
5.646394 12.098418 47.528912 101 47 54
5.643519 12.194663 47.504711 98 45 52
5.641021 12.291623 47.483685 97 44 52
5.638856 12.389227 47.465466 95 44 51
5.636982 12.487393 47.449684 95 44 51
5.635353 12.586040 47.435970 94 44 52
5.633925 12.685081 47.423950 94 45 53
5.632658 12.784437 47.413292 93 46 53
5.631516 12.884032 47.403679 92 45 52
5.630467 12.983799 47.394848 91 45 51
5.629481 13.083674 47.386547 90 44 50
5.628535 13.183607 47.378582 90 44 50
5.627606 13.283547 47.370766 89 44 49
5.626679 13.383456 47.362957 89 44 49
5.625736 13.483295 47.355019 88 43 48
5.624764 13.583030 47.346840 87 43 48
5.623751 13.682630 47.338314 86 43 47
5.622688 13.782069 47.329365 84 43 47
5.621565 13.881322 47.319912 82 43 46
5.620376 13.980371 47.309902 81 42 45
5.619117 14.079201 47.299309 79 42 44
5.990636 -1.379017 49.527889 127 56 82
5.990924 -1.272312 49.530270 130 58 82
5.991085 -1.165573 49.531601 131 59 80
5.991207 -1.058821 49.532608 131 60 79
5.991373 -0.952072 49.533981 130 60 78
5.991662 -0.845334 49.536366 131 60 77
5.992144 -0.738610 49.540352 131 60 76
5.992884 -0.631896 49.546474 130 58 76
5.993945 -0.525183 49.555244 128 56 76
5.995384 -0.418459 49.567142 127 55 76
5.997254 -0.311706 49.582600 128 56 78
5.999599 -0.204903 49.601994 132 59 82
6.002467 -0.098025 49.625698 133 62 83
6.005893 0.008957 49.654022 132 61 80
6.009911 0.116072 49.687241 128 57 76
6.014544 0.223353 49.725544 127 56 74
6.019811 0.330834 49.769093 130 58 76
6.025724 0.438549 49.817974 130 59 78
6.032285 0.546535 49.872219 130 58 78
6.039487 0.654823 49.931763 129 57 79
6.047314 0.763447 49.996475 130 57 80
6.055742 0.872437 50.066151 130 58 81
6.064736 0.981819 50.140511 130 58 81
6.074252 1.091615 50.219185 130 57 81
6.084239 1.201844 50.301750 129 55 80
6.094638 1.312517 50.387726 128 54 78
6.105381 1.423641 50.476551 127 52 77
6.116399 1.535217 50.567635 126 51 75
6.127610 1.647237 50.660324 126 51 74
6.138933 1.759689 50.753941 126 51 73
6.150283 1.872553 50.847778 126 52 72
6.161572 1.985802 50.941105 127 53 71
6.172708 2.099402 51.033173 127 53 71
6.183600 2.213311 51.123226 128 53 70
6.194158 2.327482 51.210514 127 53 69
6.204290 2.441863 51.294281 127 53 67
6.213908 2.556393 51.373798 126 53 66
6.222925 2.671008 51.448349 127 53 65
6.231258 2.785638 51.517239 127 53 65
6.238829 2.900212 51.579838 127 53 65
6.245568 3.014653 51.635551 126 52 65
6.251410 3.128886 51.683849 127 52 65
6.256300 3.242834 51.724281 127 51 65
6.260195 3.356422 51.756477 127 51 65
6.263059 3.469578 51.780159 127 50 64
6.264869 3.582233 51.795120 126 50 62
6.265614 3.694326 51.801281 125 49 62
6.265296 3.805798 51.798645 124 49 61
6.263922 3.916600 51.787292 123 48 61
6.261515 4.026688 51.767387 123 48 61
6.258104 4.136026 51.739193 123 49 61
6.253724 4.244586 51.702976 122 49 62
6.248416 4.352343 51.659100 123 50 63
6.242228 4.459282 51.607937 124 52 65
6.235209 4.565392 51.549904 126 55 67
6.227411 4.670667 51.485432 124 53 66
6.218891 4.775111 51.414997 120 50 63
6.209709 4.878730 51.339085 118 49 62
6.199929 4.981542 51.258224 117 49 62
6.189617 5.083568 51.172974 116 48 61
6.178847 5.184843 51.083931 115 48 61
6.167696 5.285406 50.991737 115 49 61
6.156248 5.385312 50.897087 115 49 61
6.144587 5.484621 50.800678 116 48 60
6.132805 5.583404 50.703274 116 48 60
6.120993 5.681739 50.605618 116 47 59
6.109242 5.779711 50.508472 115 47 58
6.097640 5.877407 50.412548 114 46 58
6.086265 5.974912 50.318501 113 45 57
6.075189 6.072311 50.226933 112 45 57
6.064470 6.169678 50.138309 112 45 57
6.054153 6.267080 50.053017 113 45 57
6.044270 6.364571 49.971306 113 45 56
6.034835 6.462188 49.893299 114 45 55
6.025848 6.559958 49.819000 114 45 54
6.017297 6.657890 49.748306 115 45 54
6.009161 6.755984 49.681046 115 45 54
6.001411 6.854228 49.616970 114 46 55
5.994014 6.952606 49.555817 113 45 55
5.986938 7.051098 49.497318 111 45 55
5.980156 7.149688 49.441242 110 45 55
5.973645 7.248366 49.387409 110 46 55
5.967394 7.347133 49.335732 110 46 56
5.961398 7.445995 49.286163 110 47 57
5.955668 7.544980 49.238785 110 47 57
5.950217 7.644120 49.193722 110 47 57
5.945071 7.743462 49.151176 109 47 56
5.940256 7.843058 49.111366 107 47 55
5.935801 7.942964 49.074535 103 46 53
5.931732 8.043234 49.040890 99 46 51
5.928069 8.143917 49.010605 94 46 50
5.924821 8.245049 48.983757 89 45 48
5.921990 8.346651 48.960354 83 45 46
5.919561 8.448726 48.940269 78 44 44
5.917507 8.551257 48.923286 74 41 43
5.915785 8.654200 48.909050 70 39 42
5.914341 8.757493 48.897114 68 37 41
5.913108 8.861051 48.886917 67 36 41
5.912010 8.964769 48.877838 67 34 39
5.910964 9.068530 48.869198 68 33 40
5.909885 9.172201 48.860279 70 32 41
5.908687 9.275645 48.850365 73 32 41
5.907284 9.378723 48.838772 76 32 41
5.905597 9.481296 48.824825 78 32 41
5.903555 9.583229 48.807938 82 32 41
5.901093 9.684403 48.787586 85 32 40
5.898161 9.784709 48.763348 88 34 41
5.894720 9.884055 48.734890 92 35 43
5.890742 9.982371 48.702007 95 38 46
5.886217 10.079608 48.664597 99 41 49
5.881148 10.175742 48.622692 102 43 51
5.875552 10.270773 48.576420 103 44 52
5.869458 10.364727 48.526043 104 45 53
5.862912 10.457657 48.471924 103 44 52
5.855969 10.549638 48.414520 103 43 50
5.848697 10.640772 48.354397 102 43 49
5.841169 10.731178 48.292160 100 42 49
5.833467 10.820993 48.228485 98 43 49
5.825677 10.910368 48.164078 97 43 50
5.817884 10.999460 48.099651 96 43 51
5.810174 11.088433 48.035912 95 44 52
5.802629 11.177448 47.973534 95 44 53
5.795325 11.266663 47.913143 95 44 54
5.788326 11.356216 47.855282 95 44 54
5.781692 11.446241 47.800430 94 44 54
5.775467 11.536849 47.748966 95 45 54
5.769684 11.628125 47.701157 96 45 54
5.764364 11.720136 47.657169 98 45 54
5.759515 11.812922 47.617077 99 45 55
5.755134 11.906506 47.580860 100 46 55
5.751208 12.000881 47.548401 100 45 55
5.747713 12.096025 47.519508 99 45 53
5.744621 12.191898 47.493942 98 45 52
5.741895 12.288445 47.471409 97 44 52
5.739499 12.385607 47.451595 95 44 51
5.737391 12.483311 47.434170 95 44 51
5.735531 12.581483 47.418797 94 44 52
5.733882 12.680056 47.405163 94 45 54
5.732408 12.778957 47.392967 93 45 54
5.731073 12.878122 47.381935 93 45 53
5.729851 12.977494 47.371834 92 45 52
5.728716 13.077021 47.362450 91 44 51
5.727645 13.176655 47.353596 90 44 50
5.726619 13.276355 47.345116 89 44 49
5.725622 13.376084 47.336868 88 44 49
5.724637 13.475808 47.328724 88 44 49
5.723651 13.575495 47.320576 88 44 49
5.722651 13.675112 47.312305 87 44 49
5.721624 13.774631 47.303822 85 44 49
5.720561 13.874022 47.295025 83 43 48
5.719451 13.973264 47.285854 81 43 47
5.718289 14.072335 47.276245 79 42 46
5.717070 14.171224 47.266163 78 41 45
6.084715 -1.482691 49.424839 129 60 82
6.085366 -1.376294 49.430122 129 58 82
6.085814 -1.269833 49.433765 131 60 82
6.086151 -1.163335 49.436504 131 60 80
6.086462 -1.056821 49.439026 131 61 79
6.086825 -0.950304 49.441978 131 60 77
6.087319 -0.843792 49.445984 130 60 76
6.088011 -0.737287 49.451607 130 59 75
6.088963 -0.630784 49.459339 130 58 76
6.090236 -0.524276 49.469681 129 56 76
6.091885 -0.417749 49.483070 129 55 77
6.093959 -0.311186 49.499928 130 57 79
6.096504 -0.204567 49.520596 133 60 82
6.099560 -0.097866 49.545418 133 61 81
6.103163 0.008942 49.574684 131 59 79
6.107341 0.115888 49.608624 128 57 74
6.112117 0.223002 49.647415 127 56 73
6.117505 0.330316 49.691185 131 59 76
6.123516 0.437863 49.740005 132 60 78
6.130148 0.545676 49.793880 131 59 78
6.137396 0.653787 49.852749 130 57 78
6.145241 0.762226 49.916477 131 57 79
6.153661 0.871021 49.984867 131 58 80
6.162622 0.980197 50.057659 131 58 81
6.172083 1.089774 50.134506 131 57 81
6.181997 1.199772 50.215038 131 56 81
6.192308 1.310200 50.298798 130 54 79
6.202957 1.421067 50.385292 128 52 77
6.213876 1.532373 50.473984 128 51 75
6.224993 1.644114 50.564289 127 51 74
6.236231 1.756279 50.655571 128 52 73
6.247513 1.868850 50.747208 128 53 72
6.258752 1.981803 50.838505 128 53 71
6.269865 2.095107 50.928768 128 53 70
6.280760 2.208724 51.017269 128 53 69
6.291350 2.322609 51.103291 128 53 68
6.301543 2.436712 51.186081 127 52 66
6.311248 2.550975 51.264915 127 52 64
6.320376 2.665334 51.339066 126 52 64
6.328841 2.779721 51.407818 127 52 64
6.336557 2.894064 51.470501 126 52 64
6.343450 3.008285 51.526482 127 52 65
6.349445 3.122307 51.575184 127 51 65
6.354484 3.236052 51.616108 127 51 65
6.358513 3.349441 51.648838 127 51 65
6.361493 3.462401 51.673046 127 50 64
6.363396 3.574859 51.688499 126 50 63
6.364205 3.686751 51.695076 125 49 63
6.363920 3.798018 51.692757 124 48 63
6.362548 3.908607 51.681614 124 48 63
6.360110 4.018475 51.661812 124 48 63
6.356637 4.127586 51.633602 124 49 63
6.352167 4.235909 51.597294 124 49 64
6.346746 4.343426 51.553257 124 50 64
6.340424 4.450120 51.501904 124 52 65
6.333258 4.555986 51.443695 126 54 67
6.325306 4.661021 51.379105 124 54 66
6.316632 4.765234 51.308647 120 50 63
6.307300 4.868635 51.232849 118 49 62
6.297382 4.971246 51.152283 116 48 62
6.286949 5.073094 51.067543 115 48 61
6.276079 5.174218 50.979248 115 47 60
6.264854 5.274661 50.888073 115 48 60
6.253360 5.374479 50.794701 116 48 60
6.241683 5.473735 50.699856 116 47 60
6.229914 5.572500 50.604259 117 47 60
6.218145 5.670853 50.508659 117 46 60
6.206463 5.768874 50.413769 116 46 59
6.194952 5.866648 50.320267 115 46 58
6.183687 5.964257 50.228767 113 46 58
6.172735 6.061778 50.139805 112 45 57
6.162149 6.159282 50.053822 112 45 56
6.151969 6.256827 49.971127 112 44 55
6.142220 6.354462 49.891937 112 44 54
6.132913 6.452220 49.816338 112 43 53
6.124043 6.550121 49.744293 112 43 52
6.115597 6.648171 49.675686 113 43 53
6.107551 6.746367 49.610325 114 44 54
6.099874 6.844697 49.547974 114 44 54
6.092536 6.943142 49.488361 113 45 54
6.085505 7.041687 49.431252 112 45 54
6.078757 7.140318 49.376446 111 45 54
6.072276 7.239029 49.323795 111 45 55
6.066050 7.337824 49.273228 111 46 56
6.060084 7.436719 49.224766 111 47 56
6.054389 7.535743 49.178505 111 47 57
6.048985 7.634934 49.134609 110 47 56
6.043900 7.734344 49.093300 108 46 54
6.039163 7.834029 49.054825 105 46 53
6.034805 7.934044 49.019428 102 46 51
6.030852 8.034448 48.987320 98 45 50
6.027323 8.135285 48.958656 93 46 49
6.024228 8.236591 48.933510 87 45 47
6.021562 8.338385 48.911861 81 44 45
6.019310 8.440662 48.893562 76 43 44
6.017438 8.543404 48.878361 73 41 43
6.015902 8.646561 48.865879 71 39 42
6.014640 8.750064 48.855637 69 38 42
6.013584 8.853826 48.847054 68 37 42
6.012653 8.957736 48.839493 68 35 40
6.011762 9.061675 48.832256 68 34 39
6.010822 9.165508 48.824623 71 33 39
6.009748 9.269099 48.815891 73 32 39
6.008452 9.372309 48.805367 76 32 40
6.006855 9.474998 48.792397 79 32 40
6.004888 9.577041 48.776421 83 32 40
6.002488 9.678317 48.756927 86 33 40
5.999607 9.778724 48.733517 90 34 42
5.996206 9.878175 48.705898 94 36 43
5.992264 9.976605 48.673878 97 38 46
5.987771 10.073971 48.637383 100 41 48
5.982732 10.170250 48.596451 103 43 51
5.977165 10.265448 48.551235 105 46 53
5.971102 10.359589 48.501984 105 47 54
5.964589 10.452727 48.449078 103 45 51
5.957681 10.544941 48.392967 100 42 48
5.950444 10.636324 48.334183 99 42 48
5.942951 10.726991 48.273315 99 43 49
5.935283 10.817077 48.211029 99 43 50
5.927521 10.906721 48.147980 98 45 52
5.919748 10.996075 48.084850 96 44 52
5.912050 11.085296 48.022320 95 44 53
5.904505 11.174535 47.961025 94 44 53
5.897183 11.263939 47.901558 94 44 54
5.890152 11.353644 47.844440 93 44 54
5.883464 11.443772 47.790115 93 44 53
5.877165 11.534430 47.738953 93 43 53
5.871286 11.625698 47.691200 93 43 52
5.865848 11.717640 47.647022 94 43 52
5.860859 11.810299 47.606503 95 43 53
5.856318 11.903693 47.569622 97 44 53
5.852215 11.997824 47.536285 97 44 54
5.848526 12.092669 47.506321 98 44 53
5.845227 12.188197 47.479527 97 44 52
5.842286 12.284363 47.455631 96 44 51
5.839668 12.381112 47.434372 95 43 51
5.837338 12.478384 47.415447 95 43 51
5.835260 12.576116 47.398567 94 43 52
5.833399 12.674250 47.383453 94 44 54
5.831724 12.772723 47.369846 93 45 54
5.830205 12.871482 47.357506 92 45 54
5.828816 12.970479 47.346226 91 45 53
5.827536 13.069669 47.335823 91 44 52
5.826342 13.169011 47.326126 89 44 50
5.825218 13.268471 47.316998 88 44 50
5.824148 13.368013 47.308308 88 45 50
5.823116 13.467607 47.299923 88 45 50
5.822108 13.567223 47.291740 88 45 50
5.821111 13.666825 47.283634 86 45 50
5.820109 13.766384 47.275501 85 44 50
5.819092 13.865870 47.267235 83 44 50
5.818047 13.965253 47.258743 81 43 49
5.816964 14.064510 47.249954 79 42 48
5.815837 14.163620 47.240799 78 41 47
5.814662 14.262571 47.231251 78 41 47
6.178099 -1.585856 49.319790 130 61 81
6.179154 -1.479792 49.328205 130 60 80
6.179935 -1.373631 49.334446 130 60 81
6.180535 -1.267405 49.339233 131 61 80
6.181040 -1.161141 49.343262 131 61 79
6.181530 -1.054857 49.347176 131 61 78
6.182083 -0.948566 49.351589 131 60 77
6.182770 -0.842275 49.357075 130 60 76
6.183659 -0.735983 49.364174 130 58 76
6.184810 -0.629688 49.373363 130 57 76
6.186280 -0.523380 49.385098 129 56 77
6.188122 -0.417046 49.399803 130 56 78
6.190384 -0.310671 49.417854 132 58 80
6.193105 -0.204232 49.439579 134 60 82
6.196325 -0.097708 49.465282 134 61 82
6.200076 0.008928 49.495228 132 59 78
6.204384 0.115704 49.529617 129 57 75
6.209266 0.222648 49.568592 129 57 74
6.214736 0.329791 49.612259 131 59 75
6.220800 0.437165 49.660671 132 60 77
6.227458 0.544799 49.713818 131 59 77
6.234700 0.652723 49.771637 130 57 77
6.242510 0.760966 49.833981 131 57 78
6.250865 0.869554 49.900677 131 57 79
6.259734 0.978509 49.971478 131 58 79
6.269079 1.087852 50.046082 131 57 80
6.278858 1.197600 50.124149 131 56 80
6.289022 1.307764 50.205284 131 54 78
6.299516 1.418353 50.289055 130 53 76
6.310279 1.529367 50.374977 129 52 74
6.321247 1.640806 50.462540 129 53 74
6.332352 1.752660 50.551186 129 53 73
6.343519 1.864914 50.640331 130 54 72
6.354671 1.977548 50.729359 130 54 71
6.365727 2.090534 50.817619 129 54 70
6.376601 2.203838 50.904427 128 54 69
6.387206 2.317419 50.989086 128 54 68
6.397450 2.431227 51.070866 128 53 67
6.407242 2.545208 51.149033 127 53 65
6.416488 2.659300 51.222847 126 53 65
6.425097 2.773436 51.291576 127 52 65
6.432980 2.887541 51.354500 127 52 65
6.440052 3.001540 51.410954 127 52 66
6.446234 3.115353 51.460304 127 52 66
6.451458 3.228898 51.502010 127 51 65
6.455664 3.342097 51.535587 127 51 66
6.458806 3.454871 51.560669 127 50 65
6.460847 3.567145 51.576965 126 50 65
6.461769 3.678853 51.584328 125 50 65
6.461565 3.789932 51.582695 124 49 65
6.460241 3.900327 51.572132 125 49 66
6.457819 4.009995 51.552788 126 49 66
6.454327 4.118897 51.524918 126 49 66
6.449809 4.227006 51.488842 126 50 66
6.444311 4.334301 51.444954 125 50 66
6.437889 4.440769 51.393684 125 52 66
6.430605 4.546407 51.335541 125 54 68
6.422524 4.651217 51.271034 124 53 67
6.413715 4.755209 51.200714 120 51 64
6.404251 4.858401 51.125160 118 49 63
6.394207 4.960817 51.044979 116 48 62
6.383663 5.062491 50.960808 115 48 61
6.372701 5.163463 50.873291 115 47 60
6.361406 5.263783 50.783123 116 47 60
6.349867 5.363508 50.691010 116 47 60
6.338173 5.462702 50.597660 116 46 60
6.326417 5.561440 50.503815 117 46 60
6.314688 5.659796 50.410179 117 46 59
6.303073 5.757853 50.317455 117 46 59
6.291651 5.855690 50.226273 116 47 59
6.280496 5.953386 50.137218 115 47 58
6.269668 6.051014 50.050777 113 46 57
6.259215 6.148639 49.967335 112 45 56
6.249172 6.246314 49.887165 111 44 54
6.239562 6.344082 49.810440 110 43 53
6.230386 6.441970 49.737198 111 43 52
6.221642 6.539994 49.667389 111 43 52
6.213308 6.638157 49.600861 113 43 53
6.205362 6.736454 49.537426 114 44 54
6.197772 6.834869 49.476837 115 45 55
6.190507 6.933389 49.418842 115 45 55
6.183540 7.031995 49.363220 114 45 54
6.176847 7.130680 49.309795 113 45 54
6.170415 7.229439 49.258446 113 45 55
6.164240 7.328282 49.209148 112 46 56
6.158326 7.427228 49.161942 112 46 56
6.152690 7.526311 49.116951 112 47 56
6.147357 7.625575 49.074375 110 47 55
6.142356 7.725072 49.034447 107 45 52
6.137718 7.824862 48.997425 104 44 51
6.133475 7.925001 48.963551 101 45 51
6.129653 8.025545 48.933037 97 45 50
6.126269 8.126540 48.906029 91 45 48
6.123331 8.228017 48.882568 85 44 46
6.120831 8.329989 48.862617 79 42 44
6.118751 8.432454 48.846008 74 41 42
6.117053 8.535379 48.832451 71 39 41
6.115687 8.638717 48.821552 70 39 42
6.114590 8.742392 48.812798 70 38 43
6.113689 8.846312 48.805603 70 38 42
6.112900 8.950364 48.799301 70 36 41
6.112136 9.054427 48.793201 70 35 40
6.111308 9.158368 48.786591 72 34 40
6.110326 9.262047 48.778751 75 33 40
6.109107 9.365330 48.769024 77 33 40
6.107574 9.468081 48.756779 80 32 40
6.105654 9.570176 48.741459 84 32 40
6.103291 9.671502 48.722595 88 33 41
6.100439 9.771962 48.699825 91 34 42
6.097061 9.871473 48.672855 95 35 44
6.093138 9.969977 48.641541 98 37 46
6.088663 10.067432 48.605816 101 40 48
6.083643 10.163824 48.565746 103 43 51
6.078099 10.259157 48.521484 106 47 54
6.072062 10.353460 48.473293 105 47 54
6.065579 10.446786 48.421539 102 44 50
6.058705 10.539209 48.366661 98 41 47
6.051503 10.630819 48.309170 97 41 46
6.044047 10.721731 48.249649 98 43 48
6.036413 10.812069 48.188709 99 44 51
6.028683 10.901967 48.126995 99 45 53
6.020936 10.991571 48.065155 97 45 53
6.013253 11.081026 48.003822 94 44 53
6.005710 11.170476 47.943607 93 44 53
5.998378 11.260062 47.885075 92 44 54
5.991317 11.349910 47.828705 92 44 54
5.984581 11.440137 47.774937 92 43 53
5.978215 11.530843 47.724110 92 42 53
5.972247 11.622108 47.676472 92 42 52
5.966699 11.713988 47.632175 92 42 52
5.961580 11.806531 47.591316 94 43 52
5.956890 11.899752 47.553871 95 43 53
5.952618 11.993655 47.519772 96 43 53
5.948748 12.088227 47.488876 97 44 53
5.945255 12.183439 47.460991 96 44 53
5.942111 12.279252 47.435890 96 43 52
5.939286 12.375622 47.413342 95 43 51
5.936748 12.472496 47.393074 94 43 50
5.934464 12.569823 47.374847 94 43 52
5.932405 12.667550 47.358410 94 44 53
5.930542 12.765628 47.343536 93 44 53
5.928848 12.864010 47.330013 92 44 53
5.927302 12.962657 47.317677 91 44 53
5.925883 13.061529 47.306343 90 43 52
5.924572 13.160594 47.295876 89 43 51
5.923353 13.259820 47.286148 88 44 51
5.922212 13.359178 47.277035 89 45 52
5.921131 13.458634 47.268406 89 46 52
5.920097 13.558162 47.260155 88 46 52
5.919095 13.657725 47.252151 87 46 51
5.918109 13.757295 47.244286 85 45 51
5.917127 13.856836 47.236443 83 44 51
5.916132 13.956317 47.228508 81 43 50
5.915115 14.055709 47.220387 80 41 49
5.914065 14.154987 47.212006 79 41 48
5.912976 14.254133 47.203304 79 41 48
5.911843 14.353138 47.194263 79 40 48
6.272354 -1.582812 49.225124 129 60 77
6.273503 -1.476970 49.234146 130 60 78
6.274406 -1.371035 49.241234 130 60 78
6.275148 -1.265037 49.247055 131 61 77
6.275811 -1.159000 49.252258 131 61 77
6.276470 -1.052939 49.257431 131 61 77
6.277200 -0.946867 49.263157 130 60 76
6.278070 -0.840788 49.269981 130 58 76
6.279143 -0.734704 49.278408 129 57 77
6.280478 -0.628610 49.288879 128 56 77
6.282127 -0.522497 49.301823 128 55 78
6.284143 -0.416353 49.317642 129 57 80
6.286568 -0.310160 49.336678 131 58 81
6.289441 -0.203900 49.359219 132 59 81
6.292796 -0.097550 49.385555 133 60 80
6.296663 0.008914 49.415901 131 59 78
6.301064 0.115519 49.450443 130 59 76
6.306014 0.222292 49.489285 130 59 75
6.311522 0.329261 49.532516 131 59 75
6.317594 0.436456 49.580166 132 59 76
6.324226 0.543904 49.632214 131 59 76
6.331409 0.651634 49.688587 131 58 76
6.339127 0.759671 49.749157 130 57 77
6.347357 0.868039 49.813747 130 57 77
6.356073 0.976760 49.882153 130 57 78
6.365242 1.085853 49.954105 132 57 79
6.374825 1.195334 50.029312 132 56 80
6.384779 1.305215 50.107433 132 55 78
6.395059 1.415506 50.188107 131 54 76
6.405610 1.526208 50.270912 130 53 74
6.416377 1.637323 50.355412 130 54 73
6.427299 1.748844 50.441128 131 54 73
6.438309 1.860760 50.527531 131 55 72
6.449337 1.973054 50.614082 131 55 71
6.460307 2.085703 50.700172 130 55 70
6.471137 2.198675 50.785160 129 55 70
6.481740 2.311933 50.868382 129 55 70
6.492029 2.425431 50.949123 128 55 69
6.501908 2.539119 51.026649 127 54 67
6.511280 2.652933 51.100201 127 54 67
6.520049 2.766809 51.169022 127 53 67
6.528119 2.880674 51.232357 127 53 67
6.535400 2.994449 51.289494 127 53 67
6.541803 3.108054 51.339748 127 52 66
6.547252 3.221407 51.382515 127 52 66
6.551680 3.334423 51.417259 127 51 66
6.555029 3.447023 51.443550 126 51 66
6.557261 3.559129 51.461056 126 51 66
6.558347 3.670670 51.469585 125 50 66
6.558277 3.781580 51.469036 125 50 67
6.557055 3.891805 51.459442 125 49 68
6.554697 4.001295 51.440937 126 49 69
6.551236 4.110013 51.413780 127 50 69
6.546713 4.217930 51.378284 127 50 69
6.541181 4.325026 51.334866 126 51 69
6.534697 4.431290 51.283978 125 52 68
6.527329 4.536720 51.226158 124 53 68
6.519148 4.641322 51.161953 123 52 66
6.510229 4.745109 51.091953 120 51 64
6.500649 4.848102 51.016777 119 50 64
6.490494 4.950331 50.937077 118 49 63
6.479846 5.051833 50.853512 116 48 61
6.468795 5.152653 50.766785 116 47 60
6.457430 5.252845 50.677597 116 46 59
6.445845 5.352468 50.586674 116 46 59
6.434131 5.451591 50.494740 116 45 59
6.422380 5.550285 50.402523 116 45 59
6.410683 5.648630 50.310726 117 46 59
6.399125 5.746703 50.220020 118 47 60
6.387783 5.844583 50.131008 118 47 60
6.376728 5.942346 50.044243 117 48 60
6.366014 6.040060 49.960171 115 48 59
6.355689 6.137786 49.879135 113 46 56
6.345779 6.235571 49.801365 111 45 54
6.336302 6.333453 49.726986 111 44 53
6.327260 6.431456 49.656021 111 44 53
6.318641 6.529592 49.588387 111 44 53
6.310426 6.627859 49.523914 112 44 53
6.302588 6.726251 49.462402 114 44 54
6.295096 6.824753 49.403606 115 46 56
6.287920 6.923349 49.347286 116 47 57
6.281033 7.022026 49.293240 116 47 57
6.274416 7.120776 49.241310 115 46 56
6.268057 7.219599 49.191402 114 45 56
6.261956 7.318508 49.143520 114 45 56
6.256121 7.417527 49.097725 114 46 56
6.250571 7.516692 49.054173 113 46 55
6.245334 7.616049 49.013069 111 46 54
6.240439 7.715653 48.974663 107 45 52
6.235922 7.815565 48.939209 103 45 51
6.231812 7.915841 48.906956 100 45 50
6.228135 8.016534 48.878094 95 45 50
6.224906 8.117688 48.852757 89 45 48
6.222129 8.219331 48.830967 82 42 44
6.219795 8.321470 48.812645 76 41 42
6.217879 8.424099 48.797611 73 40 43
6.216343 8.527182 48.785553 71 40 43
6.215130 8.630664 48.776039 71 40 43
6.214177 8.734468 48.768551 72 40 45
6.213403 8.838496 48.762482 72 39 44
6.212727 8.942638 48.757175 72 38 42
6.212058 9.046768 48.751926 72 36 41
6.211308 9.150755 48.746037 73 35 41
6.210386 9.254462 48.738808 76 34 40
6.209212 9.357757 48.729588 78 33 40
6.207707 9.460508 48.717781 81 32 40
6.205807 9.562599 48.702866 85 32 40
6.203454 9.663919 48.684399 89 32 41
6.200604 9.764380 48.662037 93 33 43
6.197227 9.863904 48.635536 96 35 44
6.193305 9.962437 48.604752 99 37 46
6.188833 10.059943 48.569660 101 39 48
6.183821 10.156411 48.530323 104 42 50
6.178290 10.251848 48.486916 105 46 52
6.172273 10.346284 48.439693 104 47 53
6.165815 10.439769 48.389011 102 45 51
6.158972 10.532376 48.335308 99 43 48
6.151805 10.624194 48.279060 98 43 48
6.144385 10.715329 48.220837 98 44 50
6.136788 10.805900 48.161213 98 44 52
6.129091 10.896035 48.100807 98 44 53
6.121372 10.985871 48.040230 96 44 53
6.113708 11.075544 47.980076 93 43 53
6.106172 11.165194 47.920937 92 43 53
6.098831 11.254949 47.863327 92 43 54
6.091746 11.344932 47.807724 91 43 54
6.084969 11.435252 47.754536 91 43 54
6.078539 11.526003 47.704075 91 42 53
6.072490 11.617265 47.656605 91 41 53
6.066840 11.709091 47.612263 92 42 52
6.061601 11.801526 47.571144 93 42 52
6.056771 11.894589 47.533241 94 43 52
6.052344 11.988287 47.498501 95 43 53
6.048306 12.082609 47.466805 95 44 53
6.044632 12.177531 47.437977 96 44 53
6.041301 12.273024 47.411831 95 44 52
6.038284 12.369049 47.388157 95 44 51
6.035553 12.465561 47.366722 94 44 51
6.033081 12.562518 47.347317 94 44 52
6.030838 12.659876 47.329720 94 44 53
6.028802 12.757594 47.313740 93 44 53
6.026948 12.855633 47.299194 92 43 53
6.025258 12.953959 47.285923 91 43 52
6.023710 13.052539 47.273781 90 44 51
6.022292 13.151347 47.262650 89 44 51
6.020984 13.250352 47.252388 88 44 51
6.019775 13.349530 47.242897 89 46 52
6.018647 13.448850 47.234043 89 48 54
6.017586 13.548283 47.225719 88 48 53
6.016575 13.647793 47.217789 87 47 52
6.015601 13.747352 47.210140 85 46 52
6.014644 13.846918 47.202633 84 44 52
6.013691 13.946461 47.195152 82 43 51
6.012727 14.045945 47.187584 81 42 51
6.011740 14.145344 47.179840 80 41 50
6.010721 14.244633 47.171844 80 40 50
6.009665 14.343797 47.163551 80 40 49
6.365053 -1.685373 49.121605 125 59 75
6.366590 -1.579865 49.133469 128 59 76
6.367825 -1.474236 49.142998 129 58 76
6.368839 -1.368518 49.150822 131 60 77
6.369712 -1.262738 49.157558 131 61 77
6.370521 -1.156918 49.163803 130 61 76
6.371337 -1.051072 49.170105 130 60 76
6.372231 -0.945211 49.177006 130 60 77
6.373269 -0.839338 49.185013 129 58 77
6.374511 -0.733455 49.194595 127 57 78
6.376011 -0.627555 49.206173 127 55 77
6.377820 -0.521632 49.220139 127 55 78
6.379986 -0.415671 49.236855 128 56 80
6.382550 -0.309657 49.256638 129 58 80
6.385546 -0.203572 49.279755 130 58 80
6.389005 -0.097394 49.306450 131 59 79
6.392952 0.008900 49.336918 131 59 78
6.397408 0.115334 49.371304 131 59 77
6.402382 0.221934 49.409687 131 59 77
6.407883 0.328727 49.452137 131 59 77
6.413911 0.435739 49.498665 132 59 77
6.420465 0.542995 49.549240 132 59 77
6.427532 0.650522 49.603783 132 59 77
6.435099 0.758343 49.662182 131 58 77
6.443146 0.866480 49.724277 130 57 77
6.451648 0.974953 49.789894 130 57 77
6.460577 1.083782 49.858807 131 58 78
6.469903 1.192980 49.930775 132 58 79
6.479589 1.302561 50.005520 132 57 77
6.489596 1.412534 50.082752 132 56 75
6.499881 1.522905 50.162125 131 55 74
6.510396 1.633677 50.243275 131 55 73
6.521089 1.744845 50.325794 131 56 72
6.531902 1.856404 50.409245 131 56 71
6.542771 1.968339 50.493130 131 57 71
6.553627 2.080632 50.576904 130 57 70
6.564392 2.193255 50.659985 129 57 71
6.574982 2.306175 50.741711 129 57 72
6.585308 2.419351 50.821400 129 57 71
6.595274 2.532732 50.898312 127 56 70
6.604781 2.646261 50.971680 126 55 68
6.613726 2.759871 51.040710 126 54 68
6.622008 2.873492 51.104626 126 54 68
6.629526 2.987043 51.162647 127 54 67
6.636185 3.100444 51.214039 127 53 67
6.641901 3.213610 51.258148 126 52 66
6.646594 3.326454 51.294369 126 51 66
6.650202 3.438893 51.322212 125 51 66
6.652675 3.550846 51.341297 125 51 67
6.653980 3.662239 51.351368 125 50 68
6.654099 3.773002 51.352283 125 50 69
6.653032 3.883078 51.344055 125 50 70
6.650795 3.992415 51.326782 126 50 71
6.647416 4.100975 51.300713 127 50 72
6.642940 4.208726 51.266171 127 51 71
6.637419 4.315649 51.223560 126 52 71
6.630915 4.421732 51.173367 126 53 70
6.623499 4.526977 51.116138 124 52 69
6.615249 4.631389 51.052464 122 52 66
6.606244 4.734987 50.982967 121 52 65
6.596569 4.837793 50.908306 120 51 64
6.586315 4.939844 50.829170 119 50 63
6.575572 5.041179 50.746265 118 48 61
6.564436 5.141848 50.660320 117 47 60
6.552999 5.241906 50.572063 116 46 59
6.541361 5.341419 50.482246 116 45 59
6.529616 5.440455 50.391605 116 45 59
6.517859 5.539091 50.300865 116 45 59
6.506179 5.637403 50.210732 117 46 59
6.494662 5.735469 50.121849 118 47 59
6.483385 5.833368 50.034817 119 48 60
6.472413 5.931172 49.950146 119 49 60
6.461800 6.028946 49.868240 117 48 59
6.451587 6.126746 49.789421 115 47 57
6.441798 6.224617 49.713879 112 46 55
6.432447 6.322592 49.641716 112 45 54
6.423532 6.420691 49.572906 112 45 54
6.415038 6.518922 49.507359 112 45 53
6.406943 6.617282 49.444885 112 45 53
6.399220 6.715764 49.385284 114 46 55
6.391836 6.814350 49.328300 116 48 58
6.384764 6.913028 49.273720 117 49 59
6.377976 7.011784 49.221336 117 48 60
6.371456 7.110611 49.171021 117 47 59
6.365195 7.209516 49.122700 117 47 59
6.359193 7.308511 49.076385 117 47 59
6.353465 7.407624 49.032173 116 47 59
6.348029 7.506892 48.990223 114 46 57
6.342915 7.606366 48.950756 111 46 55
6.338154 7.706100 48.914021 108 45 53
6.333780 7.806150 48.880260 104 45 52
6.329822 7.906576 48.849712 100 46 51
6.326303 8.007425 48.822559 94 46 50
6.323238 8.108740 48.798904 87 44 47
6.320626 8.210541 48.778748 79 41 44
6.318454 8.312834 48.761986 74 41 43
6.316695 8.415604 48.748405 73 42 45
6.315305 8.518814 48.737679 74 43 46
6.314225 8.622402 48.729347 74 42 47
6.313389 8.726290 48.722893 74 42 47
6.312715 8.830378 48.717693 74 41 46
6.312119 8.934553 48.713093 73 40 44
6.311511 9.038691 48.708397 73 38 43
6.310801 9.142661 48.702919 74 36 42
6.309903 9.246333 48.695992 75 35 41
6.308736 9.349576 48.686989 78 33 40
6.307227 9.452267 48.675339 82 32 39
6.305312 9.554292 48.660557 85 32 40
6.302937 9.655550 48.642231 89 32 41
6.300064 9.755957 48.620056 93 34 43
6.296663 9.855443 48.593815 97 35 45
6.292721 9.953959 48.563389 99 36 46
6.288235 10.051475 48.528774 101 38 47
6.283216 10.147981 48.490040 103 42 49
6.277687 10.243486 48.447369 105 45 52
6.271680 10.338022 48.401012 104 46 52
6.265243 10.431639 48.351330 101 45 51
6.258426 10.524405 48.298721 99 43 50
6.251292 10.616405 48.243668 98 43 50
6.243908 10.707740 48.186684 98 44 51
6.236348 10.798523 48.128338 97 44 52
6.228685 10.888876 48.069202 96 44 53
6.220994 10.978924 48.009850 95 44 54
6.213351 11.068800 47.950863 94 44 54
6.205824 11.158633 47.892776 93 44 55
6.198480 11.248545 47.836094 93 45 55
6.191375 11.338652 47.781261 93 45 55
6.184560 11.429058 47.728668 92 43 54
6.178075 11.519854 47.678627 91 42 53
6.171951 11.611112 47.631363 91 41 53
6.166209 11.702890 47.587044 91 41 52
6.160858 11.795227 47.545750 92 42 52
6.155901 11.888147 47.507496 93 42 52
6.151332 11.981658 47.472237 94 43 52
6.147138 12.075753 47.439869 95 44 52
6.143301 12.170416 47.410259 95 44 52
6.139799 12.265619 47.383228 95 44 51
6.136608 12.361334 47.358604 95 44 51
6.133703 12.457524 47.336185 95 45 52
6.131059 12.554151 47.315781 95 45 53
6.128652 12.651179 47.297207 95 45 53
6.126461 12.748576 47.280293 94 44 53
6.124463 12.846307 47.264881 93 44 53
6.122643 12.944345 47.250832 92 44 52
6.120983 13.042665 47.238018 91 44 51
6.119467 13.141240 47.226326 90 45 51
6.118082 13.240047 47.215633 89 46 51
6.116812 13.339058 47.205833 89 47 53
6.115642 13.438247 47.196804 89 48 54
6.114557 13.537585 47.188431 88 48 54
6.113539 13.637036 47.180573 87 47 53
6.112571 13.736567 47.173107 85 45 52
6.111635 13.836138 47.165882 84 44 52
6.110716 13.935715 47.158787 83 43 51
6.109795 14.035256 47.151676 82 42 51
6.108859 14.134735 47.144459 82 41 51
6.107898 14.234122 47.137039 81 40 51
6.106903 14.333398 47.129356 81 40 50
6.105869 14.432549 47.121380 81 40 49
6.457354 -1.787501 49.018448 121 60 73
6.459276 -1.682335 49.033043 124 58 75
6.460855 -1.577021 49.045033 127 58 76
6.462164 -1.471595 49.054970 129 58 76
6.463278 -1.366084 49.063427 131 60 78
6.464271 -1.260514 49.070961 133 61 79
6.465214 -1.154902 49.078117 131 60 78
6.466175 -1.049262 49.085415 130 60 77
6.467220 -0.943603 49.093346 129 59 77
6.468410 -0.837928 49.102383 129 58 78
6.469803 -0.732238 49.112953 128 58 78
6.471449 -0.626526 49.125446 127 57 78
6.473396 -0.520785 49.140232 127 56 78
6.475688 -0.415002 49.157635 128 56 79
6.478363 -0.309162 49.177937 128 57 79
6.481451 -0.203248 49.201374 129 57 78
6.484978 -0.097239 49.228153 130 58 78
6.488968 0.008885 49.258442 131 58 78
6.493436 0.115149 49.292355 131 59 78
6.498389 0.221576 49.329952 131 59 78
6.503832 0.328189 49.371273 131 59 78
6.509766 0.435014 49.416313 131 59 79
6.516185 0.542073 49.465042 134 61 80
6.523079 0.649389 49.517380 134 61 80
6.530436 0.756984 49.573223 133 60 78
