ply
format ascii 1.0
element vertex 1235
property float x
property float y
property float z
property uchar red
property uchar green
property uchar blue
end_header
-0.969813 8.035210 65.298676 105 60 68
-0.967464 8.156163 65.140472 107 59 68
-0.965116 8.276449 64.982391 107 59 68
-0.962770 8.396070 64.824417 107 58 67
-0.960421 8.514989 64.666298 106 58 67
-0.958063 8.633138 64.507523 105 58 67
-0.955685 8.750417 64.347382 104 59 67
-0.953273 8.866698 64.185013 102 59 68
-0.950815 8.981838 64.019501 101 59 68
-0.948296 9.095683 63.849903 100 59 67
-0.945704 9.208084 63.675381 98 59 67
-0.943029 9.318910 63.495247 97 59 68
-0.940263 9.428054 63.309044 96 59 68
-0.937405 9.535453 63.116592 95 59 68
-0.934456 9.641088 62.918056 95 59 67
-0.931425 9.744999 62.713924 95 60 67
-0.928322 9.847283 62.505058 97 61 68
-0.925168 9.948098 62.292629 97 60 67
-0.921982 10.047661 62.078121 96 59 66
-0.918790 10.146237 61.863239 96 58 67
-0.915621 10.244142 61.649887 96 59 69
-0.912505 10.341719 61.440052 95 58 68
-0.909471 10.439338 61.235779 95 58 67
-0.906549 10.537375 61.039021 95 58 67
-0.903766 10.636202 60.851639 95 58 68
-0.901146 10.736170 60.675266 95 59 68
-0.898711 10.837600 60.511307 94 59 67
-0.896476 10.940767 60.360828 93 59 66
-0.894453 11.045897 60.224586 92 59 64
-0.892647 11.153150 60.102955 92 60 64
-0.891057 11.262622 59.995945 92 61 65
-0.889680 11.374342 59.903194 94 62 66
-0.888504 11.488268 59.824013 94 60 67
-0.887514 11.604292 59.757401 92 58 66
-0.886693 11.722252 59.702103 90 56 66
-0.886018 11.841929 59.656662 91 57 67
-0.885466 11.963072 59.619495 91 57 68
-0.885012 12.085395 59.588943 91 57 68
-0.884633 12.208608 59.563374 91 56 66
-0.884304 12.332416 59.541214 90 56 65
-0.884004 12.456549 59.521057 89 55 65
-0.883717 12.580761 59.501690 88 55 64
-0.883427 12.704858 59.482170 87 54 64
-0.883125 12.828701 59.461872 86 54 64
-0.882806 12.952203 59.440403 86 54 64
-0.882469 13.075346 59.417725 86 54 64
-0.882119 13.198181 59.394100 85 54 63
-0.881761 13.320819 59.370052 85 54 62
-0.881409 13.443431 59.346348 85 54 62
-0.881077 13.566236 59.323936 84 54 61
-0.880779 13.689496 59.303909 82 53 59
-0.880534 13.813493 59.287415 81 52 58
-0.880359 13.938518 59.275600 80 51 56
-0.880269 14.064861 59.269554 79 49 54
-0.880279 14.192797 59.270264 78 49 54
-0.880402 14.322561 59.278534 77 49 54
-0.880646 14.454353 59.294975 77 48 53
-0.881018 14.588318 59.319958 76 48 54
-0.881517 14.724542 59.353615 76 48 54
-0.882144 14.863047 59.395809 75 47 53
-0.882892 15.003794 59.446167 74 48 52
-0.883752 15.146683 59.504089 73 48 52
-0.884713 15.291561 59.568783 72 48 51
-0.885760 15.438228 59.639309 71 48 52
-0.886879 15.586445 59.714607 71 48 53
-0.888051 15.735947 59.793556 71 48 53
-0.889261 15.886455 59.875019 70 49 53
-0.890492 16.037685 59.957863 70 49 53
-0.891726 16.189352 60.041000 70 49 53
-0.892950 16.341179 60.123413 70 49 53
-0.894150 16.492910 60.204182 71 49 53
-0.895312 16.644302 60.282455 71 49 51
-0.896427 16.795126 60.357475 69 48 50
-0.897482 16.945162 60.428532 68 48 49
-0.898469 17.094206 60.494999 67 48 50
-0.899379 17.242056 60.556259 67 48 50
-0.900203 17.388512 60.611740 66 48 49
-0.900932 17.533365 60.660851 65 47 49
-0.901559 17.676407 60.703011 65 47 49
-0.902072 17.817410 60.737606 65 46 49
-0.902465 17.956152 60.764046 65 46 49
-0.902728 18.092402 60.781719 66 45 50
-0.902851 18.225918 60.790031 66 44 50
-0.902827 18.356466 60.788399 66 44 50
-0.902647 18.483824 60.776287 66 44 50
-0.902304 18.607773 60.753223 66 45 49
-0.901793 18.728123 60.718811 64 45 48
-0.901109 18.844704 60.672749 63 45 48
-0.900249 18.957388 60.614857 62 45 47
-0.899213 19.066078 60.545071 61 46 48
-0.898001 19.170727 60.463493 60 46 48
-0.896618 19.271339 60.370369 59 47 49
-0.895070 19.367973 60.266113 59 48 50
-0.893365 19.460749 60.151329 59 48 50
-0.891515 19.549858 60.026802 59 48 50
-0.889535 19.635529 59.893421 58 47 49
-0.887440 19.718102 59.752396 58 46 48
-0.885252 19.797972 59.605072 58 45 47
-0.882993 19.875605 59.452950 57 44 45
-0.880687 19.951527 59.297688 57 42 44
-0.878360 20.026314 59.141056 57 41 43
-0.876041 20.100592 58.984917 56 41 42
-0.873758 20.175018 58.831165 56 40 41
-0.871538 20.250267 58.681717 54 39 39
-0.869410 20.327013 58.538441 53 39 39
-0.867400 20.405912 58.403099 51 38 38
-0.865532 20.487595 58.277321 50 38 37
-0.863828 20.572624 58.162552 50 38 37
-0.862304 20.661505 58.059986 50 39 38
-0.884010 1.663585 69.627388 98 55 70
-0.882921 1.811445 69.541656 98 56 71
-0.881730 1.958706 69.447800 99 56 71
-0.880441 2.105330 69.346298 99 57 71
-0.879064 2.251292 69.237869 99 57 69
-0.877612 2.396580 69.123489 99 57 68
-0.876099 2.541197 69.004280 98 56 67
-0.874540 2.685162 68.881538 98 56 67
-0.872955 2.828509 68.756638 99 56 67
-0.871360 2.971287 68.631020 99 56 68
-0.869774 3.113556 68.506119 99 56 68
-0.868215 3.255386 68.383316 99 56 68
-0.866699 3.396855 68.263908 99 56 68
-0.865240 3.538045 68.149033 99 56 67
-0.863852 3.679038 68.039665 99 56 67
-0.862543 3.819912 67.936584 99 56 68
-0.861321 3.960741 67.840324 100 55 68
-0.860189 4.101586 67.751205 99 55 68
-0.859149 4.242501 67.669304 99 56 68
-0.858199 4.383520 67.594467 98 56 68
-0.857334 4.524664 67.526321 98 55 67
-0.856546 4.665937 67.464272 98 55 67
-0.855826 4.807320 67.407524 98 55 66
-0.855161 4.948779 67.355133 98 55 65
-0.854537 5.090258 67.306000 98 55 65
-0.853939 5.231682 67.258888 97 55 64
-0.853350 5.372963 67.212517 98 56 65
-0.852753 5.513991 67.165504 98 57 66
-0.852131 5.654648 67.116501 98 57 66
-0.851466 5.794805 67.064148 97 57 67
-0.850743 5.934326 67.007156 97 57 68
-0.849945 6.073072 66.944344 97 56 69
-0.849061 6.210911 66.874680 98 56 70
-0.848078 6.347718 66.797310 99 57 71
-0.846990 6.483381 66.711594 101 57 71
-0.845791 6.617806 66.617149 102 58 71
-0.844479 6.750924 66.513832 103 59 70
-0.843056 6.882690 66.401772 104 59 71
-0.841528 7.013090 66.281364 105 60 71
-0.839901 7.142136 66.153221 106 61 71
-0.838186 7.269868 66.018173 106 60 71
-0.836396 7.396349 65.877167 105 59 69
-0.834544 7.521664 65.731270 104 59 67
-0.832643 7.645906 65.581581 104 61 67
-0.830707 7.769176 65.429131 105 61 68
-0.828749 7.891566 65.274841 105 60 68
-0.826776 8.013160 65.119492 105 59 69
-0.824797 8.134016 64.963593 107 60 70
-0.822814 8.254169 64.807449 108 59 70
-0.820829 8.373615 64.651054 107 58 69
-0.818837 8.492322 64.494164 107 58 69
-0.816832 8.610217 64.336258 106 58 69
-0.814806 8.727201 64.176659 105 59 69
-0.812747 8.843143 64.014496 103 59 69
-0.810644 8.957896 63.848850 101 59 69
-0.808485 9.071309 63.678802 100 60 68
-0.806259 9.183230 63.503510 99 59 68
-0.803959 9.293529 63.322311 98 59 68
-0.801578 9.402101 63.134766 96 58 69
-0.799114 9.508882 62.940716 95 58 68
-0.796570 9.613860 62.740368 95 58 68
-0.793953 9.717079 62.534252 95 58 67
-0.791275 9.818644 62.323269 96 59 67
-0.788550 9.918718 62.108662 96 58 67
-0.785798 10.017529 61.891953 95 57 67
-0.783043 10.115352 61.674923 96 58 68
-0.780308 10.212511 61.459530 96 58 68
-0.777620 10.309361 61.247818 96 58 68
-0.775006 10.406282 61.041878 96 58 67
-0.772490 10.503660 60.843719 96 58 66
-0.770097 10.601871 60.655220 96 59 67
-0.767847 10.701273 60.478050 96 60 67
-0.765759 10.802192 60.313606 95 60 66
-0.763847 10.904904 60.162971 94 60 65
-0.762119 11.009631 60.026867 93 60 64
-0.760580 11.116533 59.905640 92 59 63
-0.759229 11.225699 59.799255 92 61 65
-0.758061 11.337146 59.707298 94 62 67
-0.757068 11.450821 59.629009 94 61 68
-0.756233 11.566603 59.563313 92 59 67
-0.755542 11.684310 59.508862 90 57 67
-0.754974 11.803710 59.464119 90 57 68
-0.754508 11.924528 59.427406 90 57 69
-0.754122 12.046462 59.396980 90 57 69
-0.753793 12.169200 59.371113 91 57 68
-0.753502 12.292429 59.348156 90 56 67
-0.753228 12.415858 59.326630 88 56 65
-0.752957 12.539229 59.305260 87 55 65
-0.752675 12.662331 59.283070 86 54 64
-0.752375 12.785015 59.259384 85 54 63
-0.752050 12.907187 59.233818 86 55 64
-0.751701 13.028827 59.206329 85 54 63
-0.751331 13.149982 59.177197 85 54 63
-0.750948 13.270770 59.146988 85 54 62
-0.750561 13.391368 59.116512 84 53 61
-0.750183 13.512005 59.086784 83 53 60
-0.749830 13.632952 59.058956 82 52 59
-0.749516 13.754508 59.034256 81 51 57
-0.749258 13.876983 59.013912 80 50 55
-0.749070 14.000680 58.999092 79 49 54
-0.748965 14.125889 58.990852 78 49 53
-0.748955 14.252864 58.990070 77 49 53
-0.749049 14.381818 58.997417 76 48 53
-0.749251 14.512913 59.013340 76 48 53
-0.749564 14.646246 59.038010 75 48 54
-0.749987 14.781853 59.071342 74 48 54
-0.750516 14.919704 59.112999 72 48 53
-0.751143 15.059711 59.162415 71 47 52
-0.751860 15.201727 59.218830 70 47 51
-0.752653 15.345560 59.281322 69 48 52
-0.753511 15.490977 59.348858 69 48 52
-0.754418 15.637720 59.420319 69 49 52
-0.755361 15.785514 59.494579 69 49 53
-0.756325 15.934077 59.570522 69 49 53
-0.757297 16.083130 59.647060 69 49 53
-0.758263 16.232397 59.723179 70 49 53
-0.759212 16.381626 59.797962 70 49 53
-0.760134 16.530573 59.870552 70 49 51
-0.761018 16.679010 59.940182 69 48 50
-0.761856 16.826719 60.006153 68 47 49
-0.762639 16.973499 60.067825 68 48 49
-0.763359 17.119144 60.124577 67 48 49
-0.764010 17.263458 60.175835 67 48 49
-0.764584 17.406235 60.221016 66 47 48
-0.765073 17.547270 60.259537 66 47 48
-0.765470 17.686340 60.290802 65 46 48
-0.765767 17.823229 60.314228 66 46 48
-0.765958 17.957710 60.329227 66 45 49
-0.766034 18.089560 60.335232 67 45 49
-0.765989 18.218554 60.331692 67 45 50
-0.765816 18.344477 60.318104 67 45 50
-0.765511 18.467131 60.294037 66 45 50
-0.765068 18.586342 60.259140 65 45 49
-0.764484 18.701950 60.213139 64 46 48
-0.763757 18.813845 60.155884 63 46 48
-0.762887 18.921940 60.087357 62 47 48
-0.761875 19.026205 60.007679 61 47 49
-0.760725 19.126650 59.917110 61 47 49
-0.759443 19.223343 59.816078 60 48 50
-0.758035 19.316408 59.705185 60 48 50
-0.756511 19.406040 59.585213 60 48 50
-0.754884 19.492462 59.457035 59 48 50
-0.753168 19.576019 59.321842 59 47 49
-0.751379 19.657097 59.180943 59 46 47
-0.749536 19.736155 59.035816 59 44 46
-0.747660 19.813709 58.888084 58 42 45
-0.745774 19.890331 58.739483 58 41 44
-0.743899 19.966637 58.591824 57 40 42
-0.742060 20.043268 58.446980 56 40 41
-0.740281 20.120895 58.306824 55 39 40
-0.738584 20.200180 58.173183 54 38 39
-0.736992 20.281767 58.047787 52 38 38
-0.735525 20.366276 57.932228 51 38 37
-0.734200 20.454254 57.827896 50 38 36
-0.733033 20.546190 57.735950 51 39 37
-0.731887 1.509306 69.434845 100 56 69
-0.730988 1.656946 69.349548 99 56 70
-0.730006 1.804013 69.256332 99 57 71
-0.728942 1.950462 69.155487 99 57 71
-0.727804 2.096259 69.047516 99 57 71
-0.726599 2.241385 68.933189 98 57 69
-0.725337 2.385831 68.813469 98 57 68
-0.724031 2.529605 68.689514 97 57 68
-0.722693 2.672729 68.562607 97 57 68
-0.721339 2.815243 68.434143 98 56 68
-0.719984 2.957196 68.305542 98 57 68
-0.718642 3.098653 68.178223 98 57 68
-0.717327 3.239687 68.053558 98 57 68
-0.716055 3.380380 67.932823 99 56 68
-0.714836 3.520815 67.817146 99 56 68
-0.713680 3.661076 67.707474 99 56 68
-0.712595 3.801244 67.604553 100 56 68
-0.711587 3.941393 67.508926 100 55 69
-0.710659 4.081589 67.420876 100 56 69
-0.709811 4.221884 67.340454 99 55 69
-0.709042 4.362316 67.267502 98 55 69
-0.708348 4.502908 67.201630 97 55 68
-0.707721 4.643663 67.142220 97 55 67
-0.707155 4.784567 67.088478 97 55 66
-0.706638 4.925583 67.039436 97 55 65
-0.706159 5.066660 66.993973 97 55 64
-0.705704 5.207722 66.950851 97 56 64
-0.705261 5.348680 66.908752 97 56 64
-0.704813 5.489427 66.866287 97 56 65
-0.704347 5.629842 66.822067 97 56 65
-0.703848 5.769796 66.774712 97 56 66
-0.703301 5.909150 66.722885 97 56 67
-0.702695 6.047765 66.665375 97 56 69
-0.702018 6.185503 66.601105 98 56 70
-0.701259 6.322237 66.529167 100 57 72
-0.700413 6.457849 66.448883 101 58 72
-0.699474 6.592242 66.359810 102 58 72
-0.698441 6.725341 66.261772 104 59 72
-0.697314 6.857096 66.154854 105 60 73
-0.696097 6.987487 66.039391 107 61 73
-0.694796 7.116521 65.915977 108 62 73
-0.693420 7.244235 65.785393 107 61 72
-0.691977 7.370685 65.648575 107 61 71
-0.690481 7.495952 65.506577 106 61 70
-0.688941 7.620126 65.360458 107 62 70
-0.687368 7.743305 65.211250 107 63 71
-0.685772 7.865579 65.059891 106 61 70
-0.684162 7.987027 64.907120 106 61 71
-0.682543 8.107709 64.753487 108 61 72
-0.680917 8.227654 64.599274 108 61 73
-0.679286 8.346861 64.444496 108 60 72
-0.677646 8.465293 64.288895 108 59 72
-0.675992 8.582878 64.131981 106 59 72
-0.674316 8.699513 63.973057 105 59 71
-0.672611 8.815070 63.811279 103 59 71
-0.670866 8.929399 63.645737 102 59 70
-0.669072 9.042349 63.475510 101 59 69
-0.667220 9.153769 63.299782 100 58 69
-0.665303 9.263530 63.117912 99 58 69
-0.663316 9.371530 62.929482 97 57 68
-0.661260 9.477708 62.734375 96 56 68
-0.659135 9.582057 62.532818 96 56 68
-0.656949 9.684628 62.325405 96 57 67
-0.654711 9.785529 62.113079 96 57 67
-0.652435 9.884935 61.897121 96 57 67
-0.650137 9.983081 61.679123 96 56 67
-0.647837 10.080252 61.460911 96 56 67
-0.645556 10.176779 61.244495 96 56 67
-0.643315 10.273028 61.031963 96 57 67
-0.641139 10.369386 60.825447 97 58 66
-0.639047 10.466244 60.626984 97 58 66
-0.637060 10.563986 60.438473 97 59 66
-0.635195 10.662971 60.261589 97 60 66
-0.633468 10.763530 60.097740 97 60 65
-0.631890 10.865934 59.947975 96 61 65
-0.630467 10.970407 59.813000 95 61 65
-0.629203 11.077097 59.693119 93 60 64
-0.628098 11.186088 59.588242 92 60 65
-0.627145 11.297386 59.497906 94 61 67
-0.626338 11.410926 59.421261 94 61 69
-0.625662 11.526570 59.357159 92 60 69
-0.625103 11.644121 59.304176 90 58 68
-0.624645 11.763327 59.260677 90 58 69
-0.624268 11.883893 59.224899 90 58 70
-0.623953 12.005499 59.195004 90 57 70
-0.623680 12.127810 59.169174 90 57 70
-0.623433 12.250494 59.145691 89 57 68
-0.623194 12.373243 59.123001 88 56 66
-0.622949 12.495782 59.099773 87 55 65
-0.622688 12.617885 59.074978 86 55 64
-0.622402 12.739394 59.047924 85 55 64
-0.622089 12.860206 59.018208 85 55 63
-0.621748 12.980296 58.985794 85 54 63
-0.621381 13.099715 58.950985 85 54 62
-0.620995 13.218580 58.914379 85 54 61
-0.620599 13.337075 58.876839 85 53 61
-0.620205 13.455441 58.839439 83 52 59
-0.619825 13.573963 58.803410 82 51 58
-0.619473 13.692951 58.770050 81 51 56
-0.619164 13.812730 58.740669 80 50 55
-0.618909 13.933624 58.716518 79 50 54
-0.618722 14.055939 58.698734 79 49 53
-0.618611 14.179946 58.688274 77 49 53
-0.618586 14.305875 58.685879 76 48 53
-0.618651 14.433902 58.692062 75 48 54
-0.618809 14.564142 58.707058 75 49 55
-0.619060 14.696644 58.730831 73 49 55
-0.619400 14.831390 58.763092 71 48 54
-0.619824 14.968304 58.803322 69 47 52
-0.620324 15.107249 58.850788 68 46 52
-0.620892 15.248042 58.904606 67 47 52
-0.621515 15.390461 58.963760 68 48 52
-0.622184 15.534251 59.027157 68 49 53
-0.622885 15.679149 59.093697 69 49 53
-0.623608 15.824877 59.162266 69 50 54
-0.624341 15.971158 59.231796 70 49 54
-0.625073 16.117727 59.301277 70 49 54
-0.625795 16.264330 59.369797 70 49 53
-0.626498 16.410730 59.436501 70 48 52
-0.627174 16.556700 59.500629 69 48 51
-0.627816 16.702024 59.561478 69 47 50
-0.628416 16.846502 59.618397 68 48 49
-0.628968 16.989935 59.670776 67 48 49
-0.629466 17.132122 59.718037 68 48 49
-0.629904 17.272865 59.759590 68 47 48
-0.630276 17.411959 59.794861 67 47 48
-0.630575 17.549189 59.823265 67 47 47
-0.630796 17.684340 59.844223 67 46 47
-0.630932 17.817198 59.857174 67 46 48
-0.630979 17.947546 59.861561 67 45 49
-0.630929 18.075165 59.856853 67 45 50
-0.630779 18.199860 59.842594 67 45 50
-0.630523 18.321440 59.818367 67 46 50
-0.630160 18.439743 59.783852 66 46 49
-0.629685 18.554628 59.738811 65 46 49
-0.629098 18.665989 59.683128 64 47 48
-0.628399 18.773758 59.616798 63 47 49
-0.627589 18.877911 59.539963 63 48 50
-0.626671 18.978466 59.452904 62 48 50
-0.625650 19.075499 59.356045 62 48 51
-0.624532 19.169140 59.249992 61 48 50
-0.623326 19.259581 59.135521 61 48 50
-0.622039 19.347050 59.013485 61 48 50
-0.620686 19.431879 58.885052 61 48 49
-0.619278 19.514460 58.751511 61 46 48
-0.617832 19.595238 58.614304 60 45 47
-0.616364 19.674725 58.475014 59 43 46
-0.614891 19.753481 58.335335 58 42 44
-0.613434 19.832108 58.197048 57 41 43
-0.612010 19.911245 58.061993 56 39 41
-0.610640 19.991545 57.931988 56 39 40
-0.609342 20.073660 57.808826 54 38 39
-0.608133 20.158222 57.694191 53 38 38
-0.607031 20.245834 57.589634 52 37 37
-0.606049 20.337036 57.496498 51 38 36
-0.605200 20.432299 57.415909 51 39 37
-0.604491 20.532000 57.348682 52 40 38
-0.580524 1.355694 69.233940 100 57 68
-0.579803 1.503069 69.147888 100 56 69
-0.579019 1.649894 69.054367 100 56 69
-0.578173 1.796123 68.953445 100 57 70
-0.577267 1.941717 68.845436 100 58 71
-0.576306 2.086647 68.730888 99 58 70
-0.575298 2.230896 68.610588 98 58 69
-0.574249 2.374461 68.485527 97 58 68
-0.573170 2.517354 68.356857 98 58 69
-0.572072 2.659602 68.225861 98 57 69
-0.570965 2.801247 68.093933 98 57 69
-0.569863 2.942343 67.962463 99 57 69
-0.568777 3.082957 67.832878 98 57 68
-0.567717 3.223166 67.706512 98 57 68
-0.566695 3.363053 67.584602 99 57 68
-0.565719 3.502703 67.468269 99 57 68
-0.564798 3.642202 67.358421 99 56 68
-0.563938 3.781632 67.255775 99 56 68
-0.563141 3.921070 67.160835 99 55 69
-0.562412 4.060581 67.073860 99 55 69
-0.561750 4.200219 66.994896 98 55 69
-0.561153 4.340022 66.923729 97 54 69
-0.560619 4.480015 66.859978 97 54 68
-0.560141 4.620201 66.802986 96 55 67
-0.559713 4.760567 66.751953 96 55 66
-0.559327 4.901077 66.705894 96 56 65
-0.558973 5.041680 66.663689 96 56 64
-0.558641 5.182302 66.624062 97 56 64
-0.558319 5.322854 66.585686 97 57 64
-0.557996 5.463228 66.547165 97 57 65
-0.557660 5.603304 66.507080 97 57 65
-0.557299 5.742951 66.464027 97 56 66
-0.556902 5.882030 66.416656 97 56 67
-0.556458 6.020400 66.363724 97 55 69
-0.555958 6.157921 66.304115 98 56 70
-0.555394 6.294463 66.236900 100 57 72
-0.554761 6.429906 66.161362 102 58 73
-0.554054 6.564148 66.077011 103 59 73
-0.553271 6.697111 65.983635 105 60 73
-0.552413 6.828741 65.881287 107 60 73
-0.551482 6.959014 65.770287 108 61 73
-0.550483 7.087932 65.651161 109 62 73
-0.549422 7.215526 65.524689 109 63 73
-0.548308 7.341852 65.391769 108 63 72
-0.547148 7.466984 65.253433 108 63 71
-0.545951 7.591011 65.110718 108 64 72
-0.544727 7.714023 64.964653 108 64 73
-0.543481 7.836112 64.816154 108 63 74
-0.542222 7.957352 64.665962 108 63 74
-0.540953 8.077801 64.514618 109 63 75
-0.539677 8.197485 64.362404 109 62 75
-0.538393 8.316402 64.209328 109 61 75
-0.537100 8.434513 64.055138 109 61 74
-0.535794 8.551745 63.899353 107 61 74
-0.534469 8.667994 63.741276 106 61 73
-0.533117 8.783131 63.580078 104 60 72
-0.531732 8.897008 63.414856 103 59 72
-0.530305 9.009471 63.244713 102 59 71
-0.528830 9.120375 63.068855 101 58 70
-0.527303 9.229590 62.886665 100 57 69
-0.525719 9.337021 62.697758 99 56 69
-0.524078 9.442610 62.502052 98 56 68
-0.522382 9.546355 62.299828 97 56 68
-0.520637 9.648314 62.091705 97 56 67
-0.518851 9.748603 61.878693 97 56 66
-0.517035 9.847404 61.662109 97 56 67
-0.515203 9.944961 61.443600 97 57 67
-0.513370 10.041565 61.225033 97 57 67
-0.511554 10.137558 61.008461 97 57 67
-0.509773 10.233313 60.796013 98 57 67
-0.508044 10.329221 60.589840 98 58 66
-0.506385 10.425677 60.392002 99 58 66
-0.504812 10.523072 60.204403 99 59 65
-0.503339 10.621765 60.028713 99 60 65
-0.501977 10.722084 59.866329 99 60 64
-0.500736 10.824301 59.718277 98 61 65
-0.499620 10.928630 59.585228 97 61 66
-0.498633 11.035218 59.467438 95 61 66
-0.497772 11.144135 59.364761 94 61 66
-0.497033 11.255377 59.276661 94 62 68
-0.496409 11.368864 59.202229 94 62 69
-0.495889 11.484444 59.140228 92 61 69
-0.495461 11.601901 59.089149 90 59 70
-0.495110 11.720965 59.047272 89 59 70
-0.494820 11.841322 59.012741 89 58 71
-0.494576 11.962631 58.983639 89 58 71
-0.494362 12.084538 58.958065 89 57 70
-0.494162 12.206693 58.934219 88 57 69
-0.493963 12.328767 58.910480 87 57 67
-0.493753 12.450469 58.885468 86 57 66
-0.493523 12.571563 58.858105 85 56 65
-0.493268 12.691875 58.827675 85 55 65
-0.492984 12.811298 58.793762 85 55 63
-0.492670 12.929802 58.756336 85 54 62
-0.492329 13.047436 58.715721 85 54 61
-0.491967 13.164321 58.672550 85 54 61
-0.491592 13.280649 58.627743 85 53 60
-0.491212 13.396667 58.582428 84 52 59
-0.490839 13.512675 58.537910 82 52 58
-0.490483 13.628998 58.495567 81 51 57
-0.490158 13.745975 58.456783 80 51 56
-0.489874 13.863949 58.422905 79 51 55
-0.489641 13.983240 58.395142 79 50 55
-0.489469 14.104142 58.374535 78 49 54
-0.489363 14.226898 58.361904 76 48 53
-0.489329 14.351705 58.357826 75 48 54
-0.489369 14.478691 58.362610 75 49 55
-0.489483 14.607921 58.376274 74 49 55
-0.489670 14.739391 58.398586 71 48 54
-0.489926 14.873038 58.429070 69 47 53
-0.490244 15.008739 58.467041 68 47 52
-0.490618 15.146321 58.511646 67 47 52
-0.491040 15.285571 58.561905 67 48 52
-0.491500 15.426248 58.616764 67 49 53
-0.491989 15.568093 58.675137 68 49 53
-0.492499 15.710838 58.735928 69 49 53
-0.493020 15.854217 58.798096 70 49 54
-0.493545 15.997966 58.860649 70 49 53
-0.494065 16.141842 58.922672 70 48 52
-0.494573 16.285608 58.983334 69 48 51
-0.495064 16.429045 59.041870 69 47 51
-0.495531 16.571939 59.097576 69 47 50
-0.495969 16.714096 59.149818 68 47 50
-0.496373 16.855316 59.197979 68 47 50
-0.496738 16.995405 59.241474 68 47 49
-0.497059 17.134165 59.279724 68 47 49
-0.497331 17.271395 59.312153 68 47 48
-0.497549 17.406887 59.338177 68 47 47
-0.497709 17.540432 59.357235 67 46 47
-0.497805 17.671818 59.368763 67 45 47
-0.497834 17.800835 59.372227 67 45 48
-0.497791 17.927277 59.367111 67 45 49
-0.497673 18.050951 59.352970 67 46 50
-0.497475 18.171684 59.329426 67 46 50
-0.497196 18.289320 59.296162 66 47 49
-0.496834 18.403727 59.252968 66 47 49
-0.496388 18.514812 59.199749 65 47 49
-0.495858 18.622517 59.136524 65 48 49
-0.495245 18.726822 59.063438 64 48 50
-0.494552 18.827755 58.980778 63 48 51
-0.493782 18.925398 58.888985 63 48 51
-0.492941 19.019882 58.788651 62 48 50
-0.492034 19.111399 58.680534 62 48 50
-0.491070 19.200178 58.565491 62 48 49
-0.490057 19.286551 58.444656 62 48 49
-0.489005 19.370895 58.319286 62 46 49
-0.487928 19.453659 58.190804 61 45 48
-0.486838 19.535341 58.060749 60 44 46
-0.485748 19.616489 57.930782 58 42 45
-0.484673 19.697702 57.802643 57 41 43
-0.483629 19.779606 57.678127 56 40 41
-0.482631 19.862837 57.559017 56 39 41
-0.481692 19.948038 57.447060 55 39 39
-0.480827 20.035828 57.343891 54 38 38
-0.480048 20.126799 57.251034 53 38 37
-0.479367 20.221470 57.169773 52 38 37
-0.478792 20.320297 57.101177 52 39 37
-0.478329 20.423645 57.046032 52 40 37
-0.477983 20.531761 57.004784 52 40 38
-0.430005 1.202886 69.029442 101 56 67
-0.429456 1.349963 68.941261 101 56 68
-0.428864 1.496512 68.846237 101 57 68
-0.428229 1.642485 68.744263 101 57 69
-0.427551 1.787839 68.635445 101 57 69
-0.426833 1.932542 68.520142 100 57 69
-0.426078 2.076569 68.398926 100 58 69
-0.425291 2.219906 68.272606 99 58 68
-0.424479 2.362557 68.142189 99 58 68
-0.423648 2.504538 68.008835 99 57 69
-0.422807 2.645879 67.873825 100 58 69
-0.421964 2.786627 67.738533 100 58 69
-0.421128 2.926838 67.604340 100 58 69
-0.420308 3.066584 67.472618 99 58 69
-0.419511 3.205942 67.344696 99 58 68
-0.418745 3.344999 67.221794 99 58 68
-0.418017 3.483840 67.104942 99 58 68
-0.417333 3.622554 66.995049 99 57 68
-0.416696 3.761222 66.892776 99 56 68
-0.416109 3.899922 66.798599 99 55 69
-0.415574 4.038719 66.712746 99 54 69
-0.415091 4.177669 66.635208 98 55 69
-0.414659 4.316809 66.565781 97 55 69
-0.414274 4.456164 66.504013 96 55 69
-0.413933 4.595737 66.449265 96 55 67
-0.413630 4.735516 66.400696 96 55 66
-0.413360 4.875466 66.357315 96 56 65
-0.413115 5.015534 66.317970 96 56 64
-0.412887 5.155649 66.281403 97 57 64
-0.412668 5.295721 66.246269 98 57 64
-0.412449 5.435642 66.211143 98 58 65
-0.412222 5.575294 66.174622 98 57 66
-0.411977 5.714543 66.135262 98 57 67
-0.411706 5.853253 66.091728 97 56 67
-0.411400 5.991280 66.042732 97 55 68
-0.411054 6.128483 65.987144 98 56 69
-0.410661 6.264731 65.924034 100 57 71
-0.410216 6.399903 65.852638 102 59 72
-0.409717 6.533894 65.772453 104 59 72
-0.409161 6.666623 65.683250 106 60 73
-0.408549 6.798033 65.585030 108 60 73
-0.407883 6.928098 65.478096 109 61 73
-0.407166 7.056815 65.362953 109 62 73
-0.406402 7.184213 65.240334 109 64 72
-0.405597 7.310343 65.111130 109 64 73
-0.404757 7.435276 64.976334 109 65 73
-0.403889 7.559095 64.836975 109 65 74
-0.402999 7.681891 64.694054 109 65 75
-0.402092 7.803748 64.548454 108 65 75
-0.401173 7.924738 64.400925 109 65 76
-0.400245 8.044916 64.251984 109 64 76
-0.399310 8.164307 64.101906 109 63 76
-0.398368 8.282903 63.950684 109 63 76
-0.397418 8.400665 63.798088 109 62 75
-0.396455 8.517519 63.643608 107 61 74
-0.395477 8.633360 63.486584 106 60 74
-0.394478 8.748056 63.326180 105 60 73
-0.393452 8.861464 63.161510 105 59 73
-0.392395 8.973430 62.991707 104 59 72
-0.391300 9.083810 62.816006 103 58 71
-0.390165 9.192480 62.633812 101 57 70
-0.388988 9.299348 62.444786 100 57 69
-0.387767 9.404362 62.248886 100 56 68
-0.386506 9.507527 62.046436 99 56 68
-0.385208 9.608908 61.838112 99 57 67
-0.383881 9.708629 61.624954 99 57 66
-0.382531 9.806879 61.408348 99 57 66
-0.381171 9.903910 61.189972 99 57 66
-0.379812 10.000020 60.971729 99 58 67
-0.378466 10.095560 60.755711 99 58 67
-0.377147 10.190905 60.544067 100 59 67
-0.375870 10.286452 60.338970 100 59 67
-0.374646 10.382603 60.142483 100 59 66
-0.373487 10.479744 59.956509 101 60 65
-0.372405 10.578238 59.782715 101 60 65
-0.371406 10.678407 59.622459 101 60 64
-0.370499 10.780520 59.476742 100 61 65
-0.369686 10.884789 59.346191 98 61 66
-0.368968 10.991344 59.231010 97 61 67
-0.368345 11.100252 59.131001 96 61 67
-0.367813 11.211493 59.045547 95 62 69
-0.367365 11.324973 58.973675 94 62 69
-0.366994 11.440526 58.914070 93 62 69
-0.366689 11.557918 58.865139 91 60 69
-0.366439 11.676859 58.825077 89 59 70
-0.366233 11.797019 58.791954 88 58 70
-0.366057 11.918036 58.763756 87 58 70
-0.365900 12.039537 58.738518 87 57 69
-0.365750 12.161154 58.714355 87 57 68
-0.365595 12.282541 58.689598 86 57 67
-0.365429 12.403392 58.662807 85 56 66
-0.365242 12.523455 58.632870 84 55 65
-0.365031 12.642548 58.599037 83 55 64
-0.364794 12.760554 58.560886 83 55 63
-0.364529 12.877441 58.518394 84 54 62
-0.364239 12.993257 58.471905 84 54 61
-0.363929 13.108125 58.422085 84 54 61
-0.363604 13.222242 58.369904 84 53 60
-0.363272 13.335867 58.316551 83 53 59
-0.362940 13.449307 58.263393 82 52 57
-0.362620 13.562903 58.211887 81 51 57
-0.362318 13.677011 58.163502 80 51 56
-0.362045 13.791987 58.119656 79 51 55
-0.361808 13.908174 58.081654 79 50 55
-0.361615 14.025877 58.050610 77 49 54
-0.361471 14.145363 58.027424 75 49 53
-0.361379 14.266839 58.012741 75 48 54
-0.361343 14.390457 58.006943 74 49 55
-0.361363 14.516293 58.010109 73 49 55
-0.361437 14.644361 58.022068 71 49 55
-0.361564 14.774611 58.042393 69 48 54
-0.361739 14.906935 58.070457 67 48 53
-0.361957 15.041171 58.105442 67 48 53
-0.362212 15.177120 58.146412 67 48 53
-0.362498 15.314553 58.192345 67 49 52
-0.362808 15.453222 58.242191 68 49 52
-0.363137 15.592869 58.294891 69 49 52
-0.363476 15.733236 58.349419 69 49 52
-0.363821 15.874070 58.404804 69 48 51
-0.364166 16.015135 58.460152 69 47 51
-0.364506 16.156200 58.514648 69 47 51
-0.364835 16.297056 58.567535 68 47 50
-0.365150 16.437492 58.618122 68 46 50
-0.365447 16.577320 58.665779 68 46 50
-0.365722 16.716343 58.709888 68 46 51
-0.365971 16.854374 58.749874 68 46 51
-0.366191 16.991215 58.785152 68 47 50
-0.366378 17.126671 58.815147 68 47 50
-0.366528 17.260536 58.839283 68 46 48
-0.366638 17.392607 58.856995 67 46 47
-0.366705 17.522678 58.867729 67 45 47
-0.366725 17.650543 58.870953 67 46 48
-0.366695 17.776003 58.866161 67 46 49
-0.366613 17.898872 58.852924 67 46 50
-0.366475 18.018982 58.830864 67 47 50
-0.366281 18.136187 58.799690 66 47 49
-0.366029 18.250360 58.759193 66 47 49
-0.365718 18.361420 58.709290 66 47 49
-0.365349 18.469309 58.650009 65 48 49
-0.364922 18.574020 58.581509 65 48 50
-0.364440 18.675583 58.504078 64 48 50
-0.363905 18.774084 58.418152 64 48 50
-0.363320 18.869656 58.324314 63 48 50
-0.362691 18.962492 58.223324 63 47 49
-0.362022 19.052818 58.116009 62 47 49
-0.361321 19.140966 58.003490 62 47 49
-0.360596 19.227310 57.886997 62 46 49
-0.359854 19.312286 57.767921 61 45 48
-0.359106 19.396389 57.647770 60 44 47
-0.358361 19.480160 57.528172 59 42 45
-0.357630 19.564178 57.410820 57 41 43
-0.356923 19.649067 57.297470 56 40 41
-0.356253 19.735449 57.189869 56 40 40
-0.355629 19.823957 57.089725 55 39 39
-0.355062 19.915194 56.998623 54 39 38
-0.354560 20.009735 56.918045 53 38 38
-0.354131 20.108091 56.849236 52 38 37
-0.353782 20.210699 56.793201 52 39 37
-0.353517 20.317902 56.750675 51 39 38
-0.353339 20.429928 56.722054 51 40 37
-0.280000 1.197747 68.734573 101 56 67
-0.279601 1.343999 68.636703 101 56 68
-0.279177 1.489692 68.532486 101 57 68
-0.278726 1.634782 68.421867 101 57 68
-0.278250 1.779232 68.305008 101 57 68
-0.277750 1.923014 68.182297 100 57 68
-0.277229 2.066107 68.054344 100 57 68
-0.276690 2.208505 67.921982 100 57 67
-0.276137 2.350215 67.786217 100 57 68
-0.275575 2.491257 67.648216 101 58 69
-0.275009 2.631668 67.509262 102 59 70
-0.274444 2.771495 67.370697 102 59 70
-0.273887 2.910800 67.233894 102 59 70
-0.273342 3.049657 67.100189 101 59 69
-0.272815 3.188146 66.970871 101 59 69
-0.272311 3.326354 66.847099 100 59 69
-0.271834 3.464369 66.729889 99 58 68
-0.271386 3.602278 66.620087 99 57 68
-0.270972 3.740166 66.518303 98 56 68
-0.270592 3.878109 66.424980 98 55 68
-0.270247 4.016171 66.340294 98 55 68
-0.269937 4.154409 66.264214 97 55 69
-0.269661 4.292860 66.196472 97 55 69
-0.269417 4.431546 66.136612 96 55 68
-0.269202 4.570472 66.083954 97 55 67
-0.269014 4.709625 66.037651 96 55 66
-0.268847 4.848969 65.996681 96 55 65
-0.268697 4.988454 65.959900 97 56 64
-0.268559 5.128006 65.926018 97 57 64
-0.268427 5.267536 65.893692 98 57 65
-0.268296 5.406939 65.861511 98 58 67
-0.268160 5.546094 65.828041 99 58 68
-0.268013 5.684871 65.791862 99 58 68
-0.267849 5.823131 65.751610 98 57 69
-0.267663 5.960732 65.706001 97 56 68
-0.267451 6.097535 65.653915 98 57 68
-0.267208 6.233405 65.594383 100 58 70
-0.266932 6.368222 65.526649 102 59 70
-0.266621 6.501880 65.450195 104 59 70
-0.266273 6.634297 65.364761 106 60 70
-0.265888 6.765415 65.270348 108 60 70
-0.265468 6.895203 65.167206 109 62 71
-0.265014 7.023658 65.055840 110 63 72
-0.264530 7.150805 64.936943 110 64 73
-0.264018 7.276690 64.811394 110 65 74
-0.263484 7.401381 64.680138 110 66 74
-0.262930 7.524960 64.544174 109 66 75
-0.262361 7.647508 64.404495 109 66 75
-0.261780 7.769109 64.261948 109 66 75
-0.261191 7.889831 64.117249 109 66 76
-0.260595 8.009724 63.970913 110 64 76
-0.259993 8.128807 63.823177 110 64 75
-0.259385 8.247073 63.674049 110 63 75
-0.258771 8.364479 63.523273 109 62 74
-0.258148 8.480948 63.370350 108 61 74
-0.257514 8.596375 63.214611 107 60 73
-0.256865 8.710629 63.055248 107 60 73
-0.256197 8.823565 62.891384 106 59 74
-0.255508 8.935035 62.722183 105 59 73
-0.254794 9.044896 62.546909 104 58 72
-0.254053 9.153030 62.365013 103 58 70
-0.253284 9.259348 62.176189 102 57 69
-0.252486 9.363807 61.980446 101 56 68
-0.251662 9.466418 61.778152 101 57 67
-0.250814 9.567252 61.570038 101 57 66
-0.249947 9.666443 61.357185 101 57 66
-0.249067 9.764188 61.141029 101 58 66
-0.248180 9.860744 60.923279 101 58 66
-0.247294 9.956419 60.705883 101 59 67
-0.246419 10.051565 60.490952 101 59 67
-0.245562 10.146565 60.280647 101 59 67
-0.244733 10.241819 60.077160 100 59 67
-0.243940 10.337729 59.882549 100 59 66
-0.243191 10.434682 59.698700 101 59 65
-0.242493 10.533036 59.527264 101 59 65
-0.241850 10.633113 59.369560 101 60 65
-0.241268 10.735174 59.226566 100 61 66
-0.240748 10.839421 59.098843 99 61 66
-0.240290 10.945982 58.986557 98 60 67
-0.239894 11.054905 58.889435 96 61 68
-0.239558 11.166162 58.806808 95 61 69
-0.239276 11.279644 58.737625 94 62 69
-0.239043 11.395168 58.680496 94 62 69
-0.238853 11.512486 58.633755 92 61 69
-0.238697 11.631291 58.595520 90 59 69
-0.238568 11.751234 58.563778 88 58 69
-0.238457 11.871935 58.536446 87 58 69
-0.238355 11.993004 58.511486 87 57 69
-0.238255 12.114054 58.486954 87 57 67
-0.238150 12.234725 58.461117 85 56 67
-0.238033 12.354695 58.432495 84 56 66
-0.237900 12.473701 58.399933 83 55 65
-0.237749 12.591551 58.362663 83 55 64
-0.237576 12.708120 58.320255 82 55 63
-0.237382 12.823371 58.272686 82 55 62
-0.237169 12.937350 58.220318 83 54 61
-0.236939 13.050185 58.163857 83 53 61
-0.236696 13.162077 58.104305 83 53 60
-0.236446 13.273292 58.042912 82 52 58
-0.236194 13.384147 57.981113 81 52 57
-0.235947 13.494995 57.920425 80 51 57
-0.235711 13.606209 57.862408 79 50 55
-0.235491 13.718159 57.808544 78 50 54
-0.235294 13.831203 57.760220 77 49 54
-0.235125 13.945664 57.718624 76 49 54
-0.234987 14.061829 57.684750 75 49 54
-0.234883 14.179918 57.659298 75 49 55
-0.234816 14.300100 57.642723 74 50 56
-0.234785 14.422470 57.635174 73 50 56
-0.234791 14.547058 57.636547 72 50 56
-0.234831 14.673826 57.646458 70 49 55
-0.234904 14.802684 57.664341 69 49 54
-0.235006 14.933482 57.689426 68 49 54
-0.235134 15.066039 57.720837 68 49 53
-0.235284 15.200135 57.757576 68 48 52
-0.235451 15.335537 57.798645 69 48 51
-0.235632 15.472000 57.843018 69 48 51
-0.235822 15.609279 57.889706 69 48 51
-0.236018 15.747128 57.937748 69 47 50
-0.236216 15.885325 57.986309 69 47 50
-0.236412 16.023649 58.034569 69 47 51
-0.236604 16.161894 58.081799 68 46 51
-0.236790 16.299862 58.127316 68 46 51
-0.236966 16.437368 58.170498 68 46 52
-0.237130 16.574224 58.210747 68 45 52
-0.237279 16.710245 58.247482 68 46 52
-0.237412 16.845242 58.280121 68 46 52
-0.237526 16.979019 58.308094 68 46 51
-0.237619 17.111376 58.330814 67 46 50
-0.237688 17.242115 58.347725 67 45 49
-0.237731 17.371031 58.358265 67 46 48
-0.237746 17.497923 58.361904 67 46 48
-0.237730 17.622595 58.358143 67 47 49
-0.237683 17.744867 58.346542 67 47 49
-0.237602 17.864574 58.326729 67 47 49
-0.237487 17.981575 58.298416 66 47 49
-0.237336 18.095749 58.261402 65 47 48
-0.237150 18.207018 58.215599 65 47 48
-0.236927 18.315329 58.161037 65 47 49
-0.236670 18.420677 58.097878 65 47 50
-0.236379 18.523102 58.026402 64 47 50
-0.236056 18.622684 57.947048 64 47 50
-0.235703 18.719561 57.860382 63 47 50
-0.235323 18.813929 57.767166 63 47 49
-0.234920 18.906012 57.668205 62 47 49
-0.234498 18.996136 57.564602 62 46 49
-0.234062 19.084669 57.457558 61 45 48
-0.233617 19.172052 57.348446 60 45 47
-0.233170 19.258762 57.238731 60 44 46
-0.232727 19.345337 57.130020 59 43 44
-0.232295 19.432350 57.023968 57 41 43
-0.231881 19.520407 56.922295 56 40 41
-0.231492 19.610123 56.826694 56 40 40
-0.231134 19.702118 56.738846 55 39 39
-0.230814 19.796980 56.660290 54 39 39
-0.230537 19.895275 56.592461 53 39 38
-0.230310 19.997492 56.536549 52 39 38
-0.230134 20.104059 56.493534 51 39 37
-0.230014 20.215296 56.464085 50 39 37
-0.229951 20.331415 56.448544 50 39 37
-0.229945 20.452507 56.446903 50 39 36
-0.131445 1.046499 68.532867 102 58 67
-0.131249 1.192452 68.430702 101 56 66
-0.131042 1.337855 68.322937 102 57 67
-0.130824 1.482668 68.209351 102 57 67
-0.130595 1.626851 68.089951 101 58 67
-0.130355 1.770373 67.964928 101 58 67
-0.130106 1.913211 67.834724 100 57 67
-0.129847 2.055349 67.699982 100 57 67
-0.129582 2.196786 67.561554 100 57 67
-0.129311 2.337534 67.420456 101 57 67
-0.129038 2.477618 67.277855 102 58 68
-0.128764 2.617079 67.135025 103 59 69
-0.128492 2.755968 66.993286 103 59 70
-0.128225 2.894352 66.853981 103 59 70
-0.127965 3.032306 66.718422 103 59 69
-0.127714 3.169912 66.587830 101 59 69
-0.127475 3.307258 66.463348 100 59 68
-0.127250 3.444434 66.345917 99 58 68
-0.127040 3.581529 66.236336 97 57 67
-0.126846 3.718624 66.135178 97 56 66
-0.126669 3.855796 66.042809 97 56 66
-0.126509 3.993110 65.959366 97 55 67
-0.126366 4.130620 65.884766 96 55 67
-0.126239 4.268362 65.818718 96 55 67
-0.126128 4.406358 65.760712 96 55 67
-0.126031 4.544612 65.710052 96 55 66
-0.125946 4.683110 65.665863 97 56 65
-0.125871 4.821815 65.627106 97 56 65
-0.125805 4.960677 65.592621 97 56 64
-0.125745 5.099623 65.561127 98 56 65
-0.125688 5.238564 65.531281 98 57 66
-0.125631 5.377395 65.501648 99 58 68
-0.125572 5.515998 65.470818 100 58 70
-0.125508 5.654241 65.437378 100 58 70
-0.125436 5.791988 65.399956 99 58 70
-0.125354 5.929099 65.357300 98 57 69
-0.125260 6.065434 65.308273 99 57 68
-0.125152 6.200861 65.251915 101 58 69
-0.125028 6.335258 65.187469 103 59 69
-0.124888 6.468523 65.114403 105 60 69
-0.124731 6.600570 65.032463 107 60 69
-0.124557 6.731343 64.941628 108 61 70
-0.124366 6.860808 64.842133 109 62 70
-0.124159 6.988960 64.734451 110 63 71
-0.123938 7.115821 64.619263 111 64 73
-0.123705 7.241436 64.497391 111 66 75
-0.123460 7.365867 64.369774 110 66 75
-0.123206 7.489190 64.237373 110 66 76
-0.122945 7.611486 64.101128 110 66 76
-0.122678 7.732830 63.961861 110 66 75
-0.122406 7.853287 63.820267 110 66 75
-0.122131 7.972899 63.676807 110 65 75
-0.121853 8.091686 63.531727 110 64 74
-0.121571 8.209634 63.384991 110 63 73
-0.121286 8.326696 63.236332 110 62 73
-0.120996 8.442794 63.085258 110 61 73
-0.120701 8.557821 62.931099 109 61 73
-0.120397 8.671647 62.773060 109 60 73
-0.120085 8.784128 62.610291 108 60 74
-0.119762 8.895117 62.441967 107 59 73
-0.119428 9.004478 62.267406 105 58 72
-0.119080 9.112094 62.086086 104 57 70
-0.118719 9.217884 61.897758 103 57 68
-0.118344 9.321813 61.702477 102 57 67
-0.117957 9.423898 61.500664 101 57 66
-0.117559 9.524218 61.293091 101 57 65
-0.117152 9.622914 61.080891 101 58 65
-0.116739 9.720192 60.865536 101 58 65
-0.116323 9.816315 60.648781 101 59 65
-0.115908 9.911596 60.432594 101 59 66
-0.115499 10.006395 60.219112 101 59 66
-0.115099 10.101094 60.010506 101 59 67
-0.114712 10.196096 59.808956 100 59 67
-0.114343 10.291804 59.616520 100 58 66
-0.113995 10.388602 59.435070 100 59 65
-0.113671 10.486847 59.266220 100 59 65
-0.113374 10.586852 59.111263 100 60 66
-0.113105 10.688874 58.971127 100 61 67
-0.112866 10.793108 58.846333 100 61 67
-0.112656 10.899668 58.736973 98 61 68
-0.112476 11.008594 58.642735 97 60 69
-0.112322 11.119844 58.562878 96 61 69
-0.112195 11.233299 58.496288 95 62 69
-0.112090 11.348758 58.441502 94 62 69
-0.112004 11.465960 58.396793 93 61 69
-0.111934 11.584581 58.360207 92 59 69
-0.111875 11.704256 58.329655 90 58 68
-0.111824 11.824589 58.303001 89 58 69
-0.111776 11.945175 58.278141 89 58 68
-0.111728 12.065611 58.253075 87 57 67
-0.111676 12.185523 58.226017 85 56 66
-0.111618 12.304576 58.195450 84 55 65
-0.111550 12.422495 58.160194 83 56 64
-0.111472 12.539078 58.119450 83 56 63
-0.111382 12.654196 58.072781 82 55 62
-0.111282 12.767804 58.020176 82 55 61
-0.111170 12.879950 57.962002 83 54 61
-0.111049 12.990758 57.898994 83 53 61
-0.110921 13.100437 57.832191 82 53 59
-0.110788 13.209260 57.762905 81 53 58
-0.110653 13.317550 57.692608 80 52 57
-0.110520 13.425673 57.622894 79 52 57
-0.110390 13.534009 57.555367 78 51 55
-0.110268 13.642950 57.491611 77 51 54
-0.110155 13.752865 57.433071 76 50 54
-0.110056 13.864093 57.381012 75 49 54
-0.109970 13.976933 57.336487 75 50 54
-0.109901 14.091630 57.300293 75 50 55
-0.109848 14.208363 57.272934 75 50 56
-0.109813 14.327244 57.254631 74 51 56
-0.109795 14.448318 57.245335 73 51 56
-0.109794 14.571569 57.244740 73 51 56
-0.109809 14.696918 57.252327 72 50 56
-0.109838 14.824232 57.267387 70 50 55
-0.109879 14.953342 57.289078 69 49 53
-0.109932 15.084051 57.316483 69 49 52
-0.109993 15.216136 57.348629 70 48 51
-0.110062 15.349363 57.384533 70 48 49
-0.110137 15.483506 57.423256 70 48 49
-0.110215 15.618334 57.463882 69 47 49
-0.110295 15.753632 57.505589 69 47 50
-0.110375 15.889192 57.547588 68 46 51
-0.110455 16.024820 57.589191 68 47 52
-0.110533 16.160330 57.629726 68 46 52
-0.110607 16.295540 57.668583 67 46 53
-0.110677 16.430271 57.705170 67 45 53
-0.110742 16.564348 57.738922 67 45 53
-0.110800 16.697580 57.769253 67 45 53
-0.110851 16.829782 57.795597 67 45 52
-0.110893 16.960754 57.817360 66 45 51
-0.110924 17.090302 57.833981 66 45 50
-0.110945 17.218222 57.844902 67 46 49
-0.110954 17.344315 57.849567 67 46 49
-0.110950 17.468390 57.847481 67 47 49
-0.110932 17.590265 57.838196 66 48 49
-0.110900 17.709778 57.821323 66 48 49
-0.110853 17.826790 57.796585 65 48 48
-0.110790 17.941181 57.763752 65 47 47
-0.110711 18.052874 57.722740 65 47 47
-0.110617 18.161821 57.673573 65 46 48
-0.110507 18.268021 57.616402 65 46 49
-0.110383 18.371508 57.551514 64 46 49
-0.110244 18.472368 57.479317 63 46 49
-0.110093 18.570742 57.400398 63 46 49
-0.109930 18.666819 57.315475 62 46 48
-0.109757 18.760830 57.225365 62 45 48
-0.109576 18.853098 57.131149 61 45 48
-0.109390 18.943985 57.034000 60 45 47
-0.109201 19.033926 56.935272 59 44 46
-0.109011 19.123394 56.836407 59 44 45
-0.108824 19.212921 56.738972 58 43 44
-0.108643 19.303070 56.644596 57 42 42
-0.108471 19.394438 56.554962 56 41 41
-0.108312 19.487631 56.471733 56 41 41
-0.108167 19.583254 56.396538 56 40 41
-0.108041 19.681885 56.330883 55 40 40
-0.107937 19.784075 56.276150 54 39 39
-0.107855 19.890303 56.233505 52 39 39
-0.107798 20.000973 56.203857 51 39 38
-0.107767 20.116394 56.187836 51 39 37
-0.107763 20.236753 56.185719 51 39 37
-0.107786 20.362122 56.197449 50 38 36
-0.107834 20.492430 56.222599 49 38 35
0.016218 1.041922 68.233170 102 58 66
0.016191 1.187046 68.120483 102 58 66
0.016163 1.331584 68.002678 103 59 67
0.016134 1.475500 67.879608 103 59 67
0.016103 1.618760 67.751320 102 59 66
0.016072 1.761338 67.618057 101 59 66
0.016039 1.903215 67.480316 101 58 66
0.016005 2.044382 67.338753 101 57 66
0.015971 2.184843 67.194244 101 57 66
0.015936 2.324615 67.047829 101 57 67
0.015901 2.463728 66.900665 102 58 68
0.015866 2.602226 66.754013 103 58 69
0.015832 2.740167 66.609184 104 59 70
0.015798 2.877619 66.467476 104 59 70
0.015766 3.014660 66.330170 103 59 70
0.015734 3.151375 66.198448 102 59 70
0.015705 3.287853 66.073387 100 59 68
0.015677 3.424185 65.955879 99 58 67
0.015651 3.560458 65.846664 97 57 66
0.015627 3.696755 65.746246 96 56 65
0.015605 3.833152 65.654945 96 56 65
0.015586 3.969711 65.572838 96 55 65
0.015568 4.106483 65.499786 96 55 66
0.015553 4.243507 65.435455 96 55 65
0.015540 4.380802 65.379303 96 55 65
0.015528 4.518368 65.330589 97 55 65
0.015518 4.656191 65.288414 98 56 65
0.015509 4.794235 65.251732 98 57 65
0.015502 4.932448 65.219360 98 57 66
0.015495 5.070757 65.190025 98 57 66
0.015488 5.209074 65.162376 99 58 68
0.015482 5.347295 65.134995 100 58 69
0.015475 5.485301 65.106476 100 58 70
0.015467 5.622966 65.075432 100 59 70
0.015459 5.760153 65.040497 100 58 70
0.015450 5.896724 65.000435 99 57 68
0.015439 6.032543 64.954132 99 57 68
0.015426 6.167478 64.900635 101 58 69
0.015411 6.301411 64.839195 103 60 70
0.015395 6.434239 64.769302 106 60 70
0.015376 6.565880 64.690674 107 60 70
0.015355 6.696274 64.603294 108 61 70
0.015332 6.825389 64.507385 109 61 70
0.015308 6.953219 64.403404 110 62 71
0.015281 7.079782 64.291992 111 63 72
0.015253 7.205121 64.173943 111 65 74
0.015224 7.329293 64.050156 110 66 75
0.015193 7.452370 63.921551 110 66 76
0.015162 7.574427 63.789024 110 66 76
0.015129 7.695533 63.653366 110 66 75
0.015097 7.815748 63.515209 111 66 74
0.015063 7.935110 63.374996 111 65 73
0.015029 8.053631 63.232929 111 64 72
0.014995 8.171291 63.088951 110 63 71
0.014960 8.288043 62.942780 110 62 71
0.014925 8.403803 62.793911 110 61 71
0.014889 8.518463 62.641678 110 60 72
0.014852 8.631894 62.485294 109 60 72
0.014813 8.743953 62.323929 109 60 72
0.014774 8.854493 62.156796 108 59 71
0.014732 8.963385 61.983242 106 58 70
0.014689 9.070515 61.802788 105 58 68
0.014645 9.175811 61.615238 104 58 67
0.014599 9.279242 61.420692 102 58 66
0.014551 9.380834 61.219624 101 58 65
0.014502 9.480673 61.012856 100 58 64
0.014452 9.578910 60.801575 100 58 64
0.014401 9.675755 60.587280 100 58 65
0.014349 9.771477 60.371754 101 59 66
0.014298 9.866397 60.157009 100 59 66
0.014248 9.960875 59.945168 100 59 66
0.014199 10.055298 59.738426 99 58 66
0.014151 10.150068 59.538960 99 58 66
0.014106 10.245587 59.348804 99 57 66
0.014064 10.342236 59.169804 99 57 65
0.014024 10.440368 59.003548 100 58 66
0.013988 10.540290 58.851292 100 59 67
0.013955 10.642254 58.713913 100 60 68
0.013926 10.746441 58.591892 100 61 68
0.013901 10.852960 58.485271 100 61 69
0.013879 10.961839 58.393673 99 60 70
0.013861 11.073026 58.316303 97 61 70
0.013846 11.186386 58.251991 96 61 69
0.013833 11.301709 58.199219 95 61 68
0.013823 11.418717 58.156185 94 60 68
0.013814 11.537077 58.120888 92 59 68
0.013807 11.656405 58.091187 92 58 68
0.013801 11.776296 58.064884 91 59 68
0.013795 11.896328 58.039825 91 59 68
0.013789 12.016088 58.013969 88 57 66
0.013782 12.135185 57.985489 85 56 64
0.013774 12.253278 57.952831 84 55 64
0.013765 12.370076 57.914780 83 56 63
0.013755 12.485376 57.870537 82 55 62
0.013743 12.599035 57.819641 82 55 61
0.013729 12.711011 57.762089 82 55 60
0.013714 12.821342 57.698261 82 55 60
0.013697 12.930160 57.628906 82 54 59
0.013680 13.037670 57.555107 81 54 59
0.013662 13.144150 57.478188 80 53 58
0.013643 13.249933 57.399689 79 53 57
0.013624 13.355392 57.321251 78 52 56
0.013606 13.460918 57.244537 77 52 55
0.013589 13.566913 57.171188 76 51 54
0.013572 13.673759 57.102718 76 51 54
0.013558 13.781810 57.040459 76 50 54
0.013545 13.891379 56.985531 76 50 55
0.013533 14.002726 56.938786 76 51 55
0.013524 14.116044 56.900806 75 51 56
0.013518 14.231465 56.871880 75 51 56
0.013513 14.349047 56.852013 75 52 56
0.013510 14.468789 56.840965 75 52 56
0.013510 14.590630 56.838280 74 51 56
0.013511 14.714458 56.843315 72 50 54
0.013514 14.840116 56.855282 71 49 52
0.013518 14.967421 56.873310 71 49 51
0.013523 15.096171 56.896492 71 48 50
0.013530 15.226153 56.923904 70 48 49
0.013537 15.357147 56.954632 69 47 49
0.013545 15.488945 56.987827 69 47 50
0.013553 15.621341 57.022686 69 46 51
0.013562 15.754147 57.058483 69 46 52
0.013570 15.887176 57.094528 68 46 52
0.013579 16.020254 57.130196 68 46 53
0.013587 16.153212 57.164894 67 46 53
0.013595 16.285877 57.198040 66 45 53
0.013602 16.418081 57.229076 66 44 53
0.013609 16.549643 57.257431 66 44 53
0.013615 16.680376 57.282520 65 45 52
0.013620 16.810087 57.303757 65 45 51
0.013624 16.938585 57.320568 65 45 50
0.013627 17.065664 57.332378 65 46 50
0.013628 17.191128 57.338631 66 46 50
0.013628 17.314783 57.338806 66 47 49
0.013627 17.436447 57.332432 65 48 49
0.013624 17.555962 57.319122 66 48 48
0.013619 17.673178 57.298557 65 48 48
0.013612 17.787985 57.270515 66 47 48
0.013604 17.900297 57.234886 65 47 47
0.013594 18.010073 57.191685 65 47 48
0.013581 18.117304 57.141048 64 46 49
0.013568 18.222029 57.083244 64 46 49
0.013552 18.324335 57.018696 63 46 49
0.013536 18.424360 56.947948 63 45 48
0.013517 18.522301 56.871738 62 45 48
0.013498 18.618380 56.790855 61 45 48
0.013478 18.712917 56.706356 60 45 48
0.013457 18.806282 56.619423 60 44 47
0.013437 18.898897 56.531372 59 43 46
0.013416 18.991238 56.443630 58 43 45
0.013395 19.083826 56.357731 57 42 44
0.013376 19.177217 56.275284 57 42 43
0.013357 19.272003 56.197937 56 41 42
0.013341 19.368776 56.127316 56 41 42
0.013326 19.468132 56.065010 56 41 42
0.013313 19.570642 56.012497 55 40 41
0.013303 19.676836 55.971107 54 39 40
0.013296 19.787178 55.941952 53 39 40
0.013293 19.902065 55.925919 51 39 39
0.013292 20.021780 55.923565 51 38 38
0.013295 20.146496 55.935127 50 38 37
0.013301 20.276260 55.960484 49 38 36
0.013310 20.410980 55.999138 48 37 35
0.162864 0.892417 68.048820 101 58 67
0.162580 1.037291 67.929863 100 57 66
0.162285 1.181576 67.806549 103 60 68
0.161978 1.325239 67.678612 105 62 69
0.161661 1.468248 67.545975 104 62 68
0.161332 1.610575 67.408737 102 60 66
0.160994 1.752199 67.267189 101 60 65
0.160646 1.893105 67.121872 101 59 65
