ply
format ascii 1.0
element vertex 1264
property float x
property float y
property float z
property uchar red
property uchar green
property uchar blue
end_header
3.684157 21.405418 70.885162 70 47 52
3.675046 21.504913 70.709869 70 47 52
3.666180 21.605089 70.539284 70 46 52
3.657545 21.705906 70.373146 70 46 52
3.649125 21.807285 70.211128 69 45 51
3.640897 21.909128 70.052826 68 44 50
3.632838 22.011309 69.897766 68 44 50
3.624921 22.113689 69.745445 67 44 50
3.617120 22.216122 69.595345 66 44 50
3.609407 22.318453 69.446938 65 44 50
3.601757 22.420534 69.299744 64 43 50
3.594145 22.522223 69.153290 63 42 49
3.586548 22.623377 69.007126 63 41 47
3.578948 22.723875 68.860893 62 41 47
3.571326 22.823606 68.714241 61 41 47
3.563668 22.922472 68.566895 60 41 46
3.555961 23.020384 68.418610 59 41 46
3.548194 23.117268 68.269165 58 41 45
3.540357 23.213051 68.118385 57 41 44
3.532444 23.307676 67.966125 55 41 43
3.524446 23.401085 67.812241 54 40 42
3.516358 23.493227 67.656616 54 40 42
3.508173 23.584051 67.499138 55 40 42
3.499887 23.673510 67.339714 55 40 42
3.491495 23.761559 67.178246 55 39 42
3.482991 23.848148 67.014633 56 39 41
3.474372 23.933231 66.848785 56 39 40
3.465631 24.016764 66.680611 56 39 40
3.456764 24.098692 66.510017 56 40 40
3.447766 24.178957 66.336876 55 40 39
3.438629 24.257504 66.161079 55 40 38
3.429347 24.334261 65.982491 54 39 37
3.419913 24.409159 65.800964 53 39 36
3.410316 24.482113 65.616325 53 38 36
3.400549 24.553034 65.428391 52 37 36
4.384040 -1.382123 80.992058 72 46 50
4.374179 -1.204815 80.809891 74 46 50
4.364810 -1.028409 80.636787 76 47 51
4.355949 -0.852848 80.473091 79 48 51
4.347613 -0.678075 80.319099 81 49 52
4.339817 -0.504029 80.175064 83 50 54
4.332571 -0.330646 80.041199 85 50 55
4.325884 -0.157860 79.917664 86 50 55
4.319763 0.014395 79.804588 86 50 56
4.314211 0.186188 79.702026 87 51 57
4.309231 0.357585 79.610008 88 51 58
4.304822 0.528656 79.528557 88 52 58
4.300982 0.699468 79.457634 89 52 59
4.297711 0.870090 79.397202 90 51 58
4.295005 1.040588 79.347206 91 51 57
4.292861 1.211029 79.307587 91 51 57
4.291274 1.381478 79.278259 91 51 57
4.290238 1.552001 79.259132 92 51 57
4.289747 1.722660 79.250069 92 51 58
4.289793 1.893516 79.250908 94 52 60
4.290363 2.064629 79.261436 97 54 63
4.291441 2.236052 79.281364 101 58 67
4.293008 2.407835 79.310310 103 60 68
4.295038 2.580020 79.347816 103 59 67
4.297499 2.752644 79.393280 103 60 67
4.300353 2.925731 79.446007 105 62 68
4.303554 3.099295 79.505142 106 64 70
4.307051 3.273338 79.569733 108 67 73
4.310783 3.447849 79.638687 111 69 75
4.314688 3.622802 79.710823 114 70 76
4.318696 3.798156 79.784866 116 70 76
4.322735 3.973859 79.859497 116 70 75
4.326733 4.149844 79.933350 116 69 74
4.330616 4.326032 80.005089 117 69 75
4.334312 4.502335 80.073372 118 69 75
4.337753 4.678658 80.136940 116 68 74
4.340877 4.854899 80.194641 112 65 71
4.343625 5.030956 80.245422 110 64 70
4.345951 5.206724 80.288391 110 63 70
4.347813 5.382103 80.322792 108 63 70
4.349179 5.556998 80.348022 105 62 67
4.350026 5.731317 80.363670 102 59 64
4.350340 5.904980 80.369469 98 57 62
4.350115 6.077916 80.365326 96 56 61
4.349356 6.250065 80.351288 95 55 60
4.348070 6.421377 80.327545 94 54 60
4.346277 6.591816 80.294411 93 54 60
4.343997 6.761356 80.252304 92 53 59
4.341261 6.929984 80.201744 91 53 58
4.338100 7.097700 80.143341 90 53 57
4.334550 7.264513 80.077766 89 53 57
4.330651 7.430445 80.005737 88 53 57
4.326445 7.595524 79.928017 87 52 57
4.321973 7.759794 79.845413 86 51 55
4.317280 7.923300 79.758705 85 50 54
4.312408 8.086099 79.668709 84 49 53
4.307401 8.248249 79.576210 85 49 54
4.302299 8.409817 79.481956 86 50 55
4.297143 8.570868 79.386696 87 50 55
4.291968 8.731472 79.291100 88 50 55
4.286810 8.891697 79.195793 88 51 56
4.281698 9.051610 79.101364 88 51 56
4.276662 9.211279 79.008316 88 51 57
4.271725 9.370765 78.917122 88 50 57
4.266911 9.530131 78.828186 89 50 57
4.262239 9.689436 78.741859 89 49 57
4.257724 9.848734 78.658455 89 49 58
4.253383 10.008081 78.578270 89 50 59
4.249230 10.167532 78.501541 90 50 59
4.245277 10.327139 78.428513 89 50 59
4.241537 10.486956 78.359406 88 50 58
4.238020 10.647038 78.294441 87 50 56
4.234738 10.807440 78.233818 87 49 55
4.231704 10.968221 78.177757 86 49 54
4.228927 11.129436 78.126457 85 49 54
4.226418 11.291146 78.080093 84 48 54
4.224184 11.453406 78.038834 83 49 54
4.222234 11.616267 78.002815 82 49 53
4.220573 11.779778 77.972115 82 49 53
4.219202 11.943977 77.946785 81 49 52
4.218120 12.108897 77.926796 81 49 53
4.217322 12.274560 77.912056 81 49 52
4.216800 12.440972 77.902412 80 48 51
4.216540 12.608128 77.897621 80 48 51
4.216527 12.776008 77.897369 80 48 51
4.216738 12.944576 77.901268 79 48 52
4.217149 13.113784 77.908867 79 47 52
4.217733 13.283567 77.919655 78 47 52
4.218459 13.453852 77.933067 77 46 52
4.219294 13.624545 77.948486 76 45 52
4.220203 13.795549 77.965294 75 45 51
4.221151 13.966750 77.982796 74 45 50
4.222098 14.138028 78.000298 74 45 50
4.223007 14.309251 78.017097 74 45 51
4.223839 14.480281 78.032463 74 45 51
4.224554 14.650972 78.045670 73 45 51
4.225113 14.821174 78.056000 72 45 51
4.225477 14.990726 78.062714 70 45 51
4.225606 15.159466 78.065102 68 45 49
4.225465 15.327236 78.062492 65 45 47
4.225017 15.493871 78.054222 62 45 46
4.224231 15.659216 78.039703 58 44 43
4.223077 15.823118 78.018379 54 41 40
4.221529 15.985438 77.989784 50 39 37
4.219566 16.146048 77.953522 46 37 36
4.217172 16.304832 77.909286 44 37 36
4.214334 16.461693 77.856865 43 36 35
4.211047 16.616554 77.796127 41 35 35
4.207306 16.769348 77.727028 40 35 35
4.203115 16.920031 77.649605 39 34 34
4.198480 17.068571 77.563965 39 34 33
4.193408 17.214952 77.470261 38 33 32
4.187911 17.359165 77.368706 38 32 31
4.182001 17.501215 77.259529 37 32 31
4.175692 17.641106 77.142967 36 31 31
4.168996 17.778847 77.019279 36 32 31
4.161929 17.914455 76.888718 36 32 32
4.154502 18.047935 76.751503 36 31 32
4.146728 18.179304 76.607880 36 31 33
4.138618 18.308567 76.458054 36 31 33
4.130183 18.435736 76.302231 35 30 32
4.121435 18.560820 76.140617 36 31 32
4.112383 18.683830 75.973396 36 31 31
4.103039 18.804777 75.800766 36 31 31
4.093413 18.923676 75.622925 36 30 30
4.083516 19.040546 75.440094 35 29 29
4.073360 19.155413 75.252480 34 28 27
4.062960 19.268309 75.060333 33 26 26
4.052329 19.379272 74.863930 33 25 25
4.041483 19.488356 74.663567 34 24 25
4.030442 19.595621 74.459572 35 25 25
4.019223 19.701139 74.252319 38 26 25
4.007850 19.805004 74.042213 41 28 27
3.996348 19.907314 73.829712 45 30 30
3.984742 20.008196 73.615318 48 32 33
3.973064 20.107782 73.399574 51 34 34
3.961345 20.206226 73.183060 54 35 36
3.949617 20.303696 72.966393 56 36 37
3.937916 20.400368 72.750221 58 37 38
3.926277 20.496437 72.535217 61 38 40
3.914737 20.592096 72.322021 62 39 41
3.903330 20.687540 72.111282 64 40 43
3.892089 20.782963 71.903603 65 42 45
3.881044 20.878546 71.699562 67 43 46
3.870222 20.974457 71.499634 69 45 48
3.859644 21.070835 71.304207 70 46 51
3.849325 21.167799 71.113571 71 47 52
3.839277 21.265440 70.927940 72 48 53
3.829501 21.363800 70.747337 72 48 54
3.819996 21.462906 70.571747 72 48 53
3.810753 21.562731 70.400978 71 47 53
3.801757 21.663231 70.234787 71 46 53
3.792988 21.764318 70.072792 70 45 52
3.784423 21.865885 69.914566 70 45 52
3.776035 21.967798 69.759598 69 45 52
3.767795 22.069910 69.607368 69 45 52
3.759674 22.172064 69.457329 68 45 51
3.751641 22.274097 69.308922 67 44 51
3.743668 22.375853 69.161636 66 44 50
3.735730 22.477180 69.014992 64 43 49
3.727801 22.577929 68.868500 64 42 48
3.719859 22.677971 68.721786 63 42 47
3.711887 22.777191 68.574501 62 42 47
3.703868 22.875486 68.426353 60 42 47
3.695788 22.972767 68.277084 59 42 46
3.687637 23.068958 68.126495 58 41 45
3.679404 23.163988 67.974411 56 40 44
3.671084 23.257805 67.820694 55 40 43
3.662669 23.350355 67.665230 54 40 42
3.654154 23.441597 67.507935 54 40 42
3.645536 23.531492 67.348717 55 40 42
3.636811 23.620010 67.187538 55 40 42
3.627977 23.707117 67.024330 55 39 42
3.619031 23.792782 66.859055 56 39 41
3.609970 23.876976 66.691658 56 40 40
3.600793 23.959675 66.522110 56 40 40
3.591497 24.040850 66.350380 56 39 40
3.582078 24.120459 66.176376 55 39 39
3.572534 24.198462 66.000046 55 39 39
3.562859 24.274818 65.821312 55 39 37
3.553047 24.349466 65.640053 54 38 36
3.543092 24.422340 65.456131 53 38 36
3.532983 24.493364 65.269386 51 37 36
3.522714 24.562458 65.079666 50 37 36
4.550812 -1.379752 80.853134 73 47 51
4.540682 -1.202777 80.673149 74 47 51
4.531058 -1.026692 80.502174 77 48 51
4.521961 -0.851443 80.340538 78 48 51
4.513406 -0.676973 80.188545 80 49 51
4.505409 -0.503220 80.046463 82 49 53
4.497981 -0.330122 79.914497 84 50 54
4.491132 -0.157613 79.792816 85 50 55
4.484870 0.014373 79.681549 86 51 56
4.479198 0.185904 79.580772 87 51 57
4.474117 0.357048 79.490509 89 52 58
4.469629 0.527873 79.410782 90 52 60
4.465733 0.698447 79.341553 91 52 61
4.462426 0.868836 79.282799 93 52 60
4.459704 1.039109 79.234444 93 52 60
4.457565 1.209332 79.196442 93 52 60
4.456004 1.379569 79.168694 93 52 60
4.455012 1.549885 79.151077 93 52 60
4.454585 1.720343 79.143486 94 52 62
4.454711 1.891003 79.145729 95 52 64
4.455378 2.061924 79.157578 99 56 67
4.456568 2.233157 79.178726 104 61 71
4.458260 2.404752 79.208786 105 61 71
4.460426 2.576751 79.247269 103 59 68
4.463033 2.749187 79.293579 104 60 69
4.466039 2.922084 79.346992 106 62 71
4.469398 3.095455 79.406654 109 64 73
4.473053 3.269302 79.471611 111 66 75
4.476946 3.443610 79.540771 113 68 76
4.481009 3.618353 79.612946 115 69 76
4.485169 3.793491 79.686874 117 70 76
4.489356 3.968970 79.761253 118 70 77
4.493491 4.144723 79.834717 118 70 76
4.497500 4.320671 79.905952 119 70 77
4.501310 4.496727 79.973640 119 70 77
4.504851 4.672797 80.036560 117 69 75
4.508059 4.848779 80.093552 113 66 72
4.510877 5.024572 80.143608 110 65 71
4.513254 5.200074 80.185844 109 64 70
4.515151 5.375185 80.219536 107 64 70
4.516533 5.549810 80.244102 104 63 68
4.517379 5.723862 80.259140 101 60 65
4.517675 5.897260 80.264397 98 58 63
4.517416 6.069935 80.259796 96 57 62
4.516605 6.241827 80.245384 95 56 61
4.515253 6.412889 80.221359 94 55 60
4.513377 6.583083 80.188034 93 54 60
4.511002 6.752387 80.145844 93 54 60
4.508157 6.920786 80.095291 92 53 59
4.504875 7.088280 80.036980 91 54 58
4.501194 7.254880 79.971581 90 54 58
4.497155 7.420607 79.899811 88 53 58
4.492798 7.585488 79.822411 87 53 57
4.488169 7.749566 79.740173 86 52 56
4.483313 7.912888 79.653893 85 51 55
4.478273 8.075506 79.564346 85 51 55
4.473093 8.237481 79.472313 85 51 55
4.467815 8.398875 79.378548 85 51 56
4.462480 8.559754 79.283760 86 50 56
4.457126 8.720188 79.188629 86 50 56
4.451787 8.880241 79.093773 86 49 56
4.446495 9.039983 78.999748 87 50 56
4.441279 9.199476 78.907089 88 50 58
4.436167 9.358788 78.816254 90 50 58
4.431180 9.517977 78.727646 90 50 58
4.426339 9.677103 78.641640 91 50 58
4.421662 9.836225 78.558556 91 49 59
4.417167 9.995399 78.478691 91 49 59
4.412868 10.154680 78.402313 91 50 59
4.408780 10.314126 78.329681 91 50 59
4.404916 10.473790 78.261032 90 50 58
4.401289 10.633733 78.196594 90 50 57
4.397913 10.794010 78.136597 88 50 57
4.394798 10.954683 78.081268 87 50 56
4.391958 11.115811 78.030807 86 49 55
4.389402 11.277454 77.985405 85 49 55
4.387141 11.439668 77.945229 83 49 54
4.385181 11.602506 77.910400 83 49 54
4.383526 11.766013 77.881012 82 49 53
4.382180 11.930234 77.857094 82 49 53
4.381140 12.095196 77.838608 82 49 53
4.380401 12.260920 77.825470 82 49 53
4.379952 12.427411 77.817497 81 49 52
4.379780 12.594666 77.814445 81 48 52
4.379868 12.762663 77.816002 80 48 51
4.380192 12.931365 77.821762 79 47 51
4.380727 13.100723 77.831276 79 47 51
4.381445 13.270677 77.844040 78 47 51
4.382315 13.441149 77.859482 77 46 51
4.383301 13.612050 77.876999 76 45 51
4.384367 13.783279 77.895950 74 45 50
4.385477 13.954726 77.915657 73 44 49
4.386589 14.126269 77.935425 73 44 49
4.387665 14.297777 77.954536 73 44 49
4.388661 14.469106 77.972244 73 44 50
4.389538 14.640111 77.987808 71 44 50
4.390251 14.810633 78.000488 70 45 49
4.390759 14.980508 78.009506 68 45 49
4.391019 15.149569 78.014137 65 45 47
4.390992 15.317646 78.013657 63 45 46
4.390638 15.484570 78.007362 60 45 44
4.389923 15.650175 77.994644 57 44 43
4.388811 15.814300 77.974899 52 41 40
4.387276 15.976799 77.947632 48 39 37
4.385295 16.137535 77.912422 45 37 36
4.382847 16.296389 77.868950 44 37 36
4.379921 16.453257 77.816963 43 36 35
4.376510 16.608057 77.756348 42 35 35
4.372610 16.760723 77.687050 41 34 34
4.368223 16.911209 77.609123 40 33 33
4.363357 17.059483 77.522659 39 33 32
4.358021 17.205530 77.427872 39 32 32
4.352228 17.349346 77.324944 38 31 31
4.345992 17.490932 77.214142 37 31 31
4.339327 17.630301 77.095726 37 32 31
4.332249 17.767466 76.969978 37 32 32
4.324773 17.902439 76.837143 37 33 33
4.316912 18.035234 76.697487 38 33 34
4.308681 18.165865 76.551254 38 33 36
4.300092 18.294344 76.398651 38 33 37
4.291157 18.420679 76.239914 38 33 37
4.281888 18.544882 76.075233 38 33 36
4.272297 18.666967 75.904823 38 33 35
4.262394 18.786943 75.728874 37 33 34
4.252191 18.904829 75.547607 36 31 32
4.241702 19.020645 75.361237 35 30 29
4.230938 19.134422 75.170006 34 28 28
4.219915 19.246189 74.974167 33 26 26
4.208649 19.355997 74.774010 33 25 25
4.197159 19.463898 74.569862 34 24 24
4.185463 19.569960 74.362068 36 25 24
4.173584 19.674265 74.151024 38 27 25
4.161548 19.776907 73.937172 42 28 27
4.149380 19.878000 73.720993 46 31 29
4.137111 19.977673 73.503014 49 33 32
4.124774 20.076069 73.283813 52 34 34
4.112401 20.173349 73.063980 55 35 36
4.100029 20.269688 72.844185 57 36 38
4.087697 20.365276 72.625076 59 37 40
4.075441 20.460304 72.407341 61 38 42
4.063302 20.554977 72.191650 63 39 43
4.051313 20.649494 71.978661 65 41 44
4.039512 20.744053 71.768990 66 42 46
4.027929 20.838837 71.563194 68 44 47
4.016592 20.934013 71.361771 70 45 50
4.005521 21.029726 71.165092 72 47 52
3.994735 21.126087 70.973442 73 49 55
3.984241 21.223185 70.787003 74 50 56
3.974042 21.321060 70.605804 74 49 56
3.964135 21.419731 70.429787 74 49 55
3.954509 21.519173 70.258766 73 47 54
3.945147 21.619324 70.092430 73 46 54
3.936027 21.720093 69.930405 72 45 53
3.927123 21.821363 69.772209 71 45 53
3.918406 21.922997 69.617325 71 45 52
3.909842 22.024830 69.465187 71 45 51
3.901402 22.126699 69.315216 69 45 51
3.893050 22.228436 69.166840 68 45 51
3.884758 22.329870 69.019508 67 44 50
3.876495 22.430841 68.872704 66 43 49
3.868235 22.531195 68.725952 65 43 48
3.859954 22.630796 68.578827 64 43 48
3.851632 22.729519 68.430977 62 42 46
3.843252 22.827261 68.282097 61 42 46
3.834800 22.923927 68.131927 59 42 46
3.826264 23.019442 67.980263 58 41 45
3.817634 23.113737 67.826950 56 40 44
3.808904 23.206760 67.671844 55 39 43
3.800069 23.298470 67.514877 54 38 42
3.791125 23.388830 67.355972 54 38 41
3.782070 23.477812 67.195084 55 39 41
3.772902 23.565399 67.032196 56 39 42
3.763621 23.651575 66.867302 56 39 42
3.754227 23.736326 66.700409 55 39 41
3.744721 23.819643 66.531517 55 39 40
3.735104 23.901520 66.360649 55 39 40
3.725376 23.981949 66.187820 55 39 39
3.715537 24.060913 66.013016 55 39 39
3.705586 24.138391 65.836212 55 39 39
3.695520 24.214359 65.657379 54 38 38
3.685337 24.288778 65.476448 53 38 37
3.675030 24.361597 65.293327 53 38 37
3.664591 24.432751 65.107864 51 37 36
3.654014 24.502174 64.919937 50 37 36
4.728127 -1.555038 80.904846 73 48 52
4.717230 -1.377453 80.718391 74 48 53
4.706834 -1.200799 80.540504 75 48 52
4.696961 -1.025026 80.371559 77 48 52
4.687630 -0.850080 80.211884 78 48 51
4.678857 -0.675903 80.061775 79 48 51
4.670660 -0.502435 79.921516 81 49 53
4.663051 -0.329613 79.791306 82 49 54
4.656039 -0.157373 79.671333 84 50 55
4.649634 0.014352 79.561729 85 51 56
4.643838 0.185628 79.462563 87 51 58
4.638656 0.356524 79.373878 89 52 59
4.634086 0.527108 79.295677 91 52 61
4.630128 0.697447 79.227951 92 52 62
4.626780 0.867607 79.170662 94 52 62
4.624038 1.037657 79.123741 95 52 63
4.621897 1.207662 79.087112 95 52 63
4.620353 1.377687 79.060684 96 52 64
4.619398 1.547795 79.044350 96 52 64
4.619025 1.718049 79.037964 96 52 66
4.619221 1.888509 79.041321 97 53 67
4.619974 2.059231 79.054199 99 55 69
4.621263 2.230267 79.076263 103 58 71
4.623066 2.401666 79.107124 104 60 72
4.625354 2.573467 79.146271 105 59 71
4.628091 2.745703 79.193092 106 60 71
4.631234 2.918397 79.246880 108 62 72
4.634732 3.091561 79.306740 110 64 73
4.638531 3.265193 79.371735 113 65 75
4.642565 3.439280 79.440773 114 66 76
4.646767 3.613796 79.512665 116 68 76
4.651062 3.788697 79.586166 118 69 77
4.655376 3.963931 79.659981 119 70 77
4.659630 4.139431 79.732780 120 70 78
4.663748 4.315117 79.803238 120 71 79
4.667655 4.490905 79.870087 119 71 78
4.671279 4.666699 79.932106 117 71 77
4.674557 4.842401 79.988190 115 69 76
4.677429 5.017910 80.037338 112 68 74
4.679845 5.193125 80.078690 110 66 73
4.681765 5.367949 80.111542 107 65 71
4.683156 5.542287 80.135330 104 64 68
4.683994 5.716055 80.149673 101 61 65
4.684267 5.889174 80.154343 99 59 64
4.683969 6.061575 80.149254 97 57 63
4.683105 6.233199 80.134468 96 56 62
4.681686 6.404002 80.110191 95 55 61
4.679731 6.573946 80.076736 95 54 61
4.677265 6.743009 80.034531 94 54 61
4.674317 6.911177 79.984085 93 54 60
4.670922 7.078451 79.925995 92 55 60
4.667119 7.244841 79.860916 91 55 59
4.662948 7.410367 79.789558 90 55 59
4.658454 7.575058 79.712654 89 54 59
4.653681 7.738954 79.630981 87 53 57
4.648674 7.902102 79.545311 86 52 57
4.643480 8.064552 79.456429 86 52 56
4.638142 8.226366 79.365082 85 52 56
4.632702 8.387603 79.272011 85 52 56
4.627203 8.548326 79.177910 86 51 57
4.621683 8.708606 79.083450 86 50 56
4.616177 8.868505 78.989235 86 49 56
4.610718 9.028091 78.895828 87 50 57
4.605337 9.187428 78.803749 89 51 59
4.600060 9.346581 78.713448 91 51 59
4.594912 9.505610 78.625359 92 51 59
4.589913 9.664576 78.539833 93 50 59
4.585085 9.823535 78.457207 93 50 60
4.580445 9.982551 78.377808 93 51 60
4.576009 10.141676 78.301910 94 51 60
4.571795 10.300972 78.229782 94 52 60
4.567815 10.460496 78.161690 94 52 59
4.564085 10.620308 78.097878 93 52 59
4.560621 10.780471 78.038589 91 52 58
4.557433 10.941043 77.984047 89 51 57
4.554537 11.102090 77.934486 86 50 56
4.551941 11.263668 77.890076 85 50 55
4.549658 11.425838 77.850998 84 49 54
4.547693 11.588653 77.817383 83 49 54
4.546052 11.752159 77.789307 82 49 53
4.544736 11.916396 77.766792 82 49 53
4.543744 12.081394 77.749794 82 49 53
4.543067 12.247172 77.738220 82 49 53
4.542696 12.413738 77.731880 82 48 53
4.542617 12.581082 77.730530 81 48 52
4.542811 12.749187 77.733841 81 48 52
4.543254 12.918014 77.741417 80 47 51
4.543919 13.087515 77.752808 79 47 51
4.544778 13.257629 77.767502 78 46 51
4.545798 13.428283 77.784950 77 46 50
4.546943 13.599384 77.804543 76 45 50
4.548175 13.770837 77.825638 74 44 49
4.549457 13.942532 77.847565 73 43 48
4.550746 14.114342 77.869621 73 43 48
4.552000 14.286137 77.891075 73 43 48
4.553174 14.457775 77.911179 72 43 49
4.554226 14.629102 77.929161 70 44 49
4.555108 14.799955 77.944252 68 45 49
4.555774 14.970167 77.955658 66 45 48
4.556180 15.139563 77.962608 64 45 46
4.556282 15.307963 77.964340 61 44 45
4.556035 15.475190 77.960114 58 44 43
4.555401 15.641069 77.949272 54 43 42
4.554344 15.805433 77.931183 51 41 39
4.552832 15.968126 77.905319 47 39 37
4.550840 16.129002 77.871231 44 37 35
4.548347 16.287939 77.828568 44 36 35
4.545338 16.444826 77.777084 43 35 35
4.541806 16.599579 77.716652 42 34 34
4.537748 16.752129 77.647217 41 33 34
4.533168 16.902430 77.568832 40 32 33
4.528071 17.050451 77.481621 39 31 32
4.522471 17.196180 77.385788 38 30 31
4.516379 17.339613 77.281563 38 30 30
4.509814 17.480757 77.169220 37 31 30
4.502791 17.619625 77.049042 37 32 31
4.495327 17.756233 76.921310 38 33 33
4.487437 17.890596 76.786316 40 35 37
4.479139 18.022732 76.644318 40 35 40
4.470446 18.152651 76.495567 39 34 42
4.461372 18.280371 76.340302 39 34 43
4.451930 18.405897 76.178734 40 35 43
4.442132 18.529247 76.011093 42 38 44
4.431991 18.650425 75.837555 42 38 43
4.421518 18.769447 75.658356 40 36 40
4.410727 18.886332 75.473694 37 33 35
4.399630 19.001102 75.283806 35 30 32
4.388241 19.113785 75.088936 33 28 29
4.376578 19.224419 74.889359 33 26 27
4.364657 19.333052 74.685379 33 25 25
4.352499 19.439745 74.477333 35 25 24
4.340125 19.544573 74.265602 37 26 24
4.327561 19.647621 74.050613 40 27 26
4.314833 19.748993 73.832817 44 29 28
4.301972 19.848812 73.612747 47 31 30
4.289010 19.947212 73.390945 50 33 32
4.275982 20.044350 73.168030 54 34 35
4.262927 20.140394 72.944626 56 35 38
4.249882 20.235527 72.721420 58 37 40
4.236889 20.329947 72.499092 61 38 42
4.223989 20.423857 72.278358 63 39 43
4.211223 20.517464 72.059898 65 40 44
4.198628 20.610975 71.844391 67 42 46
4.186244 20.704594 71.632469 68 43 47
4.174101 20.798506 71.424690 70 44 49
4.162228 20.892878 71.221542 72 47 52
4.150649 20.987856 71.023399 74 49 55
4.139379 21.083555 70.830551 76 50 57
4.128427 21.180054 70.643150 76 50 58
4.117794 21.277397 70.461212 76 50 58
4.107476 21.375593 70.284653 76 49 57
4.097460 21.474607 70.113266 75 48 56
4.087727 21.574379 69.946716 74 47 55
4.078253 21.674809 69.784599 74 46 54
4.069008 21.775763 69.626404 73 45 53
4.059959 21.877098 69.471573 73 45 52
4.051074 21.978645 69.319527 72 45 51
4.042314 22.080227 69.169632 71 45 51
4.033645 22.181664 69.021301 69 45 50
4.025034 22.282780 68.873955 68 44 50
4.016449 22.383404 68.727051 67 43 49
4.007860 22.483372 68.580078 66 43 48
3.999241 22.582542 68.432610 65 43 47
3.990571 22.680784 68.284256 63 42 45
3.981832 22.777987 68.134705 61 41 45
3.973007 22.874054 67.983704 59 41 45
3.964085 22.968910 67.831039 57 40 44
3.955057 23.062485 67.676552 56 39 43
3.945916 23.154736 67.520142 55 39 42
3.936658 23.245617 67.361717 54 37 41
3.927281 23.335110 67.201271 53 36 39
3.917784 23.423195 67.038757 54 37 40
3.908169 23.509867 66.874229 56 38 41
3.898438 23.595125 66.707710 56 39 42
3.888593 23.678976 66.539253 56 38 41
3.878638 23.761427 66.368912 56 38 40
3.868578 23.842497 66.196777 56 38 40
3.858417 23.922194 66.022903 56 38 39
3.848157 24.000526 65.847336 56 38 39
3.837800 24.077496 65.670120 55 38 39
3.827347 24.153091 65.491249 54 38 38
3.816797 24.227299 65.310715 53 38 37
3.806145 24.300081 65.128448 53 38 37
3.795386 24.371391 64.944359 51 37 36
3.784513 24.441172 64.758308 50 37 36
4.894520 -1.552498 80.772667 75 48 53
4.883348 -1.375233 80.588287 76 48 53
4.872690 -1.198889 80.412415 76 48 53
4.862568 -1.023417 80.245369 77 48 52
4.853003 -0.848762 80.087524 78 48 52
4.844013 -0.674868 79.939156 79 48 52
4.835614 -0.501675 79.800552 80 48 53
4.827821 -0.329120 79.671944 81 48 54
4.820644 -0.157140 79.553505 83 49 54
4.814091 0.014331 79.445366 85 50 56
4.808168 0.185360 79.347618 87 51 58
4.802876 0.356014 79.260300 89 52 60
4.798218 0.526362 79.183426 92 52 62
4.794192 0.696470 79.116974 94 52 63
4.790794 0.866405 79.060913 95 53 63
4.788022 1.036233 79.015160 96 53 64
4.785871 1.206021 78.979652 97 53 65
4.784334 1.375833 78.954292 97 52 66
4.783404 1.545731 78.938950 98 52 67
4.783072 1.715778 78.933464 98 52 69
4.783326 1.886032 78.937653 99 53 70
4.784149 2.056549 78.951241 100 54 71
4.785523 2.227381 78.973915 101 56 72
4.787422 2.398573 79.005249 103 58 72
4.789814 2.570166 79.044739 105 59 72
4.792664 2.742190 79.091759 107 60 72
4.795924 2.914666 79.145569 109 62 73
4.799545 3.087607 79.205315 110 63 74
4.803466 3.261009 79.270027 112 64 75
4.807622 3.434858 79.338615 114 65 75
4.811944 3.609126 79.409920 116 67 76
4.816354 3.783772 79.482712 118 68 77
4.820776 3.958741 79.555679 120 69 77
4.825130 4.133966 79.627533 120 70 78
4.829338 4.309371 79.696976 120 71 79
4.833323 4.484869 79.762749 120 72 79
4.837016 4.660368 79.823677 118 71 79
4.840347 4.835771 79.878670 117 70 78
4.843261 5.010976 79.926750 114 68 76
4.845705 5.185887 79.967079 111 67 74
4.847639 5.360407 79.998993 108 66 72
4.849029 5.534445 80.021927 105 65 70
4.849853 5.707915 80.035538 102 63 67
4.850098 5.880742 80.039581 100 60 65
4.849760 6.052859 80.034004 98 59 64
4.848844 6.224208 80.018875 97 58 64
4.847360 6.394745 79.994400 96 57 63
4.845330 6.564435 79.960892 96 56 63
4.842778 6.733256 79.918777 95 56 63
4.839735 6.901194 79.868553 95 56 63
4.836236 7.068251 79.810822 94 56 62
4.832322 7.234436 79.746223 93 56 61
4.828033 7.399769 79.675453 91 56 61
4.823414 7.564280 79.599228 90 55 60
4.818511 7.728005 79.518318 89 55 59
4.813371 7.890992 79.433479 88 54 58
4.808038 8.053290 79.345467 86 53 57
4.802557 8.214957 79.255020 86 52 57
4.796972 8.376053 79.162857 86 52 57
4.791325 8.536640 79.069664 87 51 57
4.785655 8.696784 78.976097 87 50 57
4.779998 8.856548 78.882736 88 51 57
4.774387 9.015999 78.790154 89 52 58
4.768855 9.175198 78.698845 91 53 59
4.763427 9.334210 78.609276 92 53 60
4.758130 9.493097 78.521858 94 53 60
4.752986 9.651919 78.436981 95 52 61
4.748018 9.810736 78.354980 95 52 61
4.743243 9.969607 78.276184 96 52 62
4.738681 10.128593 78.200905 96 53 62
4.734349 10.287755 78.129417 95 53 61
4.730264 10.447152 78.061989 95 53 61
4.726440 10.606848 77.998901 94 54 61
4.722895 10.766905 77.940392 92 53 60
4.719643 10.927387 77.886711 90 53 59
4.716696 11.088359 77.838097 88 51 57
4.714068 11.249881 77.794731 86 50 55
4.711770 11.412012 77.756798 84 49 54
4.709807 11.574805 77.724396 83 49 54
4.708185 11.738309 77.697632 83 49 54
4.706905 11.902562 77.676506 83 49 54
4.705964 12.067594 77.660980 83 49 54
4.705356 12.233422 77.650940 83 49 53
4.705068 12.400054 77.646194 82 48 53
4.705086 12.567482 77.646492 82 48 53
4.705390 12.735684 77.651512 81 47 52
4.705957 12.904629 77.660866 80 46 51
4.706758 13.074265 77.674088 79 46 50
4.707764 13.244534 77.690689 79 46 50
4.708941 13.415361 77.710106 77 46 50
4.710252 13.586661 77.731750 76 45 50
4.711660 13.758336 77.754990 75 44 49
4.713124 13.930275 77.779137 74 43 48
4.714600 14.102356 77.803497 73 43 48
4.716043 14.274445 77.827324 72 44 48
4.717409 14.446395 77.849854 71 43 48
4.718648 14.618053 77.870316 69 44 49
4.719713 14.789250 77.887871 67 45 49
4.720552 14.959810 77.901726 65 45 47
4.721118 15.129553 77.911057 63 45 46
4.721361 15.298290 77.915070 60 44 44
4.721235 15.465836 77.912987 56 43 43
4.720695 15.632004 77.904091 53 42 41
4.719704 15.796620 77.887726 49 40 39
4.718225 15.959518 77.863327 46 38 37
4.716231 16.120548 77.830414 44 36 36
4.713698 16.279579 77.788620 43 36 35
4.710612 16.436497 77.737694 43 34 35
4.706964 16.591215 77.677490 42 33 34
4.702752 16.743664 77.607971 41 32 33
4.697978 16.893795 77.529198 40 31 32
4.692652 17.041578 77.441299 38 30 30
4.686787 17.187006 77.344505 37 29 29
4.680397 17.330076 77.239059 37 29 28
4.673501 17.470800 77.125267 36 29 27
4.666118 17.609190 77.003410 37 31 30
4.658265 17.745268 76.873810 43 38 40
4.649960 17.879051 76.736763 50 47 51
4.641220 18.010555 76.592537 50 47 56
4.632061 18.139795 76.441391 44 40 53
4.622498 18.266783 76.283562 39 35 50
4.612543 18.391533 76.119278 41 37 53
4.602210 18.514051 75.948753 47 44 57
4.591510 18.634348 75.772186 48 45 56
4.580458 18.752438 75.589790 43 40 47
4.569065 18.868338 75.401779 38 35 40
4.557346 18.982067 75.208389 35 31 35
4.545317 19.093658 75.009872 34 29 31
4.532994 19.203152 74.806519 33 27 28
4.520397 19.310598 74.598640 34 26 25
4.507549 19.416063 74.386604 36 26 24
4.494473 19.519625 74.170807 39 27 25
4.481196 19.621378 73.951706 42 28 27
4.467748 19.721434 73.729790 46 31 30
4.454164 19.819923 73.505608 49 32 32
4.440478 19.916992 73.279755 53 34 34
4.426730 20.012806 73.052879 56 35 37
4.412961 20.107542 72.825645 58 35 39
4.399212 20.201395 72.598747 60 37 42
4.385528 20.294569 72.372932 63 39 44
4.371954 20.387281 72.148926 65 40 45
4.358532 20.479746 71.927429 67 42 47
4.345305 20.572176 71.709152 69 44 48
4.332312 20.664778 71.494720 70 45 49
4.319586 20.757744 71.284714 71 46 51
4.307158 20.851246 71.079620 73 48 54
4.295052 20.945429 70.879829 76 50 57
4.283281 21.040405 70.685593 77 51 59
4.271857 21.136255 70.497063 78 51 60
4.260779 21.233015 70.314240 78 51 60
4.250040 21.330692 70.137024 77 49 58
4.239627 21.429249 69.965172 76 48 57
4.229517 21.528610 69.798332 76 47 56
4.219684 21.628670 69.636055 75 46 54
4.210095 21.729294 69.477821 75 46 53
4.200715 21.830318 69.323029 74 45 52
4.191506 21.931568 69.171043 73 45 52
4.182428 22.032860 69.021248 72 45 51
4.173444 22.133999 68.872986 70 45 50
4.164516 22.234797 68.725647 69 44 49
4.155611 22.335081 68.578682 67 43 48
4.146694 22.434673 68.431534 66 43 47
4.137740 22.533422 68.283760 65 43 46
4.128723 22.631197 68.134964 63 42 45
4.119625 22.727877 67.984810 61 41 45
4.110428 22.823364 67.833046 59 40 44
4.101120 22.917576 67.679436 57 39 43
4.091692 23.010450 67.523857 56 39 42
4.082139 23.101942 67.366196 56 38 42
4.072455 23.192019 67.206398 54 37 41
4.062643 23.280659 67.044456 53 35 38
4.052701 23.367863 66.880394 54 36 38
4.042635 23.453636 66.714279 56 38 40
4.032449 23.537992 66.546188 57 38 40
4.022150 23.620958 66.376221 57 39 40
4.011744 23.702562 66.204491 57 39 40
4.001239 23.782839 66.031143 57 39 40
3.990643 23.861822 65.856277 56 39 40
3.979962 23.939539 65.680016 56 39 39
3.969201 24.016012 65.502426 56 38 38
3.958364 24.091257 65.323586 55 38 38
3.947452 24.165272 65.143509 54 38 37
3.936464 24.238043 64.962173 53 38 37
3.925395 24.309530 64.779510 51 37 36
3.914239 24.379690 64.595413 50 37 36
5.060667 -1.550056 80.645622 76 48 54
5.049221 -1.373098 80.463226 76 48 54
5.038301 -1.197052 80.289215 77 48 54
5.027930 -1.021868 80.123940 78 48 53
5.018129 -0.847493 79.967758 79 48 53
5.008918 -0.673870 79.820961 79 48 53
5.000314 -0.500941 79.683846 79 47 53
4.992332 -0.328644 79.556648 80 47 53
4.984982 -0.156915 79.439537 83 48 54
4.978276 0.014310 79.332664 86 50 55
4.972217 0.185099 79.236115 88 51 58
4.966809 0.355519 79.149925 91 52 60
4.962053 0.525635 79.074135 93 53 62
4.957947 0.695516 79.008705 95 53 64
4.954489 0.865229 78.953598 96 53 65
4.951675 1.034838 78.908752 96 53 66
4.949500 1.204409 78.874084 97 53 67
4.947956 1.374007 78.849495 97 52 68
4.947036 1.543693 78.834831 98 52 69
4.946730 1.713528 78.829956 99 52 71
4.947025 1.883571 78.834648 100 53 72
4.947902 2.053876 78.848633 101 54 73
4.949343 2.224494 78.871590 102 55 73
4.951319 2.395471 78.903076 104 56 73
4.953797 2.566844 78.942566 105 57 72
4.956739 2.738643 78.989456 107 59 73
4.960097 2.910888 79.042969 109 61 73
4.963819 3.083590 79.102272 110 62 74
4.967842 3.256745 79.166389 112 63 74
4.972100 3.430339 79.234238 114 64 75
4.976520 3.604342 79.304665 116 65 76
4.981024 3.778714 79.376450 118 67 77
4.985534 3.953399 79.448318 119 69 78
4.989968 4.128331 79.518990 119 70 78
4.994248 4.303435 79.587189 119 71 79
4.998296 4.478625 79.651695 119 71 80
5.002039 4.653811 79.711349 119 71 80
5.005411 4.828894 79.765083 117 70 79
5.008353 5.003780 79.811966 115 69 78
5.010814 5.178371 79.851181 113 68 76
5.012752 5.352572 79.882057 110 67 73
5.014135 5.526295 79.904099 107 65 71
5.014940 5.699457 79.916931 104 64 69
5.015155 5.871983 79.920357 102 61 67
5.014776 6.043808 79.914322 100 60 66
5.013808 6.214876 79.898895 100 59 66
5.012265 6.385144 79.874298 99 58 66
5.010165 6.554579 79.840828 99 58 66
5.007535 6.723158 79.798920 98 58 66
5.004405 6.890869 79.749062 98 57 66
5.000815 7.057714 79.691849 97 57 65
4.996802 7.223702 79.627899 96 57 65
4.992410 7.388851 79.557892 94 57 63
4.987682 7.553193 79.482559 93 57 62
4.982666 7.716761 79.402618 92 56 61
4.977407 7.879601 79.318825 90 55 60
4.971953 8.041764 79.231903 89 54 59
4.966349 8.203303 79.142586 89 53 58
4.960636 8.364277 79.051559 88 52 57
4.954859 8.524747 78.959503 89 52 57
4.949057 8.684774 78.867035 89 52 58
4.943266 8.844424 78.774750 90 52 57
4.937521 9.003758 78.683189 91 54 59
4.931852 9.162841 78.592857 93 55 60
4.926289 9.321734 78.504204 94 55 61
4.920858 9.480500 78.417656 95 55 62
4.915583 9.639198 78.333603 97 55 63
4.910486 9.797890 78.252380 97 55 63
4.905590 9.956636 78.174347 98 55 63
4.900913 10.115501 78.099815 98 55 63
4.896474 10.274545 78.029091 97 55 62
4.892292 10.433830 77.962440 97 55 63
4.888385 10.593424 77.900177 96 55 63
4.884768 10.753388 77.842545 95 55 62
4.881459 10.913793 77.789818 92 54 60
4.878472 11.074699 77.742203 88 51 57
4.875819 11.236172 77.699936 86 50 56
4.873512 11.398271 77.663162 86 49 56
4.871557 11.561048 77.632011 85 49 55
4.869960 11.724550 77.606560 84 49 54
4.868721 11.888820 77.586823 83 48 54
4.867838 12.053883 77.572746 83 48 54
4.867302 12.219759 77.564209 83 48 53
4.867102 12.386452 77.561020 83 48 53
4.867222 12.553957 77.562935 83 47 53
4.867642 12.722253 77.569618 82 47 52
4.868336 12.891306 77.580688 80 46 51
4.869278 13.061070 77.595695 79 46 50
4.870436 13.231487 77.614151 79 46 50
4.871777 13.402485 77.635513 78 46 50
4.873262 13.573977 77.659180 76 45 50
4.874853 13.745872 77.684540 75 44 49
4.876507 13.918055 77.710899 74 43 49
4.878181 14.090405 77.737564 72 43 48
4.879826 14.262790 77.763779 71 43 48
4.881394 14.435060 77.788773 69 44 48
4.882834 14.607055 77.811722 68 44 48
4.884094 14.778603 77.831802 67 45 48
4.885120 14.949521 77.848145 65 45 47
4.885858 15.119620 77.859909 63 45 46
4.886256 15.288704 77.866249 60 44 44
4.886262 15.456578 77.866356 56 43 42
4.885829 15.623047 77.859451 52 41 40
4.884913 15.787926 77.844856 49 39 38
4.883477 15.951041 77.821968 46 38 37
4.881489 16.112236 77.790283 44 36 36
4.878924 16.271374 77.749413 43 35 35
4.875767 16.428335 77.699097 42 34 34
4.872006 16.583031 77.639175 41 32 33
4.867642 16.735390 77.569626 40 31 32
4.862678 16.885366 77.490524 40 30 31
4.857124 17.032932 77.402016 38 29 29
4.850995 17.178080 77.304329 37 28 28
4.844306 17.320808 77.197754 36 27 26
4.837080 17.461136 77.082603 33 25 24
4.829336 17.599077 76.959190 34 29 28
4.821093 17.734653 76.827835 48 45 47
4.812372 17.867887 76.688850 67 64 72
4.803190 17.998795 76.542526 68 66 80
4.793562 18.127388 76.389107 51 48 68
4.783506 18.253681 76.228844 38 35 58
4.773034 18.377684 76.061966 46 42 66
4.762159 18.499405 75.888672 63 60 83
4.750894 18.618847 75.709160 67 63 81
4.739253 18.736029 75.523643 51 47 60
4.727248 18.850960 75.332336 40 36 44
4.714894 18.963663 75.135468 36 32 37
4.702208 19.074169 74.933304 35 30 32
4.689208 19.182520 74.726143 34 27 28
4.675915 19.288769 74.514305 34 26 26
4.662353 19.392986 74.298187 36 26 26
4.648549 19.495255 74.078201 40 27 27
4.634532 19.595676 73.854836 44 29 29
4.620337 19.694374 73.628616 48 32 32
4.605999 19.791483 73.400131 51 34 34
4.591558 19.887163 73.170006 55 35 36
4.577057 19.981588 72.938927 58 36 39
4.562541 20.074949 72.707596 60 36 41
4.548056 20.167450 72.476768 62 37 43
4.533649 20.259310 72.247192 65 39 45
4.519370 20.350750 72.019638 67 41 47
4.505264 20.441998 71.794853 69 43 49
4.491376 20.533272 71.573540 71 45 50
4.477748 20.624788 71.356361 72 47 51
4.464416 20.716742 71.143906 73 48 52
4.451411 20.809307 70.936653 75 49 55
4.438756 20.902634 70.735008 77 50 57
4.426470 20.996834 70.539207 78 51 59
4.414558 21.091982 70.349388 79 51 60
4.403023 21.188118 70.165558 79 51 60
4.391854 21.285240 69.987572 79 50 59
4.381034 21.383303 69.815155 78 49 58
4.370542 21.482227 69.647949 77 48 57
4.360346 21.581898 69.485466 76 47 55
4.350411 21.682171 69.327148 75 46 53
4.340698 21.782875 69.172363 75 46 52
4.331165 21.883821 69.020454 74 45 52
4.321771 21.984818 68.870750 72 45 51
4.312473 22.085659 68.722572 70 45 50
4.303230 22.186148 68.575279 68 44 48
4.294005 22.286098 68.428284 67 43 47
4.284764 22.385326 68.281013 65 43 46
4.275476 22.483671 68.132988 64 43 46
4.266114 22.580990 67.983803 63 42 46
4.256658 22.677162 67.833115 61 42 45
4.247089 22.772085 67.680634 60 41 44
4.237396 22.865675 67.526161 59 40 43
4.227568 22.957867 67.369545 57 39 42
4.217600 23.048618 67.210701 57 39 42
4.207490 23.137907 67.049591 56 38 41
4.197239 23.225719 66.886238 55 37 39
4.186851 23.312061 66.720695 56 37 39
4.176332 23.396957 66.553055 57 38 40
4.165689 23.480434 66.383461 58 38 40
4.154932 23.562536 66.212051 58 39 40
4.144073 23.643311 66.038994 58 39 40
4.133122 23.722815 65.864487 57 39 40
4.122091 23.801104 65.688698 57 39 40
4.110991 23.878227 65.511795 57 39 39
4.099828 23.954227 65.333908 56 39 39
4.088611 24.029140 65.155159 55 38 38
4.077343 24.102987 64.975601 54 38 37
4.066026 24.175764 64.795258 53 38 37
4.054657 24.247452 64.614082 51 37 36
4.043231 24.318018 64.432007 50 37 35
4.031741 24.387405 64.248894 50 37 36
5.226620 -1.547719 80.524033 77 48 54
5.214900 -1.371055 80.343475 77 48 55
5.203716 -1.195293 80.171173 77 47 55
5.193093 -1.020383 80.007507 77 47 54
5.183052 -0.846275 79.852814 78 48 54
5.173614 -0.672911 79.707405 79 48 54
5.164798 -0.500235 79.571579 79 47 53
5.156619 -0.328185 79.445572 80 46 53
5.149089 -0.156698 79.329567 83 48 54
5.142220 0.014291 79.223724 86 50 56
5.136014 0.184847 79.128120 89 51 59
5.130478 0.355037 79.042824 91 52 61
5.125611 0.524929 78.967842 94 53 63
5.121412 0.694587 78.903160 95 53 63
5.117880 0.864080 78.848732 95 53 64
5.115008 1.033471 78.804497 96 53 65
5.112793 1.202825 78.770363 96 52 66
5.111227 1.372207 78.746223 97 52 68
5.110299 1.541678 78.731941 98 52 69
5.110001 1.711297 78.727341 99 52 71
5.110317 1.881123 78.732216 100 52 73
5.111229 2.051210 78.746277 102 53 74
5.112716 2.221606 78.769173 103 54 74
5.114748 2.392356 78.800476 104 55 73
5.117290 2.563497 78.839653 106 57 72
5.120303 2.735058 78.886070 107 59 72
5.123737 2.907058 78.938980 109 60 72
5.127538 3.079507 78.997528 110 61 73
5.131641 3.252399 79.060745 111 62 74
5.135978 3.425720 79.127563 113 63 75
5.140475 3.599442 79.196838 115 64 76
5.145052 3.773520 79.267357 117 66 77
5.149630 3.947903 79.337883 118 68 78
5.154125 4.122525 79.407143 119 69 79
5.158458 4.297309 79.473900 119 70 80
5.162550 4.472174 79.536949 119 70 81
5.166329 4.647027 79.595169 119 70 82
5.169727 4.821777 79.647522 118 70 81
5.172686 4.996328 79.693100 117 69 80
5.175152 5.170584 79.731102 115 68 79
5.177087 5.344454 79.760902 113 67 77
5.178456 5.517851 79.782005 110 66 75
5.179239 5.690694 79.794067 107 64 72
5.179423 5.862911 79.796898 105 62 70
5.179004 6.034439 79.790443 103 61 69
5.177988 6.205222 79.774788 103 61 69
5.176389 6.375220 79.750153 103 61 69
5.174226 6.544400 79.716835 103 61 70
5.171528 6.712739 79.675262 103 61 70
5.168325 6.880229 79.625923 102 61 70
5.164656 7.046869 79.569389 101 60 69
5.160560 7.212668 79.506279 100 60 69
5.156079 7.377646 79.437248 98 59 67
5.151260 7.541831 79.363007 97 58 66
5.146148 7.705257 79.284248 95 58 65
5.140791 7.867969 79.201721 93 57 63
5.135236 8.030014 79.116127 92 56 61
5.129526 8.191443 79.028168 91 55 60
5.123707 8.352315 78.938507 91 54 58
5.117820 8.512688 78.847801 91 53 57
5.111905 8.672622 78.756676 91 53 57
5.105998 8.832178 78.665680 92 53 58
5.100136 8.991420 78.575363 94 55 60
5.094349 9.150407 78.486198 95 56 62
5.088667 9.309203 78.398666 97 57 63
5.083118 9.467868 78.313179 98 57 64
5.077727 9.626464 78.230110 99 57 65
5.072517 9.785052 78.149849 100 57 65
5.067512 9.943695 78.072739 100 57 65
5.062733 10.102457 77.999107 100 57 64
5.058200 10.261401 77.929268 99 57 64
5.053933 10.420593 77.863541 99 57 65
5.049952 10.580100 77.802200 98 57 65
5.046275 10.739988 77.745544 97 56 64
5.042919 10.900328 77.693840 94 54 61
5.039898 11.061181 77.647316 88 50 57
5.037230 11.222616 77.606194 87 49 56
5.034921 11.384688 77.570625 88 51 58
5.032982 11.547456 77.540749 87 50 57
5.031416 11.710962 77.516624 85 49 56
5.030224 11.875249 77.498260 84 48 54
5.029403 12.040343 77.485611 84 48 54
5.028944 12.206263 77.478546 83 48 53
5.028836 12.373014 77.476875 83 48 53
5.029061 12.540590 77.480354 83 47 53
5.029600 12.708974 77.488655 82 47 52
5.030427 12.878130 77.501396 81 47 51
5.031514 13.048015 77.518135 80 46 51
5.032829 13.218573 77.538399 79 46 50
5.034338 13.389733 77.561653 78 46 50
5.036004 13.561415 77.587311 77 45 50
5.037785 13.733522 77.614746 76 44 50
5.039639 13.905948 77.643303 74 44 50
5.041517 14.078568 77.672256 73 44 50
5.043374 14.251248 77.700851 71 44 49
5.045155 14.423838 77.728294 70 45 49
5.046807 14.596173 77.753754 69 45 49
5.048275 14.768076 77.776360 67 45 49
5.049499 14.939357 77.795212 65 45 48
5.050421 15.109818 77.809433 63 45 46
5.050986 15.279256 77.818130 60 44 44
5.051136 15.447464 77.820435 56 42 42
5.050819 15.614240 77.815559 52 41 40
5.049988 15.779388 77.802765 49 39 38
5.048603 15.942729 77.781410 46 37 37
5.046628 16.104097 77.750984 43 36 35
5.044037 16.263350 77.711075 42 35 35
5.040813 16.420366 77.661400 40 33 33
5.036946 16.575054 77.601830 40 32 32
5.032434 16.727339 77.532310 39 30 31
5.027282 16.877176 77.452942 39 30 31
5.021502 17.024544 77.363892 38 28 29
5.015110 17.169432 77.265411 37 28 27
5.008126 17.311848 77.157814 36 27 25
5.000572 17.451807 77.041420 31 25 23
4.992467 17.589331 76.916565 32 27 27
4.983837 17.724442 76.783592 46 45 48
4.974699 17.857162 76.642815 68 69 78
4.965074 17.987509 76.494530 72 73 90
4.954978 18.115494 76.338989 51 52 77
4.944427 18.241131 76.176437 35 35 64
4.933436 18.364426 76.007088 51 51 82
4.922016 18.485380 75.831146 95 93 123
4.910180 18.604004 75.648796 102 98 122
4.897942 18.720301 75.460251 66 61 79
4.885314 18.834286 75.265701 43 39 50
4.872313 18.945978 75.065407 41 35 41
4.858955 19.055407 74.859596 41 34 37
4.845260 19.162617 74.648605 37 29 31
4.831250 19.267662 74.432762 35 25 26
4.816952 19.370615 74.212479 36 24 25
4.802394 19.471567 73.988197 40 27 27
4.787610 19.570627 73.760429 44 29 30
4.772637 19.667927 73.529739 48 32 33
4.757514 19.763609 73.296761 53 35 36
4.742287 19.857849 73.062157 56 36 38
4.727001 19.950829 72.826645 60 37 41
4.711705 20.042753 72.590988 62 38 43
4.696451 20.133839 72.355972 65 39 45
4.681290 20.224314 72.122391 68 41 47
4.666274 20.314415 71.891052 70 43 49
4.651453 20.404375 71.662720 72 45 51
4.636876 20.494427 71.438133 73 47 52
4.622586 20.584791 71.217979 74 48 53
4.608623 20.675667 71.002853 75 49 54
4.595018 20.767239 70.793251 76 50 55
4.581798 20.859655 70.589569 77 51 57
4.568976 20.953028 70.392044 78 51 58
4.556563 21.047432 70.200798 79 51 59
4.544557 21.142902 70.015823 79 51 59
4.532947 21.239433 69.836952 79 51 59
4.521715 21.336975 69.663902 79 50 59
4.510834 21.435442 69.496262 78 49 58
4.500271 21.534706 69.333527 77 48 56
4.489987 21.634615 69.175095 76 47 54
4.479940 21.734989 69.020309 75 46 53
4.470085 21.835630 68.868469 73 46 52
4.460375 21.936333 68.718864 72 45 51
4.450764 22.036880 68.570793 70 45 50
4.441207 22.137066 68.423569 68 44 48
4.431667 22.236692 68.276588 66 44 47
4.422103 22.335566 68.129234 65 43 47
4.412483 22.433519 67.981018 64 43 47
4.402778 22.530399 67.831497 63 43 46
4.392966 22.626083 67.680328 62 43 46
4.383027 22.720461 67.527206 61 42 45
4.372948 22.813446 67.371925 60 41 44
4.362720 22.904978 67.214348 58 40 43
4.352338 22.995018 67.054398 58 39 42
4.341801 23.083540 66.892052 57 39 42
4.331110 23.170547 66.727348 57 38 41
4.320273 23.256054 66.560394 57 38 40
4.309299 23.340096 66.391312 58 38 40
4.298198 23.422720 66.220291 58 38 40
4.286984 23.503983 66.047516 58 39 40
4.275670 23.583956 65.873215 58 39 40
4.264274 23.662714 65.697624 58 39 40
4.252809 23.740337 65.520996 57 39 40
4.241289 23.816893 65.343521 57 39 39
4.229728 23.892447 65.165405 56 39 39
4.218136 23.967056 64.986816 55 38 38
4.206520 24.040756 64.807846 54 38 38
4.194883 24.113567 64.628563 54 38 38
4.183224 24.185480 64.448944 52 38 37
4.171541 24.256472 64.268936 51 38 36
4.159824 24.326500 64.088432 50 38 36
5.404946 -1.722814 80.594772 76 49 55
5.392427 -1.545491 80.408104 77 49 55
5.380431 -1.369105 80.229210 77 48 55
5.368979 -1.193612 80.058456 77 47 55
5.358098 -1.018964 79.896202 77 47 55
5.347810 -0.845109 79.742805 77 47 54
5.338138 -0.671992 79.598579 77 47 54
5.329101 -0.499558 79.463821 78 46 54
5.320714 -0.327744 79.338768 79 46 54
5.312994 -0.156489 79.223640 83 47 55
5.305947 0.014272 79.118576 86 49 57
5.299583 0.184603 79.023674 89 51 60
5.293903 0.354571 78.938980 92 53 62
5.288911 0.524242 78.864532 94 54 63
5.284603 0.693682 78.800301 95 54 64
5.280978 0.862956 78.746254 95 54 63
5.278032 1.032131 78.702316 95 53 64
5.275757 1.201268 78.668396 96 53 66
5.274148 1.370433 78.644402 97 53 67
5.273193 1.539685 78.630157 98 53 69
5.272882 1.709084 78.625519 100 53 71
5.273198 1.878687 78.630234 101 53 73
5.274122 2.048546 78.644020 102 53 74
5.275632 2.218711 78.666534 104 54 74
5.277697 2.389224 78.697319 105 56 73
5.280281 2.560122 78.735855 106 57 72
5.283341 2.731432 78.781487 106 59 71
5.286828 2.903173 78.833481 107 59 70
5.290684 3.075353 78.890968 108 60 70
5.294843 3.247967 78.952995 109 60 71
5.299236 3.420999 79.018501 111 61 73
5.303788 3.594421 79.086372 114 63 74
5.308416 3.768190 79.155388 116 65 76
5.313040 3.942253 79.224335 117 67 78
5.317577 4.116546 79.291985 118 68 79
5.321945 4.290995 79.357109 118 69 81
5.326065 4.465516 79.418549 118 69 82
5.329865 4.640023 79.475204 119 70 83
5.333275 4.814424 79.526062 119 70 84
5.336237 4.988625 79.570236 118 70 83
5.338701 5.162534 79.606972 117 69 82
5.340624 5.336061 79.635651 115 68 80
5.341976 5.509122 79.655800 113 67 78
5.342733 5.681639 79.667099 110 65 75
5.342885 5.853541 79.669365 108 64 73
5.342429 6.024766 79.662552 106 63 72
5.341369 6.195263 79.646751 107 64 73
5.339721 6.364990 79.622177 108 65 75
5.337506 6.533917 79.589149 108 65 75
5.334750 6.702023 79.548058 107 64 74
5.331487 6.869297 79.499397 106 64 74
5.327753 7.035740 79.443718 105 63 73
5.323589 7.201361 79.381638 104 62 72
5.319039 7.366180 79.313782 103 61 70
5.314147 7.530222 79.240845 101 60 69
5.308961 7.693522 79.163506 100 59 67
5.303526 7.856122 79.082466 98 59 65
5.297890 8.018067 78.998428 97 57 63
5.292098 8.179409 78.912056 95 56 62
5.286192 8.340199 78.823997 95 56 60
5.280216 8.500497 78.734886 95 55 59
5.274209 8.660358 78.645317 95 55 60
5.268209 8.819846 78.555840 96 55 61
5.262249 8.979017 78.466980 97 56 63
5.256363 9.137933 78.379211 98 57 64
5.250582 9.296655 78.292992 100 58 65
5.244932 9.455243 78.208748 101 58 67
5.239441 9.613761 78.126877 102 58 67
5.234134 9.772267 78.047745 102 59 67
5.229035 9.930829 77.971718 102 59 67
5.224168 10.089509 77.899139 102 59 67
5.219555 10.248375 77.830345 102 59 67
5.215217 10.407494 77.765656 101 59 67
5.211174 10.566933 77.705376 100 58 67
5.207447 10.726763 77.649803 99 57 66
5.204054 10.887051 77.599205 96 55 63
5.201012 11.047867 77.553848 92 52 60
5.198334 11.209273 77.513924 91 52 59
5.196033 11.371330 77.479607 91 52 60
5.194116 11.534094 77.451019 89 51 59
5.192588 11.697609 77.428230 88 50 57
5.191449 11.861916 77.411247 86 49 56
5.190694 12.027040 77.400002 85 48 54
5.190318 12.193003 77.394379 84 48 53
5.190305 12.359809 77.394188 84 48 52
5.190639 12.527452 77.399178 83 47 52
5.191300 12.695915 77.409035 81 47 51
5.192263 12.865169 77.423386 80 47 51
5.193498 13.035166 77.441795 79 46 51
5.194974 13.205857 77.463814 78 47 50
5.196656 13.377173 77.488899 77 46 50
5.198507 13.549037 77.516495 77 45 50
5.200484 13.721353 77.545967 76 45 50
5.202543 13.894014 77.576675 75 45 51
5.204636 14.066900 77.607880 73 45 51
5.206711 14.239872 77.638824 72 46 50
5.208714 14.412778 77.668694 71 46 51
5.210588 14.585451 77.696640 70 46 51
5.212272 14.757706 77.721748 68 46 50
5.213704 14.929349 77.743103 66 46 49
5.214821 15.100172 77.759758 64 45 47
5.215561 15.269962 77.770790 61 44 45
5.215863 15.438504 77.775299 57 42 42
5.215672 15.605589 77.772446 53 40 39
5.214934 15.771009 77.761452 49 38 37
5.213607 15.934580 77.741653 46 37 36
5.211651 16.096125 77.712494 43 36 35
5.209040 16.255499 77.673561 42 35 34
5.205755 16.412580 77.624573 40 33 33
5.201785 16.567268 77.565376 39 31 31
5.197129 16.719494 77.495949 38 30 30
5.191794 16.869215 77.416397 38 29 30
5.185792 17.016403 77.326897 38 29 29
5.179142 17.161058 77.227737 37 28 27
5.171865 17.303188 77.119225 36 27 26
5.163984 17.442814 77.001717 33 26 25
5.155524 17.579956 76.875565 33 30 30
5.146508 17.714640 76.741127 43 43 47
5.136958 17.846888 76.598717 57 60 71
