ply
format ascii 1.0
element vertex 1188
property float x
property float y
property float z
property uchar red
property uchar green
property uchar blue
end_header
14.681717 6.793477 73.147324 163 148 156
14.675264 6.948102 73.115173 159 144 152
14.668497 7.102437 73.081459 156 140 148
14.661462 7.256495 73.046410 152 137 144
14.654222 7.410296 73.010338 151 135 142
14.646839 7.563870 72.973557 151 136 142
14.639389 7.717249 72.936440 150 136 141
14.631950 7.870474 72.899376 147 133 136
14.624600 8.023588 72.862762 142 128 130
14.617419 8.176639 72.826981 137 124 124
14.610479 8.329673 72.792404 133 120 121
14.603853 8.482739 72.759392 131 119 120
14.597604 8.635887 72.728256 131 119 121
14.591790 8.789163 72.699287 132 119 122
14.586460 8.942611 72.672729 134 120 125
14.581655 9.096272 72.648796 137 121 129
14.577414 9.250186 72.627663 140 122 131
14.573761 9.404390 72.609467 142 121 131
14.570725 9.558920 72.594337 141 118 128
14.568325 9.713808 72.582382 140 114 124
14.566580 9.869089 72.573685 139 111 119
14.565505 10.024794 72.568329 136 106 112
14.565118 10.180956 72.566406 131 100 104
14.565435 10.337610 72.567986 127 95 99
14.566472 10.494789 72.573151 122 91 94
14.568242 10.652527 72.581970 119 88 92
14.570760 10.810857 72.594513 118 88 93
14.574035 10.969811 72.610832 117 89 96
14.578073 11.129418 72.630943 116 87 96
14.582874 11.289703 72.654869 114 85 95
14.588435 11.450688 72.682579 111 82 94
14.594741 11.612384 72.713989 109 80 91
14.601772 11.774801 72.749023 105 78 88
14.609502 11.937940 72.787537 102 75 84
14.617890 12.101789 72.829330 98 73 80
14.626895 12.266336 72.874191 96 71 77
14.636466 12.431558 72.921875 94 69 75
14.646546 12.597424 72.972099 93 68 74
14.657079 12.763898 73.024574 92 68 73
14.667998 12.930942 73.078979 91 68 72
14.679246 13.098511 73.135010 90 67 71
14.690756 13.266560 73.192360 89 66 71
14.702469 13.435040 73.250717 87 65 71
14.714326 13.603907 73.309784 85 65 71
14.726274 13.773113 73.369324 85 64 71
14.738261 13.942613 73.429039 84 64 71
14.750242 14.112364 73.488731 84 63 71
14.762177 14.282327 73.548195 85 63 72
14.774026 14.452464 73.607231 86 63 73
14.785757 14.622738 73.665672 87 63 73
14.797342 14.793118 73.723396 87 64 73
14.808756 14.963573 73.780258 86 65 73
14.819975 15.134075 73.836151 86 64 71
14.830979 15.304598 73.890984 85 65 70
14.841752 15.475114 73.944649 85 66 69
14.852275 15.645599 73.997078 86 68 70
14.862532 15.816027 74.048180 88 70 72
14.872506 15.986371 74.097878 90 71 74
14.882178 16.156601 74.146065 89 71 73
14.891530 16.326689 74.192657 88 70 72
14.900540 16.496597 74.237549 88 69 72
14.909186 16.666294 74.280624 88 68 72
14.917442 16.835735 74.321754 89 68 73
14.925283 17.004883 74.360825 91 68 74
14.932687 17.173693 74.397705 92 68 75
14.939624 17.342123 74.432274 95 69 76
14.946074 17.510130 74.464401 100 73 81
14.952019 17.677679 74.494026 106 79 86
14.957446 17.844738 74.521065 111 84 92
14.962352 18.011286 74.545502 113 86 95
14.966742 18.177313 74.567375 112 86 95
14.970634 18.342821 74.586761 110 85 93
14.974054 18.507833 74.603806 106 82 89
14.977046 18.672384 74.618713 99 76 82
14.979661 18.836527 74.631744 91 69 75
14.981964 19.000328 74.643219 85 64 69
14.984028 19.163874 74.653503 82 62 68
14.985932 19.327257 74.662987 80 60 65
14.987764 19.490587 74.672119 77 58 63
14.989608 19.653973 74.681297 76 57 63
14.991547 19.817524 74.690964 75 56 63
14.993662 19.981350 74.701500 74 56 62
14.996019 20.145550 74.713249 73 55 62
14.998682 20.310211 74.726509 72 55 62
15.001693 20.475405 74.741508 71 54 62
15.005090 20.641195 74.758438 69 53 61
15.008896 20.807627 74.777397 68 53 60
15.013123 20.974728 74.798454 67 52 59
15.017779 21.142523 74.821655 66 52 57
15.022865 21.311028 74.847000 65 51 56
15.028385 21.480263 74.874496 64 51 56
15.034341 21.650244 74.904167 63 49 54
15.040747 21.821003 74.936081 62 48 52
15.047625 21.992594 74.970352 61 48 50
15.055014 22.165083 75.007164 61 47 49
15.062966 22.338568 75.046783 61 47 48
15.071551 22.513166 75.089561 61 47 48
15.080848 22.689022 75.135880 61 47 47
15.090943 22.866285 75.186172 61 46 48
15.101933 23.045132 75.240929 60 47 49
14.923961 -2.524003 73.564156 206 172 176
14.911697 -2.363479 73.503708 206 172 176
14.900414 -2.203362 73.448090 205 171 176
14.890131 -2.043621 73.397400 207 173 180
14.880858 -1.884227 73.351692 211 178 186
14.872605 -1.725148 73.311012 207 173 184
14.865362 -1.566351 73.275307 200 165 177
14.859120 -1.407803 73.244545 199 165 177
14.853854 -1.249469 73.218582 201 167 179
14.849537 -1.091317 73.197304 203 169 180
14.846131 -0.933315 73.180519 203 170 180
14.843591 -0.775429 73.167992 202 170 179
14.841868 -0.617632 73.159508 204 174 182
14.840909 -0.459895 73.154770 209 181 188
14.840655 -0.302193 73.153526 209 184 191
14.841051 -0.144502 73.155472 207 183 191
14.842031 0.013197 73.160301 205 183 190
14.843536 0.170923 73.167725 205 184 190
14.845504 0.328692 73.177422 205 185 190
14.847874 0.486515 73.189102 205 184 189
14.850579 0.644404 73.202438 203 183 188
14.853561 0.802365 73.217140 202 181 187
14.856755 0.960402 73.232880 201 180 184
14.860094 1.118519 73.249344 200 180 183
14.863514 1.276714 73.266197 199 179 183
14.866949 1.434983 73.283134 199 180 184
14.870332 1.593319 73.299805 200 181 186
14.873601 1.751714 73.315918 202 184 190
14.876691 1.910155 73.331146 210 191 199
14.879542 2.068629 73.345207 222 203 212
14.882106 2.227119 73.357841 227 209 219
14.884335 2.385612 73.368828 222 204 214
14.886190 2.544087 73.377975 219 202 211
14.887651 2.702531 73.385178 224 207 216
14.888701 2.860926 73.390350 221 204 213
14.889339 3.019260 73.393501 209 191 202
14.889570 3.177521 73.394638 213 195 206
14.889418 3.335701 73.393883 228 211 221
14.888906 3.493793 73.391357 226 211 220
14.888071 3.651796 73.387245 216 202 210
14.886946 3.809706 73.381699 211 199 205
14.885571 3.967526 73.374924 205 195 198
14.883981 4.125257 73.367088 197 188 187
14.882206 4.282901 73.358337 192 185 181
14.880270 4.440459 73.348793 192 188 181
14.878188 4.597930 73.338531 194 192 184
14.875965 4.755313 73.327576 198 196 190
14.873597 4.912601 73.315903 205 204 199
14.871073 5.069784 73.303459 215 214 210
14.868366 5.226851 73.290115 218 216 215
14.865451 5.383783 73.275749 209 207 208
14.862293 5.540564 73.260178 202 199 202
14.858858 5.697171 73.243248 203 197 203
14.855111 5.853582 73.224777 201 193 200
14.851020 6.009775 73.204613 193 183 191
14.846560 6.165727 73.182632 184 173 181
14.841711 6.321419 73.158730 179 167 175
14.836467 6.476835 73.132874 176 163 171
14.830828 6.631963 73.105080 172 158 167
14.824811 6.786798 73.075417 167 152 160
14.818442 6.941342 73.044029 163 148 156
14.811764 7.095600 73.011108 160 146 153
14.804826 7.249590 72.976913 158 144 150
14.797690 7.403335 72.941742 157 143 149
14.790428 7.556861 72.905937 156 143 147
14.783115 7.710208 72.869896 155 142 145
14.775834 7.863416 72.834000 153 140 141
14.768665 8.016530 72.798660 149 137 136
14.761690 8.169600 72.764282 143 131 130
14.754989 8.322675 72.731247 139 127 126
14.748631 8.475805 72.699905 137 125 125
14.742684 8.629042 72.670601 135 124 125
14.737205 8.782429 72.643585 136 124 126
14.732244 8.936015 72.619141 139 126 129
14.727842 9.089841 72.597443 146 131 136
14.724033 9.243945 72.578659 149 133 141
14.720842 9.398362 72.562927 146 127 137
14.718291 9.553128 72.550362 140 118 128
14.716397 9.708273 72.541023 136 112 123
14.715176 9.863828 72.534996 135 109 119
14.714636 10.019821 72.532333 130 102 112
14.714790 10.176284 72.533096 125 97 103
14.715651 10.333244 72.537338 123 92 97
14.717228 10.490735 72.545120 119 89 93
14.719533 10.648786 72.556480 116 86 90
14.722576 10.807426 72.571480 117 87 91
14.726362 10.966686 72.590141 118 89 94
14.730899 11.126592 72.612503 118 89 96
14.736182 11.287168 72.638550 117 88 96
14.742210 11.448433 72.668259 113 84 94
14.748967 11.610399 72.701569 107 78 89
14.756434 11.773078 72.738373 102 75 85
14.764585 11.936467 72.778557 98 73 82
14.773385 12.100560 72.821930 96 71 79
14.782791 12.265344 72.868294 94 70 77
14.792755 12.430797 72.917412 93 69 75
14.803224 12.596890 72.969009 92 68 73
14.814140 12.763593 73.022827 91 68 72
14.825442 12.930862 73.078529 91 67 72
14.837071 13.098661 73.135857 90 67 71
14.848962 13.266942 73.194466 89 66 71
14.861056 13.435658 73.254082 87 65 70
14.873296 13.604766 73.314415 86 65 71
14.885627 13.774217 73.375198 86 64 71
14.897996 13.943966 73.436165 86 63 71
14.910358 14.113972 73.497108 86 63 71
14.922670 14.284192 73.557793 87 63 72
14.934894 14.454589 73.618050 88 63 72
14.946997 14.625126 73.677704 89 64 73
14.958947 14.795771 73.736618 89 64 72
14.970721 14.966493 73.794647 88 64 72
14.982295 15.137262 73.851700 87 64 71
14.993647 15.308052 73.907661 86 65 70
15.004761 15.478837 73.962440 85 66 69
15.015620 15.649592 74.015968 87 67 71
15.026207 15.820292 74.068153 89 70 73
15.036508 15.990913 74.118935 91 72 76
15.046503 16.161425 74.168198 91 72 75
15.056174 16.331797 74.215874 89 70 73
15.065502 16.501999 74.261856 89 68 71
15.074462 16.671991 74.306015 90 68 72
15.083032 16.841740 74.348259 92 69 73
15.091185 17.011198 74.388443 94 70 74
15.098893 17.180326 74.426445 96 70 76
15.106133 17.349079 74.462128 99 73 79
15.112878 17.517414 74.495384 104 78 84
15.119110 17.685291 74.526100 110 83 91
15.124813 17.852674 74.554214 114 88 95
15.129980 18.019543 74.579681 114 88 96
15.134612 18.185877 74.602516 111 86 94
15.138724 18.351681 74.622787 105 83 90
15.142340 18.516964 74.640610 99 78 84
15.145495 18.681755 74.656158 93 73 78
15.148242 18.846106 74.669701 87 68 72
15.150639 19.010075 74.681511 82 63 67
15.152757 19.173744 74.691956 80 61 65
15.154673 19.337200 74.701401 77 59 63
15.156471 19.500544 74.710258 75 57 61
15.158235 19.663881 74.718956 74 56 61
15.160049 19.827326 74.727905 73 55 61
15.161992 19.990974 74.737480 73 55 61
15.164137 20.154934 74.748047 72 55 61
15.166545 20.319290 74.759918 71 54 61
15.169267 20.484123 74.773338 70 54 61
15.172341 20.649494 74.788490 69 53 59
15.175800 20.815458 74.805542 67 52 59
15.179666 20.982056 74.824593 66 52 57
15.183950 21.149321 74.845711 65 51 56
15.188667 21.317284 74.868965 64 51 55
15.193830 21.485975 74.894417 63 50 55
15.199453 21.655436 74.922134 63 49 54
15.205566 21.825716 74.952263 62 48 53
15.212204 21.996887 74.984985 61 48 51
15.219423 22.169044 75.020569 61 47 49
15.227291 22.342308 75.059349 61 47 48
15.235890 22.516819 75.101746 61 47 48
15.245321 22.692751 75.148232 62 47 47
15.255688 22.870287 75.199326 62 46 48
15.267103 23.049625 75.255600 61 46 49
15.082443 -2.523987 73.563683 205 171 175
15.069922 -2.363444 73.502617 205 171 176
15.058384 -2.203309 73.446335 204 170 176
15.047846 -2.043552 73.394936 208 175 183
15.038321 -1.884144 73.348480 214 181 191
15.029810 -1.725053 73.306969 208 175 187
15.022308 -1.566246 73.270378 198 166 178
15.015803 -1.407690 73.238655 196 164 176
15.010269 -1.249351 73.211655 200 168 179
15.005673 -1.091197 73.189240 204 172 182
15.001977 -0.933196 73.171211 207 175 184
14.999135 -0.775317 73.157356 208 178 185
14.997094 -0.617530 73.147400 210 182 187
14.995797 -0.459809 73.141075 214 186 192
14.995187 -0.302129 73.138100 211 186 192
14.995203 -0.144468 73.138176 205 183 188
14.995780 0.013193 73.140991 203 183 186
14.996860 0.170873 73.146255 204 185 187
14.998375 0.328585 73.153648 204 186 188
15.000269 0.486341 73.162880 201 183 185
15.002478 0.644150 73.173660 200 181 184
15.004942 0.802020 73.185677 199 180 184
15.007598 0.959953 73.198631 196 177 181
15.010388 1.117953 73.212242 195 176 179
15.013249 1.276017 73.226196 199 180 183
15.016120 1.434142 73.240196 206 187 191
15.018941 1.592322 73.253960 212 193 198
15.021654 1.750549 73.267189 214 196 202
15.024199 1.908812 73.279594 216 197 204
15.026524 2.067098 73.290939 219 199 208
15.028581 2.225393 73.300972 219 199 209
15.030329 2.383682 73.309502 215 195 205
15.031735 2.541951 73.316360 219 203 212
15.032782 2.700184 73.321465 233 221 228
15.033451 2.858368 73.324730 232 220 228
15.033745 3.016490 73.326157 215 200 210
15.033672 3.174541 73.325806 212 196 207
15.033252 3.332514 73.323753 223 208 218
15.032511 3.490403 73.320145 221 207 217
15.031481 3.648207 73.315117 209 197 204
15.030196 3.805924 73.308853 204 193 198
15.028695 3.963557 73.301529 202 192 195
15.027008 4.121108 73.293304 199 191 189
15.025163 4.278578 73.284302 200 195 189
15.023181 4.435969 73.274635 209 205 197
15.021074 4.593281 73.264359 215 212 203
15.018847 4.750509 73.253494 211 209 200
15.016490 4.907649 73.242004 209 208 200
15.013988 5.064690 73.229797 218 217 211
15.011318 5.221620 73.216774 217 215 213
15.008446 5.378421 73.202766 204 201 202
15.005340 5.535076 73.187614 201 195 199
15.001962 5.691563 73.171143 205 198 204
14.998277 5.847858 73.153168 202 193 201
14.994250 6.003939 73.133530 192 182 190
14.989860 6.159786 73.112114 184 172 180
14.985082 6.315378 73.088814 179 167 175
14.979913 6.470700 73.063599 177 164 172
14.974354 6.625741 73.036484 174 160 168
14.968423 6.780496 73.007553 169 156 164
14.962148 6.934967 72.976952 166 153 160
14.955571 7.089163 72.944870 164 151 158
14.948748 7.243102 72.911591 163 150 156
14.941741 7.396806 72.877419 162 150 154
14.934623 7.550307 72.842697 163 150 153
14.927474 7.703641 72.807831 162 148 150
14.920380 7.856854 72.773224 159 146 146
14.913422 8.009992 72.739288 155 142 141
14.906684 8.163104 72.706429 149 137 135
14.900249 8.316243 72.675041 144 133 132
14.894188 8.469460 72.645477 142 130 129
14.888569 8.622805 72.618073 140 128 129
14.883450 8.776326 72.593109 139 127 129
14.878879 8.930069 72.570808 142 131 133
14.874898 9.084076 72.551392 153 141 144
14.871536 9.238383 72.534996 159 144 150
14.868818 9.393027 72.521736 149 133 141
14.866762 9.548039 72.511711 134 115 125
14.865380 9.703448 72.504974 128 106 118
14.864683 9.859282 72.501572 129 105 118
14.864678 10.015568 72.501549 127 102 114
14.865372 10.172331 72.504929 124 96 105
14.866771 10.329599 72.511757 121 91 98
14.868883 10.487401 72.522057 118 89 93
14.871715 10.645761 72.535866 117 88 92
14.875272 10.804707 72.553215 118 89 92
14.879560 10.964268 72.574135 119 91 93
14.884582 11.124466 72.598625 122 94 98
14.890335 11.285324 72.626686 123 94 100
14.896814 11.446862 72.658287 115 87 96
14.904007 11.609092 72.693375 105 78 88
14.911895 11.772020 72.731842 99 73 83
14.920452 11.935651 72.773582 96 71 81
14.929646 12.099977 72.818420 93 69 78
14.939435 12.264987 72.866173 92 68 76
14.949776 12.430659 72.916603 91 68 74
14.960614 12.596970 72.969475 90 68 73
14.971898 12.763886 73.024506 90 67 72
14.983565 12.931373 73.081413 90 67 71
14.995558 13.099387 73.139908 90 66 70
15.007813 13.267887 73.199684 89 66 70
15.020275 13.436829 73.260460 88 66 71
15.032881 13.606163 73.321945 87 65 71
15.045579 13.775847 73.383881 87 64 71
15.058317 13.945834 73.446007 88 64 71
15.071048 14.116083 73.508102 88 63 71
15.083726 14.286551 73.569939 89 63 71
15.096314 14.457198 73.631340 90 63 71
15.108778 14.627989 73.692131 91 63 71
15.121086 14.798890 73.752159 91 64 71
15.133211 14.969870 73.811302 89 64 70
15.145133 15.140900 73.869446 88 64 69
15.156827 15.311952 73.926483 87 65 69
15.168278 15.483001 73.982338 86 67 69
15.179469 15.654023 74.036926 87 68 71
15.190385 15.824993 74.090164 89 70 73
15.201009 15.995886 74.141975 91 71 75
15.211326 16.166676 74.192299 92 71 75
15.221316 16.337332 74.241028 92 70 74
15.230960 16.507824 74.288063 92 69 73
15.240234 16.678114 74.333305 93 69 74
15.249118 16.848166 74.376625 96 71 75
15.257582 17.017937 74.417908 98 73 77
15.265599 17.187384 74.457016 101 75 79
15.273143 17.356461 74.493805 104 78 83
15.280188 17.525124 74.528168 109 83 89
15.286708 17.693329 74.559975 112 86 93
15.292689 17.861040 74.589149 114 88 96
15.298120 18.028231 74.615639 112 88 96
15.303001 18.194880 74.639442 107 84 92
15.307339 18.360979 74.660599 100 79 86
15.311156 18.526543 74.679222 93 74 80
15.314487 18.691589 74.695465 88 70 75
15.317375 18.856165 74.709549 84 66 71
15.319879 19.020321 74.721764 80 63 66
15.322064 19.184132 74.732422 78 61 64
15.324008 19.347683 74.741898 76 59 61
15.325790 19.511072 74.750595 74 57 60
15.327496 19.674398 74.758911 73 56 59
15.329207 19.837769 74.767258 72 55 59
15.331004 20.001286 74.776024 71 54 59
15.332959 20.165049 74.785561 70 54 59
15.335139 20.329149 74.796188 69 54 59
15.337598 20.493671 74.808182 69 53 59
15.340381 20.658680 74.821754 67 52 58
15.343525 20.824238 74.837097 66 52 57
15.347057 20.990393 74.854324 64 51 55
15.351004 21.157192 74.873573 63 50 54
15.355386 21.324680 74.894943 62 49 53
15.360227 21.492903 74.918556 62 49 53
15.365557 21.661915 74.944550 61 48 53
15.371415 21.831791 74.973129 61 48 52
15.377855 22.002623 75.004539 61 47 50
15.384946 22.174526 75.039124 61 47 49
15.392773 22.347649 75.077293 61 47 49
15.401437 22.522161 75.119560 61 47 48
15.411053 22.698256 75.166451 62 45 47
15.421744 22.876148 75.218605 61 45 47
15.241634 -2.524088 73.566643 204 169 174
15.228851 -2.363519 73.504944 204 169 175
15.217052 -2.203359 73.447990 204 169 177
15.206255 -2.043579 73.395874 207 174 182
15.196468 -1.884148 73.348640 209 178 187
15.187696 -1.725037 73.306297 204 173 184
15.179929 -1.566212 73.268806 198 167 179
15.173154 -1.407641 73.236107 196 167 178
15.167342 -1.249290 73.208054 200 170 181
15.162462 -1.091127 73.184502 207 177 185
15.158472 -0.933120 73.165245 214 185 191
15.155323 -0.775239 73.150040 219 190 195
15.152961 -0.617456 73.138641 219 191 195
15.151329 -0.459744 73.130760 220 193 197
15.150363 -0.302080 73.126099 215 189 193
15.150003 -0.144441 73.124367 203 181 184
15.150186 0.013191 73.125244 198 178 181
15.150847 0.170831 73.128441 200 182 183
15.151924 0.328495 73.133636 200 183 184
15.153359 0.486193 73.140564 198 181 182
15.155090 0.643933 73.148918 199 182 183
15.157059 0.801721 73.158417 204 186 188
15.159206 0.959562 73.168785 202 184 186
15.161478 1.117457 73.179749 199 182 184
15.163813 1.275404 73.191017 207 189 191
15.166157 1.433401 73.202332 218 200 203
15.168454 1.591441 73.213425 224 206 210
15.170650 1.749518 73.224022 222 204 210
15.172690 1.907621 73.233871 216 197 204
15.174528 2.065738 73.242737 212 192 201
15.176120 2.223858 73.250420 214 193 203
15.177428 2.381967 73.256737 219 199 209
15.178423 2.540050 73.261536 232 217 225
15.179085 2.698095 73.264732 244 236 241
15.179402 2.856089 73.266266 239 230 236
15.179377 3.014021 73.266144 221 206 217
15.179016 3.171883 73.264397 212 194 207
15.178339 3.329668 73.261131 210 195 207
15.177372 3.487372 73.256470 204 191 202
15.176147 3.644994 73.250557 195 185 193
15.174694 3.802533 73.243538 196 186 191
15.173048 3.959992 73.235596 206 197 199
15.171240 4.117373 73.226868 215 207 205
15.169295 4.274677 73.217484 217 210 204
15.167232 4.431906 73.207520 224 220 212
15.165062 4.589060 73.197052 232 230 222
15.162785 4.746136 73.186058 226 224 216
15.160395 4.903127 73.174522 216 215 207
15.157869 5.060024 73.162331 216 214 209
15.155188 5.216814 73.149391 211 209 207
15.152313 5.373480 73.135513 202 197 199
15.149214 5.530005 73.120560 204 198 202
15.145852 5.686366 73.104332 209 201 208
15.142192 5.842542 73.086662 200 190 198
15.138199 5.998509 73.067390 189 177 186
15.133849 6.154249 73.046394 183 171 178
15.129124 6.309742 73.023582 180 166 174
15.124016 6.464973 72.998932 177 163 171
15.118530 6.619932 72.972458 174 160 168
15.112684 6.774615 72.944237 171 158 166
15.106506 6.929025 72.914421 169 156 164
15.100044 7.083173 72.883232 168 156 162
15.093350 7.237074 72.850922 167 155 159
15.086492 7.390757 72.817818 168 156 159
15.079542 7.544250 72.784271 170 157 159
15.072586 7.697596 72.750694 169 155 156
15.065704 7.850836 72.717484 165 151 151
15.058988 8.004021 72.685066 160 146 145
15.052518 8.157199 72.653839 153 140 139
15.046378 8.310425 72.624199 149 136 135
15.040642 8.463751 72.596512 147 135 134
15.035377 8.617227 72.571098 145 133 133
15.030640 8.770901 72.548233 142 132 131
15.026480 8.924820 72.528160 145 135 135
15.022936 9.079024 72.511055 156 145 147
15.020037 9.233551 72.497055 160 149 153
15.017803 9.388434 72.486275 147 134 142
15.016249 9.543702 72.478775 130 115 126
15.015385 9.699384 72.474602 124 105 118
15.015214 9.855503 72.473778 124 104 118
15.015742 10.012084 72.476326 124 101 115
15.016972 10.169151 72.482262 123 96 107
15.018904 10.326727 72.491592 119 91 100
15.021543 10.484837 72.504326 118 90 96
15.024891 10.643503 72.520485 119 91 95
15.028952 10.802752 72.540085 119 91 93
15.033727 10.962605 72.563133 119 91 92
15.039220 11.123091 72.589653 122 95 96
15.045427 11.284225 72.619606 123 95 99
15.052342 11.446027 72.652992 114 87 94
15.059954 11.608508 72.689720 104 78 87
15.068244 11.771680 72.729744 98 72 84
15.077188 11.935541 72.772911 94 70 81
15.086758 12.100089 72.819099 92 69 79
15.096911 12.265313 72.868111 91 68 76
15.107608 12.431193 72.919739 90 67 74
15.118799 12.597709 72.973755 89 67 73
15.130428 12.764827 73.029884 90 66 71
15.142441 12.932514 73.087868 90 66 70
15.154778 13.100732 73.147415 90 66 70
15.167379 13.269438 73.208237 90 66 70
15.180187 13.438588 73.270058 90 66 71
15.193143 13.608137 73.332588 89 65 71
15.206193 13.778042 73.395576 89 65 71
15.219282 13.948255 73.458755 89 65 71
15.232364 14.118732 73.521896 90 64 71
15.245396 14.289435 73.584793 91 64 71
15.258336 14.460322 73.647255 92 64 71
15.271149 14.631357 73.709099 92 64 71
15.283804 14.802506 73.770180 92 64 70
15.296273 14.973736 73.830360 90 64 69
15.308533 15.145019 73.889542 89 64 69
15.320563 15.316326 73.947609 88 65 68
15.332347 15.487636 74.004486 89 67 69
15.343866 15.658919 74.060081 90 68 71
15.355106 15.830156 74.114334 91 69 73
15.366053 16.001322 74.167168 92 69 74
15.376689 16.172386 74.218506 94 69 74
15.386998 16.343327 74.268265 95 70 75
15.396958 16.514107 74.316338 96 71 76
15.406550 16.684696 74.362640 98 72 76
15.415747 16.855051 74.407028 100 74 78
15.424522 17.025135 74.449387 102 76 80
15.432850 17.194901 74.489578 105 79 83
15.440700 17.364302 74.527466 108 82 87
15.448045 17.533295 74.562920 111 85 92
15.454858 17.701832 74.595802 113 87 95
15.461123 17.869875 74.626038 111 87 96
15.466824 18.037392 74.653557 108 85 94
15.471957 18.204361 74.678337 103 81 89
15.476528 18.370768 74.700401 97 76 84
15.480556 18.536621 74.719849 91 72 79
15.484071 18.701937 74.736809 86 68 74
15.487113 18.866749 74.751488 81 64 69
15.489738 19.031115 74.764160 77 62 65
15.492010 19.195095 74.775131 75 60 62
15.494000 19.358772 74.784729 74 58 60
15.495790 19.522236 74.793365 73 57 58
15.497459 19.685587 74.801430 72 55 57
15.499094 19.848927 74.809319 70 54 57
15.500772 20.012358 74.817421 69 53 57
15.502570 20.175978 74.826096 68 52 57
15.504554 20.339880 74.835670 67 52 57
15.506784 20.504150 74.846443 67 52 57
15.509310 20.668859 74.858627 66 52 56
15.512176 20.834078 74.872459 65 51 55
15.515414 20.999861 74.888092 62 49 54
15.519060 21.166267 74.905685 61 48 52
15.523147 21.333355 74.925407 60 48 51
15.527707 21.501184 74.947426 60 47 51
15.532785 21.669830 74.971939 59 47 51
15.538434 21.839384 74.999199 59 46 51
15.544721 22.009958 75.029549 60 47 50
15.551731 22.181696 75.063385 61 47 49
15.559565 22.354761 75.101189 61 47 49
15.568343 22.529358 75.143562 61 46 48
15.578196 22.705702 75.191116 61 45 47
15.589263 22.884035 75.244537 61 45 47
15.388548 -2.363710 73.510887 202 168 175
15.376481 -2.203516 73.453247 202 169 176
15.365417 -2.043704 73.400383 203 170 179
15.355361 -1.884244 73.352356 202 172 181
15.346318 -1.725104 73.309158 200 171 180
15.338279 -1.566254 73.270752 197 169 178
15.331226 -1.407659 73.237061 198 170 179
15.325131 -1.249288 73.207947 203 175 183
15.319961 -1.091108 73.183243 210 182 187
15.315671 -0.933088 73.162758 217 189 193
15.312212 -0.775199 73.146233 221 192 196
15.309526 -0.617412 73.133400 220 191 195
15.307556 -0.459702 73.123993 218 190 193
15.306239 -0.302045 73.117699 211 185 188
15.305511 -0.144421 73.114220 199 176 178
15.305305 0.013188 73.113235 194 173 175
15.305563 0.170799 73.114471 195 178 178
15.306218 0.328423 73.117599 197 181 181
15.307215 0.486072 73.122360 198 182 181
15.308491 0.643752 73.128456 203 188 187
15.309994 0.801471 73.135635 215 199 199
15.311666 0.959232 73.143616 216 200 200
15.313452 1.117035 73.152153 211 194 195
15.315302 1.274881 73.160988 215 198 199
15.317161 1.432765 73.169868 223 206 209
15.318977 1.590683 73.178551 226 209 213
15.320704 1.748628 73.186798 223 205 210
15.322288 1.906592 73.194359 216 197 203
15.323688 2.064563 73.201050 212 192 200
15.324860 2.222529 73.206650 215 194 203
15.325772 2.380480 73.211006 224 203 213
15.326395 2.538401 73.213982 237 220 229
15.326710 2.696281 73.215485 244 231 239
15.326709 2.854109 73.215485 236 222 232
15.326390 3.011874 73.213959 219 202 214
15.325763 3.169569 73.210960 206 188 201
15.324842 3.327188 73.206566 198 183 195
15.323656 3.484727 73.200897 192 180 191
15.322232 3.642185 73.194099 189 179 188
15.320601 3.799562 73.186302 196 187 194
15.318792 3.956860 73.177666 215 207 211
15.316838 4.114081 73.168327 232 223 224
15.314762 4.271228 73.158417 231 224 221
15.312581 4.428303 73.147995 232 227 223
15.310305 4.585303 73.137115 240 236 232
15.307933 4.742228 73.125786 235 233 227
15.305457 4.899069 73.113960 223 220 215
15.302857 5.055820 73.101547 216 213 208
15.300113 5.212467 73.088432 208 204 202
15.297187 5.368994 73.074455 201 195 196
15.294045 5.525383 73.059448 203 194 199
15.290653 5.681614 73.043243 204 194 200
15.286977 5.837667 73.025688 194 182 190
15.282982 5.993519 73.006599 185 172 179
15.278645 6.149151 72.985878 181 167 175
15.273946 6.304544 72.963432 179 164 172
15.268884 6.459687 72.939247 178 163 171
15.263459 6.614569 72.913338 176 162 170
15.257694 6.769188 72.885803 174 160 168
15.251619 6.923547 72.856781 173 160 167
15.245279 7.077659 72.826492 172 160 166
15.238730 7.231540 72.795212 171 159 163
15.232038 7.385218 72.763245 172 160 163
15.225282 7.538725 72.730965 174 161 162
15.218541 7.692102 72.698769 173 159 159
15.211903 7.845392 72.667053 168 154 154
15.205455 7.998646 72.636253 163 149 148
15.199283 8.151915 72.606766 158 144 143
15.193468 8.305252 72.578995 155 141 140
15.188084 8.458709 72.553268 153 139 139
15.183199 8.612339 72.529938 151 139 138
15.178868 8.766188 72.509247 148 138 136
15.175140 8.920301 72.491440 148 139 138
15.172050 9.074720 72.476677 154 145 145
15.169627 9.229482 72.465103 154 144 147
15.167888 9.384616 72.456795 141 130 137
15.166842 9.540151 72.451805 130 116 127
15.166499 9.696113 72.450165 126 109 123
15.166857 9.852524 72.451874 124 105 120
15.167916 10.009405 72.456932 122 101 115
15.169677 10.166778 72.465340 122 97 109
15.172133 10.324660 72.477081 122 96 105
15.175289 10.483076 72.492149 126 98 103
15.179143 10.642046 72.510559 127 100 102
15.183695 10.801593 72.532303 125 98 98
15.188945 10.961737 72.557381 120 93 93
15.194893 11.122500 72.585800 117 91 92
15.201537 11.283902 72.617538 115 89 92
15.208870 11.445960 72.652565 108 83 90
15.216881 11.608686 72.690834 102 77 86
15.225554 11.772089 72.732269 98 74 85
15.234865 11.936171 72.776749 94 71 83
15.244789 12.100930 72.824158 91 69 80
15.255286 12.266355 72.874298 90 67 77
15.266319 12.432432 72.927002 90 67 75
15.277837 12.599136 72.982025 90 66 74
15.289793 12.766443 73.039131 90 65 72
15.302128 12.934318 73.098061 90 65 71
15.314788 13.102724 73.158539 91 66 70
15.327712 13.271620 73.220276 91 66 71
15.340846 13.440965 73.283012 91 66 71
15.354130 13.610714 73.346474 90 66 72
15.367509 13.780822 73.410385 91 66 72
15.380932 13.951245 73.474503 91 66 72
15.394348 14.121940 73.538597 92 66 72
15.407716 14.292864 73.602448 94 65 72
15.420992 14.463979 73.665871 94 65 72
15.434141 14.635245 73.728683 94 65 72
15.447131 14.806631 73.790741 94 65 71
15.459932 14.978102 73.851891 93 65 70
15.472524 15.149630 73.912041 92 65 69
15.484882 15.321187 73.971077 91 65 68
15.496992 15.492750 74.028923 92 67 69
15.508835 15.664293 74.085495 94 68 71
15.520397 15.835794 74.140732 95 69 73
15.531664 16.007227 74.194550 95 69 74
15.542619 16.178570 74.246880 96 70 75
15.553246 16.349792 74.297646 98 71 76
15.563523 16.520863 74.346741 100 73 79
15.573431 16.691748 74.394073 102 75 80
15.582944 16.862411 74.439514 105 78 82
15.592035 17.032808 74.482941 106 80 85
15.600676 17.202896 74.524216 109 83 88
15.608833 17.372625 74.563187 111 85 91
15.616482 17.541950 74.599724 112 86 94
15.623592 17.710821 74.633690 111 86 95
15.630144 17.879202 74.664986 108 84 94
15.636119 18.047050 74.693527 104 81 92
15.641514 18.214346 74.719299 98 78 87
15.646327 18.381071 74.742294 92 74 82
15.650578 18.547228 74.762604 87 70 77
15.654288 18.712826 74.780327 83 66 72
15.657500 18.877899 74.795670 78 62 66
15.660263 19.042494 74.808868 74 59 63
15.662641 19.206673 74.820229 72 58 60
15.664700 19.370504 74.830063 72 57 59
15.666522 19.534084 74.838768 71 56 57
15.668185 19.697504 74.846710 69 54 56
15.669773 19.860861 74.854294 68 53 55
15.671366 20.024256 74.861900 66 52 54
15.673041 20.187790 74.869904 65 51 54
15.674868 20.351557 74.878632 64 50 54
15.676908 20.515640 74.888374 64 50 54
15.679216 20.680119 74.899406 64 50 54
15.681844 20.845070 74.911957 63 49 54
15.684832 21.010557 74.926231 61 48 53
15.688223 21.176651 74.942429 59 46 51
15.692059 21.343418 74.960754 58 46 50
15.696385 21.510937 74.981422 58 46 51
15.701259 21.679300 75.004700 58 46 51
15.706744 21.848616 75.030907 59 46 51
15.712926 22.019020 75.060432 60 46 50
15.719903 22.190674 75.093765 60 46 49
15.727795 22.363771 75.131462 61 46 49
15.736735 22.538536 75.174171 61 46 48
15.746875 22.715212 75.222610 61 45 48
15.758370 22.894068 75.277527 61 46 48
15.549056 -2.364021 73.520554 201 166 174
15.536718 -2.203785 73.462212 200 166 174
15.525378 -2.043933 73.408592 199 166 174
15.515047 -1.884434 73.359741 198 167 176
15.505726 -1.725258 73.315674 198 168 177
15.497403 -1.566373 73.276321 196 169 176
15.490064 -1.407747 73.241615 198 171 177
15.483677 -1.249347 73.211418 203 177 183
15.478209 -1.091142 73.185562 210 183 188
15.473614 -0.933102 73.163834 211 184 188
15.469839 -0.775196 73.145988 210 182 185
15.466828 -0.617398 73.131752 207 180 183
15.464522 -0.459682 73.120850 206 179 181
15.462854 -0.302025 73.112961 201 175 177
15.461763 -0.144408 73.107803 195 172 173
15.461182 0.013187 73.105049 193 173 174
15.461048 0.170775 73.104416 195 178 178
15.461299 0.328369 73.105606 199 183 182
15.461879 0.485978 73.108345 203 188 185
15.462729 0.643611 73.112366 209 194 191
15.463796 0.801272 73.117416 220 205 203
15.465027 0.958965 73.123230 223 207 205
15.466371 1.116691 73.129585 218 201 202
15.467777 1.274449 73.136238 219 202 203
15.469198 1.432238 73.142960 221 204 206
15.470586 1.590052 73.149521 221 203 206
15.471892 1.747885 73.155701 218 200 204
15.473072 1.905730 73.161278 215 195 201
15.474085 2.063576 73.166061 213 193 199
15.474889 2.221413 73.169868 217 194 203
15.475453 2.379229 73.172531 225 202 211
15.475749 2.537013 73.173935 232 210 220
15.475760 2.694753 73.173988 231 211 221
15.475475 2.852439 73.172638 220 200 211
15.474894 3.010062 73.169884 204 186 197
15.474020 3.167612 73.165756 193 176 187
15.472872 3.325086 73.160332 189 175 186
15.471473 3.482480 73.153709 191 180 191
15.469849 3.639793 73.146034 197 187 197
15.468026 3.797024 73.137413 207 198 207
15.466041 3.954176 73.128029 226 218 224
15.463914 4.111250 73.117973 242 234 237
15.461675 4.268250 73.107384 242 235 234
15.459336 4.425175 73.096329 238 232 230
15.456909 4.582026 73.084854 236 230 228
15.454393 4.738801 73.072952 229 223 220
15.451781 4.895494 73.060600 221 214 211
15.449055 5.052096 73.047714 213 207 204
15.446191 5.208597 73.034172 204 196 196
15.443159 5.364981 73.019836 197 188 190
15.439927 5.521231 73.004555 195 184 188
15.436458 5.677329 72.988152 192 180 186
15.432720 5.833254 72.970482 186 171 179
15.428683 5.988986 72.951393 180 165 173
15.424327 6.144510 72.930794 178 162 170
15.419630 6.299805 72.908585 177 162 170
15.414593 6.454862 72.884766 180 166 173
15.409219 6.609672 72.859352 182 168 176
15.403530 6.764234 72.832458 181 168 175
15.397556 6.918552 72.804214 179 167 172
15.391347 7.072640 72.774857 177 165 170
15.384955 7.226516 72.744629 175 163 167
15.378450 7.380207 72.713875 173 161 163
15.371907 7.533747 72.682938 172 159 160
15.365410 7.687176 72.652214 170 156 156
15.359041 7.840539 72.622101 169 154 154
15.352893 7.993886 72.593033 167 152 153
15.347047 8.147268 72.565392 165 149 150
15.341584 8.300740 72.539566 163 147 148
15.336581 8.454353 72.515907 161 145 147
15.332102 8.608157 72.494720 158 145 145
15.328199 8.762201 72.476273 155 144 144
15.324924 8.916530 72.460785 152 142 142
15.322308 9.071181 72.448418 149 140 142
15.320374 9.226192 72.439278 143 134 139
15.319139 9.381590 72.433434 135 124 133
15.318611 9.537403 72.430939 130 117 129
15.318791 9.693654 72.431793 127 112 125
15.319679 9.850364 72.435989 123 106 120
15.321267 10.007548 72.443497 120 100 113
15.323551 10.165227 72.454292 121 98 110
15.326526 10.323418 72.468361 126 101 110
15.330188 10.482140 72.485680 132 105 110
15.334535 10.641410 72.506226 131 105 106
15.339563 10.801250 72.530006 126 100 101
15.345271 10.961678 72.556992 120 94 94
15.351660 11.122715 72.587204 113 88 88
15.358723 11.284378 72.620598 108 83 86
15.366455 11.446683 72.657158 104 80 86
15.374846 11.609644 72.696831 101 78 86
15.383882 11.773269 72.739555 98 76 86
15.393539 11.937560 72.785217 95 73 85
15.403794 12.102517 72.833710 93 70 82
15.414612 12.268132 72.884857 91 68 79
15.425956 12.434391 72.938499 91 67 77
15.437778 12.601272 72.994392 91 66 76
15.450033 12.768752 73.052338 91 65 74
15.462667 12.936798 73.112076 92 65 73
15.475625 13.105376 73.173340 93 66 72
15.488849 13.274446 73.235870 94 67 72
15.502283 13.443969 73.299393 93 67 72
15.515869 13.613898 73.363632 93 67 72
15.529557 13.784195 73.428352 93 68 73
15.543290 13.954811 73.493286 94 68 73
15.557022 14.125707 73.558212 95 67 73
15.570705 14.296838 73.622917 96 67 73
15.584300 14.468164 73.687195 96 67 73
15.597769 14.639650 73.750877 96 67 72
15.611078 14.811261 73.813812 95 66 71
15.624202 14.982963 73.875862 95 66 70
15.637114 15.154728 73.936913 95 66 69
15.649793 15.326529 73.996864 95 66 69
15.662221 15.498339 74.055626 96 67 70
15.674383 15.670136 74.113136 98 68 72
15.686264 15.841898 74.169312 99 70 73
15.697848 16.013599 74.224083 99 71 75
15.709122 16.185217 74.277390 100 73 76
15.720066 16.356722 74.329132 102 74 79
15.730662 16.528084 74.379242 104 77 82
15.740890 16.699270 74.427597 106 79 84
15.750721 16.870241 74.474083 109 82 87
15.760129 17.040955 74.518562 110 84 90
15.769084 17.211367 74.560905 111 86 92
15.777555 17.381426 74.600960 112 87 94
15.785513 17.551088 74.638588 111 87 96
15.792924 17.720299 74.673630 109 86 96
15.799770 17.889023 74.706001 104 82 92
15.806028 18.057213 74.735588 99 78 88
15.811692 18.224846 74.762367 94 75 85
15.816760 18.391901 74.786331 90 72 81
15.821242 18.558372 74.807526 85 68 75
15.825166 18.724276 74.826080 80 64 70
15.828564 18.889629 74.842140 77 61 66
15.831487 19.054482 74.855965 73 58 62
15.833990 19.218885 74.867805 71 57 59
15.836146 19.382914 74.877998 70 55 57
15.838028 19.546648 74.886894 68 54 56
15.839716 19.710178 74.894875 66 52 54
15.841292 19.873606 74.902328 65 51 53
15.842837 20.037024 74.909630 63 50 52
15.844429 20.200533 74.917160 62 49 52
15.846140 20.364227 74.925247 62 49 52
15.848034 20.528194 74.934204 62 49 52
15.850172 20.692518 74.944313 62 48 52
15.852610 20.857281 74.955841 61 48 52
15.855393 21.022551 74.969002 60 47 51
15.858579 21.188414 74.984062 58 46 51
15.862212 21.354946 75.001244 57 45 50
15.866354 21.522242 75.020828 58 45 51
15.871071 21.690407 75.043129 58 45 52
15.876443 21.859571 75.068535 59 46 51
15.882569 22.029892 75.097496 59 46 51
15.889565 22.201551 75.130577 59 46 50
15.897563 22.374765 75.168396 60 45 49
15.906718 22.549782 75.211685 60 45 49
15.917192 22.726868 75.261208 61 46 48
15.697789 -2.204166 73.474899 198 164 172
15.686168 -2.044264 73.420509 196 164 171
15.675551 -1.884718 73.370811 196 165 172
15.665939 -1.725497 73.325829 196 167 174
15.657326 -1.566569 73.285507 195 168 174
15.649689 -1.407903 73.249763 196 170 175
15.643002 -1.249467 73.218460 201 175 179
15.637226 -1.091230 73.191437 206 179 183
15.632318 -0.933161 73.168465 204 177 181
15.628225 -0.775231 73.149300 199 171 174
15.624886 -0.617414 73.133675 197 170 172
15.622241 -0.459685 73.121292 197 171 172
15.620227 -0.302021 73.111862 197 172 173
15.618778 -0.144403 73.105087 196 173 174
15.617828 0.013186 73.100639 198 176 177
15.617318 0.170761 73.098251 201 183 183
15.617185 0.328333 73.097626 207 190 188
15.617371 0.485913 73.098495 210 194 191
15.617823 0.643507 73.100609 211 195 190
15.618487 0.801122 73.103722 213 198 194
15.619314 0.958759 73.107597 220 205 202
15.620258 1.116422 73.112015 221 205 204
15.621268 1.274109 73.116737 215 199 200
15.622300 1.431819 73.121567 213 197 198
15.623309 1.589547 73.126289 214 196 199
15.624250 1.747288 73.130699 215 197 200
15.625081 1.905035 73.134583 216 196 201
15.625760 2.062778 73.137764 216 195 201
15.626248 2.220507 73.140053 217 195 202
15.626515 2.378213 73.141296 220 197 205
15.626533 2.535884 73.141380 222 199 208
15.626282 2.693509 73.140205 217 194 203
15.625751 2.851078 73.137718 204 183 193
15.624935 3.008581 73.133904 192 174 183
15.623840 3.166011 73.128777 188 172 182
15.622480 3.323363 73.122414 193 180 190
15.620875 3.480633 73.114899 205 193 203
15.619049 3.637818 73.106354 213 204 214
15.617029 3.794920 73.096901 222 214 223
15.614846 3.951940 73.086678 236 229 235
15.612524 4.108879 73.075813 246 239 244
15.610087 4.265740 73.064407 245 238 240
15.607552 4.422524 73.052536 237 229 229
15.604929 4.579231 73.040260 225 216 216
15.602221 4.735859 73.027588 213 204 204
15.599421 4.892404 73.014481 208 199 198
15.596513 5.048857 73.000870 205 195 195
15.593476 5.205208 72.986656 198 187 188
15.590284 5.361445 72.971718 191 179 182
15.586907 5.517552 72.955910 188 174 179
15.583312 5.673512 72.939079 185 170 176
15.579471 5.829307 72.921097 182 166 172
15.575354 5.984918 72.901833 179 162 170
15.570942 6.140330 72.881180 177 160 168
15.566220 6.295527 72.859085 177 162 169
15.561187 6.450501 72.835526 185 170 176
15.555851 6.605244 72.810547 192 178 185
15.550232 6.759756 72.784248 190 177 183
15.544362 6.914044 72.756775 183 170 176
15.538289 7.068120 72.728348 177 165 170
15.532068 7.222005 72.699226 174 162 166
15.525767 7.375727 72.669739 170 158 161
15.519460 7.529318 72.640213 169 156 158
15.513228 7.682821 72.611053 169 155 156
15.507160 7.836279 72.582649 170 156 157
15.501340 7.989743 72.555405 172 157 159
15.495850 8.143262 72.529701 171 155 158
15.490771 8.296892 72.505936 168 152 155
15.486176 8.450683 72.484428 166 149 153
15.482129 8.604686 72.465485 162 148 150
15.478680 8.758945 72.449341 159 146 149
15.475877 8.913507 72.436226 153 141 144
15.473750 9.068409 72.426270 145 134 138
15.472322 9.223684 72.419586 140 127 135
15.471602 9.379360 72.416214 134 121 131
15.471598 9.535462 72.416191 130 116 128
15.472304 9.692010 72.419502 126 111 123
15.473721 9.849023 72.426125 121 105 117
15.475835 10.006516 72.436028 118 100 110
15.478639 10.164505 72.449150 120 99 108
15.482122 10.323005 72.465454 125 101 109
15.486282 10.482031 72.484924 127 102 107
15.491108 10.641599 72.507515 124 98 101
15.496600 10.801729 72.533218 119 94 96
15.502751 10.962436 72.562012 115 90 92
15.509561 11.123738 72.593880 111 86 88
15.517024 11.285655 72.628815 107 83 86
15.525136 11.448200 72.666786 105 82 88
15.533886 11.611385 72.707741 103 80 89
15.543262 11.775222 72.751625 101 78 89
15.553243 11.939712 72.798340 98 75 87
15.563807 12.104856 72.847786 95 72 85
15.574920 12.270647 72.899803 94 70 82
15.586548 12.437073 72.954224 92 67 80
15.598649 12.604115 73.010864 92 66 78
15.611177 12.771752 73.069511 93 66 77
15.624082 12.939953 73.129906 94 67 75
15.637309 13.108685 73.191818 95 67 75
15.650804 13.277910 73.254982 96 68 74
15.664513 13.447592 73.319145 96 68 74
15.678376 13.617684 73.384033 96 69 74
15.692345 13.788150 73.449417 97 69 74
15.706364 13.958941 73.515038 97 69 74
15.720386 14.130018 73.580666 97 69 74
15.734363 14.301337 73.646088 97 69 75
15.748256 14.472862 73.711121 98 69 75
15.762027 14.644553 73.775574 98 68 75
15.775641 14.816375 73.839294 98 67 74
15.789071 14.988297 73.902161 98 67 73
15.802292 15.160288 73.964035 98 68 72
15.815281 15.332322 74.024834 98 68 72
15.828022 15.504375 74.084465 100 69 72
15.840497 15.676422 74.142860 101 70 73
15.852693 15.848441 74.199944 102 71 75
15.864593 16.020409 74.255638 104 73 77
15.876184 16.192299 74.309891 105 77 79
15.887447 16.364088 74.362617 107 79 82
15.898365 16.535746 74.413719 108 81 85
15.908912 16.707232 74.463081 111 83 89
15.919065 16.878513 74.510605 113 86 92
15.928796 17.049549 74.556152 114 89 95
15.938072 17.220291 74.599571 114 89 97
15.946861 17.390686 74.640701 113 89 97
15.955133 17.560692 74.679428 110 88 97
15.962854 17.730251 74.715561 106 84 94
15.970002 17.899324 74.749023 99 79 90
15.976554 18.067867 74.779686 94 74 85
15.982499 18.235849 74.807510 90 72 82
15.987832 18.403248 74.832474 88 71 79
15.992564 18.570057 74.854622 84 67 75
15.996716 18.736280 74.874054 79 63 69
16.000320 18.901941 74.890923 77 60 65
16.003426 19.067080 74.905457 73 57 62
16.006083 19.231745 74.917900 70 55 59
16.008362 19.396004 74.928566 68 54 56
16.010338 19.559938 74.937813 66 52 54
16.012085 19.723633 74.945992 64 49 52
16.013689 19.887182 74.953499 62 48 51
16.015226 20.050682 74.960693 61 48 50
16.016779 20.214231 74.967964 60 48 50
16.018419 20.377922 74.975639 60 48 51
16.020214 20.541847 74.984047 60 48 51
16.022232 20.706095 74.993484 60 48 51
16.024529 20.870745 75.004234 60 47 50
16.027161 21.035885 75.016556 60 47 50
16.030190 21.201601 75.030731 58 46 50
16.033672 21.367985 75.047035 57 45 50
16.037683 21.535145 75.065804 57 45 51
16.042295 21.703203 75.087395 58 45 52
16.047607 21.872305 75.112259 58 45 52
16.053728 22.042627 75.140907 58 45 52
16.060793 22.214375 75.173973 58 45 51
16.068947 22.387787 75.212143 59 45 50
16.078362 22.563131 75.256210 59 46 50
16.089218 22.740704 75.307022 60 46 49
15.859704 -2.204656 73.491249 197 163 171
15.847793 -2.044697 73.436050 195 163 170
15.836880 -1.885095 73.385490 195 164 171
15.826971 -1.725820 73.339569 195 166 173
15.818054 -1.566841 73.298248 195 167 173
15.810111 -1.408128 73.261444 195 169 174
15.803112 -1.249647 73.229012 196 170 174
15.797022 -1.091369 73.200790 197 171 175
15.791791 -0.933264 73.176552 197 170 174
15.787370 -0.775303 73.156067 195 169 171
15.783698 -0.617459 73.139046 195 169 171
15.780714 -0.459709 73.125221 197 170 172
15.778354 -0.302031 73.114288 198 173 175
15.776553 -0.144405 73.105942 200 176 178
15.775246 0.013186 73.099884 203 180 182
15.774371 0.170755 73.095825 207 187 187
15.773870 0.328315 73.093506 214 195 193
15.773687 0.485874 73.092659 215 197 194
15.773767 0.643441 73.093033 208 190 186
15.774062 0.801020 73.094398 206 190 186
15.774525 0.958615 73.096542 219 203 200
15.775108 1.116227 73.099243 222 207 205
15.775768 1.273858 73.102303 208 193 192
15.776461 1.431505 73.105515 203 187 187
15.777143 1.589164 73.108673 208 192 193
15.777774 1.746832 73.111603 217 199 202
15.778309 1.904500 73.114075 224 206 209
15.778709 2.062162 73.115936 224 203 208
15.778937 2.219807 73.116989 218 196 202
15.778959 2.377426 73.117088 213 190 197
15.778744 2.535007 73.116096 210 187 195
15.778274 2.692541 73.113914 206 184 192
15.777534 2.850016 73.110481 199 179 187
15.776516 3.007424 73.105774 193 176 185
15.775224 3.164756 73.099785 197 181 190
15.773668 3.322007 73.092575 209 196 205
15.771865 3.479172 73.084213 222 211 220
15.769837 3.636249 73.074821 227 217 227
15.767611 3.793238 73.064507 234 227 234
15.765213 3.950140 73.053391 244 239 243
15.762670 4.106956 73.041611 245 240 243
15.760004 4.263688 73.029251 237 229 231
15.757235 4.420337 73.016426 225 215 217
15.754374 4.576905 73.003166 211 201 202
15.751423 4.733388 72.989494 200 189 190
15.748383 4.889785 72.975403 196 184 185
15.745240 5.046089 72.960838 196 183 184
15.741978 5.202290 72.945724 192 179 180
15.738573 5.358377 72.929947 188 173 175
15.735001 5.514337 72.913391 186 169 173
15.731232 5.670155 72.895927 185 168 172
15.727240 5.825816 72.877434 184 167 171
15.723003 5.981303 72.857803 183 166 170
15.718504 6.136603 72.836952 181 164 169
15.713730 6.291704 72.814827 181 164 169
15.708682 6.446597 72.791443 190 174 178
15.703370 6.601277 72.766823 198 184 189
15.697816 6.755748 72.741081 193 180 184
15.692050 6.910014 72.714371 180 168 172
15.686121 7.064092 72.686897 172 161 165
15.680083 7.218000 72.658913 171 159 163
15.674004 7.371769 72.630745 171 159 163
15.667955 7.525432 72.602715 176 163 166
15.662019 7.679028 72.575211 178 165 168
15.656276 7.832603 72.548599 179 164 167
15.650812 7.986205 72.523277 178 163 166
15.645710 8.139886 72.499634 175 158 163
15.641044 8.293697 72.478012 170 153 158
15.636887 8.447689 72.458748 165 148 154
15.633296 8.601911 72.442116 160 145 150
15.630327 8.756408 72.428352 156 141 146
15.628019 8.911222 72.417656 151 136 142
15.626400 9.066391 72.410156 145 130 137
15.625490 9.221947 72.405945 140 124 134
15.625299 9.377914 72.405052 134 118 130
15.625824 9.534316 72.407486 128 113 124
15.627064 9.691171 72.413231 122 107 117
15.629009 9.848495 72.422249 117 101 110
15.631646 10.006301 72.434464 116 99 107
15.634964 10.164602 72.449837 121 101 108
15.638949 10.323410 72.468307 126 103 109
15.643594 10.482740 72.489830 124 99 104
15.648889 10.642605 72.514366 118 92 96
15.654827 10.803020 72.541885 115 89 92
15.661406 10.964000 72.572365 113 88 91
15.668619 11.125564 72.605797 112 87 90
15.676464 11.287726 72.642143 110 86 90
15.684934 11.450501 72.681396 109 84 91
15.694022 11.613903 72.723503 107 82 92
15.703714 11.777941 72.768417 105 80 92
15.713995 11.942617 72.816055 101 78 91
15.724840 12.107935 72.866310 98 75 88
15.736222 12.273889 72.919052 96 71 85
15.748110 12.440468 72.974144 94 68 82
15.760460 12.607656 73.031372 94 68 81
15.773233 12.775432 73.090553 96 68 80
15.786378 12.943768 73.151466 97 69 79
15.799846 13.112635 73.213875 98 70 78
15.813581 13.281996 73.277519 99 71 76
15.827532 13.451815 73.342171 99 71 76
15.841643 13.622049 73.407562 99 70 76
15.855864 13.792662 73.473457 99 70 75
15.870141 13.963608 73.539612 99 70 75
15.884426 14.134847 73.605804 99 69 75
15.898673 14.306335 73.671829 99 70 76
15.912842 14.478039 73.737480 99 70 76
15.926893 14.649917 73.802597 100 70 77
15.940794 14.821936 73.867012 101 71 77
15.954515 14.994062 73.930588 101 70 76
15.968030 15.166268 73.993217 101 69 75
15.981319 15.338528 74.054794 101 70 74
15.994364 15.510815 74.115242 102 71 74
16.007147 15.683105 74.174469 104 72 74
16.019651 15.855378 74.232422 105 74 76
16.031868 16.027611 74.289024 107 77 79
16.043776 16.199778 74.344208 110 81 83
16.055361 16.371851 74.397888 112 85 87
16.066601 16.543802 74.449974 114 88 91
16.077473 16.715595 74.500359 115 89 94
16.087954 16.887194 74.548920 117 91 97
16.098013 17.058556 74.595528 117 92 99
16.107616 17.229631 74.640038 115 91 100
16.116732 17.400372 74.682274 112 89 99
16.125326 17.570726 74.722099 108 87 96
16.133369 17.740644 74.759369 103 83 92
16.140829 17.910080 74.793938 97 78 87
16.147686 18.078987 74.825706 91 73 83
16.153925 18.247332 74.854614 87 69 79
16.159540 18.415092 74.880638 85 68 76
16.164539 18.582258 74.903809 82 65 72
16.168940 18.748829 74.924202 79 61 67
16.172775 18.914825 74.941971 75 58 63
16.176088 19.080282 74.957321 72 56 60
16.178928 19.245243 74.970482 70 54 58
16.181366 19.409777 74.981773 67 52 56
16.183468 19.573956 74.991516 65 51 54
16.185314 19.737865 75.000076 63 48 52
16.186985 19.901594 75.007820 61 47 51
16.188560 20.065237 75.015114 60 47 51
16.190121 20.228893 75.022339 60 48 51
16.191738 20.392654 75.029839 60 48 51
16.193487 20.556612 75.037941 60 48 52
16.195433 20.720860 75.046959 61 48 51
16.197643 20.885485 75.057205 60 47 51
16.200178 21.050577 75.068947 59 46 50
