ply
format ascii 1.0
element vertex 1178
property float x
property float y
property float z
property uchar red
property uchar green
property uchar blue
end_header
20.934006 16.302183 85.855766 191 169 191
20.928732 16.483107 85.834137 202 176 192
20.922884 16.663479 85.810150 204 173 182
20.916416 16.843246 85.783623 189 149 151
20.909298 17.022373 85.754440 176 132 126
20.901524 17.200834 85.722549 177 129 116
20.893097 17.378614 85.687996 170 124 105
20.884037 17.555712 85.650833 182 148 128
20.874367 17.732130 85.611168 222 202 185
20.864128 17.907892 85.569183 204 181 167
20.853376 18.083027 85.525085 155 128 117
20.842171 18.257574 85.479126 144 118 115
20.830580 18.431581 85.431587 149 126 128
20.818682 18.605110 85.382790 147 126 132
20.806562 18.778229 85.333084 143 123 131
20.794308 18.951012 85.282829 141 121 130
20.782013 19.123539 85.232407 140 120 131
20.769772 19.295898 85.182205 139 120 131
20.757683 19.468184 85.132622 137 119 130
20.745838 19.640488 85.084045 135 117 130
20.734333 19.812906 85.036858 132 115 128
20.723251 19.985531 84.991409 129 112 126
20.712677 20.158451 84.948044 126 108 123
20.702682 20.331755 84.907051 123 104 119
20.693329 20.505518 84.868690 119 99 115
20.684679 20.679817 84.833214 116 96 112
20.676777 20.854721 84.800812 114 92 107
20.669666 21.030287 84.771645 111 89 103
20.663372 21.206566 84.745827 109 87 100
20.657913 21.383600 84.723442 106 85 96
20.653301 21.561420 84.704529 104 83 92
20.649536 21.740051 84.689087 102 82 89
20.646603 21.919497 84.677048 101 82 87
20.644472 22.099752 84.668320 100 81 86
20.643114 22.280802 84.662750 97 78 83
20.642481 22.462616 84.660149 93 73 79
20.642515 22.645153 84.660286 89 67 75
20.643154 22.828360 84.662910 89 67 75
20.644327 23.012171 84.667717 93 69 78
20.645958 23.196520 84.674416 93 70 78
20.647974 23.381332 84.682678 87 65 73
20.650305 23.566538 84.692238 80 58 65
20.652884 23.752071 84.702812 75 55 62
20.655657 23.937876 84.714180 72 54 60
20.658581 24.123907 84.726181 68 53 59
20.661623 24.310127 84.738663 65 52 58
20.664770 24.496527 84.751564 63 51 56
20.668015 24.683096 84.764870 62 51 56
22.154034 -0.177900 90.063171 29 24 22
22.145304 0.016240 90.027687 37 31 29
22.136351 0.210224 89.991287 39 33 29
22.127146 0.404047 89.953865 30 24 21
22.117640 0.597700 89.915222 25 19 15
22.107767 0.791174 89.875084 27 21 18
22.097458 0.984455 89.833176 30 23 20
22.086647 1.177528 89.789223 31 20 18
22.075285 1.370378 89.743042 34 18 17
22.063332 1.562987 89.694443 38 18 19
22.050777 1.755339 89.643402 44 19 21
22.037626 1.947418 89.589943 49 22 24
22.023914 2.139212 89.534195 57 28 30
22.009695 2.330712 89.476395 68 39 40
21.995039 2.521912 89.416817 81 51 52
21.980032 2.712812 89.355804 90 61 61
21.964766 2.903415 89.293739 95 66 67
21.949331 3.093727 89.230995 99 70 72
21.933823 3.283757 89.167946 103 74 76
21.918322 3.473517 89.104935 104 75 79
21.902901 3.663018 89.042244 101 74 79
21.887617 3.852273 88.980110 101 74 81
21.872511 4.041293 88.918701 103 75 84
21.857615 4.230089 88.858139 104 77 85
21.842943 4.418669 88.798492 98 70 79
21.828499 4.607040 88.739777 86 57 66
21.814276 4.795207 88.681953 76 46 55
21.800264 4.983172 88.624992 74 42 53
21.786446 5.170938 88.568810 78 46 57
21.772800 5.358504 88.513336 85 52 65
21.759310 5.545871 88.458496 90 58 71
21.745955 5.733037 88.404205 93 63 77
21.732727 5.920003 88.350433 94 67 81
21.719614 6.106770 88.297127 99 74 88
21.706612 6.293339 88.244263 113 92 103
21.693714 6.479712 88.191833 126 108 119
21.680927 6.665893 88.139854 133 117 129
21.668253 6.851884 88.088318 135 121 133
21.655695 7.037692 88.037270 137 123 135
21.643255 7.223319 87.986702 142 127 139
21.630945 7.408772 87.936653 146 129 142
21.618763 7.594055 87.887131 148 129 141
21.606707 7.779169 87.838112 147 125 137
21.594761 7.964113 87.789558 139 117 127
21.582922 8.148888 87.741425 130 105 114
21.571163 8.333486 87.693619 132 107 115
21.559458 8.517900 87.646042 141 115 122
21.547770 8.702114 87.598518 144 118 124
21.536060 8.886115 87.550911 142 116 122
21.524277 9.069880 87.503014 142 115 121
21.512371 9.253386 87.454613 146 118 125
21.500288 9.436605 87.405487 152 123 130
21.487970 9.619508 87.355415 155 126 132
21.475363 9.802063 87.304161 157 127 132
21.462418 9.984239 87.251541 158 126 132
21.449091 10.166007 87.197357 157 124 131
21.435352 10.347343 87.141502 155 121 128
21.421181 10.528226 87.083893 153 118 126
21.406567 10.708639 87.024483 152 117 125
21.391525 10.888578 86.963333 151 117 125
21.376085 11.068048 86.900566 152 117 125
21.360294 11.247062 86.836372 155 120 128
21.344219 11.425646 86.771019 158 124 132
21.327942 11.603839 86.704849 163 133 139
21.311567 11.781693 86.638283 185 161 164
21.295204 11.959267 86.571762 205 189 192
21.278984 12.136635 86.505821 188 176 180
21.263035 12.313875 86.440979 151 139 145
21.247492 12.491076 86.377792 146 133 142
21.232485 12.668324 86.316788 173 160 171
21.218140 12.845709 86.258469 194 181 194
21.204571 13.023319 86.203308 192 177 193
21.191874 13.201235 86.151688 181 164 182
21.180119 13.379523 86.103905 180 160 180
21.169363 13.558246 86.060173 181 161 180
21.159626 13.737440 86.020592 179 159 176
21.150906 13.917133 85.985138 175 155 171
21.143164 14.097328 85.953674 173 152 166
21.136347 14.278009 85.925957 174 152 165
21.130367 14.459145 85.901642 176 152 164
21.125116 14.640681 85.880295 177 153 164
21.120468 14.822548 85.861404 179 154 166
21.116285 15.004664 85.844398 179 155 167
21.112427 15.186939 85.828712 178 154 168
21.108738 15.369272 85.813721 174 150 167
21.105078 15.551560 85.798843 159 137 158
21.101311 15.733705 85.783524 148 126 149
21.097305 15.915604 85.767235 166 144 169
21.092955 16.097170 85.749557 199 178 201
21.088161 16.278316 85.730064 214 194 212
21.082848 16.458973 85.708466 215 192 205
21.076954 16.639078 85.684509 208 179 186
21.070438 16.818584 85.658020 181 145 147
21.063278 16.997456 85.628906 159 118 114
21.055464 17.175669 85.597137 163 121 110
21.047003 17.353210 85.562744 170 128 111
21.037918 17.530085 85.525810 184 150 131
21.028236 17.706299 85.486450 211 185 169
21.018003 17.881872 85.444855 197 172 158
21.007278 18.056845 85.401253 161 134 125
20.996124 18.231255 85.355904 149 123 121
20.984613 18.405157 85.309113 149 126 129
20.972828 18.578615 85.261200 148 126 133
20.960855 18.751699 85.212524 144 124 132
20.948786 18.924484 85.163460 142 122 132
20.936710 19.097055 85.114372 141 121 132
20.924726 19.269497 85.065651 140 120 132
20.912933 19.441904 85.017708 138 119 131
20.901417 19.614367 84.970886 136 117 131
20.890272 19.786980 84.925583 133 115 129
20.879580 19.959829 84.882118 130 112 127
20.869417 20.133003 84.840805 127 108 123
20.859856 20.306583 84.801933 123 103 119
20.850952 20.480642 84.765732 120 99 116
20.842760 20.655251 84.732430 117 95 112
20.835321 20.830467 84.702194 114 92 108
20.828672 21.006351 84.675163 112 89 105
20.822840 21.182949 84.651443 110 87 101
20.817833 21.360291 84.631096 108 86 97
20.813660 21.538410 84.614136 106 85 94
20.810320 21.717323 84.600548 104 84 91
20.807789 21.897032 84.590263 103 82 89
20.806049 22.077532 84.583191 102 82 87
20.805058 22.258804 84.579163 99 79 85
20.804770 22.440817 84.577988 95 74 81
20.805130 22.623531 84.579453 91 69 77
20.806074 22.806892 84.583298 89 67 74
20.807537 22.990841 84.589233 88 66 73
20.809443 23.175310 84.596992 87 64 71
20.811720 23.360228 84.606247 83 62 66
20.814301 23.545530 84.616737 79 58 63
20.817125 23.731155 84.628220 76 55 59
20.820141 23.917049 84.640480 72 53 58
20.823309 24.103172 84.653351 69 52 56
20.826599 24.289494 84.666733 66 50 55
20.829996 24.475998 84.680542 63 49 54
20.833500 24.662689 84.694786 61 49 54
22.324722 -0.177713 89.968643 28 24 23
22.315538 0.016222 89.931633 34 29 27
22.306122 0.209996 89.893677 36 30 27
22.296444 0.403601 89.854683 30 25 22
22.286461 0.597030 89.814445 26 22 18
22.276117 0.790273 89.772758 30 24 20
22.265343 0.983317 89.729340 33 25 22
22.254080 1.176148 89.683952 32 22 19
22.242279 1.368750 89.636398 33 20 19
22.229904 1.561107 89.586525 37 19 20
22.216944 1.753202 89.534294 42 20 22
22.203402 1.945022 89.479721 48 22 26
22.189314 2.136554 89.422943 55 27 31
22.174728 2.327788 89.364166 66 37 40
22.159712 2.518720 89.303650 81 51 54
22.144344 2.709349 89.241722 93 63 65
22.128714 2.899676 89.178726 99 69 72
22.112911 3.089707 89.115044 102 73 75
22.097017 3.279450 89.050995 104 75 78
22.081120 3.468916 88.986923 104 76 80
22.065281 3.658117 88.923096 103 76 82
22.049559 3.847062 88.859734 102 76 84
22.033997 4.035763 88.797012 104 77 86
22.018620 4.224229 88.735046 104 77 87
22.003448 4.412470 88.673912 98 70 80
21.988487 4.600491 88.613617 86 57 66
21.973732 4.788297 88.554153 78 48 57
21.959175 4.975891 88.495491 78 47 57
21.944799 5.163275 88.437553 83 50 61
21.930590 5.350450 88.380287 89 56 68
21.916529 5.537416 88.323624 93 61 73
21.902609 5.724173 88.267525 96 66 79
21.888813 5.910723 88.211929 98 69 83
21.875135 6.097066 88.156807 101 75 89
21.861576 6.283205 88.102158 112 89 102
21.848131 6.469142 88.047981 125 105 117
21.834806 6.654883 87.994278 133 115 127
21.821608 6.840432 87.941086 136 119 131
21.808540 7.025794 87.888435 138 121 134
21.795614 7.210975 87.836334 141 123 137
21.782835 7.395981 87.784836 145 126 139
21.770205 7.580818 87.733940 147 127 140
21.757729 7.765490 87.683655 147 124 137
21.745392 7.949996 87.633942 138 114 125
21.733191 8.134338 87.584770 129 103 113
21.721102 8.318512 87.536049 130 105 113
21.709099 8.502509 87.487686 140 114 121
21.697151 8.686319 87.439529 144 118 125
21.685217 8.869928 87.391434 142 115 122
21.673246 9.053315 87.343201 141 115 121
21.661194 9.236458 87.294624 146 118 125
21.648998 9.419330 87.245476 152 123 130
21.636608 9.601903 87.195541 156 127 133
21.623964 9.784146 87.144585 159 129 135
21.611019 9.966031 87.092422 160 128 134
21.597725 10.147527 87.038841 158 126 133
21.584053 10.328610 86.983742 156 123 130
21.569977 10.509260 86.927017 154 120 128
21.555490 10.689462 86.868637 153 119 128
21.540606 10.869210 86.808655 152 117 127
21.525347 11.048509 86.747162 151 116 126
21.509760 11.227370 86.684341 152 116 127
21.493910 11.405822 86.620468 154 118 130
21.477877 11.583899 86.555855 159 124 136
21.461765 11.761654 86.490921 180 150 160
21.445679 11.939144 86.426094 205 183 189
21.429743 12.116439 86.361870 198 181 187
21.414085 12.293618 86.298775 167 147 157
21.398840 12.470764 86.237335 151 129 143
21.384130 12.647963 86.178055 158 138 153
21.370077 12.825299 86.121422 168 148 164
21.356791 13.002859 86.067879 172 153 168
21.344366 13.180719 86.017807 175 155 171
21.332869 13.358945 85.971466 179 158 174
21.322348 13.537591 85.929070 180 159 174
21.312826 13.716697 85.890701 179 159 172
21.304298 13.896286 85.856331 178 157 170
21.296728 14.076360 85.825821 177 156 166
21.290054 14.256903 85.798927 177 155 165
21.284195 14.437881 85.775314 177 153 163
21.279041 14.619244 85.754555 177 153 163
21.274469 14.800920 85.736130 181 156 166
21.270344 14.982833 85.719498 185 160 170
21.266521 15.164889 85.704094 187 161 173
21.262856 15.346992 85.689323 187 161 176
21.259207 15.529044 85.674614 174 148 167
21.255434 15.710942 85.659416 155 128 150
21.251419 15.892591 85.643234 162 137 159
21.247049 16.073904 85.625626 201 181 197
21.242231 16.254797 85.606209 228 213 223
21.236889 16.435200 85.584671 223 204 211
21.230963 16.615055 85.560791 199 171 176
21.224415 16.794313 85.534401 168 133 135
21.217220 16.972940 85.505409 147 110 106
21.209373 17.150917 85.473785 155 116 108
21.200890 17.328236 85.439598 168 131 118
21.191786 17.504894 85.402908 178 145 131
21.182102 17.680912 85.363884 191 163 149
21.171883 17.856308 85.322701 183 157 146
21.161190 18.031124 85.279610 163 138 132
21.150095 18.205408 85.234894 154 129 129
21.138670 18.379211 85.188850 152 128 133
21.127001 18.552605 85.141830 150 128 136
21.115181 18.725657 85.094185 147 127 136
21.103296 18.898449 85.046295 145 125 135
21.091446 19.071066 84.998543 143 123 135
21.079723 19.243593 84.951302 141 121 134
21.068228 19.416124 84.904968 139 120 133
21.057047 19.588749 84.859909 137 118 132
21.046268 19.761559 84.816475 134 116 131
21.035973 19.934637 84.774979 130 112 127
21.026234 20.108070 84.735733 126 108 123
21.017115 20.281931 84.698982 122 104 118
21.008669 20.456291 84.664948 119 99 115
21.000948 20.631214 84.633835 117 95 112
20.993988 20.806759 84.605782 114 92 108
20.987818 20.982971 84.580917 113 90 105
20.982458 21.159895 84.559319 111 88 102
20.977921 21.337561 84.541031 109 87 99
20.974205 21.515991 84.526062 108 86 96
20.971308 21.695202 84.514381 106 86 93
20.969202 21.875193 84.505898 105 84 91
20.967867 22.055952 84.500511 103 83 89
20.967258 22.237461 84.498062 101 80 86
20.967333 22.419691 84.498360 97 76 83
20.968033 22.602596 84.501183 93 72 79
20.969297 22.786125 84.506279 90 68 75
20.971062 22.970224 84.513390 88 67 73
20.973251 23.154825 84.522209 86 64 70
20.975798 23.339859 84.532471 83 61 66
20.978638 23.525267 84.543915 78 57 61
20.981712 23.710991 84.556313 75 54 58
20.984976 23.896982 84.569466 71 52 55
20.988390 24.083202 84.583221 68 50 54
20.991930 24.269629 84.597488 64 49 53
20.995583 24.456247 84.612213 62 48 52
22.485254 0.016205 89.835159 31 28 27
22.475451 0.209768 89.795990 34 30 29
22.465368 0.403157 89.755707 33 28 27
22.454969 0.596364 89.714165 31 25 23
22.444201 0.789378 89.671143 32 25 23
22.433001 0.982189 89.626389 33 25 22
22.421312 1.174781 89.579697 33 23 20
22.409094 1.367139 89.530876 34 21 20
22.396307 1.559247 89.479790 38 20 21
22.382944 1.751090 89.426399 42 20 23
22.369009 1.942653 89.370728 47 22 26
22.354534 2.133924 89.312897 53 25 29
22.339569 2.324895 89.253105 63 33 37
22.324175 2.515560 89.191597 80 49 53
22.308428 2.705917 89.128685 97 66 69
22.292414 2.895968 89.064705 104 74 77
22.276215 3.085718 88.999985 107 77 80
22.259918 3.275174 88.934875 107 77 81
22.243597 3.464346 88.869675 105 76 83
22.227322 3.653244 88.804642 105 76 85
22.211143 3.841878 88.740013 105 77 87
22.195105 4.030259 88.675926 106 78 89
22.179234 4.218396 88.612518 108 79 90
22.163551 4.406297 88.549866 100 71 81
22.148066 4.593969 88.487991 86 55 65
22.132772 4.781415 88.426888 80 49 58
22.117664 4.968640 88.366531 85 52 62
22.102730 5.155644 88.306862 89 55 65
22.087957 5.342432 88.247841 93 59 70
22.073330 5.529000 88.189407 97 65 76
22.058842 5.715353 88.131516 100 69 82
22.044479 5.901490 88.074135 101 72 86
22.030237 6.087412 88.017227 103 76 90
22.016115 6.273125 87.960815 112 87 101
22.002119 6.458630 87.904892 124 102 116
21.988249 6.643932 87.849480 133 111 126
21.974518 6.829039 87.794617 136 116 130
21.960930 7.013955 87.740334 137 119 133
21.947496 7.198687 87.686661 140 121 136
21.934229 7.383244 87.633652 144 123 138
21.921133 7.567631 87.581329 146 124 138
21.908209 7.751854 87.529694 144 120 134
21.895454 7.935916 87.478737 137 113 124
21.882862 8.119818 87.428429 129 104 114
21.870417 8.303559 87.378700 131 105 113
21.858091 8.487133 87.329460 141 115 122
21.845856 8.670529 87.280579 146 120 126
21.833675 8.853737 87.231911 144 117 124
21.821501 9.036738 87.183266 141 115 122
21.809280 9.219510 87.134453 144 118 125
21.796965 9.402030 87.085243 150 122 129
21.784492 9.584270 87.035408 156 127 134
21.771809 9.766198 86.984734 160 130 137
21.758863 9.947790 86.933014 160 130 137
21.745609 10.129015 86.880058 159 128 136
21.732012 10.309848 86.825737 158 126 134
21.718046 10.490270 86.769936 156 123 132
21.703703 10.670265 86.712639 155 121 131
21.688992 10.849829 86.653862 154 119 130
21.673937 11.028964 86.593704 153 117 129
21.658577 11.207684 86.532341 153 115 129
21.642979 11.386011 86.470024 153 115 130
21.627220 11.563986 86.407059 154 116 133
21.611395 11.741652 86.343842 165 128 145
21.595613 11.919070 86.280785 187 155 169
21.579994 12.096308 86.218384 200 172 185
21.564659 12.273438 86.157112 188 160 175
21.549738 12.450542 86.097504 166 137 154
21.535351 12.627704 86.040024 157 129 146
21.521616 12.805005 85.985146 159 134 149
21.508640 12.982528 85.933304 163 139 154
21.496510 13.160344 85.884834 167 145 158
21.485289 13.338517 85.840012 172 150 163
21.475027 13.517100 85.799004 175 154 165
21.465742 13.696129 85.761909 176 155 166
21.457422 13.875623 85.728668 178 157 166
21.450035 14.055585 85.699158 178 157 166
21.443521 14.235999 85.673134 178 156 164
21.437796 14.416831 85.650261 176 153 161
21.432753 14.598029 85.630104 176 152 161
21.428267 14.779525 85.612190 183 158 166
21.424210 14.961243 85.595978 194 168 176
21.420439 15.143092 85.580910 200 173 183
21.416809 15.324979 85.566406 202 173 186
21.413181 15.506804 85.551910 191 162 178
21.409422 15.688470 85.536888 170 139 157
21.405407 15.869883 85.520851 163 133 151
21.401035 16.050957 85.503387 188 165 177
21.396206 16.231611 85.484093 216 199 205
21.390848 16.411776 85.462692 213 193 197
21.384905 16.591393 85.438942 186 155 163
21.378340 16.770420 85.412712 160 124 130
21.371126 16.948820 85.383896 146 112 112
21.363264 17.126577 85.352486 151 117 113
21.354771 17.303684 85.318542 164 133 125
21.345665 17.480146 85.282166 174 145 136
21.335989 17.655979 85.243515 180 153 144
21.325794 17.831211 85.202782 174 149 143
21.315147 18.005886 85.160248 163 139 136
21.304117 18.180050 85.116173 157 133 135
21.292788 18.353765 85.070908 155 132 136
21.281244 18.527100 85.024788 152 131 138
21.269579 18.700130 84.978180 150 130 139
21.257889 18.872934 84.931473 148 128 138
21.246267 19.045601 84.885048 145 127 137
21.234814 19.218218 84.839287 143 125 136
21.223621 19.390879 84.794571 140 122 135
21.212780 19.563667 84.751251 138 121 134
21.202374 19.736675 84.709679 135 118 133
21.192480 19.909986 84.670151 130 113 128
21.183168 20.083679 84.632950 126 108 122
21.174498 20.257824 84.598305 122 103 117
21.166521 20.432489 84.566437 119 98 113
21.159277 20.607731 84.537498 116 94 109
21.152805 20.783606 84.511642 114 92 107
21.147125 20.960155 84.488945 113 91 105
21.142254 21.137415 84.469482 111 90 103
21.138197 21.315411 84.453270 110 89 101
21.134953 21.494164 84.440308 109 88 99
21.132509 21.673683 84.430550 108 88 96
21.130842 21.853964 84.423889 106 87 94
21.129925 22.034994 84.420219 104 85 92
21.129713 22.216755 84.419380 102 82 89
21.130163 22.399210 84.421173 98 79 85
21.131212 22.582317 84.425369 95 75 82
21.132807 22.766026 84.431740 92 72 78
21.134878 22.950281 84.440010 89 69 75
21.137358 23.135021 84.449921 87 67 71
21.140179 23.320177 84.461189 82 62 65
21.143280 23.505695 84.473587 77 57 60
21.146612 23.691525 84.486893 73 53 56
21.150124 23.877615 84.500923 70 50 54
21.153786 24.063936 84.515549 68 49 53
21.157576 24.250467 84.530693 64 47 52
21.161484 24.437201 84.546310 61 46 51
22.644224 0.209538 89.697769 42 39 43
22.633810 0.402711 89.656517 47 42 45
22.623058 0.595697 89.613922 42 35 37
22.611916 0.788486 89.569794 35 27 28
22.600330 0.981065 89.523895 33 24 23
22.588249 1.173421 89.476044 33 22 21
22.575632 1.365538 89.426064 36 21 20
22.562447 1.557401 89.373833 39 20 21
22.548687 1.748993 89.319328 43 20 23
22.534359 1.940302 89.262573 48 21 25
22.519491 2.131315 89.203674 52 23 27
22.504135 2.322023 89.142845 60 30 34
22.488344 2.512421 89.080299 80 48 52
22.472200 2.702507 89.016350 102 71 74
22.455778 2.892281 88.951302 112 81 85
22.439163 3.081748 88.885490 111 81 85
22.422436 3.270915 88.819229 108 78 84
22.405670 3.459790 88.752815 105 76 85
22.388935 3.648384 88.686523 105 76 88
22.372280 3.836707 88.620552 106 77 90
22.355747 4.024766 88.555054 110 80 93
22.339367 4.212572 88.490173 114 84 97
22.323162 4.400133 88.425980 105 74 86
22.307140 4.587454 88.362518 87 56 66
22.291298 4.774541 88.299767 84 51 60
22.275635 4.961397 88.237724 91 57 66
22.260141 5.148025 88.176353 95 60 69
22.244804 5.334425 88.115601 97 63 73
22.229612 5.520600 88.055412 101 68 80
22.214554 5.706550 87.995766 104 73 85
22.199625 5.892276 87.936630 104 75 88
22.184818 6.077782 87.877983 104 76 90
22.170139 6.263070 87.819839 112 85 100
22.155586 6.448144 87.762184 124 99 115
22.141169 6.633011 87.705078 133 109 125
22.126896 6.817676 87.648544 135 113 129
22.112780 7.002147 87.592621 137 116 132
22.098827 7.186430 87.537354 140 117 133
22.085056 7.370535 87.482803 141 118 133
22.071476 7.554471 87.429016 142 118 133
22.058090 7.738242 87.375984 141 116 130
22.044897 7.921854 87.323730 138 113 124
22.031897 8.105312 87.272232 135 109 119
22.019073 8.288614 87.221436 134 108 116
22.006407 8.471758 87.171265 140 114 121
21.993872 8.654737 87.121605 146 120 125
21.981428 8.837540 87.072319 145 119 125
21.969036 9.020150 87.023232 142 117 122
21.956644 9.202549 86.974144 144 118 125
21.944201 9.384714 86.924850 149 122 129
21.931644 9.566618 86.875114 154 126 134
21.918924 9.748234 86.824730 158 130 138
21.905985 9.929534 86.773476 159 131 139
21.892780 10.110490 86.721161 159 130 138
21.879272 10.291079 86.667664 158 128 136
21.865435 10.471278 86.612846 157 125 135
21.851259 10.651076 86.556694 156 123 134
21.836744 10.830464 86.499199 155 121 133
21.821915 11.009445 86.440460 155 118 132
21.806812 11.188033 86.380630 155 116 132
21.791492 11.366251 86.319954 154 113 132
21.776033 11.544132 86.258713 152 110 131
21.760527 11.721724 86.197289 153 111 133
21.745077 11.899082 86.136093 171 130 152
21.729799 12.076271 86.075569 199 162 183
21.714813 12.253366 86.016212 204 169 189
21.700241 12.430440 85.958488 177 142 162
21.686201 12.607575 85.902870 157 124 142
21.672806 12.784851 85.849808 157 126 143
21.660158 12.962345 85.799713 161 133 147
21.648340 13.140127 85.752899 163 137 151
21.637415 13.318256 85.709625 167 141 153
21.627424 13.496782 85.670044 170 146 156
21.618385 13.675740 85.634239 172 149 158
21.610289 13.855148 85.602165 174 152 160
21.603096 14.035005 85.573677 176 155 163
21.596748 14.215295 85.548538 176 154 161
21.591167 14.395987 85.526421 174 151 159
21.586241 14.577026 85.506912 175 151 158
21.581854 14.758350 85.489532 183 158 165
21.577873 14.939881 85.473763 199 172 179
21.574160 15.121531 85.459053 209 182 190
21.570578 15.303210 85.444862 210 181 190
21.566984 15.484820 85.430626 200 170 181
21.563248 15.666265 85.415833 182 150 163
21.559254 15.847458 85.400009 169 137 150
21.554892 16.028309 85.382736 175 145 157
21.550072 16.208738 85.363632 191 164 172
21.544718 16.388681 85.342430 192 164 171
21.538776 16.568081 85.318901 178 147 154
21.532211 16.746893 85.292892 165 132 137
21.525002 16.925087 85.264336 156 125 126
21.517145 17.102644 85.233215 158 128 126
21.508659 17.279560 85.199593 167 138 135
21.499571 17.455843 85.163589 172 146 142
21.489922 17.631510 85.125374 174 149 145
21.479769 17.806595 85.085152 170 146 144
21.469179 17.981142 85.043213 163 141 141
21.458233 18.155205 84.999847 159 136 139
21.447008 18.328842 84.955383 156 134 139
21.435602 18.502132 84.910202 154 133 140
21.424103 18.675146 84.864655 151 132 140
21.412617 18.847975 84.819153 149 131 139
21.401232 19.020699 84.774055 147 130 139
21.390053 19.193411 84.729774 144 128 138
21.379169 19.366201 84.686661 140 125 136
21.368673 19.539160 84.645081 138 123 134
21.358643 19.712370 84.605354 135 120 132
21.349155 19.885912 84.567772 129 114 127
21.340275 20.059866 84.532600 124 108 120
21.332060 20.234297 84.500053 120 102 114
21.324554 20.409267 84.470329 117 98 110
21.317797 20.584831 84.443558 115 94 107
21.311817 20.761038 84.419868 113 92 105
21.306635 20.937925 84.399338 112 92 105
21.302258 21.115524 84.382004 111 92 104
21.298689 21.293856 84.367867 110 91 103
21.295923 21.472935 84.356911 109 91 101
21.293943 21.652767 84.349068 108 90 99
21.292723 21.833344 84.344231 106 88 96
21.292233 22.014654 84.342285 104 86 94
21.292423 22.196667 84.343048 102 83 92
21.293253 22.379353 84.346329 100 81 88
21.294661 22.562668 84.351913 97 78 85
21.296589 22.746561 84.359550 94 75 81
21.298971 22.930977 84.368988 91 72 77
21.301743 23.115856 84.379959 88 69 73
21.304838 23.301136 84.392220 82 63 66
21.308203 23.486765 84.405548 76 57 59
21.311781 23.672691 84.419731 72 53 55
21.315540 23.858879 84.434616 70 50 53
21.319448 24.045298 84.450096 67 48 52
21.323484 24.231932 84.466087 64 47 51
21.327650 24.418781 84.482582 61 45 50
22.801668 0.402263 89.556717 86 81 88
22.790625 0.595029 89.513336 66 59 64
22.779165 0.787593 89.468323 40 31 34
22.767237 0.979943 89.421478 33 22 24
22.754795 1.172065 89.372612 34 22 22
22.741806 1.363943 89.321587 37 20 21
22.728239 1.555562 89.268311 41 20 22
22.714088 1.746906 89.212730 45 20 23
22.699366 1.937961 89.154907 50 21 25
22.684099 2.128717 89.094940 53 22 26
22.668337 2.319163 89.033035 58 25 29
22.652138 2.509294 88.969406 78 45 49
22.635572 2.699106 88.904350 106 74 78
22.618723 2.888602 88.838165 117 86 90
22.601669 3.077785 88.771187 112 82 87
22.584488 3.266661 88.703705 107 77 84
22.567253 3.455237 88.636009 104 74 85
22.550032 3.643524 88.568375 104 73 87
22.532879 3.831531 88.500999 108 77 92
22.515831 4.019266 88.434044 115 84 98
22.498926 4.206739 88.367645 119 87 100
22.482182 4.393958 88.301888 108 76 87
22.465612 4.580928 88.236801 90 57 66
22.449215 4.767654 88.172401 89 54 63
22.432993 4.954142 88.108688 96 62 70
22.416935 5.140392 88.045624 99 64 73
22.401031 5.326407 87.983154 99 65 75
22.385273 5.512189 87.921257 103 71 82
22.369650 5.697738 87.859894 106 76 88
22.354156 5.883058 87.799049 106 76 90
22.338791 6.068149 87.738693 106 77 92
22.323551 6.253015 87.678841 111 84 100
22.308447 6.437662 87.619514 123 98 114
22.293480 6.622095 87.560730 134 108 125
22.278664 6.806320 87.502541 138 113 129
22.264013 6.990345 87.445000 138 114 130
22.249538 7.174180 87.388145 139 114 130
22.235258 7.357834 87.332054 139 114 129
22.221184 7.541317 87.276779 139 114 128
22.207325 7.724635 87.222343 140 113 125
22.193686 7.907797 87.168777 142 115 125
22.180265 8.090808 87.116066 143 117 124
22.167055 8.273670 87.064178 141 115 120
22.154039 8.456383 87.013062 140 114 118
22.141191 8.638941 86.962593 144 118 121
22.128483 8.821337 86.912682 145 120 124
22.115870 9.003556 86.863136 144 119 123
22.103304 9.185582 86.813789 144 120 125
22.090733 9.367393 86.764412 148 123 130
22.078104 9.548965 86.714806 151 126 133
22.065355 9.730271 86.664734 155 129 137
22.052437 9.911285 86.613998 157 131 139
22.039295 10.091978 86.562386 158 130 140
22.025898 10.272329 86.509766 158 129 139
22.012213 10.452316 86.456009 158 127 137
21.998220 10.631925 86.401062 157 125 136
21.983931 10.811149 86.344933 156 123 135
21.969357 10.989989 86.287697 156 120 134
21.954535 11.168456 86.229477 155 116 133
21.939524 11.346575 86.170525 155 113 132
21.924393 11.524375 86.111092 152 109 130
21.909231 11.701904 86.051544 149 105 128
21.894140 11.879213 85.992264 160 116 139
21.879227 12.056367 85.933693 189 147 170
21.864613 12.233434 85.876297 203 162 184
21.850410 12.410488 85.820518 181 139 161
21.836737 12.587605 85.766808 156 117 136
21.823698 12.764863 85.715591 155 118 136
21.811390 12.942334 85.667259 160 126 142
21.799898 13.120088 85.622116 162 130 145
21.789276 13.298177 85.580399 163 134 147
21.779564 13.476650 85.542252 165 138 149
21.770779 13.655540 85.507751 168 142 151
21.762907 13.834863 85.476837 170 145 154
21.755917 14.014617 85.449371 172 149 157
21.749741 14.194788 85.425125 172 149 157
21.744303 14.375340 85.403763 173 149 157
21.739502 14.556228 85.384903 174 150 157
21.735216 14.737382 85.368073 180 155 162
21.731318 14.918731 85.352760 194 168 174
21.727673 15.100190 85.338448 205 178 184
21.724146 15.281670 85.324593 205 177 183
21.720598 15.463076 85.310661 197 167 174
21.716902 15.644314 85.296143 184 153 160
21.712942 15.825297 85.280586 173 141 149
21.708611 16.005939 85.263580 170 137 147
21.703817 16.186165 85.244751 175 142 151
21.698488 16.365904 85.223816 178 145 155
21.692574 16.545107 85.200584 178 145 154
21.686031 16.723726 85.174896 174 143 150
21.678848 16.901733 85.146675 169 139 142
21.671021 17.079111 85.115936 167 138 140
21.662567 17.255859 85.082733 169 142 143
21.653521 17.431986 85.047203 169 145 145
21.643923 17.607512 85.009506 168 145 145
21.633833 17.782471 84.969879 166 143 144
21.623325 17.956909 84.928604 162 141 143
21.612478 18.130888 84.886002 160 138 142
21.601381 18.304470 84.842415 157 136 141
21.590124 18.477728 84.798203 154 134 140
21.578810 18.650743 84.753761 151 132 140
21.567535 18.823605 84.709488 148 131 139
21.556402 18.996399 84.665756 146 130 139
21.545504 19.169214 84.622948 144 130 138
21.534937 19.342142 84.581451 140 127 136
21.524790 19.515270 84.541595 136 123 133
21.515142 19.688686 84.503700 134 120 131
21.506063 19.862463 84.468048 128 114 126
21.497620 20.036676 84.434883 122 107 118
21.489861 20.211393 84.404404 118 101 112
21.482828 20.386667 84.376785 116 98 108
21.476559 20.562551 84.352158 114 95 106
21.471075 20.739088 84.330620 113 93 105
21.466389 20.916311 84.312218 112 93 105
21.462511 21.094250 84.296982 111 93 105
21.459433 21.272915 84.284897 110 92 104
21.457150 21.452320 84.275925 109 92 102
21.455635 21.632465 84.269981 108 91 100
21.454865 21.813339 84.266953 106 89 97
21.454802 21.994925 84.266708 103 86 95
21.455400 22.177195 84.269058 101 84 93
21.456610 22.360111 84.273811 99 82 90
21.458374 22.543631 84.280739 97 79 86
21.460632 22.727703 84.289612 94 76 82
21.463324 22.912275 84.300179 91 73 78
21.466381 23.097288 84.312187 87 69 73
21.469748 23.282688 84.325409 82 64 67
21.473366 23.468418 84.339622 77 59 60
21.477192 23.654442 84.354645 73 55 56
21.481190 23.840717 84.370346 70 52 54
21.485332 24.027225 84.386620 67 49 52
21.489613 24.213957 84.403435 65 47 51
22.957573 0.594355 89.412025 93 85 94
22.945847 0.786695 89.366356 44 33 41
22.933624 0.978817 89.318756 33 20 24
22.920858 1.170707 89.269035 36 21 24
22.907520 1.362347 89.217087 39 21 23
22.893587 1.553724 89.162827 43 21 23
22.879055 1.744820 89.106232 46 21 24
22.863937 1.935624 89.047348 50 22 25
22.848269 2.126121 88.986320 54 23 26
22.832088 2.316304 88.923309 57 25 28
22.815464 2.506167 88.858559 73 40 43
22.798460 2.695705 88.792328 98 66 70
22.781160 2.884921 88.724960 110 79 84
22.763639 3.073817 88.656723 107 77 84
22.745979 3.262398 88.587944 104 73 83
22.728252 3.450672 88.518906 102 71 83
22.710524 3.638648 88.449852 102 70 85
22.692848 3.826336 88.381012 109 75 91
22.675268 4.013744 88.312546 119 85 100
22.657816 4.200881 88.244576 120 85 99
22.640520 4.387754 88.177216 107 72 83
22.623392 4.574371 88.110504 93 57 67
22.606434 4.760736 88.044456 93 57 66
22.589643 4.946854 87.979065 99 63 72
22.573019 5.132727 87.914314 99 64 74
22.556551 5.318357 87.850182 100 65 75
22.540226 5.503747 87.786598 105 72 83
22.524042 5.688897 87.723564 109 78 89
22.507990 5.873811 87.661049 108 78 92
22.492065 6.058489 87.599037 106 77 92
22.476276 6.242938 87.537537 110 83 99
22.460619 6.427159 87.476562 123 96 113
22.445108 6.611160 87.416145 136 109 127
22.429754 6.794948 87.356346 141 114 131
22.414570 6.978532 87.297211 140 114 130
22.399574 7.161920 87.238808 139 113 127
22.384783 7.345124 87.181198 138 112 125
22.370214 7.528155 87.124458 138 113 124
22.355881 7.711022 87.068642 141 114 124
22.341793 7.893735 87.013771 146 120 127
22.327950 8.076300 86.959854 152 125 130
22.314352 8.258723 86.906898 151 125 128
22.300983 8.441006 86.854836 145 120 121
22.287828 8.623145 86.803596 143 118 119
22.274853 8.805136 86.753059 144 120 121
22.262024 8.986967 86.703094 145 121 123
22.249290 9.168623 86.653503 145 121 126
22.236607 9.350085 86.604103 147 123 130
22.223911 9.531330 86.554665 151 126 134
22.211151 9.712333 86.504967 153 128 137
22.198271 9.893067 86.454796 155 130 140
22.185217 10.073508 86.403961 157 130 141
22.171953 10.253632 86.352303 158 130 140
22.158440 10.433415 86.299675 159 129 140
22.144667 10.612847 86.246025 159 127 138
22.130625 10.791918 86.191338 158 125 137
22.116335 10.970629 86.135689 158 122 135
22.101824 11.148989 86.079170 157 118 133
22.087147 11.327020 86.022011 156 115 131
22.072372 11.504753 85.964470 155 112 129
22.057583 11.682231 85.906868 152 108 127
22.042871 11.859502 85.849579 156 110 131
22.028347 12.036628 85.793007 172 126 147
22.014122 12.213676 85.737602 185 139 159
22.000307 12.390717 85.683800 173 127 147
21.987011 12.567822 85.632011 155 111 130
21.974340 12.745067 85.582664 154 111 129
21.962385 12.922520 85.536102 160 120 136
21.951221 13.100245 85.492622 161 124 139
21.940907 13.278296 85.452454 161 127 141
21.931477 13.456717 85.415726 163 131 144
21.922945 13.635538 85.382500 164 134 146
21.915302 13.814775 85.352730 166 138 149
21.908504 13.994426 85.326263 167 141 152
21.902502 14.174476 85.302879 169 144 154
21.897211 14.354891 85.282272 171 146 155
21.892532 14.535624 85.264046 173 148 156
21.888348 14.716612 85.247757 177 151 159
21.884537 14.897783 85.232910 185 158 165
21.880968 15.079057 85.219009 193 165 172
21.877502 15.260344 85.205521 194 166 171
21.874012 15.441553 85.191925 188 159 164
21.870369 15.622597 85.177734 180 150 155
21.866459 15.803384 85.162506 173 142 148
21.862175 15.983834 85.145821 170 138 145
21.857431 16.163872 85.127342 172 140 149
21.852152 16.343430 85.106781 175 144 153
21.846287 16.522455 85.083939 180 149 158
21.839798 16.700905 85.058670 180 150 159
21.832668 16.878752 85.030899 175 147 153
21.824902 17.055979 85.000648 170 143 149
21.816509 17.232584 84.967972 168 143 147
21.807533 17.408581 84.933006 167 143 146
21.798014 17.583988 84.895935 165 142 145
21.788019 17.758848 84.857010 163 141 145
21.777618 17.933208 84.816505 161 140 144
21.766897 18.107124 84.774742 159 139 143
21.755947 18.280668 84.732101 157 137 142
21.744865 18.453918 84.688942 154 135 141
21.733753 18.626955 84.645660 151 132 139
21.722712 18.799866 84.602654 147 130 137
21.711838 18.972738 84.560303 145 129 137
21.701235 19.145668 84.519012 143 128 136
21.690996 19.318745 84.479134 139 126 134
21.681206 19.492052 84.441010 136 123 132
21.671944 19.665672 84.404930 132 119 129
21.663279 19.839687 84.371185 128 114 124
21.655272 20.014162 84.339996 122 108 118
21.647970 20.189161 84.311569 118 103 113
21.641413 20.364737 84.286026 115 100 108
21.635628 20.540937 84.263496 113 97 106
21.630636 20.717800 84.244057 112 95 104
21.626450 20.895357 84.227745 112 94 105
21.623064 21.073624 84.214561 111 93 105
21.620476 21.252619 84.204483 110 92 104
21.618670 21.432344 84.197449 109 92 103
21.617620 21.612797 84.193359 108 90 100
21.617294 21.793961 84.192093 106 89 98
21.617657 21.975817 84.193504 104 87 97
21.618656 22.158335 84.197395 102 84 94
21.620239 22.341473 84.203568 100 83 91
21.622353 22.525188 84.211792 97 80 87
21.624937 22.709435 84.221855 94 77 82
21.627926 22.894154 84.233498 90 73 78
21.631262 23.079290 84.246490 85 68 72
21.634886 23.264795 84.260605 81 64 67
21.638746 23.450617 84.275642 77 59 62
21.642803 23.636717 84.291443 73 55 57
21.647028 23.823069 84.307892 69 51 54
21.651398 24.009655 84.324913 67 49 52
21.655907 24.196468 84.342468 65 48 51
23.111877 0.785790 89.263573 45 33 43
23.099403 0.977685 89.215393 37 23 30
23.086349 1.169342 89.164970 41 26 31
23.072691 1.360746 89.112221 42 23 28
23.058411 1.551881 89.057068 43 22 26
23.043507 1.742731 88.999504 47 22 26
23.027998 1.933281 88.939606 51 24 28
23.011917 2.123521 88.877495 55 26 29
22.995312 2.313441 88.813370 59 28 31
22.978243 2.503033 88.747444 68 36 39
22.960783 2.692295 88.680008 83 52 57
22.943008 2.881227 88.611359 94 64 70
22.925001 3.069832 88.541809 97 67 76
22.906836 3.258115 88.471649 98 67 78
22.888592 3.446083 88.401184 98 66 79
22.870331 3.633745 88.330658 98 65 81
22.852112 3.821110 88.260292 105 71 88
22.833977 4.008186 88.190254 113 79 95
22.815966 4.194983 88.120689 113 77 92
22.798103 4.381508 88.051697 103 66 78
22.780403 4.567769 87.983337 94 57 68
22.762871 4.753770 87.915627 95 58 67
22.745512 4.939517 87.848587 98 61 71
22.728321 5.125012 87.782181 99 62 72
22.711285 5.310258 87.716385 100 65 75
22.694399 5.495256 87.651169 107 74 85
22.677658 5.680009 87.586510 112 81 93
22.661053 5.864519 87.522377 111 81 94
22.644579 6.048788 87.458755 108 79 94
22.628242 6.232819 87.395660 111 82 98
22.612047 6.416619 87.333107 122 94 111
22.595997 6.600192 87.271118 136 109 126
22.580112 6.783547 87.209770 143 115 132
22.564405 6.966691 87.149101 141 114 130
22.548891 7.149637 87.089188 139 112 126
22.533598 7.332395 87.030113 136 110 121
22.518541 7.514978 86.971962 136 110 119
22.503740 7.697398 86.914803 141 115 122
22.489206 7.879664 86.858665 148 122 128
22.474947 8.061788 86.803596 158 132 134
22.460968 8.243776 86.749603 165 140 140
22.447256 8.425632 86.696640 160 135 134
22.433798 8.607358 86.644669 148 123 122
22.420572 8.788949 86.593582 142 118 118
22.407536 8.970397 86.543236 143 119 120
22.394650 9.151690 86.493469 145 121 125
22.381866 9.332810 86.444099 148 124 131
22.369129 9.513737 86.394897 151 126 134
22.356377 9.694446 86.345650 153 128 137
22.343555 9.874911 86.296127 155 129 140
22.330616 10.055110 86.246147 157 130 141
22.317507 10.235016 86.195526 159 130 142
22.304199 10.414611 86.144127 160 130 141
22.290670 10.593878 86.091873 160 129 140
22.276909 10.772809 86.038727 160 127 139
22.262932 10.951404 85.984741 160 125 137
22.248764 11.129670 85.930023 159 122 134
22.234449 11.307627 85.874733 158 119 131
22.220055 11.485303 85.819138 157 115 129
22.205662 11.662741 85.763550 155 111 127
22.191353 11.839984 85.708282 155 109 126
22.177235 12.017092 85.653755 160 113 130
22.163416 12.194129 85.600380 165 117 134
22.149996 12.371161 85.548561 161 113 129
22.137089 12.548257 85.498703 154 106 123
22.124790 12.725490 85.451202 156 108 125
22.113188 12.902925 85.406395 160 116 131
22.102356 13.080621 85.364555 160 119 134
22.092344 13.258630 85.325897 160 121 136
22.083193 13.436996 85.290550 161 124 139
22.074911 13.615745 85.258560 162 127 142
22.067486 13.794891 85.229881 163 130 145
22.060883 13.974435 85.204376 164 134 148
22.055042 14.154360 85.181824 165 137 150
22.049892 14.334635 85.161926 167 140 152
22.045332 14.515212 85.144318 170 143 153
22.041250 14.696033 85.128548 173 145 155
22.037527 14.877029 85.114174 178 149 158
22.034035 15.058120 85.100685 183 154 161
22.030642 15.239221 85.087578 185 156 162
22.027218 15.420244 85.074356 182 152 157
22.023640 15.601101 85.060539 177 148 151
22.019794 15.781707 85.045685 172 143 147
22.015581 15.961983 85.029419 171 142 146
22.010906 16.141850 85.011360 173 143 149
22.005703 16.321245 84.991264 176 147 154
21.999916 16.500118 84.968910 179 149 158
21.993511 16.678425 84.944176 180 150 159
21.986469 16.856136 84.916977 176 148 156
21.978790 17.033239 84.887321 171 145 152
21.970499 17.209732 84.855301 168 144 149
21.961628 17.385630 84.821037 166 142 148
21.952223 17.560951 84.784714 164 141 146
21.942354 17.735741 84.746597 162 140 146
21.932095 17.910048 84.706970 160 140 145
21.921532 18.083935 84.666176 159 139 145
21.910761 18.257469 84.624573 157 138 143
21.899879 18.430735 84.582542 154 136 142
21.888990 18.603813 84.540497 150 133 139
21.878202 18.776794 84.498825 146 130 137
21.867611 18.949766 84.457916 143 128 135
21.857319 19.122826 84.418167 140 126 134
21.847418 19.296057 84.379929 137 124 132
21.837994 19.469551 84.343529 134 122 130
21.829126 19.643387 84.309280 131 118 127
21.820877 19.817636 84.277420 127 115 123
21.813309 19.992374 84.248192 123 110 118
21.806463 20.167654 84.221756 119 106 114
21.800377 20.343529 84.198242 116 102 110
21.795074 20.520039 84.177765 113 99 107
21.790573 20.697222 84.160378 111 96 105
21.786875 20.875099 84.146095 111 94 104
21.783978 21.053690 84.134903 110 93 104
21.781870 21.233004 84.126770 109 92 104
21.780533 21.413038 84.121605 108 91 103
21.779938 21.593786 84.119308 108 90 101
21.780048 21.775229 84.119736 106 89 99
21.780821 21.957342 84.122719 105 87 98
21.782209 22.140093 84.128075 103 85 95
21.784157 22.323441 84.135597 100 82 92
21.786610 22.507341 84.145065 97 80 88
21.789499 22.691740 84.156235 94 77 83
21.792772 22.876589 84.168877 89 73 78
21.796368 23.061832 84.182762 85 69 72
21.800232 23.247421 84.197685 80 64 66
21.804316 23.433313 84.213455 76 60 62
21.808586 23.619473 84.229950 72 55 57
21.813017 23.805880 84.247063 69 51 54
21.817595 23.992523 84.264740 66 49 52
23.264492 0.976542 89.111092 45 32 40
23.251188 1.167967 89.060135 49 34 41
23.237234 1.359134 89.006691 46 29 35
23.222626 1.550028 88.950729 44 25 30
23.207361 1.740631 88.892258 48 25 30
23.191463 1.930929 88.831367 52 27 32
23.174969 2.120910 88.768188 56 29 33
23.157927 2.310564 88.702911 60 31 34
23.140402 2.499884 88.635788 64 34 38
23.122463 2.688867 88.567078 72 43 48
23.104197 2.877512 88.497108 80 52 58
23.085676 3.065823 88.426170 85 56 64
23.066982 3.253803 88.354561 87 57 68
23.048197 3.441461 88.282608 88 57 69
23.029381 3.628803 88.210541 90 57 71
23.010597 3.815841 88.138588 95 61 76
22.991892 4.002582 88.066940 99 64 79
22.973303 4.189034 87.995735 100 64 78
22.954861 4.375208 87.925095 96 59 72
22.936579 4.561110 87.855072 94 57 68
22.918470 4.746746 87.785713 95 58 68
22.900537 4.932119 87.717018 97 59 70
22.882772 5.117235 87.648979 97 60 72
22.865175 5.302096 87.581573 101 65 77
22.847734 5.486704 87.514763 108 75 87
22.830439 5.671061 87.448517 114 82 95
22.813290 5.855168 87.382828 113 83 97
22.796280 6.039031 87.317680 112 83 98
22.779409 6.222649 87.253059 114 85 100
22.762682 6.406030 87.188988 121 93 109
22.746109 6.589179 87.125504 134 106 122
22.729704 6.772105 87.062668 143 115 130
22.713486 6.954816 87.000549 142 115 130
22.697470 7.137324 86.939201 140 114 127
22.681684 7.319642 86.878738 135 110 120
22.666153 7.501782 86.819252 132 106 115
22.650896 7.683760 86.760811 137 111 118
22.635931 7.865587 86.703491 147 121 125
22.621271 8.047275 86.647331 160 135 136
22.606922 8.228835 86.592377 180 154 153
22.592884 8.410273 86.538605 182 157 155
22.579140 8.591591 86.485954 160 135 133
22.565676 8.772791 86.434380 142 117 116
22.552454 8.953866 86.383743 140 115 117
22.539438 9.134805 86.333885 146 121 126
22.526575 9.315592 86.284622 150 126 132
22.513815 9.496210 86.235741 152 127 135
22.501097 9.676636 86.187027 152 127 136
22.488365 9.856846 86.138252 155 129 139
22.475563 10.036814 86.089218 158 131 142
22.462645 10.216517 86.039742 160 131 142
22.449570 10.395936 85.989662 161 131 141
22.436316 10.575053 85.938889 162 130 141
22.422867 10.753859 85.887383 162 129 140
22.409231 10.932350 85.835144 161 128 137
22.395432 11.110536 85.782288 160 126 134
22.381508 11.288431 85.728958 158 123 130
22.367519 11.466063 85.675377 157 119 127
22.353540 11.643469 85.621834 156 115 124
22.339655 11.820694 85.568649 155 112 122
22.325958 11.997790 85.516182 156 109 122
22.312555 12.174821 85.464844 157 108 121
22.299545 12.351848 85.415009 156 105 119
22.287027 12.528937 85.367065 154 103 118
22.275103 12.706158 85.321388 155 104 119
22.263849 12.883570 85.278290 156 107 122
22.253344 13.061234 85.238045 156 110 125
22.243629 13.239198 85.200836 158 115 130
22.234747 13.417501 85.166809 160 118 135
22.226702 13.596170 85.135994 159 120 138
22.219484 13.775222 85.108353 160 123 140
22.213060 13.954651 85.083748 160 125 143
22.207376 14.134444 85.061974 161 128 145
22.202356 14.314572 85.042740 163 131 147
22.197908 14.494992 85.025711 165 135 148
22.193924 14.675644 85.010445 168 138 150
22.190287 14.856462 84.996513 172 142 152
22.186872 15.037373 84.983437 175 145 154
22.183556 15.218293 84.970734 176 146 153
22.180208 15.399137 84.957909 175 145 151
22.176708 15.579819 84.944504 172 143 147
22.172945 15.760256 84.930092 171 142 146
22.168819 15.940370 84.914284 171 143 147
22.164240 16.120085 84.896744 172 144 149
22.159138 16.299341 84.877205 173 146 152
22.153460 16.478085 84.855453 174 147 154
22.147169 16.656275 84.831360 175 147 156
22.140251 16.833881 84.804855 173 146 155
22.132704 17.010891 84.775948 170 144 153
22.124548 17.187304 84.744713 168 143 151
22.115822 17.363134 84.711281 165 141 149
22.106571 17.538404 84.675858 163 140 147
22.096867 17.713158 84.638687 161 139 146
22.086786 17.887445 84.600075 160 139 145
22.076420 18.061335 84.560364 158 138 145
22.065861 18.234892 84.519920 156 137 144
22.055214 18.408201 84.479134 153 136 142
22.044582 18.581348 84.438416 150 134 140
22.034071 18.754423 84.398155 146 130 137
22.023785 18.927517 84.358749 143 128 135
22.013821 19.100721 84.320595 140 125 133
22.004274 19.274126 84.284019 136 123 131
21.995230 19.447817 84.249382 132 120 128
21.986761 19.621872 84.216942 129 117 125
21.978935 19.796368 84.186966 125 114 122
21.971807 19.971367 84.159660 122 110 118
21.965418 20.146925 84.135185 118 107 115
21.959797 20.323092 84.113663 116 103 111
21.954971 20.499905 84.095169 113 99 108
21.950949 20.677397 84.079765 111 97 106
21.947731 20.855587 84.067444 110 94 105
21.945311 21.034489 84.058174 109 92 104
21.943670 21.214104 84.051888 108 91 104
21.942791 21.394434 84.048523 107 90 103
21.942636 21.575462 84.047928 107 89 101
21.943165 21.757166 84.049950 107 88 100
21.944334 21.939518 84.054428 105 86 99
21.946095 22.122484 84.061172 103 84 97
21.948385 22.306021 84.069946 101 82 94
21.951151 22.490082 84.080544 99 80 89
21.954329 22.674612 84.092712 95 77 85
21.957863 22.859568 84.106255 89 73 78
21.961695 23.044893 84.120926 84 70 73
21.965773 23.230541 84.136543 80 65 67
21.970057 23.416479 84.152962 76 61 63
21.974514 23.602671 84.170029 73 57 59
21.979128 23.789106 84.187698 69 53 55
21.983885 23.975777 84.205925 67 51 53
23.415285 1.166578 88.954193 52 36 47
23.401072 1.357508 88.900200 50 33 43
23.386152 1.548159 88.843521 47 28 38
23.370541 1.738515 88.784210 48 27 35
23.354259 1.928559 88.722359 53 30 37
23.337351 2.118280 88.658119 58 33 39
23.319864 2.307667 88.591690 59 33 38
23.301868 2.496712 88.523323 60 33 38
23.283438 2.685413 88.453308 65 38 43
23.264654 2.873768 88.381950 71 44 49
23.245602 3.061780 88.309570 73 46 53
23.226360 3.249454 88.236473 75 46 56
23.207008 3.436796 88.162956 77 46 57
23.187620 3.623816 88.089302 78 47 58
23.168253 3.810521 88.015724 80 48 60
23.148958 3.996922 87.942421 84 50 63
23.129776 4.183027 87.869553 87 51 64
23.110743 4.368846 87.797241 89 52 65
23.091871 4.554386 87.725555 92 54 66
23.073179 4.739653 87.654541 94 56 68
23.054670 4.924653 87.584221 97 59 70
23.036341 5.109389 87.514587 97 60 73
23.018183 5.293865 87.445610 101 63 77
23.000191 5.478083 87.377258 108 74 87
22.982353 5.662045 87.309502 115 82 96
22.964670 5.845753 87.242317 115 84 98
22.947134 6.029211 87.175697 116 86 100
22.929743 6.212420 87.109634 117 88 102
22.912504 6.395388 87.044136 121 93 107
22.895424 6.578118 86.979248 131 103 117
22.878517 6.760620 86.915024 140 112 126
22.861803 6.942904 86.851532 142 116 129
22.845304 7.124980 86.788849 141 115 127
22.829048 7.306865 86.727097 136 111 121
22.813061 7.488572 86.666359 130 105 114
22.797367 7.670115 86.606735 133 107 114
22.781990 7.851510 86.548317 144 118 123
22.766949 8.032772 86.491180 161 135 137
22.752253 8.213913 86.435349 187 161 161
22.737906 8.394941 86.380844 195 170 169
22.723900 8.575863 86.327637 171 145 145
22.710220 8.756681 86.275665 146 121 121
22.696836 8.937393 86.224823 142 116 119
22.683712 9.117990 86.174965 148 122 127
22.670797 9.298456 86.125900 153 126 134
22.658045 9.478780 86.077454 153 127 136
22.645390 9.658936 86.029373 152 126 135
22.632774 9.838902 85.981453 155 128 138
22.620142 10.018654 85.933464 160 132 143
22.607443 10.198170 85.885216 163 134 144
22.594635 10.377427 85.836563 163 133 142
22.581684 10.556407 85.787361 163 132 141
22.568577 10.735102 85.737572 162 131 139
22.555315 10.913506 85.687187 161 129 136
22.541912 11.091623 85.636269 160 128 133
22.528404 11.269469 85.584953 159 126 130
22.514845 11.447067 85.533440 158 123 127
22.501303 11.624454 85.481995 158 119 125
22.487854 11.801666 85.430908 157 115 122
22.474592 11.978757 85.380524 157 112 120
22.461613 12.155785 85.331215 157 109 118
22.449013 12.332808 85.283348 157 106 116
22.436890 12.509891 85.237289 155 103 114
22.425333 12.687095 85.193382 152 101 112
22.414425 12.864483 85.151947 149 98 111
22.404232 13.042109 85.113228 149 99 113
22.394804 13.220018 85.077408 154 107 123
22.386173 13.398251 85.044617 158 113 132
