ply
format ascii 1.0
element vertex 1196
property float x
property float y
property float z
property uchar red
property uchar green
property uchar blue
end_header
-6.025555 12.747579 60.911686 98 97 107
-6.013330 12.852754 60.788101 121 122 133
-6.000671 12.956460 60.660137 170 171 182
-5.987647 13.058817 60.528473 193 190 201
-5.974337 13.159978 60.393929 161 157 167
-5.960836 13.260134 60.257446 124 119 129
-5.947249 13.359507 60.120094 120 114 124
-5.933685 13.458341 59.982979 133 127 137
-5.920259 13.556899 59.847252 141 136 147
-5.907081 13.655446 59.714039 144 139 153
-5.894260 13.754251 59.584435 146 141 158
-5.881893 13.853568 59.459419 150 143 162
-5.870070 13.953637 59.339897 157 148 168
-5.858864 14.054672 59.226620 171 161 181
-5.848337 14.156863 59.120201 175 165 182
-5.838534 14.260365 59.021111 175 166 182
-5.829491 14.365308 58.929688 206 200 211
-5.821225 14.471791 58.846130 236 234 238
-5.813747 14.579891 58.770542 249 249 250
-5.807059 14.689661 58.702927 226 228 231
-5.801154 14.801140 58.643238 170 174 182
-5.796022 14.914350 58.591358 127 134 147
-5.791649 15.029305 58.547157 123 130 144
-5.788020 15.146016 58.510468 143 149 160
-5.785117 15.264485 58.481121 174 179 187
-5.782921 15.384708 58.458923 220 222 225
-5.781410 15.506673 58.443645 249 249 249
-5.780558 15.630354 58.435032 252 252 252
-5.780332 15.755704 58.432747 253 253 253
-5.780692 15.882654 58.436386 247 248 248
-5.781587 16.011103 58.445438 240 242 241
-5.782955 16.140911 58.459267 243 244 244
-5.784721 16.271896 58.477123 250 251 251
-5.786797 16.403837 58.498104 254 254 254
-5.789083 16.536469 58.521210 253 253 253
-5.791466 16.669479 58.545300 247 247 247
-5.793826 16.802530 58.569160 244 244 243
-5.796038 16.935247 58.591518 248 248 248
-5.797974 17.067247 58.611084 254 254 254
-5.799507 17.198143 58.626591 254 254 254
-5.800522 17.327553 58.636845 254 254 254
-5.800909 17.455118 58.640759 254 254 254
-5.800576 17.580519 58.637394 253 253 253
-5.799448 17.703478 58.625988 250 250 250
-5.797470 17.823772 58.605991 248 248 248
-5.794607 17.941246 58.577053 251 251 251
-5.790848 18.055798 58.539055 254 254 254
-5.786200 18.167393 58.492069 254 254 254
-5.780688 18.276058 58.436352 254 254 254
-5.774356 18.381868 58.372337 254 254 254
-5.767257 18.484947 58.300579 254 254 254
-5.759457 18.585453 58.221729 250 252 253
-5.751026 18.683569 58.136501 243 247 250
-5.742037 18.779495 58.045635 237 241 245
-5.732566 18.873438 57.949890 227 230 236
-5.853102 0.793241 60.486462 95 63 71
-5.848766 0.922945 60.441650 94 62 69
-5.844339 1.052440 60.395905 93 60 68
-5.839842 1.181723 60.349422 92 60 68
-5.835292 1.310794 60.302410 91 59 68
-5.830714 1.439655 60.255093 91 59 68
-5.826126 1.568310 60.207680 90 58 67
-5.821552 1.696764 60.160416 91 58 68
-5.817015 1.825027 60.113533 92 59 69
-5.812542 1.953108 60.067303 92 60 70
-5.808156 2.081022 60.021988 92 61 72
-5.803885 2.208784 59.977848 92 62 73
-5.799755 2.336411 59.935165 93 63 75
-5.795792 2.463927 59.894215 94 64 78
-5.792023 2.591352 59.855263 96 65 81
-5.788474 2.718713 59.818588 96 66 82
-5.785171 2.846037 59.784451 97 65 83
-5.782136 2.973352 59.753094 99 65 83
-5.779393 3.100687 59.724743 99 64 82
-5.776959 3.228074 59.699589 99 63 80
-5.774851 3.355541 59.677803 101 64 79
-5.773082 3.483119 59.659523 102 64 78
-5.771662 3.610836 59.644848 100 63 75
-5.770598 3.738721 59.633850 98 62 72
-5.769893 3.866799 59.626564 96 61 71
-5.769549 3.995095 59.623009 94 59 70
-5.769563 4.123633 59.623161 94 60 70
-5.769933 4.252433 59.626984 94 61 72
-5.770654 4.381516 59.634430 95 61 74
-5.771722 4.510902 59.645470 96 61 75
-5.773131 4.640611 59.660034 97 61 76
-5.774880 4.770662 59.678101 97 61 75
-5.776966 4.901078 59.699657 97 61 74
-5.779390 5.031881 59.724709 97 61 73
-5.782156 5.163097 59.753300 96 61 72
-5.785274 5.294758 59.785511 96 61 71
-5.788753 5.426897 59.821465 96 61 71
-5.792608 5.559553 59.861309 95 61 71
-5.796859 5.692768 59.905231 95 62 72
-5.801524 5.826589 59.953445 96 63 73
-5.806627 5.961066 60.006176 98 64 75
-5.812188 6.096252 60.063648 101 68 77
-5.818227 6.232199 60.126060 104 71 79
-5.824763 6.368956 60.193596 102 70 78
-5.831805 6.506570 60.266373 100 69 76
-5.839358 6.645080 60.344429 99 68 74
-5.847419 6.784514 60.427727 98 66 72
-5.855972 6.924891 60.516113 99 66 73
-5.864992 7.066211 60.609329 101 66 73
-5.874444 7.208463 60.707008 102 67 75
-5.884278 7.351613 60.808636 105 68 78
-5.894434 7.495611 60.913589 106 69 79
-5.904841 7.640385 61.021133 106 68 79
-5.915420 7.785850 61.130451 105 67 78
-5.926081 7.931895 61.240623 104 67 78
-5.936730 8.078402 61.350677 103 66 78
-5.947272 8.225232 61.459614 103 66 78
-5.957606 8.372240 61.566406 103 66 78
-5.967634 8.519274 61.670044 103 67 77
-5.977263 8.666173 61.769547 104 67 77
-5.986403 8.812783 61.864002 104 67 77
-5.994973 8.958948 61.952568 105 67 75
-6.002899 9.104518 62.034470 105 67 74
-6.010116 9.249351 62.109055 105 68 73
-6.016571 9.393314 62.175758 106 70 73
-6.022221 9.536291 62.234146 107 72 74
-6.027031 9.678170 62.283852 106 72 72
-6.030979 9.818861 62.324654 104 70 71
-6.034052 9.958284 62.356415 103 70 71
-6.036249 10.096378 62.379112 103 70 73
-6.037572 10.233089 62.392792 104 71 75
-6.038038 10.368386 62.397602 106 72 78
-6.037667 10.502251 62.393772 108 73 81
-6.036489 10.634674 62.381592 110 74 82
-6.034535 10.765663 62.361408 109 72 82
-6.031843 10.895229 62.333580 108 70 80
-6.028450 11.023395 62.298512 107 69 80
-6.024394 11.150183 62.256599 107 70 82
-6.019711 11.275615 62.208202 109 72 85
-6.014433 11.399713 62.153671 112 75 89
-6.008589 11.522488 62.093277 115 77 93
-6.002200 11.643945 62.027245 119 81 98
-5.995277 11.764071 61.955708 126 87 104
-5.987829 11.882846 61.878738 130 90 108
-5.979856 12.000235 61.796341 127 87 105
-5.971353 12.116194 61.708469 123 83 101
-5.962311 12.230669 61.615036 120 83 100
-5.952724 12.343610 61.515957 116 83 99
-5.942585 12.454967 61.411179 111 85 100
-5.931893 12.564702 61.300690 106 87 101
-5.920659 12.672799 61.184589 101 90 103
-5.908903 12.779268 61.063107 108 101 115
-5.896659 12.884148 60.936581 131 127 143
-5.883980 12.987520 60.805557 161 157 173
-5.870931 13.089502 60.670700 163 159 173
-5.857590 13.190246 60.532829 136 130 144
-5.844050 13.289944 60.392910 114 108 122
-5.830416 13.388821 60.252014 115 109 122
-5.816796 13.487125 60.111271 125 120 134
-5.803306 13.585125 59.971859 134 130 145
-5.790056 13.683092 59.834934 142 138 156
-5.777156 13.781303 59.701626 149 144 165
-5.764706 13.880023 59.572964 154 147 170
-5.752795 13.979498 59.449871 158 150 174
-5.741500 14.079953 59.333153 167 159 181
-5.730884 14.181585 59.223446 166 158 178
-5.720995 14.284560 59.121254 163 156 174
-5.711867 14.389011 59.026924 197 192 205
-5.703520 14.495040 58.940666 234 232 239
-5.695965 14.602726 58.862587 248 248 251
-5.689198 14.712116 58.792660 221 223 228
-5.683213 14.823243 58.730812 159 164 174
-5.677994 14.936118 58.676880 111 117 132
-5.673524 15.050746 58.630680 96 102 117
-5.669779 15.167117 58.591980 101 106 118
-5.666737 15.285216 58.560547 128 132 141
-5.664372 15.405022 58.536110 188 191 195
-5.662657 15.526503 58.518383 238 238 239
-5.661560 15.649614 58.507038 247 248 247
-5.661043 15.774297 58.501701 249 250 249
-5.661066 15.900470 58.501934 245 246 245
-5.661577 16.028028 58.507217 239 240 239
-5.662516 16.156830 58.516926 242 243 243
-5.663814 16.286705 58.530338 250 251 251
-5.665390 16.417444 58.546623 254 254 254
-5.667154 16.548803 58.564857 253 253 253
-5.669007 16.680498 58.584000 251 251 251
-5.670842 16.812225 58.602962 250 250 249
-5.672547 16.943649 58.620590 252 252 252
-5.674013 17.074427 58.635738 254 254 254
-5.675129 17.204210 58.647274 254 254 254
-5.675792 17.332657 58.654121 254 254 254
-5.675907 17.459448 58.655308 254 254 254
-5.675392 17.584293 58.649982 250 250 250
-5.674179 17.706938 58.637447 242 243 242
-5.672217 17.827177 58.617180 238 239 238
-5.669476 17.944857 58.588848 246 247 246
-5.665938 18.059879 58.552292 254 254 254
-5.661607 18.172197 58.507534 254 254 254
-5.656499 18.281811 58.454750 254 254 254
-5.650646 18.388771 58.394260 254 254 254
-5.644090 18.493166 58.326504 254 254 254
-5.636878 18.595112 58.251984 253 253 254
-5.629069 18.694748 58.171280 250 251 252
-5.620718 18.792227 58.084988 243 246 250
-5.611887 18.887711 57.993713 228 233 240
-5.722542 0.793217 60.484638 96 62 70
-5.718336 0.922923 60.440189 94 61 69
-5.714037 1.052420 60.394753 93 59 68
-5.709663 1.181706 60.348522 92 59 68
-5.705233 1.310779 60.301697 92 59 69
-5.700768 1.439641 60.254498 92 58 69
-5.696288 1.568296 60.207146 92 58 69
-5.691815 1.696749 60.159878 92 58 69
-5.687375 1.825009 60.112938 93 59 69
-5.682991 1.953085 60.066608 93 59 69
-5.678691 2.080993 60.021156 93 60 70
-5.674501 2.208747 59.976868 93 61 72
-5.670448 2.336368 59.934032 94 61 73
-5.666561 2.463875 59.892948 95 62 76
-5.662867 2.591294 59.853905 96 63 79
-5.659393 2.718649 59.817184 96 64 80
-5.656166 2.845971 59.783073 97 63 81
-5.653210 2.973289 59.751835 98 63 81
-5.650548 3.100633 59.723705 98 63 81
-5.648201 3.228036 59.698887 99 62 80
-5.646183 3.355528 59.677567 99 63 79
-5.644511 3.483140 59.659893 100 63 78
-5.643194 3.610904 59.645966 99 63 76
-5.642238 3.738847 59.635868 98 63 75
-5.641648 3.866998 59.629631 96 62 74
-5.641425 3.995381 59.627274 95 60 73
-5.641566 4.124021 59.628761 95 60 73
-5.642067 4.252938 59.634064 95 61 73
-5.642924 4.382154 59.643120 95 61 74
-5.644131 4.511690 59.655880 96 61 74
-5.645682 4.641563 59.672272 96 60 74
-5.647573 4.771794 59.692261 96 60 73
-5.649803 4.902405 59.715820 95 60 72
-5.652370 5.033418 59.742954 95 60 71
-5.655278 5.164860 59.773697 95 60 70
-5.658535 5.296761 59.808121 94 60 69
-5.662152 5.429155 59.846352 93 60 68
-5.666145 5.562083 59.888550 93 61 70
-5.670530 5.695587 59.934898 94 61 71
-5.675330 5.829717 59.985630 95 62 73
-5.680567 5.964525 60.040989 98 64 75
-5.686266 6.100066 60.101223 101 68 77
-5.692448 6.236397 60.166565 103 70 78
-5.699133 6.373572 60.237225 101 69 77
-5.706336 6.511642 60.313347 100 69 75
-5.714063 6.650651 60.395023 99 68 74
-5.722313 6.790633 60.482227 99 66 73
-5.731077 6.931612 60.574852 100 67 73
-5.740332 7.073595 60.672672 101 67 73
-5.750044 7.216575 60.775326 102 68 75
-5.760167 7.360521 60.882324 104 70 77
-5.770642 7.505387 60.993038 105 70 79
-5.781399 7.651103 61.106739 105 69 79
-5.792358 7.797582 61.222572 104 69 78
-5.803430 7.944714 61.339588 103 68 78
-5.814517 8.092371 61.456768 102 67 77
-5.825517 8.240412 61.573040 103 67 77
-5.836328 8.388681 61.687309 103 66 77
-5.846845 8.537014 61.798470 104 66 76
-5.856966 8.685241 61.905449 104 66 76
-5.866597 8.833188 62.007240 104 66 75
-5.875647 8.980687 62.102894 105 66 75
-5.884035 9.127571 62.191544 105 67 74
-5.891688 9.273682 62.272434 105 68 73
-5.898546 9.418871 62.344925 106 70 73
-5.904562 9.563008 62.408504 108 73 74
-5.909695 9.705971 62.462761 106 73 74
-5.913920 9.847656 62.507427 104 71 72
-5.917225 9.987979 62.542351 102 69 72
-5.919604 10.126869 62.567497 101 68 72
-5.921064 10.264275 62.582932 102 69 74
-5.921623 10.400164 62.588837 105 72 79
-5.921305 10.534518 62.585476 109 74 83
-5.920145 10.667340 62.573208 110 74 83
-5.918178 10.798639 62.552429 107 71 80
-5.915449 10.928439 62.523579 106 70 79
-5.912000 11.056769 62.487129 106 70 80
-5.907876 11.183663 62.443539 107 72 83
-5.903118 11.309155 62.393246 109 73 86
-5.897763 11.433272 62.336643 112 76 90
-5.891842 11.556037 62.274071 116 79 94
-5.885382 11.677461 62.205784 120 82 99
-5.878396 11.797535 62.131947 124 85 103
-5.870894 11.916244 62.052654 126 85 105
-5.862877 12.033554 61.967922 125 83 103
-5.854342 12.149425 61.877716 123 82 100
-5.845281 12.263800 61.781937 122 82 99
-5.835682 12.376624 61.680489 119 82 98
-5.825541 12.487847 61.573299 115 84 98
-5.814856 12.597429 61.460358 110 86 99
-5.803632 12.705345 61.341728 113 95 107
-5.791890 12.811604 61.217613 132 119 131
-5.779660 12.916238 61.088356 146 137 151
-5.766993 13.019328 60.954472 141 134 150
-5.753951 13.120984 60.816620 128 122 138
-5.740611 13.221360 60.675621 116 110 126
-5.727063 13.320646 60.532433 111 105 121
-5.713410 13.419067 60.388126 115 109 125
-5.699762 13.516877 60.243874 127 121 138
-5.686231 13.614344 60.100845 141 136 155
-5.672927 13.711747 59.960239 151 147 168
-5.659963 13.809369 59.823208 156 150 174
-5.647437 13.907481 59.690815 158 151 176
-5.635442 14.006342 59.564034 162 156 180
-5.624055 14.106183 59.443684 171 165 188
-5.613342 14.207209 59.330448 168 163 183
-5.603352 14.309592 59.224857 160 155 174
-5.594119 14.413472 59.127270 185 182 198
-5.585664 14.518955 59.037910 221 221 231
-5.577998 14.626119 58.956879 229 231 238
-5.571117 14.735010 58.884151 196 201 210
-5.565011 14.845655 58.819611 141 148 161
-5.559661 14.958056 58.763065 103 110 125
-5.555045 15.072206 58.714275 84 90 104
-5.551136 15.188079 58.672958 74 79 91
-5.547905 15.305644 58.638809 96 99 108
-5.545321 15.424863 58.611500 164 167 171
-5.543351 15.545685 58.590679 229 230 231
-5.541960 15.668053 58.575970 246 247 247
-5.541107 15.791892 58.566959 249 249 249
-5.540749 15.917115 58.563175 249 250 249
-5.540836 16.043610 58.564098 247 247 247
-5.541312 16.171244 58.569126 249 249 249
-5.542111 16.299849 58.577572 253 253 253
-5.543162 16.429235 58.588676 254 254 254
-5.544384 16.559185 58.601597 254 254 254
-5.545691 16.689442 58.615410 254 254 254
-5.546990 16.819736 58.629139 254 254 254
-5.548185 16.949772 58.641769 254 254 254
-5.549181 17.079247 58.652290 254 254 254
-5.549882 17.207855 58.659702 254 254 254
-5.550200 17.335299 58.663059 254 254 254
-5.550051 17.461288 58.661488 254 254 254
-5.549365 17.585567 58.654236 250 251 250
-5.548080 17.707909 58.640663 243 244 243
-5.546152 17.828119 58.620277 241 242 241
-5.543547 17.946051 58.592743 248 249 248
-5.540248 18.061604 58.557877 254 254 254
-5.536252 18.174713 58.515636 254 254 254
-5.531566 18.285364 58.466110 254 254 254
-5.526210 18.393572 58.409504 254 254 254
-5.520214 18.499388 58.346123 254 254 254
-5.513611 18.602886 58.276340 254 254 254
-5.506443 18.704163 58.200577 253 254 254
-5.498751 18.803318 58.119270 245 249 253
-5.490579 18.900475 58.032902 225 233 244
-5.591999 0.793195 60.482922 96 62 70
-5.587924 0.922903 60.438854 94 61 69
-5.583754 1.052403 60.393749 93 59 68
-5.579504 1.181691 60.347782 93 58 69
-5.575193 1.310767 60.301163 93 58 70
-5.570843 1.439632 60.254105 93 58 71
-5.566472 1.568288 60.206825 93 59 71
-5.562103 1.696741 60.159573 93 58 70
-5.557760 1.824998 60.112595 93 58 69
-5.553469 1.953072 60.066193 94 59 69
-5.549258 2.080975 60.020645 94 60 69
-5.545154 2.208724 59.976250 94 60 70
-5.541183 2.336339 59.933311 95 60 72
-5.537377 2.463842 59.892143 95 61 74
-5.533764 2.591257 59.853062 96 61 76
-5.530371 2.718612 59.816364 96 62 77
-5.527226 2.845937 59.782349 96 62 78
-5.524355 2.973262 59.751297 97 62 79
-5.521781 3.100621 59.723457 97 62 79
-5.519525 3.228045 59.699055 97 63 78
-5.517604 3.355568 59.678280 98 63 78
-5.516033 3.483222 59.661282 98 64 78
-5.514822 3.611038 59.648178 98 64 77
-5.513978 3.739047 59.639053 97 64 76
-5.513505 3.867277 59.633942 97 63 76
-5.513404 3.995755 59.632847 97 62 75
-5.513672 4.124504 59.635750 96 62 75
-5.514306 4.253547 59.642597 96 62 75
-5.515298 4.382905 59.653332 95 61 74
-5.516644 4.512598 59.667889 95 60 74
-5.518336 4.642645 59.686188 95 60 73
-5.520369 4.773067 59.708179 94 60 72
-5.522741 4.903883 59.733833 94 60 70
-5.525450 5.035119 59.763142 93 60 69
-5.528501 5.166799 59.796131 92 59 67
-5.531898 5.298953 59.832878 91 59 66
-5.535654 5.431618 59.873497 90 58 66
-5.539783 5.564832 59.918152 90 59 68
-5.544302 5.698641 59.967037 92 60 70
-5.549235 5.833096 60.020401 94 62 72
-5.554606 5.968250 60.078487 96 63 74
-5.560439 6.104162 60.141579 99 65 76
-5.566758 6.240891 60.209919 100 67 76
-5.573584 6.378495 60.283749 99 67 75
-5.580934 6.517029 60.363243 99 67 75
-5.588818 6.656543 60.448524 99 66 74
-5.597238 6.797074 60.539593 99 66 73
-5.606187 6.938653 60.636383 100 67 73
-5.615644 7.081291 60.738678 100 67 74
-5.625581 7.224985 60.846153 101 68 75
-5.635952 7.369710 60.958324 102 69 76
-5.646701 7.515421 61.074581 102 69 77
-5.657759 7.662053 61.194187 103 69 77
-5.669045 7.809515 61.316261 102 69 77
-5.680470 7.957697 61.439835 102 68 77
-5.691936 8.106470 61.563843 102 67 76
-5.703337 8.255684 61.687160 102 67 76
-5.714567 8.405178 61.808620 103 66 76
-5.725515 8.554774 61.927032 104 66 76
-5.736075 8.704292 62.041248 104 66 75
-5.746144 8.853547 62.150154 104 65 74
-5.755626 9.002353 62.252712 104 65 74
-5.764432 9.150527 62.347958 105 66 73
-5.772484 9.297897 62.435047 105 67 73
-5.779714 9.444302 62.513252 105 69 73
-5.786070 9.589592 62.581993 106 71 74
-5.791507 9.733636 62.640800 105 72 75
-5.795997 9.876319 62.689362 103 71 74
-5.799523 10.017548 62.727505 101 68 72
-5.802082 10.157247 62.755180 100 67 73
-5.803680 10.295362 62.772469 101 68 75
-5.804338 10.431859 62.779583 105 72 80
-5.804083 10.566727 62.776825 111 76 86
-5.802953 10.699967 62.764595 110 75 84
-5.800989 10.831601 62.743362 106 71 80
-5.798240 10.961658 62.713627 104 69 78
-5.794755 11.090176 62.675926 105 70 80
-5.790581 11.217199 62.630787 106 71 82
-5.785766 11.342772 62.578712 108 73 85
-5.780352 11.466929 62.520153 111 76 89
-5.774375 11.589705 62.455502 115 78 93
-5.767862 11.711114 62.385056 118 80 96
-5.760831 11.831157 62.309017 121 82 99
-5.753294 11.949820 62.227497 123 82 100
-5.745254 12.067073 62.140530 123 81 99
-5.736707 12.182875 62.048080 123 81 97
-5.727644 12.297173 61.950062 123 81 96
-5.718057 12.409908 61.846363 122 81 95
-5.707936 12.521028 61.736900 119 82 94
-5.697279 12.630486 61.621639 116 84 94
-5.686091 12.738258 61.500633 130 104 113
-5.674389 12.844345 61.374062 161 140 150
-5.662203 12.948777 61.242249 161 143 156
-5.649577 13.051626 61.105690 133 120 133
-5.636572 13.153004 60.965034 115 104 120
-5.623263 13.253057 60.821083 111 100 118
-5.609738 13.351974 60.674797 112 102 121
-5.596097 13.449983 60.527248 125 116 136
-5.582446 13.547332 60.379604 152 144 164
-5.568898 13.644295 60.233063 171 165 186
-5.555562 13.741154 60.088829 171 166 189
-5.542551 13.838198 59.948093 162 157 181
-5.529963 13.935703 59.811943 160 155 179
-5.517891 14.033935 59.681374 168 164 186
-5.506415 14.133135 59.557259 177 173 193
-5.495602 14.233513 59.440296 170 168 184
-5.485501 14.335250 59.331051 163 163 178
-5.476149 14.438491 59.229900 187 188 202
-5.467568 14.543344 59.137085 208 212 223
-5.459766 14.649891 59.052704 195 201 212
-5.452742 14.758175 58.976723 157 165 176
-5.446481 14.868218 58.909008 117 125 138
-5.440963 14.980014 58.849327 99 107 121
-5.436162 15.093544 58.797401 90 97 109
-5.432047 15.208771 58.752895 77 83 93
-5.428585 15.325648 58.715450 87 92 99
-5.425740 15.444120 58.684677 147 151 155
-5.423474 15.564122 58.660168 218 221 222
-5.421749 15.685583 58.641510 248 250 250
-5.420523 15.808418 58.628246 252 253 253
-5.419751 15.932530 58.619892 253 254 254
-5.419384 16.057808 58.615925 253 253 253
-5.419370 16.184122 58.615776 254 254 254
-5.419649 16.311319 58.618797 254 254 254
-5.420158 16.439226 58.624302 254 254 254
-5.420827 16.567646 58.631542 254 254 254
-5.421582 16.696358 58.639702 254 254 254
-5.422342 16.825127 58.647926 254 254 254
-5.423028 16.953695 58.655346 254 254 254
-5.423559 17.081806 58.661083 254 254 254
-5.423853 17.209196 58.664268 254 254 254
-5.423836 17.335602 58.664085 254 254 254
-5.423437 17.460775 58.659763 254 254 254
-5.422593 17.584488 58.650631 253 253 253
-5.421250 17.706535 58.636116 251 251 251
-5.419368 17.826742 58.615753 250 250 250
-5.416913 17.944963 58.589195 253 253 253
-5.413865 18.061096 58.556236 254 254 254
-5.410215 18.175062 58.516754 254 254 254
-5.405962 18.286816 58.470753 254 254 254
-5.401114 18.396351 58.418327 254 254 254
-5.395689 18.503672 58.359638 252 254 254
-5.389705 18.608816 58.294914 251 254 254
-5.383188 18.711828 58.224430 249 253 254
-5.376164 18.812763 58.148464 243 248 254
-5.368664 18.911694 58.067348 229 237 249
-5.360716 19.008680 57.981377 214 223 240
-5.461461 0.793172 60.481190 96 62 69
-5.457520 0.922883 60.437550 95 61 69
-5.453481 1.052386 60.392815 93 59 68
-5.449358 1.181679 60.347164 93 59 69
-5.445170 1.310759 60.300785 94 59 71
-5.440937 1.439627 60.253902 94 59 71
-5.436678 1.568286 60.206738 93 59 71
-5.432416 1.696740 60.159546 93 59 70
-5.428176 1.824998 60.112583 94 58 70
-5.423984 1.953071 60.066154 94 59 69
-5.419866 2.080972 60.020557 95 59 69
-5.415852 2.208719 59.976109 95 59 69
-5.411971 2.336332 59.933121 95 60 70
-5.408252 2.463834 59.891941 95 60 72
-5.404725 2.591249 59.852879 96 60 73
-5.401419 2.718608 59.816269 96 61 74
-5.398362 2.845940 59.782421 95 61 75
-5.395581 2.973279 59.751625 95 61 76
-5.393100 3.100657 59.724152 95 62 76
-5.390940 3.228108 59.700230 96 63 75
-5.389120 3.355668 59.680065 96 64 76
-5.387652 3.483369 59.663815 96 64 77
-5.386549 3.611245 59.651604 96 65 76
-5.385818 3.739326 59.643509 97 65 76
-5.385463 3.867643 59.639576 98 64 76
-5.385484 3.996221 59.639809 98 64 76
-5.385879 4.125087 59.644176 98 63 76
-5.386642 4.254262 59.652630 96 62 75
-5.387768 4.383770 59.665100 95 60 74
-5.389249 4.513628 59.681503 95 59 73
-5.391079 4.643857 59.701771 94 59 72
-5.393253 4.774478 59.725842 93 59 71
-5.395765 4.905511 59.753662 93 59 69
-5.398616 5.036980 59.785229 92 59 68
-5.401806 5.168909 59.820557 91 59 66
-5.405342 5.301330 59.859715 89 58 65
-5.409235 5.434278 59.902828 88 57 65
-5.413499 5.567795 59.950050 89 58 67
-5.418153 5.701924 60.001587 91 60 69
-5.423218 5.836719 60.057678 93 62 70
-5.428719 5.972234 60.118595 95 62 72
-5.434681 6.108531 60.184624 96 62 73
-5.441130 6.245671 60.256035 97 63 74
-5.448087 6.383715 60.333084 97 64 74
-5.455572 6.522722 60.415974 98 64 74
-5.463597 6.662745 60.504841 99 65 75
-5.472165 6.803826 60.599728 100 66 75
-5.481273 6.946000 60.700588 100 67 75
-5.490903 7.089284 60.807240 101 67 75
-5.501029 7.233679 60.919373 101 68 76
-5.511607 7.379163 61.036514 101 68 76
-5.522584 7.525695 61.158073 101 69 76
-5.533892 7.673211 61.283302 101 69 76
-5.545453 7.821623 61.411324 101 69 76
-5.557175 7.970818 61.541138 101 68 76
-5.568960 8.120665 61.671646 100 67 75
-5.580701 8.271009 61.801674 101 67 75
-5.592288 8.421683 61.929993 103 66 75
-5.603608 8.572501 62.055351 103 65 75
-5.614549 8.723269 62.176510 104 65 74
-5.625002 8.873793 62.292274 104 64 73
-5.634866 9.023870 62.401508 104 65 72
-5.644045 9.173306 62.503159 103 65 72
-5.652455 9.321911 62.596294 103 66 72
-5.660024 9.469510 62.680107 104 68 73
-5.666691 9.615940 62.753941 104 70 75
-5.672410 9.761058 62.817272 104 71 77
-5.677148 9.904737 62.869743 103 70 77
-5.680887 10.046875 62.911148 101 68 75
-5.683621 10.187392 62.941433 100 67 76
-5.685359 10.326229 62.960678 101 67 77
-5.686121 10.463353 62.969116 105 72 82
-5.685938 10.598752 62.967087 111 77 88
-5.684850 10.732433 62.955036 110 75 86
-5.682904 10.864423 62.933483 105 70 80
-5.680151 10.994759 62.903004 104 68 79
-5.676645 11.123486 62.864178 105 69 81
-5.672441 11.250661 62.817616 107 70 83
-5.667587 11.376332 62.763866 109 72 85
-5.662132 11.500549 62.703457 111 74 87
-5.656115 11.623351 62.636814 113 76 90
-5.649565 11.744759 62.564281 116 78 93
-5.642505 11.864781 62.486103 119 79 95
-5.634948 11.983410 62.402416 121 80 95
-5.626898 12.100616 62.313267 122 80 96
-5.618353 12.216363 62.218639 123 80 95
-5.609305 12.330596 62.118443 123 80 93
-5.599744 12.443257 62.012562 123 81 92
-5.589662 12.554290 61.900906 120 81 89
-5.579053 12.663648 61.783424 119 84 90
-5.567923 12.771301 61.660164 143 112 117
-5.556284 12.877246 61.531273 175 149 154
-5.544164 12.981507 61.397053 158 137 144
-5.531606 13.084155 61.257984 124 106 116
-5.518666 13.185292 61.114693 111 97 111
-5.505417 13.285063 60.967968 106 95 111
-5.491943 13.383654 60.818752 111 101 120
-5.478341 13.481286 60.668121 145 137 155
-5.464715 13.578211 60.517231 188 183 199
-5.451176 13.674700 60.367290 202 197 215
-5.437832 13.771040 60.219521 184 179 200
-5.424793 13.867519 60.075119 164 160 182
-5.412159 13.964424 59.935211 164 161 181
-5.400024 14.062022 59.800819 174 173 191
-5.388467 14.160562 59.672836 179 178 194
-5.377555 14.260261 59.552002 168 168 182
-5.367342 14.361306 59.438892 165 166 179
-5.357863 14.463850 59.333931 187 191 202
-5.349143 14.568003 59.237350 198 203 213
-5.341188 14.673846 59.149265 182 189 199
-5.333998 14.781427 59.069641 157 164 173
-5.327557 14.890759 58.998310 132 140 149
-5.321843 15.001831 58.935032 126 134 145
-5.316826 15.114614 58.879478 127 134 145
-5.312473 15.229058 58.831268 110 116 125
-5.308746 15.345106 58.789997 98 103 110
-5.305606 15.462686 58.755222 132 136 140
-5.303012 15.581721 58.726498 200 203 205
-5.300923 15.702127 58.703362 243 244 244
-5.299294 15.823810 58.685329 252 253 253
-5.298083 15.946670 58.671913 254 254 254
-5.297242 16.070595 58.662598 254 254 254
-5.296722 16.195461 58.656837 254 254 254
-5.296470 16.321129 58.654049 254 254 254
-5.296431 16.447443 58.653610 254 254 254
-5.296544 16.574236 58.654865 254 254 254
-5.296748 16.701319 58.657120 254 254 254
-5.296976 16.828489 58.659649 254 254 254
-5.297162 16.955534 58.661709 254 254 254
-5.297238 17.082237 58.662556 254 254 254
-5.297140 17.208372 58.661465 254 254 254
-5.296802 17.333723 58.657726 254 254 254
-5.296166 17.458071 58.650681 254 254 254
-5.295178 17.581223 58.639744 254 254 254
-5.293791 17.702991 58.624382 254 254 254
-5.291965 17.823217 58.604164 254 254 254
-5.289670 17.941761 58.578739 254 254 254
-5.286880 18.058512 58.547855 254 254 254
-5.283582 18.173376 58.511330 254 254 254
-5.279766 18.286289 58.469067 254 254 254
-5.275429 18.397205 58.421040 253 254 254
-5.270575 18.506096 58.367283 248 253 254
-5.265210 18.612951 58.307873 242 250 254
-5.259345 18.717770 58.242920 239 248 254
-5.252991 18.820557 58.172554 240 248 254
-5.246164 18.921333 58.096951 237 247 253
-5.238878 19.020121 58.016266 234 244 252
-5.330920 0.793148 60.479328 95 62 69
-5.327117 0.922862 60.436180 94 61 69
-5.323212 1.052370 60.391880 92 59 68
-5.319221 1.181668 60.346596 93 59 69
-5.315160 1.310753 60.300526 94 61 71
-5.311049 1.439627 60.253887 95 61 72
-5.306907 1.568290 60.206902 94 60 72
-5.302758 1.696748 60.159832 94 59 70
-5.298625 1.825009 60.112946 94 59 69
-5.294537 1.953084 60.066559 94 59 69
-5.290520 2.080987 60.020985 95 59 69
-5.286602 2.208736 59.976547 95 59 68
-5.282816 2.336350 59.933586 95 59 69
-5.279191 2.463855 59.892456 94 59 70
-5.275756 2.591276 59.853493 94 60 71
-5.272543 2.718643 59.817039 95 61 72
-5.269579 2.845988 59.783421 93 61 72
-5.266894 2.973345 59.752949 93 61 72
-5.264510 3.100748 59.725899 93 62 73
-5.262449 3.228232 59.702518 92 62 73
-5.260730 3.355834 59.683018 93 63 73
-5.259368 3.483589 59.667568 94 64 74
-5.258374 3.611529 59.656292 95 65 75
-5.257756 3.739688 59.649277 97 66 75
-5.257517 3.868096 59.646564 98 66 77
-5.257658 3.996781 59.648163 99 65 77
-5.258175 4.125769 59.654037 98 63 77
-5.259065 4.255082 59.664127 96 61 75
-5.260320 4.384744 59.678371 94 58 73
-5.261933 4.514775 59.696671 93 57 71
-5.263897 4.645194 59.718956 93 58 71
-5.266206 4.776022 59.745148 92 58 71
-5.268855 4.907279 59.775200 92 59 69
-5.271842 5.038990 59.809090 91 59 68
-5.275169 5.171179 59.846832 90 58 66
-5.278841 5.303879 59.888493 89 58 65
-5.282869 5.437123 59.934189 89 58 65
-5.287267 5.570955 59.984081 90 59 66
-5.292051 5.705419 60.038361 91 60 68
-5.297245 5.840568 60.097282 92 61 69
-5.302872 5.976459 60.161121 92 60 69
-5.308959 6.113155 60.230175 92 58 69
-5.315529 6.250717 60.304718 94 60 72
-5.322608 6.389212 60.385033 95 61 73
-5.330215 6.528698 60.471333 95 62 73
-5.338364 6.669235 60.563782 98 64 75
-5.347060 6.810867 60.662441 100 66 77
-5.356302 6.953632 60.767284 101 67 77
-5.366075 7.097552 60.878159 102 68 78
-5.376354 7.242632 60.994774 103 68 78
-5.387099 7.388854 61.116676 102 69 77
-5.398259 7.536180 61.243282 101 69 76
-5.409767 7.684548 61.373852 101 69 76
-5.421547 7.833872 61.507500 101 68 75
-5.433510 7.984039 61.643215 100 67 74
-5.445555 8.134914 61.779865 100 66 73
-5.457576 8.286343 61.916241 101 66 74
-5.469460 8.438148 62.051064 103 66 74
-5.481091 8.590137 62.183018 103 65 73
-5.492353 8.742108 62.310787 103 64 73
-5.503135 8.893854 62.433102 103 64 72
-5.513328 9.045161 62.548744 103 63 70
-5.522832 9.195821 62.656574 101 63 70
-5.531558 9.345630 62.755569 102 64 72
-5.539428 9.494398 62.844849 103 67 74
-5.546377 9.641951 62.923683 103 69 76
-5.552353 9.788129 62.991486 103 70 78
-5.557322 9.932797 63.047855 103 70 79
-5.561262 10.075846 63.092552 102 69 79
-5.564167 10.217187 63.125515 101 68 78
-5.566044 10.356756 63.146809 101 67 78
-5.566915 10.494521 63.156689 104 70 81
-5.566811 10.630468 63.155514 108 74 85
-5.565777 10.764611 63.143787 107 73 84
-5.563863 10.896978 63.122066 104 69 81
-5.561121 11.027613 63.090965 105 68 81
-5.557612 11.156571 63.051155 106 69 82
-5.553393 11.283915 63.003284 107 70 83
-5.548518 11.409702 62.947975 109 72 84
-5.543036 11.533992 62.885792 110 73 85
-5.536993 11.656828 62.817223 112 74 87
-5.530420 11.778245 62.742661 114 76 89
-5.523344 11.898252 62.662376 116 78 91
-5.515778 12.016849 62.576546 118 79 92
-5.507730 12.134011 62.485237 120 80 93
-5.499198 12.249703 62.388447 122 81 93
-5.490176 12.363873 62.286087 123 81 92
-5.480654 12.476465 62.178055 122 81 90
-5.470622 12.587418 62.064247 120 81 86
-5.460077 12.696687 61.944614 122 85 89
-5.449019 12.804235 61.819168 142 108 110
-5.437463 12.910057 61.688057 160 131 133
-5.425430 13.014174 61.551552 141 114 119
-5.412963 13.116649 61.410110 115 94 101
-5.400114 13.217577 61.264336 108 90 103
-5.386951 13.317102 61.115002 102 87 104
-5.373555 13.415401 60.963024 120 108 127
-5.360020 13.512694 60.809467 173 164 181
-5.346447 13.609230 60.655483 210 205 219
-5.332942 13.705277 60.502274 199 195 210
-5.319615 13.801123 60.351070 171 167 186
-5.306571 13.897058 60.203083 162 160 179
-5.293911 13.993371 60.059452 173 173 190
-5.281726 14.090336 59.921227 184 186 200
-5.270100 14.188204 59.789322 183 185 197
-5.259099 14.287203 59.664513 167 170 181
-5.248775 14.387523 59.547398 158 162 170
-5.239169 14.489320 59.438412 168 175 182
-5.230303 14.592711 59.337822 187 194 201
-5.222186 14.697780 59.245743 204 210 216
-5.214816 14.804571 59.162128 207 211 216
-5.208178 14.913095 59.086815 193 197 203
-5.202247 15.023338 59.019527 188 193 201
-5.196991 15.135261 58.959908 189 194 201
-5.192376 15.248802 58.907539 167 172 178
-5.188359 15.363894 58.861977 138 143 148
-5.184900 15.480453 58.822731 145 148 152
-5.181955 15.598389 58.789318 189 191 193
-5.179481 15.717609 58.761246 227 228 228
-5.177432 15.838014 58.738007 245 245 245
-5.175766 15.959496 58.719109 254 254 254
-5.174440 16.081951 58.704060 254 254 254
-5.173407 16.205263 58.692337 254 254 254
-5.172621 16.329302 58.683422 254 254 254
-5.172034 16.453939 58.676769 254 254 254
-5.171599 16.579029 58.671825 254 254 254
-5.171262 16.704416 58.668003 254 254 254
-5.170970 16.829939 58.664700 254 254 254
-5.170672 16.955420 58.661312 254 254 254
-5.170312 17.080685 58.657230 255 255 255
-5.169838 17.205551 58.651848 254 254 254
-5.169197 17.329838 58.644577 254 254 254
-5.168341 17.453363 58.634865 254 254 254
-5.167223 17.575960 58.622189 254 254 254
-5.165804 17.697466 58.606083 254 254 254
-5.164044 17.817732 58.586124 254 254 254
-5.161914 17.936619 58.561951 254 254 254
-5.159386 18.054014 58.533276 254 254 254
-5.156439 18.169809 58.499844 254 254 254
-5.153057 18.283913 58.461468 254 254 254
-5.149224 18.396244 58.417988 254 254 254
-5.144934 18.506741 58.369316 245 250 254
-5.140179 18.615345 58.315372 231 242 252
-5.134955 18.722008 58.256107 222 237 250
-5.129261 18.826689 58.191509 225 240 250
-5.123099 18.929359 58.121593 235 248 252
-5.116468 19.029989 58.046371 243 253 254
-5.200366 0.793120 60.477226 94 62 69
-5.196706 0.922839 60.434654 92 61 68
-5.192941 1.052353 60.390877 91 60 68
-5.189086 1.181657 60.346046 92 60 69
-5.185159 1.310750 60.300369 95 62 72
-5.181176 1.439631 60.254051 96 63 73
-5.177158 1.568301 60.207333 95 61 72
-5.173129 1.696766 60.160469 95 60 70
-5.169111 1.825033 60.113747 95 59 69
-5.165133 1.953114 60.067486 94 59 68
-5.161223 2.081023 60.022015 94 59 68
-5.157410 2.208777 59.977673 94 59 67
-5.153725 2.336398 59.934814 94 60 68
-5.150199 2.463910 59.893806 93 60 69
-5.146863 2.591341 59.855011 92 60 70
-5.143747 2.718722 59.818779 93 61 71
-5.140882 2.846085 59.785454 91 60 70
-5.138294 2.973465 59.755367 90 60 69
-5.136009 3.100898 59.728794 90 61 70
-5.134049 3.228420 59.706001 89 61 70
-5.132433 3.356070 59.687206 90 62 71
-5.131176 3.483881 59.672585 92 64 72
-5.130290 3.611892 59.662277 93 65 73
-5.129781 3.740133 59.656364 96 66 75
-5.129655 3.868636 59.654896 98 66 76
-5.129911 3.997432 59.657875 99 66 77
-5.130547 4.126545 59.665268 99 64 76
-5.131557 4.256001 59.677017 97 60 75
-5.132936 4.385823 59.693047 93 56 72
-5.134675 4.516030 59.713272 92 55 69
-5.136766 4.646644 59.737595 92 56 70
-5.139205 4.777685 59.765949 92 58 70
-5.141984 4.909173 59.798271 91 58 69
-5.145102 5.041134 59.834538 91 58 67
-5.148561 5.173592 59.874756 89 58 66
-5.152364 5.306580 59.918991 89 58 64
-5.156523 5.440132 59.967354 89 58 64
-5.161049 5.574290 60.019993 90 59 65
-5.165961 5.709101 60.077110 91 60 67
-5.171279 5.844618 60.138958 92 60 68
-5.177027 5.980898 60.205807 91 58 68
-5.183232 6.118005 60.277962 90 57 68
-5.189917 6.256002 60.355709 92 58 70
-5.197108 6.394957 60.439331 93 60 71
-5.204823 6.534931 60.529060 94 61 73
-5.213080 6.675985 60.625076 98 65 77
-5.221884 6.818167 60.727463 102 68 79
-5.231234 6.961518 60.836205 103 68 80
-5.241120 7.106065 60.951172 104 68 80
-5.251518 7.251813 61.072094 103 68 79
-5.262391 7.398751 61.198540 102 68 78
-5.273690 7.546843 61.329937 102 68 77
-5.285351 7.696029 61.465546 101 67 75
-5.297298 7.846225 61.604492 101 66 74
-5.309445 7.997319 61.745747 101 65 72
-5.321692 8.149176 61.888165 101 65 71
-5.333930 8.301634 62.030499 103 65 72
-5.346049 8.454516 62.171436 103 65 72
-5.357930 8.607624 62.309605 103 65 72
-5.369454 8.760745 62.443623 103 64 71
-5.380507 8.913663 62.572155 103 64 71
-5.390975 9.066152 62.693893 102 62 68
-5.400755 9.217992 62.807632 99 60 68
-5.409753 9.368966 62.912270 101 62 70
-5.417885 9.518871 63.006844 103 66 75
-5.425083 9.667520 63.090549 103 68 77
-5.431292 9.814741 63.162750 103 69 80
-5.436471 9.960389 63.222992 104 69 81
-5.440599 10.104343 63.271000 103 68 80
-5.443668 10.246510 63.306683 102 67 79
-5.445683 10.386820 63.330112 101 67 79
-5.446665 10.525238 63.341541 103 68 80
-5.446650 10.661751 63.341358 104 69 81
-5.445681 10.796371 63.330090 104 70 82
-5.443810 10.929134 63.308334 104 69 82
-5.441096 11.060088 63.276768 105 69 82
-5.437598 11.189295 63.236095 106 69 83
-5.433379 11.316823 63.187031 107 70 84
-5.428496 11.442740 63.130245 108 71 84
-5.423003 11.567112 63.066364 109 71 84
-5.416946 11.689990 62.995926 111 72 84
-5.410363 11.811416 62.919365 112 74 86
-5.403279 11.931407 62.836990 114 77 88
-5.395714 12.049967 62.749008 117 78 90
-5.387676 12.167080 62.655525 119 80 92
-5.379165 12.282711 62.556553 120 82 93
-5.370176 12.396811 62.452015 122 82 93
-5.360701 12.509327 62.341827 121 82 92
-5.350730 12.620198 62.225876 120 82 89
-5.340260 12.729377 62.104107 121 85 90
-5.329289 12.836827 61.976524 130 95 99
-5.317829 12.942537 61.843254 134 102 105
-5.305903 13.046524 61.704556 123 94 99
-5.293546 13.148846 61.560856 115 89 97
-5.280809 13.249593 61.412731 107 85 96
-5.267756 13.348901 61.260929 102 84 98
-5.254464 13.446940 61.106346 136 122 137
-5.241022 13.543928 60.950024 194 185 198
-5.227528 13.640107 60.793098 207 201 214
-5.214085 13.735744 60.636768 173 169 185
-5.200799 13.831122 60.482258 151 148 166
-5.187773 13.926535 60.330780 162 161 178
-5.175108 14.022271 60.183491 184 185 200
-5.162895 14.118608 60.041458 195 198 210
-5.151215 14.215802 59.905621 187 192 201
-5.140135 14.314085 59.776775 166 171 179
-5.129711 14.413653 59.655544 148 154 159
-5.119981 14.514668 59.542397 152 158 162
-5.110970 14.617249 59.437599 186 192 195
-5.102688 14.721482 59.341282 229 231 234
-5.095131 14.827412 59.253407 244 245 247
-5.088286 14.935049 59.173798 240 241 243
-5.082125 15.044372 59.102154 238 240 242
-5.076618 15.155334 59.038105 238 239 241
-5.071724 15.267868 58.981194 222 224 226
-5.067403 15.381894 58.930939 199 202 204
-5.063610 15.497320 58.886826 192 194 195
-5.060299 15.614045 58.848324 203 204 204
-5.057427 15.731969 58.814926 218 220 219
-5.054950 15.850986 58.786118 237 238 238
-5.052824 15.970992 58.761402 252 253 253
-5.051011 16.091883 58.740307 254 254 254
-5.049467 16.213551 58.722355 254 254 254
-5.048154 16.335888 58.707088 254 254 254
-5.047032 16.458780 58.694035 254 254 254
-5.046061 16.582113 58.682739 254 254 254
-5.045200 16.705765 58.672737 255 255 255
-5.044410 16.829607 58.663544 254 254 254
-5.043648 16.953503 58.654682 254 254 254
-5.042873 17.077320 58.645672 254 254 254
-5.042045 17.200912 58.636036 254 254 254
-5.041121 17.324139 58.625294 254 254 254
-5.040062 17.446850 58.612980 254 254 254
-5.038830 17.568905 58.598656 254 254 254
-5.037388 17.690159 58.581886 254 254 254
-5.035702 17.810478 58.562271 254 254 254
-5.033739 17.929726 58.539444 254 254 254
-5.031470 18.047781 58.513062 254 254 254
-5.028869 18.164518 58.482811 254 254 254
-5.025908 18.279821 58.448387 254 254 254
-5.022567 18.393579 58.409531 254 254 254
-5.018825 18.505692 58.366005 244 249 253
-5.014661 18.616053 58.317589 218 232 245
-5.010061 18.724571 58.264084 195 217 235
-5.005007 18.831156 58.205315 194 216 232
-4.999490 18.935730 58.141151 216 232 242
-4.993498 19.038218 58.071468 238 247 252
-4.987025 19.138561 57.996197 228 236 247
-5.069793 0.793088 60.474785 93 61 69
-5.066281 0.922812 60.432892 91 61 68
-5.062663 1.052333 60.389729 91 60 67
-5.058951 1.181646 60.345459 92 61 69
-5.055163 1.310748 60.300266 95 64 72
-5.051316 1.439638 60.254383 96 64 72
-5.047430 1.568319 60.208027 96 62 70
-5.043528 1.696795 60.161480 95 60 69
-5.039633 1.825072 60.115017 95 60 69
-5.035773 1.953163 60.068981 94 60 68
-5.031978 2.081081 60.023705 94 59 68
-5.028275 2.208846 59.979546 93 59 67
-5.024699 2.336478 59.936878 93 60 67
-5.021278 2.464004 59.896080 92 60 68
-5.018045 2.591450 59.857517 91 60 69
-5.015032 2.718849 59.821571 91 61 70
-5.012268 2.846234 59.788597 89 60 69
-5.009781 2.973642 59.758930 87 60 69
-5.007596 3.101110 59.732876 88 61 70
-5.005738 3.228675 59.710701 88 61 70
-5.004223 3.356375 59.692631 89 62 70
-5.003068 3.484248 59.678864 90 64 72
-5.002285 3.612330 59.669525 93 65 73
-5.001883 3.740656 59.664722 96 66 75
-5.001863 3.869259 59.664490 98 66 77
-5.002229 3.998167 59.668850 100 66 78
-5.002975 4.127409 59.677753 100 65 77
-5.004099 4.257010 59.691154 98 61 76
-5.005592 4.386993 59.708973 94 58 73
-5.007449 4.517380 59.731113 92 56 71
-5.009660 4.648191 59.757488 92 57 70
-5.012218 4.779449 59.788010 92 59 70
-5.015121 4.911173 59.822628 91 59 68
-5.018363 5.043389 59.861305 90 59 67
-5.021946 5.176123 59.904049 88 59 65
-5.025875 5.309407 59.950912 88 58 63
-5.030159 5.443275 60.002007 89 58 63
-5.034808 5.577771 60.057468 89 59 64
-5.039841 5.712940 60.117508 90 59 65
-5.045278 5.848835 60.182358 90 59 66
-5.051142 5.985517 60.252300 90 58 66
-5.057457 6.123046 60.327633 90 58 67
-5.064248 6.261489 60.408642 91 59 70
-5.071539 6.400912 60.495617 92 60 71
-5.079351 6.541380 60.588795 93 61 73
-5.087698 6.682954 60.688366 99 66 77
-5.096590 6.825686 60.794430 103 69 81
-5.106026 6.969618 60.906986 104 69 82
-5.115997 7.114779 61.025925 105 68 82
-5.126481 7.261181 61.150986 104 68 81
-5.137444 7.408812 61.281757 103 67 80
-5.148839 7.557641 61.417679 102 66 77
-5.160605 7.707610 61.558033 101 65 75
-5.172669 7.858637 61.701942 102 64 73
-5.184945 8.010611 61.848370 102 64 71
-5.197335 8.163396 61.996162 103 65 71
-5.209733 8.316831 62.144051 104 65 71
-5.222026 8.470734 62.290688 104 65 71
-5.234096 8.624899 62.434658 104 65 71
-5.245821 8.779112 62.574532 104 64 70
-5.257086 8.933143 62.708904 103 64 70
-5.267776 9.086761 62.836411 102 61 67
-5.277781 9.239731 62.955757 100 60 67
-5.287004 9.391827 63.065777 101 63 70
-5.295359 9.542831 63.165436 103 66 75
-5.302772 9.692545 63.253864 104 68 78
-5.309185 9.840786 63.330364 104 68 81
-5.314555 9.987396 63.394417 104 67 81
-5.318857 10.132249 63.445732 101 65 80
-5.322080 10.275239 63.484180 100 65 79
-5.324229 10.416294 63.509815 99 65 78
-5.325326 10.555374 63.522900 100 66 79
-5.325404 10.692464 63.523830 102 67 80
-5.324509 10.827580 63.513153 103 68 81
-5.322695 10.960756 63.491508 104 69 82
-5.320020 11.092047 63.459606 106 70 83
-5.316549 11.221517 63.418198 106 69 83
-5.312345 11.349243 63.368050 107 69 84
-5.307468 11.475301 63.309883 108 69 84
-5.301976 11.599760 63.244370 109 70 83
-5.295917 11.722681 63.172096 110 71 83
-5.289332 11.844114 63.093548 111 73 85
-5.282250 11.964082 63.009071 113 76 87
-5.274693 12.082597 62.918922 116 79 90
-5.266670 12.199645 62.823223 118 82 93
-5.258186 12.315201 62.722023 120 84 95
-5.249237 12.429217 62.615269 121 84 96
-5.239815 12.541643 62.502880 121 83 95
-5.229912 12.652422 62.384762 121 83 93
-5.219524 12.761504 62.260845 122 85 93
-5.208651 12.868852 62.131138 125 89 96
-5.197301 12.974452 61.995754 124 90 96
-5.185494 13.078318 61.854923 118 87 95
-5.173265 13.180499 61.709053 116 87 97
-5.160661 13.281084 61.558693 110 84 97
-5.147738 13.380197 61.404552 107 86 100
-5.134573 13.478005 61.247513 142 127 140
-5.121249 13.574717 61.088577 188 179 189
-5.107860 13.670568 60.928864 187 180 193
-5.094505 13.765824 60.769558 160 154 169
-5.081285 13.860763 60.611870 154 151 166
-5.068304 13.955676 60.457020 169 170 184
-5.055657 14.050854 60.306168 184 188 200
-5.043436 14.146573 60.160385 188 192 204
-5.031721 14.243096 60.020641 179 185 194
-5.020580 14.340658 59.887745 159 166 173
-5.010067 14.439458 59.762348 141 148 152
-5.000224 14.539663 59.644932 150 155 158
-4.991074 14.641397 59.535789 194 198 200
-4.982630 14.744746 59.435062 238 239 241
-4.974887 14.849758 59.342705 250 250 250
-4.967832 14.956439 59.258545 248 249 248
-4.961438 15.064766 59.182274 250 251 250
-4.955671 15.174686 59.113491 252 253 252
-4.950493 15.286125 59.051720 248 249 249
-4.945860 15.398995 58.996456 241 242 242
-4.941726 15.513194 58.947144 234 235 236
-4.938046 15.628615 58.903240 228 229 229
-4.934774 15.745152 58.864212 227 229 228
-4.931868 15.862697 58.829548 240 241 240
-4.929286 15.981145 58.798759 253 253 253
-4.926992 16.100399 58.771393 254 254 254
-4.924949 16.220362 58.747021 254 254 254
-4.923123 16.340940 58.725246 254 254 254
-4.921484 16.462046 58.705685 255 255 255
-4.919999 16.583593 58.687977 254 254 254
-4.918639 16.705486 58.671757 254 254 254
-4.917375 16.827635 58.656670 254 254 254
-4.916175 16.949944 58.642365 255 255 255
-4.915012 17.072315 58.628487 254 254 254
-4.913854 17.194645 58.614670 254 254 254
-4.912669 17.316824 58.600540 254 254 254
-4.911426 17.438734 58.585712 254 254 254
-4.910094 17.560259 58.569820 254 254 254
-4.908639 17.681276 58.552471 254 254 254
-4.907030 17.801659 58.533276 254 254 254
-4.905233 17.921270 58.511837 254 254 254
-4.903217 18.039984 58.487789 254 254 254
-4.900948 18.157658 58.460720 254 254 254
-4.898394 18.274153 58.430260 254 254 254
-4.895523 18.389322 58.396011 254 254 254
-4.892303 18.503031 58.357613 243 247 252
-4.888705 18.615128 58.314690 206 222 234
-4.884700 18.725479 58.266907 168 192 212
-4.880259 18.833944 58.213932 159 184 205
-4.875359 18.940399 58.155487 188 207 223
-4.869979 19.044724 58.091312 224 235 246
-4.864103 19.146820 58.021225 211 224 238
-4.942434 0.663128 60.511562 94 61 70
-4.939196 0.793051 60.471916 92 61 68
-4.935838 0.922780 60.430809 91 61 68
-4.932372 1.052309 60.388374 91 60 67
-4.928811 1.181632 60.344776 92 62 68
-4.925170 1.310746 60.300198 95 63 69
-4.921467 1.439650 60.254856 95 63 69
-4.917720 1.568344 60.208988 95 62 68
-4.913953 1.696834 60.162865 95 61 68
-4.910189 1.825125 60.116783 95 61 68
-4.906456 1.953231 60.071075 94 61 68
-4.902782 2.081165 60.026104 93 60 67
-4.899199 2.208945 59.982227 92 60 66
-4.895736 2.336594 59.939831 91 60 66
-4.892427 2.464137 59.899315 91 60 67
-4.889302 2.591603 59.861061 90 61 69
-4.886395 2.719026 59.825459 89 61 69
-4.883734 2.846438 59.792881 88 61 69
-4.881348 2.973878 59.763676 87 60 69
-4.879264 3.101384 59.738159 87 61 70
-4.877504 3.228994 59.716618 88 62 71
-4.876089 3.356749 59.699280 89 62 72
-4.875033 3.484685 59.686356 90 64 74
-4.874349 3.612842 59.677979 93 65 75
-4.874044 3.741254 59.674255 96 66 77
-4.874125 3.869956 59.675240 99 66 78
-4.874591 3.998977 59.680943 100 66 79
-4.875439 4.128348 59.691334 100 65 79
-4.876666 4.258093 59.706352 98 62 77
-4.878264 4.388238 59.725922 96 60 75
-4.880228 4.518805 59.749958 94 59 73
-4.882548 4.649816 59.778366 93 59 71
-4.885218 4.781291 59.811050 92 60 70
-4.888233 4.913253 59.847969 91 60 69
-4.891590 5.045728 59.889069 90 60 67
-4.895289 5.178742 59.934364 89 60 65
-4.899335 5.312328 59.983894 88 60 63
-4.903735 5.446520 60.037769 88 60 63
-4.908502 5.581360 60.096119 89 60 64
-4.913649 5.716897 60.159142 89 60 65
-4.919197 5.853181 60.227070 89 60 65
-4.925168 5.990273 60.300175 90 60 66
-4.931586 6.128234 60.378746 91 60 68
-4.938473 6.267131 60.463074 93 61 70
-4.945854 6.407031 60.553440 92 62 71
-4.953748 6.547998 60.650089 93 62 73
-4.962171 6.690094 60.753208 98 66 77
-4.971130 6.833374 60.862907 102 68 80
-4.980629 6.977881 60.979198 104 68 81
-4.990657 7.123647 61.101978 104 68 82
-5.001196 7.270683 61.231010 104 67 81
-5.012213 7.418984 61.365894 103 65 79
-5.023664 7.568520 61.506092 102 63 77
-5.035491 7.719235 61.650883 101 63 74
-5.047622 7.871051 61.799408 101 62 71
-5.059974 8.023857 61.950638 102 62 69
-5.072452 8.177517 62.103405 103 63 69
-5.084950 8.331871 62.256432 104 64 69
-5.097358 8.486732 62.408340 105 64 70
-5.109556 8.641894 62.557686 105 65 70
-5.121424 8.797134 62.702995 104 64 69
-5.132844 8.952219 62.842812 104 63 69
-5.143700 9.106906 62.975716 103 62 68
-5.153878 9.260950 63.100338 102 62 68
-5.163281 9.414118 63.215458 102 64 71
-5.171817 9.566177 63.319965 104 66 75
-5.179410 9.716920 63.412933 104 68 79
-5.185999 9.866151 63.493599 104 68 81
-5.191536 10.013703 63.561398 102 66 80
-5.195995 10.159438 63.615986 98 62 77
-5.199363 10.303246 63.657219 96 62 76
-5.201642 10.445045 63.685120 95 61 75
-5.202854 10.584794 63.699955 97 62 76
-5.203030 10.722472 63.702110 99 65 78
-5.202217 10.858096 63.692158 101 67 79
-5.200469 10.991700 63.670753 104 68 82
-5.197846 11.123342 63.638649 106 69 84
-5.194414 11.253089 63.596630 107 69 84
-5.190238 11.381025 63.545502 106 67 84
-5.185381 11.507229 63.486031 107 67 83
-5.179901 11.631778 63.418941 107 68 82
-5.173851 11.754743 63.344868 109 70 82
-5.167274 11.876175 63.264336 111 72 84
-5.160201 11.996110 63.177746 113 76 86
-5.152657 12.114563 63.085381 115 79 90
-5.144656 12.231530 62.987419 118 83 93
-5.136203 12.346991 62.883934 120 84 95
-5.127297 12.460903 62.774895 119 83 96
-5.117933 12.573219 62.660248 118 81 94
-5.108104 12.683887 62.539906 118 81 94
-5.097805 12.792858 62.413818 121 84 97
-5.087037 12.900094 62.281979 124 88 99
-5.075808 13.005581 62.144493 123 87 98
-5.064134 13.109324 62.001575 119 86 97
-5.052049 13.211375 61.853607 118 88 100
-5.039592 13.311809 61.701103 117 89 102
-5.026822 13.410745 61.544746 115 92 104
-5.013805 13.508344 61.385380 135 118 129
-5.000622 13.604806 61.223980 162 149 159
-4.987362 13.700358 61.061638 165 156 167
-4.974120 13.795260 60.899509 160 155 167
-4.960993 13.889787 60.738789 169 168 180
-4.948081 13.984225 60.580696 179 181 193
-4.935476 14.078863 60.426384 176 181 193
-4.923271 14.173982 60.276943 170 176 188
-4.911542 14.269842 60.133343 165 172 182
-4.900358 14.366681 59.996422 153 160 167
-4.889775 14.464706 59.866848 137 143 149
-4.879832 14.564085 59.745117 150 155 159
-4.870556 14.664945 59.631542 201 204 206
-4.861958 14.767375 59.526276 244 245 246
-4.854036 14.871424 59.429287 248 249 248
