ply
format ascii 1.0
element vertex 1210
property float x
property float y
property float z
property uchar red
property uchar green
property uchar blue
end_header
-1.692433 7.677706 49.409870 121 53 69
-1.687270 7.760471 49.259140 120 53 68
-1.682204 7.843042 49.111267 119 54 68
-1.677235 7.925425 48.966171 118 54 69
-1.672356 8.007619 48.823738 117 54 69
-1.667564 8.089622 48.683857 118 53 70
-1.662857 8.171434 48.546417 120 54 73
-1.658229 8.253054 48.411324 123 55 75
-1.653680 8.334482 48.278496 127 57 77
-1.649206 8.415724 48.147881 128 58 77
-1.644806 8.496785 48.019428 128 58 76
-1.640480 8.577682 47.893147 128 57 74
-1.636229 8.658428 47.769039 127 57 72
-1.632055 8.739050 47.647167 126 57 71
-1.627958 8.819568 47.527573 125 57 69
-1.623943 8.900017 47.410351 124 57 69
-1.620013 8.980431 47.295612 124 57 69
-1.616172 9.060849 47.183475 123 58 71
-1.612425 9.141316 47.074074 122 58 72
-1.608776 9.221876 46.967545 121 59 74
-1.605230 9.302574 46.864029 121 60 75
-1.601792 9.383460 46.763672 120 61 75
-1.598467 9.464577 46.666584 119 61 75
-1.595258 9.545971 46.572899 119 61 76
-1.592168 9.627685 46.482700 120 62 76
-1.589201 9.709754 46.396065 121 63 77
-1.586356 9.792211 46.313023 122 63 77
-1.583634 9.875072 46.233555 123 63 76
-1.581033 9.958351 46.157608 123 62 74
-1.578549 10.042046 46.085072 123 61 72
-1.576175 10.126139 46.015770 122 60 70
-1.573903 10.210599 45.949463 122 59 69
-1.571725 10.295380 45.885857 122 60 68
-1.569626 10.380417 45.824596 123 60 69
-1.567594 10.465629 45.765255 124 61 69
-1.565611 10.550919 45.707359 124 61 70
-1.563660 10.636178 45.650402 124 61 70
-1.561722 10.721284 45.593838 123 61 70
-1.559779 10.806108 45.537117 122 60 70
-1.557813 10.890522 45.479702 120 59 71
-1.555804 10.974390 45.421047 119 59 71
-1.553736 11.057588 45.360683 119 59 72
-1.551595 11.139997 45.298172 118 60 71
-1.549368 11.221516 45.233162 118 60 71
-1.547046 11.302057 45.165359 118 61 71
-1.815886 -1.697173 56.574497 120 73 105
-1.814561 -1.574067 56.533199 119 71 104
-1.813213 -1.451122 56.491199 117 69 101
-1.811822 -1.328326 56.447880 117 69 100
-1.810371 -1.205677 56.402653 117 69 99
-1.808842 -1.083176 56.355022 118 70 98
-1.807222 -0.960833 56.304565 119 71 98
-1.805502 -0.838660 56.250954 119 73 100
-1.803673 -0.716675 56.193989 120 73 101
-1.801734 -0.594900 56.133591 120 74 102
-1.799687 -0.473356 56.069790 121 74 102
-1.797536 -0.352067 56.002773 120 73 101
-1.795291 -0.231055 55.932846 120 73 99
-1.792967 -0.110340 55.860451 122 74 99
-1.790582 0.010063 55.786118 124 75 99
-1.788154 0.130142 55.710480 124 76 99
-1.785707 0.249893 55.634254 123 74 97
-1.783265 0.369316 55.558182 123 74 97
-1.780853 0.488419 55.483017 125 75 98
-1.778493 0.607216 55.409508 125 77 99
-1.776209 0.725727 55.338326 126 78 98
-1.774019 0.843976 55.270092 125 78 95
-1.771939 0.961990 55.205288 124 78 93
-1.769981 1.079800 55.144295 124 79 94
-1.768153 1.197434 55.087341 125 79 95
-1.766456 1.314921 55.034481 125 79 99
-1.764888 1.432284 54.985622 126 81 102
-1.763441 1.549543 54.940548 127 84 106
-1.762104 1.666712 54.898891 125 82 106
-1.760861 1.783797 54.860176 124 81 106
-1.759695 1.900797 54.823849 128 85 109
-1.758586 2.017706 54.789291 132 90 113
-1.757513 2.134511 54.755863 133 89 112
-1.756456 2.251190 54.722919 132 87 110
-1.755394 2.367723 54.689850 132 87 109
-1.754311 2.484082 54.656090 134 87 109
-1.753189 2.600237 54.621132 135 88 111
-1.752014 2.716161 54.584545 135 89 111
-1.750776 2.831825 54.545967 132 87 108
-1.749465 2.947199 54.505119 128 84 104
-1.748074 3.062257 54.461784 127 85 103
-1.746599 3.176975 54.415836 132 91 107
-1.745037 3.291331 54.367161 137 98 113
-1.743387 3.405304 54.315742 141 102 116
-1.741649 3.518879 54.261593 141 102 116
-1.739825 3.632041 54.204769 141 101 116
-1.737918 3.744781 54.145378 140 99 116
-1.735934 3.857091 54.083557 140 97 117
-1.733877 3.968969 54.019478 141 95 118
-1.731755 4.080416 53.953358 142 94 120
-1.729574 4.191437 53.885422 143 92 122
-1.727342 4.302037 53.815884 143 91 123
-1.725067 4.412225 53.744980 143 91 122
-1.722753 4.522007 53.672882 143 90 120
-1.720405 4.631387 53.599731 143 90 118
-1.718024 4.740362 53.525574 143 90 116
-1.715610 4.848922 53.450356 144 91 114
-1.713156 4.957043 53.373913 142 89 110
-1.710654 5.064690 53.295948 137 85 105
-1.708089 5.171811 53.216026 132 81 101
-1.705443 5.278339 53.133606 125 79 97
-1.702697 5.384193 53.048042 117 76 93
-1.699827 5.489278 52.958622 107 73 88
-1.696809 5.593491 52.864601 97 71 83
-1.693620 5.696723 52.765255 87 66 76
-1.690240 5.798870 52.659939 72 56 64
-1.686650 5.899831 52.548107 59 45 52
-1.682840 5.999522 52.429382 56 39 48
-1.678801 6.097872 52.303555 59 38 48
-1.674534 6.194837 52.170631 66 39 51
-1.670047 6.290398 52.030830 73 41 55
-1.665353 6.384563 51.884586 82 44 59
-1.660472 6.477367 51.732506 90 48 62
-1.655427 6.568868 51.575348 96 50 63
-1.650248 6.659149 51.413990 101 52 64
-1.644965 6.748305 51.249382 105 54 65
-1.639608 6.836446 51.082493 108 55 66
-1.634209 6.923688 50.914284 112 56 68
-1.628796 7.010146 50.745644 116 57 69
-1.623396 7.095932 50.577393 119 58 71
-1.618030 7.181146 50.410233 123 59 73
-1.612719 7.265882 50.244743 125 59 74
-1.607475 7.350217 50.081383 125 58 72
-1.602311 7.434215 49.920483 125 57 71
-1.597232 7.517923 49.762260 123 55 69
-1.592243 7.601376 49.606831 121 54 68
-1.587345 7.684596 49.454205 119 53 67
-1.582535 7.767595 49.304359 118 52 67
-1.577812 7.850379 49.157211 117 53 67
-1.573171 7.932945 49.012634 116 53 69
-1.568609 8.015288 48.870499 116 53 70
-1.564121 8.097403 48.730679 117 53 71
-1.559704 8.179282 48.593040 119 54 74
-1.555353 8.260927 48.457504 122 55 76
-1.551068 8.342336 48.323990 125 56 77
-1.546846 8.423513 48.192448 126 56 77
-1.542686 8.504473 48.062870 127 57 76
-1.538591 8.585228 47.935276 128 57 74
-1.534561 8.665803 47.809727 127 57 73
-1.530600 8.746228 47.686306 126 58 72
-1.526710 8.826533 47.565105 126 59 71
-1.522895 8.906757 47.446259 125 59 71
-1.519161 8.986943 47.329914 125 59 72
-1.515512 9.067140 47.216228 124 59 73
-1.511954 9.147396 47.105381 124 59 75
-1.508492 9.227762 46.997524 123 61 78
-1.505131 9.308290 46.892822 123 63 79
-1.501877 9.389031 46.791439 122 63 79
-1.498734 9.470037 46.693508 120 63 78
-1.495705 9.551352 46.599152 119 62 77
-1.492794 9.633020 46.508465 119 62 77
-1.490003 9.715080 46.421516 120 63 78
-1.487333 9.797561 46.338329 121 63 79
-1.484783 9.880482 46.258881 122 63 78
-1.482351 9.963853 46.183109 123 63 77
-1.480033 10.047669 46.110882 122 62 74
-1.477823 10.131915 46.042019 121 60 71
-1.475712 10.216557 45.976273 120 59 69
-1.473692 10.301542 45.913326 121 59 68
-1.471749 10.386806 45.852802 122 60 69
-1.469871 10.472263 45.794270 123 61 70
-1.468040 10.557815 45.737232 123 61 70
-1.466240 10.643344 45.681156 123 61 70
-1.464453 10.728724 45.625481 122 61 70
-1.462660 10.813821 45.569618 121 60 70
-1.460842 10.898494 45.512989 119 60 71
-1.458982 10.982601 45.455032 118 59 72
-1.457063 11.066010 45.395233 118 59 73
-1.455069 11.148590 45.333115 118 60 73
-1.452988 11.230229 45.268284 118 60 73
-1.450810 11.310830 45.200417 118 61 73
-1.448527 11.390317 45.129299 118 62 72
-1.696445 -1.699691 56.658463 122 75 107
-1.695217 -1.576413 56.617458 120 73 107
-1.693971 -1.453296 56.575825 119 72 105
-1.692688 -1.330329 56.532982 119 71 103
-1.691352 -1.207509 56.488373 119 71 102
-1.689949 -1.084839 56.441513 119 72 101
-1.688466 -0.962325 56.391994 119 73 100
-1.686895 -0.839980 56.339512 119 73 100
-1.685229 -0.717822 56.283867 118 73 101
-1.683465 -0.595868 56.224972 118 74 102
-1.681606 -0.474142 56.162861 120 74 102
-1.679655 -0.352664 56.097706 120 74 103
-1.677621 -0.231456 56.029789 121 74 101
-1.675518 -0.110536 55.959538 123 75 100
-1.673360 0.010081 55.887451 124 75 100
-1.671165 0.130384 55.814140 124 74 98
-1.668953 0.250369 55.740276 122 72 96
-1.666746 0.370036 55.666561 122 72 96
-1.664565 0.489394 55.593719 123 73 97
-1.662431 0.608454 55.522465 124 75 97
-1.660365 0.727236 55.453434 124 76 96
-1.658381 0.845764 55.387203 124 77 94
-1.656496 0.964063 55.324234 125 78 93
-1.654719 1.082161 55.264893 125 78 93
-1.653057 1.200087 55.209370 126 79 95
-1.651510 1.317865 55.157715 127 80 99
-1.650077 1.435520 55.109833 128 82 103
-1.648749 1.553068 55.065502 128 84 105
-1.647517 1.670521 55.024364 124 81 104
-1.646367 1.787887 54.985958 122 79 103
-1.645283 1.905161 54.949726 125 82 106
-1.644245 2.022339 54.915085 129 87 110
-1.643237 2.139405 54.881424 131 88 111
-1.642240 2.256340 54.848106 133 87 110
-1.641235 2.373122 54.814556 134 88 111
-1.640208 2.489723 54.780228 135 88 111
-1.639142 2.606117 54.744648 135 89 111
-1.638027 2.722275 54.707401 134 88 111
-1.636851 2.838167 54.668137 131 86 107
-1.635608 2.953767 54.626598 127 84 104
-1.634289 3.069048 54.582569 126 85 104
-1.632892 3.183985 54.535908 132 92 109
-1.631413 3.298556 54.486519 138 99 115
-1.629851 3.412740 54.434349 141 103 117
-1.628206 3.526519 54.379398 141 102 117
-1.626478 3.639876 54.321701 140 101 117
-1.624671 3.752799 54.261314 140 100 117
-1.622785 3.865278 54.198349 140 98 118
-1.620827 3.977306 54.132942 142 96 120
-1.618800 4.088879 54.065254 143 96 122
-1.616711 4.199998 53.995480 144 94 123
-1.614565 4.310665 53.923813 143 91 123
-1.612368 4.420883 53.850441 141 89 121
-1.610125 4.530655 53.775536 141 89 119
-1.607841 4.639983 53.699223 142 89 118
-1.605515 4.748863 53.621555 143 90 116
-1.603148 4.857281 53.542503 144 91 114
-1.600736 4.965218 53.461929 141 88 109
-1.598270 5.072638 53.379578 135 81 102
-1.595740 5.179494 53.295078 129 77 97
-1.593131 5.285726 53.207958 123 76 94
-1.590427 5.391257 53.117638 117 74 91
-1.587608 5.496002 53.023491 107 72 86
-1.584655 5.599866 52.924850 99 71 82
-1.581548 5.702751 52.821079 90 69 78
-1.578269 5.804558 52.711594 78 61 68
-1.574806 5.905199 52.595917 63 49 55
-1.571147 6.004595 52.473721 57 41 47
-1.567288 6.102685 52.344845 59 38 47
-1.563231 6.199431 52.209320 64 38 49
-1.558981 6.294818 52.067390 73 40 52
-1.554552 6.388855 51.919464 82 45 58
-1.549962 6.481581 51.766159 91 49 63
-1.545232 6.573054 51.608212 98 51 65
-1.540390 6.663355 51.446472 102 52 66
-1.535460 6.752578 51.281837 105 54 67
-1.530472 6.840830 51.115253 108 55 68
-1.525453 6.928222 50.947624 111 56 70
-1.520428 7.014864 50.779797 115 57 70
-1.515420 7.100862 50.612537 119 58 71
-1.510449 7.186313 50.446503 122 60 73
-1.505530 7.271304 50.282238 125 61 74
-1.500677 7.355905 50.120136 125 59 71
-1.495897 7.440173 49.960491 124 58 69
-1.491196 7.524149 49.803474 122 56 67
-1.486575 7.607862 49.649158 121 55 66
-1.482035 7.691326 49.497517 119 53 65
-1.477573 7.774549 49.348499 117 53 65
-1.473186 7.857528 49.201977 116 52 66
-1.468869 7.940256 49.057804 116 52 67
-1.464618 8.022723 48.915833 116 53 69
-1.460429 8.104921 48.775925 116 54 72
-1.456298 8.186841 48.637947 118 54 74
-1.452222 8.268479 48.501808 121 55 76
-1.448198 8.349836 48.367439 123 55 76
-1.444228 8.430922 48.234825 124 55 76
-1.440310 8.511744 48.103966 125 56 75
-1.436446 8.592328 47.974918 126 57 74
-1.432639 8.672700 47.847778 126 57 74
-1.428893 8.752896 47.722660 126 59 73
-1.425211 8.832952 47.599697 126 60 73
-1.421599 8.912916 47.479073 126 60 73
-1.418063 8.992840 47.360962 126 61 73
-1.414608 9.072774 47.245567 125 60 74
-1.411240 9.152777 47.133087 124 60 76
-1.407965 9.232904 47.023712 124 61 79
-1.404789 9.313212 46.917622 125 64 82
-1.401716 9.393761 46.815006 124 64 81
-1.398752 9.474599 46.716003 122 63 79
-1.395900 9.555779 46.620750 120 62 78
-1.393163 9.637344 46.529339 120 62 78
-1.390543 9.719336 46.441849 121 63 79
-1.388041 9.801783 46.358295 122 63 79
-1.385657 9.884705 46.278652 123 63 79
-1.383387 9.968111 46.202850 123 63 79
-1.381228 10.051999 46.130753 123 62 76
-1.379175 10.136350 46.062172 122 61 73
-1.377219 10.221128 45.996845 122 60 71
-1.375351 10.306282 45.934448 122 60 70
-1.373559 10.391743 45.874599 122 60 69
-1.371829 10.477423 45.816830 123 61 70
-1.370147 10.563220 45.760647 123 62 71
-1.368495 10.649012 45.705486 122 61 70
-1.366856 10.734666 45.650749 121 60 70
-1.365212 10.820041 45.595825 120 59 70
-1.363544 10.904987 45.540108 118 59 71
-1.361833 10.989355 45.482986 118 59 73
-1.360064 11.072998 45.423904 117 59 74
-1.358221 11.155777 45.362339 117 59 74
-1.356290 11.237567 45.297859 118 60 74
-1.354261 11.318257 45.230099 118 61 74
-1.352127 11.397762 45.158798 118 61 73
-1.576705 -1.702279 56.744717 125 77 109
-1.575569 -1.578818 56.703846 123 76 109
-1.574419 -1.455520 56.662437 121 74 106
-1.573238 -1.332375 56.619934 120 72 104
-1.572012 -1.209378 56.575813 120 72 103
-1.570729 -1.086532 56.529625 119 73 102
-1.569376 -0.963843 56.480968 118 73 100
-1.567948 -0.841323 56.429546 116 72 99
-1.566437 -0.718986 56.375179 116 72 100
-1.564842 -0.596852 56.317772 117 73 101
-1.563163 -0.474940 56.257355 119 74 103
-1.561405 -0.353270 56.194088 121 75 104
-1.559575 -0.231862 56.128227 124 77 105
-1.557684 -0.110734 56.060177 125 76 103
-1.555746 0.010100 55.990410 124 74 99
-1.553776 0.130631 55.919495 123 72 97
-1.551791 0.250853 55.848064 123 71 96
-1.549810 0.370769 55.776794 123 71 96
-1.547853 0.490385 55.706360 125 72 97
-1.545938 0.609714 55.637417 125 73 96
-1.544081 0.728773 55.570595 124 74 95
-1.542298 0.847584 55.506424 124 74 92
-1.540600 0.966173 55.445332 124 75 91
-1.538998 1.084565 55.387653 125 77 92
-1.537495 1.202786 55.333561 127 78 94
-1.536093 1.320861 55.283100 128 80 98
-1.534788 1.438810 55.236164 129 81 102
-1.533576 1.556650 55.192524 129 83 104
-1.532445 1.674391 55.151821 125 80 103
-1.531383 1.792037 55.113617 123 78 102
-1.530376 1.909587 55.077374 125 80 104
-1.529408 2.027032 55.042522 127 84 107
-1.528462 2.144357 55.008461 130 86 108
-1.527521 2.261544 54.974606 132 87 109
-1.526570 2.378569 54.940384 134 87 110
-1.525595 2.495408 54.905296 134 88 111
-1.524583 2.612031 54.868874 135 89 111
-1.523523 2.728412 54.830738 133 89 111
-1.522407 2.844523 54.790558 131 88 109
-1.521226 2.960336 54.748074 128 87 107
-1.519976 3.075824 54.703087 129 89 107
-1.518653 3.190965 54.655453 133 94 111
-1.517253 3.305733 54.605061 138 100 116
-1.515774 3.420107 54.551849 140 102 119
-1.514216 3.534067 54.495789 140 102 118
-1.512580 3.647595 54.436890 139 101 117
-1.510865 3.760674 54.375172 140 100 117
-1.509074 3.873291 54.310715 140 98 118
-1.507209 3.985436 54.243603 142 97 121
-1.505275 4.097102 54.173981 145 98 125
-1.503274 4.208282 54.101978 145 95 125
-1.501212 4.318976 54.027775 142 90 122
-1.499094 4.429183 53.951534 140 87 119
-1.496923 4.538902 53.873413 140 86 117
-1.494704 4.648132 53.793530 142 88 117
-1.492437 4.756869 53.711964 145 90 117
-1.490124 4.865100 53.628700 145 90 115
-1.487760 4.972806 53.543640 140 85 107
-1.485342 5.079957 53.456600 132 77 99
-1.482859 5.186509 53.367260 126 74 94
-1.480302 5.292407 53.275215 122 74 92
-1.477656 5.397585 53.179989 116 73 88
-1.474906 5.501966 53.081028 107 72 85
-1.472036 5.605463 52.977749 100 72 82
-1.469031 5.707989 52.869598 92 71 78
-1.465877 5.809456 52.756073 81 65 70
-1.462561 5.909784 52.636753 66 52 56
-1.459077 6.008902 52.511356 56 41 45
-1.455421 6.106757 52.379765 57 36 43
-1.451594 6.203315 52.242031 63 37 46
-1.447603 6.298566 52.098396 71 39 50
-1.443459 6.392522 51.949268 82 45 57
-1.439179 6.485221 51.795238 91 49 63
-1.434783 6.576721 51.637005 97 51 65
-1.430291 6.667099 51.475376 101 52 67
-1.425730 6.756447 51.311218 105 53 69
-1.421123 6.844864 51.145393 108 54 70
-1.416493 6.932458 50.978775 111 56 71
-1.411863 7.019332 50.812141 114 57 72
-1.407252 7.105587 50.646217 117 58 72
-1.402678 7.191313 50.481602 121 59 73
-1.398154 7.276588 50.318775 123 60 72
-1.393690 7.361478 50.158104 123 59 70
-1.389292 7.446030 49.999825 123 58 68
-1.384964 7.530283 49.844078 123 57 66
-1.380708 7.614256 49.690884 122 55 65
-1.376521 7.697958 49.540195 120 54 64
-1.372401 7.781390 49.391922 118 53 65
-1.368344 7.864547 49.245926 117 53 66
-1.364346 7.947415 49.102032 117 53 68
-1.360402 8.029981 48.960083 117 53 70
-1.356507 8.112232 48.819923 117 54 72
-1.352659 8.194160 48.681431 118 54 74
-1.348855 8.275760 48.544514 120 55 75
-1.345093 8.357033 48.409126 122 55 75
-1.341373 8.437988 48.275257 122 56 75
-1.337697 8.518641 48.142948 123 56 74
-1.334066 8.599019 48.012280 124 57 74
-1.330485 8.679153 47.883381 125 58 74
-1.326956 8.759085 47.756401 126 60 74
-1.323486 8.838857 47.631519 126 61 75
-1.320080 8.918525 47.508945 126 61 75
-1.316745 8.998144 47.388901 126 62 76
-1.313486 9.077776 47.271618 126 62 77
-1.310310 9.157484 47.157330 126 61 78
-1.307224 9.237328 47.046242 125 61 79
-1.304232 9.317371 46.938572 124 62 81
-1.301341 9.397675 46.834515 124 63 80
-1.298554 9.478295 46.734230 122 62 78
-1.295877 9.559286 46.637859 121 62 78
-1.293311 9.640695 46.545513 121 62 78
-1.290859 9.722562 46.457264 122 63 79
-1.288521 9.804919 46.373131 123 63 79
-1.286297 9.887788 46.293087 123 63 80
-1.284184 9.971178 46.217064 124 63 79
-1.282180 10.055086 46.144920 123 62 77
-1.280277 10.139493 46.076454 123 62 75
-1.278470 10.224365 46.011417 122 61 72
-1.276749 10.309649 45.949459 123 61 71
-1.275102 10.395274 45.890186 123 61 72
-1.273516 10.481151 45.833134 123 62 72
-1.271978 10.567172 45.777771 123 62 72
-1.270471 10.653213 45.723515 122 62 71
-1.268976 10.739132 45.669739 120 60 71
-1.267478 10.824782 45.615807 118 59 71
-1.265957 10.910006 45.561062 117 58 71
-1.264395 10.994640 45.504864 117 58 73
-1.262776 11.078530 45.446594 117 58 74
-1.261084 11.161523 45.385704 118 59 75
-1.259306 11.243481 45.321697 118 60 76
-1.257429 11.324281 45.254169 118 60 75
-1.255447 11.403823 45.182808 117 60 74
-1.456640 -1.704922 56.832817 127 80 111
-1.455592 -1.581271 56.791916 125 78 109
-1.454533 -1.457785 56.750576 122 75 105
-1.453449 -1.334454 56.708279 120 73 103
-1.452327 -1.211275 56.664520 119 72 101
-1.451158 -1.088248 56.618893 118 72 100
-1.449930 -0.965380 56.571011 117 72 99
-1.448638 -0.842680 56.520592 115 71 99
-1.447276 -0.720163 56.467461 115 72 99
-1.445843 -0.597845 56.411530 116 73 101
-1.444338 -0.475745 56.352810 118 74 103
-1.442765 -0.353882 56.291451 122 76 105
-1.441131 -0.232273 56.227688 126 79 108
-1.439445 -0.110935 56.161892 127 78 106
-1.437718 0.010119 56.094509 124 74 100
-1.435963 0.130880 56.026066 123 71 97
-1.434197 0.251343 55.957146 123 71 96
-1.432435 0.371511 55.888386 125 71 97
-1.430693 0.491389 55.820431 127 72 97
-1.428987 0.610990 55.753883 127 72 96
-1.427333 0.730330 55.689323 125 71 93
-1.425742 0.849430 55.627258 122 70 89
-1.424225 0.968312 55.568069 122 72 89
-1.422790 1.087001 55.512074 124 74 90
-1.421440 1.205522 55.459427 126 77 94
-1.420177 1.323897 55.410152 128 79 98
-1.418997 1.442143 55.364120 129 80 101
-1.417895 1.560277 55.321114 129 80 103
-1.416862 1.678306 55.280785 126 78 103
-1.415885 1.796234 55.242695 124 77 103
-1.414953 1.914058 55.206322 125 79 104
-1.414051 2.031768 55.171127 126 81 105
-1.413164 2.149349 55.136524 128 83 106
-1.412278 2.266783 55.101963 130 85 107
-1.411380 2.384047 55.066898 132 86 108
-1.410456 2.501114 55.030846 132 87 109
-1.409495 2.617959 54.993385 132 88 110
-1.408490 2.734553 54.954140 132 89 110
-1.407430 2.850869 54.912804 132 91 111
-1.406311 2.966881 54.869129 132 92 112
-1.405127 3.082563 54.822929 134 95 113
-1.403874 3.197889 54.774048 136 98 115
-1.402549 3.312835 54.722374 139 101 118
-1.401151 3.427378 54.667828 140 102 120
-1.399678 3.541497 54.610359 140 101 119
-1.398130 3.655169 54.549934 140 100 118
-1.396505 3.768378 54.486565 140 98 118
-1.394806 3.881104 54.420269 139 96 118
-1.393034 3.993334 54.351101 141 96 121
-1.391190 4.105057 54.279163 146 98 126
-1.389278 4.216261 54.204563 146 96 126
-1.387301 4.326943 54.127441 142 90 121
-1.385264 4.437098 54.047947 139 86 117
-1.383169 4.546722 53.966228 140 86 117
-1.381021 4.655812 53.882412 144 89 119
-1.378821 4.764363 53.796585 147 92 119
-1.376570 4.872365 53.708775 145 89 115
-1.374268 4.979799 53.618938 138 82 105
-1.371910 5.086641 53.526936 129 74 95
-1.369490 5.192852 53.432529 125 73 91
-1.367001 5.298387 53.335411 121 74 90
-1.364432 5.403186 53.235172 115 73 87
-1.361771 5.507182 53.131348 107 73 84
-1.359006 5.610300 53.023460 101 74 82
-1.356124 5.712462 52.911034 95 74 80
-1.353115 5.813592 52.793633 84 67 72
-1.349970 5.913618 52.670902 68 53 57
-1.346681 6.012478 52.542610 56 40 45
-1.343248 6.110126 52.408665 56 35 42
-1.339672 6.206533 52.269131 62 36 44
-1.335958 6.301691 52.124245 71 40 50
-1.332118 6.395615 51.974400 82 46 57
-1.328164 6.488339 51.820137 91 50 62
-1.324114 6.579921 51.662128 96 51 65
-1.319988 6.670434 51.501122 100 52 67
-1.315805 6.759962 51.337910 104 53 69
-1.311586 6.848601 51.173313 107 54 71
-1.307352 6.936450 51.008125 110 56 73
-1.303122 7.023606 50.843079 113 57 73
-1.298912 7.110160 50.678814 116 58 73
-1.294736 7.196197 50.515881 119 59 73
-1.290605 7.281786 50.354725 122 60 72
-1.286528 7.366987 50.195641 123 60 70
-1.282509 7.451839 50.038834 124 59 69
-1.278551 7.536376 49.884403 124 57 67
-1.274653 7.620608 49.732334 123 56 66
-1.270814 7.704540 49.582558 121 55 65
-1.267031 7.788169 49.434952 120 54 65
-1.263300 7.871484 49.289364 119 54 67
-1.259615 7.954467 49.145603 119 54 69
-1.255973 8.037104 49.003510 119 54 70
-1.252370 8.119378 48.862926 118 55 72
-1.248803 8.201282 48.723736 119 55 74
-1.245269 8.282807 48.585854 120 55 74
-1.241768 8.363961 48.449257 121 56 75
-1.238300 8.444752 48.313953 121 57 74
-1.234867 8.525200 48.180008 123 57 74
-1.231472 8.605334 48.047539 124 59 74
-1.228118 8.685194 47.916706 125 60 75
-1.224812 8.764824 47.787693 127 61 75
-1.221557 8.844275 47.660721 127 62 76
-1.218361 8.923609 47.536030 127 63 76
-1.215231 9.002888 47.413883 127 63 77
-1.212172 9.082178 47.294540 126 62 77
-1.209192 9.161549 47.178257 126 62 77
-1.206296 9.241067 47.065281 125 62 78
-1.203491 9.320800 46.955845 125 61 78
-1.200782 9.400814 46.850155 124 61 78
-1.198174 9.481169 46.748398 123 61 77
-1.195671 9.561922 46.650719 122 61 77
-1.193275 9.643122 46.557236 122 62 78
-1.190988 9.724814 46.468025 123 62 79
-1.188812 9.807032 46.383121 124 63 79
-1.186745 9.889796 46.302490 124 62 80
-1.184787 9.973120 46.226063 125 62 79
-1.182932 10.057000 46.153702 124 61 77
-1.181176 10.141419 46.085209 123 60 75
-1.179513 10.226344 46.020317 123 60 73
-1.177934 10.311719 45.958683 123 61 73
-1.176427 10.397473 45.899895 124 62 74
-1.174981 10.483516 45.843472 124 63 74
-1.173581 10.569736 45.788876 124 63 75
-1.172213 10.656002 45.735485 122 63 74
-1.170859 10.742172 45.682667 120 61 73
-1.169502 10.828085 45.629726 118 59 72
-1.168125 10.913578 45.575981 117 59 72
-1.166709 10.998476 45.520737 117 59 74
-1.165238 11.082612 45.463341 118 58 75
-1.163696 11.165820 45.403179 118 59 75
-1.162069 11.247951 45.339714 118 60 76
-1.160346 11.328865 45.272491 118 60 76
-1.158518 11.408452 45.201153 117 60 75
-1.336227 -1.707604 56.922218 126 78 108
-1.335263 -1.583755 56.881149 125 77 106
-1.334291 -1.460075 56.839737 123 75 104
-1.333299 -1.336554 56.797504 121 73 101
-1.332278 -1.213187 56.754002 119 72 100
-1.331217 -1.089977 56.708824 117 71 98
-1.330109 -0.966926 56.661625 116 71 98
-1.328948 -0.844045 56.612152 115 72 99
-1.327729 -0.721346 56.560207 114 73 100
-1.326450 -0.598844 56.505722 116 73 101
-1.325111 -0.476555 56.448704 118 74 103
-1.323716 -0.354497 56.389267 121 76 105
-1.322269 -0.232686 56.327633 126 79 108
-1.320779 -0.111137 56.264141 127 78 107
-1.319254 0.010137 56.199188 125 75 103
-1.317707 0.131130 56.133278 124 72 99
-1.316150 0.251836 56.066940 124 71 97
-1.314596 0.372258 56.000774 126 72 98
-1.313061 0.492401 55.935360 129 73 99
-1.311556 0.612276 55.871265 130 74 98
-1.310095 0.731900 55.809036 126 70 93
-1.308689 0.851290 55.749115 120 66 87
-1.307345 0.970469 55.691883 120 68 87
-1.306071 1.089459 55.637596 123 72 90
-1.304869 1.208282 55.586395 126 75 94
-1.303740 1.326958 55.538288 128 77 98
-1.302680 1.445504 55.493145 128 79 101
-1.301684 1.563933 55.450737 128 78 103
-1.300745 1.682251 55.410721 126 77 104
-1.299852 1.800460 55.372665 124 76 103
-1.298993 1.918556 55.336067 123 77 103
-1.298156 2.036529 55.300411 124 79 104
-1.297327 2.154363 55.265133 127 82 105
-1.296496 2.272039 55.229717 128 84 106
-1.295649 2.389534 55.193630 130 85 106
-1.294776 2.506822 55.156445 129 86 106
-1.293867 2.623878 55.117741 129 87 107
-1.292915 2.740675 55.077175 131 89 109
-1.291912 2.857185 55.034458 132 92 112
-1.290854 2.973383 54.989365 135 95 115
-1.289735 3.089241 54.941700 138 98 118
-1.288552 3.204735 54.891315 139 100 120
-1.287303 3.319840 54.838089 140 100 120
-1.285984 3.434531 54.781925 140 100 120
-1.284595 3.548785 54.722748 140 99 120
-1.283134 3.662578 54.660500 141 98 120
-1.281600 3.775888 54.595150 140 97 120
-1.279993 3.888694 54.526688 139 95 119
-1.278313 4.000978 54.455128 140 95 121
-1.276562 4.112723 54.380535 144 97 124
-1.274741 4.223917 54.302979 145 95 124
-1.272854 4.334549 54.222588 142 90 120
-1.270903 4.444613 54.139492 139 86 117
-1.268893 4.554102 54.053833 140 86 116
-1.266825 4.663013 53.965752 145 90 119
-1.264703 4.771340 53.875359 146 90 118
-1.262528 4.879073 53.782719 141 85 111
-1.260301 4.986200 53.687855 133 77 101
-1.258020 5.092699 53.590683 126 72 93
-1.255682 5.198540 53.491055 123 72 89
-1.253280 5.303684 53.388741 121 74 89
-1.250808 5.408085 53.283436 115 74 86
-1.248257 5.511682 53.174770 109 74 84
-1.245618 5.614414 53.062347 104 76 84
-1.242882 5.716214 52.945786 97 76 82
-1.240039 5.817015 52.824711 86 68 74
-1.237085 5.916755 52.698841 71 55 61
-1.234013 6.015381 52.567978 59 42 49
-1.230822 6.112853 52.432049 57 36 44
-1.227514 6.209146 52.291134 61 35 45
-1.224094 6.304254 52.145443 70 39 50
-1.220571 6.398193 51.995354 82 46 58
-1.216956 6.490996 51.841358 90 50 62
-1.213263 6.582715 51.684063 95 51 64
-1.209509 6.673417 51.524158 99 52 67
-1.205711 6.763182 51.362370 103 54 70
-1.201887 6.852097 51.199436 106 55 72
-1.198052 6.940252 51.036083 110 56 74
-1.194223 7.027735 50.872967 113 57 75
-1.190413 7.114630 50.710674 116 58 75
-1.186634 7.201013 50.549690 119 59 75
-1.182895 7.286944 50.390388 122 60 74
-1.179201 7.372475 50.233036 124 60 73
-1.175557 7.457642 50.077793 125 60 71
-1.171963 7.542465 49.924713 125 59 69
-1.168420 7.626956 49.773758 125 57 68
-1.164924 7.711110 49.624836 123 57 67
-1.161472 7.794921 49.477806 122 56 67
-1.158061 7.878373 49.332497 122 56 68
-1.154686 7.961447 49.188732 121 56 69
-1.151343 8.044126 49.046326 120 56 70
-1.148029 8.126391 48.905132 120 56 72
-1.144740 8.208236 48.765049 120 56 73
-1.141477 8.289653 48.626011 120 56 73
-1.138237 8.370649 48.487999 120 57 73
-1.135023 8.451240 48.351070 121 58 73
-1.131835 8.531445 48.215302 122 59 73
-1.128679 8.611299 48.080841 124 60 74
-1.125558 8.690847 47.947899 125 62 75
-1.122478 8.770141 47.816681 127 63 76
-1.119444 8.849236 47.687450 127 64 76
-1.116464 8.928199 47.560478 127 64 76
-1.113543 9.007099 47.436062 127 63 76
-1.110689 9.086010 47.314495 127 62 76
-1.107909 9.165006 47.196064 127 62 76
-1.105209 9.244159 47.081032 126 62 76
-1.102594 9.323541 46.969654 125 61 76
-1.100071 9.403224 46.862167 123 60 75
-1.097644 9.483271 46.758762 123 60 75
-1.095316 9.563742 46.659599 123 60 76
-1.093091 9.644690 46.564804 122 61 77
-1.090970 9.726161 46.474464 123 61 77
-1.088954 9.808192 46.388611 124 60 78
-1.087044 9.890808 46.307228 125 60 78
-1.085237 9.974021 46.230240 124 60 78
-1.083530 10.057831 46.157516 124 59 76
-1.081918 10.142220 46.088848 123 59 74
-1.080395 10.227157 46.023975 123 59 73
-1.078953 10.312585 45.962543 124 61 74
-1.077582 10.398434 45.904137 124 63 75
-1.076270 10.484609 45.848251 124 64 76
-1.075004 10.570996 45.794338 124 64 77
-1.073770 10.657463 45.741756 122 63 76
-1.072551 10.743857 45.689835 120 62 76
-1.071331 10.830012 45.637848 119 61 74
-1.070092 10.915755 45.585075 118 60 74
-1.068817 11.000901 45.530773 118 59 75
-1.067490 11.085269 45.474239 118 59 75
-1.066095 11.168683 45.414818 119 59 75
-1.064618 11.250976 45.351910 119 59 76
-1.063048 11.331999 45.285011 118 59 76
-1.061375 11.411626 45.213726 117 60 75
-1.215444 -1.710309 57.012386 123 75 101
-1.214562 -1.586257 56.971008 123 76 102
-1.213675 -1.462378 56.929386 124 76 102
-1.212773 -1.338662 56.887096 123 75 102
-1.211848 -1.215105 56.843719 120 73 100
-1.210893 -1.091708 56.798897 117 72 98
-1.209899 -0.968473 56.752304 116 72 99
-1.208863 -0.845410 56.703693 115 73 100
-1.207780 -0.722528 56.652901 114 74 101
-1.206649 -0.599841 56.599827 116 75 102
-1.205469 -0.477364 56.544487 117 75 102
-1.204243 -0.355111 56.486980 121 77 106
-1.202975 -0.233099 56.427494 125 80 109
-1.201671 -0.111339 56.366341 126 78 108
-1.200339 0.010156 56.303867 125 76 105
-1.198989 0.131381 56.240540 125 74 102
-1.197631 0.252330 56.176849 125 73 99
-1.196277 0.373006 56.113327 126 74 100
-1.194938 0.493415 56.050518 129 75 100
-1.193625 0.613566 55.988953 130 75 100
-1.192349 0.733474 55.929096 126 71 94
-1.191119 0.853158 55.871387 120 66 88
-1.189941 0.972635 55.816139 120 67 89
-1.188821 1.091926 55.763592 123 72 92
-1.187761 1.211053 55.713863 125 75 96
-1.186760 1.330032 55.666931 127 77 100
-1.185816 1.448878 55.622658 128 79 103
-1.184924 1.567601 55.580814 128 78 105
-1.184077 1.686208 55.541065 125 77 105
-1.183265 1.804698 55.502983 122 75 103
-1.182479 1.923064 55.466087 120 74 102
-1.181706 2.041296 55.429863 122 77 103
-1.180938 2.159379 55.393803 125 81 105
-1.180161 2.277291 55.357391 127 84 106
-1.179367 2.395011 55.320152 128 85 105
-1.178547 2.512513 55.281654 128 85 104
-1.177691 2.629771 55.241531 128 86 105
-1.176794 2.746760 55.199455 130 89 108
-1.175850 2.863451 55.155151 133 92 111
-1.174853 2.979820 55.108410 137 95 116
-1.173801 3.095840 55.059052 140 99 120
-1.172690 3.211485 55.006920 141 99 121
-1.171516 3.326729 54.951881 141 98 121
-1.170279 3.441547 54.893829 140 96 120
-1.168975 3.555913 54.832661 140 96 120
-1.167602 3.669801 54.768299 140 96 121
-1.166161 3.783186 54.700676 140 95 120
-1.164648 3.896043 54.629734 138 93 120
-1.163065 4.008350 54.555466 138 92 120
-1.161411 4.120086 54.477894 139 93 121
-1.159688 4.231236 54.397076 140 92 121
-1.157898 4.341784 54.313099 139 90 119
-1.156043 4.451722 54.226093 138 87 116
-1.154127 4.561042 54.136200 139 87 116
-1.152152 4.669738 54.043575 143 88 117
-1.150122 4.777806 53.948368 144 88 116
-1.148040 4.885239 53.850685 137 82 108
-1.145906 4.992028 53.750603 129 75 98
-1.143721 5.098156 53.648117 125 72 92
-1.141484 5.203604 53.543167 123 72 89
-1.139191 5.308342 53.435619 121 75 89
-1.136838 5.412329 53.325253 117 76 87
-1.134420 5.515521 53.211807 111 77 86
-1.131929 5.617867 53.094978 106 77 86
-1.129359 5.719309 52.974453 99 75 83
-1.126705 5.819794 52.849949 88 68 75
-1.123961 5.919268 52.721226 74 56 63
-1.121123 6.017687 52.588127 62 43 52
-1.118191 6.115015 52.450596 59 37 46
-1.115167 6.211232 52.308704 61 35 46
-1.112053 6.306335 52.162655 69 38 50
-1.108858 6.400337 52.012779 80 44 57
-1.105590 6.493268 51.859501 87 48 61
-1.102262 6.585176 51.703384 93 50 63
-1.098886 6.676120 51.545025 98 52 66
-1.095476 6.766174 51.385086 103 53 69
-1.092046 6.855412 51.224213 106 55 72
-1.088611 6.943919 51.063053 110 56 74
-1.085181 7.031772 50.902187 113 57 76
-1.081769 7.119044 50.742134 116 58 77
-1.078383 7.205802 50.583313 119 59 77
-1.075030 7.292100 50.426041 122 60 77
-1.071715 7.377979 50.270538 124 60 76
-1.068440 7.463468 50.116917 126 60 74
-1.065205 7.548583 49.965202 126 59 72
-1.062011 7.633327 49.815338 126 58 70
-1.058852 7.717693 49.667202 125 58 68
-1.055728 7.801669 49.520638 124 58 68
-1.052633 7.885237 49.375484 123 57 69
-1.049565 7.968376 49.231541 123 57 70
-1.046518 8.051067 49.088650 122 57 71
-1.043491 8.133292 48.946663 121 57 72
-1.040482 8.215042 48.805489 121 57 73
-1.037489 8.296316 48.665092 121 57 73
-1.034512 8.377120 48.525482 121 58 73
-1.031554 8.457471 48.386723 121 59 73
-1.028617 8.537396 48.248940 122 60 73
-1.025704 8.616937 48.112320 123 61 74
-1.022821 8.696138 47.977085 125 62 75
-1.019973 8.775060 47.843498 126 63 76
-1.017166 8.853763 47.711845 127 64 76
-1.014407 8.932321 47.582436 127 64 76
-1.011703 9.010810 47.455605 126 63 75
-1.009061 9.089307 47.331665 127 63 74
-1.006487 9.167893 47.210934 128 63 76
-1.003988 9.246647 47.093704 127 63 77
-1.001569 9.325643 46.980244 125 61 75
-0.999236 9.404958 46.870811 122 58 73
-0.996994 9.484660 46.765614 122 58 74
-0.994845 9.564813 46.664822 122 59 75
-0.992793 9.645470 46.568569 123 59 76
-0.990840 9.726684 46.476959 123 59 77
-0.988986 9.808492 46.390026 123 58 77
-0.987232 9.890920 46.307751 123 58 77
-0.985576 9.973983 46.230064 123 58 76
-0.984015 10.057685 46.156845 123 57 75
-0.982545 10.142007 46.087879 122 57 73
-0.981160 10.226917 46.022900 122 59 73
-0.979852 10.312363 45.961548 124 62 75
-0.978612 10.398270 45.903408 125 63 77
-0.977430 10.484541 45.847958 124 64 77
-0.976293 10.571063 45.794624 122 63 77
-0.975187 10.657696 45.742760 121 63 77
-0.974098 10.744282 45.691639 120 62 76
-0.973008 10.830649 45.640533 119 61 75
-0.971902 10.916613 45.588657 119 61 75
-0.970763 11.001979 45.535233 118 60 75
-0.969575 11.086555 45.479515 118 60 75
-0.968323 11.170150 45.420780 119 60 75
-0.966993 11.252585 45.358398 119 60 75
-0.965573 11.333697 45.291801 119 59 76
-0.964054 11.413348 45.220551 118 59 76
-1.094276 -1.713019 57.102745 120 73 97
-1.093475 -1.588761 57.060940 122 75 99
-1.092671 -1.464680 57.018997 124 77 102
-1.091857 -1.340767 56.976532 124 77 102
-1.091027 -1.217018 56.933178 121 75 101
-1.090173 -1.093432 56.888607 118 73 100
-1.089290 -0.970013 56.842533 116 72 100
-1.088373 -0.846767 56.794720 115 73 102
-1.087421 -0.723703 56.745010 115 75 103
-1.086430 -0.600832 56.693317 117 77 104
-1.085401 -0.478167 56.639633 119 78 105
-1.084336 -0.355722 56.584038 122 80 108
-1.083237 -0.233509 56.526707 125 81 111
-1.082110 -0.111540 56.467899 125 79 110
-1.080961 0.010175 56.407944 125 77 107
-1.079798 0.131630 56.347240 124 76 105
-1.078629 0.252821 56.286240 125 75 103
-1.077464 0.373751 56.225422 126 76 103
-1.076311 0.494425 56.165272 129 77 102
-1.075180 0.614852 56.106266 130 76 102
-1.074080 0.735045 56.048851 126 73 96
-1.073017 0.855021 55.993393 122 69 91
-1.071998 0.974796 55.940178 121 70 92
-1.071025 1.094390 55.889408 123 73 95
-1.070100 1.213820 55.841179 125 75 99
-1.069224 1.333102 55.795441 126 78 103
-1.068392 1.452248 55.752041 126 79 106
-1.067601 1.571267 55.710762 126 79 108
-1.066844 1.690161 55.671249 124 77 107
-1.066113 1.808929 55.633102 121 75 105
-1.065399 1.927563 55.595848 119 75 103
-1.064693 2.046052 55.558994 121 78 104
-1.063985 2.164378 55.522053 124 82 106
-1.063266 2.282522 55.484550 127 86 107
-1.062528 2.400460 55.446018 128 87 106
-1.061762 2.518168 55.406082 128 86 105
-1.060963 2.635619 55.364372 129 87 105
-1.060125 2.752789 55.320610 131 89 108
-1.059242 2.869649 55.274532 135 92 111
-1.058310 2.986175 55.225941 138 95 114
-1.057328 3.102340 55.174667 140 96 117
-1.056291 3.218119 55.120556 141 96 119
-1.055197 3.333484 55.063469 140 95 118
-1.054043 3.448409 55.003281 140 93 118
-1.052828 3.562865 54.939865 139 93 119
-1.051549 3.676824 54.873116 140 94 120
-1.050204 3.790259 54.802933 139 93 120
-1.048792 3.903139 54.729237 137 91 118
-1.047311 4.015441 54.651981 135 90 118
-1.045763 4.127140 54.571159 135 90 119
-1.044146 4.238215 54.486797 135 89 118
-1.042463 4.348649 54.398972 136 89 118
-1.040716 4.458430 54.307800 136 88 116
-1.038907 4.567549 54.213436 138 88 115
-1.037041 4.676001 54.116062 141 89 116
-1.035121 4.783782 54.015850 141 87 113
-1.033149 4.890889 53.912964 135 80 105
-1.031129 4.997316 53.807545 128 75 97
-1.029062 5.103056 53.699677 126 73 93
-1.026948 5.208096 53.589378 124 74 91
-1.024787 5.312413 53.476604 123 76 89
-1.022577 5.415983 53.361256 119 78 89
-1.020314 5.518770 53.243149 115 78 88
-1.017993 5.620734 53.122074 109 77 86
-1.015612 5.721831 52.997810 101 75 84
-1.013165 5.822017 52.870140 90 68 77
-1.010650 5.921249 52.738865 77 56 65
-1.008063 6.019488 52.603867 65 44 54
-1.005404 6.116706 52.465107 60 37 48
-1.002674 6.212887 52.322636 62 35 48
-0.999876 6.308026 52.176643 69 38 52
-0.997016 6.402135 52.027386 78 44 58
-0.994100 6.495240 51.875252 86 47 61
-0.991139 6.587383 51.720718 92 49 63
-0.988141 6.678617 51.564308 98 52 66
-0.985119 6.769004 51.406582 103 54 69
-0.982082 6.858611 51.248108 106 54 71
-0.979042 6.947508 51.089447 109 54 73
-0.976007 7.035765 50.931095 112 56 75
-0.972987 7.123445 50.773499 116 59 78
-0.969988 7.210603 50.617016 119 60 79
-0.967016 7.297286 50.461899 121 60 79
-0.964073 7.383524 50.308323 123 60 79
-0.961160 7.469341 50.156357 125 60 77
-0.958279 7.554746 50.005997 125 59 74
-0.955427 7.639737 49.857170 125 58 71
-0.952602 7.724300 49.709724 125 58 70
-0.949800 7.808424 49.563522 125 58 69
-0.947018 7.892087 49.418373 125 58 70
-0.944253 7.975264 49.274094 124 58 71
-0.941502 8.057937 49.130535 124 58 72
-0.938763 8.140089 48.987564 124 58 73
-0.936033 8.221712 48.845116 123 58 73
-0.933313 8.302806 48.703163 123 58 74
-0.930603 8.383382 48.561756 123 58 73
-0.927905 8.463460 48.420986 122 59 73
-0.925223 8.543072 48.281013 123 59 73
-0.922560 8.622261 48.142052 123 60 73
-0.919921 8.701082 48.004364 125 61 74
-0.917313 8.779600 47.868256 126 62 74
-0.914741 8.857881 47.734032 126 63 74
-0.912211 8.936002 47.602047 126 63 74
-0.909732 9.014048 47.472656 126 63 74
-0.907309 9.092103 47.346222 127 63 74
-0.904949 9.170250 47.223068 128 64 77
-0.902658 9.248573 47.103516 128 64 77
-0.900442 9.327156 46.987865 124 61 74
-0.898305 9.406075 46.876373 122 58 73
-0.896253 9.485402 46.769268 122 58 74
-0.894288 9.565205 46.666737 123 58 76
-0.892413 9.645543 46.568928 123 58 76
-0.890631 9.726469 46.475933 124 58 77
-0.888943 9.808022 46.387806 124 57 77
-0.887347 9.890232 46.304531 124 57 76
-0.885843 9.973116 46.226048 123 56 75
-0.884428 10.056677 46.152218 122 56 73
-0.883099 10.140899 46.082844 121 56 72
-0.881849 10.225750 46.017643 123 60 74
-0.880673 10.311177 45.956268 126 65 78
-0.879562 10.397106 45.898273 127 66 79
-0.878505 10.483439 45.843140 123 63 77
-0.877492 10.570058 45.790272 120 61 76
-0.876509 10.656818 45.738991 119 61 76
-0.875543 10.743558 45.688564 119 61 75
-0.874578 10.830098 45.638206 118 60 75
-0.873599 10.916244 45.587112 118 60 75
-0.872590 11.001792 45.534458 118 60 75
-0.871535 11.086537 45.479443 118 60 75
-0.870421 11.170279 45.421307 119 60 76
-0.869234 11.252824 45.359360 120 60 76
-0.867962 11.333996 45.292995 120 60 76
-0.866597 11.413645 45.221725 119 59 76
-0.972713 -1.715720 57.192760 119 73 95
-0.971993 -1.591253 57.150429 121 75 97
-0.971272 -1.466967 57.108055 124 77 101
-0.970545 -1.342856 57.065319 124 77 102
-0.969807 -1.218914 57.021889 121 75 101
-0.969051 -1.095140 56.977486 118 74 100
-0.968275 -0.971537 56.931847 116 73 101
-0.967474 -0.848109 56.884754 116 74 103
-0.966646 -0.724864 56.836063 117 76 104
-0.965790 -0.601811 56.785698 119 79 106
-0.964904 -0.478960 56.733624 121 80 108
-0.963991 -0.356324 56.679928 122 80 109
-0.963052 -0.233913 56.624725 123 80 109
-0.962092 -0.111738 56.568272 123 79 109
-0.961115 0.010194 56.510834 123 78 108
-0.960127 0.131876 56.452774 123 77 106
-0.959136 0.253308 56.394485 124 77 105
-0.958148 0.374489 56.336403 126 78 104
-0.957171 0.495426 56.278957 128 78 104
-0.956212 0.616126 56.222580 128 77 102
-0.955278 0.736603 56.167645 126 74 98
-0.954374 0.856870 56.114487 122 72 94
-0.953504 0.976942 56.063351 122 72 94
-0.952672 1.096838 56.014408 123 74 97
-0.951877 1.216571 55.967705 124 76 101
-0.951120 1.336155 55.923191 125 78 104
-0.950398 1.455599 55.880695 125 79 108
-0.949705 1.574911 55.839985 125 79 109
-0.949037 1.694091 55.800720 123 79 109
-0.948387 1.813136 55.762486 121 79 108
-0.947747 1.932035 55.724842 120 79 107
-0.947109 2.050777 55.687309 122 82 107
-0.946464 2.169344 55.649429 125 86 108
-0.945807 2.287714 55.610748 127 88 108
-0.945128 2.405864 55.570831 128 89 107
-0.944422 2.523770 55.529331 129 88 106
-0.943683 2.641405 55.485916 130 88 106
-0.942908 2.758745 55.440315 132 90 108
-0.942091 2.875763 55.392296 136 92 111
-0.941230 2.992433 55.341675 137 93 112
-0.940322 3.108729 55.288300 138 93 113
-0.939365 3.224626 55.231998 138 91 113
-0.938355 3.340094 55.172642 138 91 114
-0.937291 3.455105 55.110077 139 91 115
-0.936171 3.569630 55.044178 140 91 117
-0.934991 3.683638 54.974804 140 92 118
-0.933749 3.797098 54.901821 139 92 119
-0.932445 3.909978 54.825127 136 91 118
-0.931076 4.022249 54.744637 134 89 117
-0.929642 4.133883 54.660320 132 88 117
-0.928143 4.244857 54.572189 132 89 117
-0.926580 4.355150 54.480297 136 91 120
-0.924956 4.464749 54.384773 138 92 120
-0.923272 4.573643 54.285767 139 91 118
-0.921532 4.681828 54.183495 139 89 115
-0.919741 4.789301 54.078163 137 86 109
-0.917901 4.896063 53.970001 133 80 102
-0.916017 5.002114 53.859211 130 76 97
-0.914091 5.107454 53.745956 128 75 94
-0.912125 5.212078 53.630356 126 76 92
-0.910119 5.315973 53.512444 125 77 90
-0.908075 5.419127 53.392231 122 79 90
-0.905990 5.521515 53.269638 118 79 89
-0.903862 5.623110 53.144535 111 77 87
-0.901689 5.723880 53.016788 103 74 83
-0.899469 5.823789 52.886227 93 68 77
-0.897198 5.922804 52.752720 79 56 66
-0.894876 6.020895 52.616158 66 43 54
-0.892501 6.118037 52.476521 60 36 48
-0.890074 6.214218 52.333847 62 35 48
-0.887598 6.309431 52.188263 69 39 52
-0.885077 6.403688 52.040005 78 44 59
-0.882515 6.497008 51.889374 86 48 62
-0.879919 6.589428 51.736771 92 50 64
-0.877298 6.680990 51.582626 98 52 66
-0.874658 6.771747 51.427414 103 54 68
-0.872008 6.861756 51.271610 105 53 69
-0.869356 6.951076 51.115685 108 54 71
-0.866709 7.039764 50.960045 112 56 74
-0.864073 7.127873 50.805061 116 59 78
-0.861453 7.215448 50.651024 119 59 80
-0.858853 7.302526 50.498142 121 59 80
-0.856274 7.389131 50.346519 122 59 79
-0.853718 7.475276 50.196205 124 58 78
-0.851183 7.560965 50.047161 124 58 75
-0.848668 7.646191 49.899292 124 58 73
-0.846171 7.730938 49.752445 125 58 71
-0.843688 7.815188 49.606453 125 58 71
-0.841217 7.898920 49.461159 126 58 72
-0.838754 7.982109 49.316383 126 59 73
-0.836298 8.064734 49.171974 126 59 74
-0.833847 8.146781 49.027840 126 59 75
-0.831399 8.228245 48.883926 126 59 75
-0.828955 8.309126 48.740234 125 59 75
-0.826517 8.389440 48.596844 125 59 75
-0.824085 8.469211 48.453888 125 59 75
-0.821665 8.548476 48.311558 125 60 74
-0.819259 8.627284 48.170097 125 60 74
-0.816873 8.705695 48.029812 126 61 74
-0.814513 8.783778 47.891037 126 62 74
-0.812184 8.861608 47.754116 127 63 74
-0.809893 8.939267 47.619442 127 63 74
-0.807648 9.016846 47.487392 127 63 74
-0.805453 9.094433 47.358353 128 64 75
-0.803316 9.172117 47.232685 128 64 76
-0.801241 9.249990 47.110729 127 63 75
-0.799236 9.328134 46.992790 124 61 74
-0.797303 9.406634 46.879166 123 59 74
-0.795448 9.485567 46.770081 123 58 75
-0.793673 9.565001 46.665737 123 57 76
-0.791982 9.644997 46.566288 124 57 76
-0.790375 9.725613 46.471844 124 57 77
-0.788855 9.806890 46.382446 124 57 77
-0.787421 9.888859 46.298100 124 57 77
-0.786071 9.971539 46.218731 123 56 76
-0.784803 10.054932 46.144211 122 55 73
-0.783615 10.139027 46.074333 120 55 71
-0.782501 10.223789 46.008823 124 61 75
-0.781454 10.309166 45.947304 130 68 81
-0.780469 10.395084 45.889347 130 70 83
-0.779534 10.481441 45.834400 122 63 77
-0.778640 10.568116 45.781860 117 59 73
-0.777776 10.654962 45.731022 117 59 74
-0.776927 10.741812 45.681137 117 59 75
-0.776081 10.828478 45.631378 117 59 75
-0.775223 10.914757 45.580906 117 59 75
-0.774338 11.000440 45.528862 117 60 75
-0.773411 11.085309 45.474403 119 60 76
-0.772430 11.169151 45.416721 120 60 76
-0.771382 11.251762 45.355083 120 60 76
-0.770255 11.332955 45.288837 120 60 76
-0.769041 11.412566 45.217453 120 60 76
-0.850748 -1.718394 57.281906 119 74 96
-0.850111 -1.593718 57.238976 121 76 99
-0.849474 -1.469229 57.196110 124 78 102
-0.848834 -1.344920 57.153019 123 77 102
-0.848187 -1.220785 57.109436 120 75 102
-0.847529 -1.096825 57.065117 117 74 101
-0.846856 -0.973039 57.019825 116 74 102
-0.846166 -0.849431 56.973381 116 75 104
-0.845457 -0.726007 56.925644 117 77 106
-0.844728 -0.602774 56.876534 119 80 108
-0.843978 -0.479741 56.826031 122 82 110
-0.843208 -0.356917 56.774170 122 81 109
-0.842419 -0.234311 56.721077 120 79 107
-0.841615 -0.111933 56.666939 120 78 107
-0.840799 0.010212 56.612007 121 78 106
-0.839976 0.132119 56.556580 121 77 106
-0.839151 0.253786 56.501015 123 78 105
-0.838329 0.375216 56.445686 125 79 105
-0.837516 0.496412 56.390968 127 80 105
-0.836718 0.617383 56.337234 126 77 102
-0.835940 0.738140 56.284832 124 75 98
-0.835185 0.858695 56.234020 122 75 96
-0.834457 0.979062 56.185013 122 75 96
-0.833758 1.099257 56.137936 122 76 98
-0.833088 1.219290 56.092815 123 78 102
-0.832446 1.339174 56.049568 124 79 105
-0.831829 1.458916 56.008022 124 81 109
-0.831233 1.578519 55.967911 124 82 111
-0.830654 1.697983 55.928909 123 82 112
-0.830085 1.817302 55.890610 121 82 111
-0.829520 1.936464 55.852577 121 83 110
-0.828952 2.055456 55.814350 124 86 111
-0.828375 2.174258 55.775497 127 89 111
-0.827783 2.292850 55.735588 128 90 110
-0.827168 2.411206 55.694221 129 90 109
-0.826527 2.529303 55.651073 130 90 108
-0.825856 2.647114 55.605839 131 89 107
-0.825149 2.764615 55.558281 132 90 107
-0.824405 2.881779 55.508183 134 91 109
-0.823621 2.998581 55.455383 136 92 110
-0.822794 3.114995 55.399719 136 91 110
-0.821923 3.230993 55.341053 135 88 109
-0.821005 3.346546 55.279224 135 87 109
-0.820037 3.461626 55.214092 137 89 111
-0.819019 3.576200 55.145496 139 91 114
-0.817946 3.690236 55.073277 141 93 117
-0.816817 3.803700 54.997284 140 94 119
-0.815631 3.916557 54.917377 138 93 119
-0.814384 4.028774 54.833454 134 91 117
-0.813077 4.140322 54.745457 130 88 115
-0.811710 4.251172 54.653378 131 90 117
-0.810282 4.361304 54.557270 139 97 124
-0.808797 4.470700 54.457256 143 100 126
-0.807256 4.579351 54.353512 141 95 121
-0.805663 4.687252 54.246265 138 91 114
-0.804022 4.794404 54.135784 135 85 107
-0.802338 4.900812 54.022346 132 81 101
-0.800613 5.006480 53.906219 131 78 97
-0.798852 5.111417 53.787659 130 78 95
-0.797058 5.215626 53.666866 128 77 92
-0.795233 5.319107 53.543987 126 77 90
-0.793378 5.421855 53.419109 123 78 89
-0.791494 5.523860 53.292252 119 78 89
-0.789580 5.625104 53.163380 113 77 87
-0.787635 5.725567 53.032417 105 73 83
-0.785658 5.825225 52.899273 95 67 77
-0.783646 5.924053 52.763844 81 56 66
-0.781600 6.022027 52.626053 66 42 53
-0.779518 6.119126 52.485859 61 36 48
-0.777400 6.215340 52.343300 63 36 48
-0.775249 6.310664 52.198463 69 38 52
-0.773067 6.405103 52.051506 78 43 58
-0.770856 6.498673 51.902676 86 48 62
-0.768623 6.591402 51.752270 92 50 64
-0.766370 6.683323 51.600639 97 51 64
-0.764106 6.774478 51.448158 101 52 66
-0.761834 6.864914 51.295212 104 53 67
-0.759561 6.954679 51.142174 108 54 69
-0.757292 7.043815 50.989368 112 56 72
-0.755030 7.132366 50.837090 115 58 76
-0.752780 7.220367 50.685555 117 58 78
-0.750542 7.307844 50.534912 119 57 78
-0.748319 7.394811 50.385227 121 57 78
-0.746111 7.481278 50.236511 123 57 78
-0.743915 7.567240 50.088699 123 57 76
-0.741732 7.652687 49.941681 123 56 73
-0.739558 7.737597 49.795292 124 56 72
-0.737391 7.821951 49.649380 125 57 72
-0.735228 7.905727 49.503784 126 58 73
-0.733068 7.988898 49.358334 127 59 75
-0.730908 8.071446 49.212902 127 60 77
-0.728747 8.153358 49.067421 128 60 78
-0.726585 8.234630 48.921856 128 60 78
-0.724423 8.315267 48.776257 128 60 78
-0.722261 8.395288 48.630722 128 60 78
-0.720103 8.474723 48.485424 128 61 78
-0.717952 8.553612 48.340580 128 61 77
-0.715812 8.632010 48.196487 127 61 76
-0.713688 8.709985 48.053478 127 62 75
-0.711586 8.787609 47.911926 127 62 75
-0.709511 8.864964 47.772205 127 62 75
-0.707469 8.942141 47.634747 127 63 75
-0.705467 9.019231 47.499954 127 63 75
-0.703511 9.096332 47.368240 127 63 76
-0.701606 9.173536 47.239990 127 63 76
-0.699758 9.250940 47.115570 125 62 76
-0.697972 9.328633 46.995308 124 60 75
-0.696252 9.406702 46.879501 124 59 76
-0.694602 9.485225 46.768394 124 58 77
