ply
format ascii 1.0
element vertex 1213
property float x
property float y
property float z
property uchar red
property uchar green
property uchar blue
end_header
-0.598368 -1.702971 56.767803 157 112 142
-0.597306 -1.577792 56.666992 169 123 155
-0.596187 -1.452911 56.560875 151 102 135
-0.595016 -1.328369 56.449707 134 79 114
-0.593794 -1.204205 56.333797 132 75 109
-0.592526 -1.080456 56.213490 131 74 104
-0.591215 -0.957157 56.089134 131 75 102
-0.589866 -0.834339 55.961140 134 79 102
-0.588482 -0.712031 55.829853 132 79 99
-0.587067 -0.590259 55.695652 128 76 93
-0.585625 -0.469043 55.558861 129 78 94
-0.584160 -0.348402 55.419796 136 86 100
-0.582673 -0.228353 55.278740 143 94 107
-0.581168 -0.108909 55.135933 141 94 106
-0.579646 0.009920 54.991608 133 88 99
-0.578112 0.128123 54.846004 129 84 96
-0.576566 0.245694 54.699341 134 90 104
-0.575011 0.362626 54.551849 137 94 109
-0.573450 0.478919 54.403793 135 92 108
-0.571887 0.594569 54.255463 134 91 110
-0.570324 0.709581 54.107182 136 92 114
-0.568765 0.823960 53.959316 139 95 119
-0.567215 0.937715 53.812241 141 96 122
-0.565677 1.050860 53.666374 141 96 123
-0.564157 1.163411 53.522137 143 98 125
-0.562658 1.275390 53.379959 146 100 126
-0.561186 1.386820 53.240227 146 100 126
-0.559743 1.497727 53.103352 146 101 124
-0.558334 1.608141 52.969666 145 101 122
-0.556961 1.718093 52.839470 143 100 120
-0.555629 1.827613 52.713020 143 100 119
-0.554337 1.936733 52.590515 145 102 121
-0.553089 2.045484 52.472095 145 103 121
-0.551885 2.153898 52.357883 142 102 118
-0.550726 2.262003 52.247936 141 102 118
-0.549613 2.369832 52.142319 140 102 118
-0.548546 2.477414 52.041084 139 101 117
-0.547526 2.584781 51.944294 140 101 118
-0.546553 2.691965 51.852028 140 102 120
-0.545630 2.799003 51.764416 139 101 120
-0.544757 2.905934 51.681602 138 100 120
-0.543937 3.012800 51.603809 137 99 120
-0.543172 3.119649 51.531277 135 97 119
-0.542466 3.226534 51.464302 132 94 116
-0.541822 3.333512 51.403206 132 94 117
-0.541244 3.440643 51.348328 136 97 120
-0.540734 3.547990 51.299999 137 99 121
-0.540297 3.655619 51.258541 134 97 119
-0.539936 3.763593 51.224216 130 92 115
-0.539651 3.871974 51.197231 126 88 111
-0.539445 3.980818 51.177692 123 84 106
-0.539318 4.090174 51.165604 118 80 101
-0.539268 4.200079 51.160843 114 76 96
-0.539292 4.310559 51.163151 109 73 91
-0.539386 4.421624 51.172112 103 70 85
-0.539545 4.533267 51.187168 98 66 79
-0.539760 4.645463 51.207603 93 61 74
-0.540024 4.758167 51.232559 90 57 69
-0.540324 4.871313 51.261032 88 53 65
-0.540649 4.984816 51.291920 87 49 63
-0.540987 5.098571 51.324001 88 46 61
-0.541324 5.212455 51.355988 91 44 60
-0.541646 5.326327 51.386532 94 43 59
-0.541939 5.440035 51.414272 96 42 59
-0.542187 5.553411 51.437843 99 42 59
-0.542378 5.666285 51.455917 102 43 60
-0.542497 5.778476 51.467232 105 44 60
-0.542533 5.889809 51.470615 108 45 59
-0.542474 6.000112 51.465031 111 47 59
-0.542311 6.109219 51.449589 113 47 58
-0.542037 6.216983 51.423580 114 47 58
-0.541646 6.323274 51.386520 116 48 60
-0.541136 6.427987 51.338127 119 50 63
-0.540506 6.531043 51.278362 121 52 67
-0.539759 6.632395 51.207432 124 53 71
-0.538898 6.732029 51.125778 125 54 74
-0.537931 6.829967 51.034077 125 54 75
-0.536869 6.926266 50.933239 125 53 75
-0.535721 7.021019 50.824348 126 53 76
-0.534501 7.114347 50.708660 127 55 77
-0.533225 7.206407 50.587555 130 57 79
-0.531907 7.297374 50.462513 131 59 80
-0.530563 7.387447 50.335049 131 60 80
-0.529210 7.476836 50.206680 132 62 81
-0.527863 7.565762 50.078911 133 64 83
-0.526538 7.654448 49.953175 133 65 83
-0.525248 7.743114 49.830799 132 65 82
-0.524007 7.831976 49.713013 131 63 80
-0.522824 7.921230 49.600861 132 62 81
-0.521711 8.011064 49.495277 135 64 85
-0.520676 8.101642 49.397007 140 67 89
-0.519723 8.193106 49.306625 141 67 90
-0.518858 8.285575 49.224525 140 65 88
-0.518082 8.379139 49.150921 138 63 85
-0.517396 8.473857 49.085846 137 61 84
-0.516798 8.569758 49.029140 137 60 84
-0.516285 8.666841 48.980492 137 60 85
-0.515852 8.765066 48.939396 138 61 86
-0.515492 8.864365 48.905201 138 62 87
-0.515195 8.964628 48.877068 139 63 88
-0.514952 9.065718 48.854042 139 64 89
-0.514752 9.167464 48.835045 136 64 87
-0.514582 9.269670 48.818901 132 60 82
-0.514429 9.372122 48.804394 128 57 78
-0.514280 9.474581 48.790249 127 57 77
-0.514122 9.576810 48.775246 128 58 77
-0.513942 9.678569 48.758198 130 60 79
-0.513730 9.779634 48.738056 132 63 81
-0.513475 9.879794 48.713882 135 67 84
-0.513170 9.978869 48.684921 137 68 85
-0.512808 10.076708 48.650600 135 67 84
-0.512386 10.173207 48.610580 133 64 82
-0.511903 10.268299 48.564724 129 60 79
-0.511359 10.361960 48.513092 126 58 78
-0.510756 10.454198 48.455891 123 56 77
-0.510098 10.545059 48.393513 120 54 76
-0.509391 10.634616 48.326424 118 53 76
-0.508639 10.722947 48.255119 118 53 76
-0.507849 10.810139 48.180107 119 54 77
-0.507024 10.896276 48.101868 122 57 80
-0.506169 10.981422 48.020775 129 63 86
-0.505287 11.065621 47.937092 141 73 97
-0.504379 11.148886 47.850941 150 80 105
-0.503445 11.231201 47.762337 151 79 104
-0.502484 11.312522 47.671150 147 73 99
-0.501494 11.392783 47.577183 145 69 96
-0.500471 11.471906 47.480179 144 68 95
-0.499414 11.549815 47.379910 144 67 93
-0.498321 11.626445 47.276199 143 67 93
-0.497191 11.701767 47.169022 143 67 93
-0.496027 11.775799 47.058529 143 68 94
-0.494832 11.848624 46.945148 144 69 95
-0.493613 11.920397 46.829548 145 69 95
-0.492382 11.991356 46.712723 144 69 95
-0.483249 -3.219763 57.632797 153 107 121
-0.482926 -3.093454 57.594212 151 104 119
-0.482566 -2.967087 57.551289 158 110 126
-0.482167 -2.840678 57.503773 155 106 123
-0.481728 -2.714246 57.451416 143 93 113
-0.481247 -2.587811 57.393986 145 93 115
-0.480721 -2.461396 57.331249 153 101 124
-0.480149 -2.335027 57.263031 151 99 121
-0.479529 -2.208734 57.189171 143 91 114
-0.478862 -2.082551 57.109566 142 91 114
-0.478146 -1.956511 57.024158 142 92 116
-0.477381 -1.830654 56.932961 139 90 116
-0.476569 -1.705019 56.836056 140 91 120
-0.475709 -1.579647 56.733601 143 93 124
-0.474805 -1.454579 56.625790 139 88 120
-0.473859 -1.329857 56.512917 136 82 115
-0.472873 -1.205520 56.395309 135 81 111
-0.471850 -1.081607 56.273346 133 79 107
-0.470794 -0.958151 56.147404 132 78 104
-0.469708 -0.835185 56.017902 131 79 101
-0.468596 -0.712738 55.885242 127 77 96
-0.467460 -0.590832 55.749794 124 75 93
-0.466304 -0.469491 55.611923 126 78 94
-0.465131 -0.348730 55.471958 135 86 101
-0.463942 -0.228566 55.330189 142 94 108
-0.462740 -0.109009 55.186874 142 94 107
-0.461528 0.009929 55.042259 136 89 101
-0.460306 0.128241 54.896568 134 87 100
-0.459077 0.245921 54.750023 139 92 107
-0.457843 0.362966 54.602856 138 93 109
-0.456606 0.479372 54.455303 133 88 107
-0.455368 0.595141 54.307659 132 88 108
-0.454132 0.710277 54.160210 135 91 114
-0.452900 0.824785 54.013306 140 95 119
-0.451676 0.938675 53.867306 142 98 122
-0.450462 1.051961 53.722599 143 99 123
-0.449263 1.164660 53.579586 143 99 124
-0.448081 1.276793 53.438660 144 99 123
-0.446921 1.388382 53.300205 145 99 122
-0.445784 1.499455 53.164604 145 99 120
-0.444673 1.610039 53.032173 144 100 119
-0.443592 1.720166 52.903221 143 99 118
-0.442542 1.829865 52.777973 143 100 118
-0.441524 1.939168 52.656639 144 102 119
-0.440541 2.048106 52.539368 144 103 119
-0.439593 2.156711 52.426281 142 102 117
-0.438680 2.265013 52.317448 140 102 116
-0.437804 2.373043 52.212963 139 101 115
-0.436965 2.480832 52.112881 138 100 116
-0.436163 2.588413 52.017288 138 101 117
-0.435400 2.695821 51.926289 139 101 120
-0.434677 2.803092 51.840019 138 101 121
-0.433995 2.910266 51.758659 137 100 121
-0.433356 3.017390 51.682434 136 99 121
-0.432762 3.124512 51.611599 133 97 120
-0.432215 3.231685 51.546455 131 94 117
-0.431720 3.338968 51.487335 131 94 117
-0.431277 3.446421 51.434570 136 99 121
-0.430891 3.554110 51.388485 138 102 124
-0.430563 3.662098 51.349392 135 98 121
-0.430296 3.770449 51.317535 130 93 116
-0.430091 3.879225 51.293098 126 88 111
-0.429949 3.988477 51.276157 123 84 106
-0.429870 4.098255 51.266689 118 80 101
-0.429852 4.208591 51.264534 113 76 96
-0.429892 4.319510 51.269394 108 73 91
-0.429988 4.431016 51.280811 102 70 84
-0.430134 4.543099 51.298191 97 66 78
-0.430323 4.655730 51.320774 92 62 72
-0.430548 4.768856 51.347641 89 57 67
-0.430801 4.882406 51.377766 87 53 62
-0.431071 4.996291 51.409988 86 49 59
-0.431348 5.110397 51.443043 88 46 57
-0.431621 5.224597 51.475620 91 44 56
-0.431879 5.338743 51.506317 94 43 56
-0.432109 5.452677 51.533752 97 42 57
-0.432300 5.566225 51.556526 101 43 58
-0.432440 5.679209 51.573284 104 44 60
-0.432520 5.791446 51.582745 107 44 60
-0.432528 5.902754 51.583736 110 46 59
-0.432456 6.012956 51.575203 113 48 60
-0.432298 6.121885 51.556259 115 49 60
-0.432046 6.229391 51.526211 116 48 60
-0.431697 6.335340 51.484577 117 49 61
-0.431248 6.439631 51.431126 120 50 64
-0.430701 6.542185 51.365845 122 52 67
-0.430057 6.642959 51.288994 125 54 71
-0.429319 6.741943 51.201069 127 54 73
-0.428496 6.839168 51.102825 126 54 74
-0.427594 6.934698 50.995243 126 53 74
-0.426623 7.028638 50.879509 127 53 75
-0.425595 7.121124 50.756958 128 54 76
-0.424523 7.212322 50.629078 131 57 78
-0.423420 7.302426 50.497448 132 58 79
-0.422298 7.391649 50.363682 132 60 79
-0.421172 7.480219 50.229401 132 62 80
-0.420055 7.568370 50.096180 132 63 80
-0.418959 7.656343 49.965542 132 64 80
-0.417897 7.744370 49.838879 131 63 79
-0.416879 7.832676 49.717457 130 61 77
-0.415914 7.921472 49.602379 130 60 77
-0.415011 8.010951 49.494583 135 63 82
-0.414174 8.101280 49.394806 142 68 88
-0.413409 8.192606 49.303616 143 68 89
-0.412720 8.285043 49.221363 140 63 85
-0.412106 8.378678 49.148220 137 59 81
-0.411569 8.473566 49.084156 135 57 80
-0.411106 8.569727 49.028957 135 57 80
-0.410714 8.667147 48.982224 136 57 82
-0.410389 8.765779 48.943382 137 58 83
-0.410123 8.865545 48.911713 137 59 85
-0.409910 8.966325 48.886318 139 62 87
-0.409741 9.067968 48.866173 140 64 88
-0.409607 9.170302 48.850166 137 63 85
-0.409497 9.273124 48.837086 131 58 80
-0.409402 9.376209 48.825676 126 56 76
-0.409309 9.479323 48.814671 125 55 74
-0.409210 9.582226 48.802826 126 56 75
-0.409094 9.684673 48.788948 129 59 78
-0.408952 9.786446 48.772003 133 63 81
-0.408776 9.887331 48.751041 136 67 84
-0.408560 9.987146 48.725307 138 69 86
-0.408299 10.085740 48.694206 137 67 85
-0.407991 10.183002 48.657379 133 63 80
-0.407632 10.278855 48.614647 128 58 76
-0.407225 10.373265 48.566017 124 56 75
-0.406769 10.466227 48.511646 122 54 74
-0.406267 10.557770 48.451843 121 54 75
-0.405723 10.647947 48.387005 121 55 76
-0.405141 10.736817 48.317535 122 56 78
-0.404523 10.824447 48.243877 124 58 81
-0.403874 10.910898 48.166420 128 61 84
-0.403195 10.996220 48.085480 134 66 89
-0.402489 11.080436 48.001266 144 74 98
-0.401756 11.163548 47.913868 151 79 104
-0.400997 11.245531 47.823277 149 76 101
-0.400209 11.326339 47.729378 144 68 94
-0.399393 11.405908 47.631989 142 65 91
-0.398545 11.484162 47.530907 142 65 91
-0.397665 11.561043 47.425972 141 65 90
-0.396752 11.636504 47.317104 141 66 91
-0.395807 11.710541 47.204384 141 67 92
-0.394832 11.783198 47.088100 142 68 93
-0.393832 11.854593 46.968796 143 69 94
-0.392813 11.924915 46.847301 145 70 95
-0.391785 11.994439 46.724735 144 69 95
-0.359242 -3.097511 57.669743 142 94 108
-0.358975 -2.970984 57.626865 154 104 118
-0.358678 -2.844404 57.579185 153 102 117
-0.358350 -2.717792 57.526470 139 88 105
-0.357989 -2.591170 57.468487 137 85 102
-0.357593 -2.464563 57.405033 145 92 111
-0.357163 -2.337999 57.335918 149 96 115
-0.356696 -2.211509 57.261021 147 93 113
-0.356193 -2.085128 57.180241 145 93 113
-0.355653 -1.958892 57.093544 144 93 113
-0.355076 -1.832841 57.000957 138 87 111
-0.354464 -1.707015 56.902584 133 83 109
-0.353816 -1.581457 56.798599 134 83 110
-0.353135 -1.456209 56.689232 135 84 112
-0.352422 -1.331313 56.574795 136 85 112
-0.351679 -1.206810 56.455643 136 84 110
-0.350910 -1.082737 56.332172 135 82 106
-0.350117 -0.959130 56.204800 132 80 102
-0.349302 -0.836021 56.073956 129 78 99
-0.348468 -0.713437 55.940067 125 76 95
-0.347617 -0.591402 55.803535 123 75 93
-0.346753 -0.469937 55.664734 126 78 96
-0.345876 -0.349057 55.524006 136 87 104
-0.344989 -0.228778 55.381657 143 94 110
-0.344094 -0.109110 55.237957 142 93 108
-0.343192 0.009938 55.093143 137 88 103
-0.342284 0.128360 54.947449 136 88 103
-0.341373 0.246151 54.801090 139 91 108
-0.340458 0.363307 54.654278 137 90 108
-0.339542 0.479829 54.507259 132 86 106
-0.338627 0.595718 54.360279 132 87 108
-0.337713 0.710977 54.213634 136 92 114
-0.336804 0.825614 54.067650 141 97 120
-0.335901 0.939639 53.922653 144 100 123
-0.335006 1.053066 53.779018 144 100 123
-0.334122 1.165911 53.637127 143 99 122
-0.333251 1.278195 53.497353 144 99 120
-0.332396 1.389941 53.360065 144 98 119
-0.331559 1.501176 53.225628 144 99 117
-0.330741 1.611927 53.094360 144 99 117
-0.329945 1.722225 52.966545 144 100 116
-0.329172 1.832099 52.842426 144 101 117
-0.328423 1.941583 52.722214 144 102 118
-0.327699 2.050706 52.606052 143 102 117
-0.327002 2.159501 52.494087 141 101 115
-0.326331 2.267998 52.386402 138 101 114
-0.325687 2.376230 52.283096 137 101 114
-0.325072 2.484230 52.184250 137 100 115
-0.324484 2.592030 52.089970 138 101 117
-0.323926 2.699667 52.000374 138 101 119
-0.323398 2.807179 51.915619 138 100 121
-0.322902 2.914610 51.835903 137 100 122
-0.322438 3.022004 51.761456 136 99 122
-0.322009 3.129412 51.692551 133 97 120
-0.321616 3.236890 51.629475 132 95 118
-0.321261 3.344495 51.572567 132 96 118
-0.320947 3.452291 51.522160 135 99 121
-0.320676 3.560340 51.478561 135 100 122
-0.320448 3.668707 51.442059 132 97 118
-0.320267 3.777454 51.412876 129 92 114
-0.320131 3.886642 51.391178 126 87 110
-0.320043 3.996321 51.376999 123 84 106
-0.320001 4.106537 51.370293 118 80 101
-0.320005 4.217320 51.370853 113 76 95
-0.320051 4.328689 51.378345 108 73 89
-0.320138 4.440646 51.392262 102 69 82
-0.320261 4.553176 51.411976 97 66 76
-0.320415 4.666244 51.436668 92 61 70
-0.320594 4.779792 51.465397 89 56 63
-0.320791 4.893744 51.497074 86 52 58
-0.320999 5.008004 51.530510 86 48 55
-0.321210 5.122452 51.564396 88 46 54
-0.321416 5.236956 51.597378 90 44 53
-0.321607 5.351360 51.628040 94 43 53
-0.321774 5.465500 51.654949 98 43 55
-0.321910 5.579197 51.676685 101 44 57
-0.322005 5.692269 51.691883 105 45 59
-0.322050 5.804525 51.699245 108 45 60
-0.322040 5.915782 51.697586 112 47 61
-0.321967 6.025856 51.685848 115 49 62
-0.321826 6.134578 51.663155 117 50 62
-0.321612 6.241796 51.628822 118 49 62
-0.321323 6.347378 51.582401 119 50 63
-0.320957 6.451221 51.523682 122 51 66
-0.320515 6.553248 51.452709 123 52 67
-0.319998 6.653421 51.369774 125 54 70
-0.319411 6.751739 51.275459 127 54 72
-0.318757 6.848236 51.170586 127 53 72
-0.318045 6.942989 51.056217 126 53 72
-0.317281 7.036113 50.933613 128 53 73
-0.316475 7.127758 50.804241 129 54 74
-0.315637 7.218102 50.669655 131 56 76
-0.314776 7.307358 50.531551 132 58 78
-0.313905 7.395752 50.391636 132 60 79
-0.313033 7.483529 50.251625 132 62 79
-0.312170 7.570938 50.113174 132 63 78
-0.311328 7.658235 49.977890 131 63 77
-0.310514 7.745666 49.847218 130 63 76
-0.309737 7.833467 49.722477 129 61 75
-0.309003 7.921858 49.604797 130 59 75
-0.308320 8.011037 49.495117 135 62 80
-0.307691 8.101178 49.394184 143 68 87
-0.307121 8.192426 49.302532 144 67 87
-0.306609 8.284895 49.220482 139 61 82
-0.306159 8.378665 49.148140 134 56 77
-0.305768 8.473783 49.085419 133 55 76
-0.305436 8.570264 49.032032 134 55 77
-0.305158 8.668081 48.987499 135 56 78
-0.304932 8.767177 48.951183 136 57 79
-0.304752 8.867459 48.922276 136 58 81
-0.304612 8.968799 48.899807 138 61 83
-0.304505 9.071037 48.882713 140 63 86
-0.304425 9.173990 48.869812 137 62 84
-0.304363 9.277448 48.859859 131 58 79
-0.304311 9.381183 48.851578 127 56 75
-0.304262 9.484956 48.843674 125 55 74
-0.304208 9.588525 48.834908 126 56 75
-0.304140 9.691648 48.824081 129 58 78
-0.304053 9.794100 48.810146 132 62 81
-0.303941 9.895674 48.792179 136 65 84
-0.303800 9.996184 48.769402 138 67 86
-0.303624 10.095477 48.741215 137 66 85
-0.303412 10.193437 48.707241 132 61 79
-0.303163 10.289982 48.667271 127 56 74
-0.302877 10.385068 48.621277 123 54 71
-0.302553 10.478675 48.569344 122 53 71
-0.302194 10.570819 48.511726 122 55 73
-0.301802 10.661536 48.448753 124 57 77
-0.301379 10.750868 48.380768 126 60 80
-0.300926 10.838861 48.308117 129 62 84
-0.300447 10.925558 48.231140 134 65 89
-0.299942 11.010992 48.150082 140 70 94
-0.299412 11.095174 48.065113 148 76 100
-0.298859 11.178091 47.976292 152 78 103
-0.298281 11.259713 47.883587 148 72 98
-0.297679 11.339991 47.786903 141 65 91
-0.297051 11.418860 47.686081 139 62 88
-0.296396 11.496257 47.580963 139 63 88
-0.295714 11.572133 47.471462 139 63 88
-0.295005 11.646462 47.357597 139 65 89
-0.294270 11.719262 47.239544 139 66 90
-0.293511 11.790609 47.117714 140 67 92
-0.292732 11.860649 46.992790 142 69 94
-0.291941 11.929608 46.865738 145 71 96
-0.291144 11.997796 46.737812 145 71 96
-0.235224 -3.101440 57.742897 136 88 101
-0.235049 -2.974753 57.699986 151 101 113
-0.234854 -2.848006 57.652107 151 100 112
-0.234638 -2.721220 57.599018 139 88 100
-0.234399 -2.594417 57.540497 135 83 97
-0.234138 -2.467625 57.476357 141 89 104
-0.233853 -2.340873 57.406414 146 93 109
-0.233544 -2.214195 57.330555 145 93 109
-0.233211 -2.087625 57.248695 144 92 109
-0.232853 -1.961200 57.160809 143 92 109
-0.232470 -1.834963 57.066959 138 87 106
-0.232064 -1.708955 56.967251 133 83 104
-0.231635 -1.583219 56.861889 133 83 106
-0.231184 -1.457799 56.751125 135 85 109
-0.230712 -1.332736 56.635281 135 85 109
-0.230221 -1.208073 56.514755 135 85 108
-0.229713 -1.083848 56.389954 134 83 104
-0.229189 -0.960095 56.261318 131 80 100
-0.228651 -0.836846 56.129307 128 78 97
-0.228101 -0.714129 55.994366 126 76 94
-0.227541 -0.591968 55.856915 125 76 94
-0.226973 -0.470381 55.717342 129 80 98
-0.226397 -0.349384 55.576004 137 88 106
-0.225815 -0.228991 55.433212 142 93 110
-0.225229 -0.109212 55.289242 140 91 107
-0.224638 0.009947 55.144325 138 88 104
-0.224045 0.128480 54.998703 139 90 107
-0.223450 0.246382 54.852577 137 90 107
-0.222853 0.363652 54.706161 134 88 107
-0.222257 0.480291 54.559666 132 88 107
-0.221661 0.596299 54.413345 133 90 110
-0.221066 0.711683 54.267460 137 94 115
-0.220475 0.826449 54.122318 141 97 120
-0.219888 0.940608 53.978237 143 99 122
-0.219307 1.054173 53.835571 143 99 121
-0.218733 1.167162 53.694679 143 99 119
-0.218168 1.279595 53.555931 143 98 118
-0.217613 1.391494 53.419678 143 98 116
-0.217069 1.502886 53.286274 144 99 115
-0.216539 1.613799 53.156036 144 100 115
-0.216022 1.724264 53.029255 144 100 115
-0.215521 1.834309 52.906166 144 101 115
-0.215035 1.943968 52.786987 143 101 115
-0.214566 2.053272 52.671886 141 101 115
-0.214115 2.162254 52.561008 139 100 113
-0.213681 2.270945 52.454464 138 100 113
-0.213265 2.379379 52.352364 137 100 113
-0.212867 2.487589 52.254818 137 100 114
-0.212489 2.595611 52.161938 137 100 116
-0.212130 2.703482 52.073868 138 100 118
-0.211792 2.811243 51.990776 139 100 120
-0.211474 2.918937 51.912872 139 100 122
-0.211179 3.026612 51.840389 136 99 122
-0.210907 3.134320 51.773617 134 97 120
-0.210660 3.242116 51.712833 133 96 118
-0.210438 3.350060 51.658371 132 97 118
-0.210243 3.458213 51.610550 133 97 119
-0.210076 3.566640 51.569660 132 97 118
-0.209939 3.675404 51.535969 130 94 115
-0.209832 3.784567 51.509678 128 91 112
-0.209756 3.894184 51.490902 125 87 108
-0.209710 4.004307 51.479660 122 84 104
-0.209694 4.114976 51.475861 118 80 99
-0.209708 4.226219 51.479248 113 77 93
-0.209750 4.338050 51.489452 108 73 87
-0.209817 4.450468 51.505932 102 69 80
-0.209907 4.563451 51.527996 97 65 73
-0.210016 4.676960 51.554794 92 60 66
-0.210140 4.790931 51.585335 87 54 59
-0.210275 4.905282 51.618496 84 49 53
-0.210416 5.019911 51.653034 85 46 51
-0.210557 5.134693 51.687618 88 45 51
-0.210692 5.249488 51.720856 90 43 50
-0.210816 5.364136 51.751297 93 42 50
-0.210923 5.478466 51.777489 97 43 52
-0.211006 5.592294 51.797989 101 44 55
-0.211061 5.705431 51.811413 106 45 58
-0.211082 5.817685 51.816452 109 46 61
-0.211063 5.928865 51.811920 113 48 62
-0.211001 6.038786 51.796761 117 50 64
-0.210893 6.147278 51.770103 119 51 65
-0.210735 6.254184 51.731289 119 50 64
-0.210525 6.359376 51.679905 121 51 64
-0.210264 6.462749 51.615761 123 53 66
-0.209951 6.564234 51.538963 123 53 67
-0.209588 6.663794 51.449856 125 53 67
-0.209178 6.761433 51.349083 125 53 69
-0.208723 6.857198 51.237556 125 52 69
-0.208230 6.951175 51.116413 126 52 71
-0.207703 7.043489 50.987015 127 53 72
-0.207148 7.134305 50.850906 128 54 73
-0.206573 7.223816 50.709770 130 56 75
-0.205985 7.312249 50.565376 131 58 77
-0.205391 7.399847 50.419537 132 60 78
-0.204799 7.486870 50.274063 132 62 78
-0.204214 7.573584 50.130688 132 63 77
-0.203646 7.660256 49.991077 131 63 75
-0.203099 7.747147 49.856750 130 62 74
-0.202578 7.834504 49.729057 129 60 73
-0.202090 7.922554 49.609150 129 59 73
-0.201637 8.011501 49.497982 134 61 78
-0.201223 8.101522 49.396282 140 66 84
-0.200849 8.192762 49.304558 141 65 84
-0.200517 8.285332 49.223076 136 59 78
-0.200227 8.379306 49.151901 132 55 74
-0.199979 8.474724 49.090862 131 54 74
-0.199770 8.571588 49.039604 133 55 75
-0.199599 8.669862 48.997566 134 56 76
-0.199462 8.769477 48.964024 134 56 76
-0.199356 8.870326 48.938087 134 56 77
-0.199277 8.972269 48.918728 136 59 80
-0.199221 9.075136 48.904797 139 62 83
-0.199181 9.178733 48.895073 137 62 81
-0.199153 9.282842 48.888268 133 59 78
-0.199132 9.387231 48.883072 129 57 76
-0.199112 9.491656 48.878178 127 56 75
-0.199088 9.595873 48.872330 127 56 75
-0.199056 9.699637 48.864330 129 58 77
-0.199010 9.802728 48.853149 131 60 80
-0.198948 9.904935 48.837845 135 64 84
-0.198866 10.006074 48.817650 139 67 88
-0.198761 10.105989 48.791973 139 67 86
-0.198632 10.204563 48.760406 133 61 80
-0.198479 10.301708 48.722729 127 56 74
-0.198300 10.397369 48.678871 124 53 71
-0.198097 10.491520 48.628883 124 54 71
-0.197869 10.584164 48.572968 125 57 74
-0.197618 10.675320 48.511387 127 60 78
-0.197345 10.765014 48.444427 130 63 83
-0.197052 10.853276 48.372372 135 66 88
-0.196739 10.940138 48.295498 139 69 92
-0.196407 11.025613 48.214016 145 73 97
-0.196056 11.109698 48.128033 151 77 102
-0.195688 11.192374 48.037594 152 76 102
-0.195301 11.273605 47.942665 146 69 96
-0.194896 11.353336 47.843143 140 62 89
-0.194471 11.431510 47.738907 138 60 86
-0.194027 11.508070 47.629852 138 61 85
-0.193563 11.582980 47.515961 137 62 85
-0.193080 11.656234 47.397327 136 63 87
-0.192578 11.727871 47.274242 135 64 88
-0.192061 11.797994 47.147228 137 66 89
-0.191531 11.866781 47.017090 141 70 94
-0.190992 11.934491 46.884918 145 74 98
-0.190451 12.001468 46.752113 146 74 99
-0.110885 -3.105228 57.813435 138 89 101
-0.110803 -2.978386 57.770447 151 101 112
-0.110710 -2.851476 57.722343 153 102 113
-0.110608 -2.724521 57.668888 144 91 103
-0.110495 -2.597545 57.609863 138 85 98
-0.110370 -2.470576 57.545086 140 87 101
-0.110235 -2.343646 57.474392 142 89 104
-0.110088 -2.216787 57.397663 141 89 104
-0.109929 -2.090037 57.314842 141 90 106
-0.109758 -1.963434 57.225906 141 90 107
-0.109576 -1.837020 57.130928 138 88 106
-0.109382 -1.710839 57.030048 135 85 105
-0.109178 -1.584934 56.923473 134 84 107
-0.108963 -1.459349 56.811481 134 84 109
-0.108739 -1.334128 56.694420 134 84 109
-0.108505 -1.209312 56.572701 134 83 107
-0.108264 -1.084940 56.446758 134 82 105
-0.108015 -0.961046 56.317055 132 80 102
-0.107760 -0.837663 56.184071 130 79 100
-0.107499 -0.714817 56.048264 130 78 99
-0.107234 -0.592531 55.910069 131 79 101
-0.106966 -0.470824 55.769890 132 81 102
-0.106694 -0.349712 55.628090 135 84 104
-0.106419 -0.229205 55.484993 137 86 106
-0.106143 -0.109314 55.340866 137 86 106
-0.105865 0.009956 55.195950 139 89 107
-0.105586 0.128600 55.050472 143 95 113
-0.105306 0.246616 54.904629 139 92 110
-0.105026 0.364001 54.758621 135 90 108
-0.104746 0.480757 54.612644 136 91 109
-0.104466 0.596887 54.466938 137 94 112
-0.104188 0.712395 54.321754 139 96 115
-0.103911 0.827290 54.177376 141 97 118
-0.103636 0.941581 54.034107 142 98 119
-0.103364 1.055284 53.892288 142 98 118
-0.103096 1.168414 53.752266 142 98 117
-0.102831 1.280991 53.614395 142 98 116
-0.102572 1.393040 53.479027 143 99 116
-0.102318 1.504585 53.346508 144 100 115
-0.102069 1.615655 53.217163 144 100 114
-0.101828 1.726280 53.091270 144 101 114
-0.101594 1.836491 52.969093 144 101 115
-0.101367 1.946320 52.850857 143 101 115
-0.101148 2.055800 52.736732 141 100 114
-0.100937 2.164964 52.626888 139 100 113
-0.100735 2.273845 52.521458 137 100 112
-0.100542 2.382478 52.420570 137 100 113
-0.100357 2.490899 52.324348 137 100 114
-0.100182 2.599144 52.232929 138 100 115
-0.100016 2.707252 52.146473 139 100 117
-0.099860 2.815265 52.065159 141 101 120
-0.099714 2.923229 51.989208 140 101 121
-0.099579 3.031193 51.918858 136 98 119
-0.099456 3.139210 51.854393 133 96 117
-0.099344 3.247336 51.796104 133 96 117
-0.099244 3.355631 51.744289 132 97 117
-0.099158 3.464157 51.699257 132 97 116
-0.099085 3.572977 51.661289 131 96 115
-0.099026 3.682154 51.630619 129 93 113
-0.098982 3.791748 51.607410 127 91 110
-0.098952 3.901811 51.591747 125 87 106
-0.098936 4.012393 51.583611 122 84 101
-0.098935 4.123528 51.582851 118 81 96
-0.098947 4.235245 51.589195 113 77 90
-0.098972 4.347550 51.602203 108 73 85
-0.099009 4.460437 51.621300 102 70 79
-0.099055 4.573880 51.645752 96 65 71
-0.099111 4.687833 51.674652 90 59 63
-0.099173 4.802229 51.706985 85 52 55
-0.099239 4.916978 51.741570 82 46 50
-0.099307 5.031972 51.777138 83 44 48
-0.099375 5.147081 51.812313 87 44 49
-0.099439 5.262157 51.845676 90 43 48
-0.099497 5.377036 51.875751 93 42 48
-0.099545 5.491541 51.901062 97 43 50
-0.099582 5.605483 51.920155 101 44 53
-0.099604 5.718668 51.931622 105 45 56
-0.099609 5.830900 51.934155 110 47 60
-0.099594 5.941984 51.926567 114 49 63
-0.099558 6.051733 51.907803 118 52 66
-0.099499 6.159974 51.877029 121 53 67
-0.099416 6.266552 51.833591 121 53 66
-0.099307 6.371337 51.777103 122 54 66
-0.099174 6.474228 51.707439 124 54 66
-0.099015 6.575159 51.624741 124 53 66
-0.098832 6.674099 51.529423 123 52 65
-0.098627 6.771061 51.422203 124 51 66
-0.098400 6.866098 51.304058 124 51 67
-0.098155 6.959309 51.176228 125 51 69
-0.097894 7.050831 51.040161 126 52 70
-0.097620 7.140841 50.897495 127 53 72
-0.097337 7.229550 50.750015 129 55 74
-0.097049 7.317197 50.599590 130 57 76
-0.096758 7.404043 50.448124 131 59 77
-0.096470 7.490362 50.297512 131 61 77
-0.096186 7.576436 50.149567 131 63 76
-0.095911 7.662545 50.006020 131 63 74
-0.095647 7.748962 49.868435 129 62 73
-0.095397 7.835945 49.738205 129 60 72
-0.095163 7.923727 49.616493 129 59 73
-0.094948 8.012517 49.504257 134 61 77
-0.094752 8.102494 49.402206 139 64 81
-0.094577 8.193802 49.310814 139 63 81
-0.094423 8.286547 49.230293 134 58 76
-0.094289 8.380797 49.160648 131 55 74
-0.094176 8.476583 49.101635 132 55 74
-0.094082 8.573896 49.052814 133 56 76
-0.094007 8.672688 49.013535 134 57 76
-0.093948 8.772873 48.982986 134 57 76
-0.093905 8.874334 48.960205 134 57 76
-0.093874 8.976918 48.944077 136 59 78
-0.093853 9.080441 48.933388 138 61 80
-0.093841 9.184699 48.926857 137 61 80
-0.093834 9.289465 48.923149 134 59 78
-0.093829 9.394501 48.920929 132 57 77
-0.093825 9.499558 48.918873 130 57 76
-0.093819 9.604390 48.915710 129 57 76
-0.093809 9.708752 48.910248 129 57 77
-0.093792 9.812420 48.901451 131 59 80
-0.093767 9.915188 48.888397 136 65 86
-0.093732 10.016870 48.870327 141 69 91
-0.093687 10.117312 48.846638 141 69 90
-0.093630 10.216393 48.816936 135 63 82
-0.093561 10.314023 48.780979 128 57 76
-0.093480 10.410143 48.738674 126 55 73
-0.093387 10.504715 48.690041 127 56 75
-0.093281 10.597733 48.635242 129 60 78
-0.093165 10.689208 48.574501 131 63 82
-0.093037 10.779150 48.508041 135 66 86
-0.092899 10.867578 48.436111 138 68 90
-0.092751 10.954506 48.358929 142 70 94
-0.092594 11.039938 48.276657 146 73 97
-0.092426 11.123862 48.189392 150 74 100
-0.092249 11.206248 48.097141 150 73 99
-0.092063 11.287057 47.999870 146 67 93
-0.091866 11.366234 47.897491 141 62 88
-0.091660 11.443723 47.789909 139 61 86
-0.091444 11.519478 47.677071 137 61 84
-0.091217 11.593474 47.559013 135 61 84
-0.090981 11.665725 47.435925 134 62 85
-0.090736 11.736291 47.308182 133 63 85
-0.090483 11.805300 47.176422 134 65 87
-0.090225 11.872959 47.041565 140 70 94
-0.089962 11.939557 46.904819 145 76 100
-0.089700 12.005470 46.767708 147 77 101
0.013757 -3.108870 57.881233 143 93 107
0.013747 -2.981876 57.838142 155 103 116
0.013736 -2.854809 57.789814 159 106 118
0.013723 -2.727692 57.736019 151 97 110
0.013709 -2.600551 57.676548 143 88 103
0.013693 -2.473415 57.611210 141 86 102
0.013676 -2.346315 57.539856 139 85 101
0.013658 -2.219286 57.462376 137 83 100
0.013638 -2.092366 57.378719 137 85 103
0.013617 -1.965594 57.288876 139 88 108
0.013594 -1.839014 57.192936 138 88 109
0.013570 -1.712669 57.091053 136 86 109
0.013544 -1.586604 56.983448 135 85 110
0.013517 -1.460863 56.870422 133 83 109
0.013489 -1.335491 56.752346 131 81 107
0.013460 -1.210529 56.629639 130 79 105
0.013430 -1.086016 56.502769 132 80 104
0.013399 -0.961987 56.372204 134 81 106
0.013367 -0.838473 56.238441 135 82 105
0.013335 -0.715502 56.101963 135 82 105
0.013302 -0.593094 55.963211 136 82 106
0.013268 -0.471269 55.822594 133 80 105
0.013234 -0.350041 55.680496 131 78 102
0.013200 -0.229421 55.537224 132 79 102
0.013166 -0.109417 55.393059 134 83 104
0.013132 0.009966 55.248234 139 89 109
0.013097 0.128723 55.102959 142 95 113
0.013062 0.246853 54.957436 139 94 111
0.013028 0.364355 54.811844 137 93 110
0.012993 0.481230 54.666378 137 95 111
0.012959 0.597482 54.521248 138 96 113
0.012924 0.713116 54.376690 139 98 115
0.012890 0.828139 54.232979 139 98 116
0.012856 0.942563 54.090408 140 97 117
0.012823 1.056400 53.949303 141 97 117
0.012790 1.169669 53.810001 141 98 117
0.012757 1.282388 53.672859 142 99 117
0.012725 1.394582 53.538219 143 100 117
0.012694 1.506275 53.406425 144 100 116
0.012663 1.617496 53.277809 144 101 116
0.012634 1.728276 53.152668 144 101 116
0.012605 1.838647 53.031265 143 101 116
0.012577 1.948640 52.913841 142 101 115
0.012550 2.058290 52.800602 141 101 114
0.012524 2.167631 52.691719 139 100 113
0.012499 2.276698 52.587349 138 100 112
0.012475 2.385527 52.487644 138 100 113
0.012453 2.494155 52.392750 138 100 114
0.012432 2.602622 52.302822 138 99 115
0.012411 2.710967 52.218037 139 100 116
0.012392 2.819235 52.138580 140 100 117
0.012375 2.927474 52.064686 139 99 117
0.012359 3.035732 51.996597 135 97 115
0.012344 3.144066 51.934593 133 96 113
0.012331 3.252531 51.878948 133 97 114
0.012319 3.361187 51.829960 133 98 116
0.012309 3.470098 51.787914 132 97 115
0.012301 3.579324 51.753052 130 95 112
0.012294 3.688927 51.725586 128 92 109
0.012290 3.798965 51.705639 126 90 107
0.012287 3.909488 51.693256 124 87 103
0.012285 4.020542 51.688374 121 84 98
0.012286 4.132158 51.690804 117 81 93
0.012288 4.244359 51.700214 112 77 88
0.012292 4.357148 51.716125 107 73 82
0.012297 4.470512 51.737907 102 70 77
0.012304 4.584422 51.764782 96 64 70
0.012311 4.698825 51.795815 89 58 62
0.012319 4.813647 51.829922 83 50 54
0.012328 4.928793 51.865898 80 44 49
0.012336 5.044149 51.902431 83 43 48
0.012345 5.159579 51.938122 86 43 48
0.012353 5.274929 51.971516 90 43 47
0.012360 5.390029 52.001106 93 43 47
0.012366 5.504698 52.025410 96 43 48
0.012370 5.618741 52.042950 100 44 51
0.012372 5.731960 52.052322 104 45 55
0.012372 5.844154 52.052208 108 46 58
0.012369 5.955127 52.041424 113 49 63
0.012364 6.064690 52.018940 118 52 66
0.012356 6.172667 51.983925 121 54 68
0.012344 6.278904 51.935764 123 55 67
0.012330 6.383274 51.874115 124 55 67
0.012312 6.485678 51.798882 124 55 67
0.012291 6.586053 51.710270 124 53 65
0.012267 6.684376 51.608768 122 51 63
0.012240 6.780669 51.495167 122 50 63
0.012210 6.874992 51.370514 123 51 65
0.012178 6.967458 51.236145 124 51 67
0.012144 7.058214 51.093601 125 52 69
0.012109 7.147453 50.944626 125 53 70
0.012072 7.235400 50.791084 127 55 73
0.012035 7.322310 50.634949 129 57 76
0.011998 7.408458 50.478210 130 60 77
0.011961 7.494135 50.322849 130 61 77
0.011925 7.579634 50.170738 130 61 75
0.011890 7.665252 50.023682 130 61 74
0.011856 7.751269 49.883282 129 61 73
0.011825 7.837954 49.750957 128 60 72
0.011796 7.925546 49.627888 130 60 73
0.011769 8.014258 49.515018 134 62 77
0.011745 8.104270 49.413036 139 65 82
0.011723 8.195723 49.322372 139 63 81
0.011704 8.288718 49.243198 133 58 76
0.011688 8.383317 49.175430 130 55 74
0.011675 8.479537 49.118748 132 57 76
0.011664 8.577359 49.072628 135 59 78
0.011655 8.676723 49.036335 136 59 78
0.011649 8.777526 49.008965 135 59 78
0.011644 8.879638 48.989464 136 59 78
0.011641 8.982890 48.976635 136 59 78
0.011639 9.087087 48.969200 137 60 78
0.011638 9.192013 48.965813 137 59 78
0.011638 9.297431 48.965099 136 59 78
0.011638 9.403094 48.965679 134 57 77
0.011638 9.508751 48.966213 132 57 76
0.011638 9.614150 48.965420 130 56 77
0.011637 9.719047 48.962112 129 56 77
0.011636 9.823219 48.955269 130 58 80
0.011633 9.926458 48.943966 136 64 86
0.011629 10.028584 48.927471 143 71 93
0.011624 10.129438 48.905182 143 71 93
0.011617 10.228903 48.876709 138 65 86
0.011609 10.326887 48.841816 133 60 81
0.011599 10.423328 48.800407 131 59 79
0.011588 10.518184 48.752468 132 60 80
0.011575 10.611439 48.698143 133 63 83
0.011560 10.703097 48.637615 135 66 86
0.011545 10.793160 48.571091 138 68 89
0.011527 10.881634 48.498756 140 69 91
0.011509 10.968525 48.420815 142 70 93
0.011489 11.053826 48.337391 144 71 95
0.011468 11.137517 48.248547 146 71 95
0.011445 11.219563 48.154289 147 70 94
0.011422 11.299921 48.054581 145 67 91
0.011397 11.378538 47.949345 142 63 88
0.011370 11.455362 47.838516 140 62 86
0.011343 11.530354 47.722084 136 61 83
0.011314 11.603505 47.600159 135 62 83
0.011284 11.674839 47.472984 134 63 84
0.011252 11.744442 47.341038 133 64 85
0.011220 11.812464 47.205051 135 67 89
0.011187 11.879138 47.066044 140 72 95
0.011153 11.944779 46.925335 145 77 100
0.011120 12.009795 46.784554 145 77 101
0.138582 -2.985224 57.903072 159 105 120
0.138466 -2.858006 57.854542 163 107 123
0.138337 -2.730736 57.800453 156 99 115
0.138193 -2.603439 57.740597 149 91 108
0.138036 -2.476145 57.674789 144 86 104
0.137864 -2.348885 57.602886 137 80 98
0.137677 -2.221696 57.524784 130 76 95
0.137475 -2.094616 57.440437 132 79 100
0.137258 -1.967686 57.349854 137 85 108
0.137027 -1.840949 57.253128 138 87 112
0.136781 -1.714450 57.150433 137 86 113
0.136521 -1.588234 57.042004 135 84 112
0.136249 -1.462346 56.928154 132 82 109
0.135964 -1.336831 56.809280 128 78 106
0.135669 -1.211730 56.685806 126 76 102
0.135363 -1.087082 56.558216 129 78 104
0.135049 -0.962922 56.427010 135 83 109
0.134728 -0.839282 56.292686 139 85 111
0.134400 -0.716187 56.155739 140 85 111
0.134067 -0.593660 56.016624 138 82 109
0.133730 -0.471718 55.875751 131 76 103
0.133390 -0.350375 55.733505 127 72 99
0.133047 -0.229640 55.590202 129 76 101
0.132702 -0.109522 55.446110 135 83 106
0.132356 0.009976 55.301460 138 89 109
0.132009 0.128848 55.156456 139 92 111
0.131661 0.247095 55.011284 137 93 110
0.131314 0.364716 54.866116 136 94 110
0.130967 0.481712 54.721123 138 97 112
0.130620 0.598088 54.576511 139 98 113
0.130276 0.713848 54.432507 139 99 114
0.129933 0.829000 54.289368 138 98 114
0.129593 0.943555 54.147373 138 97 114
0.129257 1.057527 54.006847 139 96 115
0.128925 1.170932 53.868114 140 97 117
0.128598 1.283790 53.731537 142 99 118
0.128277 1.396125 53.597450 143 99 117
0.127963 1.507961 53.466217 143 99 116
0.127657 1.619329 53.338169 143 99 115
0.127359 1.730258 53.213623 143 100 115
0.127070 1.840782 53.092854 143 101 115
0.126790 1.950933 52.976116 142 101 115
0.126521 2.060747 52.863636 140 101 113
0.126262 2.170259 52.755615 139 100 113
0.126015 2.279507 52.652233 138 100 112
0.125779 2.388527 52.553661 138 100 113
0.125555 2.497360 52.460064 138 100 114
0.125343 2.606045 52.371632 138 99 114
0.125145 2.714627 52.288532 138 99 115
0.124959 2.823150 52.210983 138 99 114
0.124787 2.931664 52.139217 137 98 113
0.124630 3.040221 52.073483 135 96 111
0.124488 3.148875 52.014046 132 95 109
0.124361 3.257686 51.961178 132 96 110
0.124251 3.366712 51.915161 134 99 113
0.124158 3.476016 51.876240 134 99 113
0.124082 3.585658 51.844639 130 94 109
0.124024 3.695698 51.820530 127 91 105
0.123985 3.806191 51.803997 125 88 103
0.123963 3.917186 51.795048 123 85 99
0.123960 4.028723 51.793560 120 83 95
0.123974 4.140832 51.799301 117 80 90
0.124004 4.253527 51.811886 112 76 85
0.124049 4.366809 51.830795 106 73 80
0.124108 4.480659 51.855335 101 68 75
0.124178 4.595041 51.884689 94 63 68
0.124257 4.709898 51.917877 88 57 61
0.124343 4.825148 51.953762 81 48 53
0.124433 4.940692 51.991112 79 43 49
0.124522 5.056409 52.028576 82 42 47
0.124609 5.172156 52.064724 86 42 47
0.124689 5.287775 52.098076 89 42 47
0.124758 5.403090 52.127113 93 43 46
0.124814 5.517914 52.150318 96 43 48
0.124852 5.632049 52.166214 100 44 51
0.124869 5.745291 52.173386 103 44 54
0.124862 5.857439 52.170532 107 45 58
0.124828 5.968292 52.156467 112 48 62
0.124766 6.077659 52.130180 117 52 66
0.124671 6.185366 52.090870 122 54 67
0.124545 6.291258 52.037945 124 56 68
0.124385 6.395211 51.971115 126 56 68
0.124192 6.497129 51.890339 125 56 67
0.123965 6.596955 51.795872 124 53 64
0.123708 6.694674 51.688282 122 50 62
0.123421 6.790314 51.568417 121 49 62
0.123108 6.883948 51.437435 123 51 65
0.122771 6.975698 51.296749 124 53 68
0.122415 7.065727 51.147991 124 52 69
0.122044 7.154240 50.993000 123 51 70
0.121663 7.241477 50.833736 126 54 74
0.121276 7.327706 50.672264 131 59 79
0.120889 7.413220 50.510658 133 62 81
0.120507 7.498322 50.350967 132 61 79
0.120134 7.583322 50.195145 130 60 76
0.119775 7.668523 50.045033 129 59 74
0.119433 7.754220 49.902271 129 60 73
0.119113 7.840688 49.768311 129 60 72
0.118816 7.928171 49.644325 130 60 73
0.118545 8.016886 49.531250 135 64 78
0.118303 8.107011 49.429745 141 67 84
0.118088 8.198684 49.340195 139 64 82
0.117903 8.292002 49.262703 133 57 76
0.117746 8.387013 49.197113 130 55 75
0.117616 8.483729 49.143032 133 58 78
0.117513 8.582115 49.099838 136 60 80
0.117434 8.682096 49.066704 136 60 80
0.117376 8.783554 49.042625 135 59 79
0.117337 8.886344 49.026463 136 59 79
0.117315 8.990281 49.016937 137 59 79
0.117304 9.095159 49.012695 137 59 79
0.117303 9.200745 49.012329 137 58 79
0.117308 9.306794 49.014412 137 58 78
0.117316 9.413054 49.017544 135 57 77
0.117323 9.519264 49.020351 133 57 76
0.117326 9.625171 49.021545 130 56 76
0.117322 9.730527 49.019947 128 56 75
0.117309 9.835112 49.014538 129 56 78
0.117285 9.938721 49.004429 135 63 84
0.117247 10.041172 48.988888 143 71 93
0.117196 10.142313 48.967342 144 72 94
0.117129 10.242026 48.939419 141 67 90
0.117046 10.340221 48.904881 138 64 86
0.116948 10.436836 48.863651 137 63 85
0.116833 10.531823 48.815693 137 64 86
0.116702 10.625168 48.761143 138 66 88
0.116556 10.716866 48.700188 139 67 89
0.116396 10.806913 48.632980 139 68 90
0.116220 10.895308 48.559704 140 68 90
0.116031 10.982052 48.480534 140 67 90
0.115827 11.067131 48.395573 140 67 90
0.115610 11.150517 48.304867 142 68 90
0.115379 11.232174 48.208416 143 68 90
0.115135 11.312057 48.106186 143 66 88
0.114876 11.390114 47.998123 142 64 86
0.114603 11.466297 47.884182 140 63 84
0.114317 11.540578 47.764400 136 62 82
0.114016 11.612958 47.638935 136 62 82
0.113703 11.683475 47.508099 135 63 84
0.113379 11.752235 47.372452 136 66 87
0.113044 11.819410 47.232807 139 70 92
0.112703 11.885255 47.090279 144 76 98
0.112359 11.950109 46.946278 147 79 102
0.112015 12.014407 46.802517 145 77 101
0.263685 -2.988434 57.965340 158 101 118
0.263463 -2.861074 57.916641 160 101 119
0.263216 -2.733659 57.862312 155 94 114
0.262943 -2.606215 57.802155 149 89 109
0.262642 -2.478772 57.735989 144 84 105
0.262313 -2.351363 57.663658 134 75 96
0.261955 -2.224025 57.585079 127 69 91
0.261569 -2.096796 57.500210 130 74 98
0.261154 -1.969718 57.409069 137 82 109
0.260712 -1.842834 57.311749 138 84 113
0.260242 -1.716190 57.208447 136 82 113
0.259746 -1.589832 57.099407 132 80 111
0.259225 -1.463805 56.984962 129 78 109
0.258682 -1.338154 56.865509 126 76 106
0.258118 -1.212920 56.741508 126 76 104
0.257535 -1.088143 56.613438 129 78 105
0.256936 -0.963858 56.481812 135 83 110
0.256324 -0.840094 56.347149 141 86 114
0.255700 -0.716879 56.209946 141 86 113
0.255066 -0.594233 56.070660 136 80 108
0.254425 -0.472174 55.929707 128 72 100
0.253778 -0.350714 55.787472 125 70 98
0.253126 -0.229863 55.644268 131 76 103
0.252472 -0.109629 55.500362 137 85 109
0.251815 0.009985 55.355968 138 90 110
0.251157 0.128976 55.211292 135 89 107
0.250498 0.247343 55.066494 133 89 105
0.249840 0.365085 54.921745 135 93 108
0.249182 0.482206 54.777199 138 97 111
0.248526 0.598707 54.633053 139 99 112
0.247873 0.714595 54.489521 139 99 112
0.247224 0.829878 54.346844 138 97 113
0.246580 0.944565 54.205307 137 96 114
0.245943 1.058670 54.065216 138 96 115
0.245314 1.172210 53.926903 139 97 116
0.244695 1.285205 53.790730 141 99 118
0.244086 1.397677 53.657040 142 99 118
0.243491 1.509653 53.526199 141 98 116
0.242911 1.621162 53.398556 139 97 113
0.242346 1.732236 53.274437 139 98 113
0.241799 1.842907 53.154140 141 101 115
0.241270 1.953210 53.037949 142 102 117
0.240761 2.063183 52.926113 139 101 114
0.240273 2.172861 52.818844 138 100 113
0.239807 2.282283 52.716351 139 100 114
0.239364 2.391490 52.618839 138 99 114
0.238944 2.500522 52.526497 138 99 114
0.238548 2.609423 52.439510 138 99 114
0.238177 2.718238 52.358097 138 99 114
0.237833 2.827015 52.282467 138 99 113
0.237517 2.935805 52.212860 136 99 112
0.237229 3.044661 52.149529 134 98 109
0.236970 3.153639 52.092728 132 97 108
0.236743 3.262798 52.042721 132 98 109
0.236547 3.372199 51.999767 133 100 111
0.236385 3.481902 51.964081 132 99 110
0.236257 3.591967 51.935863 129 94 107
0.236163 3.702453 51.915237 127 91 104
0.236104 3.813410 51.902241 125 88 101
0.236079 3.924885 51.896843 123 85 97
0.236088 4.036914 51.898865 120 82 93
0.236130 4.149523 51.908024 116 79 88
0.236202 4.262721 51.923882 111 75 83
0.236302 4.376504 51.945869 106 72 78
0.236427 4.490847 51.973236 100 68 73
0.236572 4.605707 52.005119 94 62 67
0.236733 4.721022 52.040497 88 55 60
0.236904 4.836704 52.078186 82 48 53
0.237080 4.952647 52.116909 80 43 49
0.237255 5.068724 52.155296 82 42 47
0.237421 5.184787 52.191875 86 42 47
0.237573 5.300672 52.225143 89 42 47
0.237702 5.416198 52.253571 93 42 47
0.237802 5.531173 52.275627 98 44 49
0.237867 5.645394 52.289825 102 44 52
0.237889 5.758656 52.294750 104 44 54
0.237864 5.870752 52.289104 108 46 58
0.237785 5.981481 52.271725 113 49 62
0.237648 6.090651 52.241619 118 52 66
0.237449 6.198087 52.198002 122 55 68
0.237187 6.303638 52.140347 125 56 68
0.236860 6.407180 52.068386 126 56 68
0.236467 6.508623 51.982140 126 56 67
0.236011 6.607917 51.881939 125 53 64
0.235495 6.705053 51.768410 123 51 63
0.234922 6.800068 51.642494 122 50 62
0.234299 6.893047 51.505417 123 51 65
0.233631 6.984121 51.358685 124 53 67
0.232928 7.073469 51.204033 124 53 69
0.232197 7.161309 51.043385 123 52 70
0.231448 7.247895 50.878796 125 54 74
0.230691 7.333510 50.712399 133 61 82
0.229936 7.418461 50.546364 136 64 84
0.229192 7.503063 50.382801 133 61 80
0.228468 7.587639 50.223728 130 58 76
0.227774 7.672506 50.071026 129 58 74
0.227116 7.757965 49.926373 129 58 73
0.226501 7.844297 49.791218 129 59 74
0.225935 7.931752 49.666748 131 60 75
0.225421 8.020547 49.553871 136 64 80
0.224963 8.110860 49.453213 142 68 85
0.224562 8.202824 49.365105 140 64 83
0.224219 8.296527 49.289589 133 57 77
0.223931 8.392011 49.226425 131 54 75
0.223698 8.489272 49.175137 134 57 78
0.223516 8.588264 49.135010 136 59 81
0.223380 8.688892 49.105114 136 59 80
0.223285 8.791030 49.084362 135 58 79
0.223227 8.894511 49.071518 136 58 80
0.223198 8.999137 49.065216 138 59 80
0.223193 9.104684 49.064026 139 60 81
0.223204 9.210910 49.066479 138 59 80
0.223225 9.317558 49.071102 137 58 78
0.223249 9.424366 49.076450 135 57 77
0.223271 9.531069 49.081139 133 57 76
0.223283 9.637408 49.083874 130 57 76
0.223281 9.743136 49.083473 128 56 75
0.223261 9.848034 49.078934 128 57 76
0.223217 9.951898 49.069401 133 62 83
0.223148 10.054550 49.054153 141 69 91
0.223050 10.155841 49.032654 144 72 94
0.222922 10.255658 49.004559 142 69 92
0.222763 10.353913 48.969639 141 66 90
0.222573 10.450547 48.927841 140 66 90
0.222352 10.545510 48.879131 141 66 91
0.222099 10.638792 48.823669 142 68 91
0.221817 10.730381 48.761604 142 69 91
0.221505 10.820274 48.693111 140 68 90
0.221165 10.908467 48.618351 137 66 88
0.220797 10.994953 48.537483 135 64 85
0.220402 11.079717 48.450607 135 63 85
0.219980 11.162729 48.357765 137 65 86
0.219530 11.243951 48.258961 139 66 86
0.219054 11.323336 48.154152 140 66 86
0.218549 11.400837 48.043312 141 66 85
0.218018 11.476413 47.926426 140 65 83
0.217459 11.550040 47.803562 138 64 82
0.216874 11.621731 47.674923 137 64 82
0.216264 11.691541 47.540894 137 64 84
0.215633 11.759586 47.402084 138 66 87
0.214983 11.826061 47.259388 143 72 94
0.214322 11.891240 47.113995 149 79 102
0.213655 11.955485 46.967396 150 80 104
0.212991 12.019250 46.821384 145 76 100
0.389039 -2.991515 58.025101 152 93 112
0.388712 -2.864021 57.976288 151 90 110
0.388347 -2.736470 57.921806 150 88 108
0.387942 -2.608888 57.861450 147 85 107
0.387497 -2.481307 57.795033 142 80 103
0.387010 -2.353760 57.722424 133 72 95
0.386481 -2.226282 57.643528 129 68 93
0.385910 -2.098915 57.558308 132 73 100
0.385296 -1.971698 57.466789 137 80 109
0.384641 -1.844678 57.369087 137 81 112
0.383946 -1.717899 57.265396 133 79 110
0.383212 -1.591407 57.155975 129 76 108
0.382442 -1.465249 57.041168 125 75 105
0.381639 -1.339469 56.921387 124 74 103
0.380806 -1.214108 56.797089 126 77 103
0.379946 -1.089207 56.668781 130 80 106
0.379062 -0.964799 56.536976 135 83 109
0.378158 -0.840915 56.402203 139 86 112
0.377238 -0.717580 56.264950 140 85 112
0.376304 -0.594816 56.125687 136 80 107
0.375360 -0.472639 55.984840 130 74 100
0.374408 -0.351061 55.842773 128 72 99
0.373449 -0.230093 55.699802 134 79 105
0.372486 -0.109739 55.556183 139 87 111
0.371520 0.009995 55.412128 139 89 110
0.370553 0.129108 55.267826 133 86 106
0.369585 0.247598 55.123428 131 87 104
0.368617 0.365467 54.979092 134 92 107
0.367650 0.482714 54.834961 137 96 110
0.366687 0.599345 54.691216 138 97 111
0.365727 0.715363 54.548069 138 98 111
0.364773 0.830777 54.405762 137 96 112
0.363826 0.945597 54.264561 136 96 112
0.362889 1.059836 54.124775 137 97 113
0.361963 1.173511 53.986744 137 97 115
0.361052 1.286640 53.850815 141 100 118
0.360157 1.399248 53.717361 143 102 119
0.359282 1.511361 53.586754 140 99 115
0.358427 1.623008 53.459354 137 97 112
0.357597 1.734222 53.335510 138 98 111
0.356793 1.845035 53.215538 140 102 114
0.356016 1.955486 53.099751 142 103 116
0.355270 2.065611 52.988415 140 102 115
0.354555 2.175449 52.881771 140 101 115
0.353873 2.285042 52.780075 140 101 115
0.353226 2.394430 52.683529 140 100 115
0.352614 2.503657 52.592350 139 99 114
0.352041 2.612770 52.506763 140 100 115
0.351506 2.721815 52.426983 140 100 115
0.351011 2.830843 52.353249 139 101 114
0.350559 2.939906 52.285793 137 100 111
0.350151 3.049060 52.224876 136 100 110
0.349788 3.158362 52.170738 135 100 109
0.349472 3.267871 52.123638 134 100 109
0.349205 3.377648 52.083797 132 99 109
0.348988 3.487754 52.051422 131 98 108
0.348822 3.598247 52.026653 130 96 106
0.348707 3.709182 52.009590 128 92 104
0.348644 3.820609 52.000229 126 89 101
0.348633 3.932571 51.998466 123 85 98
0.348670 4.045099 52.004086 120 82 93
0.348755 4.158215 52.016750 116 78 89
0.348884 4.271923 52.035965 111 75 84
0.349053 4.386211 52.061092 105 72 78
0.349255 4.501052 52.091347 99 67 73
