ply
format ascii 1.0
element vertex 1192
property float x
property float y
property float z
property uchar red
property uchar green
property uchar blue
end_header
-12.629436 2.649053 43.757832 136 56 77
-12.626675 2.742780 43.748264 135 56 77
-12.626374 2.837019 43.747227 134 56 77
-12.628556 2.931830 43.754784 134 57 77
-12.633207 3.027265 43.770901 134 58 76
-12.640295 3.123372 43.795456 133 59 75
-12.649754 3.220188 43.828228 132 59 74
-12.661497 3.317744 43.868916 132 59 73
-12.675407 3.416059 43.917110 131 60 72
-12.691347 3.515145 43.972336 132 61 72
-12.709147 3.614998 44.034012 133 62 72
-12.728620 3.715604 44.101479 133 63 72
-12.749543 3.816936 44.173973 133 62 72
-12.771677 3.918952 44.250664 133 62 72
-12.794757 4.021596 44.330627 133 62 73
-12.818500 4.124798 44.412891 134 63 75
-12.842599 4.228472 44.496387 133 63 75
-12.866740 4.332520 44.580032 131 61 73
-12.890599 4.436832 44.662697 129 59 71
-12.913853 4.541286 44.743263 128 59 71
-12.936174 4.645754 44.820602 128 59 72
-12.957260 4.750103 44.893658 128 59 73
-12.976819 4.854195 44.961426 128 59 74
-12.994592 4.957897 45.023006 129 59 76
-13.010351 5.061082 45.077606 129 60 77
-13.023916 5.163632 45.124607 131 61 79
-13.035149 5.265443 45.163525 131 62 80
-13.043965 5.366427 45.194073 131 62 79
-13.050335 5.466519 45.216141 131 61 76
-13.054281 5.565672 45.229813 130 61 74
-13.055882 5.663867 45.235359 128 61 73
-13.055269 5.761108 45.233238 127 59 71
-13.052619 5.857427 45.224056 126 57 70
-13.048155 5.952878 45.208588 125 56 70
-13.042133 6.047540 45.187725 122 53 68
-13.034835 6.141511 45.162437 120 52 67
-13.026565 6.234908 45.133785 119 52 65
-13.017634 6.327860 45.102840 119 52 65
-13.008350 6.420504 45.070675 117 53 63
-12.999015 6.512984 45.038330 115 53 62
-12.989907 6.605440 45.006775 112 53 61
-12.981282 6.698009 44.976891 109 52 58
-12.973359 6.790817 44.949440 104 50 56
-12.966321 6.883976 44.925056 100 48 54
-12.960309 6.977583 44.904224 95 45 52
-12.955422 7.071713 44.887291 89 42 48
-12.951717 7.166426 44.874454 86 38 45
-12.949213 7.261755 44.865780 84 37 43
-12.947897 7.357723 44.861221 82 36 42
-12.947721 7.454328 44.860611 82 36 42
-12.948618 7.551555 44.863720 82 36 42
-12.950501 7.649379 44.870243 81 36 43
-12.953273 7.747761 44.879845 82 37 44
-12.956828 7.846660 44.892162 83 39 46
-12.961057 7.946025 44.906815 83 40 47
-12.965849 8.045803 44.923420 83 41 48
-12.971104 8.145943 44.941624 82 42 49
-12.976718 8.246389 44.961079 80 41 47
-12.982595 8.347089 44.981441 76 39 44
-12.988646 8.447989 45.002403 73 36 41
-12.994781 8.549036 45.023663 71 34 39
-13.000923 8.650178 45.044945 69 32 37
-13.006997 8.751366 45.065987 68 32 37
-13.012932 8.852551 45.086548 67 31 37
-13.018670 8.953689 45.106430 68 31 36
-13.024158 9.054739 45.125446 68 31 35
-13.029361 9.155669 45.143471 69 31 36
-13.034250 9.256456 45.160412 69 32 36
-13.038815 9.357082 45.176228 70 32 37
-13.043061 9.457546 45.190941 70 33 37
-13.047009 9.557855 45.204617 71 34 38
-13.050690 9.658025 45.217373 72 36 40
-13.054154 9.758087 45.229374 73 38 42
-13.057457 9.858080 45.240818 74 39 43
-13.060660 9.958046 45.251915 74 40 43
-13.063829 10.058035 45.262897 74 40 43
-13.067026 10.158092 45.273972 74 40 43
-13.070309 10.258263 45.285343 73 40 43
-13.073723 10.358587 45.297173 72 39 42
-13.077304 10.459097 45.309582 71 38 42
-13.081073 10.559812 45.322639 71 37 41
-13.085036 10.660742 45.336372 71 37 42
-13.089184 10.761882 45.350742 72 37 42
-13.093494 10.863219 45.365677 73 37 42
-13.097938 10.964731 45.381073 73 38 42
-13.102472 11.066388 45.396786 73 38 43
-13.107056 11.168154 45.412666 73 38 43
-13.111643 11.269990 45.428558 74 39 44
-13.116195 11.371865 45.444328 73 39 45
-13.120678 11.473749 45.459866 72 39 45
-13.125070 11.575618 45.475079 71 38 45
-13.129354 11.677459 45.489925 70 37 44
-13.133535 11.779269 45.504410 69 36 44
-13.137630 11.881063 45.518593 69 35 44
-13.141663 11.982864 45.532570 70 36 44
-13.145679 12.084709 45.546486 70 36 43
-13.149733 12.186648 45.560528 71 35 43
-13.153891 12.288747 45.574936 71 35 42
-13.158222 12.391069 45.589943 70 34 41
-13.162807 12.493697 45.605827 70 34 42
-13.167722 12.596710 45.622860 71 35 42
-13.173062 12.700206 45.641361 71 36 42
-13.178913 12.804278 45.661633 70 36 42
-13.185374 12.909036 45.684021 70 37 41
-13.192545 13.014588 45.708862 69 37 41
-13.200530 13.121058 45.736530 67 36 39
-13.209448 13.228582 45.767429 66 35 38
-13.219427 13.337309 45.802002 65 34 37
-13.230613 13.447412 45.840759 64 33 38
-13.243166 13.559081 45.884251 64 33 37
-13.257269 13.672538 45.933117 63 33 36
-13.273124 13.788023 45.988049 63 34 35
-13.290948 13.905807 46.049805 63 35 35
-13.243948 -3.479802 46.232262 137 68 93
-13.265878 -3.385737 46.308815 137 70 94
-13.286242 -3.290955 46.379906 138 72 96
-13.304806 -3.195434 46.444706 139 74 98
-13.321364 -3.099168 46.502510 141 76 100
-13.335766 -3.002166 46.552784 144 77 102
-13.347920 -2.904459 46.595215 145 78 103
-13.357798 -2.806090 46.629692 147 78 105
-13.365433 -2.707119 46.656345 148 78 106
-13.370912 -2.607612 46.675468 149 77 107
-13.374379 -2.507645 46.687572 151 77 107
-13.376019 -2.407298 46.693298 152 77 105
-13.376042 -2.306647 46.693382 153 75 103
-13.374677 -2.205766 46.688614 153 73 101
-13.372145 -2.104723 46.679775 151 70 96
-13.368657 -2.003574 46.667603 150 67 92
-13.364399 -1.902369 46.652737 149 65 90
-13.359515 -1.801142 46.635689 149 64 90
-13.354110 -1.699924 46.616817 149 64 89
-13.348241 -1.598730 46.596329 149 65 88
-13.341921 -1.497575 46.574268 149 65 88
-13.335117 -1.396464 46.550522 148 66 88
-13.327764 -1.295402 46.524849 147 67 89
-13.319761 -1.194393 46.496914 147 68 90
-13.310996 -1.093441 46.466316 146 69 92
-13.301341 -0.992555 46.432610 145 69 93
-13.290672 -0.891746 46.395370 144 70 94
-13.278878 -0.791031 46.354198 144 71 95
-13.265867 -0.690430 46.308781 145 73 95
-13.251574 -0.589967 46.258884 148 75 96
-13.235966 -0.489671 46.204399 150 78 98
-13.219045 -0.389571 46.145332 152 79 98
-13.200845 -0.289698 46.081799 153 80 97
-13.181430 -0.190081 46.014023 153 78 95
-13.160892 -0.090749 45.942333 152 76 92
-13.139344 0.008274 45.867111 151 75 91
-13.116916 0.106965 45.788815 150 74 90
-13.093735 0.205307 45.707897 150 73 90
-13.069939 0.303285 45.624828 151 72 91
-13.045654 0.400891 45.540054 151 71 92
-13.020999 0.498117 45.453987 151 70 92
-12.996078 0.594959 45.366989 150 69 91
-12.970978 0.691417 45.279373 148 66 89
-12.945773 0.787491 45.191391 147 64 87
-12.920532 0.883183 45.103275 146 63 86
-12.895308 0.978497 45.015224 145 62 85
-12.870155 1.073436 44.927422 145 63 85
-12.845125 1.168009 44.840042 144 63 85
-12.820280 1.262223 44.753311 144 64 86
-12.795691 1.356090 44.667477 144 65 87
-12.771447 1.449626 44.582848 143 66 89
-12.747651 1.542851 44.499779 145 68 91
-12.724425 1.635792 44.418701 147 71 94
-12.701913 1.728480 44.340115 149 73 96
-12.680273 1.820955 44.264576 153 76 98
-12.659677 1.913262 44.192673 158 81 101
-12.640304 2.005453 44.125050 161 82 100
-12.622342 2.097587 44.062347 153 72 90
-12.605972 2.189727 44.005203 143 61 79
-12.591372 2.281941 43.954239 141 59 76
-12.578710 2.374301 43.910034 141 59 78
-12.568130 2.466880 43.873108 138 57 77
-12.559766 2.559751 43.843906 135 55 75
-12.553724 2.652987 43.822815 133 55 75
-12.550084 2.746658 43.810108 133 55 76
-12.548903 2.840830 43.805981 133 56 77
-12.550205 2.935566 43.810532 133 58 77
-12.553994 3.030921 43.823757 133 59 76
-12.560241 3.126945 43.845562 132 59 76
-12.568890 3.223680 43.875755 131 59 74
-12.579859 3.321157 43.914043 131 59 73
-12.593036 3.419399 43.960045 131 60 72
-12.608287 3.518418 44.013283 131 61 72
-12.625446 3.618213 44.073185 132 62 73
-12.644326 3.718773 44.139091 132 62 73
-12.664706 3.820070 44.210236 132 62 73
-12.686349 3.922063 44.285786 132 62 73
-12.708987 4.024697 44.364811 132 63 73
-12.732335 4.127902 44.446312 133 63 74
-12.756089 4.231593 44.529236 132 63 74
-12.779932 4.335672 44.612465 131 61 73
-12.803539 4.440028 44.694874 129 60 72
-12.826586 4.544541 44.775326 129 60 72
-12.848748 4.649080 44.852692 129 60 73
-12.869720 4.753513 44.925896 129 60 74
-12.889210 4.857704 44.993935 130 61 76
-12.906960 4.961519 45.055897 130 61 78
-12.922744 5.064831 45.110996 131 62 80
-12.936381 5.167522 45.158604 132 63 82
-12.947736 5.269490 45.198238 132 63 82
-12.956720 5.370646 45.229603 131 61 79
-12.963305 5.470925 45.252590 130 60 76
-12.967514 5.570283 45.267281 130 60 76
-12.969423 5.668698 45.273949 130 60 74
-12.969160 5.766177 45.273029 128 59 72
-12.966899 5.862748 45.265133 127 58 71
-12.962855 5.958465 45.251019 125 56 70
-12.957282 6.053407 45.231564 123 54 69
-12.950455 6.147671 45.207733 120 52 67
-12.942669 6.241368 45.180550 119 53 66
-12.934224 6.334627 45.151073 119 53 65
-12.925423 6.427580 45.120350 117 53 63
-12.916555 6.520369 45.089394 115 53 62
-12.907889 6.613126 45.059143 112 53 60
-12.899670 6.705985 45.030449 109 51 58
-12.892104 6.799066 45.004040 105 50 56
-12.885367 6.892476 44.980522 101 48 54
-12.879587 6.986303 44.960346 97 46 52
-12.874859 7.080622 44.943836 92 43 49
-12.871224 7.175480 44.931152 89 40 47
-12.868698 7.270909 44.922333 87 39 46
-12.867258 7.366922 44.917305 86 38 45
-12.866853 7.463513 44.915890 86 38 44
-12.867408 7.560663 44.917828 86 38 44
-12.868834 7.658339 44.922806 85 39 45
-12.871030 7.756502 44.930473 85 40 47
-12.873890 7.855102 44.940456 86 41 49
-12.877305 7.954087 44.952377 86 42 50
-12.881167 8.053404 44.965862 86 43 51
-12.885378 8.153000 44.980560 85 44 51
-12.889843 8.252821 44.996147 83 44 50
-12.894468 8.352815 45.012295 80 41 47
-12.899176 8.452929 45.028725 76 37 43
-12.903885 8.553119 45.045166 74 35 41
-12.908532 8.653336 45.061386 72 33 39
-12.913049 8.753534 45.077152 70 32 38
-12.917384 8.853678 45.092289 70 32 37
-12.921488 8.953725 45.106613 70 31 36
-12.925327 9.053649 45.120014 71 32 36
-12.928872 9.153422 45.132389 72 32 37
-12.932112 9.253030 45.143700 72 33 37
-12.935043 9.352465 45.153931 72 33 38
-12.937687 9.451732 45.163158 73 34 38
-12.940065 9.550844 45.171463 73 35 39
-12.942223 9.649827 45.178993 74 37 41
-12.944213 9.748716 45.185940 75 39 42
-12.946093 9.847552 45.192501 75 40 43
-12.947927 9.946382 45.198910 75 40 43
-12.949787 10.045258 45.205399 74 40 43
-12.951730 10.144227 45.212181 74 40 43
-12.953813 10.243337 45.219452 73 41 43
-12.956080 10.342625 45.227371 72 40 43
-12.958569 10.442124 45.236053 72 39 42
-12.961294 10.541855 45.245567 72 38 42
-12.964259 10.641823 45.255920 72 38 42
-12.967453 10.742025 45.267067 73 38 43
-12.970851 10.842445 45.278931 73 38 43
-12.974419 10.943061 45.291382 73 38 43
-12.978112 11.043838 45.304279 73 39 43
-12.981887 11.144739 45.317455 73 38 43
-12.985697 11.245728 45.330753 73 38 43
-12.989496 11.346765 45.344017 73 38 44
-12.993254 11.447821 45.357132 72 38 44
-12.996941 11.548871 45.370003 71 38 44
-13.000542 11.649901 45.382576 71 37 44
-13.004059 11.750909 45.394852 71 37 45
-13.007507 11.851907 45.406891 71 36 45
-13.010913 11.952918 45.418781 72 36 44
-13.014320 12.053981 45.430676 73 36 44
-13.017782 12.155147 45.442757 73 36 44
-13.021364 12.256478 45.455265 73 36 44
-13.025140 12.358047 45.468445 72 35 43
-13.029183 12.459928 45.482559 72 36 43
-13.033577 12.562207 45.497894 72 37 43
-13.038407 12.664978 45.514755 71 37 42
-13.043760 12.768332 45.533443 71 37 42
-13.049729 12.872375 45.554279 70 37 41
-13.056408 12.977212 45.577591 68 36 40
-13.063896 13.082962 45.603733 66 36 39
-13.072301 13.189749 45.633076 65 35 38
-13.081742 13.297715 45.666031 63 34 37
-13.092352 13.407021 45.703068 63 33 37
-13.104282 13.517848 45.744717 63 33 36
-13.117703 13.630403 45.791565 62 33 35
-13.132802 13.744917 45.844273 62 33 35
-13.149794 13.861652 45.903587 62 33 34
-13.168907 13.980898 45.970310 63 35 35
-13.166627 -3.585546 46.310841 138 68 95
-13.189634 -3.491807 46.391762 139 71 97
-13.211301 -3.397374 46.467972 139 73 98
-13.231368 -3.302212 46.538551 141 75 100
-13.249600 -3.206303 46.602684 142 76 101
-13.265803 -3.109642 46.659672 144 77 102
-13.279829 -3.012240 46.709003 146 78 104
-13.291595 -2.914131 46.750389 147 78 104
-13.301082 -2.815361 46.783756 147 77 105
-13.308332 -2.715991 46.809261 147 75 105
-13.313446 -2.616091 46.827244 149 74 106
-13.316574 -2.515738 46.838245 151 75 107
-13.317911 -2.415013 46.842953 153 75 106
-13.317677 -2.313995 46.842125 154 74 104
-13.316099 -2.212757 46.836578 153 72 102
-13.313409 -2.111366 46.827114 151 68 97
-13.309813 -2.009880 46.814468 149 64 92
-13.305494 -1.908344 46.799278 149 63 91
-13.300591 -1.806795 46.782032 149 63 91
-13.295201 -1.705257 46.763073 150 64 91
-13.289368 -1.603747 46.742554 150 65 90
-13.283094 -1.502277 46.720490 150 65 89
-13.276332 -1.400850 46.696705 149 66 88
-13.269000 -1.299469 46.670914 148 67 89
-13.260988 -1.198139 46.642735 147 68 89
-13.252168 -1.096863 46.611713 147 69 91
-13.242402 -0.995649 46.577362 147 70 92
-13.231559 -0.894511 46.539227 146 71 93
-13.219521 -0.793466 46.496883 145 72 93
-13.206196 -0.692535 46.450016 146 73 94
-13.191518 -0.591746 46.398388 149 75 95
-13.175462 -0.491128 46.341915 151 77 96
-13.158033 -0.390713 46.280613 153 78 97
-13.139281 -0.290533 46.214657 154 79 97
-13.119280 -0.190619 46.144306 154 78 96
-13.098137 -0.091001 46.069939 154 77 94
-13.075979 0.008296 45.992004 153 76 94
-13.052948 0.107250 45.910999 152 75 93
-13.029192 0.205844 45.827442 152 74 93
-13.004855 0.304063 45.741844 151 73 93
-12.980078 0.401900 45.654690 151 72 93
-12.954984 0.499349 45.566429 152 71 94
-12.929682 0.596408 45.477432 151 69 93
-12.904263 0.693076 45.388035 150 67 92
-12.878801 0.789357 45.298473 149 66 90
-12.853354 0.885253 45.208969 148 64 89
-12.827975 0.980768 45.119705 147 64 88
-12.802705 1.075907 45.030819 146 64 88
-12.777581 1.170676 44.942455 146 65 88
-12.752657 1.265085 44.854786 145 65 88
-12.727988 1.359142 44.768021 144 66 89
-12.703650 1.452863 44.682415 144 67 91
-12.679729 1.546266 44.598278 145 69 93
-12.656339 1.639376 44.516006 147 72 96
-12.633608 1.732221 44.436058 151 75 99
-12.611688 1.824838 44.358959 156 79 103
-12.590743 1.917271 44.285290 161 84 106
-12.570949 2.009572 44.215668 161 82 102
-12.552491 2.101795 44.150745 152 71 90
-12.535550 2.194004 44.091160 142 61 79
-12.520308 2.286266 44.037548 140 59 77
-12.506936 2.378653 43.990513 140 59 77
-12.495586 2.471237 43.950596 137 57 76
-12.486402 2.564094 43.918293 135 55 75
-12.479497 2.657297 43.894005 133 55 74
-12.474962 2.750917 43.878052 132 55 75
-12.472863 2.845025 43.870674 132 57 76
-12.473240 2.939684 43.871998 133 59 77
-12.476101 3.034953 43.882057 133 60 77
-12.481429 3.130885 43.900799 132 60 76
-12.489176 3.227522 43.928047 131 60 75
-12.499269 3.324901 43.963547 131 60 73
-12.511601 3.423046 44.006927 130 60 73
-12.526046 3.521971 44.057732 131 60 73
-12.542442 3.621679 44.115402 131 61 74
-12.560602 3.722159 44.179276 132 62 74
-12.580314 3.823385 44.248604 133 63 74
-12.601336 3.925318 44.322544 133 63 74
-12.623405 4.027905 44.400169 132 63 73
-12.646235 4.131074 44.480469 132 63 73
-12.669522 4.234743 44.562378 131 62 73
-12.692952 4.338813 44.644787 130 61 73
-12.716199 4.443175 44.726551 129 61 72
-12.738935 4.547707 44.806519 129 60 72
-12.760839 4.652281 44.883568 129 60 73
-12.781605 4.756763 44.956608 130 61 75
-12.800942 4.861017 45.024620 131 62 77
-12.818593 4.964911 45.086704 131 63 79
-12.834332 5.068318 45.142059 132 63 81
-12.847977 5.171122 45.190056 132 63 82
-12.859391 5.273217 45.230206 132 63 82
-12.868492 5.374519 45.262215 130 61 79
-12.875246 5.474961 45.285969 129 60 76
-12.879674 5.574499 45.301544 129 60 76
-12.881853 5.673113 45.309208 129 60 75
-12.881905 5.770808 45.309387 127 59 73
-12.880000 5.867612 45.302692 125 57 71
-12.876352 5.963580 45.289860 123 56 70
-12.871204 6.058786 45.271751 121 54 68
-12.864826 6.153326 45.249317 120 53 67
-12.857505 6.247311 45.223568 119 54 66
-12.849534 6.340865 45.195534 118 54 65
-12.841203 6.434116 45.166229 117 54 64
-12.832793 6.527202 45.136650 115 53 62
-12.824561 6.620252 45.107697 112 52 61
-12.816743 6.713394 45.080196 109 51 59
-12.809536 6.806742 45.054848 106 50 57
-12.803102 6.900397 45.032215 102 48 54
-12.797563 6.994444 45.012733 98 46 53
-12.792999 7.088948 44.996685 94 44 51
-12.789449 7.183951 44.984196 91 42 49
-12.786917 7.279480 44.975292 89 40 48
-12.785374 7.375541 44.969860 89 39 47
-12.784762 7.472124 44.967712 89 40 47
-12.785004 7.569202 44.968559 90 40 47
-12.786003 7.666739 44.972076 90 42 47
-12.787659 7.764688 44.977898 90 42 49
-12.789863 7.863001 44.985653 90 43 51
-12.792504 7.961619 44.994942 90 44 52
-12.795482 8.060488 45.005413 89 46 53
-12.798694 8.159553 45.016712 89 47 54
-12.802054 8.258761 45.028530 87 46 53
-12.805477 8.358062 45.040573 83 43 49
-12.808888 8.457406 45.052570 79 39 46
-12.812222 8.556750 45.064293 77 36 43
-12.815419 8.656054 45.075539 75 34 41
-12.818430 8.755279 45.086132 73 33 40
-12.821212 8.854390 45.095917 72 32 38
-12.823731 8.953361 45.104778 72 32 37
-12.825965 9.052168 45.112633 74 33 37
-12.827899 9.150795 45.119438 75 34 38
-12.829532 9.249234 45.125179 75 34 39
-12.830876 9.347488 45.129906 75 35 39
-12.831958 9.445569 45.133713 75 36 40
-12.832813 9.543498 45.136719 76 37 40
-12.833489 9.641306 45.139099 76 38 41
-12.834045 9.739033 45.141056 76 40 42
-12.834546 9.836725 45.142815 76 40 44
-12.835057 9.934433 45.144611 76 41 44
-12.835648 10.032211 45.146690 75 41 43
-12.836377 10.130108 45.149254 74 41 43
-12.837303 10.228172 45.152512 74 41 43
-12.838466 10.326442 45.156601 73 40 43
-12.839900 10.424948 45.161644 73 40 43
-12.841617 10.523708 45.167683 73 39 43
-12.843620 10.622732 45.174732 73 39 43
-12.845892 10.722010 45.182720 74 39 43
-12.848406 10.821526 45.191566 74 39 43
-12.851124 10.921253 45.201122 74 39 43
-12.853999 11.021156 45.211235 74 39 43
-12.856982 11.121198 45.221729 73 39 42
-12.860024 11.221334 45.232430 73 39 42
-12.863078 11.321528 45.243168 73 39 43
-12.866107 11.421746 45.253822 72 38 43
-12.869081 11.521961 45.264286 72 38 44
-12.871986 11.622159 45.274506 72 37 45
-12.874821 11.722336 45.284473 72 37 46
-12.877597 11.822503 45.294239 73 37 46
-12.880344 11.922686 45.303902 73 37 46
-12.883105 12.022922 45.313614 74 37 44
-12.885934 12.123263 45.323563 74 36 44
-12.888897 12.223776 45.333981 75 37 45
-12.892066 12.324531 45.345131 75 37 45
-12.895520 12.425607 45.357277 74 38 44
-12.899340 12.527092 45.370712 73 38 43
-12.903611 12.629077 45.385738 72 38 42
-12.908421 12.731656 45.402653 71 38 41
-12.913857 12.834932 45.421772 69 37 40
-12.920011 12.939010 45.443420 67 36 39
-12.926976 13.043999 45.467922 66 36 39
-12.934854 13.150021 45.495625 65 35 38
-12.943755 13.257211 45.526936 64 34 38
-12.953804 13.365720 45.562279 63 33 37
-12.965141 13.475720 45.602158 62 32 36
-12.977926 13.587409 45.647125 62 32 35
-12.992340 13.701009 45.697823 62 33 34
-13.008585 13.816772 45.754963 62 34 35
-13.026890 13.934984 45.819344 62 34 35
-13.047499 14.055958 45.891830 62 35 36
-13.086294 -3.690876 46.379944 138 69 97
-13.110212 -3.597460 46.464714 140 71 100
-13.133036 -3.503386 46.545601 142 74 101
-13.154485 -3.408607 46.621620 143 76 102
-13.174305 -3.313091 46.691868 144 77 103
-13.192267 -3.216819 46.755531 145 78 104
-13.208184 -3.119790 46.811939 147 78 104
-13.221911 -3.022016 46.860592 149 78 105
-13.233377 -2.923534 46.901230 149 77 105
-13.242569 -2.824391 46.933807 147 74 104
-13.249541 -2.724651 46.958519 146 72 103
-13.254400 -2.624387 46.975739 148 71 104
-13.257307 -2.523676 46.986042 151 72 106
-13.258461 -2.422601 46.990131 154 74 107
-13.258087 -2.321241 46.988808 154 73 105
-13.256419 -2.219669 46.982891 153 70 102
-13.253683 -2.117953 46.973198 151 67 97
-13.250088 -2.016147 46.960453 149 63 92
-13.245808 -1.914298 46.945286 149 62 91
-13.240974 -1.812438 46.928154 149 63 91
-13.235676 -1.710592 46.909374 150 64 91
-13.229943 -1.608774 46.889057 150 65 90
-13.223764 -1.506993 46.867161 150 66 90
-13.217080 -1.405252 46.843472 149 67 89
-13.209796 -1.303555 46.817654 148 68 89
-13.201786 -1.201903 46.789265 148 69 89
-13.192912 -1.100301 46.757812 148 71 90
-13.183026 -0.998758 46.722778 148 71 91
-13.171991 -0.897287 46.683666 147 72 92
-13.159686 -0.795909 46.640057 146 73 92
-13.146019 -0.694646 46.591618 147 74 93
-13.130926 -0.593528 46.538124 149 75 94
-13.114389 -0.492587 46.479515 152 77 96
-13.096425 -0.391855 46.415852 154 78 97
-13.077094 -0.291367 46.347336 155 78 98
-13.056484 -0.191156 46.274292 156 78 98
-13.034719 -0.091252 46.197155 157 78 98
-13.011942 0.008319 46.116425 156 78 98
-12.988312 0.107535 46.032677 155 78 97
-12.963987 0.206378 45.946468 154 76 96
-12.939129 0.304838 45.858368 152 74 95
-12.913889 0.402905 45.768909 152 73 95
-12.888396 0.500578 45.678562 153 71 95
-12.862769 0.597854 45.587734 153 70 95
-12.837095 0.694736 45.496742 152 68 94
-12.811448 0.791228 45.405846 151 67 93
-12.785885 0.887334 45.315243 150 66 91
-12.760446 0.983058 45.225082 149 65 90
-12.735162 1.078407 45.135471 148 65 89
-12.710061 1.173387 45.046513 147 65 89
-12.685178 1.268005 44.958321 146 66 89
-12.660557 1.362270 44.871059 145 67 90
-12.636254 1.456197 44.784927 145 68 92
-12.612344 1.549800 44.700188 146 69 94
-12.588923 1.643101 44.617176 148 72 96
-12.566106 1.736129 44.536312 152 76 100
-12.544034 1.828916 44.458084 158 80 105
-12.522862 1.921504 44.383049 162 84 107
-12.502761 2.013941 44.311806 159 79 101
-12.483908 2.106281 44.244987 150 69 89
-12.466484 2.198586 44.183235 143 62 80
-12.450674 2.290921 44.127201 141 60 77
-12.436651 2.383357 44.077503 140 59 77
-12.424577 2.475967 44.034710 137 58 76
-12.414598 2.568826 43.999340 135 57 75
-12.406836 2.662009 43.971832 134 57 76
-12.401395 2.755588 43.952549 134 57 77
-12.398353 2.849636 43.941765 133 58 77
-12.397757 2.944218 43.939655 134 60 77
-12.399630 3.039396 43.946293 135 62 78
-12.403963 3.135225 43.961651 133 61 77
-12.410720 3.231750 43.985600 132 61 75
-12.419837 3.329012 44.017910 131 60 74
-12.431217 3.427038 44.058247 130 59 74
-12.444739 3.525843 44.106171 130 60 74
-12.460248 3.625434 44.161137 132 61 75
-12.477565 3.725801 44.222511 134 63 76
-12.496476 3.826921 44.289536 135 65 77
-12.516750 3.928758 44.361385 135 64 75
-12.538121 4.031258 44.437130 133 63 73
-12.560308 4.134352 44.515762 132 62 72
-12.583008 4.237958 44.596214 131 62 73
-12.605906 4.341980 44.677368 130 62 72
-12.628678 4.446307 44.758076 130 62 72
-12.650996 4.550818 44.837177 129 61 72
-12.672543 4.655387 44.913540 129 61 72
-12.693007 4.759881 44.986073 131 62 75
-12.712105 4.864162 45.053757 132 62 77
-12.729573 4.968101 45.115665 132 63 79
-12.745189 5.071569 45.171009 132 63 81
-12.758772 5.174451 45.219151 132 63 81
-12.770184 5.276644 45.259594 131 63 80
-12.779341 5.378062 45.292049 130 62 78
-12.786207 5.478638 45.316387 129 60 76
-12.790806 5.578331 45.332684 129 60 75
-12.793206 5.677118 45.341190 127 60 74
-12.793531 5.775005 45.342346 125 58 72
-12.791946 5.872020 45.336727 124 56 70
-12.788658 5.968216 45.325073 122 55 69
-12.783904 6.063667 45.308224 120 54 68
-12.777948 6.158466 45.287117 119 54 67
-12.771068 6.252721 45.262730 118 54 66
-12.763549 6.346553 45.236080 117 55 66
-12.755670 6.440089 45.208157 117 54 64
-12.747702 6.533459 45.179916 115 54 63
-12.739895 6.626791 45.152248 112 53 62
-12.732471 6.720206 45.125938 110 52 60
-12.725618 6.813812 45.101650 106 50 58
-12.719490 6.907709 45.079929 103 48 56
-12.714196 7.001970 45.061169 100 47 55
-12.709809 7.096657 45.045620 97 45 53
-12.706359 7.191808 45.033394 94 43 51
-12.703842 7.287441 45.024471 93 41 50
-12.702222 7.383556 45.018730 92 41 49
-12.701436 7.480139 45.015942 93 42 49
-12.701398 7.577155 45.015808 93 43 49
-12.702013 7.674566 45.017986 93 44 50
-12.703172 7.772318 45.022095 94 45 51
-12.704768 7.870359 45.027752 94 46 53
-12.706689 7.968629 45.034561 94 47 55
-12.708834 8.067070 45.042160 94 48 56
-12.711105 8.165625 45.050213 93 50 56
-12.713420 8.264242 45.058418 91 48 54
-12.715698 8.362871 45.066490 86 44 51
-12.717875 8.461468 45.074203 82 40 47
-12.719893 8.559990 45.081356 80 38 45
-12.721702 8.658402 45.087769 77 35 42
-12.723266 8.756673 45.093311 76 34 42
-12.724554 8.854774 45.097878 75 34 41
-12.725545 8.952688 45.101391 75 33 39
-12.726231 9.050399 45.103821 77 34 39
-12.726608 9.147899 45.105156 78 35 40
-12.726690 9.245191 45.105450 78 36 40
-12.726500 9.342282 45.104774 78 37 41
-12.726073 9.439197 45.103264 78 38 41
-12.725456 9.535962 45.101074 78 39 42
-12.724703 9.632614 45.098404 78 40 42
-12.723877 9.729199 45.095478 78 41 43
-12.723047 9.825769 45.092537 78 41 44
-12.722284 9.922379 45.089832 77 41 45
-12.721655 10.019081 45.087601 76 41 44
-12.721221 10.115931 45.086063 75 41 44
-12.721035 10.212971 45.085403 74 41 44
-12.721140 10.310245 45.085777 73 40 43
-12.721564 10.407782 45.087280 73 40 43
-12.722318 10.505597 45.089951 73 39 43
-12.723398 10.603696 45.093781 74 39 44
-12.724787 10.702071 45.098701 75 39 44
-12.726451 10.800701 45.104603 75 40 44
-12.728349 10.899557 45.111328 75 40 44
-12.730432 10.998601 45.118710 75 40 43
-12.732645 11.097791 45.126553 74 39 42
-12.734936 11.197083 45.134670 74 39 42
-12.737253 11.296433 45.142887 73 39 42
-12.739560 11.395809 45.151062 73 38 43
-12.741823 11.495182 45.159084 73 38 44
-12.744024 11.594532 45.166882 73 38 45
-12.746161 11.693858 45.174458 74 37 46
-12.748249 11.793170 45.181858 74 37 46
-12.750315 11.892493 45.189178 75 37 46
-12.752398 11.991865 45.196564 75 37 45
-12.754559 12.091342 45.204220 76 37 45
-12.756864 12.190989 45.212387 76 37 45
-12.759388 12.290884 45.221336 76 38 45
-12.762210 12.391106 45.231335 75 39 44
-12.765412 12.491743 45.242687 74 39 42
-12.769083 12.592891 45.255695 72 38 41
-12.773307 12.694645 45.270664 71 38 40
-12.778173 12.797107 45.287910 69 37 40
-12.783771 12.900380 45.307751 67 36 39
-12.790190 13.004576 45.330502 65 35 39
-12.797525 13.109807 45.356499 65 34 39
-12.805882 13.216206 45.386120 64 33 38
-12.815378 13.323915 45.419773 63 33 37
-12.826144 13.433101 45.457932 62 32 36
-12.838333 13.543951 45.501129 62 33 35
-12.852118 13.656684 45.549984 61 33 34
-12.867691 13.771543 45.605179 62 33 35
-12.885277 13.888807 45.667507 62 34 36
-12.905115 14.008785 45.737816 62 34 36
-12.927474 14.131823 45.817059 61 34 36
-13.002988 -3.795723 46.439491 138 69 98
-13.027660 -3.702627 46.527607 140 72 101
-13.051472 -3.608914 46.612648 142 74 103
-13.074158 -3.514531 46.693668 145 76 105
-13.095442 -3.419433 46.769688 146 78 106
-13.115076 -3.323589 46.839809 148 79 106
-13.132837 -3.226982 46.903240 149 78 106
-13.148542 -3.129612 46.959328 149 78 104
-13.162058 -3.031497 47.007603 150 77 104
-13.173317 -2.932671 47.047810 149 75 103
-13.182320 -2.833187 47.079964 147 72 101
-13.189125 -2.733108 47.104267 145 69 99
-13.193847 -2.632509 47.121136 146 68 100
-13.196654 -2.531471 47.131161 150 69 102
-13.197751 -2.430074 47.135078 153 71 104
-13.197364 -2.328398 47.133694 154 71 103
-13.195724 -2.226517 47.127842 153 69 100
-13.193061 -2.124496 47.118328 151 66 96
-13.189573 -2.022390 47.105869 149 63 91
-13.185431 -1.920243 47.091076 149 62 90
-13.180755 -1.818085 47.074375 150 63 91
-13.175621 -1.715940 47.056042 150 64 91
-13.170050 -1.613821 47.036140 151 66 91
-13.164013 -1.511733 47.014584 151 68 92
-13.157438 -1.409681 46.991104 151 69 92
-13.150219 -1.307666 46.965321 151 70 92
-13.142216 -1.205691 46.936737 151 72 92
-13.133282 -1.103760 46.904827 151 73 93
-13.123260 -1.001884 46.869038 149 73 93
-13.112012 -0.900078 46.828865 148 73 93
-13.099409 -0.798363 46.783855 148 73 92
-13.085365 -0.696765 46.733700 148 74 92
-13.069822 -0.595315 46.678188 150 75 94
-13.052771 -0.494047 46.617287 153 77 96
-13.034238 -0.392997 46.551098 155 78 98
-13.014297 -0.292201 46.479881 157 78 99
-12.993055 -0.191692 46.404018 158 79 100
-12.970652 -0.091503 46.324005 158 79 100
-12.947245 0.008341 46.240406 157 79 101
-12.923012 0.107818 46.153858 156 79 100
-12.898129 0.206911 46.064995 155 78 99
-12.872770 0.305609 45.974426 154 76 98
-12.847094 0.403907 45.882725 153 73 96
-12.821245 0.501803 45.790405 154 72 97
-12.795341 0.599299 45.697891 154 70 97
-12.769477 0.696397 45.605518 154 69 96
-12.743719 0.793105 45.513527 153 67 94
-12.718122 0.889426 45.422104 152 66 92
-12.692716 0.985369 45.331371 151 66 91
-12.667523 1.080938 45.241398 150 65 90
-12.642558 1.176141 45.152233 148 66 90
-12.617838 1.270984 45.063950 147 66 89
-12.593391 1.365476 44.976639 146 67 90
-12.569256 1.459627 44.890442 146 68 92
-12.545488 1.553453 44.805553 147 69 94
-12.522169 1.646972 44.722271 149 72 96
-12.499400 1.740208 44.640953 152 75 100
-12.477305 1.833193 44.562046 158 78 103
-12.456030 1.925964 44.486061 159 79 103
-12.435736 2.018566 44.413582 156 74 96
-12.416594 2.111053 44.345215 148 66 86
-12.398783 2.203480 44.281605 143 62 79
-12.382484 2.295915 44.223392 141 60 77
-12.367876 2.388424 44.171219 139 60 76
-12.355123 2.481082 44.125675 137 59 75
-12.344377 2.573961 44.087296 135 58 75
-12.335773 2.667138 44.056568 135 59 76
-12.329424 2.760688 44.033894 136 60 78
-12.325414 2.854681 44.019569 135 60 77
-12.323808 2.949188 44.013836 135 60 77
-12.324636 3.044272 44.016796 136 62 79
-12.327907 3.139990 44.028473 135 62 78
-12.333592 3.236392 44.048779 133 61 76
-12.341639 3.333520 44.077518 131 60 75
-12.351963 3.431405 44.114388 131 59 75
-12.364449 3.530065 44.158981 131 60 74
-12.378954 3.629510 44.210785 133 62 76
-12.395303 3.729733 44.269176 136 64 78
-12.413290 3.830713 44.333416 138 66 79
-12.432687 3.932416 44.402691 137 65 77
-12.453235 4.034791 44.476078 135 64 75
-12.474653 4.137771 44.552570 134 64 74
-12.496643 4.241274 44.631107 133 64 74
-12.518891 4.345206 44.710564 132 63 73
-12.541076 4.449458 44.789795 131 63 73
-12.562869 4.553909 44.867630 131 62 73
-12.583954 4.658434 44.942932 131 62 74
-12.604021 4.762899 45.014603 132 62 75
-12.622786 4.867171 45.081619 132 62 76
-12.639986 4.971116 45.143047 132 63 77
-12.655400 5.074610 45.198101 131 62 78
-12.668846 5.177537 45.246120 130 62 78
-12.680186 5.279795 45.286621 130 62 77
-12.689334 5.381297 45.319290 129 61 77
-12.696254 5.481977 45.344006 129 60 76
-12.700967 5.581795 45.360840 129 60 75
-12.703539 5.680728 45.370026 126 59 73
-12.704088 5.778780 45.371986 124 58 71
-12.702780 5.875982 45.367313 123 56 70
-12.699810 5.972382 45.356705 121 55 68
-12.695413 6.068054 45.341000 119 54 67
-12.689843 6.163089 45.321110 118 55 66
-12.683373 6.257594 45.298004 117 55 66
-12.676278 6.351686 45.272663 117 55 65
-12.668828 6.445488 45.246056 116 55 64
-12.661286 6.539128 45.219120 114 54 63
-12.653888 6.632728 45.192699 112 53 62
-12.646850 6.726405 45.167564 110 52 61
-12.640347 6.820262 45.144341 108 51 60
-12.634524 6.914391 45.123543 105 50 59
-12.629483 7.008865 45.105537 103 48 57
-12.625286 7.103735 45.090549 101 47 56
-12.621954 7.199035 45.078648 98 44 53
-12.619477 7.294777 45.069801 96 42 51
-12.617810 7.390956 45.063847 96 43 50
-12.616884 7.487549 45.060543 96 44 51
-12.616611 7.584520 45.059566 97 45 51
-12.616888 7.681822 45.060555 97 46 52
-12.617603 7.779398 45.063110 97 47 53
-12.618648 7.877192 45.066841 97 48 55
-12.619908 7.975137 45.071342 97 49 56
-12.621284 8.073176 45.076260 97 50 58
-12.622683 8.171250 45.081249 96 51 58
-12.624020 8.269306 45.086025 92 48 55
-12.625224 8.367294 45.090328 88 45 52
-12.626237 8.465173 45.093945 85 42 49
-12.627007 8.562902 45.096695 83 39 47
-12.627500 8.660454 45.098454 80 36 44
-12.627685 8.757799 45.099113 79 35 43
-12.627546 8.854921 45.098621 79 35 43
-12.627077 8.951806 45.096943 79 35 42
-12.626280 9.048449 45.094097 80 36 42
-12.625166 9.144849 45.090118 81 37 42
-12.623760 9.241019 45.085098 81 37 42
-12.622098 9.336978 45.079163 81 38 43
-12.620224 9.432753 45.072472 81 39 43
-12.618194 9.528380 45.065216 80 40 43
-12.616069 9.623904 45.057629 80 41 44
-12.613918 9.719378 45.049950 80 41 44
-12.611816 9.814854 45.042442 79 42 45
-12.609834 9.910392 45.035358 78 42 46
-12.608039 10.006049 45.028954 78 42 45
-12.606493 10.101877 45.023430 77 41 44
-12.605250 10.197927 45.018993 75 41 44
-12.604347 10.294235 45.015766 74 41 44
-12.603809 10.390831 45.013847 74 40 43
-12.603646 10.487730 45.013264 74 39 43
-12.603849 10.584933 45.013988 75 39 44
-12.604395 10.682431 45.015938 75 39 44
-12.605249 10.780201 45.018990 76 40 44
-12.606362 10.878207 45.022964 76 40 44
-12.607683 10.976411 45.027679 75 40 43
-12.609152 11.074765 45.032925 75 39 42
-12.610712 11.173224 45.038498 75 39 42
-12.612311 11.271741 45.044209 74 38 42
-12.613906 11.370278 45.049904 74 38 42
-12.615460 11.468804 45.055458 74 38 43
-12.616959 11.567303 45.060810 74 37 44
-12.618393 11.665764 45.065929 75 37 45
-12.619779 11.764203 45.070881 76 37 46
-12.621143 11.862643 45.075752 76 37 46
-12.622529 11.961124 45.080704 76 37 46
-12.623997 12.059705 45.085941 77 38 46
-12.625612 12.158451 45.091717 77 39 46
-12.627458 12.257444 45.098305 76 39 45
-12.629611 12.356769 45.105995 75 39 44
-12.632158 12.456513 45.115093 74 39 42
-12.635190 12.556780 45.125919 72 39 41
-12.638792 12.657663 45.138786 71 38 40
-12.643054 12.759269 45.154007 69 37 40
-12.648065 12.861700 45.171902 67 36 39
-12.653912 12.965067 45.192783 66 35 39
-12.660686 13.069481 45.216980 65 34 39
-12.668491 13.175070 45.244854 64 33 38
-12.677434 13.281972 45.276791 63 33 37
-12.687645 13.390349 45.313259 63 32 36
-12.699265 13.500383 45.354763 62 33 36
-12.712462 13.612285 45.401894 61 33 35
-12.727424 13.726291 45.455326 61 33 35
-12.744365 13.842678 45.515831 61 34 36
-12.763523 13.961752 45.584255 61 34 36
-12.785164 14.083856 45.661545 61 34 36
-12.809568 14.209358 45.748703 60 34 36
-12.916709 -3.900006 46.489262 138 70 96
-12.942012 -3.807235 46.580334 140 72 100
-12.966660 -3.713883 46.669044 142 74 103
-12.990415 -3.619900 46.754539 144 76 105
-13.013015 -3.525235 46.835884 147 78 107
-13.034194 -3.429846 46.912113 150 79 108
-13.053706 -3.333702 46.982338 151 79 108
-13.071339 -3.236790 47.045799 151 78 106
-13.086913 -3.139111 47.101856 150 75 103
-13.100307 -3.040684 47.150066 149 73 101
-13.111463 -2.941547 47.190212 148 71 100
-13.120382 -2.841753 47.222317 146 67 99
-13.127137 -2.741368 47.246628 145 65 97
-13.131845 -2.640467 47.263573 146 64 98
-13.134678 -2.539130 47.273769 148 65 99
-13.135842 -2.437440 47.277958 150 66 99
-13.135567 -2.335476 47.276966 152 67 99
-13.134078 -2.233310 47.271610 152 67 97
-13.131599 -2.131006 47.262688 151 65 94
-13.128326 -2.028617 47.250908 150 63 91
-13.124416 -1.926186 47.236835 149 63 90
-13.119982 -1.823743 47.220875 150 63 91
-13.115081 -1.721308 47.203236 151 65 92
-13.109725 -1.618892 47.183960 152 67 92
-13.103872 -1.516502 47.162891 152 69 93
-13.097433 -1.414140 47.139721 153 70 95
-13.090290 -1.311806 47.114010 153 72 95
-13.082294 -1.209505 47.085232 154 73 95
-13.073288 -1.107243 47.052818 153 73 95
-13.063111 -1.005030 47.016190 152 73 95
-13.051618 -0.902883 46.974819 151 73 95
-13.038686 -0.800827 46.928280 150 73 95
-13.024229 -0.698890 46.876244 150 73 94
-13.008197 -0.597105 46.818542 151 74 95
-12.990592 -0.495508 46.755180 154 76 97
-12.971455 -0.394138 46.686302 156 78 100
-12.950875 -0.293033 46.612236 158 79 101
-12.928976 -0.192227 46.533417 158 80 102
-12.905915 -0.091753 46.450413 158 80 102
-12.881869 0.008363 46.363873 158 80 102
-12.857035 0.108099 46.274483 157 80 101
-12.831601 0.207440 46.182949 156 79 100
-12.805758 0.306377 46.089931 155 77 98
-12.779677 0.404905 45.996067 154 74 97
-12.753510 0.503025 45.901886 154 72 97
-12.727382 0.600741 45.807842 155 71 97
-12.701385 0.698058 45.714279 154 69 96
-12.675589 0.794985 45.621433 153 68 94
-12.650040 0.891529 45.529480 152 66 92
-12.624761 0.987697 45.438496 151 65 90
-12.599760 1.083497 45.348515 150 65 89
-12.575038 1.178936 45.259537 149 65 89
-12.550598 1.274019 45.171574 148 66 89
-12.526447 1.368755 45.084652 147 67 90
-12.502606 1.463152 44.998844 147 68 91
-12.479114 1.557223 44.914291 147 69 93
-12.456030 1.650983 44.831207 149 70 95
-12.433439 1.744455 44.749901 152 72 97
-12.411451 1.837665 44.670761 155 74 99
-12.390195 1.930648 44.594257 155 74 98
-12.369823 2.023446 44.520935 151 69 90
-12.350499 2.116107 44.451385 145 63 81
-12.332397 2.208687 44.386234 142 61 77
-12.315694 2.301248 44.326115 141 60 76
-12.300569 2.393856 44.271679 138 60 75
-12.287190 2.486584 44.223526 137 60 74
-12.275716 2.579504 44.182228 135 59 74
-12.266291 2.672692 44.148304 136 60 75
-12.259033 2.766223 44.122185 137 61 78
-12.254044 2.860171 44.104225 136 61 78
-12.251395 2.954606 44.094692 135 60 78
-12.251133 3.049594 44.093750 136 61 79
-12.253278 3.145196 44.101471 135 61 78
-12.257816 3.241464 44.117805 133 60 77
-12.264707 3.338443 44.142605 132 59 76
-12.273877 3.436167 44.175610 132 59 75
-12.285222 3.534659 44.216442 132 59 75
-12.298610 3.633930 44.264626 134 61 77
-12.313874 3.733978 44.319565 137 64 79
-12.330817 3.834786 44.380547 139 66 80
-12.349216 3.936320 44.446770 139 66 79
-12.368818 4.038532 44.517319 137 66 77
-12.389349 4.141359 44.591213 136 66 76
-12.410510 4.244720 44.667374 134 65 75
-12.431993 4.348523 44.744694 133 63 74
-12.453476 4.452659 44.822014 132 63 74
-12.474638 4.557010 44.898182 132 63 74
-12.495158 4.661450 44.972034 133 63 74
-12.514731 4.765849 45.042484 133 63 75
-12.533072 4.870072 45.108490 133 62 75
-12.549918 4.973988 45.169128 132 62 75
-12.565049 5.077472 45.223583 131 62 75
-12.578281 5.180408 45.271210 130 61 75
-12.589477 5.282695 45.311504 129 61 75
-12.598548 5.384249 45.344154 129 61 75
-12.605459 5.485002 45.369026 129 62 76
-12.610226 5.584914 45.386181 129 62 76
-12.612914 5.683962 45.395855 126 59 73
-12.613638 5.782153 45.398464 123 57 70
-12.612553 5.879510 45.394558 122 56 69
-12.609857 5.976088 45.384853 119 55 68
-12.605773 6.071955 45.370155 118 55 67
-12.600554 6.167203 45.351372 117 55 67
-12.594458 6.261935 45.329433 116 55 66
-12.587756 6.356266 45.305313 116 55 65
-12.580709 6.450316 45.279949 115 55 64
-12.573568 6.544208 45.254250 113 54 64
-12.566565 6.638061 45.229038 112 53 63
-12.559899 6.731987 45.205051 111 53 63
-12.553742 6.826086 45.182888 109 52 62
-12.548226 6.920443 45.163036 107 52 61
-12.543444 7.015124 45.145824 106 51 60
-12.539450 7.110179 45.131447 104 49 58
-12.536257 7.205632 45.119957 101 46 55
-12.533846 7.301491 45.111279 99 44 52
-12.532166 7.397744 45.105232 99 45 52
-12.531143 7.494364 45.101551 100 46 53
-12.530681 7.591308 45.099888 100 47 53
-12.530672 7.688522 45.099854 100 48 54
-12.531003 7.785948 45.101048 100 49 55
-12.531561 7.883522 45.103054 100 49 55
-12.532228 7.981174 45.105457 99 50 56
-12.532908 8.078844 45.107906 98 51 57
-12.533506 8.176472 45.110054 96 51 57
-12.533943 8.274002 45.111629 92 48 55
-12.534150 8.371386 45.112373 90 46 53
-12.534076 8.468583 45.112106 88 44 52
-12.533679 8.565558 45.110680 86 42 50
-12.532932 8.662285 45.107990 83 39 47
-12.531817 8.758744 45.103977 82 36 45
-12.530329 8.854921 45.098621 83 37 46
-12.528474 8.950813 45.091946 83 38 46
-12.526268 9.046423 45.084003 84 38 45
-12.523734 9.141759 45.074883 84 39 45
-12.520910 9.236842 45.064720 84 39 45
-12.517843 9.331700 45.053684 84 40 45
-12.514590 9.426371 45.041973 84 41 45
-12.511210 9.520894 45.029812 83 42 45
-12.507778 9.615325 45.017460 83 42 45
-12.504367 9.709719 45.005180 83 42 45
-12.501054 9.804135 44.993252 82 43 46
-12.497911 9.898637 44.981945 81 43 46
-12.495011 9.993283 44.971508 80 42 46
-12.492412 10.088127 44.962151 78 41 44
-12.490166 10.183220 44.954067 77 41 44
-12.488309 10.278598 44.947384 76 40 43
-12.486862 10.374287 44.942177 76 40 43
-12.485830 10.470302 44.938465 76 39 43
-12.485203 10.566643 44.936207 76 40 44
-12.484952 10.663296 44.935303 76 39 44
-12.485034 10.760232 44.935596 77 40 44
-12.485400 10.857416 44.936916 78 40 43
-12.485991 10.954803 44.939041 77 40 43
-12.486746 11.052345 44.941757 77 39 42
-12.487599 11.149986 44.944828 77 39 42
-12.488498 11.247682 44.948067 76 39 41
-12.489395 11.345389 44.951294 76 39 41
-12.490252 11.443075 44.954380 76 38 42
-12.491049 11.540717 44.957245 76 37 43
-12.491779 11.638310 44.959877 77 37 45
-12.492457 11.735866 44.962315 77 36 46
-12.493111 11.833408 44.964668 77 36 46
-12.493783 11.930979 44.967087 77 37 46
-12.494535 12.028637 44.969795 78 39 47
-12.495440 12.126454 44.973049 78 40 48
-12.496576 12.224513 44.977142 77 40 46
-12.498032 12.322904 44.982376 76 40 44
-12.499891 12.421719 44.989071 75 40 43
-12.502249 12.521061 44.997559 72 39 41
-12.505196 12.621035 45.008163 71 38 41
-12.508820 12.721743 45.021206 70 37 40
-12.513211 12.823294 45.037010 68 36 40
-12.518456 12.925795 45.055893 66 35 39
-12.524651 13.029364 45.078186 65 34 38
-12.531887 13.134121 45.104229 64 34 38
-12.540274 13.240205 45.134411 63 33 37
-12.549931 13.347770 45.169170 63 33 37
-12.560999 13.456998 45.209007 62 33 36
-12.573638 13.568091 45.254498 61 33 35
-12.588027 13.681284 45.306286 61 33 35
-12.604380 13.796849 45.365143 60 33 36
-12.622931 13.915091 45.431908 60 33 36
-12.643937 14.036346 45.507515 60 33 36
-12.667685 14.160992 45.592983 60 34 36
-12.694471 14.289428 45.689396 59 34 36
-12.827422 -4.003632 46.528904 141 72 97
-12.853272 -3.911198 46.622669 142 73 99
-12.878635 -3.818215 46.714668 143 74 102
-12.903307 -3.724635 46.804161 144 74 103
-12.927057 -3.630411 46.890312 146 75 105
-12.949631 -3.535494 46.972191 148 77 108
-12.970765 -3.439843 47.048855 153 79 110
-12.990227 -3.343431 47.119446 155 80 109
-13.007807 -3.246244 47.183212 154 77 106
-13.023337 -3.148288 47.239548 151 72 101
-13.036704 -3.049582 47.288033 148 68 97
-13.047855 -2.950166 47.328480 147 66 95
-13.056804 -2.850095 47.360939 146 64 94
-13.063622 -2.749436 47.385674 145 62 95
-13.068437 -2.648264 47.403133 146 62 94
-13.071419 -2.546660 47.413952 146 62 94
-13.072776 -2.444705 47.418873 147 62 94
-13.072732 -2.342478 47.418716 149 63 94
-13.071512 -2.240050 47.414291 151 64 94
-13.069330 -2.137484 47.406376 151 64 92
-13.066372 -2.034832 47.395649 151 63 90
-13.062784 -1.932132 47.382633 151 64 90
-13.058664 -1.829414 47.367687 151 65 92
-13.054061 -1.726696 47.350990 152 66 92
-13.048967 -1.623989 47.332516 153 68 93
-13.043330 -1.521299 47.312065 153 69 95
-13.037046 -1.418626 47.289276 154 70 97
-13.029984 -1.315973 47.263657 155 72 97
-13.021989 -1.213344 47.234657 155 73 98
-13.012895 -1.110745 47.201668 155 73 98
-13.002535 -1.008191 47.164089 154 73 98
-12.990766 -0.905701 47.121399 153 73 98
-12.977466 -0.803300 47.073158 153 74 98
-12.962557 -0.701020 47.019077 151 73 96
-12.945997 -0.598896 46.959011 151 73 96
-12.927801 -0.496969 46.893009 154 75 98
-12.908026 -0.395278 46.821278 157 78 102
-12.886777 -0.293862 46.744202 158 80 103
-12.864198 -0.192759 46.662300 158 80 103
-12.840463 -0.092001 46.576206 158 80 102
-12.815771 0.008385 46.486641 158 80 102
-12.790334 0.108379 46.394375 157 80 101
-12.764360 0.207967 46.300159 156 79 100
-12.738053 0.307140 46.204739 156 77 98
-12.711598 0.405897 46.108776 155 74 97
-12.685153 0.504241 46.012852 155 73 97
-12.658848 0.602178 45.917435 156 71 96
-12.632780 0.699717 45.822876 155 69 95
-12.607014 0.796867 45.729416 153 67 92
-12.581591 0.893638 45.637199 152 65 90
-12.556524 0.990040 45.546276 151 64 88
-12.531814 1.086081 45.456642 150 64 87
-12.507440 1.181767 45.368229 149 65 87
-12.483390 1.277105 45.280994 148 66 88
-12.459652 1.372102 45.194889 148 66 89
-12.436228 1.466764 45.109924 148 67 90
-12.413135 1.561102 45.026161 148 68 92
-12.390413 1.655128 44.943741 149 69 93
-12.368129 1.748860 44.862907 151 70 95
-12.346372 1.842323 44.783989 153 71 96
-12.325257 1.935546 44.707401 153 71 93
-12.304924 2.028568 44.633648 149 67 87
-12.285525 2.121434 44.563282 144 61 79
-12.267227 2.214194 44.496910 142 60 76
-12.250205 2.306909 44.435165 141 61 75
-12.234636 2.399643 44.378693 139 61 74
-12.220690 2.492464 44.328102 138 60 73
-12.208530 2.585445 44.283997 136 59 74
-12.198308 2.678662 44.246918 136 60 75
-12.190153 2.772189 44.217339 136 61 77
-12.184176 2.866101 44.195656 136 61 78
-12.180464 2.960469 44.182194 136 61 78
-12.179075 3.055363 44.177155 135 60 78
-12.180042 3.150844 44.180664 134 60 78
-12.183369 3.246969 44.192730 133 60 77
-12.189026 3.343786 44.213249 132 59 76
-12.196955 3.441332 44.242008 133 59 76
-12.207065 3.539634 44.278683 133 59 77
-12.219232 3.638707 44.322815 134 61 77
-12.233304 3.738553 44.373859 137 63 79
-12.249090 3.839156 44.431122 140 67 81
-12.266376 3.940487 44.493824 140 67 81
-12.284918 4.042502 44.561077 138 68 79
-12.304444 4.145139 44.631905 137 67 78
-12.324663 4.248320 44.705246 135 65 77
-12.345271 4.351954 44.779999 133 64 75
-12.365948 4.455935 44.855000 133 63 75
-12.386373 4.560147 44.929085 134 63 75
-12.406230 4.664464 45.001114 135 63 75
-12.425214 4.768758 45.069973 134 63 75
-12.443039 4.872894 45.134628 133 62 74
-12.459446 4.976743 45.194145 132 62 74
-12.474213 5.080180 45.247707 131 62 73
-12.487155 5.183091 45.294651 131 62 73
-12.498133 5.285373 45.334473 130 62 73
-12.507059 5.386944 45.366852 129 62 73
-12.513895 5.487737 45.391647 129 62 74
-12.518655 5.587711 45.408913 128 62 75
-12.521399 5.686844 45.418869 126 59 72
-12.522242 5.785141 45.421921 123 56 70
-12.521331 5.882627 45.418617 121 55 69
-12.518860 5.979354 45.409657 120 55 68
-12.515046 6.075390 45.395824 119 55 68
-12.510134 6.170825 45.378002 118 55 68
-12.504376 6.265760 45.357121 117 55 66
-12.498034 6.360308 45.334118 116 56 65
-12.491362 6.454585 45.309910 115 55 65
-12.484599 6.548710 45.285381 114 54 65
-12.477969 6.642801 45.261333 113 54 65
-12.471666 6.736964 45.238468 112 54 65
-12.465847 6.831294 45.217361 111 54 64
-12.460637 6.925872 45.198463 110 53 64
-12.456120 7.020759 45.182083 108 52 63
-12.452345 7.115998 45.168385 106 50 60
-12.449312 7.211609 45.157387 103 47 56
-12.446998 7.307595 45.148991 101 45 54
-12.445342 7.403936 45.142986 101 46 54
-12.444266 7.500600 45.139084 102 47 53
-12.443666 7.597538 45.136906 103 48 54
-12.443429 7.694692 45.136047 102 49 55
-12.443439 7.791996 45.136082 101 50 55
-12.443577 7.889382 45.136581 101 50 55
-12.443727 7.986777 45.137127 99 50 55
-12.443787 8.084117 45.137344 97 49 55
-12.443665 8.181337 45.136898 94 49 55
-12.443282 8.278383 45.135513 92 48 54
-12.442578 8.375206 45.132957 91 46 53
-12.441503 8.471765 45.129055 90 45 52
-12.440022 8.568028 45.123688 88 43 51
-12.438121 8.663976 45.116791 87 41 50
-12.435789 8.759589 45.108334 87 40 49
-12.433034 8.854866 45.098343 86 39 49
-12.429874 8.949807 45.086880 87 39 48
-12.426338 9.044426 45.074055 88 40 48
-12.422462 9.138740 45.059994 88 40 48
-12.418297 9.232777 45.044884 87 40 47
-12.413901 9.326575 45.028938 87 41 47
-12.409339 9.420179 45.012390 87 42 46
-12.404684 9.513640 44.995506 87 43 46
-12.400012 9.607017 44.978558 87 43 46
-12.395407 9.700371 44.961853 86 44 47
-12.390945 9.793768 44.945671 85 44 47
-12.386707 9.887272 44.930298 84 43 47
-12.382761 9.980947 44.915985 82 42 46
-12.379169 10.074846 44.902954 80 41 45
-12.375978 10.169020 44.891380 78 40 44
-12.373221 10.263504 44.881382 78 40 43
-12.370919 10.358325 44.873032 78 39 43
-12.369071 10.453494 44.866325 78 39 43
-12.367660 10.549007 44.861206 78 39 44
-12.366653 10.644847 44.857559 78 39 44
-12.366007 10.740983 44.855213 77 39 43
-12.365663 10.837374 44.853962 78 39 43
-12.365559 10.933972 44.853588 78 40 43
-12.365627 11.030723 44.853836 79 39 42
-12.365803 11.127570 44.854473 79 39 42
-12.366023 11.224462 44.855270 79 39 42
-12.366240 11.321353 44.856056 78 38 42
-12.366412 11.418206 44.856682 78 38 42
-12.366517 11.514999 44.857063 78 37 43
-12.366548 11.611725 44.857174 78 37 44
-12.366515 11.708392 44.857059 78 36 45
-12.366450 11.805027 44.856823 77 36 45
-12.366400 11.901673 44.856636 77 38 46
-12.366421 11.998390 44.856716 79 40 48
-12.366594 12.095256 44.857342 80 41 49
-12.367002 12.192354 44.858822 79 42 48
-12.367730 12.289780 44.861465 76 41 44
-12.368874 12.387630 44.865608 75 40 43
-12.370526 12.486014 44.871605 74 39 42
-12.372783 12.585037 44.879791 72 39 42
-12.375737 12.684811 44.890507 70 38 41
-12.379478 12.785443 44.904079 68 37 40
-12.384095 12.887046 44.920822 66 36 39
