ply
format ascii 1.0
element vertex 1193
property float x
property float y
property float z
property uchar red
property uchar green
property uchar blue
end_header
-11.030635 -5.768507 59.576965 188 121 96
-11.035560 -5.642597 59.603561 187 121 95
-11.040929 -5.516794 59.632561 186 119 94
-11.046745 -5.391086 59.663979 185 117 94
-11.053007 -5.265453 59.697796 184 115 94
-11.059688 -5.139869 59.733875 183 113 93
-11.066751 -5.014304 59.772026 182 110 92
-11.074143 -4.888719 59.811958 179 107 90
-11.081800 -4.763075 59.853310 178 105 88
-11.089638 -4.637329 59.895641 176 103 86
-11.097565 -4.511437 59.938454 175 101 84
-11.105479 -4.385355 59.981205 172 99 82
-11.113276 -4.259044 60.023315 169 97 79
-11.120847 -4.132467 60.064201 166 96 76
-11.128086 -4.005595 60.103302 162 94 74
-11.134895 -3.878404 60.140076 160 93 73
-11.141186 -3.750880 60.174053 158 93 72
-11.146883 -3.623017 60.204823 157 93 73
-11.151925 -3.494815 60.232056 157 94 74
-11.156271 -3.366287 60.255527 157 94 75
-11.159899 -3.237448 60.275120 156 93 76
-11.162803 -3.108325 60.290810 155 93 77
-11.165004 -2.978945 60.302692 154 94 78
-11.166533 -2.849343 60.310959 154 95 79
-11.167453 -2.719557 60.315922 155 96 81
-11.167829 -2.589623 60.317951 155 95 82
-11.167744 -2.459579 60.317497 155 95 83
-11.167292 -2.329461 60.315048 156 95 83
-11.166573 -2.199300 60.311169 157 95 82
-11.165690 -2.069126 60.306404 157 94 82
-11.164747 -1.938962 60.301311 157 94 80
-11.163840 -1.808826 60.296410 157 95 79
-11.163060 -1.678730 60.292198 157 97 79
-11.162484 -1.548680 60.289089 157 98 80
-11.162173 -1.418678 60.287411 157 99 80
-11.162171 -1.288718 60.287395 157 98 81
-11.162498 -1.158793 60.289162 157 98 82
-11.163154 -1.028890 60.292702 156 96 83
-11.164115 -0.898997 60.297894 157 96 84
-11.165337 -0.769099 60.304493 163 100 89
-11.166749 -0.639184 60.312122 167 103 92
-11.168267 -0.509240 60.320324 168 104 93
-11.169791 -0.379262 60.328552 170 105 92
-11.171210 -0.249245 60.336220 171 105 91
-11.172411 -0.119194 60.342701 172 106 91
-11.173278 0.010886 60.347382 172 106 89
-11.173708 0.140980 60.349709 166 101 84
-11.173612 0.271071 60.349186 162 96 80
-11.172919 0.401139 60.345448 163 97 82
-11.171584 0.531160 60.338234 166 100 86
-11.169591 0.661111 60.327473 169 102 90
-11.166957 0.790970 60.313244 172 104 93
-11.163731 0.920719 60.295818 175 105 94
-11.159994 1.050344 60.275635 177 106 96
-11.155862 1.179841 60.253319 180 108 98
-11.151476 1.309212 60.229633 181 108 98
-11.147003 1.438470 60.205475 181 108 96
-11.142628 1.567637 60.181839 180 106 94
-11.138547 1.696747 60.159801 178 105 92
-11.134964 1.825844 60.140450 176 104 88
-11.132081 1.954980 60.124878 174 104 84
-11.130089 2.084216 60.114120 173 104 81
-11.129161 2.213617 60.109108 171 104 79
-11.129449 2.343253 60.110661 168 103 77
-11.131073 2.473192 60.119431 166 103 75
-11.134119 2.603502 60.135883 165 102 75
-11.138635 2.734243 60.160275 164 103 77
-11.144627 2.865469 60.192638 164 103 78
-11.152061 2.997222 60.232796 163 102 80
-11.160862 3.129531 60.280327 161 99 81
-11.170916 3.262411 60.334625 157 96 82
-11.182073 3.395861 60.394886 151 92 81
-11.194159 3.529863 60.460163 143 88 79
-11.206973 3.664385 60.529373 132 83 75
-11.220306 3.799380 60.601387 118 75 68
-11.233941 3.934792 60.675030 100 65 59
-11.247665 4.070554 60.749157 82 53 48
-11.261277 4.206593 60.822670 66 41 38
-11.274588 4.342834 60.894562 56 35 34
-11.287436 4.479200 60.963951 54 35 34
-11.299683 4.615621 61.030106 54 36 35
-11.311221 4.752028 61.092426 54 36 36
-11.321969 4.888363 61.150471 53 35 36
-11.331863 5.024570 61.203915 52 34 34
-11.340869 5.160604 61.252552 51 32 33
-11.348956 5.296418 61.296234 49 30 30
-11.356105 5.431971 61.334839 47 29 29
-11.362286 5.567217 61.368225 47 28 29
-11.367468 5.702106 61.396214 47 28 29
-11.371599 5.836575 61.418526 47 28 28
-11.374608 5.970552 61.434780 48 29 29
-11.376402 6.103948 61.444469 50 30 30
-11.376863 6.236654 61.446960 51 31 31
-11.375854 6.368547 61.441505 53 32 32
-11.373218 6.499488 61.427265 53 32 32
-11.368791 6.629323 61.403358 52 32 32
-11.362411 6.757895 61.368908 50 31 31
-11.353924 6.885038 61.323063 48 30 30
-11.343198 7.010601 61.265133 47 29 29
-11.330135 7.134442 61.194580 46 29 28
-11.314680 7.256445 61.111103 45 28 28
-11.296820 7.376518 61.014641 44 28 28
-11.276605 7.494609 60.905457 44 28 28
-11.254137 7.610707 60.784107 45 28 29
-11.229572 7.724839 60.651432 46 29 30
-11.203117 7.837077 60.508553 46 29 31
-11.175022 7.947532 60.356808 45 28 30
-11.145569 8.056352 60.197727 45 27 29
-11.115060 8.163710 60.032948 44 27 28
-11.083806 8.269801 59.864143 43 27 28
-11.052114 8.374833 59.692970 43 27 27
-11.020270 8.479011 59.520985 43 26 27
-10.988540 8.582535 59.349606 43 27 26
-10.957150 8.685590 59.180061 43 28 27
-10.926280 8.788333 59.013340 43 29 27
-10.896069 8.890894 58.850166 42 28 26
-10.866600 8.993366 58.691002 40 27 25
-10.837909 9.095805 58.536041 38 26 24
-10.809989 9.198232 58.385242 37 25 24
-10.782786 9.300627 58.238319 37 25 24
-10.756213 9.402940 58.094795 38 26 24
-10.730152 9.505087 57.954041 39 26 24
-10.704460 9.606958 57.815277 40 26 25
-10.678981 9.708425 57.677662 41 26 25
-10.653548 9.809341 57.540298 40 25 24
-10.627995 9.909553 57.402283 40 25 24
-10.602152 10.008896 57.262707 39 25 23
-10.575868 10.107216 57.120743 38 25 22
-10.548995 10.204354 56.975605 37 25 22
-10.521406 10.300165 56.826595 37 25 22
-10.492987 10.394511 56.673100 37 25 22
-10.463641 10.487268 56.514603 36 25 22
-10.433294 10.578326 56.350700 35 24 22
-10.401886 10.667588 56.181061 35 24 22
-10.369375 10.754975 56.005466 34 24 22
-10.335740 10.840427 55.823807 33 24 22
-10.300977 10.923899 55.636044 33 24 22
-10.265094 11.005362 55.442242 32 23 21
-10.228121 11.084806 55.242550 32 23 21
-10.190102 11.162244 55.037205 32 23 21
-10.151100 11.237709 54.826553 32 22 20
-10.111199 11.311261 54.611050 32 22 20
-10.070501 11.382981 54.391235 31 22 19
-10.029129 11.452985 54.167786 30 22 19
-9.987226 11.521413 53.941463 30 22 19
-9.944959 11.588439 53.713173 30 21 20
-9.902512 11.654271 53.483921 30 21 20
-9.860086 11.719140 53.254776 29 22 20
-9.817900 11.783307 53.026924 28 21 20
-9.776179 11.847058 52.801594 28 22 20
-9.735161 11.910695 52.580048 28 22 21
-9.695080 11.974535 52.363567 28 21 21
-9.656165 12.038897 52.153389 27 19 19
-9.618632 12.104091 51.950672 26 19 18
-9.582682 12.170419 51.756500 26 19 19
-9.548484 12.238158 51.571796 27 20 19
-9.516183 12.307554 51.397339 28 21 19
-9.485889 12.378818 51.233723 29 21 19
-9.457675 12.452112 51.081333 30 21 19
-9.431575 12.527558 50.940369 30 21 19
-9.407590 12.605232 50.810825 30 21 18
-9.385685 12.685158 50.692516 31 21 19
-9.365791 12.767315 50.585068 31 22 20
-9.347816 12.851646 50.487984 32 23 21
-9.331646 12.938062 50.400646 32 23 21
-9.317152 13.026444 50.322365 33 23 21
-9.304198 13.116660 50.252399 33 23 21
-9.292646 13.208568 50.190006 33 22 21
-9.282361 13.302021 50.134453 34 22 20
-9.273216 13.396883 50.085064 35 22 20
-9.265098 13.493026 50.041218 35 22 20
-9.257903 13.590337 50.002357 35 22 20
-9.251546 13.688719 49.968021 35 22 20
-9.245953 13.788092 49.937813 35 21 20
-9.241063 13.888392 49.911404 35 22 21
-9.236825 13.989567 49.888515 34 23 22
-9.233198 14.091574 49.868927 34 24 22
-9.230143 14.194376 49.852425 33 24 22
-9.227625 14.297938 49.838821 33 24 22
-9.225606 14.402223 49.827915 32 24 23
-9.224049 14.507185 49.819508 32 24 23
-9.222912 14.612779 49.813370 32 24 23
-9.222152 14.718946 49.809261 31 22 22
-9.221721 14.825626 49.806938 31 22 22
-9.221573 14.932754 49.806137 31 22 22
-9.221660 15.040260 49.806606 31 22 22
-9.221935 15.148079 49.808094 32 22 23
-9.222359 15.256148 49.810379 32 23 23
-9.222894 15.364415 49.813271 32 23 23
-9.223514 15.472836 49.816620 33 24 24
-9.224197 15.581378 49.820312 32 24 23
-9.224935 15.690027 49.824291 32 24 23
-9.225723 15.798783 49.828556 32 24 23
-9.226569 15.907655 49.833122 32 24 23
-9.227488 16.016672 49.838081 32 23 23
-9.228500 16.125875 49.843552 32 23 23
-9.229636 16.235319 49.849686 32 23 23
-9.230927 16.345064 49.856655 31 22 21
-9.232404 16.455170 49.864632 31 22 20
-9.234100 16.565706 49.873798 30 21 20
-9.236050 16.676737 49.884327 30 22 20
-9.238280 16.788324 49.896378 29 22 20
-9.240819 16.900528 49.910088 29 22 20
-9.243685 17.013390 49.925564 29 22 21
-9.246892 17.126955 49.942886 29 22 21
-9.250451 17.241247 49.962109 28 22 20
-9.254362 17.356285 49.983234 28 21 20
-9.258622 17.472069 50.006241 28 21 19
-9.263221 17.588598 50.031078 27 20 19
-9.268141 17.705849 50.057655 27 20 19
-9.273362 17.823792 50.085854 27 20 19
-9.278860 17.942389 50.115543 27 20 19
-9.284603 18.061594 50.146564 27 20 19
-9.290565 18.181358 50.178761 27 19 19
-9.296709 18.301626 50.211952 26 19 18
-9.303008 18.422338 50.245972 26 19 18
-9.309431 18.543446 50.280663 25 19 17
-9.315948 18.664888 50.315857 24 20 17
-9.322533 18.786623 50.351425 24 20 17
-9.329164 18.908606 50.387241 24 21 18
-9.335822 19.030796 50.423203 24 21 18
-9.342492 19.153164 50.459225 24 21 19
-9.349158 19.275682 50.495232 24 21 19
-10.821468 -9.422612 59.135750 184 104 84
-10.821906 -9.295512 59.138145 182 104 82
-10.822887 -9.168861 59.143505 181 104 82
-10.824310 -9.042557 59.151283 179 104 83
-10.826078 -8.916503 59.160946 179 105 85
-10.828109 -8.790620 59.172039 178 106 86
-10.830324 -8.664837 59.184147 178 107 88
-10.832662 -8.539099 59.196918 181 110 91
-10.835069 -8.413359 59.210072 184 113 95
-10.837504 -8.287584 59.223385 184 114 96
-10.839934 -8.161749 59.236664 184 115 97
-10.842338 -8.035835 59.249794 183 115 97
-10.844698 -7.909834 59.262695 183 115 98
-10.847011 -7.783743 59.275330 183 116 100
-10.849273 -7.657563 59.287697 185 118 102
-10.851490 -7.531298 59.299812 188 120 106
-10.853672 -7.404955 59.311733 191 122 108
-10.855832 -7.278548 59.323540 193 123 110
-10.857987 -7.152086 59.335316 194 123 112
-10.860159 -7.025584 59.347183 194 122 112
-10.862373 -6.899057 59.359283 193 120 110
-10.864658 -6.772523 59.371769 189 117 105
-10.867047 -6.645999 59.384827 183 112 98
-10.869576 -6.519502 59.398647 181 110 95
-10.872285 -6.393051 59.413448 181 112 95
-10.875215 -6.266664 59.429459 182 114 95
-10.878408 -6.140357 59.446911 183 116 95
-10.881909 -6.014144 59.466042 185 118 95
-10.885756 -5.888037 59.487068 186 119 95
-10.889988 -5.762041 59.510189 187 121 96
-10.894630 -5.636159 59.535561 188 122 96
-10.899708 -5.510387 59.563305 187 121 96
-10.905226 -5.384714 59.593460 186 119 96
-10.911183 -5.259122 59.626019 186 117 96
-10.917562 -5.133588 59.660877 185 116 95
-10.924332 -5.008082 59.697868 184 113 95
-10.931442 -4.882570 59.736725 182 111 94
-10.938834 -4.757012 59.777119 180 108 91
-10.946431 -4.631367 59.818634 178 106 89
-10.954146 -4.505591 59.860794 176 104 87
-10.961883 -4.379643 59.903072 174 102 84
-10.969541 -4.253481 59.944920 171 100 81
-10.977016 -4.127071 59.985771 167 98 78
-10.984208 -4.000381 60.025070 163 95 74
-10.991017 -3.873387 60.062283 159 93 72
-10.997361 -3.746074 60.096947 158 94 72
-11.003161 -3.618433 60.128647 157 94 73
-11.008358 -3.490463 60.157043 157 95 75
-11.012908 -3.362174 60.181908 157 95 77
-11.016784 -3.233579 60.203087 156 95 79
-11.019979 -3.104702 60.220551 156 94 80
-11.022506 -2.975569 60.234352 155 95 81
-11.024390 -2.846211 60.244656 154 96 82
-11.025686 -2.716663 60.251732 155 97 83
-11.026451 -2.586960 60.255913 155 97 84
-11.026759 -2.457137 60.257595 155 96 83
-11.026693 -2.327228 60.257240 155 94 82
-11.026347 -2.197265 60.255344 156 94 81
-11.025812 -2.067274 60.252422 156 93 81
-11.025181 -1.937279 60.248978 156 92 79
-11.024544 -1.807298 60.245491 157 93 79
-11.023981 -1.677344 60.242416 157 95 80
-11.023563 -1.547423 60.240135 157 97 81
-11.023345 -1.417537 60.238941 157 98 81
-11.023363 -1.287685 60.239040 158 98 82
-11.023636 -1.157858 60.240532 158 98 83
-11.024159 -1.028049 60.243393 157 96 83
-11.024911 -0.898245 60.247498 157 96 84
-11.025842 -0.768437 60.252586 161 99 88
-11.026886 -0.638613 60.258293 165 101 91
-11.027963 -0.508766 60.264175 167 103 92
-11.028974 -0.378892 60.269703 169 103 91
-11.029815 -0.248990 60.274300 170 103 90
-11.030377 -0.119065 60.277374 170 103 90
-11.030555 0.010873 60.278339 170 102 87
-11.030252 0.140809 60.276684 165 97 82
-11.029383 0.270724 60.271935 161 92 79
-11.027888 0.400596 60.263771 162 94 81
-11.025729 0.530400 60.251972 167 98 86
-11.022899 0.660114 60.236500 170 100 89
-11.019418 0.789714 60.217480 172 102 92
-11.015344 0.919182 60.195217 175 104 94
-11.010763 1.048507 60.170185 178 105 96
-11.005796 1.177682 60.143047 181 107 97
-11.000590 1.306712 60.114594 182 108 98
-10.995314 1.435610 60.085758 182 107 97
-10.990153 1.564400 60.057560 180 106 95
-10.985312 1.693117 60.031101 179 105 92
-10.980993 1.821808 60.007504 176 104 88
-10.977405 1.950526 59.987888 174 104 85
-10.974738 2.079334 59.973324 174 105 83
-10.973174 2.208302 59.964775 173 106 81
-10.972867 2.337500 59.963097 171 105 78
-10.973942 2.467002 59.968971 168 103 76
-10.976495 2.596879 59.982918 167 103 77
-10.980578 2.727196 60.005238 167 103 79
-10.986211 2.858013 60.036015 166 103 80
-10.993367 2.989376 60.075123 165 101 81
-11.001982 3.121322 60.122200 164 99 82
-11.011951 3.253871 60.176682 161 96 82
-11.023141 3.387030 60.237827 156 93 82
-11.035382 3.520788 60.304722 149 90 80
-11.048489 3.655120 60.376343 140 86 78
-11.062257 3.789988 60.451580 128 80 72
-11.076478 3.925342 60.529297 112 72 65
-11.090947 4.061120 60.608364 94 60 54
-11.105462 4.197258 60.687683 76 48 44
-11.119841 4.333683 60.766258 64 40 37
-11.133918 4.470327 60.843189 58 37 36
-11.147559 4.607122 60.917732 57 37 36
-11.160648 4.744004 60.989262 56 37 38
-11.173102 4.880917 61.057316 55 36 37
-11.184855 5.017808 61.121536 53 35 35
-11.195861 5.154633 61.181686 51 33 34
-11.206091 5.291350 61.237587 50 31 32
-11.215511 5.427917 61.289070 49 30 30
-11.224095 5.564291 61.335976 48 30 30
-11.231799 5.700421 61.378075 48 29 30
-11.238564 5.836245 61.415047 48 29 29
-11.244314 5.971688 61.446468 49 30 30
-11.248944 6.106660 61.471771 51 31 31
-11.252328 6.241048 61.490257 52 32 31
-11.254313 6.374725 61.501106 53 32 32
-11.254732 6.507543 61.503395 54 32 33
-11.253403 6.639340 61.496132 53 32 33
-11.250146 6.769945 61.478336 51 32 32
-11.244787 6.899183 61.449047 49 31 31
-11.237173 7.026886 61.407440 48 30 30
-11.227185 7.152896 61.352859 47 29 29
-11.214744 7.277079 61.284874 46 29 28
-11.199818 7.399327 61.203304 45 28 28
-11.182435 7.519573 61.108318 46 28 28
-11.162682 7.637785 61.000370 47 28 30
-11.140698 7.753981 60.880238 48 30 31
-11.116679 7.868218 60.748985 48 29 32
-11.090870 7.980601 60.607941 46 28 31
-11.063544 8.091267 60.458618 45 27 28
-11.035007 8.200389 60.302673 44 27 28
-11.005574 8.308162 60.141830 44 26 28
-10.975557 8.414794 59.977798 44 26 27
-10.945252 8.520494 59.812191 44 27 27
-10.914935 8.625471 59.646519 44 27 27
-10.884844 8.729915 59.482079 43 28 27
-10.855173 8.833992 59.319935 42 28 26
-10.826069 8.937838 59.160892 41 27 25
-10.797627 9.041553 59.005470 39 26 24
-10.769895 9.145200 58.853916 37 25 23
-10.742869 9.248802 58.706238 37 25 23
-10.716504 9.352345 58.562160 37 25 24
-10.690716 9.455775 58.421234 38 25 24
-10.665387 9.559011 58.282822 38 25 24
-10.640376 9.661938 58.146145 40 26 25
-10.615522 9.764420 58.010323 41 25 26
-10.590656 9.866305 57.874443 41 25 26
-10.565606 9.967431 57.737553 41 25 25
-10.540202 10.067628 57.598724 39 25 23
-10.514281 10.166727 57.457073 39 25 23
-10.487692 10.264563 57.311775 39 25 22
-10.460301 10.360976 57.162094 39 25 22
-10.431989 10.455822 57.007374 38 25 22
-10.402655 10.548964 56.847076 37 25 22
-10.372216 10.640282 56.680740 36 24 22
-10.340612 10.729673 56.508034 36 24 22
-10.307796 10.817048 56.328705 35 24 22
-10.273743 10.902337 56.142616 34 24 22
-10.238448 10.985492 55.949738 33 24 22
-10.201919 11.066476 55.750118 33 23 21
-10.164186 11.145279 55.543919 33 23 21
-10.125294 11.221909 55.331390 33 23 21
-10.085313 11.296402 55.112907 32 23 20
-10.044329 11.368818 54.888943 32 23 19
-10.002454 11.439250 54.660107 31 22 18
-9.959821 11.507819 54.427132 30 22 17
-9.916584 11.574681 54.190861 30 22 18
-9.872928 11.640027 53.952290 30 22 19
-9.829048 11.704081 53.712505 30 23 19
-9.785168 11.767098 53.472713 29 22 19
-9.741520 11.829365 53.234192 28 22 19
-9.698351 11.891190 52.998283 27 22 20
-9.655914 11.952905 52.766384 28 22 20
-9.614461 12.014849 52.539856 28 21 20
-9.574237 12.077366 52.320042 26 19 19
-9.535470 12.140792 52.108196 26 18 18
-9.498369 12.205445 51.905457 26 19 19
-9.463116 12.271620 51.712807 27 20 19
-9.429857 12.339574 51.531055 28 21 19
-9.398704 12.409524 51.360813 29 21 19
-9.369726 12.481639 51.202461 30 21 19
-9.342958 12.556041 51.056183 30 21 18
-9.318391 12.632795 50.921932 30 21 18
-9.295981 12.711922 50.799469 30 21 18
-9.275653 12.793389 50.688377 31 22 19
-9.257300 12.877129 50.588093 32 22 20
-9.240800 12.963033 50.497921 32 23 21
-9.226012 13.050971 50.417114 33 23 21
-9.212790 13.140794 50.344856 34 23 22
-9.200986 13.232344 50.280350 33 23 21
-9.190456 13.325463 50.222809 34 22 20
-9.181067 13.420003 50.171501 34 21 19
-9.172698 13.515823 50.125767 35 21 19
-9.165243 13.612806 50.085030 35 21 19
-9.158611 13.710845 50.048790 36 22 20
-9.152728 13.809855 50.016636 36 22 21
-9.147532 13.909773 49.988239 36 23 22
-9.142971 14.010543 49.963322 36 24 22
-9.139006 14.112123 49.941647 35 24 22
-9.135597 14.214478 49.923027 34 24 22
-9.132714 14.317575 49.907269 33 24 22
-9.130321 14.421378 49.894192 32 24 23
-9.128382 14.525847 49.883595 33 24 23
-9.126858 14.630937 49.875267 32 24 23
-9.125708 14.736592 49.868977 32 23 23
-9.124884 14.842754 49.864479 32 22 22
-9.124344 14.949361 49.861530 32 22 22
-9.124041 15.056344 49.859867 32 23 23
-9.123929 15.163640 49.859261 33 23 23
-9.123968 15.271186 49.859474 33 24 23
-9.124124 15.378927 49.860325 32 24 23
-9.124369 15.486826 49.861664 32 25 23
-9.124683 15.594848 49.863380 32 25 23
-9.125055 15.702977 49.865414 31 25 23
-9.125485 15.811215 49.867767 31 25 23
-9.125981 15.919579 49.870476 31 24 23
-9.126556 16.028093 49.873619 31 24 23
-9.127237 16.136806 49.877338 31 23 22
-9.128053 16.245777 49.881794 31 23 22
-9.129036 16.355068 49.887169 31 22 21
-9.130224 16.464750 49.893665 30 21 20
-9.131653 16.574898 49.901470 30 21 20
-9.133356 16.685579 49.910778 30 22 20
-9.135370 16.796873 49.921780 30 22 20
-9.137721 16.908838 49.934628 30 22 21
-9.140434 17.021532 49.949459 30 22 21
-9.143530 17.135008 49.966373 30 22 21
-9.147017 17.249296 49.985432 29 22 21
-9.150906 17.364424 50.006676 29 22 20
-9.155190 17.480402 50.030090 29 21 20
-9.159862 17.597225 50.055618 28 20 19
-9.164907 17.714882 50.083191 28 20 19
-9.170305 17.833342 50.112690 28 20 19
-9.176027 17.952562 50.143959 27 19 18
-9.182043 18.072496 50.176834 27 19 18
-9.188320 18.193090 50.211140 27 19 18
-9.194822 18.314278 50.246666 26 19 18
-9.201510 18.435995 50.283218 25 20 18
-9.208350 18.558172 50.320595 25 20 18
-9.215306 18.680748 50.358608 24 20 18
-9.222345 18.803658 50.397076 24 21 19
-9.229440 18.926844 50.435844 24 21 19
-9.236565 19.050261 50.474777 24 21 19
-9.243696 19.173861 50.513748 25 22 20
-10.683745 -9.540939 59.079094 185 104 86
-10.683559 -9.413421 59.078064 184 103 83
-10.684017 -9.286467 59.080597 183 103 82
-10.685009 -9.159958 59.086079 181 103 81
-10.686433 -9.033792 59.093952 179 104 82
-10.688195 -8.907875 59.103703 178 105 83
-10.690212 -8.782124 59.114853 177 106 84
-10.692409 -8.656470 59.126995 177 107 86
-10.694721 -8.530857 59.139786 180 110 90
-10.697096 -8.405238 59.152920 183 114 93
-10.699493 -8.279579 59.166176 184 114 95
-10.701880 -8.153855 59.179371 184 114 95
-10.704231 -8.028049 59.192379 182 114 95
-10.706535 -7.902149 59.205116 181 114 96
-10.708783 -7.776155 59.217545 182 116 98
-10.710973 -7.650066 59.229656 186 119 102
-10.713110 -7.523888 59.241474 189 123 106
-10.715201 -7.397627 59.253036 192 124 109
-10.717262 -7.271296 59.264435 194 125 111
-10.719307 -7.144905 59.275738 194 125 112
-10.721355 -7.018467 59.287071 194 123 112
-10.723433 -6.892000 59.298565 194 122 110
-10.725569 -6.765519 59.310371 190 119 106
-10.727792 -6.639042 59.322662 185 114 100
-10.730140 -6.512587 59.335644 183 112 97
-10.732648 -6.386172 59.349518 183 114 96
-10.735361 -6.259817 59.364521 183 115 96
-10.738321 -6.133537 59.380886 183 115 95
-10.741570 -6.007349 59.398857 183 116 94
-10.745151 -5.881265 59.418652 185 117 94
-10.749100 -5.755293 59.440491 186 119 94
-10.753448 -5.629436 59.464535 186 120 95
-10.758220 -5.503691 59.490921 186 120 96
-10.763426 -5.378050 59.519711 186 120 97
-10.769068 -5.252497 59.550911 186 119 98
-10.775132 -5.127011 59.584446 186 118 99
-10.781592 -5.001564 59.620167 186 116 98
-10.788404 -4.876122 59.657837 184 114 97
-10.795512 -4.750648 59.697144 182 112 95
-10.802846 -4.625101 59.737698 180 110 92
-10.810325 -4.499439 59.779053 178 108 90
-10.817857 -4.373621 59.820702 176 106 87
-10.825345 -4.247606 59.862114 173 104 84
-10.832692 -4.121358 59.902740 169 101 80
-10.839799 -3.994847 59.942039 164 97 76
-10.846573 -3.868048 59.979500 160 94 72
-10.852929 -3.740943 60.014645 158 94 73
-10.858793 -3.613523 60.047073 158 95 75
-10.864104 -3.485786 60.076443 158 96 79
-10.868817 -3.357738 60.102505 158 96 81
-10.872905 -3.229391 60.125111 158 96 83
-10.876354 -3.100765 60.144180 158 97 84
-10.879172 -2.971884 60.159763 157 97 85
-10.881382 -2.842777 60.171989 156 97 85
-10.883026 -2.713477 60.181076 157 98 86
-10.884158 -2.584015 60.187336 157 99 86
-10.884840 -2.454426 60.191109 157 97 85
-10.885148 -2.324740 60.192810 155 95 83
-10.885163 -2.194987 60.192898 156 94 82
-10.884968 -2.065195 60.191814 156 93 81
-10.884647 -1.935384 60.190044 156 92 80
-10.884277 -1.805574 60.188000 156 92 79
-10.883934 -1.675776 60.186100 157 94 80
-10.883677 -1.545998 60.184677 158 96 81
-10.883554 -1.416244 60.183998 158 98 82
-10.883597 -1.286513 60.184235 159 98 83
-10.883819 -1.156800 60.185459 159 98 84
-10.884211 -1.027097 60.187626 158 97 84
-10.884749 -0.897397 60.190605 158 96 84
-10.885386 -0.767691 60.194130 161 98 87
-10.886059 -0.637973 60.197849 165 100 90
-10.886685 -0.508236 60.201309 167 101 91
-10.887175 -0.378479 60.204018 169 102 91
-10.887427 -0.248705 60.205418 170 102 90
-10.887342 -0.118922 60.204945 170 101 89
-10.886821 0.010859 60.202061 168 99 86
-10.885774 0.140621 60.196270 164 94 82
-10.884129 0.270343 60.187176 161 90 78
-10.881832 0.400002 60.174473 163 92 80
-10.878854 0.529573 60.158005 167 95 84
-10.875196 0.659032 60.137775 170 98 87
-10.870887 0.788356 60.113949 173 100 90
-10.865992 0.917528 60.086884 176 102 92
-10.860603 1.046536 60.057083 178 103 95
-10.854846 1.175375 60.025246 180 105 97
-10.848871 1.304051 59.992207 181 106 98
-10.842850 1.432579 59.958912 181 106 97
-10.836973 1.560984 59.926414 180 105 95
-10.831444 1.689302 59.895840 178 104 92
-10.826468 1.817582 59.868320 176 104 89
-10.822251 1.945880 59.845005 175 104 86
-10.818991 2.074260 59.826977 176 106 85
-10.816865 2.202794 59.815220 175 107 83
-10.816031 2.331556 59.810608 173 106 80
-10.816620 2.460622 59.813866 171 104 78
-10.818728 2.590065 59.825523 170 104 79
-10.822417 2.719956 59.845924 170 103 81
-10.827712 2.850357 59.875198 169 103 82
-10.834593 2.981321 59.913254 168 102 83
-10.843006 3.112890 59.959778 166 100 83
-10.852859 3.245088 60.014256 163 97 83
-10.864022 3.377930 60.075993 160 94 83
-10.876345 3.511412 60.144131 154 91 81
-10.889645 3.645515 60.217678 146 87 78
-10.903732 3.780208 60.295578 135 82 73
-10.918406 3.915447 60.376720 122 76 68
-10.933466 4.051179 60.459999 106 67 60
-10.948720 4.187344 60.544350 90 57 51
-10.963987 4.323879 60.628780 76 48 44
-10.979108 4.460717 60.712395 66 42 39
-10.993945 4.597798 60.794441 61 40 39
-11.008386 4.735061 60.874294 59 39 39
-11.022341 4.872455 60.951462 56 37 37
-11.035744 5.009930 61.025578 53 35 36
-11.048547 5.147446 61.096375 52 34 35
-11.060712 5.284961 61.163647 50 33 33
-11.072205 5.422438 61.227200 50 32 32
-11.082989 5.559833 61.286835 49 31 32
-11.093017 5.697097 61.342289 49 31 31
-11.102223 5.834168 61.393200 50 31 30
-11.110525 5.970973 61.439102 51 31 31
-11.117805 6.107414 61.479366 52 31 31
-11.123931 6.243381 61.513237 53 32 33
-11.128738 6.378738 61.539822 54 32 34
-11.132046 6.513332 61.558109 54 33 34
-11.133657 6.646993 61.567020 53 33 34
-11.133376 6.779540 61.565468 51 32 33
-11.131009 6.910784 61.552376 49 31 31
-11.126385 7.040545 61.526806 48 30 30
-11.119362 7.168648 61.487972 48 30 29
-11.109844 7.294946 61.435337 47 29 28
-11.097776 7.419312 61.368607 47 28 28
-11.083170 7.541662 61.287834 47 28 28
-11.066091 7.661953 61.193390 47 28 30
-11.046667 7.780185 61.085979 48 29 31
-11.025082 7.896406 60.966614 48 29 31
-11.001568 8.010708 60.836590 47 28 30
-10.976399 8.123225 60.697414 45 27 28
-10.949879 8.234125 60.550762 44 26 27
-10.922320 8.343600 60.398365 44 26 27
-10.894042 8.451860 60.241997 45 26 27
-10.865349 8.559118 60.083328 45 27 27
-10.836523 8.665587 59.923927 45 27 26
-10.807813 8.771462 59.765163 44 27 26
-10.779424 8.876917 59.608177 43 27 25
-10.751512 8.982094 59.453827 41 27 24
-10.724182 9.087098 59.302700 39 26 23
-10.697489 9.191998 59.155094 38 26 23
-10.671437 9.296821 59.011032 37 25 23
-10.645984 9.401551 58.870277 37 25 23
-10.621049 9.506138 58.732391 37 25 24
-10.596516 9.610495 58.596729 38 25 24
-10.572244 9.714507 58.462509 40 25 25
-10.548069 9.818030 58.328831 41 25 26
-10.523820 9.920909 58.194736 41 25 26
-10.499319 10.022967 58.059254 41 25 25
-10.474393 10.124031 57.921413 41 25 24
-10.448872 10.223918 57.780285 40 25 23
-10.422602 10.322455 57.635017 40 25 23
-10.395442 10.419475 57.484833 39 25 22
-10.367270 10.514820 57.329048 39 25 22
-10.337980 10.608346 57.167076 38 25 22
-10.307487 10.699924 56.998451 37 24 22
-10.275722 10.789440 56.822796 36 24 21
-10.242640 10.876801 56.639858 35 24 21
-10.208214 10.961929 56.449493 35 24 20
-10.172436 11.044770 56.251648 34 24 21
-10.135317 11.125285 56.046387 34 23 21
-10.096886 11.203460 55.833870 33 23 20
-10.057193 11.279303 55.614380 33 23 20
-10.016312 11.352851 55.388309 33 23 19
-9.974335 11.424171 55.156189 33 23 18
-9.931382 11.493362 54.918671 31 22 17
-9.887598 11.560555 54.676548 29 21 16
-9.843149 11.625920 54.430756 29 21 17
-9.798231 11.689666 54.182369 31 23 19
-9.753059 11.752035 53.932579 32 24 20
-9.707869 11.813304 53.682682 30 23 20
-9.662911 11.873782 53.434074 28 23 20
-9.618450 11.933804 53.188213 28 22 19
-9.574755 11.993725 52.946587 28 22 20
-9.532090 12.053907 52.710655 27 21 20
-9.490716 12.114721 52.481865 26 20 19
-9.450871 12.176518 52.261532 26 20 20
-9.412772 12.239635 52.050854 27 21 20
-9.376608 12.304382 51.850868 28 21 20
-9.342525 12.371026 51.662403 29 22 20
-9.310638 12.439788 51.486069 29 22 20
-9.281013 12.510840 51.322250 29 21 19
-9.253679 12.584301 51.171097 30 21 19
-9.228621 12.660233 51.032528 31 21 18
-9.205788 12.738646 50.906265 31 21 18
-9.185092 12.819497 50.791821 32 22 18
-9.166421 12.902706 50.688576 33 23 19
-9.149639 12.988152 50.595776 33 23 20
-9.134597 13.075686 50.512592 33 24 21
-9.121140 13.165151 50.438175 34 24 22
-9.109109 13.256371 50.371651 33 23 22
-9.098354 13.349176 50.312183 33 22 21
-9.088737 13.443407 50.258999 33 21 19
-9.080131 13.538917 50.211407 34 21 19
-9.072426 13.635574 50.168800 35 22 20
-9.065528 13.733273 50.130657 36 23 21
-9.059362 13.831923 50.096561 37 23 21
-9.053866 13.931458 50.066170 37 24 22
-9.048990 14.031823 50.039207 36 24 22
-9.044694 14.132977 50.015450 36 24 22
-9.040941 14.234884 49.994698 35 24 22
-9.037702 14.337517 49.976780 34 24 22
-9.034943 14.440840 49.961525 33 24 23
-9.032630 14.544817 49.948738 32 24 23
-9.030729 14.649406 49.938229 32 23 22
-9.029198 14.754554 49.929760 32 23 22
-9.027995 14.860206 49.923107 32 22 22
-9.027076 14.966299 49.918026 33 23 23
-9.026396 15.072769 49.914261 34 24 23
-9.025910 15.179551 49.911575 33 23 23
-9.025581 15.286587 49.909760 33 24 23
-9.025373 15.393822 49.908611 32 25 23
-9.025262 15.501215 49.907993 32 25 23
-9.025226 15.608738 49.907791 32 25 23
-9.025255 15.716373 49.907955 32 25 24
-9.025351 15.824125 49.908485 31 25 24
-9.025519 15.932009 49.909416 31 25 24
-9.025779 16.040058 49.910851 30 24 24
-9.026153 16.148317 49.912918 30 23 23
-9.026675 16.256855 49.915806 31 22 22
-9.027380 16.365734 49.919704 31 22 21
-9.028307 16.475035 49.924828 31 22 21
-9.029493 16.584837 49.931393 31 22 21
-9.030979 16.695217 49.939606 30 22 20
-9.032800 16.806259 49.949677 30 22 20
-9.034988 16.918032 49.961781 31 23 20
-9.037574 17.030603 49.976078 31 23 21
-9.040577 17.144030 49.992683 31 23 21
-9.044012 17.258354 50.011681 30 23 21
-9.047890 17.373606 50.033119 30 22 20
-9.052209 17.489807 50.057003 29 21 20
-9.056962 17.606953 50.083290 29 21 19
-9.062136 17.725035 50.111900 28 20 19
-9.067708 17.844025 50.142712 28 20 19
-9.073651 17.963882 50.175579 27 20 18
-9.079933 18.084555 50.210316 27 19 18
-9.086515 18.205980 50.246716 26 20 18
-9.093358 18.328087 50.284550 26 20 18
-9.100419 18.450800 50.323597 25 20 18
-9.107658 18.574043 50.363628 25 20 18
-9.115033 18.697739 50.404411 25 21 19
-9.122506 18.821812 50.445736 25 21 19
-9.130042 18.946194 50.487408 25 21 20
-9.137609 19.070822 50.529251 25 22 20
-9.145183 19.195642 50.571133 25 22 20
-10.547291 -9.659960 59.028168 183 103 86
-10.546378 -9.531890 59.023056 183 103 84
-10.546207 -9.404503 59.022099 183 103 83
-10.546668 -9.277678 59.024681 182 103 82
-10.547653 -9.151295 59.030193 180 104 81
-10.549062 -9.025250 59.038078 179 104 82
-10.550800 -8.899450 59.047802 178 105 82
-10.552785 -8.773813 59.058914 177 106 83
-10.554940 -8.648269 59.070976 178 107 85
-10.557205 -8.522759 59.083649 179 110 88
-10.559525 -8.397240 59.096630 181 113 91
-10.561859 -8.271675 59.109695 182 114 92
-10.564173 -8.146039 59.122646 182 114 93
-10.566444 -8.020314 59.135357 181 114 94
-10.568659 -7.894493 59.147751 181 115 95
-10.570809 -7.768571 59.159786 182 118 98
-10.572893 -7.642549 59.171448 187 123 103
-10.574914 -7.516431 59.182758 192 127 108
-10.576880 -7.390227 59.193760 194 128 110
-10.578804 -7.263947 59.204533 195 127 111
-10.580703 -7.137602 59.215157 195 126 111
-10.582594 -7.011207 59.225739 194 124 110
-10.584502 -6.884777 59.236416 193 122 108
-10.586454 -6.758330 59.247345 191 120 105
-10.588481 -6.631882 59.258686 188 117 101
-10.590618 -6.505453 59.270649 186 116 98
-10.592901 -6.379061 59.283424 186 116 97
-10.595375 -6.252725 59.297268 185 116 96
-10.598080 -6.126464 59.312405 183 115 94
-10.601059 -6.000293 59.329082 182 115 92
-10.604356 -5.874225 59.347527 184 116 92
-10.608007 -5.748271 59.367966 185 118 93
-10.612047 -5.622434 59.390572 186 119 94
-10.616501 -5.496714 59.415501 186 119 96
-10.621382 -5.371102 59.442818 185 119 97
-10.626697 -5.245587 59.472561 186 119 98
-10.632432 -5.120146 59.504658 186 119 100
-10.638566 -4.994754 59.538990 187 118 100
-10.645061 -4.869379 59.575340 186 116 99
-10.651866 -4.743985 59.613422 184 114 97
-10.658914 -4.618533 59.652863 183 113 95
-10.666129 -4.492980 59.693245 181 111 94
-10.673425 -4.367287 59.734077 179 110 91
-10.680712 -4.241415 59.774857 176 108 88
-10.687893 -4.115325 59.815048 172 106 85
-10.694877 -3.988989 59.854134 168 102 81
-10.701571 -3.862380 59.891602 165 99 79
-10.707897 -3.735480 59.927006 163 98 78
-10.713780 -3.608279 59.959927 161 98 80
-10.719161 -3.480773 59.990040 161 98 82
-10.723992 -3.352965 60.017078 160 98 85
-10.728246 -3.224867 60.040882 160 98 87
-10.731906 -3.096495 60.061367 159 99 87
-10.734976 -2.967872 60.078548 159 99 88
-10.737473 -2.839023 60.092522 158 100 88
-10.739432 -2.709979 60.103489 159 101 88
-10.740900 -2.580768 60.111702 160 101 88
-10.741930 -2.451423 60.117466 159 100 86
-10.742588 -2.321972 60.121151 158 98 85
-10.742948 -2.192444 60.123161 158 97 84
-10.743079 -2.062865 60.123901 158 95 83
-10.743058 -1.933254 60.123783 157 93 81
-10.742951 -1.803629 60.123184 156 92 81
-10.742824 -1.674004 60.122471 157 93 81
-10.742727 -1.544386 60.121929 158 95 82
-10.742702 -1.414780 60.121792 160 98 83
-10.742772 -1.285187 60.122181 161 99 85
-10.742947 -1.155602 60.123158 161 99 86
-10.743213 -1.026022 60.124649 160 99 85
-10.743545 -0.896441 60.126503 160 97 85
-10.743894 -0.766854 60.128456 161 97 87
-10.744198 -0.637255 60.130157 165 99 90
-10.744379 -0.507643 60.131172 168 101 91
-10.744351 -0.378020 60.131016 170 101 91
-10.744020 -0.248390 60.129166 171 101 90
-10.743294 -0.118764 60.125099 171 99 88
-10.742079 0.010844 60.118301 169 97 85
-10.740299 0.140416 60.108345 166 93 81
-10.737890 0.269929 60.094856 164 90 78
-10.734808 0.399358 60.077610 165 91 79
-10.731033 0.528679 60.056484 168 93 82
-10.726576 0.657868 60.031540 170 95 85
-10.721476 0.786901 60.002998 173 97 87
-10.715802 0.915762 59.971241 176 99 90
-10.709656 1.044441 59.936844 179 101 93
-10.703166 1.172933 59.900528 180 103 95
-10.696487 1.301246 59.863148 180 104 96
-10.689795 1.429396 59.825695 180 105 96
-10.683279 1.557410 59.789230 179 105 95
-10.677144 1.685327 59.754890 178 104 92
-10.671595 1.813196 59.723831 177 104 89
-10.666836 1.941074 59.697205 177 105 88
-10.663065 2.069029 59.676098 177 107 86
-10.660458 2.197134 59.661507 177 108 85
-10.659172 2.325463 59.654312 176 107 83
-10.659340 2.454097 59.655254 174 106 81
-10.661059 2.583110 59.664875 173 104 81
-10.664396 2.712576 59.683552 173 103 82
-10.669377 2.842561 59.711422 172 103 83
-10.675993 2.973120 59.748447 170 101 84
-10.684194 3.104301 59.794346 168 99 83
-10.693896 3.236134 59.848644 166 97 82
-10.704985 3.368636 59.910702 163 96 83
-10.717313 3.501812 59.979694 159 94 82
-10.730713 3.635648 60.054691 151 89 77
-10.745005 3.770120 60.134674 140 84 73
-10.759996 3.905191 60.218575 129 78 69
-10.775498 4.040815 60.305332 116 72 64
-10.791324 4.176939 60.393902 103 66 58
-10.807300 4.313504 60.483311 88 57 52
-10.823270 4.450452 60.572689 74 48 45
-10.839101 4.587728 60.661285 66 43 41
-10.854682 4.725276 60.748486 61 40 39
-10.869923 4.863047 60.833778 57 38 38
-10.884755 5.000999 60.916794 54 36 36
-10.899131 5.139093 60.997246 52 35 35
-10.913007 5.277293 61.074905 51 34 34
-10.926345 5.415561 61.149551 51 33 34
-10.939105 5.553857 61.220963 51 32 33
-10.951233 5.692133 61.288837 51 31 32
-10.962658 5.830327 61.352776 51 31 31
-10.973288 5.968365 61.412266 51 31 31
-10.983002 6.106149 61.466633 52 31 32
-10.991656 6.243567 61.515068 54 31 33
-10.999076 6.380476 61.556591 54 32 34
-11.005069 6.516721 61.590130 54 33 34
-11.009427 6.652121 61.614517 53 33 34
-11.011936 6.786488 61.628563 51 32 33
-11.012389 6.919623 61.631100 49 31 31
-11.010597 7.051331 61.621067 48 30 30
-11.006400 7.181427 61.597580 48 29 29
-10.999681 7.309746 61.559978 48 29 29
-10.990369 7.436148 61.507862 48 28 28
-10.978455 7.560533 61.441185 48 28 28
-10.963991 7.682844 61.360237 48 28 29
-10.947088 7.803068 61.265640 48 28 29
-10.927918 7.921241 61.158360 48 28 29
-10.906707 8.037446 61.039646 47 28 29
-10.883719 8.151810 60.910995 46 27 28
-10.859255 8.264494 60.774078 46 26 27
-10.833628 8.375690 60.630657 46 27 27
-10.807160 8.485607 60.482529 46 27 27
-10.780159 8.594460 60.331417 46 28 27
-10.752914 8.702465 60.178940 46 28 26
-10.725682 8.809822 60.026535 45 27 25
-10.698674 8.916710 59.875389 43 27 25
-10.672056 9.023275 59.726418 42 27 24
-10.645939 9.129628 59.580250 40 26 24
-10.620384 9.235840 59.437233 39 26 23
-10.595401 9.341939 59.297413 38 26 23
-10.570951 9.447911 59.160576 37 26 23
-10.546954 9.553705 59.026283 37 25 24
-10.523298 9.659232 58.893890 38 25 24
-10.499837 9.764370 58.762589 39 25 25
-10.476408 9.868971 58.631466 40 25 26
-10.452835 9.972871 58.499542 41 25 26
-10.428937 10.075887 58.365795 41 25 25
-10.404536 10.177835 58.229237 41 25 24
-10.379460 10.278525 58.088898 40 25 24
-10.353548 10.377772 57.943878 40 25 23
-10.326656 10.475401 57.793377 40 25 23
-10.298659 10.571245 57.636692 39 24 22
-10.269444 10.665151 57.473190 38 24 22
-10.238928 10.756983 57.302406 37 24 22
-10.207039 10.846621 57.123936 36 24 21
-10.173729 10.933961 56.937519 36 24 21
-10.138973 11.018927 56.743004 35 24 21
-10.102762 11.101455 56.540348 35 24 20
-10.065106 11.181505 56.329609 34 23 20
-10.026042 11.259065 56.110985 34 23 20
-9.985622 11.334142 55.884773 34 23 19
-9.943923 11.406777 55.651402 34 24 18
-9.901047 11.477042 55.411446 33 23 18
-9.857122 11.545044 55.165623 32 22 17
-9.812303 11.610928 54.914787 30 22 16
-9.766769 11.674876 54.659958 31 22 17
-9.720730 11.737115 54.402294 32 24 19
-9.674412 11.797903 54.143078 32 24 20
-9.628068 11.857543 53.883713 30 23 19
-9.581964 11.916363 53.625694 29 22 19
-9.536379 11.974720 53.370575 28 22 19
-9.491595 12.032994 53.119942 27 22 19
-9.447890 12.091569 52.875347 27 21 20
-9.405535 12.150832 52.638302 27 21 20
-9.364777 12.211155 52.410194 27 21 20
-9.325838 12.272890 52.192272 27 21 20
-9.288910 12.336356 51.985607 28 22 20
-9.254146 12.401831 51.791046 29 22 21
-9.221651 12.469536 51.609192 29 22 21
-9.191495 12.539647 51.440422 30 22 20
-9.163698 12.612277 51.284855 30 22 19
-9.138240 12.687484 51.142376 31 22 19
-9.115060 12.765267 51.012653 31 22 19
-9.094065 12.845576 50.895149 32 22 19
-9.075130 12.928315 50.789181 34 23 20
-9.058111 13.013350 50.693935 34 23 21
-9.042851 13.100522 50.608536 34 24 22
-9.029187 13.189656 50.532063 34 24 23
-9.016953 13.280568 50.463596 33 23 23
-9.005994 13.373077 50.402260 32 22 21
-8.996162 13.467010 50.347240 31 20 19
-8.987331 13.562215 50.297813 32 20 18
-8.979386 13.658554 50.253349 34 23 20
-8.972232 13.755916 50.213310 36 23 21
-8.965794 13.854209 50.177277 36 23 21
-8.960008 13.953363 50.144894 36 24 22
-8.954824 14.053327 50.115891 36 24 22
-8.950208 14.154058 50.090050 36 24 22
-8.946121 14.255523 50.067181 35 24 22
-8.942537 14.357697 50.047123 35 24 22
-8.939425 14.460546 50.029701 34 24 22
-8.936753 14.564040 50.014755 32 23 22
-8.934489 14.668138 50.002083 32 23 22
-8.932592 14.772790 49.991470 32 22 21
-8.931026 14.877943 49.982697 32 22 21
-8.929743 14.983537 49.975517 33 23 22
-8.928702 15.089509 49.969696 33 24 23
-8.927862 15.195797 49.964993 33 24 23
-8.927182 15.302340 49.961189 33 24 24
-8.926632 15.409088 49.958107 33 25 24
-8.926184 15.516002 49.955597 33 26 24
-8.925818 15.623051 49.953556 33 26 24
-8.925528 15.730221 49.951931 32 26 25
-8.925311 15.837517 49.950718 32 25 25
-8.925179 15.944957 49.949974 31 24 25
-8.925147 16.052576 49.949802 30 24 24
-8.925242 16.160423 49.950333 30 23 23
-8.925499 16.268566 49.951771 31 22 22
-8.925954 16.377081 49.954315 31 22 22
-8.926647 16.486046 49.958195 31 22 22
-8.927621 16.595549 49.963642 31 23 21
-8.928916 16.705675 49.970890 31 23 21
-8.930571 16.816513 49.980152 31 23 21
-8.932623 16.928143 49.991638 31 23 20
-8.935102 17.040636 50.005516 31 23 20
-8.938035 17.154058 50.021923 31 23 20
-8.941436 17.268457 50.040958 31 23 20
-8.945319 17.383875 50.062691 30 22 20
-8.949685 17.500332 50.087128 30 22 20
-8.954530 17.617834 50.114239 29 21 19
-8.959837 17.736370 50.143944 29 21 19
-8.965586 17.855913 50.176117 28 21 19
-8.971748 17.976423 50.210606 27 20 18
-8.978289 18.097843 50.247208 27 20 18
-8.985167 18.220106 50.285698 26 20 18
-8.992339 18.343136 50.325840 26 20 18
-8.999759 18.466845 50.367363 25 21 18
-9.007380 18.591152 50.410019 25 21 19
-9.015156 18.715961 50.453537 25 21 19
-9.023043 18.841190 50.497673 25 21 20
-9.031000 18.966761 50.542210 26 22 20
-9.038993 19.092594 50.586941 26 22 21
-9.046989 19.218630 50.631691 26 22 21
-10.412219 -9.779852 58.983826 181 102 85
-10.410478 -9.651090 58.973965 181 102 84
-10.409578 -9.523138 58.968864 181 102 83
-10.409407 -9.395866 58.967896 181 102 83
-10.409855 -9.269150 58.970432 180 103 82
-10.410815 -9.142873 58.975872 179 104 81
-10.412189 -9.016932 58.983662 179 104 82
-10.413885 -8.891231 58.993263 179 105 83
-10.415817 -8.765687 59.004208 179 107 84
-10.417912 -8.640231 59.016079 179 108 86
-10.420106 -8.514805 59.028507 180 110 88
-10.422347 -8.389363 59.041203 181 112 90
-10.424593 -8.263870 59.053921 182 114 92
-10.426808 -8.138299 59.066471 182 114 93
-10.428972 -8.012634 59.078732 182 115 93
-10.431068 -7.886866 59.090607 181 116 94
-10.433091 -7.760991 59.102062 183 119 97
-10.435037 -7.635010 59.113087 188 124 103
-10.436910 -7.508930 59.123695 193 129 109
-10.438718 -7.382758 59.133938 195 130 110
-10.440474 -7.256505 59.143883 195 128 110
-10.442192 -7.130185 59.153618 195 126 110
-10.443893 -7.003810 59.163258 194 125 108
-10.445601 -6.877398 59.172928 193 123 107
-10.447341 -6.750966 59.182789 192 121 104
-10.449143 -6.624531 59.193001 190 120 101
-10.451044 -6.498112 59.203766 188 118 98
-10.453080 -6.371730 59.215298 188 118 97
-10.455292 -6.245403 59.227829 186 117 95
-10.457723 -6.119150 59.241596 184 115 92
-10.460416 -5.992988 59.256851 183 114 91
-10.463412 -5.866930 59.273830 184 115 91
-10.466753 -5.740988 59.292755 185 117 93
-10.470472 -5.615168 59.313824 186 118 95
-10.474596 -5.489468 59.337185 186 118 95
-10.479139 -5.363883 59.362923 183 116 94
-10.484112 -5.238401 59.391087 181 114 94
-10.489504 -5.113002 59.421635 183 115 97
-10.495296 -4.987662 59.454449 187 118 101
-10.501456 -4.862350 59.489342 187 118 101
-10.507935 -4.737031 59.526043 186 117 100
-10.514670 -4.611668 59.564201 185 116 98
-10.521594 -4.486220 59.603424 184 115 97
-10.528623 -4.360646 59.643238 182 114 95
-10.535672 -4.234909 59.683170 180 112 93
-10.542650 -4.108971 59.722698 178 111 91
-10.549469 -3.982804 59.761326 175 108 90
-10.556041 -3.856380 59.798561 173 106 88
-10.562290 -3.729681 59.833958 169 103 86
-10.568144 -3.602694 59.867119 165 102 86
-10.573545 -3.475416 59.897713 164 101 88
-10.578444 -3.347847 59.925472 163 100 89
-10.582816 -3.219999 59.950237 161 100 90
-10.586639 -3.091883 59.971897 160 100 91
-10.589915 -2.963520 59.990452 160 101 91
-10.592656 -2.834934 60.005981 160 102 91
-10.594891 -2.706153 60.018639 162 103 91
-10.596657 -2.577202 60.028645 163 104 90
-10.598002 -2.448112 60.036266 163 103 89
-10.598984 -2.318908 60.041824 162 102 88
-10.599663 -2.189619 60.045673 162 101 88
-10.600102 -2.060266 60.048161 162 99 87
-10.600366 -1.930870 60.049652 160 96 85
-10.600512 -1.801448 60.050480 158 94 83
-10.600594 -1.672012 60.050941 158 94 83
-10.600656 -1.542572 60.051292 160 96 84
-10.600729 -1.413131 60.051708 161 98 85
-10.600831 -1.283692 60.052288 163 100 87
-10.600965 -1.154255 60.053047 163 101 87
-10.601114 -1.024815 60.053894 163 100 87
-10.601251 -0.895370 60.054665 162 99 87
-10.601324 -0.765918 60.055080 163 98 87
-10.601274 -0.636457 60.054802 166 99 90
-10.601027 -0.506987 60.053394 168 100 91
-10.600498 -0.377513 60.050404 170 100 90
-10.599604 -0.248044 60.045334 172 100 88
-10.598255 -0.118591 60.037697 171 99 86
-10.596374 0.010828 60.027035 170 97 84
-10.593887 0.140193 60.012955 169 94 80
-10.590744 0.269481 59.995148 167 92 78
-10.586912 0.398666 59.973438 168 92 79
-10.582380 0.527722 59.947769 170 92 80
-10.577169 0.656626 59.918251 171 93 81
-10.571328 0.785356 59.885159 172 94 83
-10.564934 0.913895 59.848938 175 96 86
-10.558093 1.042234 59.810184 178 99 90
-10.550941 1.170371 59.769669 179 101 93
-10.543634 1.298314 59.728275 179 102 94
-10.536350 1.426082 59.687016 179 104 95
-10.529282 1.553705 59.646969 179 104 95
-10.522628 1.681220 59.609276 178 104 92
-10.516595 1.808680 59.575100 178 105 90
-10.511385 1.936144 59.545586 178 106 89
-10.507189 2.063680 59.521816 179 108 88
-10.504183 2.191362 59.504791 179 108 86
-10.502522 2.319268 59.495384 178 108 84
-10.502337 2.447477 59.494331 177 107 82
-10.503723 2.576066 59.502186 175 105 81
-10.506749 2.705112 59.519325 174 103 81
-10.511444 2.834682 59.545925 174 103 83
-10.517803 2.964835 59.581947 173 102 84
-10.525784 3.095621 59.627155 169 99 82
-10.535309 3.227075 59.681110 166 97 81
-10.546271 3.359219 59.743214 166 97 82
-10.558535 3.492061 59.812683 163 96 82
-10.571944 3.625596 59.888649 155 90 77
-10.586329 3.759804 59.970135 146 85 72
-10.601506 3.894655 60.056114 135 80 69
-10.617298 4.030110 60.145573 123 76 65
-10.633528 4.166122 60.237507 112 71 62
-10.650028 4.302640 60.330982 98 64 57
-10.666652 4.439613 60.425152 84 55 50
-10.683269 4.576988 60.519287 71 46 43
-10.699770 4.714718 60.612762 63 40 39
-10.716070 4.852761 60.705105 59 38 37
-10.732101 4.991076 60.795914 56 37 36
-10.747810 5.129629 60.884907 53 36 35
-10.763155 5.268387 60.971832 52 35 35
-10.778093 5.407316 61.056458 52 34 35
-10.792582 5.546379 61.138527 52 33 34
-10.806560 5.685527 61.217712 52 32 34
-10.819953 5.824702 61.293583 52 31 33
-10.832663 5.963828 61.365585 52 31 32
-10.844563 6.102808 61.432995 53 31 32
-10.855499 6.241525 61.494949 53 31 33
-10.865291 6.379837 61.550415 54 32 34
-10.873734 6.517580 61.598251 54 33 35
-10.880611 6.654571 61.637207 53 33 35
-10.885696 6.790612 61.666012 52 32 34
-10.888766 6.925496 61.683403 50 31 32
-10.889619 7.059017 61.688232 49 30 30
-10.888078 7.190978 61.679501 49 29 29
-10.884008 7.321201 61.656448 49 28 29
-10.877325 7.449534 61.618587 50 28 29
-10.868001 7.575863 61.565773 50 28 29
-10.856072 7.700117 61.498196 50 28 29
-10.841638 7.822272 61.416428 50 28 28
-10.824856 7.942352 61.321358 48 28 28
-10.805941 8.060431 61.214203 48 27 28
-10.785151 8.176627 61.096439 47 27 27
-10.762782 8.291099 60.969719 47 27 27
-10.739146 8.404032 60.835823 48 28 27
-10.714561 8.515635 60.696556 48 28 27
-10.689342 8.626123 60.553684 48 29 27
-10.663777 8.735715 60.408867 47 28 26
-10.638129 8.844612 60.263577 45 28 25
-10.612616 8.952996 60.119045 43 27 25
-10.587406 9.061017 59.976238 42 27 24
-10.562618 9.168789 59.835815 41 27 24
-10.538316 9.276382 59.698147 40 27 24
-10.514512 9.383827 59.563301 39 27 24
-10.491171 9.491110 59.431076 38 27 24
-10.468214 9.598175 59.301033 38 26 24
-10.445527 9.704929 59.172512 38 25 24
-10.422964 9.811246 59.044693 39 25 25
-10.400358 9.916972 58.916637 40 25 25
-10.377532 10.021932 58.787327 41 25 25
-10.354300 10.125938 58.655724 41 25 25
-10.330482 10.228796 58.520794 40 25 24
-10.305899 10.330306 58.381538 40 25 24
-10.280390 10.430276 58.237030 40 25 24
-10.253806 10.528520 58.086437 40 25 23
-10.226019 10.624864 57.929028 39 25 23
-10.196917 10.719147 57.764168 38 24 22
-10.166412 10.811228 57.591366 38 24 22
-10.134434 10.900977 57.410210 38 24 22
-10.100935 10.988294 57.220444 38 24 22
-10.065891 11.073091 57.021923 37 24 21
-10.029295 11.155306 56.814613 36 23 21
-9.991161 11.234898 56.598591 35 23 21
-9.951529 11.311854 56.374073 35 23 19
-9.910455 11.386189 56.141396 35 23 18
-9.868025 11.457945 55.901039 34 23 18
-9.824348 11.527202 55.653618 34 23 18
-9.779562 11.594076 55.399910 33 23 18
-9.733831 11.658726 55.140850 32 23 18
-9.687348 11.721347 54.877529 33 23 18
-9.640332 11.782184 54.611191 33 23 19
-9.593026 11.841512 54.343208 32 23 19
-9.545694 11.899654 54.075081 31 22 18
-9.498617 11.956961 53.808395 30 21 18
-9.452084 12.013808 53.544788 29 21 18
-9.406389 12.070596 53.285934 28 21 19
-9.361822 12.127728 53.033470 28 21 20
-9.318660 12.185609 52.788956 28 21 20
-9.277157 12.244625 52.553848 28 22 20
-9.237540 12.305141 52.329426 28 22 21
-9.200002 12.367483 52.116776 29 22 21
-9.164693 12.431933 51.916756 29 22 21
-9.131721 12.498719 51.729977 30 23 21
-9.101148 12.568012 51.556782 30 23 21
-9.072989 12.639923 51.397270 31 22 20
-9.047218 12.714500 51.251278 31 22 20
-9.023767 12.791739 51.118435 32 22 19
-9.002533 12.871572 50.998142 32 22 19
-8.983385 12.953897 50.889675 34 23 20
-8.966172 13.038567 50.792164 34 24 21
-8.950727 13.125409 50.704674 35 24 23
-8.936882 13.214238 50.626240 35 25 24
-8.924464 13.304859 50.555893 34 24 23
-8.913314 13.397081 50.492733 32 22 21
-8.903282 13.490726 50.435902 31 21 19
-8.894237 13.585631 50.384659 31 21 18
-8.886061 13.681656 50.338345 33 22 19
-8.878661 13.778685 50.296425 34 23 20
-8.871959 13.876624 50.258457 34 22 21
-8.865894 13.975405 50.224106 34 23 21
-8.860418 14.074972 50.193085 35 23 22
-8.855493 14.175287 50.165180 35 24 22
-8.851088 14.276321 50.140228 35 24 23
-8.847175 14.378047 50.118061 35 24 23
-8.843727 14.480439 50.098526 34 24 23
-8.840714 14.583467 50.081463 33 23 21
-8.838105 14.687088 50.066681 32 22 21
