ply
format ascii 1.0
element vertex 1233
property float x
property float y
property float z
property uchar red
property uchar green
property uchar blue
end_header
23.152864 -0.278853 67.503410 4 23 28
23.144213 -0.133288 67.478180 4 23 33
23.132507 0.012166 67.444054 4 22 35
23.118296 0.157456 67.402618 7 20 35
23.102215 0.302542 67.355736 26 34 49
23.084974 0.447405 67.305466 94 99 111
23.067299 0.592039 67.253937 191 193 200
23.049910 0.736460 67.203232 245 246 248
23.033476 0.880699 67.155319 254 254 254
23.018589 1.024801 67.111916 244 241 242
23.005733 1.168818 67.074440 212 203 205
22.995270 1.312811 67.043930 192 181 184
22.987419 1.456837 67.021042 215 207 210
22.982256 1.600952 67.005989 244 242 242
22.979712 1.745201 66.998573 254 253 253
22.979584 1.889617 66.998199 252 248 249
22.981533 2.034215 67.003883 243 226 227
22.985117 2.178993 67.014328 224 185 189
22.989790 2.323925 67.027954 206 152 158
22.994934 2.468967 67.042946 198 138 142
22.999880 2.614052 67.057373 173 113 114
23.003929 2.759091 67.069176 124 69 68
23.006380 2.903978 67.076324 90 42 39
23.006548 3.048594 67.076813 87 46 43
23.003788 3.192806 67.068764 90 56 53
22.997526 3.336476 67.050507 86 57 55
22.987270 3.479462 67.020607 81 56 55
22.972631 3.621628 66.977921 77 56 55
22.953333 3.762846 66.921661 71 53 53
22.929230 3.903003 66.851387 62 48 48
22.900299 4.042006 66.767036 53 42 42
22.866652 4.179783 66.668938 47 38 38
22.828510 4.316287 66.557732 42 34 34
22.786222 4.451502 66.434441 38 31 31
22.740223 4.585437 66.300331 35 29 29
22.691025 4.718128 66.156891 34 28 28
22.639187 4.849636 66.005753 32 27 27
22.585310 4.980042 65.848671 31 26 27
22.530005 5.109447 65.687424 31 25 27
22.473858 5.237961 65.523727 30 24 25
22.417433 5.365703 65.359215 29 23 23
22.361237 5.492791 65.195374 28 22 22
22.305717 5.619343 65.033501 27 21 20
22.251245 5.745469 64.874687 26 21 19
22.198107 5.871262 64.719757 25 20 18
22.146509 5.996804 64.569321 25 20 18
22.096577 6.122159 64.423744 24 20 18
22.048353 6.247371 64.283142 24 19 17
22.001793 6.372459 64.147392 24 19 17
21.956802 6.497425 64.016220 23 19 17
21.913221 6.622252 63.889160 23 19 18
21.870838 6.746902 63.765591 24 19 19
21.829414 6.871319 63.644817 25 20 19
21.788687 6.995440 63.526073 27 20 19
21.748377 7.119186 63.408550 28 21 19
21.708225 7.242477 63.291481 29 21 20
21.667982 7.365233 63.174149 30 21 20
21.627436 7.487379 63.055939 30 22 21
21.586422 7.608849 62.936359 30 23 22
21.544819 7.729593 62.815063 30 23 23
21.502571 7.849578 62.691887 30 24 24
21.459688 7.968797 62.566864 29 24 24
21.416245 8.087265 62.440201 29 23 24
21.372375 8.205023 62.312294 28 22 24
21.328276 8.322140 62.183720 28 21 23
21.284199 8.438711 62.055210 27 21 22
21.240435 8.554854 61.927612 28 22 22
21.197300 8.670706 61.801853 29 23 23
21.155130 8.786416 61.678905 29 23 23
21.114269 8.902146 61.559772 29 24 23
21.075043 9.018064 61.445404 30 25 23
21.037756 9.134330 61.336697 31 25 23
21.002682 9.251101 61.234432 31 25 23
20.970055 9.368526 61.139305 31 26 24
20.940063 9.486734 61.051865 30 26 24
20.912846 9.605840 60.972511 30 26 24
20.888493 9.725937 60.901508 30 25 23
20.867056 9.847105 60.839012 29 24 23
20.848547 9.969401 60.785046 29 23 23
20.832941 10.092874 60.739544 29 24 24
20.820194 10.217552 60.702381 30 25 25
20.810251 10.343464 60.673393 31 26 27
20.803045 10.470628 60.652382 31 28 29
20.798510 10.599063 60.639156 33 29 30
20.796581 10.728786 60.633537 33 30 31
20.797215 10.859821 60.635380 34 30 31
20.800364 10.992196 60.644566 34 30 32
20.806004 11.125940 60.661007 35 29 31
20.814108 11.261089 60.684635 34 29 30
20.824654 11.397677 60.715382 34 29 30
20.837618 11.535736 60.753181 34 29 30
20.852966 11.675294 60.797932 34 29 30
20.870655 11.816368 60.849503 35 29 30
20.890612 11.958963 60.907684 36 29 29
20.912743 12.103068 60.972214 37 30 30
22.781792 -6.533348 66.006668 16 11 11
22.790396 -6.393474 66.031601 16 11 11
22.798634 -6.253392 66.055473 16 10 11
22.806622 -6.113139 66.078613 16 10 11
22.814470 -5.972751 66.101357 16 10 11
22.822294 -5.832258 66.124023 16 10 12
22.830191 -5.691685 66.146904 16 10 12
22.838247 -5.551054 66.170250 15 10 12
22.846533 -5.410375 66.194252 15 11 11
22.855087 -5.269654 66.219032 15 11 12
22.863928 -5.128891 66.244652 15 11 12
22.873047 -4.988079 66.271072 15 11 12
22.882418 -4.847206 66.298225 15 11 12
22.892004 -4.706260 66.325996 16 10 11
22.901752 -4.565227 66.354240 16 11 11
22.911613 -4.424094 66.382812 16 11 11
22.921547 -4.282851 66.411591 16 12 12
22.931528 -4.141492 66.440514 17 12 13
22.941557 -4.000018 66.469566 17 13 14
22.951668 -3.858431 66.498863 17 13 14
22.961929 -3.716743 66.528595 17 13 14
22.972446 -3.574967 66.559067 16 13 13
22.983358 -3.433118 66.590683 17 14 14
22.994820 -3.291211 66.623886 16 13 13
23.007010 -3.149261 66.659210 16 13 13
23.020107 -3.007277 66.697159 16 13 13
23.034277 -2.865263 66.738213 17 13 13
23.049644 -2.723214 66.782738 17 13 13
23.066288 -2.581115 66.830956 17 14 13
23.084211 -2.438944 66.882889 18 14 13
23.103342 -2.296669 66.938316 18 14 13
23.123503 -2.154250 66.996727 18 14 13
23.144426 -2.011647 67.057350 19 14 13
23.165745 -1.868813 67.119118 19 14 12
23.187008 -1.725710 67.180725 20 14 12
23.207684 -1.582300 67.240631 20 14 11
23.227201 -1.438561 67.297180 19 14 12
23.244965 -1.294480 67.348640 18 14 12
23.260391 -1.150062 67.393341 17 15 12
23.272949 -1.005327 67.429726 16 16 13
23.282190 -0.860313 67.456497 15 18 14
23.287773 -0.715071 67.472679 13 19 16
23.289501 -0.569665 67.477684 10 21 19
23.287340 -0.424166 67.471420 7 22 23
23.281410 -0.278650 67.454239 4 23 28
23.272001 -0.133187 67.426979 3 22 33
23.259548 0.012156 67.390900 3 21 36
23.244617 0.157327 67.347633 5 20 37
23.227869 0.302288 67.299118 29 39 56
23.210028 0.447019 67.247421 104 111 126
23.191839 0.591518 67.194725 199 204 213
23.174034 0.735801 67.143135 247 249 252
23.157290 0.879903 67.094620 254 254 254
23.142204 1.023869 67.050911 251 249 249
23.129263 1.167755 67.013420 239 235 236
23.118826 1.311621 66.983177 234 228 229
23.111105 1.455528 66.960808 243 240 240
23.106169 1.599531 66.946510 252 251 252
23.103941 1.743677 66.940048 254 250 251
23.104193 1.887998 66.940781 246 230 232
23.106577 2.032509 66.947685 225 190 192
23.110624 2.177207 66.959412 210 156 158
23.115774 2.322067 66.974335 211 147 149
23.121387 2.467040 66.990601 216 150 151
23.126764 2.612056 67.006180 192 129 128
23.131186 2.757026 67.018990 136 79 78
23.133923 2.901839 67.026917 94 45 43
23.134266 3.046372 67.027916 84 43 41
23.131554 3.190488 67.020058 84 51 48
23.125187 3.334043 67.001610 79 51 50
23.114660 3.476892 66.971107 73 50 49
23.099569 3.618895 66.927383 68 49 49
23.079632 3.759920 66.869621 64 48 48
23.054701 3.899851 66.797386 57 44 44
23.024755 4.038591 66.710625 50 40 40
22.989914 4.176068 66.609673 45 35 35
22.950418 4.312235 66.495247 40 32 32
22.906631 4.447075 66.368378 36 29 29
22.859007 4.580600 66.230392 33 27 27
22.808084 4.712848 66.082855 32 27 27
22.754448 4.843883 65.927452 32 26 26
22.698725 4.973790 65.766006 31 25 26
22.641548 5.102673 65.600342 30 24 26
22.583530 5.230648 65.432243 29 24 25
22.525255 5.357836 65.263397 28 23 23
22.467249 5.484363 65.095337 27 22 22
22.409973 5.610347 64.929390 27 21 21
22.353813 5.735903 64.766670 25 20 20
22.299063 5.861127 64.608040 25 20 19
22.245939 5.986105 64.454124 24 20 19
22.194567 6.110902 64.305283 23 19 18
22.144989 6.235563 64.161636 22 19 18
22.097168 6.360110 64.023087 23 19 17
22.050999 6.484545 63.889317 23 19 17
22.006323 6.608851 63.759872 23 19 18
21.962919 6.732991 63.634121 23 19 18
21.920546 6.856909 63.511345 24 19 19
21.878927 6.980540 63.390766 26 19 19
21.837786 7.103806 63.271561 27 20 19
21.796844 7.226624 63.152943 28 20 20
21.755852 7.348914 63.034176 28 21 20
21.714588 7.470598 62.914619 28 22 21
21.672880 7.591611 62.793777 29 22 22
21.630602 7.711900 62.671284 29 22 22
21.587690 7.831431 62.546955 29 22 23
21.544153 7.950196 62.420815 28 22 23
21.500057 8.068206 62.293049 27 22 23
21.455538 8.185504 62.164059 27 20 23
21.410789 8.302157 62.034412 27 20 22
21.366064 8.418261 61.904823 27 20 21
21.321651 8.533931 61.776150 27 21 21
21.277874 8.649304 61.649307 28 22 22
21.235065 8.764531 61.525280 28 23 22
21.193571 8.879773 61.405052 29 23 22
21.153723 8.995197 61.289600 30 24 23
21.115829 9.110967 61.179813 31 24 23
21.080166 9.227239 61.076481 31 25 23
21.046970 9.344161 60.980301 31 25 24
21.016434 9.461866 60.891827 30 26 24
20.988699 9.580469 60.811470 30 26 24
20.963860 9.700065 60.739498 30 25 24
20.941969 9.820733 60.676075 29 24 23
20.923044 9.942536 60.621243 29 23 23
20.907064 10.065523 60.574947 29 23 23
20.893993 10.189727 60.537071 29 24 25
20.883780 10.315180 60.507481 30 25 26
20.876364 10.441905 60.485996 31 27 29
20.871689 10.569924 60.472450 32 28 30
20.869703 10.699265 60.466698 32 29 30
20.870365 10.829953 60.468613 33 29 30
20.873644 10.962026 60.478115 33 28 30
20.879522 11.095520 60.495144 33 27 29
20.887981 11.230475 60.519653 33 27 28
20.899008 11.366933 60.551605 32 27 28
20.912582 11.504929 60.590931 32 27 28
20.928671 11.644494 60.637547 32 27 28
20.947226 11.785648 60.691307 33 27 28
20.968172 11.928393 60.751995 34 28 28
22.910051 -6.387149 65.966286 16 11 10
22.918444 -6.247235 65.990448 16 11 10
22.926641 -6.107166 66.014046 16 11 11
22.934759 -5.966974 66.037430 16 10 11
22.942913 -5.826690 66.060898 16 10 12
22.951197 -5.686338 66.084755 16 10 12
22.959700 -5.545935 66.109238 15 10 12
22.968481 -5.405493 66.134521 15 10 11
22.977577 -5.265013 66.160713 15 11 12
22.987000 -5.124493 66.187843 15 11 12
22.996733 -4.983924 66.215866 15 11 12
23.006742 -4.843292 66.244690 15 10 11
23.016983 -4.702583 66.274178 16 10 11
23.027393 -4.561781 66.304153 16 11 11
23.037924 -4.420872 66.334473 16 11 11
23.048527 -4.279846 66.364998 16 11 12
23.059166 -4.138695 66.395638 16 12 13
23.069841 -3.997418 66.426376 16 12 13
23.080582 -3.856020 66.457298 17 13 13
23.091454 -3.714509 66.488602 16 13 13
23.102556 -3.572899 66.520569 17 13 13
23.114023 -3.431206 66.553589 17 13 13
23.126013 -3.289443 66.588112 17 13 13
23.138695 -3.147627 66.624626 16 12 13
23.152252 -3.005767 66.663666 16 13 13
23.166836 -2.863866 66.705658 16 13 12
23.182577 -2.721919 66.750977 16 13 12
23.199543 -2.579913 66.799835 17 13 12
23.217741 -2.437826 66.852226 17 13 12
23.237080 -2.295625 66.907913 18 14 12
23.257389 -2.153275 66.966393 18 14 12
23.278389 -2.010732 67.026855 18 14 12
23.299707 -1.867954 67.088242 19 14 12
23.320881 -1.724900 67.149208 19 14 12
23.341377 -1.581538 67.208229 19 14 12
23.360622 -1.437844 67.263641 18 14 12
23.378016 -1.293809 67.313721 18 15 12
23.392975 -1.149438 67.356789 17 15 12
23.404968 -1.004755 67.391327 16 16 13
23.413557 -0.859797 67.416054 14 18 14
23.418409 -0.714619 67.430023 13 19 15
23.419342 -0.569285 67.432716 11 20 18
23.416334 -0.423868 67.424057 7 22 22
23.409531 -0.278444 67.404465 5 22 27
23.399239 -0.133084 67.374832 4 22 32
23.385920 0.012146 67.336479 3 22 35
23.370159 0.157195 67.291100 6 22 38
23.352642 0.302026 67.240662 34 46 62
23.334110 0.446619 67.187294 110 121 135
23.315323 0.590976 67.133209 202 209 218
23.297028 0.735115 67.080521 248 250 253
23.279905 0.879072 67.031227 254 254 254
23.264565 1.022894 66.987053 254 253 253
23.251488 1.166639 66.949394 251 250 251
23.241028 1.310370 66.919281 251 249 250
23.233397 1.454148 66.897308 253 252 252
23.228649 1.598029 66.883636 254 253 254
23.226690 1.742061 66.877998 254 244 245
23.227282 1.886275 66.879700 235 204 205
23.230055 2.030688 66.887688 203 151 152
23.234520 2.175293 66.900543 194 128 128
23.240099 2.320065 66.916611 206 135 134
23.246122 2.464954 66.933952 216 146 143
23.251875 2.609886 66.950516 200 134 132
23.256609 2.754770 66.964142 150 92 89
23.259571 2.899491 66.972672 102 52 50
23.260031 3.043922 66.973999 84 43 41
23.257305 3.187922 66.966148 80 47 46
23.250778 3.331343 66.947357 73 47 46
23.239929 3.474037 66.916115 66 44 43
23.224340 3.615859 66.871231 61 43 42
23.203730 3.756673 66.811882 56 42 42
23.177942 3.896362 66.737640 51 40 40
23.146969 4.034827 66.648453 46 36 37
23.110933 4.171993 66.544693 41 32 33
23.070089 4.307815 66.427086 37 30 30
23.024818 4.442275 66.296738 33 27 27
22.975599 4.575387 66.155014 31 25 26
22.922989 4.707191 66.003532 30 25 25
22.867599 4.837755 65.844048 30 24 25
22.810080 4.967166 65.678429 29 23 24
22.751085 5.095534 65.508560 28 23 24
22.691252 5.222977 65.336281 28 23 23
22.631184 5.349620 65.163322 27 23 23
22.571424 5.475594 64.991249 27 22 22
22.512445 5.601019 64.821434 27 21 21
22.454645 5.726013 64.654999 26 21 21
22.398327 5.850676 64.492844 25 20 20
22.343714 5.975097 64.335594 24 20 19
22.290936 6.099341 64.183624 23 19 18
22.240034 6.223455 64.037056 22 19 18
22.190971 6.347465 63.895794 22 19 18
22.143646 6.471371 63.759521 22 19 18
22.097887 6.595159 63.627766 22 18 18
22.053474 6.718788 63.499889 22 18 19
22.010160 6.842207 63.375172 23 18 19
21.967665 6.965349 63.252811 25 19 20
21.925699 7.088134 63.131977 26 19 20
21.883986 7.210481 63.011871 27 20 19
21.842262 7.332307 62.891731 27 21 20
21.800304 7.453535 62.770920 27 21 21
21.757927 7.574096 62.648899 28 22 21
21.715004 7.693938 62.525307 28 21 22
21.671463 7.813024 62.399940 28 21 22
21.627308 7.931344 62.272800 27 21 22
21.582600 8.048910 62.144070 26 21 22
21.537470 8.165761 62.014126 26 19 22
21.492113 8.281964 61.883530 26 19 22
21.446775 8.397613 61.752987 26 20 21
21.401749 8.512821 61.623337 26 20 21
21.357349 8.627725 61.495495 27 21 21
21.313917 8.742474 61.370438 27 22 21
21.271795 8.857227 61.249153 28 22 21
21.231316 8.972155 61.132599 29 23 22
21.192791 9.087416 61.021671 29 23 22
21.156496 9.203170 60.917168 30 24 23
21.122675 9.319564 60.819778 30 25 24
21.091518 9.436731 60.730072 30 25 24
21.063177 9.554789 60.648468 29 25 24
21.037746 9.673832 60.575241 28 24 23
21.015287 9.793945 60.510571 28 23 22
20.995821 9.915193 60.454521 27 22 22
20.979338 10.037625 60.407059 28 22 22
20.965805 10.161285 60.368099 29 23 24
20.955187 10.286206 60.337524 30 25 26
20.947433 10.412419 60.315201 32 27 28
20.942499 10.539955 60.300995 32 27 29
20.940348 10.668847 60.294792 32 28 29
20.940948 10.799132 60.296528 32 28 29
20.944288 10.930854 60.306141 32 28 28
20.950356 11.064059 60.323616 32 27 28
20.959148 11.198793 60.348930 31 26 27
20.970657 11.335107 60.382069 31 25 26
20.984867 11.473039 60.422981 30 25 26
21.001747 11.612624 60.471588 30 25 26
21.021244 11.753881 60.527725 31 26 27
23.038935 -6.241340 65.928169 16 11 10
23.047335 -6.101445 65.952209 16 11 11
23.055712 -5.961440 65.976181 16 10 11
23.064177 -5.821354 66.000404 16 11 12
23.072830 -5.681210 66.025162 16 10 12
23.081753 -5.541024 66.050697 15 10 12
23.091002 -5.400805 66.077164 15 11 11
23.100607 -5.260552 66.104652 14 11 11
23.110577 -5.120261 66.133186 14 10 11
23.120888 -4.979921 66.162689 14 10 10
23.131498 -4.839517 66.193054 15 10 10
23.142361 -4.699032 66.224136 15 11 10
23.153406 -4.558450 66.255745 16 11 11
23.164577 -4.417756 66.287712 16 12 11
23.175823 -4.276937 66.319893 16 12 11
23.187107 -4.135986 66.352180 17 12 12
23.198420 -3.994902 66.384552 16 12 12
23.209789 -3.853687 66.417091 16 12 12
23.221277 -3.712350 66.449959 16 12 12
23.232979 -3.570905 66.483452 17 13 12
23.245028 -3.429367 66.517929 17 13 13
23.257574 -3.287750 66.553825 17 13 13
23.270782 -3.146068 66.591629 16 12 13
23.284834 -3.004332 66.631836 16 13 13
23.299871 -2.862544 66.674866 16 13 12
23.316021 -2.720700 66.721085 17 14 12
23.333342 -2.578786 66.770645 17 14 12
23.351833 -2.436780 66.823563 17 14 12
23.371399 -2.294652 66.879547 18 14 12
23.391857 -2.152365 66.938095 18 14 12
23.412920 -2.009877 66.998367 18 14 12
23.434206 -1.867147 67.059280 19 14 13
23.455252 -1.724137 67.119507 18 14 12
23.475517 -1.580815 67.177498 18 14 12
23.494417 -1.437159 67.231583 18 14 12
23.511354 -1.293162 67.280045 17 15 12
23.525747 -1.148831 67.321228 16 15 12
23.537073 -1.004193 67.353645 15 16 13
23.544897 -0.859287 67.376030 14 17 14
23.548901 -0.714168 67.387489 13 18 15
23.548920 -0.568904 67.387543 11 19 17
23.544950 -0.423567 67.376190 9 21 21
23.537159 -0.278235 67.353889 7 22 25
23.525881 -0.132979 67.321609 6 22 30
23.511593 0.012136 67.280731 5 23 33
23.494911 0.157059 67.232994 13 29 42
23.476540 0.301755 67.180420 50 64 78
23.457239 0.446206 67.125191 128 141 152
23.437786 0.590415 67.069527 210 218 226
23.418940 0.734404 67.015594 249 252 253
23.401388 0.878208 66.965363 254 254 254
23.385738 1.021879 66.920586 254 253 254
23.372480 1.165476 66.882645 254 253 254
23.361959 1.309063 66.852539 254 253 254
23.354372 1.452703 66.830826 254 253 254
23.349764 1.596452 66.817642 254 253 254
23.348028 1.740359 66.812675 251 238 237
23.348911 1.884456 66.815201 222 181 181
23.352018 2.028757 66.824089 182 120 118
23.356846 2.173256 66.837906 177 105 103
23.362787 2.317926 66.854904 195 120 117
23.369156 2.462714 66.873131 206 134 131
23.375210 2.607545 66.890450 200 133 131
23.380178 2.752323 66.904678 161 102 100
23.383291 2.896933 66.913582 109 60 59
23.383797 3.041242 66.915024 84 43 43
23.380987 3.185105 66.906990 77 45 45
23.374235 3.328372 66.887665 70 44 44
23.363005 3.470891 66.855530 61 41 40
23.346874 3.612514 66.809372 55 39 38
23.325552 3.753101 66.748360 50 38 37
23.298889 3.892534 66.672058 46 36 35
23.266874 4.030710 66.580444 42 33 34
23.229649 4.167556 66.473915 38 30 31
23.187475 4.303025 66.353233 34 27 29
23.140753 4.437102 66.219536 31 25 26
23.089981 4.569800 66.074242 29 23 24
23.035734 4.701164 65.919014 28 23 23
22.978651 4.831261 65.755661 28 22 23
22.919401 4.960186 65.586113 27 22 22
22.858662 5.088047 65.412300 27 22 22
22.797087 5.214968 65.236099 27 22 22
22.735296 5.341079 65.059280 26 22 22
22.673849 5.466510 64.883446 26 22 22
22.613232 5.591389 64.709984 27 22 22
22.553850 5.715833 64.540054 26 21 21
22.496017 5.839946 64.374565 25 20 20
22.439960 5.963818 64.214149 24 20 19
22.385813 6.087517 64.059196 23 20 19
22.333620 6.211092 63.909843 22 20 19
22.283342 6.334568 63.765968 22 20 20
22.234873 6.457948 63.627270 22 20 19
22.188046 6.581218 63.493271 22 19 19
22.142637 6.704339 63.363327 22 18 20
22.098391 6.827259 63.236710 23 18 20
22.055023 6.949910 63.112610 24 19 20
22.012241 7.072215 62.990189 25 20 20
21.969763 7.194090 62.868629 26 21 20
21.927317 7.315453 62.747169 26 21 20
21.884676 7.436225 62.625145 26 22 20
21.841650 7.556339 62.502022 27 22 21
21.798103 7.675738 62.377407 27 22 22
21.753958 7.794386 62.251083 27 22 22
21.709213 7.912270 62.123043 27 22 22
21.663925 8.029402 61.993446 26 21 21
21.618219 8.145817 61.862656 26 20 21
21.572285 8.261580 61.731209 26 19 21
21.526367 8.376782 61.599812 26 19 21
21.480749 8.491538 61.469269 26 20 20
21.435749 8.605978 61.340496 26 21 20
21.391701 8.720252 61.214451 26 21 20
21.348948 8.834517 61.092106 26 21 20
21.307823 8.948940 60.974426 27 22 21
21.268637 9.063682 60.862293 28 23 21
21.231668 9.178897 60.756500 29 23 21
21.197159 9.294736 60.657749 29 24 22
21.165310 9.411331 60.566608 29 24 23
21.136269 9.528800 60.483505 28 24 23
21.110140 9.647242 60.408737 27 23 22
21.086996 9.766743 60.342506 27 23 22
21.066862 9.887371 60.284893 26 22 21
21.049742 10.009185 60.235901 27 22 22
21.035616 10.132229 60.195477 28 23 23
21.024460 10.256548 60.163555 29 25 25
21.016243 10.382181 60.140038 31 26 27
21.010933 10.509167 60.124844 32 27 28
21.008511 10.637549 60.117916 32 28 28
21.008968 10.767378 60.119225 32 29 28
21.012302 10.898704 60.128765 32 28 28
21.018520 11.031585 60.146557 31 27 27
21.027628 11.166077 60.172619 30 26 26
21.039631 11.302236 60.206966 29 24 25
21.054514 11.440108 60.249554 29 24 25
23.168730 -6.095978 65.893120 16 11 11
23.177343 -5.956149 65.917618 16 11 12
23.186094 -5.816248 65.942513 16 11 12
23.195086 -5.676298 65.968079 16 10 12
23.204391 -5.536314 65.994545 15 10 12
23.214069 -5.396301 66.022064 15 11 11
23.224142 -5.256260 66.050720 14 11 11
23.234613 -5.116182 66.080498 14 11 10
23.245455 -4.976056 66.111336 14 10 10
23.256622 -4.835864 66.143097 14 10 10
23.268061 -4.695590 66.175621 15 11 10
23.279699 -4.555215 66.208725 15 11 10
23.291475 -4.414723 66.242218 16 12 11
23.303333 -4.274103 66.275940 16 12 11
23.315237 -4.133344 66.309799 16 12 11
23.327171 -3.992445 66.343742 16 12 11
23.339163 -3.851409 66.377846 16 11 11
23.351269 -3.710245 66.412270 16 11 11
23.363581 -3.568963 66.447289 16 12 11
23.376226 -3.427579 66.483253 17 12 12
23.389353 -3.286108 66.520584 17 12 12
23.403118 -3.144562 66.559738 16 12 12
23.417694 -3.002950 66.601189 16 13 12
23.433218 -2.861276 66.645340 16 13 12
23.449804 -2.719535 66.692513 17 14 12
23.467506 -2.577713 66.742859 17 14 12
23.486307 -2.435787 66.796333 17 14 12
23.506107 -2.293729 66.852638 18 14 12
23.526709 -2.151501 66.911232 18 13 12
23.547819 -2.009064 66.971268 18 13 12
23.569046 -1.866378 67.031639 18 13 12
23.589916 -1.723405 67.091003 18 14 12
23.609888 -1.580116 67.147804 17 14 12
23.628374 -1.436492 67.200378 17 14 12
23.644773 -1.292527 67.247017 16 15 12
23.658512 -1.148232 67.286087 15 15 13
23.669073 -1.003633 67.316124 15 16 13
23.676031 -0.858775 67.335915 14 17 14
23.679087 -0.713713 67.344604 13 17 15
23.678091 -0.568517 67.341774 12 18 17
23.673065 -0.423261 67.327477 11 20 20
23.664196 -0.278022 67.302254 9 21 23
23.651842 -0.132871 67.267120 9 23 27
23.636513 0.012126 67.223518 14 29 36
23.618841 0.156920 67.173264 34 50 59
23.599556 0.301476 67.118416 85 100 110
23.579435 0.445781 67.061188 161 174 182
23.559271 0.589837 67.003838 224 232 236
23.539827 0.733669 66.948547 248 252 253
23.521809 0.877315 66.897301 252 253 254
23.505817 1.020829 66.851822 254 252 254
23.492338 1.164271 66.813484 254 253 254
23.481714 1.307707 66.783264 254 252 254
23.474129 1.451200 66.761696 254 252 254
23.469616 1.594809 66.748863 254 253 253
23.468054 1.738581 66.744415 248 233 233
23.469164 1.882549 66.747574 212 168 167
23.472540 2.026726 66.757172 167 102 99
23.477655 2.171104 66.771721 161 89 85
23.483879 2.315655 66.789421 181 107 103
23.490507 2.460325 66.808273 195 124 120
23.496775 2.605036 66.826096 197 130 128
23.501892 2.749690 66.840652 167 108 107
23.505066 2.894166 66.849678 116 66 66
23.505526 3.038331 66.850990 85 44 45
23.502550 3.182036 66.842529 75 43 44
23.495501 3.325129 66.822479 67 43 43
23.483829 3.467452 66.789284 58 39 39
23.467104 3.608855 66.741714 52 37 36
23.445036 3.749199 66.678947 47 35 34
23.417477 3.888360 66.600571 42 33 33
23.384420 4.026237 66.506554 39 32 32
23.346014 4.162755 66.397324 36 29 30
23.302538 4.297866 66.273682 31 26 27
23.254410 4.431559 66.136803 29 24 25
23.202141 4.563846 65.988144 27 22 23
23.146330 4.694774 65.829414 25 20 22
23.087629 4.824414 65.662468 25 20 21
23.026731 4.952861 65.489273 25 20 21
22.964331 5.080229 65.311798 26 21 21
22.901100 5.206644 65.131973 26 21 21
22.837673 5.332237 64.951576 26 21 22
22.774622 5.457143 64.772255 26 21 22
22.712442 5.581490 64.595413 26 21 22
22.651550 5.705398 64.422234 25 20 21
22.592264 5.828975 64.253624 25 20 20
22.534815 5.952310 64.090233 24 20 20
22.479343 6.075474 63.932468 23 20 20
22.425892 6.198517 63.780449 23 20 20
22.374424 6.321465 63.634075 22 20 20
22.324835 6.444324 63.493038 22 20 20
22.276953 6.567079 63.356861 21 19 20
22.230553 6.689692 63.224895 22 19 20
22.185377 6.812112 63.096413 23 19 20
22.141140 6.934272 62.970600 24 20 21
22.097544 7.056094 62.846611 24 20 21
22.054298 7.177496 62.723621 25 21 21
22.011135 7.298396 62.600861 26 22 21
21.967817 7.418713 62.477661 26 22 21
21.924150 7.538379 62.353470 27 22 21
21.879992 7.657338 62.227879 27 22 22
21.835260 7.775552 62.100666 27 23 22
21.789946 7.893005 61.971786 27 22 22
21.744101 8.009707 61.841396 26 21 21
21.697842 8.125694 61.709839 26 20 21
21.651356 8.241025 61.577625 26 20 21
21.604877 8.355790 61.445438 26 20 21
21.558685 8.470098 61.314068 26 20 20
21.513096 8.584080 61.184410 26 20 20
21.468437 8.697879 61.057396 26 21 20
21.425047 8.811653 60.933994 25 20 19
21.383259 8.925563 60.815147 25 20 19
21.343380 9.039770 60.701729 26 21 20
21.305691 9.154428 60.594536 27 22 20
21.270433 9.269685 60.494267 28 23 21
21.237812 9.385674 60.401485 28 24 22
21.207981 9.502513 60.316647 28 24 22
21.181053 9.620305 60.240063 27 23 22
21.157106 9.739139 60.171959 26 22 21
21.136185 9.859090 60.112450 26 21 21
21.118299 9.980220 60.061584 27 22 21
21.103451 10.102584 60.019356 28 23 22
21.091631 10.226234 59.985737 29 24 24
21.082829 10.351221 59.960705 30 25 26
21.077032 10.477595 59.944221 31 27 27
21.074247 10.605413 59.936302 31 28 28
21.074482 10.734735 59.936966 32 29 29
21.077753 10.865626 59.946274 33 30 29
21.084089 10.998155 59.964291 32 28 28
21.093506 11.132388 59.991074 30 26 26
21.106020 11.268389 60.026661 29 25 24
23.299646 -5.951093 65.861671 16 11 12
23.308653 -5.811363 65.887123 16 11 12
23.317938 -5.671591 65.913376 16 11 12
23.327581 -5.531791 65.940636 16 11 12
23.337635 -5.391968 65.969055 15 11 12
23.348122 -5.252120 65.998695 14 11 11
23.359037 -5.112238 66.029549 14 11 10
23.370352 -4.972308 66.061531 14 10 10
23.382019 -4.832312 66.094513 14 10 10
23.393974 -4.692233 66.128311 15 11 10
23.406155 -4.552051 66.162735 16 11 11
23.418488 -4.411750 66.197601 16 12 11
23.430920 -4.271317 66.232742 16 12 11
23.443407 -4.130742 66.268044 16 12 11
23.455938 -3.990022 66.303467 16 12 10
23.468534 -3.849160 66.339073 15 11 10
23.481249 -3.708163 66.375015 15 11 10
23.494173 -3.567043 66.411545 16 11 10
23.507423 -3.425813 66.448997 16 11 11
23.521147 -3.284488 66.487785 16 12 11
23.535488 -3.143078 66.528328 16 12 12
23.550610 -3.001592 66.571075 16 13 13
23.566643 -2.860033 66.616394 16 14 13
23.583687 -2.718395 66.664574 17 14 13
23.601782 -2.576665 66.715721 17 14 13
23.620905 -2.434819 66.769775 17 14 12
23.640936 -2.292829 66.826401 17 14 12
23.661673 -2.150658 66.885017 18 13 12
23.682806 -2.008269 66.944756 18 13 12
23.703939 -1.865622 67.004494 17 13 12
23.724590 -1.722682 67.062866 17 13 12
23.744211 -1.579422 67.118332 17 14 12
23.762215 -1.435826 67.169220 16 14 12
23.778000 -1.291889 67.213844 16 15 12
23.791004 -1.147626 67.250603 15 15 13
23.800716 -1.003066 67.278053 14 16 14
23.806725 -0.858254 67.295044 14 16 14
23.808750 -0.713249 67.300766 14 17 15
23.806664 -0.568121 67.294868 13 18 16
23.800508 -0.422947 67.277466 12 19 19
23.790499 -0.277802 67.249176 11 21 22
23.777020 -0.132761 67.211075 14 26 28
23.760601 0.012115 67.164665 34 47 50
23.741903 0.156776 67.111809 76 91 94
23.721672 0.301190 67.054619 137 151 156
23.700705 0.445343 66.995346 197 209 213
23.679808 0.589242 66.936279 233 240 243
23.659752 0.732913 66.879585 243 249 251
23.641241 0.876397 66.827263 248 251 253
23.624886 1.019748 66.781029 251 251 254
23.611160 1.163029 66.742233 253 250 254
23.600399 1.306307 66.711815 254 249 254
23.592775 1.449647 66.690262 254 249 253
23.588308 1.593107 66.677635 254 252 252
23.586859 1.736735 66.673538 247 233 232
23.588131 1.880562 66.677139 209 167 166
23.591696 2.024601 66.687218 161 98 96
23.597012 2.168845 66.702240 151 81 77
23.603426 2.313262 66.720375 170 98 94
23.610212 2.457794 66.739555 186 116 113
23.616590 2.602365 66.757584 193 128 126
23.621748 2.746872 66.772163 171 113 112
23.624876 2.891193 66.780998 122 74 74
23.625191 3.035191 66.781891 85 45 47
23.621956 3.178715 66.772751 72 40 42
23.614525 3.321609 66.751747 66 41 42
23.602341 3.463715 66.717300 58 39 39
23.584969 3.604880 66.668198 51 37 35
23.562117 3.744962 66.603600 45 34 33
23.533640 3.883837 66.523102 40 32 31
23.499544 4.021404 66.426720 37 31 30
23.459980 4.157586 66.314888 34 28 28
23.415245 4.292338 66.188438 30 25 26
23.365767 4.425646 66.048569 27 22 23
23.312073 4.557528 65.896790 25 20 21
23.254778 4.688029 65.734840 25 19 21
23.194553 4.817223 65.564606 25 19 21
23.132111 4.945209 65.388092 25 19 20
23.068153 5.072101 65.207306 25 19 20
23.003370 5.198027 65.024178 25 20 20
22.938406 5.323122 64.840546 25 20 21
22.873846 5.447521 64.658051 25 20 21
22.810192 5.571354 64.478119 25 19 21
22.747871 5.694746 64.301949 24 19 21
22.687201 5.817801 64.130455 24 19 20
22.628422 5.940614 63.964306 24 19 20
22.571672 6.063255 63.803890 23 19 20
22.517004 6.185776 63.649353 23 20 20
22.464376 6.308205 63.500591 22 20 20
22.413685 6.430547 63.357304 22 20 20
22.364759 6.552789 63.219006 22 19 20
22.317377 6.674896 63.085064 22 19 20
22.271271 6.796815 62.954735 23 20 21
22.226160 6.918483 62.827221 23 20 21
22.181744 7.039821 62.701668 24 21 22
22.137732 7.160748 62.577259 25 22 22
22.093845 7.281181 62.453201 25 22 21
22.049849 7.401041 62.328835 26 22 21
22.005541 7.520259 62.203587 26 22 21
21.960773 7.638778 62.077049 26 23 21
21.915464 7.756558 61.948971 26 23 21
21.869591 7.873584 61.819298 26 22 21
21.823200 7.989861 61.688164 26 22 21
21.776405 8.105422 61.555889 26 21 20
21.729380 8.220326 61.422962 26 21 20
21.682356 8.334658 61.290035 26 20 21
21.635603 8.448522 61.157879 25 20 20
21.589430 8.562045 61.027359 25 20 20
21.544159 8.675370 60.899391 24 20 20
21.500122 8.788648 60.774910 24 20 19
21.457649 8.902038 60.654850 24 20 19
21.417044 9.015696 60.540070 25 20 19
21.378586 9.129777 60.431362 26 21 20
21.342522 9.244425 60.329422 27 22 21
21.309055 9.359776 60.234821 27 23 21
21.278349 9.475946 60.148018 27 23 22
21.250523 9.593044 60.069363 27 23 22
21.225666 9.711161 59.999100 26 23 21
21.203838 9.830379 59.937397 26 21 20
21.185068 9.950768 59.884338 26 22 21
21.169374 10.072391 59.839981 27 22 21
21.156775 10.195313 59.804359 28 23 23
21.147274 10.319596 59.777508 29 25 25
21.140896 10.445304 59.759476 30 27 26
21.137659 10.572507 59.750332 31 28 27
21.137602 10.701280 59.750168 33 31 29
21.140768 10.831703 59.759117 35 33 31
21.147196 10.963856 59.777287 35 33 31
21.156923 11.097818 59.804783 33 30 29
23.441343 -5.667075 65.860886 16 11 12
23.451267 -5.527440 65.888771 16 11 12
23.461636 -5.387787 65.917900 15 11 12
23.472469 -5.248112 65.948341 14 11 11
23.483763 -5.108407 65.980064 14 11 10
23.495481 -4.968654 66.012993 14 11 10
23.507576 -4.828837 66.046974 14 10 10
23.519989 -4.688936 66.081848 15 11 10
23.532642 -4.548932 66.117401 16 11 11
23.545473 -4.408808 66.153450 16 12 11
23.558426 -4.268550 66.189842 16 12 11
23.571455 -4.128149 66.226448 16 12 11
23.584545 -3.987600 66.263229 16 12 10
23.597717 -3.846906 66.300232 16 11 10
23.611023 -3.706074 66.337616 15 11 10
23.624544 -3.565113 66.375610 16 11 10
23.638399 -3.424036 66.414536 16 11 11
23.652716 -3.282856 66.454758 16 11 11
23.667641 -3.141583 66.496689 16 11 12
23.683317 -3.000225 66.540741 16 12 13
23.699867 -2.858782 66.587234 16 14 13
23.717377 -2.717248 66.636429 17 14 13
23.735870 -2.575609 66.688393 17 14 13
23.755308 -2.433843 66.743004 17 14 12
23.775564 -2.291920 66.799911 17 14 12
23.796412 -2.149805 66.858490 17 13 12
23.817541 -2.007462 66.917854 17 13 12
23.838541 -1.864852 66.976852 17 14 12
23.858921 -1.721944 67.034119 16 13 12
23.878134 -1.578711 67.088097 16 14 12
23.895592 -1.435140 67.137146 16 14 12
23.910700 -1.291231 67.179588 16 15 12
23.922899 -1.146999 67.213867 15 15 13
23.931694 -1.002477 67.238579 14 16 14
23.936691 -0.857713 67.252617 14 16 15
23.937630 -0.712767 67.255257 14 17 15
23.934404 -0.567710 67.246193 14 18 17
23.927080 -0.422621 67.225616 14 19 19
23.915901 -0.277575 67.194206 14 21 21
23.901274 -0.132646 67.153107 25 34 33
23.883755 0.012104 67.103889 66 77 77
23.864025 0.156628 67.048454 129 142 142
23.842852 0.300895 66.988968 187 200 201
23.821043 0.444893 66.927689 220 232 233
23.799416 0.588632 66.866928 229 239 241
23.778749 0.732138 66.808861 233 242 244
23.759750 0.875456 66.755486 243 248 251
23.743021 1.018640 66.708481 248 250 254
23.729034 1.161756 66.669182 250 247 253
23.718111 1.304872 66.638496 252 244 251
23.710413 1.448052 66.616867 253 245 250
23.705940 1.591355 66.604301 254 249 250
23.704538 1.734829 66.600357 249 235 234
23.705896 1.878504 66.604179 215 177 175
23.709564 2.022393 66.614479 165 106 104
23.714979 2.166486 66.629692 149 82 80
23.721474 2.310750 66.647942 163 95 92
23.728302 2.455127 66.667122 178 111 108
23.734665 2.599536 66.685005 187 124 123
23.739740 2.743873 66.699265 173 117 117
23.742704 2.888015 66.707588 128 80 81
23.742760 3.031821 66.707748 86 47 49
23.739162 3.175139 66.697639 69 38 40
23.731256 3.317811 66.675430 64 39 40
23.718481 3.459678 66.639534 57 39 38
23.700403 3.600584 66.588745 51 36 35
23.676731 3.740387 66.522232 44 33 31
23.647327 3.878963 66.439621 38 30 28
23.612198 4.016210 66.340919 34 28 26
23.571508 4.152051 66.226601 31 26 24
23.525564 4.286442 66.097511 27 23 22
23.474804 4.419370 65.954895 24 21 20
23.419771 4.550852 65.800278 23 19 19
23.361094 4.680938 65.635414 23 19 19
23.299458 4.809703 65.462250 24 18 19
23.235582 4.937244 65.282776 24 18 19
23.170187 5.063681 65.099045 24 19 19
23.103971 5.189140 64.913002 24 19 19
23.037586 5.313759 64.726494 24 19 20
22.971628 5.437674 64.541168 24 19 20
22.906603 5.561017 64.358475 24 19 20
22.842941 5.683911 64.179611 24 18 20
22.780968 5.806465 64.005493 23 18 20
22.720926 5.928772 63.836803 23 18 20
22.662958 6.050906 63.673935 22 19 20
22.607115 6.172917 63.517036 22 19 20
22.553360 6.294835 63.366005 22 19 20
22.501589 6.416667 63.220551 22 19 20
22.451633 6.538402 63.080196 22 19 20
22.403269 6.660003 62.944309 22 19 20
22.356234 6.781423 62.812160 22 20 21
22.310244 6.902596 62.682945 23 21 22
22.264997 7.023446 62.555824 23 21 22
22.220205 7.143894 62.429970 24 22 22
22.175585 7.263856 62.304607 24 22 21
22.130899 7.383256 62.179058 25 22 21
22.085943 7.502023 62.052750 25 22 21
22.040565 7.620099 61.925255 26 23 20
21.994673 7.737445 61.796318 26 23 20
21.948244 7.854043 61.665871 25 22 20
21.901314 7.969896 61.534016 25 22 20
21.853987 8.085033 61.401047 26 21 20
21.806431 8.199512 61.267433 26 21 20
21.758867 8.313411 61.133793 25 20 20
21.711557 8.426832 61.000874 24 20 20
21.664801 8.539899 60.869503 24 20 20
21.618910 8.652746 60.740574 24 19 19
21.574217 8.765523 60.614998 23 19 19
21.531034 8.878383 60.493679 24 20 19
21.489674 8.991480 60.377464 24 20 19
21.450403 9.104965 60.267136 25 21 20
21.413473 9.218982 60.163376 26 22 20
21.379093 9.333664 60.066780 26 23 21
21.347431 9.449133 59.977825 27 23 21
21.318617 9.565495 59.896866 27 23 21
21.292753 9.682852 59.824196 27 23 21
21.269915 9.801289 59.760033 25 21 20
21.250151 9.920885 59.704506 25 21 20
21.233505 10.041716 59.657738 25 21 20
21.220018 10.163857 59.619843 26 22 21
21.209726 10.287386 59.590927 27 23 23
21.202675 10.412381 59.571117 28 25 25
21.198917 10.538928 59.560558 30 28 26
21.198515 10.667118 59.559429 33 31 29
21.201536 10.797046 59.567913 37 35 33
21.208040 10.928807 59.586193 38 35 34
23.575382 -5.523242 65.838722 15 11 12
23.585995 -5.383738 65.868362 15 11 11
23.597099 -5.244216 65.899376 14 11 11
23.608690 -5.104666 65.931747 13 11 11
23.620735 -4.965071 65.965385 13 11 11
23.633183 -4.825413 66.000145 14 10 11
23.645969 -4.685673 66.035851 15 10 11
23.659025 -4.545830 66.072311 15 11 11
23.672285 -4.405869 66.109344 16 11 11
23.685692 -4.265773 66.146782 16 11 11
23.699203 -4.125535 66.184525 16 11 11
23.712803 -3.985150 66.222504 16 11 10
23.726511 -3.844617 66.260780 16 11 10
23.740372 -3.703944 66.299492 15 11 10
23.754465 -3.563138 66.338852 16 11 10
23.768900 -3.422213 66.379158 16 11 11
23.783798 -3.281177 66.420769 16 11 12
23.799295 -3.140041 66.464043 16 11 12
23.815519 -2.998810 66.509354 16 12 13
23.832579 -2.857483 66.556999 16 13 13
23.850542 -2.716054 66.607162 17 14 13
23.869421 -2.574508 66.659882 17 14 13
23.889158 -2.432822 66.715004 17 14 12
23.909611 -2.290967 66.772125 17 14 12
23.930544 -2.148908 66.830582 17 13 12
23.951628 -2.006610 66.889465 17 13 12
23.972448 -1.864038 66.947609 16 13 11
23.992508 -1.721161 67.003632 16 13 12
24.011261 -1.577956 67.056000 16 14 12
24.028114 -1.434412 67.103065 16 14 12
24.042486 -1.290532 67.143204 15 15 12
24.053829 -1.146334 67.174881 15 15 13
24.061659 -1.001854 67.196747 14 16 14
24.065605 -0.857141 67.207764 14 17 15
24.065428 -0.712258 67.207268 14 18 16
24.061041 -0.567278 67.195023 15 19 18
24.052542 -0.422279 67.171288 16 20 21
24.040195 -0.277338 67.136803 18 24 24
24.024435 -0.132527 67.092789 39 46 47
24.005840 0.012093 67.040863 100 108 109
23.985109 0.156475 66.982971 169 180 180
23.963026 0.300591 66.921295 211 222 223
23.940413 0.444431 66.858139 222 233 235
23.918089 0.588006 66.795799 217 228 232
23.896843 0.731345 66.736465 220 230 235
23.877375 0.874493 66.682098 235 242 246
23.860283 1.017508 66.634369 243 246 251
23.846029 1.160456 66.594559 244 242 250
23.834927 1.303404 66.563553 247 239 246
23.827118 1.446419 66.541748 251 241 246
23.822592 1.589558 66.529106 254 246 249
23.821173 1.732870 66.525139 252 239 238
23.822531 1.876382 66.528938 225 192 189
23.826202 2.020108 66.539185 178 127 124
23.831606 2.164034 66.554276 159 99 95
23.838057 2.308127 66.572296 166 103 98
23.844797 2.452328 66.591118 172 109 105
23.851013 2.596553 66.608475 177 117 114
23.855867 2.740696 66.622040 166 113 110
23.858534 2.884633 66.629478 128 82 81
23.858202 3.028222 66.628555 87 49 49
23.854126 3.171308 66.617172 68 37 38
23.845646 3.313734 66.593491 61 37 38
23.832201 3.455338 66.555939 56 37 37
23.813358 3.595965 66.503319 50 36 34
23.788834 3.735472 66.434830 44 33 31
23.758486 3.873735 66.350075 37 29 27
23.722340 4.010653 66.249130 32 26 24
23.680561 4.146149 66.132462 28 24 21
23.633469 4.280180 66.000946 24 22 20
23.581511 4.412733 65.855843 22 20 18
23.525240 4.543827 65.698692 21 19 17
23.465296 4.673512 65.531288 21 18 17
23.402372 4.801864 65.355560 23 19 18
23.337196 4.928983 65.173546 23 18 18
23.270498 5.054987 64.987282 23 18 18
23.202982 5.180005 64.798729 23 18 18
23.135307 5.304173 64.609734 23 19 19
23.068073 5.427631 64.421967 23 19 19
23.001789 5.550508 64.236862 23 19 19
22.936890 5.672930 64.055618 23 18 18
22.873705 5.795004 63.879158 23 18 19
22.812477 5.916826 63.708172 22 18 19
22.753351 6.038467 63.543049 22 18 19
22.696383 6.159983 63.383953 22 19 19
22.641535 6.281402 63.230782 22 19 20
22.588709 6.402732 63.083256 22 19 20
22.537737 6.523963 62.940903 22 19 20
22.488394 6.645063 62.803104 22 19 20
22.440426 6.765983 62.669147 22 20 21
22.393547 6.886660 62.538231 23 21 22
22.347458 7.007020 62.409515 23 21 22
22.301868 7.126985 62.282200 23 21 22
22.256500 7.246472 62.155499 23 22 21
22.211107 7.365407 62.028732 24 22 21
22.165487 7.483716 61.901329 25 22 21
22.119486 7.601346 61.772861 25 22 20
22.073004 7.718255 61.643051 25 23 20
22.026011 7.834421 61.511810 25 22 20
21.978535 7.949847 61.379223 25 22 20
21.930676 8.064561 61.245571 25 22 19
21.882587 8.178614 61.111279 25 21 19
21.834484 8.292080 60.976936 24 21 18
21.786615 8.405059 60.843258 23 20 18
21.739271 8.517667 60.711040 23 20 18
21.692755 8.630033 60.581135 23 19 18
21.647385 8.742303 60.454430 23 20 19
21.603476 8.854626 60.331802 24 20 19
21.561323 8.967150 60.214088 24 21 20
21.521204 9.080024 60.102043 25 21 20
21.483358 9.193389 59.996353 26 22 21
21.448006 9.307379 59.897625 26 23 21
21.415318 9.422116 59.806335 27 23 22
21.385435 9.537712 59.722885 28 24 22
21.358480 9.654270 59.647610 27 23 21
21.334541 9.771886 59.580753 25 21 19
21.313694 9.890647 59.522533 23 19 17
21.296005 10.010643 59.473137 23 19 18
21.281546 10.131962 59.432751 24 20 19
21.270380 10.254697 59.401573 25 22 20
21.262587 10.378942 59.379807 28 24 22
21.258247 10.504801 59.367691 30 27 25
21.257458 10.632382 59.365482 34 31 29
23.710625 -5.379799 65.820175 14 11 12
23.721920 -5.240408 65.851524 14 11 11
23.733725 -5.100992 65.884300 14 11 11
23.746008 -4.961534 65.918396 13 10 12
23.758715 -4.822015 65.953674 14 10 12
23.771790 -4.682417 65.989967 15 10 12
23.785164 -4.542719 66.027092 15 11 11
23.798771 -4.402904 66.064865 16 11 11
23.812557 -4.262959 66.103134 16 12 11
23.826481 -4.122872 66.141792 17 12 11
23.840527 -3.982639 66.180779 17 12 12
23.854710 -3.842260 66.220146 17 12 12
23.869076 -3.701739 66.260025 16 12 11
23.883696 -3.561085 66.300613 16 11 12
23.898674 -3.420307 66.342194 16 11 12
23.914120 -3.279413 66.385071 16 11 13
23.930157 -3.138413 66.429588 16 11 13
23.946901 -2.997309 66.476074 16 12 13
23.964439 -2.856099 66.524757 16 13 13
23.982830 -2.714776 66.575813 17 14 13
24.002064 -2.573323 66.629204 17 14 13
24.022066 -2.431718 66.684731 17 14 12
24.042677 -2.289931 66.741943 17 14 12
24.063646 -2.147930 66.800156 17 13 12
24.084641 -2.005679 66.858429 17 13 12
24.105230 -1.863146 66.915588 16 13 11
24.124920 -1.720303 66.970245 16 13 12
24.143154 -1.577129 67.020866 16 14 12
24.159355 -1.433616 67.065842 16 14 11
24.172947 -1.289770 67.103569 15 15 11
24.183393 -1.145612 67.132568 15 15 12
24.190231 -1.001180 67.151550 14 16 13
24.193110 -0.856525 67.159538 14 17 14
24.191809 -0.711714 67.155930 14 18 16
24.186275 -0.566819 67.140564 15 19 18
24.176626 -0.421918 67.113785 16 20 21
24.163153 -0.277089 67.076378 23 28 29
24.146309 -0.132402 67.029625 57 63 65
24.126696 0.012081 66.975174 128 135 136
24.105028 0.156317 66.915031 187 196 197
24.082102 0.300277 66.851387 206 216 217
24.058748 0.443955 66.786560 205 217 218
24.035793 0.587364 66.722832 200 212 215
24.014017 0.730533 66.662384 204 215 220
23.994120 0.873510 66.607147 219 228 233
23.976692 1.016354 66.558769 230 236 242
23.962183 1.159130 66.518494 233 235 242
23.950890 1.301908 66.487144 238 234 241
23.942942 1.444752 66.465080 246 239 242
23.938313 1.587722 66.452225 252 244 246
23.936804 1.730861 66.448044 252 240 239
23.938076 1.874200 66.451576 236 207 205
23.941647 2.017748 66.461487 204 160 156
23.946917 2.161493 66.476112 186 134 129
23.953192 2.305397 66.493530 180 123 118
23.959700 2.449400 66.511604 171 113 107
23.965622 2.593417 66.528038 164 108 102
23.970112 2.737342 66.540504 151 101 96
23.972336 2.881048 66.546677 122 78 76
23.971483 3.024393 66.544312 88 52 50
23.966805 3.167222 66.531326 67 38 37
23.957647 3.309376 66.505898 59 36 35
23.943449 3.450694 66.466484 54 37 36
23.923784 3.591022 66.411896 49 36 34
23.898369 3.730216 66.341347 44 33 31
23.867075 3.868154 66.254478 37 30 27
23.829931 4.004734 66.151367 31 26 24
23.787113 4.139882 66.032501 27 24 21
23.738945 4.273554 65.898788 23 22 18
23.685883 4.405740 65.751488 21 20 16
23.628489 4.536459 65.592163 21 19 15
23.567404 4.665761 65.422592 21 19 16
23.503332 4.793721 65.244736 23 19 17
23.437004 4.920442 65.060608 23 18 17
23.369152 5.046040 64.872253 23 18 17
23.300484 5.170644 64.681633 23 19 18
23.231663 5.294392 64.490585 23 19 18
23.163284 5.417419 64.300774 23 19 18
23.095867 5.539859 64.113625 23 19 18
23.029842 5.661835 63.930336 22 19 18
22.965544 5.783454 63.751842 22 18 18
22.903214 5.904812 63.578815 21 18 18
22.842999 6.025982 63.411663 21 18 18
22.784958 6.147017 63.250542 21 19 19
22.729059 6.267950 63.095367 22 19 19
22.675203 6.388788 62.945869 22 19 19
22.623228 6.509523 62.801586 21 19 19
22.572916 6.630124 62.661919 21 19 19
22.524008 6.750544 62.526154 21 19 20
22.476229 6.870724 62.393520 21 20 20
22.429281 6.990591 62.263191 22 20 21
22.382874 7.110068 62.134365 22 20 21
22.336731 7.229075 62.006275 22 21 21
22.290611 7.347537 61.878246 23 22 21
22.244307 7.465385 61.749706 24 22 21
22.197660 7.582563 61.620216 24 22 20
22.150568 7.699028 61.489491 25 22 20
22.102995 7.814758 61.357430 24 22 19
22.054964 7.929755 61.224094 24 22 19
22.006561 8.044041 61.089733 24 22 18
21.957935 8.157664 60.954746 24 21 17
21.909286 8.270698 60.819698 23 20 17
21.860853 8.383231 60.685246 23 20 17
21.812912 8.495377 60.552162 22 20 17
21.765759 8.607260 60.421268 22 20 18
21.719700 8.719018 60.293411 23 20 19
21.675041 8.830795 60.169437 24 21 20
21.632072 8.942738 60.050159 25 21 20
21.591066 9.054988 59.936325 25 22 21
21.552269 9.167686 59.828625 26 22 22
21.515892 9.280966 59.727642 26 22 21
21.482122 9.394950 59.633896 27 23 22
21.451111 9.509752 59.547813 28 24 22
21.422995 9.625484 59.469761 28 24 21
21.397886 9.742249 59.400059 25 22 19
21.375883 9.860147 59.338982 23 19 17
21.357080 9.979276 59.286785 23 19 17
21.341579 10.099742 59.243755 23 19 18
21.329479 10.221654 59.210167 25 21 19
21.320892 10.345124 59.186329 27 23 21
21.315935 10.470275 59.172565 30 26 24
23.858774 -5.097365 65.837456 14 11 12
23.871199 -4.958023 65.871742 14 10 13
23.884073 -4.818623 65.907272 14 11 13
23.897345 -4.679147 65.943893 15 11 13
23.910940 -4.539576 65.981407 16 11 13
23.924803 -4.399891 66.019661 16 12 12
23.938881 -4.260081 66.058510 16 12 12
23.953135 -4.120132 66.097839 17 12 12
23.967546 -3.980041 66.137604 17 12 13
23.982130 -3.839806 66.177856 17 12 13
23.996931 -3.699430 66.218697 17 12 12
24.012018 -3.558921 66.260330 16 11 12
24.027481 -3.418286 66.302994 16 11 12
24.043419 -3.277532 66.346977 16 11 13
24.059944 -3.136664 66.392578 16 11 13
24.077156 -2.995686 66.440071 16 12 13
24.095125 -2.854592 66.489662 16 13 13
24.113892 -2.713375 66.541443 16 13 13
24.133427 -2.572016 66.595352 17 13 12
24.153639 -2.430492 66.651123 17 14 12
24.174351 -2.288776 66.708282 17 13 12
24.195305 -2.146835 66.766106 16 13 12
24.216148 -2.004635 66.823616 16 12 12
24.236448 -1.862145 66.879639 16 12 11
24.255711 -1.719341 66.932785 16 13 11
24.273378 -1.576204 66.981544 16 14 11
24.288883 -1.432728 67.024323 16 14 11
24.301657 -1.288924 67.059578 15 15 11
24.311184 -1.144815 67.085869 15 15 12
24.317022 -1.000441 67.101974 14 16 13
24.318840 -0.855855 67.106987 14 17 15
24.316442 -0.711125 67.100380 14 17 17
24.309801 -0.566325 67.082047 14 17 19
24.299057 -0.421532 67.052406 15 18 21
24.284527 -0.276824 67.012306 27 31 35
24.266682 -0.132271 66.963066 72 77 80
24.246143 0.012069 66.906387 140 147 150
24.223637 0.156151 66.844284 182 191 193
24.199965 0.299952 66.778961 189 199 201
24.175964 0.443464 66.712730 187 198 200
24.152460 0.586704 66.647873 185 197 200
24.130230 0.729702 66.586533 188 200 204
24.109964 0.872506 66.530609 198 209 214
24.092241 1.015177 66.481697 208 217 222
24.077496 1.157780 66.441010 216 221 227
24.066013 1.300384 66.409325 225 227 232
24.057903 1.443054 66.386948 236 232 236
24.053120 1.585847 66.373749 243 236 238
24.051456 1.728806 66.369156 247 235 235
24.052551 1.871961 66.372177 243 220 218
24.055908 2.015318 66.381439 231 195 191
24.060919 2.158864 66.395271 218 172 167
24.066879 2.302560 66.411713 200 148 143
24.073008 2.446344 66.428627 177 123 116
24.078482 2.590131 66.443733 159 106 99
24.082453 2.733812 66.454689 143 95 89
24.084082 2.877260 66.459190 119 77 72
24.082569 3.020334 66.455009 88 54 50
24.077168 3.162879 66.440109 66 39 37
24.067225 3.304736 66.412666 56 35 33
24.052191 3.445746 66.371178 52 36 34
24.031643 3.585754 66.314484 48 35 33
24.005308 3.724620 66.241814 43 34 31
23.973068 3.862221 66.152847 37 31 27
23.934956 3.998457 66.047676 31 27 24
23.891155 4.133255 65.926811 26 25 20
23.841993 4.266574 65.791153 22 22 16
23.787935 4.398402 65.641975 20 19 14
23.729540 4.528759 65.480843 20 20 14
23.667459 4.657697 65.309532 22 20 16
23.602390 4.785290 65.129974 23 20 17
23.535067 4.911638 64.944199 23 19 17
23.466225 5.036859 64.754227 23 19 17
23.396563 5.161081 64.562004 23 19 17
23.326748 5.284439 64.369347 23 20 18
23.257376 5.407069 64.177917 23 20 18
23.188957 5.529102 63.989124 22 20 18
23.121929 5.650660 63.804157 22 19 18
23.056622 5.771852 63.623947 21 18 17
22.993279 5.892770 63.449150 21 18 17
22.932051 6.013489 63.280197 20 18 17
22.872995 6.134062 63.117237 20 18 18
22.816090 6.254522 62.960201 21 19 18
22.761234 6.374879 62.808834 21 19 18
22.708275 6.495126 62.662693 21 19 19
22.656994 6.615233 62.521187 20 18 19
22.607145 6.735157 62.383629 21 18 18
22.558451 6.854838 62.249260 21 18 19
22.510624 6.974209 62.117283 22 19 20
22.463377 7.093194 61.986904 22 20 21
22.416435 7.211715 61.857368 22 21 21
22.369558 7.329699 61.728020 22 21 20
22.322540 7.447078 61.598274 23 22 20
22.275223 7.563796 61.467701 24 22 20
22.227497 7.679810 61.336002 24 22 19
22.179323 7.795098 61.203072 24 22 19
22.130716 7.909659 61.068939 23 22 17
22.081755 8.023513 60.933834 23 21 16
22.032576 8.136703 60.798126 23 21 16
21.983368 8.249299 60.662338 23 20 16
21.934359 8.361383 60.527100 22 20 16
