ply
format ascii 1.0
element vertex 1238
property float x
property float y
property float z
property uchar red
property uchar green
property uchar blue
end_header
11.668338 -8.352942 69.297897 26 23 21
11.665674 -8.201687 69.282082 25 22 21
11.663154 -8.050598 69.267105 24 22 21
11.660954 -7.899792 69.254044 24 21 21
11.659222 -7.749352 69.243752 23 22 21
11.658067 -7.599333 69.236893 24 22 20
11.657565 -7.449761 69.233917 24 23 20
11.657762 -7.300639 69.235085 24 23 21
11.658669 -7.151948 69.240479 24 23 21
11.660276 -7.003654 69.250015 25 23 23
11.662545 -6.855708 69.263496 26 24 24
11.665428 -6.708057 69.280617 27 24 24
11.668860 -6.560642 69.301003 27 24 24
11.672776 -6.413404 69.324257 27 23 24
11.677104 -6.266286 69.349960 28 24 24
11.681775 -6.119237 69.377701 29 24 25
11.686726 -5.972212 69.407097 29 25 26
11.691899 -5.825172 69.437828 29 26 26
11.697251 -5.678085 69.469612 29 26 25
11.702742 -5.530927 69.502220 29 26 25
11.708341 -5.383678 69.535469 28 26 25
11.714023 -5.236323 69.569214 28 26 25
11.719768 -5.088850 69.603333 27 26 25
11.725559 -4.941249 69.637733 28 27 26
11.731378 -4.793511 69.672287 29 28 27
11.737204 -4.645627 69.706886 29 28 27
11.743014 -4.497588 69.741402 29 27 27
11.748780 -4.349384 69.775642 28 27 27
11.754469 -4.201004 69.809425 27 26 26
11.760040 -4.052438 69.842514 28 26 26
11.765450 -3.903677 69.874649 28 27 26
11.770656 -3.754711 69.905563 29 27 26
11.775611 -3.605535 69.934990 29 27 26
11.780272 -3.456146 69.962662 29 27 26
11.784596 -3.306544 69.988358 28 27 26
11.788555 -3.156733 70.011864 27 26 26
11.792122 -3.006720 70.033051 27 26 25
11.795282 -2.856518 70.051819 27 26 25
11.798034 -2.706141 70.068153 26 25 24
11.800381 -2.555606 70.082092 26 25 24
11.802341 -2.404932 70.093742 26 25 24
11.803939 -2.254138 70.103226 26 25 24
11.805202 -2.103245 70.110733 26 25 24
11.806165 -1.952269 70.116447 27 25 24
11.806859 -1.801227 70.120567 27 25 24
11.807314 -1.650134 70.123268 28 25 24
11.807553 -1.499003 70.124687 27 24 24
11.807593 -1.347842 70.124931 27 24 24
11.807435 -1.196660 70.123985 27 24 24
11.807072 -1.045464 70.121834 27 24 24
11.806479 -0.894261 70.118317 27 24 23
11.805621 -0.743055 70.113220 27 25 23
11.804445 -0.591856 70.106239 27 25 23
11.802888 -0.440672 70.096985 27 25 23
11.800875 -0.289517 70.085030 26 25 23
11.798324 -0.138408 70.069878 26 25 22
11.795147 0.012636 70.051010 26 24 22
11.791256 0.163588 70.027901 26 24 22
11.786566 0.314420 70.000046 26 24 21
11.781002 0.465097 69.967010 26 23 21
11.774501 0.615582 69.928391 26 22 20
11.767015 0.765837 69.883934 26 22 21
11.758519 0.915822 69.833481 25 21 20
11.749017 1.065497 69.777046 25 22 20
11.738532 1.214828 69.714775 25 22 20
11.727121 1.363783 69.647011 25 23 21
11.714870 1.512336 69.574249 25 24 22
11.701891 1.660473 69.497169 26 24 23
11.688325 1.808187 69.416595 26 24 23
11.674335 1.955482 69.333511 26 24 23
11.660101 2.102376 69.248978 26 23 22
11.645820 2.248895 69.164162 25 22 21
11.631689 2.395080 69.080238 24 21 19
11.617906 2.540980 68.998383 23 22 19
11.604658 2.686650 68.919701 24 22 19
11.592116 2.832153 68.845222 25 23 21
11.580429 2.977556 68.775810 25 23 22
11.569714 3.122921 68.712173 26 23 23
11.560051 3.268309 68.654785 26 24 23
11.551483 3.413774 68.603897 26 23 23
11.544008 3.559356 68.559509 25 23 23
11.537580 3.705082 68.521324 25 23 22
11.532105 3.850963 68.488815 25 22 22
11.527455 3.996990 68.461205 25 22 21
11.523460 4.143133 68.437469 24 21 20
11.519916 4.289341 68.416420 23 21 20
11.516591 4.435543 68.396675 23 21 20
11.513241 4.581650 68.376778 22 21 20
11.509603 4.727553 68.355171 22 22 20
11.505410 4.873128 68.330269 22 22 20
11.500400 5.018239 68.300514 21 22 19
11.494317 5.162740 68.264389 21 21 19
11.486925 5.306480 68.220490 20 20 18
11.478004 5.449305 68.167511 21 20 19
11.467362 5.591063 68.104309 22 21 20
11.454833 5.731604 68.029900 23 22 21
11.440276 5.870783 67.943451 24 22 20
11.423582 6.008465 67.844299 24 22 20
11.404671 6.144526 67.731979 24 21 19
11.383484 6.278847 67.606155 23 20 19
11.359999 6.411328 67.466675 23 19 19
11.334211 6.541880 67.313530 22 19 19
11.306147 6.670428 67.146858 22 19 19
11.275852 6.796913 66.966934 22 19 20
11.243397 6.921292 66.774185 22 19 20
11.208876 7.043541 66.569168 21 19 19
11.172404 7.163657 66.352562 21 19 19
11.134124 7.281655 66.125214 20 19 19
11.094195 7.397575 65.888084 20 20 19
11.052802 7.511477 65.642250 20 20 19
11.010148 7.623446 65.388931 21 20 19
10.966459 7.733592 65.129456 21 20 19
10.921972 7.842047 64.865250 22 20 20
10.876940 7.948966 64.597809 23 21 20
10.831626 8.054521 64.328690 23 21 20
10.786300 8.158906 64.059502 23 21 19
10.741229 8.262327 63.791824 22 21 19
10.696674 8.364999 63.527218 21 21 19
10.652888 8.467140 63.267174 20 20 18
10.610106 8.568972 63.013096 19 19 18
10.568542 8.670706 62.766247 18 20 18
10.528382 8.772546 62.527737 18 21 18
10.489779 8.874676 62.298473 19 21 18
10.452857 8.977260 62.079193 19 22 19
10.417701 9.080438 61.870399 20 22 20
10.384357 9.184320 61.672379 21 22 20
10.352839 9.288985 61.485188 21 21 20
10.323123 9.394485 61.308708 20 20 19
10.295155 9.500834 61.142605 20 20 18
10.268851 9.608026 60.986385 19 19 18
10.244104 9.716022 60.839417 19 19 17
10.220792 9.824761 60.700966 19 19 17
10.198776 9.934167 60.570213 20 19 17
10.177912 10.044147 60.446304 20 20 17
10.158053 10.154596 60.328362 20 20 17
10.139056 10.265410 60.215542 20 20 17
10.120783 10.376480 60.107018 21 19 17
10.103106 10.487701 60.002037 21 19 17
10.085912 10.598976 59.899918 22 19 17
10.069097 10.710214 59.800053 22 19 17
10.052573 10.821335 59.701920 21 19 16
10.036264 10.932268 59.605064 21 18 15
10.020105 11.042948 59.509094 20 18 13
10.004043 11.153321 59.413696 19 17 12
9.988029 11.263339 59.318592 18 16 12
9.972023 11.372955 59.223537 17 16 11
9.955986 11.482126 59.128292 17 17 12
11.366787 -11.482604 66.653664 17 19 14
11.409855 -11.381884 66.906212 19 19 16
11.451599 -11.278771 67.151001 20 20 17
11.491804 -11.173106 67.386757 20 21 19
11.530248 -11.064734 67.612183 21 21 20
11.566709 -10.953513 67.825989 22 21 21
11.600984 -10.839327 68.026970 22 21 21
11.632880 -10.722083 68.214012 22 20 21
11.662236 -10.601724 68.386154 22 20 21
11.688922 -10.478229 68.542633 22 20 20
11.712844 -10.351615 68.682907 23 20 19
11.733952 -10.221946 68.806686 23 21 19
11.752237 -10.089320 68.913910 23 21 20
11.767741 -9.953878 69.004822 23 22 21
11.780548 -9.815799 69.079918 23 23 21
11.790789 -9.675289 69.139969 23 23 20
11.798631 -9.532582 69.185951 22 23 20
11.804279 -9.387933 69.219078 22 22 20
11.807971 -9.241610 69.240723 21 21 19
11.809965 -9.093885 69.252419 22 21 18
11.810537 -8.945033 69.255775 22 21 18
11.809971 -8.795320 69.252449 24 22 19
11.808546 -8.644992 69.244102 25 23 19
11.806542 -8.494283 69.232346 25 23 19
11.804216 -8.343397 69.218704 25 23 20
11.801808 -8.192514 69.204590 25 22 20
11.799532 -8.041780 69.191238 24 22 21
11.797565 -7.891312 69.179710 24 21 21
11.796056 -7.741193 69.170853 23 22 20
11.795115 -7.591479 69.165337 23 22 20
11.794818 -7.442194 69.163597 23 23 20
11.795211 -7.293344 69.165901 24 23 21
11.796304 -7.144907 69.172310 24 23 21
11.798085 -6.996851 69.182755 25 24 23
11.800518 -6.849129 69.197021 26 24 23
11.803548 -6.701684 69.214790 26 24 23
11.807112 -6.554459 69.235687 27 24 24
11.811138 -6.407394 69.259300 27 24 24
11.815555 -6.260434 69.285194 28 24 24
11.820289 -6.113527 69.312958 29 24 25
11.825274 -5.966627 69.342186 29 25 25
11.830452 -5.819696 69.372551 29 26 25
11.835774 -5.672703 69.403763 29 26 25
11.841200 -5.525624 69.435570 29 26 25
11.846696 -5.378439 69.467804 29 26 24
11.852238 -5.231136 69.500305 28 26 24
11.857801 -5.083702 69.532928 28 26 25
11.863371 -4.936130 69.565582 28 26 26
11.868925 -4.788411 69.598152 29 27 27
11.874444 -4.640537 69.630516 29 28 27
11.879903 -4.492502 69.662529 29 27 27
11.885273 -4.344296 69.694016 28 27 27
11.890518 -4.195910 69.724777 28 26 26
11.895601 -4.047336 69.754578 28 27 26
11.900477 -3.898566 69.783173 29 27 27
11.905103 -3.749594 69.810295 29 28 27
11.909432 -3.600415 69.835686 29 28 27
11.913424 -3.451029 69.859085 29 28 27
11.917040 -3.301439 69.880295 28 28 27
11.920254 -3.151650 69.899139 27 28 26
11.923044 -3.001673 69.915504 26 27 26
11.925406 -2.851524 69.929352 26 27 25
11.927343 -2.701219 69.940712 27 26 25
11.928871 -2.550777 69.949669 27 26 25
11.930019 -2.400220 69.956406 27 25 24
11.930823 -2.249569 69.961121 27 26 25
11.931326 -2.098845 69.964066 27 25 24
11.931571 -1.948066 69.965500 27 25 24
11.931605 -1.797249 69.965706 27 25 23
11.931471 -1.646408 69.964912 27 24 24
11.931201 -1.495553 69.963333 27 24 24
11.930822 -1.344693 69.961113 27 24 24
11.930343 -1.193833 69.958298 27 24 24
11.929757 -1.042975 69.954865 27 24 24
11.929047 -0.892123 69.950699 27 24 24
11.928172 -0.741278 69.945572 27 25 24
11.927076 -0.590445 69.939148 27 25 23
11.925690 -0.439629 69.931015 27 26 24
11.923928 -0.288838 69.920685 27 25 23
11.921699 -0.138087 69.907608 26 25 22
11.918900 0.012607 69.891197 26 24 22
11.915429 0.163222 69.870850 26 24 22
11.911188 0.313728 69.845978 26 24 21
11.906085 0.464093 69.816055 26 23 21
11.900043 0.614281 69.780624 26 23 20
11.893004 0.764253 69.739357 26 22 20
11.884932 0.913966 69.692017 26 22 21
11.875816 1.063383 69.638565 25 22 21
11.865679 1.212464 69.579117 25 22 21
11.854568 1.361177 69.513969 25 23 21
11.842569 1.509497 69.443604 25 24 22
11.829793 1.657404 69.368690 26 24 23
11.816382 1.804891 69.290047 26 24 24
11.802504 1.951961 69.208664 26 24 24
11.788342 2.098631 69.125626 26 24 23
11.774098 2.244926 69.042099 25 23 22
11.759978 2.390887 68.959305 24 22 21
11.746185 2.536562 68.878418 23 22 20
11.732911 2.682006 68.800583 24 22 20
11.720337 2.827284 68.726845 25 23 21
11.708611 2.972459 68.658089 25 23 22
11.697860 3.117597 68.595039 26 24 22
11.688162 3.262758 68.538177 26 23 23
11.679563 3.407994 68.487755 25 23 23
11.672060 3.553346 68.443756 25 23 22
11.665604 3.698841 68.405899 25 23 22
11.660099 3.844486 68.373619 25 22 21
11.655409 3.990271 68.346115 24 22 20
11.651358 4.136164 68.322365 24 21 20
11.647736 4.282112 68.301125 23 21 20
11.644302 4.428041 68.280991 23 21 20
11.640802 4.573856 68.260468 22 21 20
11.636965 4.719447 68.237961 22 21 20
11.632515 4.864684 68.211868 21 21 20
11.627181 5.009427 68.180588 20 21 19
11.620702 5.153529 68.142601 20 20 18
11.612836 5.296833 68.096474 19 19 17
11.603358 5.439183 68.040894 20 19 18
11.592075 5.580425 67.974731 22 20 20
11.578820 5.720407 67.897003 24 22 21
11.563454 5.858984 67.806900 24 22 21
11.545873 5.996023 67.703812 24 22 20
11.525999 6.131397 67.587265 24 21 20
11.503786 6.264996 67.457016 23 20 20
11.479215 6.396718 67.312927 23 19 19
11.452294 6.526481 67.155075 23 19 19
11.423058 6.654213 66.983635 23 19 20
11.391563 6.779863 66.798950 23 19 20
11.357891 6.903393 66.601501 22 19 20
11.322145 7.024785 66.391891 21 19 19
11.284450 7.144038 66.170845 20 19 19
11.244954 7.261177 65.939247 20 19 19
11.203828 7.376244 65.698090 20 20 19
11.161261 7.489304 65.448479 20 20 19
11.117459 7.600444 65.191635 21 20 19
11.072652 7.709776 64.928886 21 20 19
11.027081 7.817435 64.661674 22 20 20
10.981003 7.923574 64.391472 23 21 20
10.934680 8.028370 64.119835 23 21 20
10.888385 8.132015 63.848366 23 21 19
10.842385 8.234715 63.578629 22 21 19
10.796946 8.336683 63.312176 21 21 18
10.752319 8.438141 63.050491 20 20 18
10.708745 8.539310 62.794979 19 19 18
10.666437 8.640404 62.546890 18 20 18
10.625587 8.741626 62.307343 18 20 17
10.586348 8.843162 62.077255 18 21 18
10.548847 8.945180 61.857353 19 21 19
10.513172 9.047820 61.648155 20 21 19
10.479369 9.151195 61.449940 20 21 19
10.447452 9.255384 61.262779 20 21 19
10.417395 9.360438 61.086529 20 20 18
10.389142 9.466377 60.920856 19 19 17
10.362606 9.573188 60.765251 18 18 17
10.337675 9.680830 60.619061 18 19 17
10.314219 9.789243 60.481518 19 19 17
10.292095 9.898343 60.351788 20 19 17
10.271151 10.008033 60.228970 20 19 17
10.251230 10.118204 60.112160 20 19 17
10.232183 10.228745 60.000469 20 19 17
10.213865 10.339542 59.893051 20 19 17
10.196141 10.450485 59.789120 20 19 17
10.178890 10.561472 59.687962 21 19 16
10.162008 10.672409 59.588970 21 19 16
10.145404 10.783214 59.491600 21 19 16
10.128997 10.893813 59.395397 21 18 14
10.112726 11.004144 59.299984 20 18 13
10.096538 11.114155 59.205059 19 18 13
10.080387 11.223799 59.110352 18 17 12
10.064237 11.333034 59.015648 18 16 11
10.048051 11.441820 58.920734 17 17 11
11.545238 -11.373171 66.854996 18 19 15
11.586159 -11.268854 67.091957 19 19 17
11.625626 -11.162120 67.320503 20 20 18
11.663426 -11.052822 67.539391 21 20 19
11.699350 -10.940825 67.747414 22 20 20
11.733193 -10.826010 67.943390 22 20 21
11.764767 -10.708285 68.126228 22 20 21
11.793903 -10.587584 68.294945 22 20 21
11.820468 -10.463880 68.448776 22 20 20
11.844359 -10.337178 68.587120 22 20 19
11.865517 -10.207529 68.709641 22 20 19
11.883924 -10.075019 68.816231 22 20 19
11.899609 -9.939776 68.907051 22 21 20
11.912645 -9.801962 68.982544 22 22 20
11.923154 -9.661775 69.043396 21 22 19
11.931292 -9.519433 69.090515 21 22 19
11.937255 -9.375181 69.125053 21 21 19
11.941273 -9.229276 69.148315 21 21 19
11.943597 -9.081983 69.161774 21 20 18
11.944499 -8.933568 69.167000 22 21 18
11.944256 -8.784288 69.165596 23 22 18
11.943148 -8.634389 69.159172 24 22 18
11.941447 -8.484097 69.149323 24 22 18
11.939414 -8.333615 69.137558 24 22 19
11.937286 -8.183120 69.125237 24 22 20
11.935277 -8.032757 69.113594 23 22 20
11.933565 -7.882640 69.103683 23 22 20
11.932298 -7.732855 69.096344 23 21 20
11.931588 -7.583455 69.092232 23 22 20
11.931511 -7.434467 69.091789 23 23 20
11.932110 -7.285895 69.095261 24 23 21
11.933397 -7.137719 69.102715 25 24 22
11.935358 -6.989905 69.114067 25 24 23
11.937955 -6.842407 69.129105 26 25 24
11.941133 -6.695169 69.147507 27 25 24
11.944825 -6.548135 69.168884 27 25 24
11.948957 -6.401244 69.192818 28 24 24
11.953455 -6.254440 69.218857 29 24 24
11.958243 -6.107674 69.246590 29 25 25
11.963253 -5.960897 69.275597 29 26 25
11.968424 -5.814075 69.305542 29 26 24
11.973703 -5.667174 69.336113 29 26 24
11.979051 -5.520173 69.367073 29 26 24
11.984429 -5.373052 69.398224 29 26 24
11.989814 -5.225800 69.429405 28 26 25
11.995178 -5.078405 69.460472 28 26 25
12.000507 -4.930861 69.491325 29 26 26
12.005776 -4.783160 69.521835 29 27 27
12.010964 -4.635297 69.551880 29 27 27
12.016047 -4.487265 69.581314 29 27 27
12.020995 -4.339056 69.609962 28 26 26
12.025770 -4.190665 69.637619 28 26 26
12.030335 -4.042084 69.664055 28 27 26
12.034645 -3.893306 69.689011 29 28 27
12.038655 -3.744327 69.712227 29 29 27
12.042323 -3.595146 69.733467 29 29 27
12.045608 -3.445764 69.752487 29 29 27
12.048476 -3.296185 69.769104 28 28 27
12.050904 -3.146421 69.783157 27 28 26
12.052878 -2.996482 69.794586 26 27 26
12.054398 -2.846388 69.803391 26 27 25
12.055478 -2.696157 69.809647 27 27 25
12.056145 -2.545811 69.813507 28 26 25
12.056438 -2.395375 69.815208 28 26 25
12.056407 -2.244871 69.815025 28 25 25
12.056106 -2.094321 69.813278 28 25 24
12.055595 -1.943745 69.810326 27 25 23
12.054933 -1.793159 69.806488 26 24 23
12.054173 -1.642576 69.802094 26 24 23
12.053363 -1.492006 69.797401 27 25 24
12.052536 -1.341455 69.792610 27 25 25
12.051707 -1.190923 69.787811 27 25 25
12.050879 -1.040413 69.783012 27 25 24
12.050033 -0.889922 69.778114 27 24 24
12.049129 -0.739448 69.772873 27 25 24
12.048105 -0.588991 69.766953 27 25 23
12.046887 -0.438553 69.759903 27 25 23
12.045383 -0.288138 69.751190 27 25 23
12.043487 -0.137756 69.740211 26 25 22
12.041085 0.012578 69.726295 26 24 21
12.038061 0.162843 69.708794 26 24 21
12.034304 0.313014 69.687035 26 23 21
12.029706 0.463059 69.660408 26 23 20
12.024179 0.612941 69.628395 27 23 20
12.017648 0.762622 69.590584 27 23 21
12.010068 0.912060 69.546692 27 23 21
12.001421 1.061215 69.496620 26 22 22
11.991718 1.210047 69.440430 26 23 22
11.981004 1.358523 69.378387 25 23 21
11.969358 1.506613 69.310951 25 24 22
11.956893 1.654299 69.238770 26 24 23
11.943748 1.801572 69.162651 26 24 24
11.930092 1.948433 69.083572 26 24 24
11.916114 2.094897 69.002632 26 24 24
11.902018 2.240989 68.921005 25 24 23
11.888011 2.386747 68.839897 24 23 22
11.874304 2.532220 68.760521 24 23 21
11.861093 2.677462 68.684013 24 23 21
11.848558 2.822536 68.611435 24 23 22
11.836859 2.967506 68.543686 25 23 23
11.826118 3.112436 68.481483 25 23 23
11.816416 3.257385 68.425308 25 23 23
11.807800 3.402404 68.375420 25 23 22
11.800266 3.547534 68.331795 25 22 22
11.793763 3.692797 68.294136 25 22 22
11.788193 3.838203 68.261879 24 22 21
11.783415 3.983737 68.234207 23 22 20
11.779246 4.129366 68.210075 23 22 20
11.775474 4.275034 68.188225 22 22 19
11.771851 4.420664 68.167244 22 21 19
11.768115 4.566161 68.145615 21 21 20
11.763992 4.711408 68.121735 21 21 20
11.759198 4.856276 68.093979 21 20 19
11.753459 5.000622 68.060745 21 20 19
11.746511 5.144295 68.020508 20 19 18
11.738103 5.287137 67.971825 20 19 18
11.728016 5.428992 67.913406 20 19 19
11.716051 5.569703 67.844124 22 20 20
11.702045 5.709119 67.763023 24 21 21
11.685863 5.847096 67.669312 24 22 21
11.667399 5.983500 67.562401 24 22 21
11.646587 6.118208 67.441887 24 21 21
11.623384 6.251112 67.307526 24 20 20
11.597780 6.382114 67.159256 24 20 20
11.569790 6.511135 66.997169 23 20 20
11.539454 6.638108 66.821510 23 19 20
11.506843 6.762985 66.632668 23 19 20
11.472042 6.885735 66.431145 23 20 20
11.435163 7.006342 66.217590 22 20 20
11.396338 7.124813 65.992767 21 19 19
11.355724 7.241172 65.757584 20 19 19
11.313495 7.355468 65.513046 20 20 19
11.269843 7.467767 65.260269 21 20 19
11.224981 7.578159 65.000488 21 20 19
11.179142 7.686759 64.735046 22 20 19
11.132566 7.793699 64.465340 22 20 19
11.085513 7.899137 64.192871 23 20 19
11.038249 8.003245 63.919178 23 21 19
10.991045 8.106220 63.645836 23 21 19
10.944174 8.208265 63.374420 23 21 18
10.897901 8.309595 63.106461 21 20 18
10.852479 8.410432 62.843441 20 20 17
10.808154 8.510996 62.586765 19 20 17
10.765141 8.611504 62.337692 19 20 17
10.723632 8.712160 62.097324 19 20 17
10.683786 8.813152 61.866596 19 20 17
10.645734 8.914651 61.646240 19 20 18
10.609560 9.016796 61.436771 20 20 18
10.575316 9.119703 61.238476 20 20 18
10.543015 9.223454 61.051426 20 20 17
10.512629 9.328097 60.875469 19 19 17
10.484099 9.433654 60.710262 18 18 16
10.457336 9.540109 60.555286 17 18 16
10.432222 9.647421 60.409863 18 18 17
10.408623 9.755526 60.273201 19 19 17
10.386384 9.864334 60.144428 19 19 17
10.365349 9.973743 60.022614 19 19 17
10.345352 10.083641 59.906818 20 19 17
10.326236 10.193909 59.796124 19 18 17
10.307848 10.304427 59.689644 19 18 16
10.290047 10.415081 59.586563 20 18 16
10.272707 10.525763 59.486153 20 18 17
10.255717 10.636374 59.387775 21 19 17
10.238986 10.746834 59.290886 22 19 17
10.222433 10.857063 59.195030 22 18 15
10.205992 10.967001 59.099827 21 18 14
10.189614 11.076598 59.004993 20 18 14
10.173258 11.185807 58.910275 19 17 13
10.156886 11.294593 58.815468 18 17 13
11.680720 -11.364770 66.805611 18 19 15
11.720695 -11.259161 67.034248 19 19 16
11.759307 -11.151273 67.255081 20 19 18
11.796355 -11.040970 67.466965 21 20 19
11.831637 -10.928122 67.668755 21 20 20
11.864955 -10.812613 67.859314 22 20 20
11.896119 -10.694347 68.037552 22 20 20
11.924962 -10.573255 68.202507 22 20 20
11.951340 -10.449295 68.353371 22 20 20
11.975146 -10.322469 68.489525 22 19 19
11.996309 -10.192811 68.610565 22 19 18
12.014803 -10.060394 68.716339 23 20 19
12.030643 -9.925334 68.806931 22 20 19
12.043893 -9.787776 68.882706 21 21 19
12.054660 -9.647906 68.944290 21 21 19
12.063092 -9.505930 68.992516 21 21 19
12.069377 -9.362081 69.028458 21 21 18
12.073731 -9.216602 69.053368 21 20 18
12.076402 -9.069752 69.068634 21 20 18
12.077651 -8.921786 69.075783 22 21 17
12.077754 -8.772958 69.076378 23 21 17
12.076986 -8.623504 69.071983 23 22 18
12.075616 -8.473646 69.064148 23 22 18
12.073902 -8.323586 69.054337 23 22 19
12.072079 -8.173493 69.043915 23 22 20
12.070361 -8.023516 69.034088 23 22 20
12.068926 -7.873765 69.025887 23 22 20
12.067921 -7.724326 69.020134 23 21 20
12.067458 -7.575251 69.017487 23 22 20
12.067612 -7.426567 69.018364 24 22 21
12.068428 -7.278279 69.023033 24 23 21
12.069916 -7.130368 69.031548 25 24 22
12.072062 -6.982800 69.043816 26 25 24
12.074822 -6.835527 69.059608 27 25 24
12.078145 -6.688498 69.078606 27 25 24
12.081960 -6.541654 69.100426 27 25 24
12.086191 -6.394935 69.124626 28 25 23
12.090760 -6.248287 69.150757 28 25 23
12.095592 -6.101658 69.178391 29 25 24
12.100614 -5.955005 69.207115 29 25 24
12.105762 -5.808288 69.236565 29 26 24
12.110985 -5.661479 69.266434 29 26 24
12.116237 -5.514554 69.296471 29 26 24
12.121483 -5.367496 69.326469 29 27 24
12.126692 -5.220294 69.356262 29 27 25
12.131841 -5.072939 69.385712 29 27 25
12.136907 -4.925423 69.414688 29 26 26
12.141870 -4.777741 69.443069 29 26 26
12.146708 -4.629889 69.470734 29 26 26
12.151391 -4.481861 69.497528 29 26 26
12.155892 -4.333652 69.523270 28 26 26
12.160172 -4.185256 69.547745 28 27 25
12.164192 -4.036669 69.570740 28 27 26
12.167907 -3.887885 69.591980 29 28 26
12.171272 -3.738902 69.611237 29 29 27
12.174249 -3.589721 69.628250 29 29 27
12.176796 -3.440346 69.642822 28 29 27
12.178883 -3.290783 69.654762 27 28 27
12.180491 -3.141046 69.663963 27 28 26
12.181614 -2.991150 69.670380 26 27 26
12.182258 -2.841114 69.674057 26 27 25
12.182446 -2.690962 69.675140 27 27 25
12.182217 -2.540718 69.673828 28 26 25
12.181621 -2.390408 69.670418 29 26 25
12.180719 -2.240056 69.665260 29 25 25
12.179583 -2.089686 69.658760 29 25 24
12.178283 -1.939318 69.651329 28 24 23
12.176891 -1.788969 69.643372 26 23 22
12.175478 -1.638651 69.635284 26 23 23
12.174097 -1.488372 69.627388 27 25 24
12.172794 -1.338136 69.619934 27 25 25
12.171593 -1.187941 69.613068 27 25 25
12.170501 -1.037786 69.606819 26 25 24
12.169498 -0.887664 69.601089 26 24 24
12.168549 -0.737570 69.595657 26 24 23
12.167588 -0.587499 69.590164 26 24 23
12.166533 -0.437448 69.584122 26 24 23
12.165283 -0.287418 69.576981 26 24 23
12.163724 -0.137416 69.568062 26 24 22
12.161730 0.012547 69.556656 26 23 21
12.159172 0.162453 69.542030 26 23 21
12.155924 0.312279 69.523453 26 23 20
12.151867 0.461994 69.500244 27 23 20
12.146897 0.611563 69.471825 27 23 21
12.140929 0.760947 69.437691 27 23 21
12.133906 0.910104 69.397530 27 23 22
12.125801 1.058994 69.351166 27 23 22
12.116616 1.207576 69.298637 26 24 22
12.106391 1.355816 69.240158 26 24 22
12.095200 1.503683 69.176147 25 24 23
12.083149 1.651157 69.107231 26 24 24
12.070380 1.798226 69.034203 26 24 24
12.057062 1.944892 68.958031 26 24 24
12.043381 2.091167 68.879784 26 24 24
12.029544 2.237076 68.800644 25 24 24
12.015761 2.382653 68.721817 24 24 23
12.002241 2.527947 68.644493 24 23 22
11.989184 2.673010 68.569817 25 24 22
11.976773 2.817904 68.498833 24 23 22
11.965166 2.962690 68.432449 25 23 23
11.954485 3.107431 68.371361 25 23 23
11.944815 3.252184 68.316055 25 23 23
11.936201 3.396999 68.266785 25 22 22
11.928636 3.541912 68.223518 25 22 22
11.922068 3.686948 68.185951 25 22 22
11.916396 3.832110 68.153519 24 23 21
11.911478 3.977384 68.125389 23 23 20
11.907130 4.122734 68.100525 22 23 20
11.903131 4.268102 68.077644 22 22 19
11.899233 4.413408 68.055359 22 22 20
11.895172 4.558557 68.032127 22 22 20
11.890669 4.703430 68.006371 22 21 20
11.885439 4.847896 67.976463 22 21 20
11.879206 4.991810 67.940811 21 20 19
11.871704 5.135023 67.897911 21 20 18
11.862685 5.277376 67.846329 21 20 18
11.851929 5.418712 67.784813 21 20 20
11.839238 5.558875 67.712227 22 21 21
11.824452 5.697715 67.627663 23 22 21
11.807439 5.835089 67.530357 24 22 21
11.788099 5.970866 67.419754 24 21 21
11.766370 6.104926 67.295471 24 21 21
11.742212 6.237161 67.157310 25 21 21
11.715625 6.367478 67.005241 24 20 21
11.686627 6.495801 66.839401 24 20 21
11.655270 6.622068 66.660057 24 20 21
11.621624 6.746234 66.467621 24 20 21
11.585783 6.868269 66.262642 23 20 21
11.547866 6.988163 66.045784 22 20 20
11.508011 7.105927 65.817841 21 20 19
11.466375 7.221585 65.579712 21 20 19
11.423138 7.335189 65.332420 21 20 19
11.378496 7.446807 65.077103 21 20 20
11.332664 7.556531 64.814980 22 20 20
11.285877 7.664476 64.547386 23 20 20
11.238377 7.770774 64.275719 23 20 20
11.190425 7.875583 64.001465 23 20 19
11.142288 7.979078 63.726158 23 20 19
11.094240 8.081450 63.451359 23 20 19
11.046555 8.182906 63.178627 23 20 19
10.999499 8.283661 62.909504 22 20 18
10.953332 8.383935 62.645458 21 20 18
10.908296 8.483951 62.387886 20 20 17
10.864614 8.583926 62.138058 20 20 17
10.822481 8.684066 61.897079 20 20 17
10.782058 8.784561 61.665890 20 19 17
10.743475 8.885581 61.445221 19 19 17
10.706824 8.987272 61.235603 19 19 17
10.672155 9.089746 61.037323 19 19 17
10.639480 9.193089 60.850441 19 19 16
10.608773 9.297352 60.674820 18 18 16
10.579970 9.402549 60.510090 18 18 16
10.552979 9.508669 60.355721 18 18 16
10.527678 9.615665 60.211018 18 18 17
10.503925 9.723472 60.075165 18 18 17
10.481560 9.831995 59.947250 18 18 17
10.460417 9.941128 59.826328 18 18 17
10.440323 10.050749 59.711407 18 18 17
10.421114 10.160737 59.601543 18 18 16
10.402628 10.270967 59.495815 19 17 16
10.384718 10.381315 59.393383 19 17 16
10.367252 10.491672 59.293488 20 18 17
10.350116 10.601935 59.195480 21 18 17
10.333212 10.712017 59.098804 22 18 17
10.316461 10.821842 59.002998 22 18 16
10.299797 10.931347 58.907692 21 18 16
10.283171 11.040482 58.812603 20 18 15
10.266542 11.149204 58.717499 19 17 15
10.249880 11.257479 58.622204 19 17 14
11.855042 -11.249523 66.976860 19 18 17
11.892699 -11.140418 67.189613 20 19 18
11.928901 -11.029052 67.394142 21 20 19
11.963456 -10.915300 67.589371 21 20 19
11.996169 -10.799049 67.774185 22 19 19
12.026855 -10.680200 67.947540 23 19 19
12.055340 -10.558677 68.108475 23 19 19
12.081478 -10.434433 68.256149 22 19 19
12.105152 -10.307454 68.389900 22 19 19
12.126286 -10.177766 68.509300 22 19 18
12.144836 -10.045426 68.614098 23 20 19
12.160810 -9.910536 68.704346 23 20 19
12.174260 -9.773231 68.780334 22 21 19
12.185281 -9.633676 68.842598 21 21 19
12.194008 -9.492067 68.891907 21 21 19
12.200619 -9.348625 68.929253 21 21 19
12.205321 -9.203584 68.955826 21 20 18
12.208355 -9.057188 68.972961 21 20 18
12.209973 -8.909687 68.982101 22 21 18
12.210445 -8.761323 68.984772 23 21 18
12.210041 -8.612330 68.982483 23 21 18
12.209026 -8.462924 68.976753 24 22 19
12.207655 -8.313299 68.969009 24 22 19
12.206162 -8.163627 68.960571 24 22 20
12.204759 -8.014050 68.952644 24 22 20
12.203622 -7.864678 68.946220 24 22 20
12.202897 -7.715595 68.942123 23 21 20
12.202698 -7.566855 68.940994 23 21 20
12.203096 -7.418484 68.943253 24 22 20
12.204138 -7.270486 68.949135 25 23 21
12.205832 -7.122843 68.958702 25 24 22
12.208160 -6.975523 68.971863 27 25 24
12.211085 -6.828478 68.988388 27 25 24
12.214548 -6.681657 69.007950 27 25 24
12.218479 -6.535001 69.030151 27 25 23
12.222798 -6.388453 69.054558 27 25 23
12.227428 -6.241958 69.080719 28 25 23
12.232288 -6.095465 69.108177 28 25 23
12.237308 -5.948931 69.136528 28 25 23
12.242418 -5.802319 69.165405 28 26 23
12.247567 -5.655599 69.194496 29 26 24
12.252707 -5.508749 69.223526 29 27 25
12.257799 -5.361754 69.252304 29 27 25
12.262815 -5.214602 69.280640 29 27 25
12.267726 -5.067286 69.308380 29 27 25
12.272511 -4.919798 69.335419 29 27 26
12.277149 -4.772137 69.361618 29 27 26
12.281613 -4.624298 69.386841 29 27 26
12.285877 -4.476276 69.410934 29 26 26
12.289907 -4.328070 69.433708 28 26 26
12.293670 -4.179673 69.454964 28 27 25
12.297120 -4.031083 69.474457 29 28 25
12.300217 -3.882296 69.491943 29 28 26
12.302915 -3.733314 69.507187 29 28 27
12.305173 -3.584138 69.519951 29 28 27
12.306956 -3.434773 69.530022 28 28 27
12.308238 -3.285232 69.537262 27 28 26
12.309000 -3.135528 69.541573 26 27 26
12.309245 -2.985679 69.542953 26 27 25
12.308988 -2.835708 69.541496 27 27 25
12.308258 -2.685641 69.537376 27 26 25
12.307106 -2.535505 69.530869 28 26 25
12.305594 -2.385327 69.522331 29 25 25
12.303798 -2.235134 69.512177 29 25 25
12.301799 -2.084950 69.500885 29 25 24
12.299685 -1.934797 69.488937 28 23 23
12.297540 -1.784691 69.476822 25 22 22
12.295446 -1.634644 69.464996 25 22 22
12.293471 -1.484662 69.453835 25 24 24
12.291670 -1.334748 69.443657 26 25 25
12.290071 -1.184896 69.434631 26 25 25
12.288692 -1.035102 69.426834 26 24 24
12.287515 -0.885357 69.420181 25 24 23
12.286501 -0.735650 69.414459 25 24 23
12.285584 -0.585972 69.409279 25 24 23
12.284678 -0.436317 69.404160 25 23 23
12.283674 -0.286681 69.398491 26 23 23
12.282449 -0.137068 69.391563 26 23 22
12.280864 0.012516 69.382614 26 23 21
12.278780 0.162054 69.370834 26 23 21
12.276057 0.311525 69.355453 26 23 20
12.272565 0.460900 69.335724 27 23 20
12.268187 0.610147 69.310982 27 23 20
12.262826 0.759226 69.280701 27 23 21
12.256414 0.908097 69.244476 27 23 21
12.248915 1.056718 69.202110 27 23 22
12.240323 1.205048 69.153564 26 24 22
12.230671 1.353052 69.099037 26 24 23
12.220027 1.500700 69.038902 26 24 23
12.208496 1.647968 68.973755 26 24 23
12.196213 1.794844 68.904358 27 24 24
12.183345 1.941328 68.831657 27 24 23
12.170076 2.087430 68.756699 27 25 24
12.156613 2.233173 68.680634 26 25 24
12.143165 2.378591 68.604652 25 24 23
12.129937 2.523728 68.529930 25 23 23
12.117131 2.668635 68.457581 24 23 22
12.104929 2.813370 68.388634 24 23 22
12.093484 2.957994 68.323982 24 23 22
12.082922 3.102565 68.264305 24 23 22
12.073323 3.247139 68.210075 24 23 22
12.064731 3.391761 68.161530 24 22 22
12.057137 3.536467 68.118629 24 22 22
12.050488 3.681277 68.081070 24 22 22
12.044683 3.826192 68.048264 23 23 21
12.039576 3.971197 68.019417 23 23 21
12.034981 4.116252 67.993454 22 23 20
12.030678 4.261299 67.969147 22 23 20
12.026419 4.406257 67.945084 22 23 20
12.021939 4.551028 67.919769 23 22 20
12.016959 4.695495 67.891640 23 22 21
12.011198 4.839524 67.859093 22 21 20
12.004377 4.982975 67.820557 22 21 20
11.996237 5.125695 67.774567 21 20 19
11.986531 5.267529 67.719734 21 20 20
11.975040 5.408320 67.654816 22 21 20
11.961574 5.547915 67.578735 23 22 21
11.945974 5.686167 67.490601 23 22 22
11.928113 5.822934 67.389687 24 22 22
11.907897 5.958089 67.275475 25 22 22
11.885267 6.091514 67.147629 25 22 22
11.860190 6.223104 67.005951 25 21 22
11.832669 6.352770 66.850464 24 21 22
11.802728 6.480437 66.681305 24 21 22
11.770420 6.606047 66.498779 24 21 22
11.735823 6.729558 66.303314 24 21 21
11.699034 6.850942 66.095474 24 21 21
11.660175 6.970192 65.875931 23 20 20
11.619385 7.087318 65.645485 22 20 20
11.576826 7.202351 65.405045 22 20 19
11.532680 7.315339 65.155632 22 20 20
11.487144 7.426354 64.898369 22 20 20
11.440434 7.535487 64.634476 22 20 21
11.392785 7.642851 64.365273 23 20 21
11.344443 7.748583 64.092163 23 20 20
11.295669 7.852835 63.816601 23 20 19
11.246730 7.955784 63.540115 23 20 19
11.197903 8.057620 63.264256 23 20 19
11.149462 8.158550 62.990582 23 20 19
11.101677 8.258788 62.720612 22 20 18
11.054809 8.358556 62.455826 21 21 18
11.009106 8.458077 62.197620 21 21 17
10.964790 8.557568 61.947254 21 20 18
10.922063 8.657237 61.705853 21 20 18
10.881086 8.757277 61.474354 20 19 17
10.841995 8.857857 61.253502 19 18 17
10.804881 8.959125 61.043819 19 18 16
10.769796 9.061196 60.845604 18 18 16
10.736754 9.164156 60.658928 19 18 16
10.705726 9.268054 60.483624 19 18 16
10.676646 9.372908 60.319336 19 18 17
10.649419 9.478703 60.165512 19 18 17
10.623917 9.585389 60.021431 18 18 17
10.599992 9.692898 59.886269 18 18 16
10.577479 9.801133 59.759079 18 18 16
10.556203 9.909980 59.638878 18 18 16
10.535985 10.019314 59.524651 18 18 16
10.516650 10.129007 59.415417 19 18 16
10.498032 10.238928 59.310230 19 17 16
10.479975 10.348949 59.208214 20 17 16
10.462342 10.458956 59.108597 20 17 17
10.445016 10.568842 59.010708 21 18 17
10.427896 10.678517 58.913982 21 18 17
10.410898 10.787903 58.817955 21 18 17
10.393960 10.896936 58.722256 21 18 16
10.377031 11.005568 58.626614 20 17 15
10.360074 11.113756 58.530811 19 17 15
11.989041 -11.239792 66.918922 19 19 18
12.025665 -11.129432 67.123352 20 19 18
12.060949 -11.016966 67.320290 21 19 18
12.094708 -10.902277 67.508728 21 19 19
12.126756 -10.785253 67.687599 22 19 19
12.156905 -10.665792 67.855888 23 18 19
12.184983 -10.543815 68.012611 23 19 19
12.210839 -10.419265 68.156929 22 19 18
12.234346 -10.292117 68.288139 22 19 18
12.255420 -10.162385 68.405762 22 19 19
12.274005 -10.030112 68.509499 23 20 19
12.290098 -9.895387 68.599327 23 20 19
12.303738 -9.758327 68.675461 23 21 19
12.315007 -9.619088 68.738358 22 21 19
12.324031 -9.477852 68.788727 21 21 19
12.330976 -9.334824 68.827492 21 21 19
12.336039 -9.190227 68.855751 21 20 18
12.339449 -9.044296 68.874786 21 20 18
12.341455 -8.897272 68.885979 22 20 17
12.342318 -8.749388 68.890793 23 20 18
12.342299 -8.600871 68.890701 24 21 19
12.341664 -8.451930 68.887154 24 22 20
12.340662 -8.302758 68.881561 24 22 20
12.339523 -8.153521 68.875198 25 22 21
12.338454 -8.004355 68.869232 25 22 21
12.337635 -7.855375 68.864662 25 22 21
12.337209 -7.706660 68.862282 24 21 20
12.337285 -7.558263 68.862709 24 22 21
12.337939 -7.410211 68.866356 24 22 20
12.339212 -7.262507 68.873466 25 23 21
12.341116 -7.115137 68.884087 26 24 22
12.343630 -6.968065 68.898125 27 25 24
12.346714 -6.821248 68.915337 28 25 24
12.350310 -6.674633 68.935410 28 25 23
12.354345 -6.528164 68.957932 27 25 23
12.358743 -6.381784 68.982475 27 25 23
12.363417 -6.235439 69.008568 28 25 23
12.368291 -6.089079 69.035774 28 25 23
12.373289 -5.942662 69.063667 27 25 23
12.378344 -5.796151 69.091881 27 25 23
12.383398 -5.649518 69.120094 28 27 24
12.388403 -5.502741 69.148033 29 27 25
12.393323 -5.355808 69.175491 29 27 25
12.398123 -5.208705 69.202286 28 27 24
12.402777 -5.061428 69.228264 28 27 25
12.407260 -4.913970 69.253288 28 27 25
12.411550 -4.766331 69.277229 28 27 26
12.415620 -4.618507 69.299950 28 27 26
12.419443 -4.470496 69.321289 27 26 25
12.422984 -4.322294 69.341049 28 27 25
12.426207 -4.173901 69.359039 29 27 25
12.429069 -4.025313 69.375008 29 28 25
12.431525 -3.876530 69.388725 29 28 26
12.433535 -3.727554 69.399940 29 28 26
12.435058 -3.578389 69.408440 29 28 26
12.436058 -3.429044 69.414024 29 28 26
12.436514 -3.279531 69.416573 28 27 26
12.436414 -3.129867 69.416016 26 26 26
12.435763 -2.980073 69.412384 26 26 26
12.434587 -2.830175 69.405807 27 26 26
12.432922 -2.680201 69.396523 27 26 25
12.430831 -2.530180 69.384850 27 25 25
12.428388 -2.380142 69.371208 28 25 25
12.425679 -2.230115 69.356094 28 24 24
12.422800 -2.080124 69.340027 28 24 24
12.419853 -1.930193 69.323578 27 23 23
12.416937 -1.780336 69.307304 25 21 22
12.414145 -1.630566 69.291710 24 21 22
12.411554 -1.480888 69.277252 25 22 23
12.409232 -1.331300 69.264290 25 24 24
12.407218 -1.181798 69.253052 25 24 24
12.405529 -1.032371 69.243622 25 24 24
12.404153 -0.883007 69.235947 25 23 23
12.403052 -0.733693 69.229797 24 23 23
12.402160 -0.584414 69.224815 24 23 22
12.401382 -0.435162 69.220482 25 23 22
12.400607 -0.285928 69.216148 25 23 22
12.399700 -0.136711 69.211090 25 23 22
12.398516 0.012483 69.204475 26 23 22
12.396902 0.161644 69.195473 26 23 21
12.394709 0.310751 69.183228 26 22 21
12.391792 0.459779 69.166954 26 22 20
12.388025 0.608694 69.145927 26 22 20
12.383304 0.757461 69.119568 26 22 20
12.377545 0.906038 69.087425 26 22 21
12.370706 1.054384 69.049248 26 23 21
12.362772 1.202459 69.004967 26 23 22
12.353769 1.350227 68.954720 26 24 23
12.343760 1.497655 68.898849 26 24 23
12.332844 1.644722 68.837914 26 24 23
12.321151 1.791413 68.772652 26 24 23
12.308841 1.937726 68.703941 27 25 23
12.296099 2.083669 68.632820 27 25 24
12.283124 2.229264 68.560394 26 25 24
12.270120 2.374541 68.487816 25 24 23
12.257294 2.519541 68.416222 24 23 23
12.244839 2.664313 68.346703 24 23 22
12.232933 2.808912 68.280243 24 23 22
12.221729 2.953393 68.217712 23 22 22
12.211345 3.097813 68.159752 23 22 21
12.201862 3.242223 68.106819 23 22 22
12.193317 3.386665 68.059128 23 21 22
12.185702 3.531171 68.016624 23 21 22
12.178962 3.675758 67.978996 23 22 22
12.172991 3.820424 67.945671 23 23 21
12.167647 3.965150 67.915848 23 23 21
12.162745 4.109897 67.888481 23 23 21
12.158062 4.254603 67.862343 23 23 21
12.153356 4.399188 67.836075 23 24 21
12.148363 4.543552 67.808205 24 23 21
12.142809 4.687580 67.777206 24 23 21
12.136417 4.831141 67.741531 23 22 22
12.128916 4.974092 67.699661 23 21 21
12.120049 5.116286 67.650162 22 21 21
12.109574 5.257570 67.591698 23 21 21
12.097282 5.397790 67.523087 23 22 21
12.082987 5.536797 67.443298 24 23 22
12.066536 5.674445 67.351471 25 23 22
12.047808 5.810600 67.246941 25 23 22
12.026712 5.945134 67.129196 25 23 22
12.003197 6.077934 66.997932 25 22 22
11.977232 6.208899 66.853012 25 22 22
11.948822 6.337942 66.694435 25 22 22
11.917996 6.464992 66.522377 24 22 22
11.884811 6.589991 66.337151 24 22 22
11.849345 6.712899 66.139183 24 21 21
11.811697 6.833692 65.929047 23 20 20
11.771990 6.952362 65.707413 23 20 20
11.730364 7.068920 65.475075 22 20 19
11.686982 7.183398 65.232925 22 20 20
11.642025 7.295844 64.981995 22 20 20
11.595691 7.406329 64.723366 23 21 21
11.548196 7.514944 64.458267 22 20 21
11.499774 7.621801 64.187996 23 20 21
11.450674 7.727035 63.913933 23 20 20
11.401155 7.830800 63.637531 23 20 20
11.351484 7.933268 63.360291 23 21 19
11.301943 8.034633 63.083767 23 20 19
11.252806 8.135096 62.809494 23 20 19
11.204344 8.234874 62.538998 22 21 18
11.156822 8.334188 62.273746 21 21 17
11.110490 8.433262 62.015133 21 21 17
11.065576 8.532313 61.764439 21 20 18
11.022279 8.631551 61.522770 20 20 18
10.980770 8.731168 61.291080 20 19 17
10.941183 8.831339 61.070126 19 18 17
10.903614 8.932208 60.860424 19 19 17
10.868116 9.033896 60.662285 19 19 17
10.834702 9.136486 60.475773 19 18 17
10.803341 9.240029 60.300732 20 18 18
10.773969 9.344543 60.136787 19 18 18
10.746485 9.450008 59.983379 19 18 18
10.720757 9.556378 59.839771 19 18 18
10.696631 9.663577 59.705112 18 18 16
10.673937 9.771506 59.578442 19 18 16
10.652492 9.880046 59.458736 19 18 16
10.632109 9.989070 59.344971 19 18 16
10.612608 10.098442 59.236126 19 18 16
10.593815 10.208025 59.131222 19 17 16
10.575567 10.317690 59.029369 20 17 16
10.557723 10.427314 58.929775 20 17 16
10.540161 10.536790 58.831749 21 18 17
10.522778 10.646025 58.734718 21 18 17
10.505487 10.754936 58.638214 21 18 16
10.488227 10.863461 58.541866 20 17 15
10.470946 10.971552 58.445412 19 17 15
10.453610 11.079166 58.348648 19 17 15
12.158088 -11.118208 67.055656 20 19 18
12.192401 -11.004629 67.244904 21 19 19
12.225317 -10.888990 67.426453 21 19 18
12.256655 -10.771181 67.599289 22 19 18
12.286229 -10.651098 67.762398 22 18 18
12.313866 -10.528655 67.914825 22 19 18
12.339406 -10.403788 68.055687 22 19 18
12.362721 -10.276464 68.184280 22 19 18
12.383711 -10.146679 68.300041 23 19 19
12.402313 -10.014468 68.402641 23 20 19
12.418512 -9.879902 68.491982 23 20 19
12.432333 -9.743088 68.568207 23 20 20
12.443849 -9.604165 68.631721 22 20 20
12.453171 -9.463303 68.683136 22 20 20
12.460454 -9.320693 68.723305 21 20 19
12.465888 -9.176549 68.753273 21 20 18
12.469689 -9.031094 68.774239 21 19 18
12.472099 -8.884556 68.787529 22 19 18
12.473371 -8.737164 68.794548 23 20 18
12.473762 -8.589135 68.796700 24 21 19
12.473528 -8.440675 68.795410 24 22 21
12.472914 -8.291966 68.792023 25 22 22
12.472150 -8.143175 68.787811 25 22 22
12.471437 -7.994435 68.783882 25 22 22
12.470954 -7.845856 68.781212 25 22 22
12.470840 -7.697516 68.780586 25 22 21
12.471205 -7.549470 68.782600 25 22 21
12.472122 -7.401742 68.787659 25 22 21
12.473633 -7.254338 68.795990 25 23 21
12.475747 -7.107241 68.807648 27 24 23
12.478443 -6.960419 68.822517 28 25 25
12.481681 -6.813828 68.840378 28 25 25
12.485400 -6.667418 68.860893 28 25 24
12.489529 -6.521132 68.883659 28 26 24
12.493986 -6.374917 68.908249 27 26 24
12.498689 -6.228718 68.934181 28 26 24
12.503556 -6.082487 68.961029 28 26 24
12.508512 -5.936182 68.988358 27 25 23
12.513488 -5.789768 69.015800 27 25 24
12.518425 -5.643219 69.043037 28 27 25
12.523275 -5.496514 69.069786 28 27 25
12.527998 -5.349639 69.095825 28 26 24
12.532560 -5.202586 69.120995 27 27 25
12.536932 -5.055347 69.145103 27 27 25
12.541092 -4.907922 69.168045 27 27 25
12.545012 -4.760306 69.189667 27 27 25
12.548667 -4.612500 69.209824 27 26 25
12.552027 -4.464502 69.228355 26 25 24
12.555059 -4.316312 69.245079 28 26 25
12.557723 -4.167927 69.259773 30 28 26
12.559978 -4.019348 69.272209 30 28 26
12.561781 -3.870576 69.282150 30 28 26
12.563087 -3.721614 69.289360 30 28 26
12.563858 -3.572469 69.293610 30 28 27
12.564064 -3.423151 69.294746 30 27 27
12.563684 -3.273676 69.292648 29 26 26
12.562712 -3.124062 69.287285 28 26 26
12.561157 -2.974334 69.278717 27 26 26
12.559052 -2.824519 69.267105 26 25 25
12.556446 -2.674648 69.252731 26 25 25
12.553409 -2.524751 69.235977 27 25 24
12.550026 -2.374862 69.217323 27 24 24
12.546397 -2.225009 69.197311 27 24 23
12.542632 -2.075220 69.176544 27 23 23
12.538843 -1.925517 69.155647 27 23 23
12.535144 -1.775916 69.135239 26 22 23
12.531639 -1.626429 69.115906 24 22 22
12.528419 -1.477059 69.098152 25 22 23
12.525560 -1.327804 69.082382 25 23 24
12.523108 -1.178654 69.068855 25 23 24
12.521086 -1.029599 69.057709 24 23 23
12.519488 -0.880622 69.048897 24 23 23
12.518275 -0.731705 69.042206 24 22 23
12.517379 -0.582831 69.037262 24 22 23
12.516704 -0.433987 69.033539 25 22 23
12.516130 -0.285160 69.030373 25 22 23
12.515517 -0.136348 69.026993 25 22 23
12.514712 0.012451 69.022552 26 22 22
12.513552 0.161225 69.016151 26 22 21
12.511877 0.309959 69.006920 26 22 21
12.509535 0.458629 68.994003 25 22 20
12.506389 0.607204 68.976646 25 22 20
12.502320 0.755648 68.954208 25 21 20
12.497243 0.903923 68.926208 25 22 20
12.491104 1.051988 68.892349 25 22 21
12.483881 1.199802 68.852516 26 23 22
12.475594 1.347330 68.806801 26 24 23
12.466295 1.494540 68.755524 26 24 23
12.456080 1.641407 68.699181 25 23 22
12.445072 1.787918 68.638466 26 24 22
12.433426 1.934068 68.574234 26 24 22
12.421318 2.079864 68.507462 27 25 23
12.408941 2.225323 68.439194 26 25 24
12.396495 2.370475 68.370552 24 23 23
12.384175 2.515357 68.302605 23 22 22
12.372172 2.660013 68.236404 23 22 22
12.360655 2.804495 68.172882 23 22 22
12.349770 2.948853 68.112846 23 22 22
12.339630 3.093140 68.056923 23 21 21
12.330311 3.237401 68.005524 22 21 21
12.321846 3.381675 67.958832 22 20 21
12.314222 3.525988 67.916794 22 21 21
12.307383 3.670354 67.879066 23 22 21
12.301223 3.814768 67.845093 23 23 21
12.295600 3.959209 67.814079 24 23 21
12.290329 4.103633 67.785011 24 23 21
12.285196 4.247980 67.756699 24 23 22
12.279960 4.392168 67.727821 24 23 22
12.274364 4.536098 67.696953 24 23 22
12.268141 4.679656 67.662636 24 23 22
12.261022 4.822714 67.623375 24 22 22
12.252744 4.965133 67.577721 23 21 22
12.243059 5.106768 67.524307 23 21 21
12.231739 5.247471 67.461868 23 21 21
12.218577 5.387093 67.389275 24 22 21
12.203398 5.525489 67.305557 24 23 22
12.186056 5.662519 67.209915 25 23 22
12.166437 5.798051 67.101707 25 23 22
12.144458 5.931964 66.980484 25 23 22
12.120067 6.064147 66.845963 25 23 22
12.093242 6.194504 66.698013 25 23 22
12.063988 6.322950 66.536667 25 22 21
12.032336 6.449415 66.362099 25 22 21
11.998343 6.573844 66.174614 24 22 21
11.962087 6.696199 65.974655 23 21 20
11.923668 6.816455 65.762764 23 21 19
11.883205 6.934605 65.539597 22 20 19
11.840841 7.050660 65.305946 22 21 20
11.796733 7.164649 65.062675 22 21 20
11.751063 7.276622 64.810791 22 21 20
11.704027 7.386647 64.551369 22 21 21
11.655840 7.494813 64.285606 22 21 21
11.606736 7.601233 64.014778 22 21 21
11.556960 7.706038 63.740253 22 21 20
11.506773 7.809380 63.463455 22 21 20
11.456446 7.911431 63.185883 23 21 19
11.406255 8.012382 62.909065 23 21 19
11.356478 8.112434 62.634529 23 21 18
11.307390 8.211804 62.363796 22 21 18
11.259257 8.310712 62.098331 21 21 17
11.212334 8.409381 61.839527 21 21 17
11.166846 8.508030 61.588654 21 20 17
11.123003 8.606869 61.346844 20 20 17
11.080975 8.706091 61.115044 19 19 17
11.040899 8.805871 60.894016 20 19 17
11.002873 8.906359 60.684292 20 19 19
10.966953 9.007670 60.486179 21 20 19
10.933149 9.109892 60.299740 21 19 19
10.901435 9.213075 60.124825 20 19 19
10.871741 9.317236 59.961056 20 19 19
10.843965 9.422356 59.807858 19 18 18
10.817969 9.528385 59.664486 19 18 18
10.793599 9.635247 59.530079 18 18 17
10.770677 9.742839 59.403652 19 19 17
10.749011 9.851037 59.284161 19 18 16
10.728413 9.959711 59.170551 19 18 16
10.708693 10.068722 59.061790 19 17 16
10.689671 10.177928 58.956879 19 17 16
10.671181 10.287195 58.854904 19 17 15
10.653076 10.396397 58.755047 20 17 16
10.635229 10.505424 58.656620 20 18 16
10.617536 10.614180 58.559029 20 18 16
10.599908 10.722582 58.461807 20 18 16
10.582280 10.830564 58.364590 19 17 16
10.564606 10.938080 58.267105 18 16 15
12.323184 -10.991986 67.167656 20 19 18
12.355232 -10.875404 67.342323 21 18 18
12.385834 -10.756814 67.509125 21 18 18
12.414809 -10.636111 67.667053 21 19 18
12.441981 -10.513204 67.815155 22 19 19
12.467188 -10.388021 67.952545 22 19 19
12.490290 -10.260515 68.078461 22 19 19
12.511180 -10.130676 68.192329 23 19 19
12.529786 -9.998525 68.293739 23 20 19
12.546081 -9.864117 68.382553 23 20 20
12.560078 -9.727548 68.458839 23 21 20
12.571835 -9.588941 68.522926 22 21 20
12.581456 -9.448454 68.575363 22 21 20
12.589082 -9.306266 68.616928 22 21 19
12.594893 -9.162579 68.648598 22 20 19
12.599096 -9.017604 68.671509 22 20 18
12.601924 -8.871562 68.686928 22 20 18
12.603620 -8.724669 68.696167 23 20 19
12.604435 -8.577139 68.700615 24 21 20
12.604621 -8.429168 68.701630 24 22 21
12.604416 -8.280935 68.700508 25 23 22
12.604044 -8.132600 68.698479 25 23 23
12.603704 -7.984294 68.696632 26 23 23
12.603571 -7.836125 68.695900 26 23 23
12.603782 -7.688168 68.697052 26 23 23
12.604446 -7.540478 68.700668 26 23 23
12.605633 -7.393078 68.707138 26 23 23
12.607383 -7.245975 68.716682 27 23 23
12.609705 -7.099152 68.729340 28 24 24
12.612578 -6.952579 68.744995 29 25 25
12.615962 -6.806213 68.763435 29 25 25
12.619793 -6.660004 68.784317 29 26 25
12.623999 -6.513898 68.807243 29 26 25
12.628498 -6.367842 68.831772 28 27 25
12.633209 -6.221784 68.857445 29 27 25
12.638048 -6.075677 68.883820 29 27 26
12.642938 -5.929480 68.910469 27 26 25
12.647809 -5.783159 68.937019 27 26 25
12.652603 -5.636690 68.963158 27 27 26
12.657271 -5.490054 68.988594 27 27 25
12.661770 -5.343236 69.013115 27 27 25
12.666068 -5.196230 69.036545 27 27 25
12.670135 -5.049031 69.058708 27 27 26
12.673944 -4.901638 69.079475 27 27 26
12.677471 -4.754048 69.098701 27 27 26
12.680689 -4.606263 69.116234 26 26 25
12.683567 -4.458283 69.131920 26 25 24
12.686069 -4.310109 69.145561 28 26 25
12.688160 -4.161739 69.156952 30 28 26
12.689794 -4.013177 69.165855 31 29 27
12.690928 -3.864424 69.172043 31 29 27
12.691520 -3.715486 69.175270 32 29 27
12.691533 -3.566371 69.175339 32 28 27
12.690937 -3.417092 69.172096 31 27 27
12.689716 -3.267666 69.165443 30 26 26
12.687869 -3.118115 69.155373 28 26 26
12.685411 -2.968464 69.141975 27 25 25
12.682380 -2.818743 69.125450 26 25 25
12.678834 -2.668986 69.106125 26 24 24
12.674853 -2.519225 69.084427 26 24 23
12.670535 -2.369494 69.060890 26 24 23
12.665989 -2.219826 69.036110 27 24 23
12.661337 -2.070246 69.010757 27 23 24
12.656706 -1.920780 68.985512 27 23 24
12.652220 -1.771442 68.961060 26 23 24
12.647996 -1.622244 68.938042 25 23 23
12.644137 -1.473187 68.917007 25 23 24
12.640726 -1.324268 68.898415 25 23 24
12.637818 -1.175475 68.882568 25 24 24
12.635443 -1.026795 68.869621 24 23 23
12.633596 -0.878207 68.859558 24 23 23
12.632241 -0.729691 68.852173 24 22 23
12.631310 -0.581226 68.847092 24 22 23
12.630702 -0.432794 68.843781 25 22 23
12.630295 -0.284380 68.841560 25 22 23
12.629942 -0.135977 68.839638 25 22 23
12.629482 0.012417 68.837135 26 22 22
12.628747 0.160797 68.833122 26 22 22
12.627566 0.309150 68.826691 26 22 21
12.625781 0.457452 68.816956 25 22 20
12.623244 0.605676 68.803131 24 21 20
12.619833 0.753789 68.784538 24 21 20
12.615450 0.901752 68.760651 24 21 20
