ply
format ascii 1.0
element vertex 1176
property float x
property float y
property float z
property uchar red
property uchar green
property uchar blue
end_header
-3.041101 11.938838 70.928528 34 29 31
-3.037761 12.078456 70.850624 33 29 30
-3.034367 12.217519 70.771461 32 28 28
-3.030903 12.355955 70.690651 31 26 27
-3.027350 12.493680 70.607803 29 25 25
-3.023693 12.630609 70.522499 28 24 24
-3.019911 12.766643 70.434288 28 22 23
-3.015986 12.901687 70.342751 28 22 23
-3.011900 13.035638 70.247459 28 22 23
-3.007635 13.168392 70.147972 28 23 23
-3.003171 13.299841 70.043869 29 24 25
-2.998492 13.429874 69.934738 29 25 25
-2.993579 13.558378 69.820145 30 25 25
-2.988412 13.685226 69.699646 31 25 25
-2.982972 13.810288 69.572754 31 24 26
-2.977236 13.933421 69.438980 32 24 26
-2.971182 14.054467 69.297768 33 25 27
-2.964782 14.173258 69.148514 34 26 27
-2.958010 14.289605 68.990570 36 27 28
-2.950837 14.403312 68.823265 38 28 29
-3.196425 -17.584185 78.497826 118 64 78
-3.190795 -17.384298 78.359573 118 66 79
-3.185417 -17.186365 78.227493 119 68 80
-3.180294 -16.990366 78.101700 120 70 82
-3.175432 -16.796286 77.982285 123 72 84
-3.170835 -16.604111 77.869392 125 73 85
-3.166511 -16.413836 77.763199 129 74 85
-3.162466 -16.225452 77.663872 133 74 85
-3.158708 -16.038952 77.571579 136 74 86
-3.155242 -15.854319 77.486458 138 72 85
-3.152072 -15.671525 77.408623 146 78 93
-3.149200 -15.490531 77.338089 172 102 121
-3.146623 -15.311275 77.274796 179 108 131
-3.144333 -15.133677 77.218567 152 81 106
-3.142317 -14.957623 77.169052 135 64 91
-3.140556 -14.782982 77.125801 135 65 93
-3.139023 -14.609591 77.088165 135 67 96
-3.137687 -14.437266 77.055344 136 71 98
-3.136509 -14.265803 77.026421 136 74 100
-3.135447 -14.094984 77.000328 134 76 101
-3.134451 -13.924576 76.975883 132 77 101
-3.133473 -13.754348 76.951859 129 79 100
-3.132459 -13.584067 76.926956 126 79 99
-3.131357 -13.413518 76.899887 123 78 99
-3.130116 -13.242497 76.869408 122 79 99
-3.128687 -13.070824 76.834328 120 79 99
-3.127027 -12.898349 76.793564 120 81 100
-3.125097 -12.724950 76.746170 124 85 105
-3.122865 -12.550540 76.691353 132 93 112
-3.120305 -12.375065 76.628471 141 102 119
-3.117399 -12.198508 76.557106 151 113 128
-3.114137 -12.020886 76.477013 162 124 138
-3.110518 -11.842251 76.388138 170 131 142
-3.106548 -11.662677 76.290627 171 132 141
-3.102239 -11.482270 76.184807 169 129 136
-3.097611 -11.301160 76.071167 163 122 129
-3.092692 -11.119489 75.950356 158 115 122
-3.087513 -10.937419 75.823166 152 108 115
-3.082109 -10.755115 75.690475 147 102 109
-3.076523 -10.572754 75.553291 142 95 102
-3.070797 -10.390510 75.412651 140 91 98
-3.064975 -10.208553 75.269676 141 91 98
-3.059103 -10.027052 75.125481 145 93 100
-3.053227 -9.846157 74.981171 150 97 104
-3.047390 -9.666011 74.837845 156 101 107
-3.041636 -9.486736 74.696518 153 99 103
-3.036001 -9.308441 74.558151 141 88 91
-3.030522 -9.131207 74.423576 134 83 86
-3.025226 -8.955100 74.293526 135 87 89
-3.020139 -8.780158 74.168594 138 92 95
-3.015278 -8.606402 74.049232 140 98 100
-3.010657 -8.433832 73.935745 143 102 106
-3.006280 -8.262423 73.828262 145 108 112
-3.002148 -8.092134 73.726776 148 112 116
-2.998253 -7.922912 73.631119 151 115 120
-2.994583 -7.754685 73.541000 154 119 125
-2.991120 -7.587371 73.455956 157 122 128
-2.987842 -7.420884 73.375458 160 124 132
-2.984723 -7.255129 73.298859 161 126 134
-2.981735 -7.090017 73.225487 164 129 138
-2.978848 -6.925455 73.154572 165 131 141
-2.976031 -6.761358 73.085388 164 131 142
-2.973253 -6.597646 73.017174 163 132 143
-2.970486 -6.434253 72.949226 163 135 146
-2.967704 -6.271121 72.880913 164 138 149
-2.964885 -6.108206 72.811676 165 142 153
-2.962010 -5.945478 72.741081 165 146 156
-2.959067 -5.782920 72.668785 167 151 160
-2.956046 -5.620527 72.594604 171 157 164
-2.952946 -5.458307 72.518471 175 163 170
-2.949769 -5.296278 72.440445 177 167 174
-2.946523 -5.134464 72.360733 179 171 178
-2.943220 -4.972898 72.279633 182 174 181
-2.939878 -4.811618 72.197548 183 176 183
-2.936515 -4.650658 72.114960 183 176 183
-2.933152 -4.490055 72.032379 183 176 183
-2.929812 -4.329841 71.950356 183 175 182
-2.926517 -4.170045 71.869423 182 173 180
-2.923287 -4.010688 71.790108 182 172 179
-2.920142 -3.851784 71.712875 181 170 177
-2.917099 -3.693342 71.638138 180 168 176
-2.914171 -3.535362 71.566223 180 166 174
-2.911368 -3.377837 71.497398 179 165 173
-2.908698 -3.220757 71.431824 179 165 172
-2.906163 -3.064101 71.369583 178 163 169
-2.903765 -2.907851 71.310699 176 159 166
-2.901502 -2.751983 71.255119 174 155 162
-2.899369 -2.596471 71.202744 171 150 158
-2.897361 -2.441289 71.153412 168 145 153
-2.895469 -2.286413 71.106949 165 141 149
-2.893686 -2.131816 71.063156 162 136 145
-2.892003 -1.977477 71.021828 158 131 140
-2.890412 -1.823375 70.982765 155 128 137
-2.888906 -1.669489 70.945770 153 126 134
-2.887475 -1.515803 70.910645 152 125 132
-2.886114 -1.362301 70.877220 152 124 132
-2.884816 -1.208970 70.845329 154 125 133
-2.883574 -1.055797 70.814835 156 126 135
-2.882383 -0.902771 70.785591 159 128 137
-2.881239 -0.749883 70.757507 162 129 141
-2.880138 -0.597125 70.730453 163 128 142
-2.879076 -0.444490 70.704376 161 126 140
-2.878051 -0.291972 70.679207 157 122 137
-2.877063 -0.139563 70.654930 156 120 134
-2.876110 0.012741 70.631531 157 120 135
-2.875195 0.164946 70.609070 161 123 138
-2.874321 0.317059 70.587608 173 132 148
-2.873494 0.469087 70.567299 189 146 162
-2.872720 0.621039 70.548302 190 146 160
-2.872011 0.772927 70.530869 176 130 141
-2.871377 0.924763 70.515305 164 118 124
-2.870834 1.076567 70.501976 165 119 122
-2.870399 1.228359 70.491287 189 144 144
-2.870090 1.380166 70.483704 198 155 153
-2.869929 1.532019 70.479736 177 134 131
-2.869937 1.683954 70.479942 169 124 122
-2.870138 1.836014 70.484879 186 141 141
-2.870556 1.988245 70.495140 214 169 172
-2.871214 2.140699 70.511292 224 177 183
-2.872134 2.293433 70.533897 191 142 151
-2.873338 2.446505 70.563461 158 108 119
-2.874843 2.599978 70.600433 156 108 122
-2.876665 2.753912 70.645172 155 110 125
-2.878814 2.908370 70.697929 136 94 109
-2.881293 3.063407 70.758827 139 99 114
-2.884104 3.219076 70.827843 172 134 148
-2.887236 3.375419 70.904762 193 156 170
-2.890675 3.532468 70.989220 191 155 167
-2.894397 3.690243 71.080627 184 148 159
-2.898371 3.848746 71.178215 177 142 153
-2.902557 4.007962 71.281021 172 136 147
-2.906909 4.167861 71.387909 168 133 143
-2.911375 4.328388 71.497581 165 131 141
-2.915897 4.489475 71.608627 166 132 143
-2.920415 4.651034 71.719574 167 134 145
-2.924866 4.812963 71.828896 159 129 139
-2.929191 4.975146 71.935097 125 100 108
-2.933331 5.137465 72.036774 77 56 63
-2.937234 5.299794 72.132614 48 31 37
-2.940854 5.462011 72.221519 48 33 38
-2.944154 5.624000 72.302559 57 43 48
-2.947106 5.785655 72.375046 61 48 52
-2.949691 5.946884 72.438545 59 47 51
-2.951902 6.107611 72.492836 56 45 48
-2.953738 6.267778 72.537926 54 42 45
-2.955209 6.427343 72.574043 52 40 43
-2.956328 6.586283 72.601532 49 38 41
-2.957117 6.744586 72.620903 46 36 38
-2.957597 6.902253 72.632698 43 34 36
-2.957793 7.059292 72.637505 40 33 34
-2.957728 7.215716 72.635918 39 31 33
-2.957425 7.371540 72.628479 38 30 32
-2.956904 7.526776 72.615685 37 29 30
-2.956182 7.681435 72.597954 36 28 29
-2.955273 7.835521 72.575623 36 26 28
-2.954187 7.989034 72.548965 35 25 27
-2.952934 8.141968 72.518173 35 24 27
-2.951517 8.294312 72.483391 35 24 26
-2.949943 8.446054 72.444733 35 24 26
-2.948215 8.597180 72.402283 35 24 26
-2.946336 8.747679 72.356148 36 25 27
-2.944312 8.897536 72.306435 36 26 28
-2.942147 9.046750 72.253281 36 27 28
-2.939849 9.195315 72.196846 35 27 28
-2.937426 9.343239 72.137329 33 26 27
-2.934887 9.490531 72.074974 32 26 26
-2.932243 9.637213 72.010048 31 25 25
-2.929507 9.783305 71.942863 30 25 25
-2.926692 9.928838 71.873718 30 24 25
-2.923810 10.073845 71.802948 31 24 25
-2.920875 10.218360 71.730873 31 24 25
-2.917900 10.362422 71.657806 31 25 26
-2.914895 10.506062 71.584015 30 24 25
-2.911871 10.649315 71.509766 30 23 25
-2.908837 10.792208 71.435242 30 24 26
-2.905798 10.934763 71.360619 30 24 26
-2.902759 11.076995 71.285988 30 25 27
-2.899722 11.218913 71.211395 31 26 28
-2.896687 11.360516 71.136856 32 27 29
-2.893649 11.501789 71.062256 33 29 30
-2.890603 11.642708 70.987457 34 29 31
-2.887542 11.783240 70.912277 35 30 32
-2.884454 11.923338 70.836441 35 31 32
-2.881327 12.062947 70.759651 34 31 31
-2.878147 12.202002 70.681572 33 30 29
-2.874899 12.340425 70.601807 32 29 27
-2.871566 12.478134 70.519951 30 27 26
-2.868130 12.615039 70.435562 30 24 25
-2.864573 12.751039 70.348198 28 23 23
-2.860876 12.886036 70.257423 28 23 23
-2.857023 13.019927 70.162796 28 23 23
-2.852995 13.152605 70.063873 28 23 23
-2.848775 13.283961 69.960243 29 24 24
-2.844346 13.413887 69.851486 29 24 25
-2.839691 13.542265 69.737167 30 24 25
-2.834793 13.668973 69.616859 30 24 25
-2.829631 13.793880 69.490097 30 24 25
-2.824186 13.916845 69.356377 30 24 26
-2.818435 14.037711 69.215149 31 24 26
-2.812354 14.156307 69.065819 33 26 27
-2.805917 14.272449 68.907745 35 27 28
-3.028990 -17.594524 78.543976 118 65 77
-3.023606 -17.394241 78.404388 118 67 79
-3.018452 -17.195866 78.270737 119 69 81
-3.013531 -16.999380 78.143135 120 71 83
-3.008848 -16.804775 78.021698 123 74 85
-3.004409 -16.612041 77.906586 125 76 87
-3.000220 -16.421175 77.797974 128 77 88
-2.996290 -16.232176 77.696053 132 78 89
-2.992626 -16.045044 77.601044 135 77 90
-2.989234 -15.859768 77.513092 136 74 88
-2.986120 -15.676329 77.432350 147 82 100
-2.983288 -15.494697 77.358887 186 120 142
-2.980734 -15.314816 77.292664 202 136 161
-2.978454 -15.136614 77.233551 165 97 125
-2.976437 -14.959988 77.181259 136 66 97
-2.974667 -14.784810 77.135345 133 64 94
-2.973118 -14.610924 77.095192 136 69 98
-2.971763 -14.438148 77.060051 138 72 100
-2.970565 -14.266279 77.028984 138 75 101
-2.969484 -14.095099 77.000954 137 77 101
-2.968474 -13.924376 76.974777 135 79 101
-2.967488 -13.753872 76.949196 133 80 100
-2.966474 -13.583353 76.922905 131 80 100
-2.965383 -13.412596 76.894600 128 80 99
-2.964163 -13.241390 76.862984 124 77 98
-2.962770 -13.069551 76.826843 118 74 95
-2.961158 -12.896920 76.785057 115 73 96
-2.959291 -12.723371 76.736649 119 78 102
-2.957136 -12.548808 76.680771 126 85 109
-2.954669 -12.373177 76.616783 131 90 113
-2.951871 -12.196456 76.544228 137 96 117
-2.948732 -12.018660 76.462845 147 106 123
-2.945251 -11.839838 76.372574 157 115 130
-2.941433 -11.660069 76.273560 163 121 132
-2.937290 -11.479456 76.166130 163 121 131
-2.932842 -11.298132 76.050789 160 118 126
-2.928114 -11.116244 75.928192 156 114 120
-2.923138 -10.933956 75.799164 153 108 115
-2.917948 -10.751436 75.664581 149 104 111
-2.912584 -10.568865 75.525490 146 99 106
-2.907087 -10.386417 75.382950 146 96 104
-2.901500 -10.204270 75.238091 147 94 104
-2.895868 -10.022588 75.092033 149 94 104
-2.890233 -9.841528 74.945923 153 95 106
-2.884638 -9.661229 74.800827 155 96 107
-2.879122 -9.481818 74.657791 149 90 100
-2.873722 -9.303399 74.517769 139 82 90
-2.868470 -9.126056 74.381584 136 80 88
-2.863394 -8.949849 74.249969 137 85 92
-2.858517 -8.774820 74.123505 139 90 96
-2.853856 -8.600987 74.002640 140 96 101
-2.849422 -8.428345 73.887642 143 102 107
-2.845219 -8.256872 73.778664 146 108 113
-2.841247 -8.086526 73.675667 151 113 119
-2.837499 -7.917249 73.578491 155 118 123
-2.833964 -7.748972 73.486816 159 122 128
-2.830624 -7.581613 73.400200 161 124 131
-2.827458 -7.415083 73.318100 163 126 134
-2.824441 -7.249292 73.239883 164 128 136
-2.821548 -7.084147 73.164856 165 130 138
-2.818749 -6.919557 73.092278 164 131 140
-2.816015 -6.755438 73.021400 164 132 142
-2.813319 -6.591711 72.951477 163 134 144
-2.810633 -6.428308 72.881828 163 135 146
-2.807932 -6.265173 72.811790 163 139 148
-2.805196 -6.102263 72.740837 164 143 151
-2.802407 -5.939548 72.668518 164 147 155
-2.799553 -5.777009 72.594505 167 152 159
-2.796626 -5.614643 72.518600 172 159 165
-2.793623 -5.452457 72.440742 176 164 171
-2.790547 -5.290468 72.360992 178 169 176
-2.787407 -5.128704 72.279549 180 172 179
-2.784212 -4.967195 72.196724 182 175 182
-2.780981 -4.805978 72.112923 185 178 185
-2.777729 -4.645090 72.028610 187 179 187
-2.774479 -4.484567 71.944336 186 178 186
-2.771251 -4.324442 71.860634 183 175 183
-2.768068 -4.164744 71.778069 181 172 179
-2.764948 -4.005496 71.697174 180 170 177
-2.761911 -3.846710 71.618416 180 169 177
-2.758973 -3.688398 71.542236 180 167 175
-2.756148 -3.530558 71.468979 177 164 172
-2.753445 -3.373185 71.398911 176 162 170
-2.750873 -3.216265 71.332214 178 163 170
-2.748435 -3.059782 71.268982 178 162 168
-2.746131 -2.903714 71.209236 176 158 165
-2.743959 -2.748036 71.152924 174 154 161
-2.741915 -2.592722 71.099930 171 149 157
-2.739994 -2.437745 71.050110 166 144 152
-2.738187 -2.283078 71.003258 164 139 148
-2.736487 -2.128697 70.959167 161 134 145
-2.734884 -1.974575 70.917603 156 129 139
-2.733370 -1.820692 70.878334 153 125 136
-2.731935 -1.667027 70.841141 152 124 133
-2.730572 -1.513562 70.805786 152 123 132
-2.729273 -1.360281 70.772095 152 122 131
-2.728029 -1.207170 70.739845 153 123 132
-2.726835 -1.054217 70.708878 155 124 134
-2.725684 -0.901412 70.679039 157 125 135
-2.724572 -0.748746 70.650200 160 127 138
-2.723493 -0.596212 70.622231 161 126 139
-2.722446 -0.443803 70.595062 159 124 137
-2.721426 -0.291515 70.568634 158 122 135
-2.720435 -0.139342 70.542931 158 122 135
-2.719472 0.012720 70.517967 159 122 135
-2.718540 0.164677 70.493797 166 127 141
-2.717644 0.316533 70.470551 180 139 154
-2.716789 0.468297 70.448380 194 150 166
-2.715984 0.619976 70.427505 189 143 158
-2.715240 0.771583 70.408226 174 128 138
-2.714572 0.923132 70.390900 164 118 126
-2.713995 1.074642 70.375923 159 112 116
-2.713526 1.226137 70.363762 163 118 117
-2.713186 1.377645 70.354950 174 131 126
-2.712996 1.529200 70.350029 173 130 123
-2.712980 1.680840 70.349609 176 132 126
-2.713160 1.832612 70.354279 202 158 153
-2.713561 1.984565 70.364670 226 180 179
-2.714205 2.136755 70.381363 217 168 171
-2.715114 2.289240 70.404938 183 133 139
-2.716307 2.442082 70.435890 164 113 122
-2.717803 2.595346 70.474663 164 115 127
-2.719612 2.749095 70.521591 151 107 120
-2.721745 2.903391 70.576897 132 91 104
-2.724204 3.058291 70.640656 147 109 121
-2.726985 3.213846 70.712776 181 145 158
-2.730078 3.370098 70.792992 196 160 172
-2.733467 3.527076 70.880852 189 155 165
-2.737124 3.684795 70.975685 182 147 158
-2.741018 3.843255 71.076668 177 142 153
-2.745108 4.002435 71.182724 173 139 148
-2.749348 4.162299 71.292648 170 136 146
-2.753683 4.322788 71.405067 168 135 144
-2.758058 4.483826 71.518517 167 135 144
-2.762412 4.645318 71.631432 167 136 145
-2.766687 4.807158 71.742264 153 126 134
-2.770821 4.969225 71.849480 111 88 95
-2.774762 5.131395 71.951660 62 44 49
-2.778457 5.293540 72.047485 43 28 32
-2.781866 5.455534 72.135872 49 36 39
-2.784953 5.617262 72.215935 57 44 48
-2.787694 5.778618 72.287018 58 47 51
-2.790075 5.939511 72.348732 57 45 49
-2.792088 6.099868 72.400932 54 43 46
-2.793737 6.259636 72.443703 51 40 43
-2.795034 6.418777 72.477325 49 38 41
-2.795995 6.577275 72.502243 46 36 39
-2.796641 6.735123 72.519012 43 34 37
-2.796998 6.892327 72.528252 41 32 35
-2.797089 7.048904 72.530617 39 31 33
-2.796940 7.204871 72.526749 38 30 32
-2.796572 7.360247 72.517220 37 29 31
-2.796007 7.515052 72.502571 37 28 30
-2.795262 7.669298 72.483246 37 27 30
-2.794349 7.822993 72.459587 37 26 29
-2.793280 7.976138 72.431854 36 25 28
-2.792062 8.128729 72.400253 36 25 27
-2.790699 8.280756 72.364929 36 25 26
-2.789196 8.432206 72.325943 36 25 27
-2.787555 8.583064 72.283394 37 25 27
-2.785779 8.733315 72.237350 37 25 27
-2.783872 8.882949 72.187889 37 26 28
-2.781837 9.031955 72.135124 36 27 28
-2.779680 9.180330 72.079193 34 27 28
-2.777408 9.328078 72.020279 32 26 26
-2.775030 9.475208 71.958603 30 25 25
-2.772554 9.621737 71.894417 29 24 25
-2.769994 9.767687 71.828018 29 24 25
-2.767358 9.913085 71.759682 30 24 25
-2.764662 10.057964 71.689758 30 24 26
-2.761916 10.202359 71.618553 30 24 26
-2.759132 10.346305 71.546364 30 25 26
-2.756321 10.489838 71.473473 30 24 26
-2.753493 10.632988 71.400131 30 24 25
-2.750655 10.775786 71.326546 30 24 26
-2.747814 10.918254 71.252876 31 25 28
-2.744973 11.060405 71.179214 32 26 29
-2.742135 11.202248 71.105614 33 27 30
-2.739299 11.343782 71.032074 34 29 31
-2.736461 11.484992 70.958481 35 30 33
-2.733615 11.625854 70.884697 37 32 34
-2.730755 11.766333 70.810524 37 32 34
-2.727869 11.906378 70.735680 37 33 34
-2.724945 12.045936 70.659866 36 32 32
-2.721970 12.184937 70.582718 35 31 30
-2.718928 12.323303 70.503845 33 29 28
-2.715803 12.460949 70.422821 31 27 26
-2.712579 12.597780 70.339203 30 24 25
-2.709236 12.733698 70.252525 28 23 23
-2.705759 12.868600 70.162361 28 23 23
-2.702129 13.002382 70.068245 28 23 23
-2.698331 13.134936 69.969757 28 23 24
-2.694348 13.266157 69.866470 28 23 24
-2.690164 13.395931 69.757980 28 23 24
-2.685764 13.524146 69.643867 28 23 24
-2.681129 13.650681 69.523697 28 23 24
-2.676244 13.775406 69.397026 28 23 24
-2.671090 13.898181 69.263359 28 23 24
-2.665644 14.018853 69.122169 29 24 25
-2.659886 14.137254 68.972855 31 25 26
-2.653791 14.253197 68.814789 34 28 28
-2.866532 -17.806431 78.732307 117 63 74
-2.861202 -17.603914 78.585899 117 65 76
-2.856076 -17.403278 78.445122 118 66 78
-2.851158 -17.204500 78.310043 119 69 81
-2.846452 -17.007570 78.180779 120 72 84
-2.841962 -16.812477 78.057465 123 75 87
-2.837695 -16.619221 77.940262 125 77 89
-2.833657 -16.427797 77.829353 128 80 91
-2.829856 -16.238216 77.724968 131 81 93
-2.826302 -16.050480 77.627335 134 81 95
-2.823000 -15.864587 77.536644 132 77 93
-2.819957 -15.680524 77.453072 141 82 102
-2.817177 -15.498269 77.376724 179 120 144
-2.814662 -15.317780 77.307625 211 153 181
-2.812406 -15.138989 77.245674 184 122 152
-2.810401 -14.961802 77.190620 141 76 108
-2.808634 -14.786100 77.142067 131 65 97
-2.807082 -14.611730 77.099449 137 71 101
-2.805719 -14.438516 77.062019 140 75 103
-2.804513 -14.266258 77.028870 140 77 102
-2.803424 -14.094738 76.998978 139 79 102
-2.802412 -13.923723 76.971169 138 80 100
-2.801428 -13.752973 76.944168 136 81 99
-2.800426 -13.582248 76.916649 135 82 99
-2.799357 -13.411321 76.887291 132 82 100
-2.798173 -13.239974 76.854759 126 77 97
-2.796828 -13.068015 76.817810 116 70 92
-2.795280 -12.895280 76.775291 114 70 95
-2.793491 -12.721633 76.726166 129 85 113
-2.791431 -12.546975 76.669571 144 101 130
-2.789073 -12.371244 76.604820 142 99 127
-2.786401 -12.194416 76.531425 134 89 114
-2.783405 -12.016503 76.449127 136 90 111
-2.780081 -11.837552 76.357826 142 96 114
-2.776434 -11.657640 76.257675 148 101 116
-2.772477 -11.476871 76.148979 150 104 115
-2.768228 -11.295382 76.032280 150 104 114
-2.763711 -11.113320 75.908226 150 103 112
-2.758956 -10.930850 75.777634 149 102 109
-2.753998 -10.748146 75.641426 147 100 107
-2.748872 -10.565389 75.500656 147 97 105
-2.743620 -10.382757 75.356392 147 95 105
-2.738282 -10.200430 75.209778 147 93 104
-2.732900 -10.018573 75.061951 148 91 103
-2.727515 -9.837344 74.914062 150 91 103
-2.722168 -9.656886 74.767197 150 90 102
-2.716896 -9.477323 74.622398 145 84 96
-2.711733 -9.298759 74.480598 137 78 89
-2.706711 -9.121278 74.342644 134 79 88
-2.701854 -8.944942 74.209251 136 85 91
-2.697185 -8.769789 74.081001 137 90 95
-2.692718 -8.595836 73.958313 139 95 101
-2.688464 -8.423079 73.841484 143 102 107
-2.684428 -8.251495 73.730621 148 108 113
-2.680609 -8.081043 73.625725 153 115 120
-2.677000 -7.911665 73.526604 159 122 127
-2.673590 -7.743291 73.432945 164 127 133
-2.670363 -7.575839 73.344307 166 128 136
-2.667299 -7.409223 73.260155 166 129 137
-2.664375 -7.243351 73.179863 166 130 137
-2.661567 -7.078132 73.102730 165 130 138
-2.658848 -6.913477 73.028053 164 131 139
-2.656191 -6.749302 72.955078 163 132 140
-2.653569 -6.585528 72.883064 162 134 141
-2.650958 -6.422090 72.811325 160 135 143
-2.648333 -6.258930 72.739235 161 139 146
-2.645676 -6.096006 72.666252 162 143 150
-2.642969 -5.933287 72.591927 163 148 154
-2.640203 -5.770757 72.515938 167 155 160
-2.637368 -5.608409 72.438087 173 162 167
-2.634464 -5.446252 72.358299 177 167 173
-2.631491 -5.284303 72.276665 178 170 177
-2.628458 -5.122587 72.193352 180 172 180
-2.625376 -4.961138 72.108688 183 175 184
-2.622258 -4.799989 72.023064 187 178 188
-2.619123 -4.639180 71.936966 190 181 190
-2.615991 -4.478745 71.850937 187 179 188
-2.612881 -4.318718 71.765526 181 172 181
-2.609814 -4.159129 71.681290 177 168 177
-2.606811 -3.999999 71.598785 179 168 176
-2.603887 -3.841344 71.518494 180 168 176
-2.601061 -3.683171 71.440865 180 167 175
-2.598344 -3.525483 71.366249 177 163 171
-2.595748 -3.368273 71.294937 174 159 167
-2.593279 -3.211527 71.227127 175 159 166
-2.590940 -3.055228 71.162895 177 159 166
-2.588734 -2.899353 71.102287 176 156 164
-2.586657 -2.743878 71.045250 174 153 161
-2.584706 -2.588774 70.991669 172 149 157
-2.582875 -2.434014 70.941376 168 144 153
-2.581156 -2.279571 70.894157 165 139 149
-2.579541 -2.125416 70.849792 161 134 145
-2.578020 -1.971524 70.808022 157 128 139
-2.576584 -1.817873 70.768578 154 124 136
-2.575224 -1.664441 70.731216 152 122 134
-2.573930 -1.511208 70.695679 152 121 132
-2.572694 -1.358160 70.661728 152 120 131
-2.571507 -1.205281 70.629143 153 121 132
-2.570363 -1.052559 70.597717 153 121 132
-2.569255 -0.899986 70.567276 154 122 132
-2.568177 -0.747553 70.537659 155 123 133
-2.567124 -0.595254 70.508751 156 124 133
-2.566094 -0.443083 70.480453 157 124 134
-2.565084 -0.291036 70.452705 158 123 134
-2.564093 -0.139110 70.425507 158 123 133
-2.563124 0.012699 70.398895 161 124 135
-2.562180 0.164395 70.372948 170 131 143
-2.561265 0.315982 70.347816 185 143 157
-2.560387 0.467468 70.323715 193 148 164
-2.559556 0.618861 70.300888 185 138 153
-2.558784 0.770174 70.279694 173 126 139
-2.558087 0.921422 70.260544 164 118 127
-2.557481 1.072626 70.243896 152 106 111
-2.556985 1.223811 70.230263 152 107 107
-2.556619 1.375007 70.220230 166 123 117
-2.556407 1.526251 70.214401 171 129 119
-2.556371 1.677586 70.213409 181 140 130
-2.556534 1.829059 70.217888 216 176 168
-2.556920 1.980725 70.228493 228 184 180
-2.557552 2.132640 70.245834 201 152 153
-2.558449 2.284868 70.270485 178 127 132
-2.559631 2.437473 70.302933 172 122 131
-2.561111 2.590520 70.343613 166 118 130
-2.562903 2.744076 70.392830 144 101 113
-2.565012 2.898202 70.450752 134 94 106
-2.567439 3.052955 70.517403 159 122 134
-2.570178 3.208387 70.592644 187 152 163
-2.573218 3.364534 70.676117 191 157 168
-2.576538 3.521426 70.767311 184 151 161
-2.580112 3.679073 70.865471 179 145 155
-2.583906 3.837470 70.969681 176 142 151
-2.587879 3.996592 71.078796 173 140 149
-2.591983 4.156395 71.191536 171 139 147
-2.596167 4.316817 71.306442 170 138 145
-2.600374 4.477774 71.421989 169 137 144
-2.604546 4.639166 71.536575 166 137 143
-2.608625 4.800882 71.648613 146 121 127
-2.612554 4.962797 71.756538 98 78 83
-2.616282 5.124781 71.858917 52 35 39
-2.619760 5.286705 71.954460 40 27 30
-2.622951 5.448441 72.042084 50 38 40
-2.625822 5.609874 72.120941 56 45 47
-2.628352 5.770898 72.190445 56 45 48
-2.630529 5.931425 72.250244 54 43 46
-2.632350 6.091387 72.300262 51 41 44
-2.633821 6.250731 72.340652 49 39 42
-2.634954 6.409429 72.371765 47 36 40
-2.635767 6.567466 72.394112 44 34 38
-2.636285 6.724842 72.408318 41 33 36
-2.636530 6.881571 72.415062 39 31 33
-2.636529 7.037672 72.415047 38 30 32
-2.636308 7.193169 72.408951 37 29 31
-2.635887 7.348087 72.397415 37 28 31
-2.635289 7.502448 72.380974 37 28 30
-2.634529 7.656267 72.360092 38 28 30
-2.633620 7.809556 72.335129 37 27 29
-2.632572 7.962318 72.306358 37 26 28
-2.631393 8.114550 72.273964 37 26 27
-2.630087 8.266242 72.238083 37 26 27
-2.628655 8.417380 72.198776 37 26 27
-2.627102 8.567950 72.156113 38 26 27
-2.625428 8.717936 72.110130 38 27 28
-2.623636 8.867322 72.060898 37 27 28
-2.621728 9.016102 72.008514 36 27 28
-2.619709 9.164267 71.953072 34 27 27
-2.617586 9.311819 71.894745 31 25 25
-2.615365 9.458766 71.833733 30 24 24
-2.613054 9.605123 71.770279 30 24 24
-2.610665 9.750911 71.704643 30 24 24
-2.608207 9.896154 71.637131 30 25 25
-2.605691 10.040888 71.568047 31 25 26
-2.603130 10.185143 71.497696 31 25 26
-2.600533 10.328955 71.426384 31 25 26
-2.597912 10.472358 71.354370 31 25 26
-2.595274 10.615384 71.281921 31 25 26
-2.592628 10.758063 71.209236 31 25 27
-2.589978 10.900415 71.136467 32 27 29
-2.587329 11.042456 71.063705 33 28 30
-2.584682 11.184193 70.991013 34 29 32
-2.582038 11.325624 70.918373 36 30 34
-2.579391 11.466734 70.845673 37 32 36
-2.576737 11.607496 70.772774 39 34 36
-2.574067 11.747877 70.699463 39 34 36
-2.571373 11.887824 70.625458 39 34 35
-2.568642 12.027281 70.550438 37 32 33
-2.565860 12.166175 70.474045 36 32 31
-2.563014 12.304430 70.395874 34 30 29
-2.560087 12.441957 70.315483 31 27 26
-2.557064 12.578659 70.232437 29 24 24
-2.553926 12.714436 70.146263 28 23 23
-2.550659 12.849188 70.056519 28 23 23
-2.547245 12.982805 69.962753 27 23 23
-2.543669 13.115186 69.864540 27 23 23
-2.539917 13.246219 69.761467 27 22 22
-2.535972 13.375797 69.653137 27 22 21
-2.531821 13.503807 69.539131 26 22 21
-2.527449 13.630132 69.419044 26 22 22
-2.522840 13.754644 69.292435 26 22 22
-2.517976 13.877208 69.158836 26 22 22
-2.512838 13.997671 69.017723 27 22 22
-2.507406 14.115870 68.868530 30 24 25
-2.698114 -17.815027 78.770317 116 62 73
-2.693072 -17.612255 78.623131 116 64 74
-2.688216 -17.411316 78.481346 117 65 76
-2.683547 -17.212189 78.345039 118 68 79
-2.679069 -17.014864 78.214310 120 71 83
-2.674787 -16.819334 78.089294 122 74 87
-2.670706 -16.625599 77.970169 125 78 91
-2.666835 -16.433662 77.857140 128 81 94
-2.663180 -16.243538 77.750435 131 84 97
-2.659750 -16.055231 77.650314 133 84 100
-2.656554 -15.868752 77.557007 130 79 97
-2.653598 -15.684093 77.470703 131 79 100
-2.650887 -15.501244 77.391571 164 112 138
-2.648425 -15.320166 77.319664 211 159 189
-2.646208 -15.140805 77.254936 198 141 174
-2.644229 -14.963076 77.197189 149 87 121
-2.642478 -14.786863 77.146049 131 68 101
-2.640935 -14.612026 77.101013 137 74 104
-2.639577 -14.438393 77.061356 141 78 106
-2.638373 -14.265765 77.026215 142 80 104
-2.637289 -14.093928 76.994553 141 81 103
-2.636284 -13.922647 76.965218 140 82 100
-2.635315 -13.751680 76.936935 138 82 98
-2.634336 -13.580785 76.908363 137 82 98
-2.633301 -13.409726 76.878151 134 82 100
-2.632164 -13.238281 76.844940 127 78 97
-2.630880 -13.066252 76.807449 115 67 90
-2.629408 -12.893462 76.764473 115 69 95
-2.627711 -12.719773 76.714951 144 98 128
-2.625760 -12.545076 76.657967 173 128 160
-2.623528 -12.369306 76.592812 164 118 150
-2.620998 -12.192430 76.518967 137 89 118
-2.618160 -12.014459 76.436111 130 79 104
-2.615011 -11.835434 76.344170 135 84 104
-2.611554 -11.655434 76.243248 137 86 103
-2.607800 -11.474563 76.133659 138 87 100
-2.603768 -11.292954 76.015930 138 87 99
-2.599480 -11.110761 75.890739 139 87 98
-2.594964 -10.928146 75.758888 140 88 98
-2.590251 -10.745289 75.621323 141 89 98
-2.585380 -10.562371 75.479088 143 89 100
-2.580385 -10.379574 75.333282 145 89 101
-2.575308 -10.197077 75.185051 146 89 102
-2.570187 -10.015049 75.035553 146 87 100
-2.565062 -9.833649 74.885925 145 85 98
-2.559970 -9.653021 74.737274 143 82 96
-2.554947 -9.473288 74.590622 140 79 92
-2.550025 -9.294556 74.446930 136 78 90
-2.545233 -9.116909 74.307037 134 80 90
-2.540596 -8.940408 74.171638 135 85 92
-2.536132 -8.765091 74.041321 136 90 96
-2.531856 -8.590977 73.916504 138 95 100
-2.527779 -8.418060 73.797478 143 102 107
-2.523905 -8.246319 73.684364 149 108 113
-2.520232 -8.075711 73.577141 155 115 121
-2.516755 -7.906181 73.475632 161 122 128
-2.513464 -7.737660 73.379539 167 126 133
-2.510343 -7.570067 73.288422 168 128 135
-2.507374 -7.403316 73.201759 167 128 135
-2.504537 -7.237319 73.118927 166 128 136
-2.501808 -7.071986 73.039253 165 129 136
-2.499163 -6.907227 72.962036 164 130 136
-2.496577 -6.742961 72.886536 162 132 137
-2.494025 -6.579110 72.812027 160 134 139
-2.491484 -6.415608 72.737839 159 137 140
-2.488932 -6.252400 72.663345 159 141 144
-2.486351 -6.089442 72.588013 161 146 149
-2.483727 -5.926705 72.511391 164 151 154
-2.481048 -5.764170 72.433174 170 159 162
-2.478307 -5.601833 72.353149 177 167 172
-2.475502 -5.439700 72.271263 180 171 178
-2.472635 -5.277788 72.187561 178 170 179
-2.469713 -5.116123 72.102249 180 172 181
-2.466746 -4.954735 72.015625 183 175 185
-2.463747 -4.793660 71.928085 187 177 188
-2.460735 -4.632935 71.840134 188 178 190
-2.457726 -4.472596 71.752289 185 175 186
-2.454740 -4.312676 71.665108 177 167 178
-2.451796 -4.153204 71.579178 175 165 175
-2.448914 -3.994203 71.495041 177 166 175
-2.446111 -3.835688 71.413193 178 165 174
-2.443401 -3.677667 71.334091 179 164 173
-2.440799 -3.520141 71.258110 178 162 170
-2.438313 -3.363104 71.185547 176 159 167
-2.435951 -3.206543 71.116600 177 159 166
-2.433717 -3.050440 71.051369 178 159 166
-2.431612 -2.894770 70.989906 178 157 165
-2.429633 -2.739509 70.932144 176 154 162
-2.427778 -2.584628 70.877975 173 150 158
-2.426039 -2.430098 70.827225 170 145 154
-2.424410 -2.275889 70.779663 166 139 150
-2.422882 -2.121973 70.735039 162 134 145
-2.421445 -1.968324 70.693085 158 129 141
-2.420089 -1.814917 70.653496 155 125 137
-2.418804 -1.661729 70.615997 154 122 134
-2.417581 -1.508742 70.580284 153 120 132
-2.416411 -1.355937 70.546112 151 119 131
-2.415283 -1.203302 70.513199 151 118 130
-2.414191 -1.050824 70.481331 151 118 129
-2.413128 -0.898494 70.450279 151 119 129
-2.412087 -0.746305 70.419891 153 120 129
-2.411064 -0.594251 70.390007 154 122 130
-2.410054 -0.442329 70.360542 156 123 131
-2.409057 -0.290535 70.331436 157 123 132
-2.408073 -0.138867 70.302689 158 123 132
-2.407103 0.012676 70.274368 164 126 137
-2.406151 0.164099 70.246574 179 138 150
-2.405223 0.315406 70.219505 191 148 162
-2.404329 0.466602 70.193398 188 141 158
-2.403478 0.617696 70.168564 177 129 146
-2.402686 0.768703 70.145416 170 123 138
-2.401966 0.919637 70.124405 161 114 127
-2.401338 1.070521 70.106071 151 106 113
-2.400821 1.221384 70.090981 157 112 114
-2.400437 1.372256 70.079758 170 127 122
-2.400207 1.523179 70.073051 170 129 120
-2.400156 1.674197 70.071564 187 149 138
-2.400306 1.825362 70.075935 226 192 181
-2.400680 1.976730 70.086861 221 182 176
-2.401300 2.128363 70.104950 182 136 135
-2.402184 2.280325 70.130783 172 123 128
-2.403351 2.432684 70.164841 178 130 139
-2.404813 2.585508 70.207512 164 118 130
-2.406579 2.738862 70.259079 138 96 108
-2.408654 2.892809 70.319664 141 102 113
-2.411037 3.047406 70.389229 173 137 148
-2.413720 3.202702 70.467552 190 155 166
-2.416689 3.358732 70.554230 184 151 161
-2.419923 3.515521 70.648643 178 146 155
-2.423393 3.673077 70.749977 175 143 152
-2.427067 3.831388 70.857208 173 141 149
-2.430901 3.990426 70.969147 172 140 147
-2.434849 4.150141 71.084412 171 139 146
-2.438859 4.310463 71.201492 170 138 145
-2.442878 4.471305 71.318817 168 138 144
-2.446848 4.632561 71.434723 162 134 139
-2.450715 4.794115 71.547615 137 112 116
-2.454424 4.955837 71.655907 88 67 71
-2.457927 5.117596 71.758163 46 30 33
-2.461179 5.279259 71.853127 40 27 28
-2.464146 5.440700 71.939728 50 38 39
-2.466799 5.601802 72.017174 55 44 45
-2.469119 5.762462 72.084908 54 44 45
-2.471097 5.922594 72.142662 51 41 43
-2.472733 6.082131 72.190407 49 39 42
-2.474033 6.241030 72.228371 47 37 40
-2.475013 6.399263 72.256973 44 35 38
-2.475691 6.556821 72.276772 41 33 36
-2.476091 6.713711 72.288460 39 31 34
-2.476239 6.869950 72.292770 38 30 32
-2.476159 7.025563 72.290451 37 29 31
-2.475877 7.180579 72.282211 36 28 30
-2.475415 7.335026 72.268723 37 28 31
-2.474793 7.488930 72.250557 37 29 31
-2.474026 7.642310 72.228180 38 29 30
-2.473128 7.795179 72.201958 38 28 29
-2.472108 7.947542 72.172173 38 27 28
-2.470972 8.099397 72.139008 37 27 28
-2.469724 8.250735 72.102570 37 27 28
-2.468366 8.401542 72.062927 38 27 27
-2.466900 8.551802 72.020119 38 27 28
-2.465326 8.701499 71.974174 39 28 28
-2.463647 8.850617 71.925148 38 28 28
-2.461864 8.999146 71.873093 37 28 28
-2.459981 9.147079 71.818123 35 27 27
-2.458002 9.294413 71.760353 33 26 26
-2.455934 9.441154 71.699982 32 25 25
-2.453785 9.587317 71.637238 31 25 25
-2.451563 9.732922 71.572365 31 25 25
-2.449277 9.877991 71.505646 31 26 25
-2.446939 10.022555 71.437378 32 26 26
-2.444558 10.166648 71.367867 32 26 27
-2.442144 10.310303 71.297401 32 26 27
-2.439707 10.453552 71.226242 32 26 27
-2.437255 10.596430 71.154640 33 26 27
-2.434794 10.738961 71.082802 33 27 28
-2.432329 10.881167 71.010857 34 28 30
-2.429865 11.023064 70.938911 35 29 31
-2.427402 11.164658 70.867020 36 30 33
-2.424941 11.305945 70.795151 38 32 36
-2.422476 11.446911 70.723198 39 34 37
-2.420004 11.587527 70.651009 40 35 38
-2.417516 11.727758 70.578384 40 35 37
-2.415003 11.867551 70.505013 39 34 35
-2.412453 12.006848 70.430580 37 32 33
-2.409855 12.145577 70.354729 36 32 32
-2.407194 12.283658 70.277031 34 30 29
-2.404454 12.421000 70.197060 31 27 26
-2.401622 12.557509 70.114357 28 23 24
-2.398680 12.693085 70.028465 27 22 23
-2.395613 12.827621 69.938934 27 22 23
-2.392407 12.961017 69.845329 27 22 22
-2.389046 13.093162 69.747215 27 22 21
-2.385518 13.223954 69.644211 26 21 20
-2.381808 13.353286 69.535912 25 21 19
-2.377904 13.481047 69.421921 24 21 19
-2.373791 13.607122 69.301857 24 21 19
-2.369456 13.731390 69.175285 24 21 20
-2.364882 13.853717 69.041771 25 21 21
-2.360054 13.973957 68.900795 27 22 22
-2.354951 14.091950 68.751831 29 24 25
-2.534269 -18.027210 78.955933 114 61 72
-2.529364 -17.822445 78.803116 114 62 72
-2.524622 -17.619478 78.655380 115 63 73
-2.520046 -17.418297 78.512817 116 64 75
-2.515638 -17.218878 78.375481 117 66 78
-2.511402 -17.021215 78.243500 119 69 81
-2.507342 -16.825302 78.117004 121 73 85
-2.503464 -16.631144 77.996178 124 78 91
-2.499774 -16.438745 77.881218 127 82 96
-2.496280 -16.248123 77.772385 130 86 100
-2.492993 -16.059292 77.669945 131 87 102
-2.489918 -15.872263 77.574158 128 84 101
-2.487065 -15.687043 77.485268 127 80 102
-2.484439 -15.503625 77.403458 149 102 128
-2.482044 -15.321985 77.328850 189 141 170
-2.479881 -15.142078 77.261436 187 135 167
-2.477943 -14.963827 77.201065 151 94 127
-2.476221 -14.787126 77.147423 134 75 107
-2.474700 -14.611842 77.100037 137 77 107
-2.473358 -14.437808 77.058235 141 80 108
-2.472169 -14.264833 77.021179 142 81 107
-2.471100 -14.092704 76.987869 142 82 104
-2.470113 -13.921185 76.957138 141 82 101
-2.469169 -13.750031 76.927711 139 82 98
-2.468224 -13.579000 76.898254 137 82 98
-2.467233 -13.407850 76.867393 134 82 99
-2.466152 -13.236352 76.833733 128 79 98
-2.464940 -13.064297 76.795959 117 70 92
-2.463555 -12.891505 76.752815 115 69 94
-2.461963 -12.717827 76.703209 143 98 127
-2.460133 -12.543148 76.646187 177 132 163
-2.458040 -12.367394 76.580978 171 124 155
-2.455666 -12.190530 76.507034 141 91 120
-2.453001 -12.012556 76.424011 130 77 103
-2.450042 -11.833515 76.331795 133 78 100
-2.446789 -11.653481 76.230469 133 77 96
-2.443255 -11.472558 76.120361 131 75 90
-2.439455 -11.290877 76.001953 128 73 86
-2.435410 -11.108594 75.875938 127 72 84
-2.431147 -10.925873 75.743126 128 72 84
-2.426696 -10.742892 75.604462 133 76 88
-2.422091 -10.559837 75.460991 138 80 93
-2.417367 -10.376892 75.313820 143 84 99
-2.412562 -10.194236 75.164108 146 87 102
-2.407712 -10.012040 75.013008 145 85 101
-2.402855 -9.830465 74.861679 141 81 97
-2.398025 -9.649655 74.711212 137 76 94
-2.393257 -9.469736 74.562660 136 76 93
-2.388580 -9.290812 74.416946 137 79 95
-2.384022 -9.112968 74.274925 136 82 96
-2.379604 -8.936267 74.137291 136 85 96
-2.375346 -8.760748 74.004631 135 89 98
-2.371261 -8.586428 73.877373 137 95 102
-2.367359 -8.413305 73.755798 143 101 107
-2.363644 -8.241358 73.640038 151 110 115
-2.360114 -8.070545 73.530075 161 120 126
-2.356766 -7.900814 73.425751 167 126 132
-2.353589 -7.732097 73.326782 165 123 130
-2.350570 -7.564314 73.232735 164 121 128
-2.347693 -7.397383 73.143089 164 122 130
-2.344938 -7.231217 73.057274 164 124 132
-2.342285 -7.065727 72.974609 163 126 133
-2.339711 -6.900826 72.894417 162 128 133
-2.337193 -6.736434 72.815979 161 131 135
-2.334709 -6.572474 72.738586 161 135 138
-2.332238 -6.408882 72.661583 161 139 142
-2.329759 -6.245603 72.584351 161 144 146
-2.327255 -6.082592 72.506348 162 149 151
-2.324714 -5.919821 72.427170 166 155 158
-2.322124 -5.757270 72.346466 173 163 167
-2.319478 -5.594935 72.264053 180 171 176
-2.316776 -5.432821 72.179863 182 173 179
-2.314018 -5.270944 72.093941 180 171 179
-2.311211 -5.109328 72.006485 180 171 180
-2.308364 -4.948004 71.917786 182 173 184
-2.305490 -4.787006 71.828255 184 174 186
-2.302605 -4.626371 71.738365 185 174 186
-2.299725 -4.466136 71.648651 182 170 182
-2.296869 -4.306330 71.559662 178 165 177
-2.294055 -4.146985 71.471992 176 164 175
-2.291301 -3.988121 71.386185 175 163 173
-2.288623 -3.829756 71.302757 175 162 171
-2.286036 -3.671896 71.222160 176 161 170
-2.283553 -3.514543 71.144791 177 161 170
-2.281183 -3.357690 71.070953 178 160 169
-2.278933 -3.201325 71.000854 180 160 168
-2.276807 -3.045427 70.934616 181 160 168
-2.274806 -2.889974 70.872276 181 159 166
-2.272928 -2.734938 70.813782 179 155 163
-2.271171 -2.580291 70.759026 175 150 159
-2.269527 -2.426001 70.707817 171 144 153
-2.267990 -2.272038 70.659912 166 139 149
-2.266550 -2.118374 70.615051 162 134 145
-2.265198 -1.964978 70.572922 159 129 141
-2.263923 -1.811827 70.533203 156 125 138
-2.262715 -1.658896 70.495590 154 122 135
-2.261565 -1.506165 70.459740 153 119 132
-2.260461 -1.353616 70.425362 152 118 131
-2.259395 -1.201236 70.392151 151 117 130
-2.258358 -1.049013 70.359840 150 117 129
-2.257342 -0.896937 70.328194 151 119 128
-2.256342 -0.745003 70.297020 153 121 129
-2.255351 -0.593206 70.266159 155 123 130
-2.254368 -0.441543 70.235512 157 124 130
-2.253389 -0.290013 70.205009 158 124 130
-2.252415 -0.138615 70.174690 160 124 132
-2.251450 0.012653 70.144600 173 134 143
-2.250497 0.163792 70.114914 194 152 164
-2.249564 0.314805 70.085854 197 152 166
-2.248660 0.465700 70.057701 180 132 150
-2.247798 0.616484 70.030823 168 120 139
-2.246991 0.767171 70.005699 164 117 134
-2.246257 0.917780 69.982834 158 111 126
-2.245615 1.068334 69.962822 157 111 122
-2.245084 1.218862 69.946289 166 122 127
-2.244687 1.369401 69.933922 174 131 129
-2.244447 1.519992 69.926414 173 132 126
-2.244385 1.670683 69.924500 195 159 150
-2.244525 1.821531 69.928864 229 199 190
-2.244889 1.972594 69.940201 214 177 171
-2.245497 2.123936 69.959145 173 129 128
-2.246367 2.275626 69.986252 172 125 131
-2.247514 2.427732 70.022003 179 134 143
-2.248951 2.580324 70.066750 158 115 127
-2.250683 2.733468 70.120720 136 96 108
-2.252714 2.887227 70.183983 152 115 126
-2.255039 3.041657 70.256432 184 149 160
-2.257650 3.196804 70.337791 189 156 166
-2.260531 3.352701 70.427551 178 146 155
-2.263660 3.509370 70.525032 173 142 151
-2.267008 3.666813 70.629333 172 142 150
-2.270540 3.825015 70.739349 171 140 147
-2.274213 3.983941 70.853806 170 138 145
-2.277984 4.143536 70.971275 169 138 145
-2.281800 4.303725 71.090187 168 137 143
-2.285611 4.464415 71.208900 167 136 142
-2.289361 4.625494 71.325752 158 129 134
-2.293000 4.786844 71.439110 128 103 107
-2.296475 4.948332 71.547394 79 59 62
-2.299743 5.109824 71.649193 45 29 30
-2.302762 5.271186 71.743240 41 28 29
-2.305500 5.432292 71.828545 49 38 38
-2.307932 5.593025 71.904335 52 42 42
-2.310044 5.753285 71.970123 51 41 42
-2.311827 5.912991 72.025696 49 39 41
-2.313284 6.072078 72.071083 47 37 39
-2.314424 6.230506 72.106583 45 35 38
-2.315261 6.388254 72.132660 42 33 37
-2.315816 6.545315 72.149948 40 32 35
-2.316112 6.701704 72.159180 38 30 33
-2.316175 6.857440 72.161125 36 28 31
-2.316029 7.012553 72.156578 35 27 30
-2.315698 7.167076 72.146286 36 28 30
-2.315205 7.321041 72.130936 36 29 31
-2.314569 7.474475 72.111107 37 29 31
-2.313804 7.627402 72.087288 38 29 31
-2.312924 7.779836 72.059853 38 29 30
-2.311936 7.931784 72.029076 38 28 29
-2.310847 8.083243 71.995132 37 27 29
-2.309659 8.234207 71.958138 37 27 28
-2.308375 8.384660 71.918129 38 27 28
-2.306996 8.534589 71.875153 39 28 29
-2.305521 8.683973 71.829216 39 28 29
-2.303952 8.832799 71.780342 39 28 29
-2.302291 8.981054 71.728592 38 28 28
-2.300540 9.128728 71.674034 36 27 27
-2.298703 9.275819 71.616798 34 26 26
-2.296785 9.422332 71.557037 33 26 26
-2.294793 9.568277 71.494965 32 26 26
-2.292734 9.713675 71.430824 32 26 26
-2.290617 9.858545 71.364876 32 27 26
-2.288451 10.002917 71.297409 33 27 27
-2.286246 10.146823 71.228699 34 27 27
-2.284010 10.290295 71.159042 34 27 28
-2.281752 10.433365 71.088692 35 27 29
-2.279479 10.576061 71.017868 36 28 29
-2.277198 10.718413 70.946793 36 29 30
-2.274912 10.860440 70.875587 36 30 32
-2.272625 11.002153 70.804337 37 31 33
-2.270339 11.143561 70.733109 38 32 35
-2.268052 11.284659 70.661858 40 34 37
-2.265761 11.425429 70.590477 40 35 38
-2.263461 11.565845 70.518814 40 35 38
-2.261144 11.705869 70.446648 39 35 37
-2.258802 11.845446 70.373680 38 34 35
-2.256425 11.984518 70.299599 37 32 33
-2.253999 12.123013 70.224022 36 31 31
-2.251512 12.260851 70.146545 33 29 29
-2.248950 12.397940 70.066727 31 27 27
-2.246299 12.534185 69.984123 29 24 25
-2.243543 12.669485 69.898270 27 23 23
-2.240669 12.803741 69.808731 27 22 22
-2.237663 12.936844 69.715065 26 21 21
-2.234511 13.068693 69.616875 25 21 19
-2.231202 13.199186 69.513771 24 20 18
-2.227722 13.328217 69.405365 23 20 18
-2.224061 13.455682 69.291306 23 19 17
-2.220206 13.581467 69.171188 23 20 18
-2.216144 13.705456 69.044640 23 20 19
-2.211861 13.827521 68.911217 26 21 21
-2.207343 13.947522 68.770454 28 23 23
-2.369612 -18.240091 79.141113 112 62 73
-2.364890 -18.033489 78.983429 113 61 72
-2.360312 -17.828644 78.830521 114 62 72
-2.355879 -17.625549 78.682480 115 63 73
-2.351594 -17.424189 78.539375 115 64 74
-2.347460 -17.224545 78.401276 115 65 76
-2.343478 -17.026609 78.268295 116 67 79
-2.339653 -16.830378 78.140564 119 71 84
-2.335991 -16.635853 78.018257 124 77 92
-2.332498 -16.443047 77.901588 128 82 98
-2.329182 -16.251976 77.790833 130 86 102
-2.326051 -16.062664 77.686256 131 88 105
-2.323114 -15.875130 77.588173 130 88 106
-2.320379 -15.689384 77.496834 130 86 107
-2.317854 -15.505434 77.412498 139 93 118
-2.315543 -15.323264 77.335304 156 108 136
-2.313447 -15.142838 77.265312 157 106 136
-2.311563 -14.964088 77.202415 143 89 120
-2.309886 -14.786923 77.146362 137 80 110
-2.308399 -14.611214 77.096725 139 80 109
-2.307086 -14.436803 77.052872 141 80 109
-2.305923 -14.263504 77.014008 143 82 108
-2.304878 -14.091106 76.979141 144 83 106
-2.303920 -13.919376 76.947144 143 83 103
-2.303010 -13.748071 76.916740 141 82 100
-2.302107 -13.576938 76.886574 138 82 98
-2.301169 -13.405733 76.855263 134 82 98
-2.300155 -13.234221 76.821373 129 81 98
-2.299022 -13.062187 76.783554 120 74 94
-2.297734 -12.889441 76.740532 112 68 91
-2.296255 -12.715825 76.691139 124 81 107
-2.294556 -12.541218 76.634392 149 106 134
-2.292612 -12.365535 76.569466 156 111 139
-2.290406 -12.188735 76.495773 144 95 123
-2.287925 -12.010817 76.412941 137 85 110
-2.285167 -11.831812 76.320801 137 82 105
-2.282132 -11.651795 76.219444 135 78 98
-2.278830 -11.470869 76.109154 130 72 89
-2.275274 -11.289163 75.990410 125 66 82
-2.271486 -11.106830 75.863884 120 62 76
-2.267489 -10.924037 75.730400 119 60 74
-2.263312 -10.740964 75.590881 124 63 78
-2.258986 -10.557796 75.446396 131 70 86
-2.254544 -10.374718 75.298042 140 79 96
-2.250021 -10.191914 75.146988 145 85 103
-2.245452 -10.009554 74.994377 144 84 102
-2.240870 -9.827800 74.841377 139 79 100
-2.236310 -9.646796 74.689079 136 76 98
-2.231803 -9.466672 74.538536 136 76 99
-2.227376 -9.287533 74.390678 138 80 103
-2.223055 -9.109465 74.246361 139 83 104
-2.218860 -8.932528 74.106277 136 85 102
-2.214810 -8.756768 73.971008 133 86 100
-2.210917 -8.582201 73.840996 135 91 102
-2.207191 -8.408827 73.716537 141 98 107
-2.203635 -8.236627 73.597763 155 113 120
-2.200248 -8.065561 73.484665 179 138 145
-2.197028 -7.895581 73.377121 188 148 154
-2.193965 -7.726618 73.274826 172 129 135
-2.191049 -7.558600 73.177414 158 114 120
-2.188263 -7.391444 73.084366 160 117 123
-2.185591 -7.225065 72.995125 162 121 128
-2.183013 -7.059379 72.909050 161 124 129
-2.180511 -6.894300 72.825478 161 126 131
-2.178063 -6.729748 72.743713 161 131 135
-2.175648 -6.565650 72.663063 162 136 139
-2.173248 -6.401942 72.582893 161 140 142
-2.170843 -6.238568 72.502594 162 145 147
-2.168420 -6.075486 72.421646 166 152 155
-2.165964 -5.912665 72.339622 171 159 162
-2.163466 -5.750087 72.256210 178 167 171
-2.160921 -5.587745 72.171196 182 172 177
-2.158326 -5.425644 72.084518 182 172 179
-2.155682 -5.263799 71.996216 182 172 181
-2.152995 -5.102232 71.906487 182 172 182
-2.150274 -4.940974 71.815613 183 173 183
-2.147531 -4.780057 71.723991 184 172 185
-2.144779 -4.619518 71.632088 185 171 184
-2.142035 -4.459390 71.540436 183 168 181
-2.139315 -4.299706 71.449585 179 165 177
-2.136636 -4.140495 71.360138 175 161 173
-2.134016 -3.981777 71.272629 173 159 170
-2.131470 -3.823570 71.187584 173 158 168
-2.129011 -3.665880 71.105469 174 159 168
-2.126652 -3.508708 71.026680 176 159 169
-2.124403 -3.352049 70.951538 178 159 169
-2.122268 -3.195888 70.880264 181 160 169
-2.120254 -3.040205 70.812988 184 160 169
-2.118361 -2.884978 70.749748 183 158 167
-2.116587 -2.730177 70.690506 180 154 163
-2.114929 -2.575773 70.635139 175 149 157
-2.113382 -2.421734 70.583458 169 143 151
-2.111937 -2.268029 70.535210 165 137 147
-2.110586 -2.114625 70.490105 162 133 143
-2.109320 -1.961495 70.447815 159 128 139
-2.108128 -1.808610 70.407990 156 123 135
-2.106998 -1.655947 70.370277 153 120 132
-2.105922 -1.503483 70.334305 152 118 130
-2.104887 -1.351202 70.299744 152 118 130
-2.103884 -1.199088 70.266243 151 117 130
-2.102904 -1.047130 70.233521 152 119 130
-2.101939 -0.895319 70.201294 153 121 130
-2.100982 -0.743650 70.169350 155 123 131
-2.100029 -0.592120 70.137505 158 124 132
-2.099076 -0.440727 70.105659 159 125 132
-2.098120 -0.289471 70.073753 160 125 132
-2.097164 -0.138352 70.041824 165 128 136
-2.096210 0.012629 70.009964 183 143 153
-2.095264 0.163473 69.978363 203 160 172
-2.094333 0.314183 69.947281 195 149 164
-2.093429 0.464765 69.917068 173 125 143
-2.092563 0.615228 69.888153 164 116 135
-2.091751 0.765586 69.861046 158 111 131
-2.091012 0.915859 69.836334 155 110 126
-2.090363 1.066072 69.814674 164 119 132
-2.089826 1.216256 69.796753 172 128 138
-2.089424 1.366451 69.783302 178 135 139
-2.089177 1.516702 69.775070 187 146 147
-2.089110 1.667059 69.772820 209 175 173
-2.089243 1.817582 69.777267 226 196 194
-2.089598 1.968333 69.789131 206 167 167
-2.090194 2.119379 69.809021 175 130 134
-2.091046 2.270789 69.837502 175 131 139
-2.092170 2.422636 69.875015 174 132 142
-2.093573 2.574989 69.921883 151 110 122
-2.095261 2.727915 69.978271 142 104 116
-2.097235 2.881477 70.044205 167 131 142
-2.099490 3.035728 70.119492 190 156 165
-2.102013 3.190713 70.203773 185 153 162
-2.104789 3.346462 70.296478 174 143 151
-2.107794 3.502991 70.396828 170 140 148
-2.110998 3.660299 70.503845 170 140 147
-2.114367 3.818365 70.616356 168 138 145
-2.117859 3.977149 70.733002 168 137 143
-2.121431 4.136590 70.852303 168 137 143
-2.125034 4.296608 70.972633 167 136 142
-2.128618 4.457106 71.092331 165 134 140
-2.132132 4.617969 71.209702 153 124 129
-2.135528 4.779071 71.323105 119 94 98
-2.138758 4.940281 71.430977 72 52 55
-2.141780 5.101461 71.531929 44 29 30
-2.144559 5.262479 71.624741 43 30 31
-2.147065 5.423208 71.708443 48 37 37
-2.149278 5.583535 71.782333 50 40 40
-2.151184 5.743361 71.845978 48 38 39
-2.152778 5.902608 71.899223 47 37 38
-2.154064 6.061217 71.942169 45 35 37
-2.155051 6.219151 71.975159 43 33 36
-2.155757 6.376391 71.998718 41 32 35
-2.156200 6.532939 72.013519 38 30 33
-2.156404 6.688810 72.020348 37 29 31
