ply
format ascii 1.0
element vertex 1248
property float x
property float y
property float z
property uchar red
property uchar green
property uchar blue
end_header
1.098864 -3.077992 71.693123 115 56 58
1.099665 -2.925578 71.745407 116 57 58
1.100420 -2.772822 71.794685 117 57 60
1.101131 -2.619747 71.841049 118 58 62
1.101799 -2.466378 71.884651 119 59 64
1.102428 -2.312739 71.925690 120 61 67
1.103022 -2.158853 71.964401 120 62 70
1.103584 -2.004743 72.001068 117 62 71
1.104119 -1.850429 72.035980 114 60 71
1.104632 -1.695932 72.069473 112 59 70
1.105129 -1.541267 72.101868 111 59 69
1.105614 -1.386448 72.133507 110 58 68
1.106092 -1.231485 72.164703 111 58 68
1.106568 -1.076385 72.195786 113 58 67
1.107047 -0.921154 72.227043 114 59 67
1.107533 -0.765793 72.258728 116 60 66
1.108029 -0.610301 72.291084 117 60 66
1.108538 -0.454674 72.324287 118 60 66
1.109062 -0.298909 72.358498 117 59 65
1.109603 -0.142998 72.393806 116 58 64
1.110162 0.013065 72.430283 115 58 63
1.110740 0.169289 72.467949 115 58 63
1.111335 0.325679 72.506767 116 58 64
1.111947 0.482245 72.546684 116 59 64
1.112574 0.638991 72.587601 116 60 65
1.113214 0.795923 72.629372 117 61 66
1.113865 0.953045 72.671844 117 62 67
1.114524 1.110357 72.714836 118 62 67
1.115188 1.267861 72.758133 118 63 68
1.115853 1.425552 72.801537 119 64 69
1.116516 1.583429 72.844818 119 64 70
1.117174 1.741484 72.887764 117 62 68
1.117825 1.899710 72.930191 114 59 66
1.118464 2.058100 72.971901 113 57 66
1.119090 2.216643 73.012749 113 57 66
1.119701 2.375329 73.052605 114 57 67
1.120295 2.534151 73.091377 115 58 68
1.120872 2.693098 73.129036 116 60 68
1.121432 2.852162 73.165543 117 61 69
1.121974 3.011338 73.200920 117 62 69
1.122500 3.170619 73.235214 117 62 70
1.123010 3.330002 73.268494 116 60 69
1.123506 3.489484 73.300827 113 58 68
1.123988 3.649061 73.332291 111 56 66
1.124458 3.808734 73.362976 110 55 64
1.124917 3.968499 73.392921 110 56 63
1.125366 4.128356 73.422195 110 57 63
1.125805 4.288301 73.450836 109 57 63
1.126234 4.448333 73.478867 108 57 63
1.126655 4.608449 73.506302 108 57 62
1.127067 4.768646 73.533173 107 56 61
1.127470 4.928924 73.559502 106 56 59
1.127867 5.089280 73.585350 105 55 57
1.128256 5.249720 73.610794 104 53 56
1.128642 5.410249 73.635956 104 51 55
1.129026 5.570878 73.661011 103 48 53
1.129411 5.731622 73.686142 103 47 52
1.129802 5.892500 73.711617 104 48 54
1.130201 6.053538 73.737686 105 50 56
1.130615 6.214765 73.764671 107 52 57
1.131047 6.376213 73.792862 106 54 59
1.131502 6.537916 73.822563 104 54 59
1.131985 6.699909 73.854057 101 53 57
1.132499 6.862226 73.887566 98 51 55
1.133046 7.024893 73.923248 96 50 54
1.133628 7.187938 73.961220 94 50 54
1.134245 7.351372 74.001480 93 49 54
1.134896 7.515206 74.043961 91 49 55
1.135578 7.679434 74.088470 89 50 56
1.136287 7.844040 74.134750 88 50 56
1.137018 8.008997 74.182426 88 51 57
1.137763 8.174264 74.231049 89 52 57
1.138515 8.339787 74.280090 89 52 57
1.139264 8.505503 74.328972 90 52 57
1.140001 8.671335 74.377037 91 52 58
1.140715 8.837201 74.423645 92 52 58
1.141397 9.003009 74.468109 92 51 57
1.142035 9.168663 74.509766 91 49 55
1.142621 9.334064 74.547958 89 47 53
1.143144 9.499111 74.582092 87 45 50
1.143596 9.663705 74.611588 86 44 49
1.143970 9.827755 74.635986 85 43 49
1.144259 9.991172 74.654861 85 43 49
1.144459 10.153876 74.667908 85 43 50
1.144566 10.315800 74.674889 85 44 50
1.144578 10.476883 74.675667 86 45 51
1.144495 10.637080 74.670212 86 47 53
1.144316 10.796359 74.658554 87 48 54
1.144044 10.954695 74.640816 87 48 53
1.143682 11.112079 74.617203 86 48 52
1.143234 11.268510 74.587959 85 47 51
1.142704 11.423998 74.553383 82 46 49
1.142097 11.578562 74.513817 78 42 46
1.141420 11.732228 74.469635 75 39 44
1.140678 11.885026 74.421211 74 38 43
1.139877 12.036997 74.368965 74 38 44
1.139024 12.188177 74.313278 75 39 44
1.138124 12.338620 74.254585 75 40 45
1.137185 12.488371 74.193298 75 41 45
1.136212 12.637489 74.129845 75 41 44
1.135213 12.786033 74.064644 73 40 44
1.134193 12.934064 73.998123 73 40 44
1.133160 13.081653 73.930717 73 40 44
1.132120 13.228871 73.862877 72 39 43
1.131080 13.375793 73.795006 72 40 44
1.130046 13.522499 73.727554 73 40 45
1.129025 13.669068 73.660934 73 40 46
1.128023 13.815578 73.595528 74 40 46
1.127044 13.962103 73.531685 74 40 45
1.126094 14.108712 73.469711 73 41 44
1.125177 14.255462 73.409843 73 41 44
1.124294 14.402405 73.352280 72 40 44
1.123448 14.549577 73.297104 71 40 44
1.122640 14.696997 73.244362 70 40 43
1.121868 14.844669 73.193985 69 39 43
1.121130 14.992587 73.145859 68 38 42
1.120424 15.140722 73.099785 67 38 42
1.119746 15.289039 73.055527 66 37 41
1.119091 15.437485 73.012787 66 37 41
1.118454 15.586001 72.971237 65 38 41
1.117830 15.734525 72.930550 65 39 42
1.117215 15.882993 72.890419 65 39 43
1.116604 16.031342 72.850525 65 39 43
1.115992 16.179514 72.810616 64 39 43
1.115376 16.327459 72.770454 64 40 43
1.114754 16.475130 72.729858 63 40 43
1.114123 16.622496 72.688683 63 41 43
1.113482 16.769529 72.646835 63 41 44
1.112829 16.916216 72.604279 62 40 43
1.112166 17.062546 72.560989 61 39 42
1.208708 -17.722620 69.136215 70 43 43
1.208113 -17.564936 69.102188 71 44 44
1.207503 -17.407192 69.067345 72 44 45
1.206882 -17.249428 69.031807 74 45 45
1.206252 -17.091686 68.995750 74 44 46
1.205615 -16.934011 68.959328 73 43 45
1.204975 -16.776449 68.922722 73 43 45
1.204336 -16.619053 68.886154 73 42 45
1.203701 -16.461880 68.849869 73 41 45
1.203076 -16.304989 68.814110 74 40 46
1.202465 -16.148445 68.779160 74 39 46
1.201874 -15.992308 68.745323 73 39 47
1.201306 -15.836639 68.712883 73 39 46
1.200769 -15.681497 68.682129 73 39 46
1.200265 -15.526928 68.653336 74 40 46
1.199800 -15.372974 68.626724 75 41 47
1.199377 -15.219665 68.602501 76 42 48
1.198997 -15.067009 68.580780 78 44 48
1.198662 -14.915005 68.561630 79 45 48
1.198372 -14.763633 68.545029 80 46 48
1.198125 -14.612856 68.530876 81 47 49
1.197917 -14.462626 68.519028 83 47 50
1.197746 -14.312878 68.509247 84 47 51
1.197606 -14.163537 68.501228 85 47 52
1.197491 -14.014529 68.494667 85 47 52
1.197396 -13.865773 68.489212 85 47 51
1.197314 -13.717194 68.484520 85 47 49
1.197239 -13.568720 68.480255 85 47 49
1.197168 -13.420295 68.476151 85 47 48
1.197095 -13.271873 68.471970 85 47 49
1.197018 -13.123426 68.467567 85 47 50
1.196935 -12.974943 68.462868 85 47 51
1.196848 -12.826427 68.457886 84 48 51
1.196758 -12.677894 68.452698 84 47 50
1.196666 -12.529377 68.447479 83 47 50
1.196578 -12.380914 68.442429 83 46 49
1.196498 -12.232553 68.437828 83 46 49
1.196430 -12.084339 68.433952 84 45 48
1.196380 -11.936324 68.431114 85 45 47
1.196354 -11.788550 68.429611 86 46 47
1.196356 -11.641059 68.429726 89 47 49
1.196390 -11.493877 68.431694 91 48 51
1.196461 -11.347034 68.435738 94 50 54
1.196571 -11.200541 68.442047 95 50 57
1.196724 -11.054410 68.450760 96 50 58
1.196920 -10.908643 68.461990 96 50 59
1.197163 -10.763241 68.475853 96 49 60
1.197452 -10.618198 68.492416 95 49 60
1.197791 -10.473511 68.511780 95 50 60
1.198179 -10.329170 68.533989 94 50 59
1.198618 -10.185168 68.559128 95 51 58
1.199110 -10.041498 68.587265 95 51 58
1.199656 -9.898151 68.618492 95 51 57
1.200257 -9.755117 68.652870 96 52 56
1.200914 -9.612384 68.690445 97 53 57
1.201627 -9.469931 68.731239 98 54 57
1.202397 -9.327738 68.775246 97 53 57
1.203221 -9.185774 68.822395 97 53 57
1.204098 -9.044004 68.872559 97 53 57
1.205025 -8.902385 68.925575 97 53 57
1.205997 -8.760867 68.981178 97 52 57
1.207009 -8.619395 69.039078 97 52 56
1.208055 -8.477911 69.098907 97 51 56
1.209128 -8.336354 69.160271 97 50 56
1.210221 -8.194665 69.222755 97 49 55
1.211325 -8.052785 69.285927 97 48 55
1.212434 -7.910666 69.349373 98 47 55
1.213542 -7.768262 69.412727 98 46 55
1.214642 -7.625541 69.475670 98 45 54
1.215732 -7.482480 69.537987 98 45 54
1.216807 -7.339068 69.599518 99 47 55
1.217869 -7.195304 69.660217 101 49 57
1.218916 -7.051198 69.720123 103 51 59
1.219952 -6.906772 69.779388 103 52 61
1.220981 -6.762048 69.838226 104 52 61
1.222007 -6.617057 69.896927 103 52 61
1.223037 -6.471832 69.955826 103 50 60
1.224076 -6.326404 70.015289 102 48 59
1.225132 -6.180799 70.075661 103 48 58
1.226209 -6.035039 70.137253 103 48 57
1.227312 -5.889141 70.200348 103 47 55
1.228445 -5.743108 70.265144 103 48 53
1.229609 -5.596941 70.331757 106 51 54
1.230806 -5.450628 70.400192 108 54 56
1.232033 -5.304152 70.470390 109 56 58
1.233288 -5.157490 70.542168 110 58 60
1.234566 -5.010612 70.615265 111 59 61
1.235861 -4.863485 70.689331 111 59 62
1.237166 -4.716078 70.763992 112 60 63
1.238474 -4.568358 70.838783 113 60 64
1.239776 -4.420296 70.913261 114 60 64
1.241064 -4.271865 70.986938 115 60 64
1.242330 -4.123044 71.059387 115 59 63
1.243568 -3.973819 71.130165 115 58 62
1.244769 -3.824178 71.198898 114 58 62
1.245930 -3.674118 71.265266 114 57 61
1.247044 -3.523642 71.328987 114 56 60
1.248108 -3.372756 71.389854 114 57 59
1.249120 -3.221474 71.447739 115 57 59
1.250078 -3.069811 71.502571 116 56 59
1.250983 -2.917786 71.554337 117 57 59
1.251836 -2.765422 71.603088 118 58 61
1.252638 -2.612742 71.648941 119 59 62
1.253391 -2.459770 71.692055 120 59 64
1.254101 -2.306531 71.732635 120 60 67
1.254770 -2.153049 71.770920 120 61 69
1.255404 -1.999345 71.807198 117 61 70
1.256009 -1.845441 71.841774 114 60 70
1.256589 -1.691355 71.874969 112 59 70
1.257151 -1.537104 71.907127 111 58 69
1.257701 -1.382701 71.938568 110 57 68
1.258244 -1.228156 71.969627 110 57 67
1.258786 -1.073476 72.000626 111 58 67
1.259332 -0.918665 72.031845 113 58 67
1.259886 -0.763725 72.063553 114 59 67
1.260453 -0.608654 72.095985 115 59 66
1.261036 -0.453449 72.129333 115 59 66
1.261638 -0.298104 72.163750 116 59 66
1.262260 -0.142614 72.199333 115 57 64
1.262904 0.013030 72.236153 115 57 64
1.263569 0.168836 72.274223 115 57 65
1.264256 0.324811 72.313515 116 58 65
1.264964 0.480964 72.353973 116 58 66
1.265689 0.637300 72.395485 117 59 66
1.266431 0.793825 72.437927 118 60 66
1.267186 0.950544 72.481117 118 61 67
1.267951 1.107457 72.524872 118 62 67
1.268723 1.264564 72.568985 119 63 68
1.269496 1.421865 72.613243 119 63 69
1.270269 1.579355 72.657417 119 62 69
1.271036 1.737029 72.701302 117 61 68
1.271795 1.894879 72.744705 115 59 67
1.272542 2.052897 72.787437 113 57 66
1.273275 2.211075 72.829353 113 57 66
1.273991 2.369403 72.870338 114 58 67
1.274690 2.527872 72.910301 116 59 68
1.275370 2.686476 72.949219 117 60 69
1.276032 2.845205 72.987068 119 62 69
1.276676 3.004055 73.023880 119 63 69
1.277302 3.163021 73.059708 118 61 69
1.277912 3.322100 73.094635 116 59 68
1.278508 3.481290 73.128716 113 56 66
1.279091 3.640590 73.162056 109 53 63
1.279662 3.799999 73.194717 109 53 62
1.280223 3.959514 73.226761 110 55 64
1.280773 4.119136 73.258240 111 56 64
1.281314 4.278862 73.289169 110 57 64
1.281845 4.438690 73.319572 109 57 64
1.282367 4.598615 73.349442 108 57 63
1.282880 4.758635 73.378792 107 57 61
1.283385 4.918747 73.407631 106 56 59
1.283880 5.078950 73.435982 104 54 57
1.284369 5.239246 73.463921 103 52 55
1.284852 5.399639 73.491547 102 50 54
1.285331 5.560137 73.518982 101 47 52
1.285811 5.720754 73.546432 100 45 51
1.286296 5.881509 73.574127 102 47 52
1.286788 6.042424 73.602310 104 49 54
1.287295 6.203526 73.631279 105 51 56
1.287820 6.364847 73.661324 105 53 57
1.288369 6.526418 73.692741 103 54 58
1.288947 6.688274 73.725800 100 52 56
1.289558 6.850446 73.760735 97 50 54
1.290204 7.012962 73.797699 95 50 53
1.290888 7.175844 73.836784 94 50 54
1.291608 7.339107 73.878014 93 50 54
1.292365 7.502757 73.921303 91 50 55
1.293155 7.666789 73.966484 90 50 55
1.293973 7.831187 74.013275 90 51 56
1.294813 7.995920 74.061302 90 52 57
1.295667 8.160949 74.110138 90 52 57
1.296525 8.326217 74.159225 91 52 57
1.297378 8.491661 74.208008 91 52 58
1.298214 8.657204 74.255829 92 52 58
1.299021 8.822760 74.302025 92 52 59
1.299789 8.988237 74.345924 92 52 58
1.300504 9.153539 74.386856 92 50 56
1.301157 9.318562 74.424156 90 48 54
1.301735 9.483209 74.457230 87 46 52
1.302229 9.647376 74.485512 85 44 50
1.302632 9.810972 74.508530 84 44 50
1.302935 9.973907 74.525864 84 43 50
1.303133 10.136103 74.537209 84 43 50
1.303223 10.297487 74.542328 84 44 50
1.303201 10.458006 74.541122 85 46 51
1.303069 10.617609 74.533524 86 47 53
1.302825 10.776267 74.519615 87 48 54
1.302474 10.933957 74.499519 87 48 53
1.302018 11.090671 74.473457 86 48 51
1.301463 11.246410 74.441681 84 47 50
1.300813 11.401187 74.404518 81 45 48
1.300076 11.555021 74.362320 78 42 45
1.299257 11.707941 74.315475 75 39 43
1.298363 11.859980 74.264374 74 38 43
1.297403 12.011177 74.209442 74 38 44
1.296382 12.161576 74.151085 75 39 45
1.295310 12.311225 74.089722 75 41 47
1.294192 12.460176 74.025787 75 42 47
1.293037 12.608488 73.959724 75 42 46
1.291852 12.756218 73.891937 74 41 45
1.290644 12.903433 73.822876 73 41 45
1.289422 13.050200 73.752968 73 40 44
1.288193 13.196595 73.682663 72 40 44
1.286965 13.342694 73.612396 72 39 44
1.285745 13.488579 73.542618 72 40 45
1.284540 13.634328 73.473724 73 40 46
1.283359 13.780025 73.406136 73 40 47
1.282206 13.925744 73.340202 73 40 46
1.281087 14.071556 73.276230 73 40 46
1.280008 14.217524 73.214478 72 40 45
1.278970 14.363699 73.155144 71 40 44
1.277977 14.510118 73.098320 71 40 44
1.277028 14.656805 73.044060 70 40 43
1.276123 14.803765 72.992294 69 39 43
1.275260 14.950990 72.942917 69 38 42
1.274435 15.098455 72.895721 68 38 42
1.273644 15.246122 72.850464 67 37 41
1.272881 15.393940 72.806839 66 37 41
1.272141 15.541847 72.764519 66 38 42
1.271418 15.689782 72.723167 65 39 42
1.270706 15.837677 72.682449 65 39 43
1.270000 15.985468 72.642067 65 40 43
1.269295 16.133095 72.601723 65 40 43
1.268586 16.280502 72.561180 64 40 43
1.267870 16.427647 72.520233 64 41 43
1.267145 16.574488 72.478745 63 41 43
1.266408 16.720999 72.436600 63 41 44
1.265659 16.867159 72.393730 62 41 44
1.264896 17.012953 72.350082 61 40 43
1.355358 -17.691507 69.014839 69 42 42
1.354668 -17.533792 68.979668 69 41 42
1.353961 -17.376022 68.943665 70 41 43
1.353240 -17.218233 68.906967 71 41 43
1.352508 -17.060467 68.869720 71 42 44
1.351769 -16.902765 68.832085 72 42 45
1.351026 -16.745176 68.794250 72 42 45
1.350283 -16.587748 68.756393 73 41 46
1.349544 -16.430534 68.718765 73 41 46
1.348814 -16.273592 68.681595 73 40 46
1.348098 -16.116980 68.645149 73 39 47
1.347402 -15.960759 68.609703 72 38 46
1.346731 -15.804987 68.575546 72 37 46
1.346091 -15.649717 68.542946 72 38 45
1.345487 -15.495003 68.512169 74 39 46
1.344923 -15.340879 68.483452 75 41 46
1.344403 -15.187380 68.456978 77 42 47
1.343930 -15.034517 68.432892 78 43 47
1.343505 -14.882293 68.411263 79 45 47
1.343128 -14.730693 68.392090 81 46 48
1.342799 -14.579684 68.375305 82 47 49
1.342513 -14.429223 68.360779 83 47 50
1.342268 -14.279255 68.348305 84 47 51
1.342059 -14.129709 68.337616 85 47 51
1.341878 -13.980517 68.328438 85 47 51
1.341721 -13.831604 68.320435 85 47 50
1.341581 -13.682899 68.313293 85 47 49
1.341452 -13.534333 68.306709 85 47 49
1.341328 -13.385854 68.300415 85 47 48
1.341206 -13.237417 68.294212 85 48 49
1.341083 -13.088996 68.287933 85 48 50
1.340957 -12.940575 68.281525 85 48 50
1.340828 -12.792156 68.274979 85 48 50
1.340699 -12.643756 68.268379 85 48 50
1.340571 -12.495403 68.261879 84 47 50
1.340449 -12.347132 68.255676 83 46 49
1.340338 -12.198984 68.250023 83 46 49
1.340243 -12.051007 68.245193 84 45 48
1.340170 -11.903244 68.241463 85 45 47
1.340124 -11.755736 68.239128 86 46 47
1.340111 -11.608521 68.238457 90 48 49
1.340135 -11.461624 68.239662 92 49 51
1.340200 -11.315070 68.242966 94 50 54
1.340309 -11.168872 68.248535 95 50 56
1.340466 -11.023039 68.256508 96 50 57
1.340672 -10.877572 68.266991 96 50 57
1.340929 -10.732472 68.280106 96 49 58
1.341239 -10.587733 68.295906 95 50 59
1.341604 -10.443352 68.314491 95 50 59
1.342025 -10.299317 68.335915 95 51 59
1.342504 -10.155627 68.360275 95 52 58
1.343041 -10.012272 68.387642 95 52 58
1.343639 -9.869245 68.418098 95 51 57
1.344300 -9.726538 68.451729 96 52 56
1.345024 -9.584137 68.488594 97 52 56
1.345812 -9.442027 68.528717 97 53 56
1.346663 -9.300186 68.572098 97 53 57
1.347579 -9.158587 68.618690 96 53 57
1.348554 -9.017192 68.668381 96 52 57
1.349587 -8.875961 68.720993 95 51 56
1.350673 -8.734845 68.776291 95 50 55
1.351806 -8.593789 68.833977 95 50 54
1.352979 -8.452734 68.893700 96 50 54
1.354185 -8.311620 68.955070 97 49 55
1.355414 -8.170386 69.017670 97 48 54
1.356659 -8.028976 69.081078 98 47 54
1.357912 -7.887339 69.144875 98 46 55
1.359165 -7.745428 69.208694 99 45 55
1.360413 -7.603210 69.272224 99 44 54
1.361650 -7.460662 69.335228 99 44 53
1.362874 -7.317771 69.397560 100 45 54
1.364084 -7.174536 69.459152 102 48 57
1.365280 -7.030965 69.520058 104 50 60
1.366465 -6.887076 69.580399 104 52 61
1.367643 -6.742893 69.640396 104 52 62
1.368820 -6.598445 69.700325 105 51 62
1.370002 -6.453762 69.760506 104 50 61
1.371195 -6.308873 69.821266 104 48 60
1.372407 -6.163803 69.882957 104 47 58
1.373643 -6.018572 69.945877 104 47 57
1.374907 -5.873194 70.010269 104 47 55
1.376204 -5.727674 70.076317 105 48 54
1.377536 -5.582009 70.144119 106 50 55
1.378902 -5.436187 70.213669 107 52 57
1.380300 -5.290189 70.284874 109 54 58
1.381727 -5.143992 70.357552 110 56 60
1.383178 -4.997567 70.431419 111 58 61
1.384645 -4.850880 70.506126 111 59 62
1.386121 -4.703901 70.581276 113 60 63
1.387597 -4.556597 70.656418 114 60 64
1.389063 -4.408941 70.731094 115 60 64
1.390511 -4.260906 70.804832 116 60 64
1.391932 -4.112473 70.877197 116 59 64
1.393319 -3.963629 70.947777 115 59 63
1.394662 -3.814365 71.016197 115 58 63
1.395957 -3.664677 71.082146 115 57 62
1.397199 -3.514571 71.145363 115 57 61
1.398383 -3.364055 71.205673 115 57 60
1.399508 -3.213142 71.262955 116 57 60
1.400572 -3.061850 71.317139 117 57 60
1.401576 -2.910198 71.368256 119 58 61
1.402521 -2.758210 71.416359 121 59 63
1.403409 -2.605910 71.461571 121 59 64
1.404243 -2.453321 71.504066 120 59 65
1.405029 -2.300468 71.544060 120 60 67
1.405770 -2.147375 71.581802 119 60 68
1.406473 -1.994065 71.617584 117 60 69
1.407143 -1.840558 71.651711 115 59 69
1.407787 -1.686873 71.684502 113 59 69
1.408411 -1.533025 71.716301 111 57 68
1.409023 -1.379028 71.747452 109 55 65
1.409628 -1.224890 71.778252 109 56 64
1.410233 -1.070620 71.809052 110 57 65
1.410843 -0.916220 71.840118 111 58 65
1.411464 -0.761692 71.871735 113 58 66
1.412100 -0.607034 71.904121 114 59 66
1.412755 -0.452243 71.937485 114 59 65
1.413432 -0.297312 71.971970 115 60 65
1.414134 -0.142235 72.007698 116 60 66
1.414861 0.012996 72.044716 116 59 66
1.415614 0.168389 72.083046 117 58 66
1.416392 0.323954 72.122673 117 59 67
1.417194 0.479698 72.163528 118 60 68
1.418019 0.635628 72.205505 119 61 67
1.418863 0.791749 72.248474 119 61 67
1.419722 0.948067 72.292252 119 62 67
1.420594 1.104583 72.336655 118 62 67
1.421475 1.261297 72.381477 119 62 68
1.422359 1.418209 72.426498 119 62 68
1.423242 1.575314 72.471481 118 61 68
1.424121 1.732607 72.516235 117 60 67
1.424991 1.890082 72.560555 115 59 67
1.425850 2.047731 72.604263 114 58 66
1.426693 2.205545 72.647209 113 57 66
1.427520 2.363516 72.689285 114 58 66
1.428327 2.521636 72.730423 116 59 67
1.429116 2.679898 72.770592 118 60 67
1.429886 2.838294 72.809776 120 62 69
1.430637 2.996821 72.848022 120 62 70
1.431370 3.155474 72.885384 118 60 69
1.432088 3.314251 72.921936 116 58 68
1.432792 3.473152 72.957764 113 55 65
1.433483 3.632175 72.992950 109 51 61
1.434163 3.791320 73.027557 108 51 61
1.434832 3.950587 73.061653 111 55 64
1.435492 4.109973 73.095268 112 56 65
1.436144 4.269477 73.128426 111 57 65
1.436785 4.429097 73.161110 110 57 65
1.437418 4.588827 73.193321 109 57 64
1.438041 4.748663 73.225029 107 56 62
1.438654 4.908603 73.256248 105 55 60
1.439257 5.068644 73.286972 103 53 58
1.439852 5.228786 73.317253 102 51 56
1.440439 5.389030 73.347153 101 49 55
1.441022 5.549385 73.376816 100 47 53
1.441602 5.709861 73.406395 100 46 52
1.442186 5.870477 73.436119 102 47 53
1.442777 6.031251 73.466209 103 49 54
1.443381 6.192210 73.496964 104 50 56
1.444003 6.353383 73.528656 104 52 57
1.444650 6.514802 73.561577 103 53 57
1.445326 6.676498 73.595993 100 51 55
1.446036 6.838502 73.632133 96 49 52
1.446782 7.000841 73.670143 94 48 52
1.447567 7.163535 73.710129 94 49 53
1.448392 7.326599 73.752098 93 50 54
1.449253 7.490037 73.795982 92 50 55
1.450149 7.653844 73.841591 91 50 55
1.451074 7.818003 73.888672 91 51 56
1.452020 7.982483 73.936844 90 52 57
1.452979 8.147243 73.985672 90 52 58
1.453940 8.312225 74.034607 91 52 58
1.454892 8.477366 74.083084 91 52 58
1.455822 8.642588 74.130463 92 52 58
1.456718 8.807804 74.176079 92 52 59
1.457566 8.972921 74.219246 92 51 58
1.458352 9.137841 74.259293 91 49 56
1.459065 9.302464 74.295578 89 48 54
1.459692 9.466683 74.327492 86 46 52
1.460221 9.630404 74.354469 85 45 51
1.460645 9.793527 74.376045 84 44 51
1.460954 9.955965 74.391800 83 43 50
1.461144 10.117639 74.401428 83 43 50
1.461208 10.278478 74.404724 83 44 50
1.461146 10.438425 74.401558 84 45 50
1.460957 10.597437 74.391914 85 47 51
1.460642 10.755480 74.375870 86 48 52
1.460203 10.912534 74.353554 87 48 52
1.459647 11.068593 74.325203 86 48 51
1.458977 11.223660 74.291100 84 47 49
1.458201 11.377750 74.251572 81 45 47
1.457325 11.530884 74.206985 78 42 45
1.456358 11.683092 74.157745 76 39 43
1.455307 11.834408 74.104256 74 38 42
1.454182 11.984875 74.046936 74 39 44
1.452989 12.134534 73.986206 74 40 45
1.451738 12.283439 73.922501 75 41 47
1.450437 12.431640 73.856255 75 42 47
1.449095 12.579194 73.787888 74 42 47
1.447719 12.726163 73.717842 73 42 46
1.446319 12.872612 73.646545 72 41 45
1.444903 13.018612 73.574448 71 40 45
1.443480 13.164235 73.501984 71 39 44
1.442058 13.309560 73.429596 71 39 45
1.440647 13.454671 73.357742 71 40 45
1.439255 13.599648 73.286835 72 40 47
1.437889 13.744573 73.217285 73 40 47
1.436557 13.889526 73.149460 73 40 47
1.435265 14.034579 73.083679 72 40 47
1.434018 14.179797 73.020203 71 40 46
1.432821 14.325233 72.959236 70 40 45
1.431675 14.470927 72.900894 70 40 44
1.430582 14.616904 72.845207 70 39 43
1.429539 14.763171 72.792145 69 39 42
1.428546 14.909719 72.741562 69 38 42
1.427598 15.056526 72.693283 68 38 42
1.426690 15.203553 72.647057 67 37 42
1.425816 15.350749 72.602562 67 38 42
1.424970 15.498053 72.559479 66 39 42
1.424145 15.645400 72.517456 66 40 42
1.423334 15.792722 72.476143 66 40 43
1.422530 15.939954 72.435234 66 41 43
1.421729 16.087032 72.394432 65 41 43
1.420925 16.233904 72.353485 65 42 44
1.420114 16.380516 72.312180 64 42 44
1.419292 16.526829 72.270340 64 42 44
1.418458 16.672815 72.227867 63 42 44
1.417609 16.818447 72.184662 63 41 44
1.416746 16.963711 72.140678 61 41 43
1.502193 -17.817289 68.925903 71 44 44
1.501422 -17.659643 68.890541 68 41 42
1.500630 -17.501904 68.854210 68 40 42
1.499820 -17.344112 68.817055 69 40 43
1.498996 -17.186308 68.779205 70 41 44
1.498159 -17.028532 68.740814 70 41 45
1.497313 -16.870825 68.702019 72 42 46
1.496463 -16.713230 68.663010 73 42 47
1.495612 -16.555794 68.623955 73 42 48
1.494765 -16.398569 68.585075 73 42 48
1.493926 -16.241606 68.546600 73 40 47
1.493102 -16.084961 68.508774 73 39 47
1.492297 -15.928690 68.471848 72 38 46
1.491518 -15.772852 68.436119 72 37 46
1.490771 -15.617496 68.401825 73 38 45
1.490061 -15.462676 68.369240 74 39 46
1.489393 -15.308428 68.338585 76 41 47
1.488771 -15.154787 68.310066 77 42 47
1.488199 -15.001767 68.283821 79 44 47
1.487678 -14.849375 68.259941 80 45 47
1.487210 -14.697598 68.238441 81 47 48
1.486793 -14.546416 68.219292 82 48 49
1.486424 -14.395786 68.202362 83 48 50
1.486100 -14.245659 68.187500 83 48 50
1.485816 -14.095973 68.174461 83 47 50
1.485565 -13.946665 68.162987 83 47 49
1.485343 -13.797663 68.152779 84 47 49
1.485142 -13.648901 68.143555 84 47 48
1.484956 -13.500317 68.135033 85 47 48
1.484780 -13.351855 68.126945 85 47 48
1.484609 -13.203475 68.119095 85 48 48
1.484440 -13.055148 68.111343 85 48 49
1.484272 -12.906859 68.103622 85 48 50
1.484104 -12.758608 68.095924 86 49 50
1.483938 -12.610407 68.088310 85 48 49
1.483777 -12.462280 68.080933 84 47 49
1.483625 -12.314259 68.073959 84 47 49
1.483487 -12.166382 68.067619 84 46 49
1.483369 -12.018691 68.062180 84 45 48
1.483275 -11.871225 68.057899 84 45 47
1.483213 -11.724023 68.055046 86 46 47
1.483187 -11.577117 68.053856 89 48 49
1.483202 -11.430533 68.054558 92 49 51
1.483263 -11.284291 68.057327 94 50 53
1.483372 -11.138404 68.062347 95 51 54
1.483533 -10.992877 68.069733 95 50 54
1.483748 -10.847713 68.079597 95 49 54
1.484019 -10.702912 68.092041 95 49 55
1.484348 -10.558469 68.107132 95 50 57
1.484737 -10.414378 68.124962 95 51 57
1.485187 -10.270634 68.145599 95 52 57
1.485700 -10.127232 68.169136 95 52 57
1.486278 -9.984165 68.195663 95 52 57
1.486923 -9.841429 68.225266 95 51 57
1.487637 -9.699016 68.258041 95 52 56
1.488422 -9.556914 68.294060 96 52 56
1.489279 -9.415110 68.333359 96 52 56
1.490207 -9.273584 68.375961 96 52 56
1.491207 -9.132310 68.421822 95 51 57
1.492275 -8.991253 68.470840 94 50 56
1.493409 -8.850371 68.522858 93 49 54
1.494603 -8.709620 68.577667 91 47 52
1.495852 -8.568942 68.634956 92 47 51
1.497147 -8.428282 68.694405 94 48 52
1.498481 -8.287578 68.755608 95 48 53
1.499845 -8.146770 68.818176 96 47 53
1.501229 -8.005801 68.881668 98 46 54
1.502624 -7.864619 68.945702 99 45 54
1.504023 -7.723179 69.009895 100 45 54
1.505419 -7.581446 69.073929 100 45 54
1.506806 -7.439395 69.137589 100 45 54
1.508182 -7.297012 69.200691 101 46 55
1.509544 -7.154295 69.263191 102 47 57
1.510893 -7.011250 69.325119 104 49 59
1.512233 -6.867892 69.386589 105 50 61
1.513567 -6.724246 69.447807 106 50 62
1.514902 -6.580336 69.509033 107 50 63
1.516243 -6.436191 69.570572 107 49 63
1.517597 -6.291836 69.632729 108 48 61
1.518973 -6.147298 69.695831 107 48 59
1.520375 -6.002592 69.760155 107 48 58
1.521808 -5.857730 69.825928 107 48 56
1.523276 -5.712715 69.893295 106 48 56
1.524781 -5.567544 69.962341 106 49 56
1.526322 -5.422202 70.033035 107 51 57
1.527896 -5.276671 70.105278 108 52 58
1.529500 -5.130927 70.178848 109 54 60
1.531126 -4.984940 70.253471 110 56 61
1.532767 -4.838678 70.328781 111 57 63
1.534415 -4.692111 70.404373 113 58 64
1.536059 -4.545207 70.479790 114 59 64
1.537689 -4.397938 70.554581 115 59 64
1.539295 -4.250282 70.628288 116 59 64
1.540868 -4.102220 70.700478 117 59 64
1.542400 -3.953739 70.770744 116 58 64
1.543882 -3.804833 70.838745 117 58 64
1.545308 -3.655502 70.904160 117 58 64
1.546672 -3.505749 70.966782 117 58 63
1.547972 -3.355586 71.026413 117 58 62
1.549204 -3.205027 71.082970 118 58 62
1.550369 -3.054091 71.136414 118 58 62
1.551467 -2.902798 71.186760 120 58 63
1.552498 -2.751172 71.234108 121 59 65
1.553468 -2.599237 71.278587 121 60 66
1.554378 -2.447018 71.320366 120 60 67
1.555235 -2.294539 71.359688 119 60 67
1.556044 -2.141825 71.396797 118 59 67
1.556811 -1.988898 71.431999 118 59 67
1.557543 -1.835777 71.465584 117 59 68
1.558248 -1.682482 71.497894 116 59 68
1.558931 -1.529027 71.529259 112 56 66
1.559601 -1.375425 71.560013 109 54 63
1.560265 -1.221686 71.590477 109 55 63
1.560930 -1.067815 71.620972 110 56 63
1.561602 -0.913818 71.651787 111 57 64
1.562286 -0.759694 71.683197 112 58 64
1.562989 -0.605441 71.715431 113 59 65
1.563713 -0.451056 71.748680 114 59 65
1.564464 -0.296532 71.783112 116 61 66
1.565242 -0.141862 71.818840 116 61 67
1.566050 0.012962 71.855919 117 61 67
1.566889 0.167949 71.894379 118 60 67
1.567757 0.323108 71.934204 119 61 68
1.568653 0.478447 71.975319 120 62 69
1.569575 0.633974 72.017632 121 63 71
1.570520 0.789695 72.060997 122 65 72
1.571484 0.945614 72.105247 122 66 72
1.572464 1.101735 72.150200 121 65 70
1.573454 1.258058 72.195625 119 63 68
1.574450 1.414582 72.241318 118 62 67
1.575446 1.571304 72.287041 118 61 67
1.576439 1.728220 72.332603 117 60 66
1.577424 1.885321 72.377792 115 58 66
1.578398 2.042603 72.422455 114 57 65
1.579356 2.200056 72.466415 113 57 64
1.580297 2.357673 72.509590 114 57 64
1.581219 2.515446 72.551903 114 58 64
1.582122 2.673369 72.593323 116 59 64
1.583005 2.831436 72.633858 118 60 67
1.583870 2.989643 72.673546 119 60 67
1.584718 3.147987 72.712440 118 59 66
1.585550 3.306466 72.750633 116 58 66
1.586369 3.465080 72.788200 113 55 65
1.587176 3.623829 72.825218 111 53 62
1.587972 3.782712 72.861748 110 53 62
1.588759 3.941730 72.897858 112 55 65
1.589537 4.100880 72.933556 112 56 65
1.590306 4.260161 72.968857 111 57 65
1.591066 4.419569 73.003731 111 57 65
1.591817 4.579099 73.038162 109 57 65
1.592556 4.738746 73.072113 106 56 63
1.593285 4.898506 73.105553 103 54 61
1.594003 5.058374 73.138481 101 52 59
1.594710 5.218349 73.170914 100 50 57
1.595407 5.378432 73.202911 100 49 56
1.596098 5.538629 73.234589 100 48 55
1.596784 5.698948 73.266090 101 47 55
1.597471 5.859405 73.297615 103 48 55
1.598164 6.020019 73.329391 104 49 56
1.598868 6.180814 73.361694 104 50 56
1.599589 6.341817 73.394798 104 51 57
1.600334 6.503060 73.428993 102 51 56
1.601109 6.664571 73.464516 99 49 54
1.601917 6.826381 73.501617 95 47 51
1.602763 6.988514 73.540428 93 47 51
1.603649 7.150992 73.581070 93 48 52
1.604575 7.313828 73.623550 92 48 54
1.605539 7.477025 73.667778 92 49 55
1.606537 7.640577 73.713600 91 49 55
1.607565 7.804466 73.760735 91 50 56
1.608613 7.968661 73.808823 90 50 57
1.609672 8.133120 73.857422 90 50 58
1.610730 8.297786 73.905998 91 50 58
1.611776 8.462593 73.953979 91 51 58
1.612795 8.627462 74.000725 91 51 58
1.613773 8.792310 74.045586 91 51 57
1.614694 8.957039 74.087868 91 50 56
1.615545 9.121552 74.126907 90 49 55
1.616311 9.285745 74.162056 89 48 53
1.616979 9.449517 74.192711 87 47 52
1.617537 9.612768 74.218315 85 45 52
1.617975 9.775402 74.238396 83 44 51
1.618283 9.937329 74.252556 82 43 51
1.618456 10.098472 74.260483 82 43 50
1.618489 10.258759 74.261978 81 44 49
1.618379 10.418136 74.256943 81 44 49
1.618126 10.576556 74.245346 82 45 49
1.617732 10.733992 74.227272 83 46 50
1.617201 10.890423 74.202904 84 47 50
1.616538 11.045845 74.172455 84 47 50
1.615748 11.200262 74.136223 82 46 49
1.614840 11.353693 74.094566 80 44 47
1.613822 11.506157 74.047852 78 42 45
1.612703 11.657688 73.996498 76 40 44
1.611491 11.808323 73.940910 74 39 43
1.610197 11.958101 73.881523 74 39 44
1.608829 12.107070 73.818748 73 40 45
1.607397 12.255280 73.753036 74 41 46
1.605910 12.402781 73.684807 74 42 47
1.604378 12.549635 73.614502 73 42 47
1.602809 12.695899 73.542534 72 42 46
1.601214 12.841640 73.469345 71 41 45
1.599602 12.986927 73.395378 70 39 44
1.597982 13.131835 73.321075 70 39 45
1.596365 13.276441 73.246872 70 39 44
1.594761 13.420831 73.173241 70 39 45
1.593177 13.565084 73.100578 71 39 46
1.591624 13.709289 73.029327 72 40 48
1.590109 13.853520 72.959831 72 40 48
1.588641 13.997857 72.892448 71 40 47
1.587224 14.142363 72.827431 70 39 46
1.585863 14.287095 72.764999 69 39 45
1.584561 14.432095 72.705261 69 39 44
1.583319 14.577387 72.648270 69 38 43
1.582136 14.722980 72.593979 69 38 42
1.581009 14.868873 72.542274 68 38 42
1.579934 15.015035 72.492966 68 38 42
1.578906 15.161433 72.445793 68 38 42
1.577918 15.308015 72.400452 67 39 42
1.576962 15.454718 72.356590 68 39 42
1.576031 15.601478 72.313873 68 40 43
1.575117 15.748227 72.271950 68 41 43
1.574214 15.894897 72.230484 67 42 44
1.573314 16.041424 72.189186 67 42 44
1.572411 16.187750 72.147781 66 42 44
1.571502 16.333826 72.106064 66 42 44
1.570582 16.479607 72.063843 65 42 44
1.569648 16.625061 72.020988 64 42 44
1.568698 16.770163 71.977417 64 41 44
1.567731 16.914888 71.933052 63 41 43
1.647748 -17.784630 68.799568 71 43 44
1.646873 -17.626963 68.763054 70 42 43
1.645976 -17.469210 68.725586 69 41 44
1.645059 -17.311413 68.687317 69 41 44
1.644127 -17.153614 68.648361 69 40 44
1.643181 -16.995850 68.608871 69 40 44
1.642226 -16.838160 68.569000 71 41 47
1.641265 -16.680586 68.528893 73 42 48
1.640303 -16.523170 68.488731 74 42 49
1.639345 -16.365965 68.448715 74 42 49
1.638395 -16.209013 68.409042 74 41 48
1.637459 -16.052370 68.369957 73 39 47
1.636543 -15.896089 68.331711 73 39 47
1.635653 -15.740224 68.294548 73 39 46
1.634795 -15.584826 68.258728 74 40 46
1.633975 -15.429944 68.224510 75 41 47
1.633200 -15.275619 68.192123 76 42 47
1.632473 -15.121884 68.161766 78 43 47
1.631798 -14.968760 68.133583 80 45 47
1.631178 -14.816255 68.107689 81 46 48
1.630613 -14.664362 68.084129 82 47 49
1.630104 -14.513064 68.062881 83 49 50
1.629648 -14.362327 68.043846 83 49 50
1.629243 -14.212107 68.026901 82 48 49
1.628882 -14.062347 68.011826 82 47 49
1.628560 -13.912989 67.998398 82 47 48
1.628271 -13.763968 67.986351 82 46 48
1.628009 -13.615222 67.975410 83 47 47
1.627768 -13.466688 67.965309 84 47 48
1.627540 -13.318316 67.955818 84 47 48
1.627322 -13.170064 67.946724 85 47 48
1.627111 -13.021902 67.937897 85 48 49
1.626904 -12.873815 67.929260 85 48 49
1.626701 -12.725797 67.920799 85 48 49
1.626504 -12.577858 67.912567 85 48 49
1.626315 -12.430017 67.904678 85 47 48
1.626139 -12.282304 67.897301 84 46 48
1.625979 -12.134750 67.890648 84 46 48
1.625843 -11.987391 67.884933 84 45 48
1.625734 -11.840266 67.880417 84 45 47
1.625660 -11.693407 67.877327 86 46 48
1.625626 -11.546844 67.875900 88 47 49
1.625636 -11.400598 67.876320 90 48 50
1.625695 -11.254688 67.878792 92 49 52
1.625807 -11.109124 67.883430 94 49 53
1.625973 -10.963912 67.890381 95 49 53
1.626197 -10.819055 67.899742 95 48 53
1.626481 -10.674550 67.911598 95 49 54
1.626827 -10.530394 67.926041 95 50 55
1.627237 -10.386582 67.943138 95 51 56
1.627712 -10.243112 67.962990 95 52 56
1.628255 -10.099977 67.985680 95 52 56
1.628869 -9.957173 68.011299 95 52 56
1.629556 -9.814700 68.039970 95 51 56
1.630318 -9.672550 68.071785 94 51 55
1.631157 -9.530715 68.106842 93 50 54
1.632076 -9.389183 68.145187 93 50 54
1.633073 -9.247935 68.186852 93 50 55
1.634150 -9.106950 68.231819 92 49 55
1.635304 -8.966192 68.279999 91 48 54
1.636532 -8.825624 68.331261 90 46 52
1.637828 -8.685199 68.385384 89 45 50
1.639187 -8.544864 68.442101 90 46 50
1.640599 -8.404563 68.501083 92 47 52
1.642057 -8.264235 68.561966 93 46 52
1.643551 -8.123822 68.624329 94 46 52
1.645071 -7.983266 68.687782 97 46 53
1.646607 -7.842514 68.751915 98 46 54
1.648150 -7.701520 68.816360 100 46 55
1.649694 -7.560251 68.880821 101 46 55
1.651232 -7.418678 68.945045 102 47 56
1.652761 -7.276787 69.008881 103 47 57
1.654279 -7.134573 69.072258 104 47 58
1.655786 -6.992042 69.135201 105 48 59
1.657286 -6.849207 69.197815 106 48 60
1.658782 -6.706089 69.260277 107 48 61
1.660280 -6.562709 69.322838 109 48 62
1.661788 -6.419095 69.385780 110 49 63
1.663311 -6.275270 69.449387 111 50 62
1.664858 -6.131256 69.513962 111 50 61
1.666433 -5.987067 69.579735 111 51 60
1.668042 -5.842713 69.646919 110 51 59
1.669688 -5.698195 69.715645 109 50 58
1.671372 -5.553507 69.785957 108 50 58
1.673093 -5.408635 69.857811 107 50 59
1.674848 -5.263560 69.931076 107 52 60
1.676631 -5.118255 70.005531 108 53 61
1.678435 -4.972693 70.080872 109 54 62
1.680252 -4.826841 70.156731 110 56 63
1.682071 -4.680670 70.232697 112 57 64
1.683883 -4.534149 70.308319 114 57 64
1.685675 -4.387252 70.383156 115 57 64
1.687437 -4.239958 70.456741 116 57 64
1.689160 -4.092250 70.528664 117 57 65
1.690833 -3.944118 70.598534 118 58 65
1.692449 -3.795555 70.666008 119 58 65
1.694001 -3.646564 70.730804 119 59 65
1.695484 -3.497151 70.792717 119 59 64
1.696894 -3.347327 70.851593 119 59 64
1.698229 -3.197108 70.907341 119 59 64
1.699489 -3.046515 70.959953 119 60 65
1.700675 -2.895568 71.009468 119 60 65
1.701789 -2.744292 71.055984 120 60 66
1.702835 -2.592712 71.099655 120 61 67
1.703817 -2.440852 71.140671 119 61 68
1.704741 -2.288738 71.179253 119 60 68
1.705614 -2.136392 71.215675 118 59 68
1.706441 -1.983837 71.250229 118 59 67
1.707231 -1.831093 71.283218 118 59 67
1.707992 -1.678178 71.314980 117 59 67
1.708731 -1.525106 71.345840 115 58 66
1.709457 -1.371891 71.376137 112 56 64
1.710176 -1.218541 71.406181 112 56 64
1.710898 -1.065062 71.436302 112 57 63
1.711627 -0.911458 71.466774 112 57 63
1.712372 -0.757730 71.497879 113 58 63
1.713138 -0.603874 71.529846 114 59 64
1.713929 -0.449888 71.562874 114 60 64
1.714750 -0.295764 71.597137 116 61 65
1.715602 -0.141495 71.632744 117 62 66
1.716489 0.012928 71.669754 117 62 68
1.717410 0.167514 71.708206 118 62 68
1.718365 0.322272 71.748085 118 62 69
1.719353 0.477210 71.789330 119 63 70
1.720371 0.632338 71.831848 120 64 71
1.721416 0.787662 71.875496 123 67 73
1.722485 0.943186 71.920105 124 69 74
1.723572 1.098915 71.965492 122 67 72
1.724672 1.254849 72.011444 118 63 68
1.725781 1.410988 72.057739 117 62 67
1.726893 1.567329 72.104156 117 60 66
1.728002 1.723868 72.150482 116 59 65
1.729105 1.880600 72.196526 114 57 64
1.730197 2.037517 72.242119 113 56 63
1.731274 2.194613 72.287109 112 55 62
1.732335 2.351879 72.331390 111 54 60
1.733377 2.509310 72.374901 112 55 59
1.734400 2.666898 72.417610 112 55 59
1.735404 2.824641 72.459534 115 57 62
1.736390 2.982532 72.500687 116 59 64
1.737359 3.140571 72.541161 115 58 64
1.738313 3.298756 72.581009 114 57 64
1.739255 3.457088 72.620316 113 56 64
1.740185 3.615566 72.659157 112 55 63
1.741106 3.774190 72.697594 111 54 64
1.742017 3.932960 72.735664 111 55 65
1.742921 4.091874 72.773376 111 56 66
1.743815 4.250930 72.810730 111 57 66
1.744701 4.410123 72.847694 110 57 66
1.745575 4.569448 72.884216 108 57 65
1.746438 4.728899 72.920250 106 56 63
1.747289 4.888469 72.955750 103 54 62
1.748125 5.048153 72.990692 101 52 60
1.748949 5.207949 73.025085 100 50 58
1.749760 5.367855 73.058960 99 49 56
1.750561 5.527876 73.092415 100 48 56
1.751356 5.688019 73.125587 102 48 56
1.752149 5.848298 73.158676 104 49 57
1.752944 6.008729 73.191879 105 50 57
1.753748 6.169336 73.225471 105 50 57
1.754569 6.330146 73.259720 104 51 56
1.755411 6.491185 73.294907 102 50 55
1.756283 6.652484 73.331291 99 49 54
1.757188 6.814072 73.369080 96 48 52
1.758130 6.975971 73.408440 93 47 51
1.759113 7.138204 73.449478 92 47 52
1.760136 7.300780 73.492195 91 47 53
1.761198 7.463705 73.536537 91 48 54
1.762295 7.626969 73.582314 91 48 55
1.763419 7.790556 73.629272 91 48 55
1.764564 7.954434 73.677048 90 49 56
1.765717 8.118561 73.725212 90 49 56
1.766867 8.282878 73.773224 90 48 57
1.768000 8.447321 73.820518 90 49 58
1.769100 8.611810 73.866463 90 49 57
1.770152 8.776258 73.910400 89 48 56
1.771140 8.940570 73.951653 89 48 54
1.772048 9.104650 73.989555 89 47 53
1.772860 9.268393 74.023468 88 47 52
1.773562 9.431696 74.052788 86 46 52
1.774142 9.594460 74.076965 85 45 51
1.774586 9.756589 74.095520 83 44 51
1.774887 9.917994 74.108078 82 43 51
1.775036 10.078597 74.114334 81 42 50
1.775030 10.238328 74.114082 80 43 49
1.774867 10.397133 74.107239 80 43 48
1.774545 10.554968 74.093796 80 44 48
1.774067 10.711805 74.073853 81 45 48
1.773438 10.867627 74.047577 81 45 49
1.772663 11.022431 74.015228 81 46 49
1.771750 11.176223 73.977097 80 45 48
1.770707 11.329021 73.933556 78 44 47
1.769544 11.480849 73.884987 76 42 45
1.768270 11.631743 73.831818 74 40 44
1.766896 11.781737 73.774445 73 39 43
1.765432 11.930876 73.713310 72 39 43
1.763888 12.079205 73.648849 71 40 43
1.762275 12.226773 73.581482 72 41 44
1.760602 12.373632 73.511635 72 42 45
1.758880 12.519843 73.439743 72 42 46
1.757119 12.665461 73.366219 71 42 45
1.755330 12.810555 73.291504 70 40 45
1.753522 12.955190 73.216019 69 39 44
1.751706 13.099442 73.140213 69 39 44
1.749894 13.243389 73.064529 68 38 44
1.748095 13.387115 72.989418 68 38 45
1.746320 13.530703 72.915298 69 39 46
1.744579 13.674237 72.842606 70 40 48
1.742881 13.817798 72.771706 70 40 48
1.741234 13.961465 72.702942 70 40 47
1.739644 14.105301 72.636581 69 39 46
1.738118 14.249368 72.572845 68 39 45
1.736658 14.393706 72.511871 68 38 44
1.735264 14.538344 72.453697 68 38 43
1.733937 14.683293 72.398293 67 37 43
1.732674 14.828547 72.345543 68 37 42
1.731470 14.974084 72.295250 68 38 42
1.730318 15.119864 72.247169 68 38 42
1.729212 15.265841 72.200989 68 39 42
1.728143 15.411951 72.156364 68 40 43
1.727103 15.558125 72.112930 68 41 43
1.726084 15.704301 72.070366 68 42 44
1.725076 15.850405 72.028297 68 43 45
1.724074 15.996375 71.986458 68 43 45
1.723070 16.142149 71.944542 68 43 44
1.722059 16.287680 71.902344 67 43 44
1.721037 16.432917 71.859673 66 42 44
1.720001 16.577831 71.816391 65 42 44
1.718947 16.722391 71.772392 65 41 44
1.717874 16.866577 71.727600 64 41 44
1.792672 -17.751114 68.669899 72 44 45
1.791690 -17.593441 68.632286 71 43 45
1.790683 -17.435694 68.593735 71 43 46
1.789656 -17.277914 68.554398 70 42 46
1.788612 -17.120142 68.514412 69 40 44
1.787555 -16.962416 68.473915 69 40 45
1.786488 -16.804773 68.433037 71 41 47
1.785415 -16.647251 68.391945 73 42 49
1.784341 -16.489891 68.350784 74 42 49
1.783269 -16.332737 68.309738 74 42 49
1.782206 -16.175833 68.269012 74 42 49
1.781157 -16.019232 68.228813 74 41 48
1.780127 -15.862979 68.189384 74 41 47
1.779124 -15.707129 68.150955 75 41 47
1.778154 -15.551732 68.113785 76 42 48
1.777223 -15.396837 68.078125 77 43 48
1.776337 -15.242484 68.044205 78 43 48
1.775503 -15.088709 68.012222 79 44 48
1.774722 -14.935533 67.982346 81 45 48
1.774001 -14.782970 67.954689 82 46 49
1.773339 -14.631021 67.929329 82 48 50
1.772736 -14.479670 67.906265 83 49 50
1.772192 -14.328887 67.885422 83 49 50
1.771704 -14.178638 67.866699 82 48 50
1.771266 -14.028872 67.849930 82 47 49
1.770873 -13.879535 67.834892 81 46 48
1.770520 -13.730563 67.821350 82 46 48
1.770199 -13.581902 67.809059 82 46 48
1.769904 -13.433488 67.797752 83 47 48
1.769629 -13.285275 67.787216 84 47 49
1.769369 -13.137218 67.777267 85 47 49
1.769120 -12.989288 67.767738 85 48 49
1.768881 -12.841465 67.758568 86 48 49
1.768650 -12.693744 67.749725 86 48 49
1.768428 -12.546126 67.741234 86 47 49
1.768219 -12.398629 67.733208 85 46 48
1.768025 -12.251275 67.725777 84 45 48
1.767851 -12.104094 67.719131 84 44 48
1.767703 -11.957112 67.713463 84 44 48
1.767587 -11.810368 67.709000 84 45 47
1.767507 -11.663884 67.705956 85 45 48
1.767470 -11.517692 67.704536 87 46 48
1.767480 -11.371808 67.704918 89 46 49
1.767541 -11.226248 67.707260 90 47 50
1.767658 -11.081021 67.711708 92 47 51
1.767831 -10.936133 67.718369 93 47 52
1.768065 -10.791584 67.727341 94 48 52
1.768362 -10.647373 67.738701 95 48 53
1.768723 -10.503497 67.752541 95 49 54
1.769152 -10.359954 67.768951 95 51 55
1.769650 -10.216741 67.788017 95 52 55
1.770219 -10.073853 67.809837 96 52 55
1.770864 -9.931293 67.834526 95 52 55
1.771586 -9.789057 67.862198 94 51 54
1.772390 -9.647142 67.892975 92 50 53
1.773277 -9.505544 67.926964 91 49 52
1.774250 -9.364252 67.964241 90 48 52
1.775310 -9.223250 68.004837 90 48 53
1.776457 -9.082518 68.048767 89 47 53
1.777689 -8.942025 68.095963 88 46 53
1.779003 -8.801735 68.146301 88 45 52
1.780394 -8.661601 68.199577 87 44 51
1.781855 -8.521574 68.255554 89 45 51
1.783378 -8.381598 68.313911 90 45 52
1.784954 -8.241613 68.374283 90 45 51
1.786573 -8.101562 68.436295 92 46 52
1.788224 -7.961388 68.499542 95 47 52
1.789898 -7.821037 68.563637 98 46 53
1.791584 -7.680465 68.628220 100 46 54
1.793274 -7.539634 68.692986 102 47 56
1.794963 -7.398518 68.757690 103 47 57
1.796647 -7.257100 68.822182 104 47 58
1.798323 -7.115373 68.886375 105 47 58
1.799991 -6.973341 68.950287 105 47 59
1.801655 -6.831015 69.014015 107 47 60
1.803318 -6.688412 69.077721 109 47 61
1.804986 -6.545553 69.141617 110 48 62
1.806666 -6.402460 69.205963 112 50 63
1.808365 -6.259155 69.271034 114 52 63
1.810089 -6.115655 69.337074 115 53 64
1.811844 -5.971973 69.404320 114 54 63
1.813635 -5.828117 69.472931 113 54 62
1.815465 -5.684084 69.543007 111 52 60
1.817333 -5.539868 69.614571 110 52 60
1.819238 -5.395453 69.687561 108 52 61
1.821177 -5.250820 69.761810 108 52 61
1.823142 -5.105941 69.837097 108 53 62
1.825126 -4.960789 69.913109 109 54 63
1.827119 -4.815332 69.989449 110 55 63
1.829111 -4.669542 70.065720 112 55 63
1.831088 -4.523389 70.141479 113 55 63
1.833041 -4.376850 70.216278 114 56 64
1.834956 -4.229904 70.289658 116 57 65
1.836825 -4.082536 70.361229 118 57 65
1.838636 -3.934736 70.430611 120 59 66
1.840382 -3.786504 70.497490 121 60 66
1.842055 -3.637840 70.561592 121 60 66
1.843652 -3.488753 70.622734 120 60 66
1.845167 -3.339257 70.680779 120 61 66
1.846600 -3.189368 70.735664 120 61 66
1.847950 -3.039106 70.787392 119 61 67
1.849220 -2.888496 70.836029 120 62 67
1.850411 -2.737560 70.881668 120 62 67
1.851529 -2.586324 70.924484 120 62 68
1.852579 -2.434814 70.964684 120 61 70
1.853566 -2.283054 71.002502 119 60 69
1.854497 -2.131068 71.038193 119 60 68
1.855382 -1.978876 71.072067 119 60 68
1.856226 -1.826500 71.104424 118 59 67
1.857040 -1.673956 71.135597 118 59 67
1.857831 -1.521260 71.165909 117 58 66
1.858609 -1.368423 71.195686 115 57 65
1.859381 -1.215453 71.225258 114 56 64
1.860155 -1.062358 71.254921 114 57 63
1.860940 -0.909140 71.284981 114 58 63
1.861742 -0.755799 71.315697 115 59 63
1.862567 -0.602333 71.347305 115 60 63
1.863421 -0.448738 71.380013 115 61 63
1.864308 -0.295007 71.413986 116 62 64
1.865231 -0.141132 71.449348 117 62 66
1.866192 0.012895 71.486168 117 63 68
1.867193 0.167085 71.524490 117 64 69
1.868232 0.321446 71.564301 118 64 70
1.869309 0.475989 71.605560 118 64 71
1.870421 0.630721 71.648155 120 65 72
1.871565 0.785651 71.691978 121 67 73
1.872736 0.940783 71.736847 122 67 73
1.873930 1.096122 71.782593 120 65 70
1.875142 1.251670 71.828987 118 63 67
1.876364 1.407426 71.875832 117 61 66
1.877593 1.563389 71.922890 116 60 65
1.878822 1.719555 71.969971 115 58 65
1.880046 1.875920 72.016861 114 57 64
1.881261 2.032476 72.063393 113 56 63
1.882463 2.189218 72.109428 111 54 60
1.883649 2.346139 72.154854 110 53 58
1.884817 2.503232 72.199615 109 52 56
1.885967 2.660492 72.243660 109 52 56
1.887099 2.817915 72.287010 111 53 58
1.888213 2.975497 72.329697 112 55 60
1.889311 3.133237 72.371765 112 55 60
1.890396 3.291134 72.413300 112 56 61
1.891468 3.449188 72.454369 111 56 62
1.892529 3.607399 72.495041 111 55 63
1.893582 3.765767 72.535355 111 56 64
1.894626 3.924291 72.575340 111 58 66
1.895661 4.082970 72.615013 111 58 67
1.896688 4.241798 72.654327 111 57 67
1.897704 4.400774 72.693260 110 58 67
1.898708 4.559887 72.731728 109 58 66
1.899699 4.719134 72.769684 105 56 64
1.900675 4.878505 72.807053 102 53 61
1.901634 5.037993 72.843796 100 51 60
1.902577 5.197596 72.879913 100 50 59
1.903504 5.357309 72.915413 99 49 58
1.904417 5.517135 72.950394 101 49 57
1.905319 5.677082 72.984978 103 49 58
1.906216 5.837159 73.019333 104 50 58
1.907113 5.997385 73.053688 106 50 58
1.908016 6.157778 73.088280 106 51 58
1.908933 6.318366 73.123390 105 51 57
1.909870 6.479174 73.159286 103 50 56
1.910834 6.640232 73.196220 99 50 54
1.911832 6.801567 73.234428 97 49 53
1.912866 6.963201 73.274055 94 48 52
1.913941 7.125155 73.315216 92 47 52
1.915055 7.287440 73.357918 91 47 53
1.916209 7.450060 73.402100 90 47 53
1.917396 7.613005 73.447586 90 47 54
1.918611 7.776258 73.494133 90 47 55
1.919845 7.939787 73.541374 90 48 55
1.921085 8.103548 73.588882 89 48 55
1.922318 8.267487 73.636131 89 48 55
1.923530 8.431533 73.682556 89 47 55
1.924704 8.595612 73.727531 89 48 55
1.925823 8.759633 73.770401 88 47 54
1.926870 8.923505 73.810493 88 47 52
1.927827 9.087128 73.847160 88 46 52
1.928678 9.250398 73.879745 87 46 51
1.929407 9.413213 73.907661 86 46 51
1.929999 9.575473 73.930367 85 45 51
1.930444 9.737084 73.947395 84 44 51
1.930730 9.897956 73.958351 82 43 51
1.930851 10.058013 73.962967 81 43 50
1.930800 10.217186 73.961037 80 43 49
1.930577 10.375421 73.952484 80 42 48
1.930181 10.532677 73.937317 79 43 48
1.929615 10.688926 73.915642 79 44 48
1.928884 10.844154 73.887642 79 44 48
1.927995 10.998360 73.853592 79 45 48
1.926956 11.151551 73.813797 79 45 48
1.925777 11.303747 73.768623 77 44 47
1.924468 11.454976 73.718483 76 43 46
1.923040 11.605271 73.663788 74 41 45
1.921504 11.754671 73.604958 72 40 43
1.919872 11.903218 73.542435 71 39 42
1.918154 12.050959 73.476631 70 40 42
1.916362 12.197941 73.407974 70 41 43
1.914506 12.344217 73.336884 70 42 45
1.912598 12.489845 73.263779 70 42 45
