ply
format ascii 1.0
element vertex 1137
property float x
property float y
property float z
property uchar red
property uchar green
property uchar blue
end_header
-12.375116 5.116054 50.406185 168 164 183
-12.545513 5.296653 51.100246 167 164 183
-12.610629 5.434871 51.365471 167 164 184
-12.610629 5.545598 51.365471 167 164 184
-12.676423 5.685835 51.633465 165 162 183
-12.720669 5.817374 51.813686 163 160 182
-13.086074 6.099381 53.302052 162 158 181
-13.086074 6.214283 53.302052 160 155 180
-14.376615 6.953364 58.558662 157 154 179
-14.320125 7.051779 58.328571 155 153 177
-14.292046 7.163442 58.214199 153 152 176
-14.236217 7.260460 57.986801 151 151 175
-14.153288 7.342438 57.649014 149 150 174
-14.071320 7.423466 57.315140 149 149 174
-13.086074 7.018591 53.302052 149 148 174
-13.062622 7.120709 53.206528 150 149 174
-13.039255 7.222461 53.111347 151 149 175
-13.015970 7.323849 53.016502 151 149 175
-12.969650 7.411664 52.827831 151 149 176
-12.877992 7.472360 52.454491 151 149 175
-12.742908 7.505866 51.904270 150 149 175
-12.545513 7.499751 51.100246 150 150 175
-12.417280 7.532122 50.577927 149 151 174
-12.481068 7.680403 50.837742 147 151 172
-12.545513 7.830216 51.100246 145 151 171
-13.109611 8.297402 53.397919 143 151 170
-13.086074 8.397407 53.302052 142 150 169
-13.109611 8.527617 53.397919 140 150 168
-13.109611 8.642726 53.397919 139 149 168
-16.685781 -10.925276 68.566376 167 155 182
-16.495304 -10.654440 67.783661 167 155 181
-16.495304 -10.508321 67.783661 168 154 181
-13.017916 -7.370531 53.494129 165 149 174
-12.901685 -7.190437 53.016502 164 148 173
-12.901685 -7.076151 53.016502 162 147 170
-12.947927 -6.986818 53.206528 160 145 169
-13.017916 -6.909269 53.494129 160 144 169
-13.429263 -7.008633 55.184464 159 142 169
-13.580721 -6.967377 55.806847 158 139 167
-13.580721 -6.847076 55.806847 158 139 167
-13.580721 -6.726776 55.806847 161 138 168
-13.529857 -6.581731 55.597832 161 138 168
-13.379525 -6.390082 54.980080 160 138 168
-13.088666 -6.135226 53.784859 162 138 168
-7.167603 -2.724846 29.453613 161 138 166
-7.139272 -2.650835 29.337196 161 138 166
-7.104172 -2.574872 29.192963 162 138 167
-7.055609 -2.494770 28.993401 162 138 167
-7.034998 -2.425165 28.908707 162 138 167
-7.014508 -2.355966 28.824507 162 138 167
-6.960446 -2.276151 28.602352 162 137 166
-10.930323 -3.477526 44.915646 160 137 165
-10.880939 -3.172657 44.712715 158 135 162
-10.848264 -3.067034 44.578442 159 136 163
-14.392318 -3.941523 59.141918 160 138 165
-14.835612 -3.931508 60.963535 162 139 167
-15.307083 -3.920857 62.900936 163 141 169
-15.470971 -3.825791 63.574394 164 141 169
-15.242496 -3.634271 62.635532 164 141 169
-15.146632 -3.477242 62.241596 166 143 170
-15.146632 -3.343070 62.241596 168 145 172
-18.669104 -3.955154 76.716385 168 146 173
-18.669104 -3.789779 76.716385 168 146 174
-18.669104 -3.624404 76.716385 166 144 172
-18.669104 -3.459030 76.716385 165 144 171
-18.620989 -3.285166 76.518669 165 144 172
-16.163185 -2.708377 66.418884 164 145 172
-16.127106 -2.559474 66.270630 163 145 171
-15.984388 -2.395231 65.684166 163 145 171
-15.672328 -2.209641 64.401825 162 146 171
-15.570998 -2.057424 63.985435 163 148 172
-15.537513 -1.915365 63.847832 165 150 174
-15.504170 -1.773915 63.710819 166 153 175
-12.142762 -1.281756 49.897884 168 155 176
-12.142762 -1.174193 49.897884 170 156 177
-15.307083 -1.344586 62.900936 171 156 178
-15.307083 -1.208993 62.900936 170 155 177
-15.178452 -1.064379 62.372356 170 155 176
-15.178452 -0.929926 62.372356 169 154 177
-15.178452 -0.795472 62.372356 169 153 177
-15.242496 -0.663807 62.635532 168 153 177
-15.307083 -0.531027 62.900936 168 153 177
-15.437913 -0.398813 63.438553 168 153 178
-13.683605 0.131355 56.229626 168 152 179
-13.305605 0.245590 54.676319 169 152 179
-13.305605 0.363454 54.676319 169 152 178
-13.232497 0.478673 54.375900 168 151 176
-13.232497 0.595889 54.375900 166 150 175
-13.208306 1.179809 54.276493 162 151 178
-9.227259 1.968526 37.917294 157 152 176
-9.215489 2.047647 37.868931 156 152 176
-9.227259 2.131999 37.917294 156 152 176
-10.531987 2.526757 43.278778 155 150 174
-10.656259 2.650967 43.789444 153 148 172
-10.516657 2.709397 43.215782 153 147 171
-10.395602 2.770296 42.718334 153 147 172
-10.336114 2.846002 42.473881 154 148 173
-10.219156 2.904322 41.993271 154 148 173
-10.161664 2.977996 41.757023 155 148 174
-10.062595 3.038100 41.349918 155 149 175
-9.993006 3.105609 41.063957 155 149 175
-9.965439 3.185318 40.950680 156 149 176
-9.897182 3.251172 40.670197 157 148 176
-9.870141 3.329720 40.559074 157 147 176
-9.870141 3.417152 40.559074 159 148 177
-9.856676 3.499803 40.503742 161 150 178
-9.829855 3.577354 40.393528 164 153 180
-9.829855 3.664429 40.393528 166 155 181
-10.980157 4.190510 45.120430 167 156 181
-11.883130 4.640387 48.830990 166 157 180
-11.922349 4.761312 48.992149 167 160 180
-12.061675 4.923799 49.564678 168 163 183
-12.204296 5.090127 50.150745 169 164 184
-12.329255 5.251460 50.664234 168 164 184
-12.371478 5.379034 50.837742 167 164 184
-12.435359 5.516963 51.100246 167 164 184
-12.499902 5.656324 51.365471 166 162 183
-12.543304 5.787076 51.543823 164 160 182
-12.971173 6.099381 53.302052 163 158 181
-14.250381 6.827131 58.558662 160 155 181
-14.363705 7.008659 59.024338 158 153 179
-14.363705 7.135896 59.024338 156 152 178
-14.194387 7.177516 58.328571 154 151 177
-14.111217 7.260460 57.986801 153 151 176
-14.029016 7.342438 57.649014 152 150 176
-13.041414 6.941075 53.590691 150 148 174
-6.020786 3.257796 24.741035 151 148 174
-12.947927 7.120709 53.206528 152 148 175
-12.924765 7.222461 53.111347 153 148 175
-12.901685 7.323849 53.016502 153 149 175
-12.901685 7.438135 53.016502 153 149 175
-12.878687 7.538958 52.922001 153 149 175
-12.435359 7.609906 51.100246 150 150 174
-12.308251 7.641151 50.577927 148 150 172
-11.395810 7.175640 46.828457 146 151 171
-12.947927 8.267662 53.206528 144 151 170
-12.994502 8.412510 53.397919 142 150 169
-12.994502 8.527617 53.397919 140 149 169
-12.994502 8.642726 53.397919 139 148 167
-12.994502 8.757833 53.397919 138 147 167
-12.949265 -7.397187 53.687599 165 150 175
-12.833232 -7.216209 53.206528 163 149 173
-12.833232 -7.101513 53.206528 162 147 171
-12.902600 -7.024585 53.494129 161 146 170
-12.925891 -6.921741 53.590691 161 145 170
-13.511214 -7.114424 56.017437 160 142 169
-13.536755 -7.006889 56.123333 159 140 168
-13.536755 -6.885907 56.123333 160 139 168
-13.536755 -6.764924 56.123333 161 138 169
-13.460420 -6.606475 55.806847 161 138 169
-13.410007 -6.461881 55.597832 162 137 168
-13.163499 -6.225450 54.575813 163 138 168
-7.111165 -2.791107 29.482862 160 137 165
-7.083030 -2.716760 29.366215 160 137 166
-7.055117 -2.643000 29.250484 161 137 166
-6.993109 -2.557270 28.993401 162 137 167
-6.979477 -2.489907 28.936884 162 137 167
-6.952372 -2.418102 28.824507 162 138 167
-6.912107 -2.342321 28.657570 162 138 167
-6.885522 -2.271774 28.547348 162 137 166
-6.885522 -2.210235 28.547348 160 136 165
-10.784554 -3.365428 44.712715 159 135 163
-10.784554 -3.269043 44.712715 159 135 162
-10.736047 -3.158388 44.511608 159 134 162
-10.736047 -3.062436 44.511608 159 135 163
-14.495837 -4.005353 60.099682 160 137 165
-14.918632 -3.988843 61.852589 161 138 166
-15.043999 -3.887909 62.372356 161 138 167
-15.075670 -3.761357 62.503666 162 139 168
-14.981053 -3.603859 62.111385 163 140 168
-14.918632 -3.455509 61.852589 164 142 169
-14.887616 -3.315269 61.723995 164 143 170
-18.503729 -3.955154 76.716385 164 143 170
-18.456039 -3.285166 76.518669 164 143 172
-15.842795 -2.678417 65.684166 164 144 171
-15.842795 -2.536824 65.684166 164 144 170
-15.533500 -2.348470 64.401825 164 145 171
-15.433067 -2.195355 63.985435 163 146 171
-15.366831 -2.048594 63.710819 163 147 172
-15.366831 -1.911254 63.710819 165 150 174
-15.366831 -1.773915 63.710819 166 153 175
-15.268536 -1.489647 63.303288 169 155 176
-15.171490 -1.344586 62.900936 170 155 177
-15.075670 -1.201357 62.503666 170 154 177
-15.012460 -1.062148 62.241596 169 154 176
-15.043999 -0.929926 62.372356 169 154 176
-15.107475 -0.798828 62.635532 168 153 176
-15.139415 -0.665210 62.767956 168 153 176
-15.301161 -0.535565 63.438553 168 154 177
-15.366831 -0.400525 63.710819 167 153 176
-13.613961 0.010181 56.443428 167 152 178
-13.285609 0.128674 55.082081 168 152 179
-13.285609 0.247413 55.082081 169 153 179
-13.187741 0.363454 54.676319 170 153 179
-13.115281 0.478673 54.375900 170 153 178
-13.091304 0.594800 54.276493 169 153 177
-13.091304 1.062807 54.276493 163 152 177
-10.215325 0.920621 42.352699 163 151 178
-6.618247 1.010495 27.439226 163 150 176
-6.612136 1.068657 27.413889 164 151 177
-6.593871 1.124637 27.338160 163 151 178
-9.133857 1.966015 37.868931 159 155 178
-9.122221 2.045039 37.820690 158 156 178
-9.122221 2.126567 37.820690 157 155 177
-10.561863 2.556571 43.789444 154 151 174
-10.244555 2.937562 42.473881 157 150 174
-10.114326 2.990615 41.933956 157 150 175
-9.987369 3.042337 41.407589 157 150 175
-9.931960 3.114224 41.177868 156 150 175
-9.904486 3.194129 41.063957 157 150 176
-9.822968 3.255632 40.725983 158 150 177
-9.809511 3.338843 40.670197 160 149 177
-9.822968 3.431215 40.725983 161 150 178
-9.822968 3.519006 40.725983 163 151 179
-9.769363 3.587115 40.503742 166 153 181
-9.822968 3.694589 40.725983 168 155 182
-11.720038 4.512857 48.591232 168 157 181
-11.816738 4.655702 48.992149 168 159 181
-11.875528 4.785001 49.235889 169 161 182
-12.015006 4.948583 49.814163 170 164 184
-12.096189 5.090127 50.150745 170 164 185
-12.220040 5.251460 50.664234 168 164 184
-12.240929 5.369838 50.750843 167 164 184
-12.240929 5.479240 50.750843 166 163 183
-5.947628 2.715411 24.658838 165 161 182
-5.962484 2.775483 24.720434 163 159 182
-5.967453 2.831130 24.741035 162 157 182
-14.264828 6.895131 59.141918 160 155 180
-14.321887 7.050711 59.378483 157 153 179
-14.321887 7.178711 59.378483 155 151 177
-14.236468 7.263132 59.024338 154 151 177
-14.041065 7.288932 58.214199 155 151 176
-5.967453 3.151129 24.741035 153 149 175
-5.967453 3.204463 24.741035 151 147 173
-5.942692 3.244278 24.638374 151 147 173
-5.942692 3.297390 24.638374 153 149 174
-12.764605 7.196712 52.922001 154 150 175
-12.764605 7.310794 52.922001 155 150 175
-12.787399 7.438135 53.016502 155 150 175
-11.294864 7.074693 46.828457 148 150 172
-11.206484 7.119492 46.462036 146 150 171
-11.206484 7.219649 46.462036 144 150 170
-12.879395 8.412510 53.397919 142 150 169
-12.879395 8.527617 53.397919 141 149 169
-12.856272 8.627209 53.302052 140 147 167
-12.856272 8.742110 53.302052 139 146 166
-13.700663 -7.896997 57.315140 164 151 176
-12.764287 -7.242167 53.397919 163 150 175
-12.764287 -7.127059 53.397919 162 149 173
-12.810367 -7.037264 53.590691 162 147 172
-12.998065 -7.023159 54.375900 161 146 170
-13.415771 -7.127872 56.123333 161 143 170
-13.415771 -7.006889 56.123333 161 141 171
-13.441180 -6.898948 56.229626 161 140 171
-13.441180 -6.777736 56.229626 161 138 170
-13.340119 -6.606475 55.806847 161 137 169
-13.340119 -6.486174 55.806847 162 137 168
-13.045852 -6.225450 54.575813 163 137 168
-9.538902 -4.465920 39.904896 163 137 167
-9.538902 -4.379899 39.904896 164 138 167
-7.026677 -2.719450 29.395288 160 136 165
-7.005867 -2.648218 29.308235 160 136 166
-6.957788 -2.567299 29.107100 161 137 166
-6.930609 -2.494770 28.993401 162 137 166
-6.917099 -2.427529 28.936884 162 137 166
-6.856950 -2.344584 28.685259 162 137 166
-6.830552 -2.273960 28.574823 162 137 166
-6.823984 -2.210235 28.547348 161 136 164
-6.830552 -2.150765 28.574823 160 136 164
-10.640095 -3.254340 44.511608 160 135 163
-10.640095 -3.158388 44.511608 160 135 163
-10.640095 -3.062436 44.511608 160 135 163
-14.785298 -4.122176 61.852589 160 137 165
-14.878288 -4.013930 62.241596 160 137 165
-14.878288 -3.879758 62.241596 160 137 165
-14.878288 -3.745586 62.241596 161 139 167
-14.785298 -3.588843 61.852589 162 140 168
-14.693464 -3.434047 61.468410 162 141 168
-14.663106 -3.294720 61.341408 162 142 168
-14.693464 -3.169036 61.468410 161 142 169
-15.701202 -2.820010 65.684166 162 141 170
-15.394671 -2.626127 64.401825 163 142 169
-15.361349 -2.481915 64.262428 165 143 170
-15.295136 -2.333286 63.985435 165 144 170
-15.229492 -2.185932 63.710819 164 145 171
-15.164409 -2.039839 63.438553 164 147 171
-15.196881 -1.907162 63.574394 165 149 173
-15.035897 -1.344586 62.900936 169 154 176
-14.878288 -1.196320 62.241596 169 153 176
-14.785298 -1.055509 61.852589 168 153 176
-14.816166 -0.924101 61.981716 168 153 175
-14.909545 -0.795472 62.372356 168 152 176
-15.004108 -0.665210 62.767956 168 153 176
-15.262244 -0.539020 63.847832 168 154 177
-15.229492 -0.400525 63.710819 167 153 176
-14.940933 -0.123462 62.503666 168 152 177
-13.441180 0.010143 56.229626 168 152 178
-13.166871 0.128674 55.082081 169 153 179
-13.265315 0.249263 55.493912 170 153 180
-13.142488 0.365473 54.980080 171 154 180
-13.045852 0.480433 54.575813 172 154 180
-12.927037 0.592633 54.078766 171 154 179
-12.927037 0.709208 54.078766 169 154 178
-10.124027 0.829323 42.352699 164 152 178
-10.023932 0.911519 41.933956 163 151 178
-10.023932 1.001915 41.933956 163 150 177
-18.244070 1.988060 76.321960 163 150 177
-18.433619 2.174949 77.114914 163 150 176
-18.244070 2.317109 76.321960 163 150 175
-9.603441 1.306300 40.174889 164 150 175
-6.565165 0.952225 27.464609 164 151 175
-6.546996 1.008631 27.388599 164 151 176
-6.528927 1.064724 27.313011 164 152 176
-6.499032 1.118457 27.187950 164 152 177
-6.481227 1.173841 27.113462 164 153 179
-9.075376 1.889201 37.965782 161 157 181
-9.040692 1.963510 37.820690 161 158 180
-9.017717 2.039842 37.724579 160 158 180
-9.017717 2.121163 37.724579 157 156 177
-10.285425 2.512109 43.027885 154 152 173
-10.330339 2.616238 43.215782 153 150 172
-10.330339 2.709397 43.215782 154 151 173
-10.038110 2.994845 41.993271 159 152 175
-9.925795 3.050847 41.523415 158 152 175
-9.870575 3.122887 41.292408 157 152 175
-9.843195 3.202990 41.177868 158 151 176
-9.775404 3.269085 40.894272 159 151 177
-9.748549 3.348016 40.781925 161 151 178
-9.775404 3.445393 40.894272 163 152 179
-9.829561 3.553124 41.120834 165 152 180
-9.829561 3.641767 41.120834 166 153 180
-9.884322 3.751191 41.349918 167 155 181
-11.691834 4.542595 48.911438 168 157 181
-11.749907 4.671118 49.154373 169 159 182
-11.828238 4.808926 49.482071 170 162 183
-11.947716 4.965245 49.981888 170 163 185
-12.028718 5.107382 50.320751 170 164 186
-12.090193 5.242514 50.577927 168 164 185
-12.110825 5.360675 50.664234 167 163 185
-5.909195 2.668905 24.720434 165 161 184
-5.894471 2.715411 24.658838 164 160 183
-5.914119 2.777796 24.741035 162 158 182
-14.193887 6.794711 59.378483 161 156 181
-14.250891 6.950513 59.616951 159 155 180
-14.250891 7.079027 59.616951 157 153 178
-14.250891 7.207541 59.616951 155 151 177
-14.193887 7.306711 59.378483 155 151 176
-5.821939 3.049512 24.355408 155 151 176
-5.821939 3.102014 24.355408 153 149 174
-5.889580 3.191166 24.638374 151 147 171
-5.889580 3.244278 24.638374 151 147 172
-5.889580 3.297390 24.638374 153 149 173
-12.650523 7.196712 52.922001 156 151 175
-12.650523 7.310794 52.922001 156 152 175
-11.615292 7.236261 48.591232 150 150 173
-11.193917 7.074693 46.828457 148 150 172
-11.106328 7.119492 46.462036 146 150 171
-11.106328 7.219649 46.462036 144 150 170
-12.810367 8.442880 53.590691 143 149 169
-12.810367 8.558403 53.590691 142 148 168
-12.741370 8.627209 53.302052 141 147 167
-12.741370 8.742110 53.302052 140 145 165
-13.118195 9.118957 54.878452 140 145 164
-14.037811 -8.420448 59.259964 165 152 179
-13.899097 -8.210760 58.674393 165 152 177
-13.603372 -7.912272 57.425999 164 151 177
-12.952014 -7.415552 54.676319 163 150 176
-12.671970 -7.139900 53.494129 162 149 175
-12.880849 -7.140375 54.375900 162 148 173
-13.294789 -7.248856 56.123333 162 147 172
-13.319968 -7.141372 56.229626 162 145 172
-13.319968 -7.020160 56.229626 162 143 172
-13.319968 -6.898948 56.229626 162 141 172
-13.319968 -6.777736 56.229626 161 139 171
-13.219818 -6.606475 55.806847 162 137 170
-13.219818 -6.486174 55.806847 162 137 168
-13.145688 -6.330177 55.493912 163 136 167
-9.452881 -4.465920 39.904896 163 137 166
-9.452881 -4.379899 39.904896 164 138 166
-10.803292 -4.219116 45.605595 159 135 164
-6.942688 -2.648218 29.308235 160 135 165
-6.895042 -2.567299 29.107100 160 135 165
-6.861408 -2.492336 28.965115 161 136 165
-6.861408 -2.429897 28.965115 162 137 165
-6.801686 -2.346852 28.712999 162 137 165
-6.782009 -2.278346 28.629934 161 137 165
-6.768954 -2.212362 28.574823 161 136 164
-6.782009 -2.154913 28.629934 160 136 164
-10.544143 -3.254340 44.511608 160 136 164
-10.639853 -3.187057 44.915646 160 136 164
-14.775091 -4.022362 62.372356 161 138 166
-14.713270 -3.871641 62.111385 161 138 166
-14.682554 -3.729947 61.981716 161 140 167
-14.621504 -3.581382 61.723995 161 141 167
-14.530874 -3.426951 61.341408 161 141 167
-14.411769 -3.267714 60.838612 161 142 168
-14.411769 -3.136567 60.838612 160 142 168
-14.713270 -3.068294 62.111385 161 142 169
-15.222821 -2.758971 64.262428 162 142 169
-15.059835 -2.592386 63.574394 163 142 169
-15.059835 -2.455342 63.574394 165 143 169
-15.059835 -2.318297 63.574394 165 144 170
-15.059835 -2.181252 63.574394 165 144 170
-15.027657 -2.039839 63.438553 164 146 170
-14.682554 -1.324936 61.981716 167 153 177
-14.651965 -1.188843 61.852589 167 152 177
-14.591168 -1.051130 61.595940 167 151 175
-14.591168 -0.918350 61.595940 167 150 174
-14.775091 -0.795472 62.372356 167 151 175
-15.491065 -0.693050 65.394806 167 152 176
-15.491065 -0.552080 65.394806 168 153 177
-15.124609 -0.401386 63.847832 168 153 176
-15.124609 -0.263752 63.847832 168 153 176
-12.447687 -0.103796 52.547333 169 152 177
-12.447687 0.009479 52.547333 169 152 178
-12.491906 0.123189 52.734001 169 153 179
-13.096728 0.248334 55.287228 170 153 180
-13.048132 0.366151 55.082081 171 154 180
-12.952014 0.481318 54.676319 172 154 180
-12.810461 0.592633 54.078766 172 154 180
-12.763963 0.706634 53.882473 171 154 180
-12.231206 0.788444 51.633465 168 153 179
-11.940481 0.878362 50.406185 166 152 179
-9.989976 0.825789 42.172218 164 152 178
-9.947586 0.912808 41.993271 163 151 178
-9.947586 1.003332 41.993271 163 150 177
-18.079546 1.988060 76.321960 163 150 176
-18.172979 2.163709 76.716385 163 150 175
-18.079546 2.317109 76.321960 163 151 174
-9.491152 1.302774 40.066452 164 151 173
-6.493946 0.950467 27.413889 165 151 174
-6.476007 1.006773 27.338160 165 152 175
-6.464102 1.063746 27.287907 165 152 176
-6.387778 1.109315 26.965706 164 153 177
-6.370420 1.164271 26.892429 164 154 178
-6.341698 1.216732 26.771183 165 156 180
-8.993534 1.807360 37.965782 165 158 181
-8.970591 1.884382 37.868931 164 158 181
-8.936396 1.958520 37.724579 162 159 180
-8.857612 2.021858 37.391994 160 158 179
-8.857612 2.102463 37.391994 158 156 177
-8.936396 2.202485 37.724579 156 154 175
-8.959164 2.289625 37.820690 155 152 174
-10.148547 2.685939 42.841618 156 153 174
-9.961677 2.999087 42.052750 159 153 175
-9.850060 3.055120 41.581573 158 153 174
-9.822547 3.135971 41.465424 158 153 175
-9.767977 3.207438 41.235058 158 152 175
-9.700611 3.273594 40.950680 160 152 176
-9.700611 3.361870 40.950680 162 152 178
-9.740919 3.464481 41.120834 164 154 180
-9.781563 3.567949 41.292408 165 153 180
-9.781563 3.656962 41.292408 164 153 178
-9.877729 3.782803 41.698376 166 154 179
-11.643946 4.565158 49.154373 167 157 181
-11.702069 4.694435 49.399738 168 159 183
-11.741140 4.816954 49.564678 169 161 184
-11.859939 4.973618 50.066177 170 162 185
-11.920243 5.107382 50.320751 170 163 186
-11.940481 5.224712 50.406185 168 163 186
-12.042711 5.379034 50.837742 166 161 185
-14.150791 6.706953 59.736904 161 158 182
-14.150791 6.835725 59.736904 160 156 180
-14.122376 6.950513 59.616951 158 154 179
-14.122376 7.079027 59.616951 157 154 177
-14.122376 7.207541 59.616951 156 152 176
-14.150791 7.350816 59.736904 155 152 175
-5.764708 3.047013 24.335443 155 151 174
-5.764708 3.099472 24.335443 153 150 172
-5.826797 3.185879 24.597549 152 149 171
-5.860786 3.257796 24.741035 152 149 171
-12.425695 7.020062 52.454491 154 151 173
-14.931939 8.571880 63.034485 155 152 174
-14.931939 8.707761 63.034485 156 152 175
-11.454305 7.200905 48.353813 150 150 172
-11.092971 7.074693 46.828457 148 150 172
-11.006171 7.119492 46.462036 147 150 172
-11.006171 7.219649 46.462036 145 149 170
-12.787169 8.504283 53.980442 143 148 169
-12.763963 8.605000 53.882473 142 147 168
-12.649179 8.642726 53.397919 142 146 167
-12.649179 8.757833 53.397919 141 145 165
-13.577110 9.523852 57.315140 140 145 163
-14.398643 -8.980671 61.341408 165 152 180
-13.910067 -8.548193 59.259964 165 153 180
-13.854758 -8.386968 59.024338 165 153 179
-13.745450 -8.194565 58.558662 164 153 178
-13.479581 -7.912272 57.425999 164 152 178
-13.299510 -7.684436 56.658859 163 151 177
-13.099518 -7.448580 55.806847 162 150 176
-13.198756 -7.383797 56.229626 162 149 175
-13.198756 -7.262584 56.229626 162 148 174
-13.223802 -7.154923 56.336323 162 145 174
-13.223802 -7.033481 56.336323 162 143 173
-13.223802 -6.912039 56.336323 163 142 173
-13.198756 -6.777736 56.229626 162 140 172
-13.099518 -6.606475 55.806847 162 138 170
-13.074941 -6.474005 55.702145 162 137 167
-13.074941 -6.353930 55.702145 163 136 166
-13.074941 -6.233855 55.702145 163 137 165
-9.366859 -4.379899 39.904896 163 138 165
-9.366859 -4.293877 39.904896 163 138 165
-14.922791 -6.292601 63.574394 159 135 164
-14.609944 -6.026508 62.241596 158 135 163
-14.428454 -5.819140 61.468410 158 134 163
-10.704982 -4.219116 45.605595 158 134 163
-6.832297 -2.630044 29.107100 159 134 163
-6.798969 -2.554775 28.965115 160 134 163
-6.798969 -2.492336 28.965115 161 135 163
-6.785728 -2.425165 28.908707 161 136 163
-6.759402 -2.353680 28.796549 161 136 163
-6.726779 -2.280545 28.657570 161 136 163
-6.720293 -2.216629 28.629934 161 136 164
-6.759402 -2.167454 28.796549 160 136 164
-10.543031 -3.283880 44.915646 161 137 165
-14.609944 -4.013930 62.241596 162 139 166
-14.579379 -3.871641 62.111385 162 140 167
-14.579379 -3.737750 62.111385 161 141 167
-14.518632 -3.588843 61.852589 161 142 167
-14.458388 -3.441171 61.595940 161 142 167
-14.339390 -3.281162 61.088974 161 143 168
-14.518632 -3.188843 61.852589 161 143 168
-14.922791 -2.729432 63.574394 163 143 169
-14.796058 -2.570370 63.034485 164 143 169
-14.796058 -2.434489 63.034485 165 143 170
-14.671460 -2.279252 62.503666 165 143 169
-14.859155 -2.171950 63.303288 165 143 169
-14.890904 -2.039839 63.438553 164 144 170
-9.638926 -0.966313 41.063957 166 151 177
-14.428454 -1.313964 61.468410 166 151 178
-14.428454 -1.181459 61.468410 166 150 177
-14.428454 -1.048954 61.468410 165 149 175
-14.428454 -0.916448 61.468410 166 149 174
-15.350096 -0.693050 65.394806 167 151 176
-15.350096 -0.552080 65.394806 167 151 175
-14.922791 -0.399667 63.574394 167 152 175
-14.609944 -0.257116 62.241596 168 152 176
-12.378230 -0.104164 52.734001 169 152 177
-10.355042 0.007958 44.114773 169 152 177
-10.248446 0.101993 43.660652 169 152 178
-10.070727 0.192710 42.903530 170 153 179
-9.941431 0.281534 42.352699 171 153 180
-12.693886 0.476057 54.078766 171 153 180
-12.693886 0.592633 54.078766 170 153 180
-12.119902 0.677140 51.633465 169 153 180
-11.994739 0.780302 51.100246 168 152 179
-9.899067 0.734880 42.172218 166 152 179
-9.857062 0.822285 41.993271 164 151 179
-9.857062 0.912808 41.993271 164 151 178
-9.857062 1.003332 41.993271 163 150 177
-18.101152 2.008715 77.114914 163 150 176
-18.101152 2.174949 77.114914 164 151 175
-9.430235 1.306300 40.174889 164 152 174
-6.422989 0.948715 27.363358 165 153 174
-6.405279 1.004922 27.287907 165 153 174
-6.375978 1.058880 27.163076 165 153 174
-6.312449 1.106300 26.892429 165 154 175
-6.301034 1.162166 26.843800 165 155 177
-6.250174 1.210184 26.627123 167 158 180
-8.888958 1.802749 37.868931 168 160 182
-8.888958 1.884382 37.868931 166 160 181
-8.843837 1.956035 37.676704 164 159 180
-8.777007 2.021858 37.391994 161 157 178
-8.777007 2.102463 37.391994 159 156 176
-8.777007 2.183067 37.391994 158 155 176
-8.821447 2.275134 37.581318 158 155 176
-8.821447 2.356146 37.581318 159 155 177
-8.832628 2.440248 37.628952 161 156 177
-9.927270 2.833840 42.292366 160 155 177
-9.899067 2.916698 42.172218 159 154 176
-9.871024 2.999087 42.052750 158 154 175
-9.760425 3.055120 41.581573 158 154 175
-9.746774 3.140357 41.523415 158 154 175
-9.679088 3.207438 41.235058 159 153 175
-9.625612 3.278115 41.007240 160 153 176
-9.625612 3.366513 41.007240 162 154 178
-9.692550 3.478937 41.292408 164 155 180
-9.692550 3.567949 41.292408 165 154 179
-9.746774 3.677420 41.523415 164 153 178
-9.871024 3.814951 42.052750 165 155 179
-11.595580 4.587946 49.399738 166 158 181
-11.634296 4.710109 49.564678 168 160 183
-11.653751 4.825009 49.647564 169 161 184
-11.752012 4.973618 50.066177 169 162 185
-11.791782 5.098740 50.235603 169 162 186
-11.831822 5.224712 50.406185 167 161 186
-14.050289 6.720475 59.857342 160 157 181
-14.022018 6.835725 59.736904 159 155 180
-14.022018 6.964498 59.736904 157 154 178
-14.022018 7.093271 59.736904 156 153 176
-14.050289 7.236604 59.857342 155 152 175
-14.050289 7.365636 59.857342 155 152 174
-14.050289 7.494668 59.857342 155 151 173
-5.807453 3.151129 24.741035 154 151 172
-5.773772 3.185879 24.597549 153 151 171
-5.807453 3.257796 24.741035 153 152 172
-14.827539 8.453948 63.168602 154 152 173
-15.051714 8.719990 64.123634 155 153 174
-14.986975 8.820119 63.847832 155 153 174
-11.313220 7.281421 48.196823 148 150 172
-10.992024 7.175640 46.828457 147 149 172
-12.929394 8.559101 55.082081 146 149 170
-12.834149 8.613914 54.676319 144 148 169
-12.717050 8.652108 54.177448 143 147 168
-12.647810 8.721153 53.882473 143 146 167
-13.223802 9.239763 56.336323 142 146 165
-13.350466 9.450872 56.875942 141 145 163
-13.274178 9.518772 56.550938 140 144 161
-13.727522 -8.514204 59.024338 166 153 181
-13.727522 -8.386968 59.024338 165 153 180
-13.646133 -8.210760 58.674393 164 153 180
-13.278737 -7.743547 57.094696 163 152 178
-13.127269 -7.533545 56.443428 162 151 178
-13.127269 -7.411872 56.443428 162 150 177
-13.102360 -7.276365 56.336323 162 148 176
-13.127269 -7.168526 56.443428 162 147 175
-13.102360 -7.033481 56.336323 162 145 174
-13.102360 -6.912039 56.336323 162 143 174
-13.077544 -6.777736 56.229626 163 141 172
-12.930606 -6.581731 55.597832 163 139 170
-12.906436 -6.449803 55.493912 162 138 167
-12.954865 -6.353930 55.702145 163 136 165
-12.954865 -6.233855 55.702145 163 136 164
-9.318412 -4.397631 40.066452 162 137 164
-9.268380 -4.288114 39.851334 162 137 164
-9.243566 -4.190957 39.744637 162 137 165
-14.785746 -6.566690 63.574394 162 137 165
-14.754152 -6.415907 63.438553 161 136 165
-14.475772 -6.160680 62.241596 159 135 164
-14.295949 -5.951645 61.468410 158 135 163
-10.672246 -4.344118 45.887547 158 135 163
-10.525828 -4.186958 45.257992 158 134 162
-6.769552 -2.630044 29.107100 159 134 162
-6.690836 -2.537446 28.768646 160 133 162
-6.690836 -2.475431 28.768646 160 134 162
-6.697326 -2.415756 28.796549 161 135 162
-6.697326 -2.353680 28.796549 161 136 163
-6.697326 -2.291605 28.796549 161 136 163
-6.697326 -2.229529 28.796549 161 136 163
-6.723411 -2.175895 28.908707 160 136 164
-14.475772 -4.013930 62.241596 162 139 167
-14.445488 -3.871641 62.111385 162 141 167
-14.475772 -3.745586 62.241596 161 142 167
-14.722693 -2.717792 63.303288 164 144 169
-14.598189 -2.559502 62.767956 165 144 169
-14.475772 -2.403867 62.241596 165 143 169
-11.703294 -1.834991 50.320751 165 143 169
-11.703294 -1.726516 50.320751 165 142 169
-9.550406 -1.054833 41.063957 162 146 174
-9.432982 -0.954432 40.559074 165 150 178
-9.432982 -0.867001 40.559074 166 150 179
-14.236997 -1.176587 61.214931 165 149 179
-14.295949 -1.048954 61.468410 165 149 177
-14.629117 -0.937806 62.900936 167 150 177
-14.945765 -0.542521 64.262428 167 151 175
-14.881344 -0.402251 63.985435 167 150 174
-14.475772 -0.257116 62.241596 167 151 174
-13.949381 -0.118474 59.978268 168 152 175
-13.754868 0.010668 59.141918 168 152 176
-10.021688 0.100661 43.090336 169 152 177
-9.822110 0.189695 42.232208 169 152 178
-9.738989 0.278358 41.874813 169 153 179
-9.711594 0.367589 41.757023 170 153 179
-12.716286 0.599181 54.676319 170 153 180
-12.008597 0.677140 51.633465 169 153 180
-9.766540 0.641238 41.993271 168 152 180
-9.643776 0.722564 41.465424 166 151 179
-9.752745 0.821124 41.933956 165 151 178
-9.766540 0.912808 41.993271 164 150 178
-17.659702 2.468940 75.931564 164 153 175
-6.346455 0.946099 27.287907 165 154 175
-6.334810 1.003078 27.237837 165 154 175
-6.288655 1.054058 27.039383 166 154 175
-6.243167 1.104300 26.843800 166 155 175
-6.231898 1.160068 26.795345 166 156 177
-6.176157 1.206937 26.555674 168 158 179
-8.807325 1.802749 37.868931 168 160 181
-8.784915 1.879587 37.772572 167 160 181
-8.751513 1.953556 37.628952 165 160 181
-8.685463 2.019315 37.344959 163 159 179
-8.674552 2.097180 37.298042 161 158 178
-8.685463 2.180321 37.344959 161 158 178
-8.685463 2.260824 37.344959 161 158 178
-8.685463 2.341328 37.344959 162 158 179
-6.743109 1.880230 28.993401 163 158 180
-6.665003 1.920227 28.657570 162 157 178
-9.780373 2.908436 42.052750 159 155 176
-9.780373 2.999087 42.052750 159 155 176
-9.711594 3.068011 41.757023 159 155 175
-9.643776 3.135971 41.465424 159 155 175
-9.590199 3.207438 41.235058 160 155 175
-9.537214 3.278115 41.007240 161 155 176
-9.524060 3.361870 40.950680 162 155 177
-9.484813 3.435928 40.781925 163 156 179
-9.603538 3.567949 41.292408 164 155 179
-9.752745 3.713779 41.933956 165 156 179
-11.470006 4.474012 49.317677 166 158 181
-11.546728 4.610962 49.647564 167 159 182
-11.546728 4.717986 49.647564 168 160 183
-11.604947 4.849337 49.897884 169 161 184
-11.663755 4.982019 50.150745 169 161 185
-11.683492 5.098740 50.235603 168 161 185
-11.703294 5.215857 50.320751 167 160 185
-13.949381 6.734051 59.978268 160 156 181
-13.921257 6.849507 59.857342 158 155 180
-13.921257 6.978539 59.857342 157 154 177
-13.921257 7.107572 59.857342 156 153 175
-13.949381 7.251223 59.978268 155 152 173
-13.977618 7.395456 60.099682 155 152 173
-13.949381 7.509809 59.978268 155 152 172
-13.921257 7.623701 59.857342 154 152 171
-5.749328 3.201795 24.720434 153 152 171
-5.754119 3.257796 24.741035 153 152 172
-15.043449 8.656548 64.682442 154 152 173
-15.043449 8.795981 64.682442 154 153 174
-14.849340 8.820119 63.847832 154 153 174
-13.102360 8.753995 56.336323 146 148 170
-12.810656 8.677839 55.082081 144 147 169
-12.646417 8.683802 54.375900 144 147 168
-12.646417 8.801018 54.375900 143 146 167
-13.102360 9.239763 56.336323 142 146 165
-13.177373 9.414801 56.658859 141 145 163
-13.102360 9.482648 56.336323 141 144 161
-13.600285 -8.514204 59.024338 165 153 180
-13.546423 -8.353751 58.790577 165 153 180
-13.519650 -8.210760 58.674393 164 153 180
-13.055236 -7.562299 56.658859 163 152 179
-12.980917 -7.397808 56.336323 163 151 178
-12.980917 -7.276365 56.336323 163 149 178
-13.005596 -7.168526 56.443428 163 148 177
-12.980917 -7.033481 56.336323 163 147 176
-12.956332 -6.898948 56.229626 163 145 174
-12.931840 -6.764924 56.123333 164 143 172
-12.810756 -6.581731 55.597832 163 141 170
-12.739187 -6.425781 55.287228 163 139 167
-14.076015 -6.968404 61.088974 162 138 164
-14.076015 -6.836717 61.088974 162 137 163
-9.269571 -4.415507 40.229324 162 137 163
-9.182474 -4.288114 39.851334 162 137 163
-9.145646 -4.185354 39.691502 162 137 164
-9.145646 -4.099792 39.691502 162 137 164
-14.617400 -6.415907 63.438553 161 136 164
-14.341600 -6.160680 62.241596 159 136 164
-14.134180 -5.939348 61.341408 159 135 163
-10.428267 -4.284519 45.257992 159 135 163
-10.365066 -4.161582 44.983700 159 135 163
-10.333752 -4.052333 44.847797 159 134 162
-6.603227 -2.527649 28.657570 160 133 161
-6.603227 -2.465873 28.657570 161 133 161
-6.628821 -2.413415 28.768646 162 134 162
-6.628821 -2.351400 28.768646 162 135 162
-6.635251 -2.291605 28.796549 161 136 163
-6.661094 -2.238213 28.908707 161 136 164
-6.667586 -2.178016 28.936884 161 137 165
-17.275110 -4.996577 74.972832 163 140 168
-8.942410 -2.502803 38.809467 162 140 167
-8.942410 -2.419143 38.809467 162 141 167
-14.371730 -2.543371 62.372356 166 144 169
-14.311597 -2.398838 62.111385 166 143 170
-11.594819 -1.834991 50.320751 165 143 170
-11.555648 -1.720683 50.150745 165 142 170
-9.514524 -1.149714 41.292408 160 141 171
-9.409826 -1.049030 40.838024 162 145 174
-9.294760 -0.949245 40.338646 165 148 179
-9.294760 -0.862289 40.338646 165 148 180
-11.835542 -0.987274 51.365471 166 149 180
-14.163444 -1.048954 61.468410 167 150 180
-14.743412 -0.402251 63.985435 167 150 174
-14.555199 -0.260946 63.168602 167 151 174
-14.163444 -0.121417 61.468410 168 151 174
-13.820087 0.010819 59.978268 168 152 175
-13.736835 0.139268 59.616951 168 152 177
-9.885756 0.192710 42.903530 168 152 178
-9.703465 0.279937 42.112400 168 153 179
-9.621580 0.367589 41.757023 170 153 179
-13.764474 0.654639 59.736904 170 153 180
-9.554390 0.633178 41.465424 168 152 180
-9.554390 0.722564 41.465424 167 151 179
-9.554390 0.811949 41.465424 166 151 178
-9.396900 1.150214 40.781925 164 151 176
-17.496019 2.305257 75.931564 164 152 175
-17.496019 2.468940 75.931564 165 153 176
-6.287632 0.946099 27.287907 165 154 176
-6.247437 0.998498 27.113462 166 155 176
-6.190899 1.047381 26.868092 166 155 177
-6.174137 1.102306 26.795345 167 156 177
-6.107985 1.147639 26.508251 168 157 178
-6.102537 1.203707 26.484606 169 158 179
-8.703490 1.798162 37.772572 169 159 180
-8.670397 1.872440 37.628952 168 160 180
-8.659422 1.951083 37.581318 166 160 179
-8.583366 2.014248 37.251244 165 159 179
-8.561882 2.089306 37.158001 164 159 179
-8.561882 2.169406 37.158001 163 158 179
-8.561882 2.249506 37.158001 163 159 180
-6.693682 1.821287 29.050138 163 159 180
-6.615999 1.862046 28.712999 164 159 180
-6.565205 1.909170 28.492556 162 158 179
-6.565205 1.970591 28.492556 160 156 177
-9.717249 3.007607 42.172218 160 156 176
-9.621580 3.068011 41.757023 159 156 176
-9.501310 3.118549 41.235058 159 156 175
-9.448817 3.189718 41.007240 160 156 175
-9.371156 3.251172 40.670197 161 156 176
-9.371156 3.338843 40.670197 162 157 178
-9.345551 3.417152 40.559074 163 157 179
-9.567753 3.587910 41.523415 164 157 181
-9.703465 3.729582 42.112400 165 158 182
-11.458867 4.511483 49.730724 167 159 183
-11.458867 4.618686 49.730724 168 160 184
-11.497384 4.741774 49.897884 169 160 185
-11.555648 4.873911 50.150745 169 161 184
-11.555648 4.982019 50.150745 169 161 184
-11.555648 5.090127 50.150745 168 160 184
-5.639689 2.536979 24.475880 167 159 184
-5.663033 2.600460 24.577187 166 158 184
-13.848063 6.747683 60.099682 160 156 180
-13.792225 6.849507 59.857342 158 154 178
-13.792225 6.978539 59.857342 156 153 176
-13.792225 7.107572 59.857342 155 152 173
-13.876153 7.280640 60.221588 154 152 171
-13.932674 7.440642 60.466888 155 153 172
-13.876153 7.540275 60.221588 156 153 172
-13.792225 7.623701 59.857342 154 153 171
-13.792225 7.752733 59.857342 153 152 171
-14.904016 8.517115 64.682442 153 152 172
-12.739187 8.590979 55.287228 146 148 170
-12.575264 8.598080 54.575813 145 147 168
-12.575264 8.715727 54.575813 144 146 167
-13.005596 9.135656 56.443428 143 146 165
-12.980917 9.239763 56.336323 142 145 164
-12.980917 9.361206 56.336323 141 145 162
-12.956332 9.464688 56.229626 141 144 160
-13.473048 -8.514204 59.024338 166 152 180
-13.393168 -8.337242 58.674393 165 153 180
-13.393168 -8.210760 58.674393 164 153 180
-12.883923 -7.533545 56.443428 164 152 180
-12.738615 -7.328279 55.806847 163 151 179
-12.738615 -7.207978 55.806847 164 150 179
-12.859475 -7.154923 56.336323 164 149 178
-12.859475 -7.033481 56.336323 165 148 178
-12.835120 -6.898948 56.229626 165 146 176
-12.762606 -6.739444 55.911945 165 145 174
-12.714716 -6.594080 55.702145 165 143 171
-12.620007 -6.425781 55.287228 164 140 167
-13.944328 -6.705030 61.088974 165 139 164
-9.133347 -4.305451 40.012455 164 139 164
-9.072213 -4.190957 39.744637 164 139 165
-9.072213 -4.105280 39.744637 163 138 165
-14.480648 -6.279155 63.438553 160 136 163
-9.821657 -4.166152 43.027885 160 136 163
-9.821657 -4.073398 43.027885 160 136 163
-10.221634 -4.142752 44.780155 161 136 163
-10.221634 -4.046221 44.780155 161 135 162
-6.528847 -2.522779 28.602352 161 134 161
-6.528847 -2.461122 28.602352 162 133 161
-6.554104 -2.408747 28.712999 163 134 161
-6.554104 -2.346852 28.712999 163 135 162
-6.566805 -2.289384 28.768646 163 135 163
-6.598776 -2.238213 28.908707 162 136 164
-17.556849 -5.789235 76.915138 162 137 165
-17.376778 -5.237550 76.126259 164 141 168
-8.847184 -2.583087 38.758801 164 142 168
-8.835649 -2.496277 38.708267 164 141 167
-8.835649 -2.412835 38.708267 163 141 167
-8.858749 -2.335483 38.809467 162 142 167
-14.237276 -2.543371 62.372356 167 145 169
-14.177706 -2.398838 62.111385 167 144 170
-14.177706 -2.264947 62.111385 166 144 171
-14.177706 -2.131056 62.111385 166 143 171
-9.386348 -1.144937 41.120834 163 143 174
-9.283484 -1.044719 40.670197 164 145 176
-9.207804 -0.949245 40.338646 165 146 179
-9.207804 -0.862289 40.338646 166 147 180
-11.745136 -0.988985 51.454491 166 148 180
-14.637027 -0.403120 64.123634 166 149 174
-14.480648 -0.262061 63.438553 167 150 173
-14.118632 -0.122176 61.852589 167 151 174
-13.746335 0.010863 60.221588 167 151 175
-13.690795 0.140112 59.978268 167 151 176
-13.663192 0.268862 59.857342 166 152 176
-13.663192 0.397894 59.857342 167 152 178
-13.663192 0.526926 59.857342 168 153 179
-9.386348 0.716559 41.120834 166 151 179
-9.399366 0.806318 41.177868 166 151 178
-9.308989 1.062302 40.781925 165 151 177
-9.258120 1.143928 40.559074 164 151 176
-9.283484 1.234733 40.670197 164 151 175
-17.332336 2.468940 75.931564 165 152 176
-17.332336 2.632623 75.931564 166 153 177
-6.155262 0.993057 26.965706 167 155 178
-6.127435 1.046434 26.843800 169 156 179
-6.116375 1.102306 26.795345 170 157 179
-6.045444 1.146615 26.484606 170 158 180
-6.018600 1.198362 26.367001 170 159 180
-6.018600 1.255200 26.367001 170 160 180
-8.578409 1.870070 37.581318 169 160 180
-8.578409 1.951083 37.581318 167 160 179
-8.481781 2.009206 37.158001 166 159 179
-8.471179 2.086694 37.111553 165 159 179
-8.460604 2.163989 37.065220 164 158 179
-8.450054 2.241091 37.019005 164 159 180
-6.631060 1.821287 29.050138 164 159 180
-6.605208 1.876565 28.936884 165 159 181
-6.585951 1.933290 28.852520 164 158 180
-8.471179 3.046694 37.111553 163 157 178
-8.408118 3.103419 36.835289 164 157 180
-8.471179 3.206694 37.111553 165 157 182
-8.408118 3.262228 36.835289 166 158 183
-11.351664 4.511483 49.730724 167 159 184
-11.389821 4.634211 49.897884 168 160 185
-11.447539 4.765803 50.150745 169 160 185
-11.505846 4.898736 50.406185 169 160 184
-11.505846 5.007395 50.406185 169 160 184
-11.505846 5.116054 50.406185 169 160 184
-5.586928 2.536979 24.475880 168 159 183
-13.774275 6.775113 60.343987 159 154 178
-13.690795 6.863344 59.978268 158 154 176
-13.690795 6.992637 59.978268 156 153 175
-13.690795 7.121930 59.978268 155 153 172
-17.602449 9.323001 77.114914 154 152 171
-13.858780 7.471075 60.714195 155 154 172
-13.774275 7.555601 60.343987 157 154 172
-6.034678 3.367191 26.437437 154 153 171
-14.960140 8.488644 65.539169 153 152 171
-9.412421 6.318549 41.235058 148 148 170
-9.347508 6.363249 40.950680 146 147 169
-9.334633 6.442638 40.894272 145 147 168
-12.188747 8.527617 53.397919 144 146 166
-12.883923 9.135656 56.443428 142 145 165
-12.908463 9.274962 56.550938 141 145 163
-12.908463 9.396868 56.550938 141 144 161
-12.835120 9.464688 56.229626 140 144 160
-12.957827 9.677544 56.767193 139 143 160
-13.345812 -8.514204 59.024338 166 152 180
-13.266686 -8.337242 58.674393 166 152 180
-13.162634 -8.146361 58.214199 165 152 179
-13.111217 -7.989540 57.986801 164 152 179
-12.860044 -7.713879 56.875942 164 152 179
-12.571055 -7.420682 55.597832 165 152 179
-12.431376 -7.219712 54.980080 165 152 180
-12.547558 -7.167560 55.493912 165 151 180
-12.762250 -7.168526 56.443428 166 150 179
-12.762250 -7.046853 56.443428 166 149 179
-12.713908 -6.898948 56.229626 166 148 178
-12.594641 -6.714155 55.702145 166 146 176
-12.477590 -6.532796 55.184464 166 145 173
-12.408398 -6.378271 54.878452 166 143 169
-9.083820 -4.236325 40.174889 166 141 167
-9.728904 -4.166152 43.027885 161 137 163
-9.714824 -4.067503 42.965618 162 138 163
-9.714824 -3.974884 42.965618 163 137 163
-9.658912 -3.859920 42.718334 163 136 162
-6.467190 -2.522779 28.602352 164 135 163
-6.467190 -2.461122 28.602352 165 134 163
-6.473426 -2.401779 28.629934 165 134 163
-6.485936 -2.344584 28.685259 165 134 163
-6.492208 -2.284956 28.712999 164 135 164
-6.542830 -2.240394 28.936884 163 136 165
-17.436216 -5.804272 77.114914 163 137 165
-17.436216 -5.638038 77.114914 163 139 166
-17.346107 -5.443526 76.716385 164 141 168
-8.763634 -2.666638 38.758801 166 142 170
-8.752208 -2.579719 38.708267 166 143 170
-8.752208 -2.496277 38.708267 165 142 168
-8.752208 -2.412835 38.708267 163 141 167
-8.763634 -2.332434 38.758801 163 141 167
-14.102822 -2.408917 62.372356 169 145 172
-14.102822 -2.274463 62.372356 168 144 172
-9.297706 -1.144937 41.120834 166 145 176
-9.195813 -1.044719 40.670197 166 145 178
-9.108471 -0.947957 40.283909 167 146 179
-9.108471 -0.861119 40.283909 167 147 179
-11.715433 -0.995889 51.813686 167 148 179
-14.313313 -0.261502 63.303288 164 149 173
-13.985299 -0.122176 61.852589 164 149 173
-13.616518 0.010863 60.221588 164 150 174
-13.561502 0.140112 59.978268 164 150 175
-13.534160 0.268862 59.857342 164 150 176
-13.534160 0.397894 59.857342 165 152 177
-13.534160 0.526926 59.857342 166 152 179
-9.246478 0.712611 40.894272 166 151 178
-9.246478 0.800765 40.894272 166 151 178
-9.183233 1.057942 40.614559 165 151 177
-9.170688 1.143928 40.559074 164 149 175
-9.170688 1.231360 40.559074 164 149 175
-17.391045 2.500921 76.915138 166 151 177
-17.391045 2.666724 76.915138 167 152 177
-6.124949 0.997587 27.088724 168 154 178
-6.069569 1.046434 26.843800 169 155 179
-6.058613 1.102306 26.795345 170 157 179
-5.999056 1.148664 26.531940 171 158 180
-5.977688 1.201563 26.437437 172 159 180
-5.977688 1.258553 26.437437 172 161 180
-8.465250 1.862996 37.439144 171 162 180
-8.465250 1.943702 37.439144 170 162 181
-8.391179 2.006694 37.111553 168 161 181
-8.380703 2.084089 37.065220 167 159 180
-8.359830 2.158600 36.972904 167 159 181
-8.349432 2.235517 36.926918 167 159 181
-6.594247 1.828444 29.164286 166 159 181
-6.587776 1.889456 29.135664 168 160 182
-7.336550 2.174159 32.447258 167 159 182
-8.246860 3.151542 36.473270 166 157 182
-13.644194 6.645031 60.343987 162 156 178
-13.644194 6.775113 60.343987 159 154 176
-13.644194 6.905194 60.343987 159 154 175
-17.573151 9.061140 77.720528 158 153 174
-17.573151 9.228680 77.720528 157 153 173
-17.573151 9.396218 77.720528 156 153 172
-5.977688 3.253211 26.437437 157 154 172
-5.972370 3.307256 26.413916 157 154 172
-5.972370 3.364195 26.413916 156 153 171
-13.588954 9.079667 60.099682 149 148 170
-9.323532 6.318549 41.235058 147 147 169
-9.246478 6.354484 40.894272 146 147 168
-9.158176 6.381113 40.503742 145 146 167
-9.145700 6.459612 40.448559 143 146 165
-9.145700 6.546806 40.448559 141 145 163
-12.786559 9.274962 56.550938 140 143 162
-12.786559 9.396868 56.550938 139 143 160
-12.835456 9.555173 56.767193 138 142 159
-12.909507 9.733376 57.094696 137 141 159
-13.324535 -8.582454 59.497478 167 152 179
-13.140204 -8.337242 58.674393 167 152 179
-13.037144 -8.146361 58.214199 166 152 179
-13.011631 -8.005176 58.100277 166 153 179
-12.737439 -7.713879 56.875942 165 153 179
-12.312858 -7.338231 54.980080 166 153 179
-12.222322 -7.166626 54.575813 166 153 180
-12.067048 -6.959427 53.882473 166 152 180
-12.664654 -7.182180 56.550938 166 151 180
-12.664654 -7.060275 56.550938 167 150 180
-12.568891 -6.885907 56.123333 168 149 179
-12.358631 -6.651756 55.184464 168 148 177
-12.177552 -6.437078 54.375900 168 147 175
-11.980078 -6.217378 53.494129 168 146 173
-9.636149 -4.166152 43.027885 165 139 165
-9.580610 -4.049920 42.779888 164 138 164
-9.580610 -3.957701 42.779888 164 138 164
-9.566825 -3.859920 42.718334 164 136 163
-6.411710 -2.525212 28.629934 165 135 164
-6.411710 -2.463495 28.629934 166 134 164
-6.424100 -2.406420 28.685259 166 134 164
-6.424100 -2.344584 28.685259 166 135 164
-11.583525 -4.116106 51.723419 166 136 165
-17.180733 -5.939650 76.716385 165 137 165
-17.225243 -5.789235 76.915138 165 138 166
-17.180733 -5.608901 76.716385 166 139 167
-17.048573 -5.401653 76.126259 166 141 168
-8.680082 -2.666638 38.758801 168 143 171
-8.657478 -2.576360 38.657867 168 144 170
-8.657478 -2.493027 38.657867 166 142 169
-8.657478 -2.409693 38.657867 165 141 167
-8.668766 -2.329393 38.708267 164 141 167
-9.120636 -1.046152 40.725983 167 146 177
-9.095682 -0.955738 40.614559 168 147 178
-14.176851 -0.261502 63.303288 162 148 174
-13.851965 -0.122176 61.852589 162 148 174
-13.514112 0.010885 60.343987 162 149 174
-13.432209 0.140112 59.978268 162 149 175
-13.405128 0.268862 59.857342 163 150 177
-13.405128 0.397894 59.857342 165 152 179
-13.432209 0.527991 59.978268 166 153 179
-9.095682 0.707737 40.614559 166 151 178
-9.058506 0.792037 40.448559 166 151 177
-9.108142 0.884049 40.670197 167 152 178
-9.108142 0.971720 40.670197 167 152 178
-9.083256 1.056497 40.559074 165 150 176
-9.046182 1.139259 40.393528 163 147 174
-9.046182 1.226334 40.393528 164 148 175
-17.314957 2.513947 77.315735 166 150 176
-17.314957 2.680613 77.315735 167 151 177
-17.092400 2.810683 76.321960 168 153 177
-6.011703 1.046434 26.843800 169 154 178
-6.000852 1.102306 26.795345 170 155 179
-5.957835 1.151752 26.603264 171 157 180
-5.931261 1.203707 26.484606 172 158 180
-5.920698 1.258553 26.437437 172 160 180
-8.384544 1.862996 37.439144 171 161 180
-8.384544 1.943702 37.439144 172 163 182
-8.311179 2.006694 37.111553 171 163 182
-8.280128 2.078898 36.972904 169 161 181
-8.280128 2.158600 36.972904 169 160 182
-8.269830 2.235517 36.926918 168 159 182
-7.195826 2.014454 32.131214 168 159 182
-7.172539 2.076975 32.027229 170 161 184
-7.266605 2.174159 32.447258 170 161 184
-8.290453 3.118897 37.019005 165 158 179
-6.162135 2.970672 27.515516 165 157 179
-6.162135 3.029987 27.515516 163 156 177
-6.196592 3.106575 27.669378 161 154 176
-17.405611 8.893600 77.720528 160 154 175
-17.405611 9.061140 77.720528 159 153 174
-17.360165 9.204583 77.517601 159 153 173
-17.314957 9.347280 77.315735 159 153 173
-5.910172 3.247427 26.390438 158 153 172
-5.904923 3.301381 26.367001 158 153 171
-5.910172 3.361205 26.390438 157 153 171
-14.645249 8.469946 65.394806 156 152 172
-9.247487 6.238325 41.292408 149 147 170
-9.158324 6.266330 40.894272 147 147 168
-9.120636 6.328334 40.725983 145 146 167
-9.058506 6.372419 40.448559 144 146 166
-9.033891 6.442059 40.338646 142 145 164
-9.033891 6.529016 40.338646 140 144 163
-9.058506 6.633999 40.448559 138 142 161
-12.688823 9.414801 56.658859 137 141 160
-12.786429 9.610299 57.094696 136 140 159
-12.786429 9.733376 57.094696 135 139 157
-12.688823 9.781213 56.658859 135 138 157
-13.013722 -8.337242 58.674393 167 153 178
-12.886386 -8.130420 58.100277 167 153 178
-12.886386 -8.005176 58.100277 167 153 178
-12.639047 -7.728684 56.985111 166 153 179
-12.194340 -7.338231 54.980080 166 153 179
-11.950895 -7.075580 53.882473 166 153 180
-11.800974 -6.872123 53.206528 167 152 180
-11.950895 -6.843275 53.882473 167 152 181
-12.447908 -7.006889 56.123333 168 152 181
-12.424421 -6.872914 56.017437 169 150 180
-12.149342 -6.602665 54.777199 170 149 179
-11.864763 -6.332693 53.494129 170 148 177
-11.758827 -6.161865 53.016502 171 147 175
-11.758827 -6.047579 53.016502 171 146 174
-9.529585 -4.160122 42.965618 166 140 165
-9.474739 -4.044093 42.718334 166 139 165
-9.474739 -3.952007 42.718334 166 138 165
-9.420520 -3.837832 42.473881 166 137 165
-9.474739 -3.767834 42.718334 166 136 165
-11.512138 -4.466162 51.904270 167 135 166
-11.472027 -4.339102 51.723419 168 135 166
-11.472027 -4.227604 51.723419 168 136 166
-16.503618 -5.921415 74.409126 168 136 167
-16.670742 -5.819353 75.162636 167 137 167
-17.015358 -5.774275 76.716385 167 138 167
-16.971504 -5.594445 76.518669 167 140 167
