ply
format ascii 1.0
element vertex 1203
property float x
property float y
property float z
property uchar red
property uchar green
property uchar blue
end_header
-20.486891 6.106830 64.262428 18 16 14
-20.398584 6.218439 63.985435 18 16 14
-20.398584 6.356369 63.985435 17 16 14
-20.398584 6.494300 63.985435 16 16 13
-22.114353 7.190083 69.367386 16 15 12
-22.114353 7.339615 69.367386 15 15 11
-22.114353 7.489148 69.367386 15 15 10
-21.561796 -9.675790 68.094589 35 24 20
-21.078348 -9.315347 66.567810 34 24 20
-20.984249 -9.130903 66.270630 34 25 21
-20.706924 -8.869261 65.394806 33 24 22
-20.798548 -8.766912 65.684166 33 23 22
-20.844664 -8.644444 65.829803 33 23 23
-21.173296 -8.636587 66.867661 33 23 23
-21.173296 -8.492443 66.867661 33 23 23
-20.844664 -8.218724 65.829803 33 22 23
-20.392502 -7.901615 64.401825 32 22 23
-20.348362 -7.745984 64.262428 31 22 22
-20.392502 -7.623958 64.401825 31 21 21
-20.526077 -7.534158 64.823669 31 20 20
-20.661413 -7.443175 65.251083 31 20 19
-20.661413 -7.302516 65.251083 31 20 19
-20.661413 -7.161856 65.251083 31 19 18
-20.348362 -6.914815 64.262428 30 18 17
-20.260654 -6.747079 63.985435 30 19 16
-20.260654 -6.609148 63.985435 32 20 17
-20.304413 -6.485193 64.123634 35 22 18
-20.304413 -4.826446 64.123634 42 22 21
-20.304413 -4.688217 64.123634 43 22 21
-20.304413 -4.549988 64.123634 44 22 22
-20.481358 -3.613605 64.682442 46 26 26
-22.817823 -2.472438 72.061264 45 25 26
-20.890985 -0.414766 65.976097 39 24 18
-16.236517 -0.211821 51.276756 38 23 18
-15.987999 -0.099736 50.491909 37 21 18
-16.908171 4.383733 53.397919 21 20 17
-21.512457 5.723926 67.938766 20 19 16
-21.561796 5.883843 68.094589 20 18 15
-21.512457 6.016832 67.938766 19 17 15
-21.414450 6.135206 67.629250 18 17 14
-20.984249 6.154811 66.270630 18 16 14
-20.481358 6.146744 64.682442 18 16 14
-20.260654 6.218439 63.985435 18 16 14
-20.260654 6.356369 63.985435 18 16 13
-20.392502 6.536563 64.401825 17 16 13
-21.964821 7.190083 69.367386 16 15 12
-21.964821 7.339615 69.367386 16 15 11
-21.761442 7.419804 68.725098 16 15 11
-21.761442 7.567953 68.725098 15 14 11
-21.613295 -9.913529 68.725098 35 23 19
-21.513695 -9.720379 68.408394 35 23 19
-21.317223 -9.485490 67.783661 35 24 19
-21.076622 -9.233960 67.018608 35 25 21
-21.220325 -9.151464 67.475548 34 25 21
-21.366003 -9.067837 67.938766 34 24 22
-21.464237 -8.962401 68.251129 34 24 23
-21.513695 -8.835587 68.408394 33 23 23
-21.513695 -8.688121 68.408394 33 23 23
-21.029152 -8.348298 66.867661 33 22 23
-20.702757 -8.076818 65.829803 32 22 23
-20.341925 -7.796611 64.682442 32 21 22
-20.341925 -7.657177 64.682442 32 20 21
-20.520754 -7.583834 65.251083 31 20 20
-20.520754 -7.443175 65.251083 32 19 19
-20.520754 -7.302516 65.251083 32 19 18
-20.297703 -7.084010 64.541832 32 19 17
-20.122723 -6.885010 63.985435 32 18 16
-20.079449 -6.732569 63.847832 32 19 16
-20.079449 -6.594934 63.847832 34 20 17
-20.036360 -6.443443 63.710819 36 22 18
-20.122723 -6.333286 63.985435 38 23 19
-20.209835 -4.975421 64.262428 41 22 20
-20.166183 -4.826446 64.123634 42 23 21
-20.166183 -4.688217 64.123634 43 23 22
-20.166183 -4.549988 64.123634 45 24 24
-20.209835 -3.590140 64.262428 48 26 26
-22.662483 -2.472438 72.061264 47 25 26
-22.662483 -2.317098 72.061264 46 25 25
-22.662483 -2.161759 72.061264 46 25 24
-16.125982 -0.322357 51.276756 43 25 20
-15.879155 -0.208579 50.491909 42 24 20
-15.771864 -0.099062 50.150745 41 24 20
-15.771864 0.009046 50.150745 40 24 20
-21.366003 5.577473 67.938766 23 21 18
-21.366003 5.723926 67.938766 22 20 18
-21.415009 5.883843 68.094589 22 20 17
-21.366003 6.016832 67.938766 21 19 17
-21.317223 6.149213 67.783661 20 18 16
-20.981895 6.196304 66.717400 19 18 16
-20.475754 6.187183 65.107986 18 17 15
-20.122723 6.218439 63.985435 18 17 14
-20.122723 6.356369 63.985435 17 16 14
-20.297703 6.550773 64.541832 17 16 13
-21.866379 7.206922 69.529839 16 15 13
-21.866379 7.356804 69.529839 16 15 12
-21.613295 7.419804 68.725098 16 15 11
-21.613295 7.567953 68.725098 15 15 11
-21.564985 -10.108476 69.044746 37 23 20
-21.564985 -9.959639 69.044746 37 23 20
-21.415573 -9.742828 68.566376 37 23 20
-21.219549 -9.507195 67.938766 37 24 19
-21.219549 -9.360743 67.938766 37 25 20
-21.268219 -9.235423 68.094589 36 25 21
-21.415573 -9.151604 68.566376 35 24 22
-21.465147 -9.024640 68.725098 35 24 23
-21.465147 -8.876492 68.725098 35 23 23
-21.415573 -8.708186 68.566376 34 23 23
-21.366228 -8.540655 68.408394 34 23 23
-21.027082 -8.259965 67.322548 33 22 22
-20.652435 -7.970255 66.123032 33 21 22
-20.380095 -7.724494 65.251083 32 21 21
-20.470074 -7.617317 65.539169 32 19 20
-20.424986 -7.459569 65.394806 33 19 19
-20.380095 -7.302516 65.251083 33 18 19
-20.158573 -7.084010 64.541832 33 18 18
-19.984791 -6.885010 63.985435 34 18 17
-19.941814 -6.732569 63.847832 35 19 16
-19.899019 -6.580782 63.710819 36 20 17
-19.899019 -6.443443 63.710819 38 21 19
-19.899019 -6.306104 63.710819 39 23 20
-19.984791 -6.195354 63.985435 41 24 22
-20.071306 -5.113949 64.262428 42 23 21
-20.027956 -4.964675 64.123634 43 23 20
-20.027956 -4.826446 64.123634 44 23 21
-20.027956 -4.688217 64.123634 46 24 23
-20.027956 -4.549988 64.123634 48 25 25
-19.984791 -4.402251 63.985435 49 26 26
-19.899019 -3.696662 63.710819 50 27 27
-19.899019 -3.559323 63.710819 50 27 26
-22.507145 -2.472438 72.061264 49 25 26
-22.290730 -2.294819 71.368370 48 25 25
-22.290730 -2.140972 71.368370 47 25 24
-22.398415 -1.996726 71.713142 47 25 24
-16.015446 -0.322357 51.276756 47 27 22
-15.770312 -0.208579 50.491909 46 27 22
-15.663755 -0.099062 50.150745 46 27 23
-15.506595 0.008956 49.647564 45 26 23
-15.480707 0.115785 49.564678 45 25 23
-14.860486 3.393198 47.578915 28 24 21
-21.317112 5.455989 68.251129 26 23 20
-21.317112 5.603116 68.251129 25 22 20
-21.317112 5.750242 68.251129 24 21 19
-21.317112 5.897369 68.251129 23 20 18
-21.317112 6.044495 68.251129 22 19 18
-21.171104 6.149213 67.783661 21 19 18
-20.979509 6.238361 67.170235 19 19 17
-20.606541 6.269679 65.976097 18 18 16
-20.071306 6.245358 64.262428 18 17 15
-20.071306 6.383886 64.262428 17 17 14
-20.158573 6.550773 64.541832 17 16 14
-21.870150 7.257914 70.021797 17 16 13
-21.870150 7.408857 70.021797 16 16 12
-21.465147 7.419804 68.725098 16 16 12
-21.465147 7.567953 68.725098 16 15 12
-22.783644 8.190063 72.946541 16 15 12
-21.316999 -10.209826 68.725098 38 23 21
-21.366457 -10.085022 68.884552 38 22 21
-21.366457 -9.936530 68.884552 38 22 21
-21.267767 -9.742828 68.566376 38 22 20
-21.073097 -9.507195 67.938766 39 23 20
-21.073097 -9.360743 67.938766 38 24 20
-21.267767 -9.299410 68.566376 37 24 21
-21.267767 -9.151604 68.566376 37 24 21
-21.316999 -9.024640 68.725098 37 24 22
-21.316999 -8.876492 68.725098 36 23 23
-21.316999 -8.728344 68.725098 36 23 23
-21.267767 -8.560380 68.566376 35 23 23
-21.218763 -8.393190 68.408394 34 22 22
-20.464319 -7.810321 65.976097 34 21 21
-20.373768 -7.634169 65.684166 34 20 21
-20.328793 -7.476037 65.539169 34 19 20
-20.239435 -7.302516 65.251083 34 19 20
-19.976015 -7.068643 64.401825 35 18 19
-19.804180 -6.870203 63.847832 35 18 18
-19.761681 -6.718122 63.710819 37 19 18
-19.719364 -6.566690 63.574394 38 20 19
-19.761681 -6.443443 63.710819 39 21 21
-19.761681 -6.306104 63.710819 41 24 22
-19.804180 -6.182031 63.847832 42 24 23
-19.804180 -6.044397 63.847832 43 25 23
-19.761681 -5.894087 63.710819 43 25 24
-19.719364 -5.744421 63.574394 42 24 23
-19.677229 -5.595394 63.438553 43 24 22
-19.677229 -5.458642 63.438553 43 24 23
-19.761681 -5.344731 63.710819 43 24 23
-19.932777 -5.252477 64.262428 44 24 22
-19.932777 -5.113949 64.262428 44 24 22
-19.889727 -4.964675 64.123634 45 23 21
-19.889727 -4.826446 64.123634 46 24 22
-19.889727 -4.688217 64.123634 48 25 24
-19.846861 -4.540182 63.985435 50 26 26
-19.804180 -4.392784 63.847832 51 27 27
-19.804180 -4.255149 63.847832 52 27 27
-19.889727 -4.135302 64.123634 53 27 28
-19.889727 -3.997072 64.123634 53 28 28
-19.761681 -3.834001 63.710819 52 28 28
-19.677229 -3.680864 63.438553 52 27 27
-19.635273 -3.536556 63.303288 51 27 26
-19.677229 -3.407360 63.438553 51 27 26
-21.926056 -2.272963 70.688675 50 25 25
-21.719206 -2.100577 70.021797 50 25 24
-21.873974 -1.963526 70.520767 50 26 25
-20.740864 -1.285235 66.867661 50 26 25
-20.464319 -1.125877 65.976097 50 25 25
-15.932428 -0.322914 51.365471 50 28 24
-15.661469 -0.208579 50.491909 50 28 25
-15.555648 -0.099062 50.150745 49 28 25
-15.425365 0.008971 49.730724 48 28 25
-15.373862 0.115785 49.564678 48 27 25
-14.757922 3.393198 47.578915 30 24 22
-21.169985 5.603116 68.251129 27 24 21
-21.169985 5.750242 68.251129 26 23 21
-21.169985 5.897369 68.251129 25 22 20
-21.121429 6.030632 68.094589 23 20 19
-21.024984 6.149213 67.783661 21 19 18
-20.834713 6.238361 67.170235 19 19 17
-20.555677 6.297668 66.270630 19 19 17
-20.019442 6.272512 64.541832 19 18 16
-19.932777 6.383886 64.262428 18 17 16
-19.889727 6.508327 64.123634 18 17 15
-21.822140 7.292312 70.353653 17 17 14
-21.822140 7.443970 70.353653 17 16 14
-21.822140 7.595629 70.353653 17 16 13
-22.460838 7.974038 72.412788 17 16 13
-22.570940 8.169989 72.767754 17 16 13
-22.570940 8.326852 72.767754 17 16 13
-21.071299 -10.310241 68.408394 37 23 22
-21.168850 -10.209826 68.725098 37 23 21
-21.168850 -10.061677 68.725098 38 23 21
-21.168850 -9.913529 68.725098 38 23 21
-21.071299 -9.720379 68.408394 38 22 20
-20.926643 -9.507195 67.938766 39 23 20
-20.926643 -9.360743 67.938766 39 23 21
-21.119961 -9.299410 68.566376 39 24 21
-21.119961 -9.151604 68.566376 39 23 21
-21.119961 -9.003798 68.566376 38 23 22
-21.119961 -8.855992 68.566376 37 23 23
-21.119961 -8.708186 68.566376 37 23 23
-21.119961 -8.560380 68.566376 36 23 23
-20.322096 -7.668099 65.976097 36 22 22
-20.232176 -7.492577 65.684166 36 21 21
-20.054701 -7.286501 65.107986 36 20 21
-19.837187 -7.068643 64.401825 37 19 20
-19.666544 -6.870203 63.847832 37 19 19
-19.624342 -6.718122 63.710819 39 19 20
-19.582319 -6.566690 63.574394 40 20 20
-19.624342 -6.443443 63.710819 41 22 22
-19.624342 -6.306104 63.710819 42 24 23
-19.666544 -6.182031 63.847832 44 25 24
-19.666544 -6.044397 63.847832 44 25 24
-19.624342 -5.894087 63.710819 44 25 24
-19.582319 -5.744421 63.574394 44 25 24
-19.540478 -5.595394 63.438553 44 25 23
-19.582319 -5.470331 63.574394 44 25 23
-19.624342 -5.344731 63.710819 45 25 23
-19.794250 -5.252477 64.262428 45 24 22
-19.794250 -5.113949 64.262428 46 24 22
-19.751497 -4.964675 64.123634 46 24 22
-19.751497 -4.826446 64.123634 48 25 23
-19.751497 -4.688217 64.123634 51 26 25
-19.708929 -4.540182 63.985435 53 27 26
-19.666544 -4.392784 63.847832 53 27 27
-19.666544 -4.255149 63.847832 54 28 28
-19.666544 -4.117515 63.847832 54 28 29
-19.624342 -3.971340 63.710819 54 28 29
-19.582319 -3.825791 63.574394 54 28 28
-19.457327 -3.665201 63.168602 53 28 27
-19.457327 -3.529031 63.168602 52 28 27
-19.540478 -3.407360 63.438553 52 28 26
-21.416729 -2.385584 69.529839 51 25 25
-21.416729 -2.235702 69.529839 50 24 24
-21.366690 -2.080945 69.367386 50 25 24
-21.366690 -1.931412 69.367386 52 27 25
-21.366690 -1.781880 69.367386 52 27 25
-21.071299 -1.609780 68.408394 53 27 25
-20.596720 -1.429380 66.867661 53 27 26
-20.322096 -1.268099 65.976097 52 26 25
-20.187513 -1.118421 65.539169 51 25 23
-20.187513 -0.977140 65.539169 52 26 23
-15.579120 -0.317963 50.577927 53 29 24
-15.552625 -0.208579 50.491909 52 29 25
-15.447539 -0.099062 50.150745 51 29 26
-15.447539 0.009046 50.150745 50 29 26
-15.318163 0.116173 49.730724 50 28 25
-15.216212 0.221889 49.399738 51 27 25
-15.190936 0.327833 49.317677 52 28 26
-15.190936 0.434145 49.317677 52 28 26
-14.655358 3.393198 47.578915 33 25 23
-20.926643 4.991660 67.938766 32 25 22
-21.022858 5.455989 68.251129 31 27 24
-21.022858 5.603116 68.251129 31 26 24
-21.022858 5.750242 68.251129 28 24 22
-21.022858 5.897369 68.251129 25 22 21
-20.878866 6.003095 67.783661 24 21 20
-20.783962 6.121263 67.475548 22 21 19
-20.550434 6.196304 66.717400 20 20 18
-20.412821 6.297668 66.270630 19 19 18
-19.880312 6.272512 64.541832 19 18 17
-14.004507 4.516624 45.465916 18 18 16
-13.961745 4.600543 45.327087 18 18 16
-13.751795 4.627602 44.645477 17 17 15
-21.168850 7.271656 68.725098 18 17 15
-21.721956 7.613671 70.520767 17 17 14
-22.304739 7.974038 72.412788 17 17 13
-22.304739 8.130136 72.412788 17 17 13
-21.930321 8.147136 71.197220 18 17 14
-20.923832 -10.457706 68.408394 37 23 23
-20.923832 -10.310241 68.408394 37 22 22
-21.020702 -10.209826 68.725098 38 23 22
-21.020702 -10.061677 68.725098 37 23 21
-21.020702 -9.913529 68.725098 38 23 21
-20.875732 -9.698033 68.251129 39 23 21
-20.732748 -9.485490 67.783661 40 23 22
-20.732748 -9.339371 67.783661 41 24 23
-20.875732 -9.256654 68.251129 40 24 23
-20.875732 -9.109528 68.251129 40 23 23
-20.875732 -8.962401 68.251129 40 23 23
-20.827852 -8.795056 68.094589 39 23 23
-20.732748 -8.608777 67.783661 39 23 23
-20.732748 -8.462659 67.783661 38 24 23
-20.224817 -7.827716 66.123032 38 23 23
-20.224817 -7.685177 66.123032 38 23 23
-20.090582 -7.492577 65.684166 38 22 22
-19.914349 -7.286501 65.107986 39 21 21
-19.698359 -7.068643 64.401825 38 20 20
-19.528910 -6.870203 63.847832 39 20 20
-19.445274 -6.703736 63.574394 40 20 21
-19.445274 -6.566690 63.574394 42 22 23
-19.487003 -6.443443 63.710819 43 23 23
-19.487003 -6.306104 63.710819 45 25 25
-19.528910 -6.182031 63.847832 46 26 26
-19.528910 -6.044397 63.847832 46 26 26
-19.487003 -5.894087 63.710819 45 26 25
-19.445274 -5.744421 63.574394 45 25 24
-19.445274 -5.607376 63.574394 45 25 23
-19.487003 -5.482070 63.710819 45 25 23
-19.570999 -5.367768 63.985435 46 24 22
-19.655722 -5.252477 64.262428 46 24 22
-19.655722 -5.113949 64.262428 47 24 21
-19.613268 -4.964675 64.123634 48 24 22
-19.613268 -4.826446 64.123634 50 25 23
-19.613268 -4.688217 64.123634 53 27 25
-19.528910 -4.530418 63.847832 54 27 27
-19.487003 -4.383358 63.710819 55 28 28
-19.528910 -4.255149 63.847832 55 28 29
-19.528910 -4.117515 63.847832 55 29 29
-19.487003 -3.971340 63.710819 56 29 29
-19.445274 -3.825791 63.574394 56 29 28
-19.321156 -3.665201 63.168602 55 28 27
-19.321156 -3.529031 63.168602 55 28 27
-19.445274 -3.414656 63.574394 54 29 26
-21.417318 -2.251520 70.021797 51 24 24
-21.417318 -2.100577 70.021797 52 25 25
-21.020702 -1.913529 68.725098 55 28 27
-21.020702 -1.765381 68.725098 55 28 27
-20.827852 -1.602396 68.094589 55 28 26
-20.452576 -1.429380 66.867661 55 28 26
-20.224817 -1.270923 66.123032 54 27 26
-20.046232 -1.118421 65.539169 53 25 24
-20.046232 -0.977140 65.539169 54 25 23
-15.710975 -0.433641 51.365471 56 27 24
-15.365386 -0.315811 50.235603 55 28 24
-15.339432 -0.207170 50.150745 54 29 25
-15.339432 -0.099062 50.150745 52 29 26
-15.339432 0.009046 50.150745 52 29 26
-15.210960 0.223376 49.730724 52 28 25
-15.109723 0.328378 49.399738 54 28 26
-15.084623 0.434145 49.317677 54 28 26
-14.552794 3.393198 47.578915 35 26 23
-14.576153 3.501373 47.655285 34 26 22
-20.827852 5.149898 68.094589 33 26 22
-20.875732 5.308863 68.251129 33 27 23
-20.875732 5.455989 68.251129 34 29 26
-20.875732 5.603116 68.251129 33 28 26
-20.875732 5.750242 68.251129 28 25 22
-20.780191 5.870378 67.938766 25 22 20
-20.638508 5.975808 67.475548 24 22 20
-20.406614 6.052484 66.717400 22 21 19
-20.269962 6.154811 66.270630 20 20 18
-19.827387 6.160165 64.823669 19 19 18
-13.864036 4.405123 45.327087 19 19 17
-13.800826 4.482303 45.120430 19 19 17
-13.614608 4.517774 44.511608 18 18 16
-13.533447 4.586223 44.246262 18 17 15
-13.141742 4.546101 42.965618 18 17 15
-21.569937 7.613671 70.520767 18 18 14
-21.118473 7.603152 69.044746 17 18 13
-20.308432 -10.366317 66.867661 37 23 23
-20.681063 -10.409735 68.094589 38 23 24
-20.681063 -10.262946 68.094589 38 22 23
-20.872555 -10.209826 68.725098 38 23 22
-20.872555 -10.061677 68.725098 38 23 22
-20.872555 -9.913529 68.725098 39 23 22
-20.681063 -9.675790 68.094589 40 23 22
-20.539734 -9.463882 67.629250 41 23 23
-20.539734 -9.318097 67.629250 42 24 24
-20.633738 -9.214290 67.938766 42 23 24
-20.728605 -9.109528 68.251129 41 23 24
-20.681063 -8.941845 68.094589 41 23 24
-20.586628 -8.754896 67.783661 41 23 24
-20.446583 -8.550215 67.322548 41 23 23
-20.308432 -8.348298 66.867661 41 24 23
-20.262794 -8.185718 66.717400 40 24 23
-20.127106 -7.988046 66.270630 40 24 23
-20.082279 -7.827716 66.123032 40 24 24
-20.082279 -7.685177 66.123032 41 23 23
-19.948990 -7.492577 65.684166 41 23 22
-19.773998 -7.286501 65.107986 41 23 21
-19.559530 -7.068643 64.401825 40 21 21
-19.391275 -6.870203 63.847832 40 21 21
-19.308229 -6.703736 63.574394 41 21 21
-19.308229 -6.566690 63.574394 43 23 23
-19.349665 -6.443443 63.710819 45 24 25
-19.349665 -6.306104 63.710819 48 27 27
-19.349665 -6.168765 63.710819 49 28 29
-19.391275 -6.044397 63.847832 49 28 28
-19.391275 -5.906763 63.847832 48 27 26
-19.308229 -5.744421 63.574394 48 26 25
-19.308229 -5.607376 63.574394 47 25 24
-19.349665 -5.482070 63.710819 47 24 22
-19.433067 -5.367768 63.985435 47 24 22
-19.517193 -5.252477 64.262428 48 23 21
-19.517193 -5.113949 64.262428 49 23 22
-19.475040 -4.964675 64.123634 50 24 22
-19.475040 -4.826446 64.123634 52 26 24
-19.433067 -4.678113 63.985435 54 27 26
-19.349665 -4.520697 63.710819 55 28 27
-19.349665 -4.383358 63.710819 56 28 28
-19.349665 -4.246018 63.710819 57 29 29
-19.349665 -4.108679 63.710819 57 29 29
-19.349665 -3.971340 63.710819 57 29 29
-19.266973 -3.817616 63.438553 57 29 28
-19.103693 -3.649671 62.900936 56 28 27
-19.103693 -3.514077 62.900936 55 29 26
-19.225891 -3.400095 63.303288 55 29 26
-20.728605 -1.753206 68.251129 56 29 27
-20.400324 -1.580644 67.170235 56 29 26
-20.262794 -1.426167 66.717400 57 30 27
-20.082279 -1.270923 66.123032 57 29 27
-19.904953 -1.118421 65.539169 55 27 25
-19.904953 -0.977140 65.539169 55 25 24
-15.205638 -0.206820 50.066177 55 29 25
-15.257095 -0.099229 50.235603 54 29 25
-15.103758 0.223376 49.730724 53 28 25
-15.028239 0.328926 49.482071 54 29 25
-14.473424 3.398644 47.655285 37 26 23
-14.520038 3.512650 47.808765 36 26 22
-20.633738 5.138113 67.938766 34 26 21
-20.681063 5.296687 68.094589 34 27 22
-20.728605 5.455989 68.251129 35 29 25
-20.728605 5.603116 68.251129 33 28 25
-20.586628 5.710857 67.783661 28 25 22
-14.335363 4.078466 47.200703 25 23 20
-15.736376 4.588753 51.813686 24 22 20
-20.262794 6.052484 66.717400 23 21 19
-20.082279 6.141103 66.123032 22 21 18
-13.745340 4.300847 45.257992 21 20 18
-13.745340 4.398408 45.257992 20 20 18
-13.620760 4.455220 44.847797 20 19 17
-13.438067 4.490843 44.246262 20 19 16
-13.049122 4.453481 42.965618 20 18 16
-13.030265 4.539531 42.903530 20 19 15
-12.862972 4.572547 42.352699 19 19 15
-14.450230 6.367557 47.578915 17 16 13
-14.566952 6.522384 47.963234 17 16 13
-19.895430 -10.370321 65.976097 38 24 24
-19.984249 -10.273760 66.270630 38 23 23
-20.073864 -10.176333 66.567810 38 23 24
-20.209805 -10.100778 67.018608 38 23 24
-20.581478 -10.139413 68.251129 38 23 23
-20.628902 -10.015310 68.408394 39 23 23
-20.628902 -9.867845 68.408394 40 24 23
-20.534273 -9.675790 68.094589 41 24 23
-20.301458 -9.420962 67.322548 42 24 23
-20.301458 -9.275838 67.322548 43 24 24
-20.393948 -9.172311 67.629250 43 23 24
-20.440510 -9.047133 67.783661 43 23 24
-20.393948 -8.880739 67.629250 43 22 24
-20.301458 -8.695339 67.322548 43 22 24
-20.164288 -8.492443 66.867661 43 23 24
-20.073864 -8.310863 66.567810 43 24 24
-19.984249 -8.130903 66.270630 43 24 24
-19.984249 -7.988046 66.270630 43 25 24
-19.984249 -7.845189 66.270630 43 25 24
-19.939741 -7.685177 66.123032 43 25 24
-19.851316 -7.509190 65.829803 44 25 23
-19.720140 -7.318600 65.394806 43 24 22
-19.462921 -7.084010 64.541832 43 24 22
-19.253641 -6.870203 63.847832 43 24 22
-19.171185 -6.703736 63.574394 44 24 23
-19.171185 -6.566690 63.574394 45 25 25
-19.171185 -6.429646 63.574394 47 26 26
-19.212324 -6.306104 63.710819 50 29 29
-19.212324 -6.168765 63.710819 54 32 32
-19.253641 -6.044397 63.847832 55 33 33
-19.253641 -5.906763 63.847832 54 31 31
-19.212324 -5.756748 63.710819 51 28 27
-19.212324 -5.619409 63.710819 49 25 24
-19.212324 -5.482070 63.710819 49 24 22
-19.295137 -5.367768 63.985435 49 24 22
-19.336811 -5.241133 64.123634 50 24 22
-19.336811 -5.102904 64.123634 51 24 22
-19.336811 -4.964675 64.123634 52 25 24
-19.295137 -4.816044 63.985435 53 26 25
-19.295137 -4.678113 63.985435 55 27 26
-19.212324 -4.520697 63.710819 57 28 28
-19.212324 -4.383358 63.710819 58 29 29
-19.212324 -4.246018 63.710819 59 29 30
-19.212324 -4.108679 63.710819 59 29 30
-19.212324 -3.971340 63.710819 59 29 29
-19.130220 -3.817616 63.438553 58 29 28
-18.888065 -3.634271 62.635532 57 29 27
-18.888065 -3.499250 62.635532 57 29 27
-18.968100 -3.378484 62.900936 56 30 26
-19.089432 -3.263634 63.303288 55 30 27
-20.534273 -1.749185 68.094589 57 30 28
-20.209805 -1.577076 67.018608 58 30 28
-20.073864 -1.422970 66.567810 59 31 29
-19.939741 -1.270923 66.123032 58 30 28
-19.807396 -1.120895 65.684166 57 27 25
-19.807396 -0.979302 65.684166 56 25 24
-15.097713 -0.206820 50.066177 56 28 25
-19.048815 -0.124776 63.168602 54 29 25
-18.888065 0.146320 62.635532 53 28 25
-14.996555 0.223376 49.730724 54 29 25
-15.021717 0.331133 49.814163 55 29 25
-17.623905 3.916054 58.443390 40 26 25
-17.418179 3.994855 57.761173 39 26 24
-14.463559 3.420607 47.963234 38 26 23
-17.418179 4.243882 57.761173 37 26 22
-20.534273 5.149898 68.094589 36 26 21
-20.534273 5.296687 68.094589 34 26 21
-20.534273 5.443476 68.094589 34 27 23
-20.581478 5.603116 68.251129 32 26 23
-14.370696 4.015017 47.655285 29 24 22
-13.752602 3.940638 45.605595 26 23 20
-13.668615 4.014283 45.327087 25 22 19
-13.442858 4.044077 44.578442 24 21 19
-13.647779 4.203286 45.257992 23 21 18
-13.627007 4.294301 45.189106 22 21 18
-13.585650 4.378385 45.051960 22 20 18
-13.442858 4.428462 44.578442 22 20 18
-13.283298 4.470854 44.049320 22 20 17
-12.937779 4.447045 42.903530 22 19 16
-12.900495 4.526449 42.779888 21 20 16
-12.645400 4.527338 41.933956 21 20 16
-14.393800 6.490925 47.731899 17 16 14
-14.393800 6.593819 47.731899 17 16 13
-19.622391 -10.442924 65.539169 39 24 23
-19.622391 -10.301643 65.539169 40 24 24
-19.665804 -10.182842 65.684166 40 24 24
-19.753208 -10.085876 65.976097 40 24 25
-19.930367 -10.032835 66.567810 40 24 25
-20.065334 -9.956308 67.018608 40 24 25
-20.248163 -9.901240 67.629250 40 24 24
-20.387486 -9.822579 68.094589 41 25 24
-20.248163 -9.609669 67.629250 42 25 24
-20.020144 -9.357307 66.867661 43 25 24
-20.020144 -9.213163 66.867661 44 24 24
-20.020144 -9.069019 66.867661 44 24 24
-20.156334 -8.985588 67.322548 44 23 25
-20.110731 -8.820463 67.170235 44 22 24
-20.020144 -8.636587 66.867661 45 22 24
-20.020144 -8.492443 66.867661 46 23 25
-19.975153 -8.329538 66.717400 46 24 25
-19.841391 -8.130903 66.270630 46 25 25
-19.841391 -7.988046 66.270630 46 25 25
-19.841391 -7.845189 66.270630 46 26 25
-19.841391 -7.702332 66.270630 46 26 24
-19.709410 -7.509190 65.829803 46 26 24
-19.579170 -7.318600 65.394806 46 26 24
-19.365891 -7.099443 64.682442 47 27 25
-19.116007 -6.870203 63.847832 47 27 25
-19.034140 -6.703736 63.574394 47 27 26
-19.034140 -6.566690 63.574394 48 28 26
-19.034140 -6.429646 63.574394 49 28 26
-19.074986 -6.306104 63.710819 52 30 29
-19.074986 -6.168765 63.710819 58 36 35
-19.116007 -6.044397 63.847832 63 40 39
-19.116007 -5.906763 63.847832 62 37 37
-19.074986 -5.756748 63.710819 55 31 30
-19.074986 -5.619409 63.710819 52 26 25
-19.074986 -5.482070 63.710819 51 24 23
-19.157206 -5.367768 63.985435 51 24 22
-19.198582 -5.241133 64.123634 52 24 23
-19.198582 -5.102904 64.123634 53 25 23
-19.157206 -4.953975 63.985435 54 25 25
-19.157206 -4.816044 63.985435 55 26 26
-19.157206 -4.678113 63.985435 57 27 27
-18.993469 -4.501377 63.438553 58 28 28
-18.993469 -4.364625 63.438553 59 29 30
-19.074986 -4.246018 63.710819 60 30 31
-19.074986 -4.108679 63.710819 61 30 30
-19.074986 -3.971340 63.710819 61 29 29
-18.993469 -3.817616 63.438553 60 29 28
-18.713566 -3.626620 62.503666 59 29 27
-18.713566 -3.491883 62.503666 59 30 27
-18.753044 -3.364229 62.635532 58 30 28
-18.832506 -3.242891 62.900936 58 30 28
-18.753044 -3.094187 62.635532 57 30 29
-20.340832 -1.745182 67.938766 59 30 29
-19.975153 -1.569988 66.717400 59 30 29
-19.930367 -1.422970 66.567810 59 31 29
-19.841391 -1.273760 66.270630 59 30 28
-19.797201 -1.128384 66.123032 57 27 26
-18.872492 -0.260392 63.034485 57 28 26
-18.912645 -0.124776 63.168602 56 29 26
-18.872492 0.011370 63.034485 54 29 26
-14.914334 0.116368 49.814163 54 28 25
-14.814905 0.222259 49.482071 54 29 25
-14.889353 0.330579 49.730724 55 29 26
-20.020144 2.750801 66.867661 51 27 26
-19.885778 3.161869 66.418884 49 28 27
-13.188343 2.191922 44.049320 48 28 27
-20.387486 5.003109 68.094589 39 27 22
-20.387486 5.149898 68.094589 37 26 21
-20.387486 5.296687 68.094589 36 25 21
-13.570906 3.916573 45.327087 27 23 20
-13.306802 3.936161 44.444973 26 22 20
-13.267079 4.019934 44.312302 25 21 19
-13.509032 4.190510 45.120430 24 21 18
-13.386963 4.249029 44.712715 23 21 18
-13.386963 4.345415 44.712715 23 20 18
-13.346762 4.428462 44.578442 24 20 18
-13.188343 4.470854 44.049320 23 20 17
-12.845294 4.447045 42.903530 22 20 17
-12.680376 4.481249 42.352699 22 20 17
-12.555005 4.527338 41.933956 22 20 17
-14.290906 6.490925 47.731899 17 16 14
-14.290906 6.593819 47.731899 17 16 13
-14.267967 6.685964 47.655285 16 16 14
-19.395479 -10.537681 65.251083 40 24 23
-19.395479 -10.397021 65.251083 41 24 24
-19.438202 -10.278953 65.394806 41 24 24
-19.481112 -10.160363 65.539169 41 24 25
-19.524212 -10.041249 65.684166 41 24 25
-19.524212 -9.899656 65.684166 41 24 25
-19.524212 -9.758063 65.684166 41 24 25
-19.786869 -9.745840 66.567810 42 24 25
-19.920866 -9.667369 67.018608 42 25 25
-19.786869 -9.458844 66.567810 43 25 24
-19.698534 -9.273760 66.270630 44 25 24
-19.698534 -9.130903 66.270630 45 25 24
-19.698534 -8.988046 66.270630 45 24 24
-19.831333 -8.904819 66.717400 45 23 24
-19.831333 -8.760999 66.717400 45 22 24
-19.831333 -8.617179 66.717400 46 22 24
-19.786869 -8.454360 66.567810 47 23 25
-19.742603 -8.292270 66.418884 49 24 26
-19.654663 -8.112794 66.123032 49 25 26
-19.654663 -7.970255 66.123032 48 26 25
-19.698534 -7.845189 66.270630 48 26 25
-19.698534 -7.702332 66.270630 48 27 24
-19.567501 -7.509190 65.829803 48 27 24
-19.481112 -7.334756 65.539169 49 27 25
-19.226456 -7.099443 64.682442 49 28 26
-18.978373 -6.870203 63.847832 50 28 26
-18.897095 -6.703736 63.574394 49 29 27
-18.897095 -6.566690 63.574394 50 29 27
-18.897095 -6.429646 63.574394 51 28 27
-18.897095 -6.292601 63.574394 54 31 29
-18.937647 -6.168765 63.710819 61 37 36
-18.978373 -6.044397 63.847832 68 44 43
-18.978373 -5.906763 63.847832 68 42 42
-18.937647 -5.756748 63.710819 59 33 32
-18.897095 -5.607376 63.574394 53 26 25
-18.897095 -5.470331 63.574394 52 24 23
-18.978373 -5.356225 63.847832 53 24 24
-19.019274 -5.229837 63.985435 54 25 24
-19.019274 -5.091907 63.985435 55 25 24
-19.019274 -4.953975 63.985435 56 26 25
-19.019274 -4.816044 63.985435 57 27 27
-18.978373 -4.668053 63.847832 58 28 28
-18.816511 -4.491779 63.303288 60 29 29
-18.816511 -4.355319 63.303288 61 30 31
-18.937647 -4.246018 63.710819 62 30 31
-19.019274 -4.126389 63.985435 62 30 30
-19.019274 -3.988458 63.985435 62 30 29
-18.897095 -3.825791 63.574394 62 29 29
-18.657385 -3.641955 62.767956 62 30 28
-18.657385 -3.506648 62.767956 61 30 28
-18.696915 -3.378484 62.900936 61 31 28
-18.618025 -3.229208 62.635532 61 31 29
-18.578829 -3.087673 62.503666 60 31 30
-18.578829 -2.952936 62.503666 59 31 30
-19.965935 -1.725440 67.170235 59 30 29
-19.831333 -1.569988 66.717400 59 30 29
-19.786869 -1.422970 66.567810 59 30 28
-19.698534 -1.273760 66.270630 58 28 28
-19.698534 -1.130903 66.270630 58 27 27
-18.736610 -0.260392 63.034485 58 29 27
-18.736610 -0.124511 63.034485 57 29 27
-18.539797 0.011251 62.372356 55 29 26
-12.826953 0.100807 43.152969 55 29 26
-12.771264 0.192989 42.965618 55 29 26
-12.643186 0.282744 42.534733 56 29 26
-12.625098 0.373899 42.473881 57 30 27
-19.831333 2.744619 66.717400 53 27 26
-19.875999 2.894945 66.867661 53 27 26
-19.920866 3.045949 67.018608 52 28 26
-19.698534 3.154811 66.270630 51 29 27
-19.268435 3.225667 64.823669 50 29 27
-19.524212 3.410079 65.684166 49 29 28
-19.567501 3.559546 65.829803 47 28 28
-19.567501 3.701453 65.829803 45 27 27
-19.567501 3.843360 65.829803 44 26 26
-19.610985 3.994123 65.976097 43 25 26
-18.539797 4.179318 62.372356 42 26 24
-13.452658 3.910603 45.257992 29 23 21
-13.171557 3.924411 44.312302 28 23 20
-13.093388 3.996076 44.049320 26 22 19
-13.093388 4.091032 44.049320 25 21 18
-13.230800 4.229918 44.511608 23 20 17
-13.250666 4.332366 44.578442 24 21 18
-13.230800 4.421822 44.511608 25 21 18
-13.132357 4.484160 44.180420 24 21 18
-12.752809 4.447045 42.903530 23 20 18
-12.589078 4.481249 42.352699 23 20 18
-12.464609 4.527338 41.933956 23 20 18
-11.925599 4.936967 40.120598 23 23 20
-11.925599 5.023453 40.120598 24 23 21
-14.097354 6.449450 47.426903 18 17 15
-14.165238 6.583235 47.655285 17 17 14
-14.165238 6.685964 47.655285 16 16 14
-14.142537 6.777813 47.578915 17 16 14
-19.128696 -10.608395 64.823669 43 25 25
-19.170555 -10.491564 64.965523 43 24 24
-19.254820 -10.397021 65.251083 42 24 24
-19.297232 -10.278953 65.394806 42 24 25
-19.297232 -10.137983 65.394806 43 24 25
-19.128696 -9.909704 64.823669 42 24 25
-18.963081 -9.685378 64.262428 42 24 25
-18.963081 -9.546849 64.262428 42 24 25
-19.382618 -9.616470 65.684166 43 24 25
-19.382618 -9.474877 65.684166 44 24 25
-19.382618 -9.333284 65.684166 45 24 25
-19.382618 -9.191691 65.684166 45 24 25
-19.339830 -9.030121 65.539169 46 24 25
-19.425594 -8.928258 65.829803 46 24 25
-19.555677 -8.845189 66.270630 46 23 25
-19.599426 -8.721800 66.418884 46 22 25
-19.599426 -8.578623 66.418884 47 22 25
-19.599426 -8.435447 66.418884 48 23 25
-19.555677 -8.273760 66.270630 50 25 27
-19.468763 -8.094766 65.976097 50 26 27
-19.468763 -7.952543 65.976097 50 27 27
-19.555677 -7.845189 66.270630 50 27 26
-19.555677 -7.702332 66.270630 49 27 25
-19.468763 -7.525877 65.976097 50 27 25
-19.339830 -7.334756 65.539169 50 28 25
-19.128696 -7.114944 64.823669 51 29 26
-18.881344 -6.885010 63.985435 52 29 27
-18.760050 -6.703736 63.574394 52 30 27
-18.760050 -6.566690 63.574394 52 30 28
-18.760050 -6.429646 63.574394 53 29 28
-18.760050 -6.292601 63.574394 55 30 29
-18.800308 -6.168765 63.710819 60 35 35
-18.800308 -6.031426 63.710819 68 42 42
-18.800308 -5.894087 63.710819 69 43 42
-18.760050 -5.744421 63.574394 61 35 34
-18.760050 -5.607376 63.574394 54 27 26
-18.760050 -5.470331 63.574394 53 25 24
-18.800308 -5.344731 63.710819 54 25 24
-18.881344 -5.229837 63.985435 55 25 25
-18.881344 -5.091907 63.985435 57 26 25
-18.881344 -4.953975 63.985435 57 26 26
-18.840738 -4.805687 63.847832 58 27 27
-18.840738 -4.668053 63.847832 59 28 28
-18.640305 -4.482223 63.168602 61 29 29
-18.640305 -4.346052 63.168602 63 30 31
-18.800308 -4.246018 63.710819 64 30 31
-18.922123 -4.135302 64.123634 64 30 31
-18.922123 -3.997072 64.123634 64 30 30
-18.840738 -3.842246 63.847832 64 29 29
-18.800308 -3.696662 63.710819 64 30 29
-18.800308 -3.559323 63.710819 64 31 28
-18.881344 -3.436734 63.985435 63 31 29
-18.640305 -3.256691 63.168602 62 32 30
-18.483004 -3.094187 62.635532 61 32 31
-18.600729 -2.978014 63.034485 60 31 30
-17.417383 -1.770665 59.024338 58 28 28
-19.821138 -1.870237 67.170235 59 29 29
-19.731853 -1.717668 66.867661 59 29 29
-19.731853 -1.573524 66.867661 59 29 28
-19.687513 -1.426167 66.717400 58 28 28
-19.643372 -1.279472 66.567810 58 27 27
-19.643372 -1.135974 66.567810 58 27 27
-18.600729 -0.260392 63.034485 60 30 29
-18.600729 -0.124511 63.034485 58 31 28
-18.405344 0.011251 62.372356 57 30 28
-12.678644 0.100370 42.965618 56 30 27
-12.551495 0.191054 42.534733 56 30 27
-12.533539 0.282340 42.473881 56 29 27
-12.497780 0.372832 42.352699 56 30 28
-12.497780 0.464130 42.352699 58 30 29
-19.687513 2.744619 66.717400 54 27 25
-19.687513 2.888439 66.717400 54 28 26
-19.555677 3.011954 66.270630 53 28 26
-19.128696 3.085929 64.823669 53 29 27
-19.128696 3.225667 64.823669 51 29 27
-19.297232 3.395056 65.394806 50 29 28
-19.425594 3.559546 65.829803 48 28 28
-19.382618 3.693264 65.684166 46 28 28
-19.425594 3.843360 65.829803 44 26 27
-18.366758 4.036385 62.241596 42 26 24
-18.214020 4.135874 61.723995 42 27 24
-18.214020 4.268930 61.723995 42 26 24
-13.355097 3.910603 45.257992 31 23 21
-13.076035 3.924411 44.312302 29 23 20
-12.979176 3.990156 43.984062 27 22 19
-12.979176 4.084971 43.984062 25 21 19
-13.134848 4.229918 44.511608 24 20 18
-13.134848 4.325870 44.511608 24 21 18
-13.134848 4.421822 44.511608 25 21 19
-13.076035 4.497545 44.312302 25 21 18
-12.940832 4.545577 43.854126 25 21 18
-12.660323 4.539531 42.903530 24 20 18
-12.497780 4.572547 42.352699 24 20 18
-12.374214 4.617733 41.933956 23 20 19
-20.959194 8.127645 71.026894 23 21 20
-11.855133 4.943647 40.174889 23 23 21
-11.855133 5.030251 40.174889 24 23 21
-13.731886 6.328144 46.534863 19 19 17
-14.039973 6.572685 47.578915 18 18 16
-14.039973 6.675249 47.578915 17 18 15
-13.995117 6.756159 47.426903 17 17 15
-13.972796 6.847457 47.351265 17 16 15
-19.030510 -10.771651 64.965523 45 25 26
-18.988958 -10.608395 64.823669 46 25 26
-19.114161 -10.537681 65.251083 46 24 26
-19.156263 -10.419922 65.394806 45 23 26
-19.156263 -10.278953 65.394806 44 24 25
-18.988958 -10.049442 64.823669 45 24 25
-18.824553 -9.823906 64.262428 44 24 25
-18.743412 -9.643630 63.985435 43 24 25
-18.703104 -9.485257 63.847832 43 24 25
-18.743412 -9.367768 63.985435 45 24 25
-18.824553 -9.269794 64.262428 46 24 25
-18.824553 -9.131266 64.262428 46 24 25
-18.865387 -9.012244 64.401825 46 24 25
-18.988958 -8.931539 64.823669 47 24 25
-19.114161 -8.849769 65.251083 48 24 26
-19.198551 -8.747560 65.539169 48 24 26
-19.369585 -8.682950 66.123032 48 23 26
-19.412821 -8.559474 66.270630 49 24 26
-19.412821 -8.416617 66.270630 51 25 27
-19.283688 -8.218724 65.829803 52 26 28
-19.241026 -8.058949 65.684166 52 27 29
-19.283688 -7.934910 65.829803 52 28 29
-19.412821 -7.845189 66.270630 52 27 28
-19.412821 -7.702332 66.270630 51 27 27
-19.326540 -7.525877 65.976097 51 27 25
-19.241026 -7.350984 65.684166 51 28 26
-19.072245 -7.146150 65.107986 52 29 27
-18.743412 -6.885010 63.985435 53 29 28
-18.662968 -6.718122 63.710819 54 30 28
-18.662968 -6.580782 63.710819 55 31 29
-18.662968 -6.443443 63.710819 55 30 29
-18.662968 -6.306104 63.710819 56 30 30
-18.662968 -6.168765 63.710819 59 33 33
-18.662968 -6.031426 63.710819 64 38 38
-18.662968 -5.894087 63.710819 65 39 39
-18.623005 -5.744421 63.574394 59 34 33
-18.583212 -5.595394 63.438553 54 28 27
-18.583212 -5.458642 63.438553 52 26 26
-18.623005 -5.333286 63.574394 54 26 26
-18.662968 -5.207392 63.710819 55 25 26
-18.662968 -5.070053 63.710819 56 26 26
-18.662968 -4.932714 63.710819 57 26 26
-18.662968 -4.795374 63.710819 58 27 27
-18.662968 -4.658035 63.710819 59 28 28
-18.543589 -4.491779 63.303288 61 29 29
-18.543589 -4.355319 63.303288 63 29 30
-18.783895 -4.273530 64.123634 64 30 31
-18.947590 -4.171339 64.682442 65 30 31
-18.947590 -4.031905 64.682442 65 30 31
-18.783895 -3.858844 64.123634 66 30 30
-18.783895 -3.720614 64.123634 66 30 30
-18.988958 -3.621495 64.823669 66 31 30
-18.988958 -3.481757 64.823669 65 32 30
-18.743412 -3.298803 63.985435 64 32 31
-18.543589 -3.127174 63.303288 63 32 31
-18.662968 -3.009967 63.710819 62 31 30
-17.221670 -1.890385 58.790577 57 28 28
-17.187635 -1.760167 58.674393 58 28 28
-17.221670 -1.636920 58.790577 59 28 28
-19.587709 -1.717668 66.867661 59 28 28
-19.810804 -1.591445 67.629250 59 28 28
-19.587709 -1.429380 66.867661 59 27 28
-19.587709 -1.285235 66.867661 58 27 27
-19.499872 -1.135974 66.567810 58 26 27
-12.865301 -0.181427 43.918999 62 31 31
-18.270889 -0.123203 62.372356 61 31 30
-18.232586 0.011227 62.241596 59 31 29
-12.586025 0.100370 42.965618 57 31 29
-12.477680 0.191328 42.595757 57 30 29
-12.441979 0.282340 42.473881 56 29 28
-12.406481 0.372832 42.352699 57 29 29
-12.406481 0.464130 42.352699 58 30 29
-19.499872 2.738465 66.567810 55 27 26
-19.499872 2.881963 66.567810 54 28 26
-19.326540 2.998568 65.976097 54 29 27
-18.988958 3.085929 64.823669 53 29 27
-18.988958 3.225667 64.823669 52 29 28
-18.988958 3.365405 64.823669 51 29 28
-19.114161 3.528254 65.251083 49 29 28
-19.114161 3.668913 65.251083 47 28 28
-19.114161 3.809572 65.251083 45 27 27
-19.241026 3.976450 65.684166 44 27 26
-18.743412 4.011542 63.985435 43 27 25
-18.232586 4.036385 62.241596 43 27 25
-18.080963 4.135874 61.723995 43 27 25
-18.080963 4.268930 61.723995 42 27 24
-13.217239 3.995981 45.120430 30 23 21
-12.961167 4.013943 44.246262 28 23 20
-13.137377 4.165190 44.847797 27 22 20
-13.038896 4.229918 44.511608 26 21 20
-13.019377 4.319395 44.444973 26 22 20
-13.019377 4.415203 44.444973 26 22 20
-12.961167 4.490843 44.246262 26 22 19
-12.941880 4.579398 44.180420 26 21 19
-12.941880 4.674636 44.180420 25 21 19
-21.007109 8.206173 71.713142 24 21 21
-20.806084 8.280755 71.026894 23 21 21
-11.752626 4.763994 40.120598 22 21 21
-11.816499 4.876842 40.338646 22 22 21
-11.816499 4.963798 40.338646 23 23 21
-11.816499 5.050755 40.338646 23 23 21
-11.768530 5.463269 40.174889 20 20 18
-13.782795 6.499771 47.051098 19 19 17
-13.870723 6.643310 47.351265 19 19 17
-13.826619 6.723936 47.200703 18 17 16
-13.739247 6.782552 46.902435 17 16 15
-13.848636 6.938464 47.275864 18 17 16
-19.099432 -11.032399 65.684166 45 24 25
-18.973501 -10.818999 65.251083 47 25 27
-18.973501 -10.678340 65.251083 49 25 28
-19.057270 -10.584205 65.539169 48 25 28
-19.015293 -10.419922 65.394806 48 25 27
-19.015293 -10.278953 65.394806 48 25 27
-18.849222 -10.049442 64.823669 47 25 26
-18.686024 -9.823906 64.262428 47 25 26
-18.565470 -9.622891 63.847832 46 25 26
-18.446461 -9.424454 63.438553 45 25 26
-18.446461 -9.287702 63.438553 46 25 26
-18.605482 -9.229837 63.985435 47 24 25
-18.605482 -9.091907 63.985435 47 24 24
-18.645666 -8.973314 64.123634 47 23 24
-18.686024 -8.854209 64.262428 48 23 25
-18.726559 -8.734587 64.401825 49 24 26
-18.849222 -8.652062 64.823669 49 24 26
-19.099432 -8.625319 65.684166 50 25 27
-19.141781 -8.502538 65.829803 51 26 27
-19.141781 -8.360631 65.829803 52 26 28
-19.099432 -8.200541 65.684166 53 27 29
-19.099432 -8.058949 65.684166 54 28 29
-19.099432 -7.917355 65.684166 54 28 29
-19.269962 -7.845189 66.270630 52 28 29
-19.269962 -7.702332 66.270630 52 27 28
-19.184319 -7.525877 65.976097 52 27 26
-19.099432 -7.350984 65.684166 52 28 26
-18.973501 -7.161856 65.251083 53 28 28
-18.645666 -6.899880 64.123634 55 29 29
-18.565470 -6.732569 63.847832 56 30 29
-18.525629 -6.580782 63.710819 57 31 30
-18.525629 -6.443443 63.710819 58 31 31
-18.525629 -6.306104 63.710819 59 31 32
-18.525629 -6.168765 63.710819 59 32 32
-18.525629 -6.031426 63.710819 61 34 34
-18.525629 -5.894087 63.710819 60 33 33
-18.446461 -5.732146 63.438553 56 31 31
-18.407129 -5.583464 63.303288 53 28 28
-18.407129 -5.447003 63.303288 52 27 26
-18.407129 -5.310543 63.303288 53 26 26
-18.407129 -5.174082 63.303288 54 25 26
-18.407129 -5.037621 63.303288 55 25 26
-18.446461 -4.911633 63.438553 56 26 27
-18.485960 -4.785106 63.574394 57 27 27
-18.485960 -4.648061 63.574394 59 27 28
-18.485960 -4.511016 63.574394 61 28 29
-18.485960 -4.373971 63.574394 62 29 30
-18.726559 -4.292070 64.401825 64 30 31
-18.808155 -4.171339 64.682442 66 31 31
-18.808155 -4.031905 64.682442 66 31 31
-18.726559 -3.875585 64.401825 67 30 31
-18.726559 -3.736756 64.401825 68 31 31
-18.808155 -3.613605 64.682442 67 32 31
-18.808155 -3.474171 64.682442 66 32 31
-18.726559 -3.320270 64.401825 66 32 31
-18.525629 -3.147306 63.710819 65 31 30
-18.525629 -3.009967 63.710819 64 31 30
-17.061153 -1.886649 58.674393 59 28 29
-16.993982 -1.753237 58.443390 59 29 29
-16.993982 -1.627253 58.443390 60 29 29
-19.443565 -1.717668 66.867661 60 28 29
-19.665020 -1.591445 67.629250 60 28 28
-19.665020 -1.445660 67.629250 59 27 28
-19.531546 -1.291051 67.170235 59 26 28
-19.356375 -1.135974 66.567810 59 26 27
-19.313072 -0.990256 66.418884 59 27 27
-19.313072 -0.847080 66.418884 60 27 28
-19.313072 -0.703903 66.418884 61 28 29
-12.732955 -0.275287 43.789444 62 30 31
-18.328966 -0.260392 63.034485 63 31 31
-18.098413 -0.122945 62.241596 62 31 31
-18.098413 0.011227 62.241596 60 31 30
-18.060551 0.145095 62.111385 58 31 30
-12.493405 0.192989 42.965618 57 30 29
-12.385859 0.283150 42.595757 56 29 28
-12.350420 0.373899 42.473881 57 29 29
-12.385859 0.466794 42.595757 58 30 29
-19.313072 2.732339 66.418884 55 27 26
-19.313072 2.875516 66.418884 55 28 26
-19.184319 2.998568 65.976097 55 29 27
-18.849222 3.085929 64.823669 54 29 28
-18.808155 3.218639 64.682442 53 29 28
-18.767267 3.350773 64.541832 51 29 28
-18.808155 3.497506 64.682442 50 29 28
-18.808155 3.636940 64.682442 47 28 28
-18.808155 3.776374 64.682442 46 27 27
-18.686024 3.890380 64.262428 45 27 26
-18.407129 3.968775 63.303288 44 27 25
-18.098413 4.036385 62.241596 43 27 25
-17.910671 4.127294 61.595940 42 27 24
-17.910671 4.260074 61.595940 42 27 24
-13.080217 4.274781 44.983700 28 23 22
-13.040700 4.358543 44.847797 28 23 22
-12.942944 4.421822 44.511608 28 23 22
-12.942944 4.517774 44.511608 27 22 21
-20.702501 8.300612 71.197220 23 21 22
-20.554626 8.393703 70.688675 23 21 21
-11.777549 4.896801 40.503742 22 21 21
-11.745502 4.970551 40.393528 22 22 21
-11.729543 5.050755 40.338646 22 23 21
-11.650396 5.103044 40.066452 22 22 21
-11.681926 5.463269 40.174889 20 20 18
-11.729543 5.572494 40.338646 20 20 18
-13.531260 6.528770 46.534863 19 19 18
-13.595186 6.660402 46.754711 18 18 17
-13.595186 6.761190 46.754711 18 17 16
-13.638142 6.883658 46.902435 18 17 16
-18.999874 -11.198769 65.829803 46 24 25
-18.999874 -11.056862 65.829803 48 25 26
-18.957840 -10.890806 65.684166 49 25 28
-18.915989 -10.725485 65.539169 51 25 28
-18.999874 -10.631141 65.829803 51 25 28
-18.957840 -10.466027 65.684166 50 25 27
-18.874325 -10.278953 65.394806 50 25 27
-18.709484 -10.049442 64.823669 49 25 27
-18.547497 -9.823906 64.262428 49 25 27
-18.467550 -9.643630 63.985435 49 25 27
-18.309708 -9.424454 63.438553 48 25 27
-18.309708 -9.287702 63.438553 48 25 27
-18.427835 -9.209989 63.847832 48 24 25
-18.467550 -9.091907 63.985435 48 23 24
-18.467550 -8.953976 63.985435 48 22 24
-18.507437 -8.835085 64.123634 49 23 25
-18.587730 -8.734587 64.401825 50 24 26
-18.587730 -8.595758 64.401825 52 25 27
-18.915989 -8.606279 65.539169 52 26 27
-18.957840 -8.483727 65.684166 53 27 28
-18.957840 -8.342134 65.684166 53 27 29
-18.957840 -8.200541 65.684166 54 28 29
-18.915989 -8.041158 65.539169 54 28 30
-18.915989 -7.899878 65.539169 54 28 30
-19.127106 -7.845189 66.270630 52 28 29
-19.127106 -7.702332 66.270630 52 27 28
-19.042097 -7.525877 65.976097 52 27 27
-18.957840 -7.350984 65.684166 52 27 27
-18.832842 -7.161856 65.251083 54 27 28
-18.587730 -6.929815 64.401825 56 29 29
-18.467550 -6.747079 63.985435 58 30 30
-18.427835 -6.594934 63.847832 59 31 31
-18.427835 -6.457300 63.847832 60 32 31
-18.388290 -6.306104 63.710819 60 32 32
-18.388290 -6.168765 63.710819 60 32 32
-18.388290 -6.031426 63.710819 59 32 32
-18.348915 -5.881466 63.574394 56 31 31
-18.309708 -5.732146 63.438553 54 29 29
-18.231794 -5.571584 63.168602 53 28 28
-18.231794 -5.435414 63.168602 52 27 28
-18.231794 -5.299243 63.168602 53 26 27
-18.231794 -5.163074 63.168602 53 25 27
-18.193087 -5.016231 63.034485 54 26 27
-18.193087 -4.880349 63.034485 55 26 27
-18.270668 -4.764700 63.303288 57 26 27
-18.270668 -4.628240 63.303288 58 27 28
-18.348915 -4.511016 63.574394 60 28 29
-18.388290 -4.383358 63.710819 62 28 29
-18.587730 -4.292070 64.401825 64 29 31
-18.668722 -4.171339 64.682442 65 30 32
-18.668722 -4.031905 64.682442 67 31 32
-18.587730 -3.875585 64.401825 68 30 32
-18.587730 -3.736756 64.401825 69 31 32
-18.628138 -3.605749 64.541832 69 31 32
-18.628138 -3.466619 64.541832 68 31 32
-18.587730 -3.320270 64.401825 68 31 31
-18.467550 -3.160872 63.985435 67 31 31
-18.388290 -3.009967 63.710819 66 30 31
-17.035673 -1.897902 59.024338 62 30 30
-16.867998 -1.753237 58.443390 61 30 30
-16.834860 -1.624056 58.328571 61 29 30
-16.934671 -1.507203 58.674393 61 29 29
-19.608566 -1.598729 67.938766 60 28 29
-19.608566 -1.452276 67.938766 60 27 29
-19.519234 -1.299874 67.629250 59 27 28
-19.299421 -1.141091 66.867661 59 26 27
-19.212877 -0.992477 66.567810 60 26 27
-19.299421 -0.852803 66.867661 60 26 27
-18.231794 -0.260946 63.168602 63 31 31
-18.154541 -0.124247 62.900936 63 31 31
-17.926661 0.011204 62.111385 61 31 31
-17.926661 0.145095 62.111385 59 31 30
-17.889235 0.278404 61.981716 58 30 29
-17.851965 0.411157 61.852589 57 29 29
-17.851965 0.544491 61.852589 57 29 29
-17.851965 0.677824 61.852589 57 29 29
-17.851965 0.811157 61.852589 57 29 28
-18.001982 0.952427 62.372356 58 29 27
-18.001982 1.086881 62.372356 58 29 27
-18.001982 1.221335 62.372356 58 29 28
-17.964241 1.352947 62.241596 58 29 28
-17.926661 1.484007 62.111385 57 29 28
-19.042097 2.856345 65.976097 57 28 28
-19.042097 2.998568 65.976097 56 29 28
-18.709484 3.085929 64.823669 55 30 28
-18.587730 3.204676 64.401825 54 30 29
-18.547497 3.336267 64.262428 52 30 29
-18.547497 3.474795 64.262428 50 29 28
-18.668722 3.636940 64.682442 47 28 27
-18.668722 3.776374 64.682442 46 27 27
-18.547497 3.890380 64.262428 45 27 26
-18.427835 4.002915 63.847832 44 27 25
-17.964241 4.036385 62.241596 43 27 25
-17.777891 4.127294 61.595940 43 27 25
-17.704428 4.242470 61.341408 42 27 24
-17.704428 4.374701 61.341408 42 26 23
-20.499865 8.280755 71.026894 23 22 22
-20.402246 8.393703 70.688675 23 21 22
-11.835557 4.957673 41.007240 22 21 21
-11.690236 4.984114 40.503742 22 21 20
-11.658426 5.057627 40.393528 22 21 20
-11.595323 5.116855 40.174889 21 21 20
-11.564026 5.189414 40.066452 21 21 20
-11.595323 5.376665 40.174889 21 21 19
-11.642586 5.485538 40.338646 21 21 19
-11.642586 5.572494 40.338646 20 20 18
-11.658426 5.667150 40.393528 20 20 18
-13.388974 6.608368 46.389442 19 19 17
-13.388974 6.708368 46.389442 19 18 17
-13.494399 6.861977 46.754711 19 18 16
-18.857967 -11.340675 65.829803 48 23 25
-18.899874 -11.223655 65.976097 49 24 26
-18.857967 -11.056862 65.829803 51 25 27
-18.857967 -10.914954 65.829803 52 26 28
-18.857967 -10.773047 65.829803 53 26 28
-18.899874 -10.654766 65.976097 53 26 28
-18.899874 -10.512544 65.976097 52 26 28
-18.774710 -10.301643 65.539169 52 26 27
-18.569746 -10.049442 64.823669 51 26 27
-18.448900 -9.845216 64.401825 50 25 27
-18.369207 -9.664459 64.123634 50 25 27
-18.250952 -9.464903 63.710819 50 25 27
-18.250952 -9.327563 63.710819 50 25 27
-18.290201 -9.209989 63.847832 50 24 26
-18.290201 -9.072353 63.847832 49 23 25
-18.290201 -8.934719 63.847832 49 22 24
-18.329618 -8.816044 63.985435 50 23 25
-18.369207 -8.696856 64.123634 52 24 26
-18.448900 -8.595758 64.401825 53 25 27
-18.774710 -8.606279 65.539169 54 26 28
-18.816246 -8.483727 65.684166 54 27 28
-18.816246 -8.342134 65.684166 54 27 29
-18.692183 -8.146471 65.251083 54 28 29
-18.692183 -8.005812 65.251083 54 28 29
-18.774710 -7.899878 65.539169 53 28 30
-18.984249 -7.845189 66.270630 52 27 29
-18.984249 -7.702332 66.270630 51 27 28
-18.899874 -7.525877 65.976097 51 26 27
-18.816246 -7.350984 65.684166 52 27 27
-18.733355 -7.177631 65.394806 53 27 27
-18.489008 -6.944880 64.541832 56 28 29
-18.329618 -6.747079 63.985435 58 30 30
-18.329618 -6.609148 63.985435 59 31 31
-18.290201 -6.457300 63.847832 60 32 31
-18.290201 -6.319665 63.847832 60 32 32
-18.250952 -6.168765 63.710819 59 32 32
-18.250952 -6.031426 63.710819 57 32 31
-18.211870 -5.881466 63.574394 55 31 31
-18.134207 -5.719924 63.303288 54 30 30
-18.057205 -5.559755 63.034485 53 28 29
-18.018948 -5.412383 62.900936 52 27 28
-18.018948 -5.276789 62.900936 52 26 28
-17.942919 -5.119503 62.635532 53 26 28
-17.905144 -4.973989 62.503666 53 26 28
-17.905144 -4.839252 62.503666 55 26 28
-18.057205 -4.744468 63.034485 56 26 28
-18.057205 -4.608587 63.034485 58 27 28
-18.134207 -4.491779 63.303288 59 27 28
-18.250952 -4.383358 63.710819 61 28 29
-18.448900 -4.292070 64.401825 62 28 30
-18.489008 -4.162271 64.541832 64 29 31
-18.448900 -4.014413 64.401825 66 30 32
