ply
format ascii 1.0
element vertex 1190
property float x
property float y
property float z
property uchar red
property uchar green
property uchar blue
end_header
-17.315445 -14.316939 63.303288 32 26 26
-22.067781 -18.072403 80.677292 32 25 26
-22.067781 -17.898491 80.677292 32 25 27
-22.067781 -17.724577 80.677292 33 25 27
-21.830492 -17.361948 79.809792 33 26 28
-21.771967 -17.143820 79.595825 34 27 28
-14.475835 -11.284572 52.922001 34 27 29
-14.475835 -11.170489 52.922001 34 27 29
-14.501684 -11.076151 53.016502 35 27 29
-19.289652 -14.125047 70.520767 34 28 29
-10.574145 -6.076360 38.657867 28 24 23
-10.546679 -5.977460 38.557457 28 24 24
-10.465134 -5.848769 38.259335 28 24 24
-10.587932 -5.833956 38.708267 27 23 23
-13.694676 -6.574443 50.066177 25 20 21
-13.602921 -6.423190 49.730724 25 20 21
-13.580173 -6.305426 49.647564 25 20 21
-13.580173 -6.198402 49.647564 24 19 21
-13.741021 -6.163527 50.235603 23 18 20
-13.741021 -6.055236 50.235603 21 17 18
-13.671622 -5.916910 49.981888 21 17 17
-10.799127 -3.822666 39.480373 22 16 17
-10.799127 -3.737559 39.480373 22 16 16
-10.799127 -3.652453 39.480373 23 16 16
-10.827925 -3.576859 39.585655 23 16 15
-10.842381 -3.496188 39.638508 23 16 15
-10.856876 -3.415300 39.691502 23 15 15
-19.758986 -6.059962 72.236603 23 16 16
-19.807178 -5.918645 72.412788 22 16 17
-19.758986 -5.748527 72.236603 22 17 17
-19.758986 -5.592809 72.236603 21 17 17
-10.799127 -2.971602 39.480373 19 16 16
-10.727798 -2.867430 39.219608 17 14 14
-10.713646 -2.779214 39.167866 15 13 13
-10.713646 -2.694782 39.167866 14 12 12
-10.699530 -2.606910 39.116261 14 11 11
-10.671411 -2.515959 39.013458 13 11 11
-10.643438 -2.425484 38.911194 13 11 12
-10.699530 -2.353945 39.116261 14 12 12
-11.421862 -2.422848 41.757023 14 12 12
-17.178984 -14.589860 63.303288 33 27 26
-16.997770 -14.300938 62.635532 33 27 26
-16.997770 -14.165916 62.635532 33 27 26
-17.178984 -14.180479 63.303288 33 26 26
-21.893867 -17.898491 80.677292 33 26 27
-21.953524 -17.772873 80.897118 33 25 27
-21.716829 -17.408745 80.024910 33 26 28
-21.600384 -17.143820 79.595825 34 27 29
-14.517015 -11.406567 53.494129 34 28 30
-14.387399 -11.190436 53.016502 35 29 30
-14.464890 -11.135807 53.302052 36 29 31
-19.414322 -14.175047 71.540344 36 29 31
-10.657332 -6.342123 39.271484 29 24 24
-10.657332 -6.257466 39.271484 29 25 24
-10.545737 -6.108173 38.860264 29 25 25
-10.504489 -6.000840 38.708267 29 25 25
-10.504489 -5.917398 38.708267 29 25 25
-10.601241 -5.887690 39.064793 27 24 24
-10.629213 -5.818792 39.167866 26 23 22
-12.588974 -6.491632 46.389442 24 20 19
-13.495717 -6.315988 49.730724 25 21 22
-13.609701 -6.261224 50.150745 25 20 22
-13.632730 -6.163527 50.235603 23 18 20
-13.632730 -6.055236 50.235603 21 17 18
-10.699792 -3.732596 39.427944 23 17 17
-10.714021 -3.652453 39.480373 23 17 16
-10.756934 -3.581635 39.638508 23 17 16
-10.756934 -3.496188 39.638508 23 16 16
-10.756934 -3.410740 39.638508 23 16 16
-10.771315 -3.329739 39.691502 22 15 15
-19.508337 -5.875653 71.886787 23 16 16
-19.508337 -5.720689 71.886787 23 17 17
-10.756934 -3.068951 39.638508 22 17 17
-10.657332 -2.955879 39.271484 20 16 16
-10.629213 -2.863647 39.167866 18 15 15
-10.601241 -2.771901 39.064793 16 14 13
-10.643254 -2.698342 39.219608 15 13 12
-10.629213 -2.610349 39.167866 14 12 11
-10.615209 -2.522588 39.116261 14 11 11
-10.587311 -2.431859 39.013458 14 11 12
-10.615209 -2.353945 39.116261 15 12 13
-10.657332 -2.278630 39.271484 15 12 13
-11.331847 -2.332833 41.757023 15 12 13
-19.555687 -2.938457 72.061264 14 12 11
-16.544031 -2.223089 60.963535 14 13 10
-16.442741 -2.078866 60.590290 14 13 10
-16.409254 -1.944286 60.466888 13 13 9
-16.756695 -14.345167 62.241596 34 27 26
-16.651966 -14.122176 61.852589 34 27 26
-16.548536 -13.901956 61.468410 34 27 27
-16.791899 -13.971942 62.372356 34 27 27
-14.585663 -11.669060 54.177448 33 27 29
-14.401700 -11.406567 53.494129 34 28 30
-14.375797 -11.270944 53.397919 36 29 31
-14.612328 -11.339387 54.276493 37 30 32
-10.600720 -6.358945 39.375652 31 25 26
-10.572677 -6.257466 39.271484 30 26 25
-10.530888 -6.148412 39.116261 30 26 25
-10.475679 -6.032300 38.911194 30 26 26
-10.517031 -5.971900 39.064793 29 26 26
-10.544780 -5.903225 39.167866 29 25 25
-10.572677 -5.834186 39.271484 28 24 23
-13.524439 -6.271818 50.235603 25 21 21
-13.501594 -6.153116 50.150745 23 20 20
-10.685753 -3.586423 39.691502 23 18 17
-10.700058 -3.505548 39.744637 23 17 17
-10.700058 -3.419872 39.744637 23 16 16
-10.700058 -3.334196 39.744637 23 15 16
-10.700058 -3.248520 39.744637 23 16 16
-10.685753 -3.158616 39.691502 23 17 17
-10.671487 -3.068951 39.638508 23 17 18
-10.600720 -2.963720 39.375652 21 17 17
-10.558710 -2.867430 39.219608 19 16 15
-10.558710 -2.782886 39.219608 17 15 13
-10.558710 -2.698342 39.219608 16 13 12
-10.558710 -2.613797 39.219608 15 13 12
-10.530888 -2.522588 39.116261 15 12 12
-10.530888 -2.438267 39.116261 15 12 12
-10.530888 -2.353945 39.116261 16 12 13
-10.530888 -2.269624 39.116261 16 12 13
-11.039977 -2.290946 41.007240 15 12 13
-11.147759 -2.224051 41.407589 15 12 13
-19.353374 -3.241270 71.886787 14 12 12
-19.213806 -3.064049 71.368370 14 13 12
-19.213806 -2.910203 71.368370 14 13 11
-19.213806 -2.756357 71.368370 14 13 11
-16.412615 -2.223089 60.963535 14 14 10
-16.378983 -2.087386 60.838612 14 14 10
-16.278908 -1.944286 60.466888 14 14 9
-16.180048 -1.802924 60.099682 14 13 10
-16.180048 -1.673370 60.099682 14 13 10
-16.518633 -14.255509 61.852589 34 27 27
-16.382114 -14.005464 61.341408 34 27 27
-16.281199 -13.787771 60.963535 34 27 27
-16.281199 -13.656354 60.963535 34 27 27
-14.575264 -11.754861 54.575813 34 27 29
-14.468875 -11.552271 54.177448 35 28 31
-14.495326 -11.456388 54.276493 36 29 32
-14.683228 -11.486379 54.980080 37 30 33
-19.245008 -14.899623 72.061264 38 30 33
-10.488020 -6.342123 39.271484 32 26 26
-10.488020 -6.257466 39.271484 31 27 26
-10.446566 -6.148412 39.116261 31 27 26
-10.446566 -6.064090 39.116261 31 27 27
-10.446566 -5.979769 39.116261 30 27 27
-10.460347 -5.903225 39.167866 30 26 25
-10.488020 -5.834186 39.271484 29 25 24
-13.393485 -6.153116 50.150745 24 21 20
-10.614382 -3.505548 39.744637 24 18 18
-10.614382 -3.419872 39.744637 23 18 17
-10.614382 -3.334196 39.744637 23 17 17
-10.628611 -3.252875 39.797913 23 17 17
-10.628611 -3.167084 39.797913 23 17 18
-10.586040 -3.068951 39.638508 23 17 18
-10.529805 -2.967655 39.427944 21 17 17
-10.474166 -2.867430 39.219608 20 16 16
-10.474166 -2.782886 39.219608 18 16 14
-10.474166 -2.698342 39.219608 17 14 12
-10.474166 -2.613797 39.219608 17 14 13
-10.460347 -2.525916 39.167866 17 14 13
-10.446566 -2.438267 39.116261 17 14 14
-10.446566 -2.353945 39.116261 17 12 13
-10.460347 -2.272618 39.167866 16 12 13
-10.529805 -2.202715 39.427944 15 12 13
-10.951579 -2.202548 41.007240 15 12 13
-10.951579 -2.114150 41.007240 15 12 13
-10.861567 -2.009102 40.670197 14 12 13
-10.773021 -1.905767 40.338646 14 12 12
-10.743826 -1.813882 40.229324 14 13 12
-10.743826 -1.727161 40.229324 14 13 12
-18.968763 -2.896279 71.026894 15 14 12
-24.933784 -3.002027 93.362396 15 14 10
-16.083050 -1.806581 60.221588 15 14 10
-16.083050 -1.676764 60.221588 14 14 10
-11.887471 -0.087923 44.511608 15 13 10
-16.249884 -14.137695 61.341408 35 27 27
-16.050905 -13.833968 60.590290 35 26 28
-15.856741 -13.537590 59.857342 35 26 28
-15.824836 -13.381578 59.736904 35 27 28
-15.856741 -13.279525 59.857342 34 27 28
-14.591732 -11.982643 55.082081 33 28 29
-14.510965 -11.798237 54.777199 34 28 30
-14.537788 -11.701746 54.878452 35 29 31
-14.591732 -11.626428 55.082081 36 30 33
-14.700829 -11.593728 55.493912 38 30 34
-14.564710 -11.367860 54.980080 38 31 34
-19.089668 -14.744283 72.061264 38 31 34
-19.089668 -14.588943 72.061264 38 31 34
-18.815655 -14.226422 71.026894 38 31 35
-18.815655 -14.073312 71.026894 38 31 34
-17.874872 -12.642374 67.475548 35 29 30
-10.430960 -6.274065 39.375652 32 27 26
-10.430960 -6.189184 39.375652 32 27 27
-10.389622 -6.080112 39.219608 32 28 27
-10.362245 -5.979769 39.116261 31 28 27
-10.389622 -5.911023 39.219608 31 27 26
-10.403364 -5.834186 39.271484 30 25 24
-10.542820 -3.338665 39.797913 23 18 17
-10.613958 -3.274824 40.066452 23 18 17
-10.599654 -3.184157 40.012455 23 17 18
-10.571160 -3.089576 39.904896 22 17 18
-10.458701 -2.971602 39.480373 21 17 17
-10.417144 -2.875026 39.323498 20 17 16
-10.417144 -2.790258 39.323498 18 17 15
-10.417144 -2.705489 39.323498 18 16 13
-10.403364 -2.617255 39.271484 18 15 14
-10.389622 -2.529253 39.219608 18 16 15
-10.389622 -2.444709 39.219608 19 15 16
-10.389622 -2.360164 39.219608 18 13 14
-10.389622 -2.275620 39.219608 16 12 13
-10.444812 -2.202715 39.427944 16 12 13
-10.528706 -2.134732 39.744637 15 12 13
-10.686065 -2.079680 40.338646 15 12 13
-10.671565 -1.990020 40.283909 14 13 13
-10.657104 -1.900602 40.229324 14 13 13
-10.642684 -1.811427 40.174889 14 13 13
-10.585388 -1.715538 39.958603 14 14 12
-10.585388 -1.629400 39.958603 15 15 12
-18.906115 -2.756357 71.368370 15 15 11
-24.577948 -2.783264 92.778885 15 14 11
-24.577948 -2.583264 92.778885 15 14 11
-11.809224 -0.184151 44.578442 15 14 10
-11.738722 -0.087529 44.312302 15 14 11
-11.738722 0.007993 44.312302 15 14 11
-21.547791 1.417412 81.340393 15 15 15
-21.488916 1.588403 81.118149 15 15 14
-21.547791 1.768097 81.340393 16 15 15
-16.117651 -14.269927 61.341408 34 27 26
-15.920293 -13.964581 60.590290 35 26 27
-15.823415 -13.749786 60.221588 35 26 27
-15.696063 -13.510351 59.736904 35 26 28
-15.508834 -13.221957 59.024338 35 27 28
-15.508834 -13.094721 59.024338 34 28 29
-14.858940 -12.424085 56.550938 34 28 29
-14.526896 -12.027271 55.287228 34 29 29
-14.472993 -11.863905 55.082081 34 29 30
-14.635917 -11.877382 55.702145 35 30 31
-14.746585 -11.846209 56.123333 36 31 33
-14.581203 -11.593728 55.493912 38 31 34
-14.446192 -11.367860 54.980080 39 31 34
-14.499895 -11.291161 55.184464 39 32 34
-17.530210 -13.507067 66.717400 39 32 35
-17.530210 -13.363246 66.717400 39 32 35
-17.296991 -13.043558 65.829803 39 32 35
-17.220625 -12.844690 65.539169 38 32 35
-17.609352 -12.701229 67.018608 36 31 31
-17.258724 -12.306736 65.684166 36 31 31
-17.258724 -12.165143 65.684166 36 30 31
-17.258724 -12.023550 65.684166 36 30 31
-10.277923 -5.979769 39.116261 32 28 28
-10.277923 -5.895447 39.116261 32 27 26
-10.277923 -5.811126 39.116261 31 26 25
-11.964637 -6.568473 45.535648 31 24 22
-11.964637 -6.470314 45.535648 31 24 22
-9.678590 -4.519410 36.835289 28 25 23
-10.556080 -3.283687 40.174889 23 18 17
-10.556080 -3.197083 40.174889 23 18 17
-10.513401 -3.097904 40.012455 22 18 17
-10.387408 -2.975559 39.532948 21 18 17
-10.373595 -2.886495 39.480373 20 18 17
-10.332376 -2.790258 39.323498 19 18 16
-10.332376 -2.705489 39.323498 19 17 16
-10.332376 -2.620721 39.323498 19 17 16
-10.318708 -2.532598 39.271484 19 17 17
-10.305078 -2.444709 39.219608 19 17 17
-10.318708 -2.363286 39.271484 18 15 16
-10.359818 -2.287709 39.427944 17 13 14
-10.373595 -2.205644 39.480373 17 13 14
-10.415145 -2.129031 39.638508 16 13 14
-10.541816 -2.068439 40.120598 16 13 14
-10.556080 -1.984634 40.174889 15 13 14
-10.556080 -1.898031 40.174889 14 13 13
-10.527589 -1.806538 40.066452 14 14 13
-10.499250 -1.715538 39.958603 14 14 12
-10.373595 -1.609900 39.480373 14 15 12
-10.373595 -1.524793 39.480373 15 15 11
-24.764900 -3.030617 94.251564 15 15 10
-24.377949 -2.783264 92.778885 15 14 11
-24.377949 -2.583264 92.778885 15 14 11
-11.695567 -0.087923 44.511608 15 14 11
-11.643199 0.007993 44.312302 15 14 11
-11.625847 0.103361 44.246262 16 14 12
-11.539857 0.197271 43.918999 16 14 13
-21.372448 1.242070 81.340393 16 14 15
-21.198215 1.405857 80.677292 16 15 15
-21.198215 1.579770 80.677292 16 15 15
-21.198215 1.753683 80.677292 16 15 16
-21.198215 1.927596 80.677292 17 15 16
-15.952460 -14.240504 61.214931 34 27 27
-15.725494 -13.907814 60.343987 35 26 27
-15.661829 -13.721952 60.099682 35 26 27
-15.536031 -13.483222 59.616951 35 26 28
-15.381598 -13.221957 59.024338 35 27 28
-15.081761 -12.839463 57.873768 34 28 29
-14.765159 -12.447795 56.658859 34 28 29
-14.681107 -12.255492 56.336323 34 29 30
-14.515841 -11.997457 55.702145 34 29 31
-14.681107 -12.012609 56.336323 35 30 32
-14.681107 -11.891166 56.336323 36 31 33
-14.625602 -11.725226 56.123333 38 31 34
-14.380936 -11.410120 55.184464 39 31 34
-14.380936 -11.291161 55.184464 39 32 35
-17.079346 -13.268531 65.539169 39 32 35
-17.079346 -13.127251 65.539169 39 32 35
-16.288301 -12.384515 62.503666 39 32 35
-16.567331 -12.459624 63.574394 39 32 35
-17.117132 -12.448329 65.684166 37 32 32
-17.079346 -12.279569 65.539169 37 31 32
-16.966982 -12.058431 65.107986 37 31 31
-16.892889 -11.866036 64.823669 36 30 31
-16.782957 -11.649988 64.401825 37 30 31
-16.746630 -11.486243 64.262428 38 30 32
-10.074145 -5.909693 38.657867 33 28 28
-10.061045 -5.818784 38.607597 33 28 27
-10.074145 -5.743027 38.657867 33 27 26
-19.940577 -10.048053 76.518669 30 26 24
-20.043894 -9.934312 76.915138 30 27 25
-20.043894 -9.768509 76.915138 30 27 25
-20.043894 -9.602706 76.915138 30 27 26
-9.599185 -4.519410 36.835289 29 26 24
-9.587291 -4.434504 36.789642 28 25 24
-17.041725 -5.345032 65.394806 24 19 18
-17.041725 -5.204063 65.394806 23 19 17
-10.441219 -3.102084 40.066452 22 19 18
-10.329698 -2.983504 39.638508 21 19 18
-10.302188 -2.890339 39.532948 20 19 18
-10.288488 -2.801389 39.480373 20 19 18
-10.274825 -2.712675 39.427944 20 19 18
-10.261198 -2.624197 39.375652 20 19 18
-10.247607 -2.535953 39.323498 20 19 18
-10.234052 -2.447942 39.271484 19 18 18
-10.261198 -2.369555 39.375652 19 17 17
-10.274825 -2.287709 39.427944 18 16 16
-10.288488 -2.205644 39.480373 18 14 15
-10.315925 -2.126193 39.585655 17 14 15
-10.455329 -2.068439 40.120598 17 13 14
-10.455329 -1.981952 40.120598 16 14 14
-10.469477 -1.898031 40.174889 15 14 14
-10.469477 -1.811427 40.174889 14 14 13
-10.469477 -1.724823 40.174889 14 14 12
-10.413114 -1.629400 39.958603 14 15 11
-10.288488 -1.524793 39.480373 14 15 10
-24.561726 -3.233792 94.251564 14 15 10
-24.253740 -2.992616 93.069725 14 15 10
-24.177948 -2.783264 92.778885 15 14 11
-24.102627 -2.575217 92.489853 15 14 11
-24.177948 -2.383264 92.778885 15 15 12
-23.095354 -1.512372 88.624603 16 14 10
-23.445282 -1.147408 89.967400 17 14 12
-11.582251 0.008017 44.444973 16 14 12
-11.445183 0.102597 43.918999 16 14 12
-11.428277 0.196980 43.854126 16 14 13
-21.081589 1.235301 80.897118 16 14 15
-21.024303 1.405857 80.677292 16 15 15
-20.910658 1.571231 80.241196 16 15 15
-20.910658 1.744204 80.241196 16 15 16
-20.910658 1.917177 80.241196 17 14 16
-15.532274 -13.851507 60.099682 35 27 28
-15.469644 -13.666622 59.857342 35 27 28
-15.407516 -13.483222 59.616951 35 27 28
-15.284748 -13.248296 59.141918 35 27 28
-15.074545 -12.940363 58.328571 34 28 29
-14.927905 -12.689970 57.761173 34 28 29
-14.643022 -12.325658 56.658859 35 29 30
-14.957005 -12.465194 57.873768 35 29 31
-14.957005 -12.340438 57.873768 35 30 32
-14.812632 -12.097770 57.315140 36 31 33
-14.671020 -11.859741 56.767193 37 31 34
-14.504619 -11.604243 56.123333 39 32 35
-14.927905 -11.818375 57.761173 40 32 35
-16.085835 -12.600932 62.241596 40 32 35
-16.153564 -12.519252 62.503666 40 33 35
-16.085835 -12.332588 62.241596 40 33 35
-16.119629 -12.224043 62.372356 40 33 35
-16.938065 -12.420849 65.539169 38 32 33
-16.900757 -12.252521 65.394806 38 32 32
-16.753151 -12.005774 64.823669 37 31 31
-16.644129 -11.788816 64.401825 37 31 32
-16.572231 -11.599665 64.123634 38 31 33
-16.572231 -11.461435 64.123634 39 31 33
-16.153564 -10.228725 62.503666 36 26 28
-10.016897 -6.008674 38.758801 34 28 29
-9.990811 -5.909693 38.657867 34 28 28
-9.964862 -5.811227 38.557457 34 28 28
-9.964862 -5.728110 38.557457 34 28 27
-19.724791 -10.186747 76.321960 33 28 25
-19.724791 -10.022223 76.321960 31 27 25
-19.775627 -9.883104 76.518669 31 27 25
-19.775627 -9.718156 76.518669 31 28 26
-19.878092 -9.602706 76.915138 31 28 27
-9.543462 -4.530653 36.926918 30 27 25
-9.519781 -4.440006 36.835289 30 27 25
-16.789810 -5.449988 64.965523 25 20 18
-16.826630 -5.321589 65.107986 24 20 18
-16.826630 -5.181238 65.107986 24 20 18
-10.382874 -3.110480 40.174889 23 20 19
-10.271678 -2.991492 39.744637 22 20 19
-10.244250 -2.898057 39.638508 21 20 20
-10.203382 -2.801389 39.480373 21 21 20
-10.203382 -2.716283 39.480373 21 21 20
-10.203382 -2.631176 39.480373 21 20 20
-10.189832 -2.542689 39.427944 21 20 19
-10.176317 -2.454436 39.375652 20 20 19
-10.189832 -2.372702 39.427944 20 19 19
-10.203382 -2.290751 39.480373 20 18 18
-10.203382 -2.205644 39.480373 20 16 16
-10.354849 -2.152017 40.066452 19 15 16
-10.368842 -2.068439 40.120598 18 15 15
-10.382874 -1.984634 40.174889 16 14 14
-10.396942 -1.900602 40.229324 15 14 14
-10.396942 -1.813882 40.229324 15 14 13
-18.668962 -3.101325 72.236603 15 15 11
-18.852440 -2.974557 72.946541 15 15 11
-18.852440 -2.817308 72.946541 15 15 11
-19.278751 -2.720212 74.596085 14 15 10
-24.128752 -3.203285 93.362396 14 15 10
-24.053114 -2.992616 93.069725 14 15 10
-23.903250 -2.774594 92.489853 15 14 10
-23.829016 -2.567219 92.202614 15 14 11
-23.903250 -2.375840 92.489853 15 14 11
-11.573067 0.008078 44.780155 16 14 12
-11.401105 0.103054 44.114773 16 14 12
-11.350508 0.197271 43.918999 16 14 13
-15.104219 0.388495 58.443390 16 14 14
-21.432802 1.087585 82.930847 16 14 14
-20.907202 1.235301 80.897118 16 14 15
-20.793884 1.402047 80.458649 17 14 15
-20.681787 1.566996 80.024910 17 14 15
-20.737684 1.744204 80.241196 18 14 15
-20.737684 1.917177 80.241196 18 14 15
-20.737684 2.090150 80.241196 18 14 15
-15.371603 -13.823524 59.978268 35 29 29
-15.340611 -13.666622 59.857342 35 28 29
-15.279003 -13.483222 59.616951 35 28 29
-15.187511 -13.274739 59.259964 35 27 28
-15.097110 -13.068739 58.907227 35 28 29
-15.037437 -12.890602 58.674393 35 28 29
-15.097110 -12.814771 58.907227 35 29 30
-15.037437 -12.637637 58.674393 35 29 31
-14.978235 -12.461899 58.443390 36 30 32
-14.861217 -12.239540 57.986801 36 31 33
-14.861217 -12.114540 57.986801 37 31 34
-14.861217 -11.989540 57.986801 39 32 35
-15.217887 -12.149289 59.378483 40 32 35
-15.918291 -12.574570 62.111385 40 32 35
-15.951663 -12.466760 62.241596 41 33 36
-15.885059 -12.281096 61.981716 41 34 36
-15.885059 -12.147484 61.981716 40 34 35
-16.796785 -12.420849 65.539169 39 32 33
-16.759787 -12.252521 65.394806 39 32 33
-16.613413 -12.005774 64.823669 38 32 32
-16.505301 -11.788816 64.401825 39 32 32
-16.434004 -11.599665 64.123634 40 32 33
-16.398584 -11.436734 63.985435 41 32 34
-16.398584 -11.298803 63.985435 42 33 35
-11.833505 -7.854813 46.173004 41 30 33
-9.933347 -6.008674 38.758801 35 29 29
-9.907478 -5.909693 38.657867 35 29 29
-9.868928 -5.803689 38.507446 34 28 28
-9.868928 -5.720680 38.507446 34 28 28
-9.868928 -5.637671 38.507446 34 28 27
-11.581345 -6.226247 45.189106 34 28 26
-19.410570 -10.272053 75.737862 34 29 26
-19.410570 -10.108788 75.737862 34 29 27
-19.510111 -9.996525 76.126259 32 28 27
-19.560266 -9.857698 76.321960 32 28 27
-19.610680 -9.718156 76.518669 32 29 27
-19.763489 -9.627648 77.114914 32 29 28
-19.610680 -9.388259 76.518669 31 28 28
-9.487460 -4.462150 37.019005 31 28 28
-9.393757 -4.339067 36.653385 31 28 28
-16.363319 -5.769128 63.847832 27 21 21
-16.398584 -5.643631 63.985435 26 21 20
-16.613413 -5.577826 64.823669 26 20 20
-16.649767 -5.449988 64.965523 25 21 19
-16.613413 -5.298350 64.823669 25 21 19
-16.469574 -5.113949 64.262428 24 21 19
-16.363319 -4.943322 63.847832 24 21 20
-10.240839 -3.007597 39.958603 23 21 21
-10.186002 -2.905816 39.744637 22 22 22
-10.131749 -2.805119 39.532948 22 22 21
-10.118276 -2.716283 39.480373 22 22 21
-10.118276 -2.631176 39.480373 22 22 21
-10.118276 -2.546070 39.480373 21 21 21
-10.131749 -2.464240 39.532948 21 21 21
-13.987028 -3.284273 54.575813 21 20 20
-12.766684 -2.890343 49.814163 21 19 20
-12.766684 -2.782961 49.814163 21 18 18
-18.423592 -3.861125 71.886787 20 17 17
-18.423592 -3.706161 71.886787 18 16 16
-18.423592 -3.551198 71.886787 16 15 14
-18.558399 -3.421084 72.412788 16 15 13
-18.695192 -3.289053 72.946541 15 15 12
-18.695192 -3.131805 72.946541 15 15 12
-18.695192 -2.974557 72.946541 15 16 11
-18.787514 -2.831221 73.306770 15 16 11
-19.117949 -2.720212 74.596085 15 16 11
-19.361179 -2.591971 75.545143 15 15 11
-23.557100 -2.955556 91.917160 15 15 11
-23.703873 -2.774594 92.489853 15 15 10
-23.703873 -2.575217 92.489853 15 14 11
-11.476536 0.104609 44.780155 16 15 13
-11.339707 0.198741 44.246262 16 15 14
-21.254032 1.087585 82.930847 17 15 14
-20.676477 1.231944 80.677292 17 15 14
-20.509281 1.394489 80.024910 18 15 15
-20.509281 1.566996 80.024910 18 14 15
-20.564713 1.744204 80.241196 19 14 15
-20.564713 1.917177 80.241196 19 14 15
-20.564713 2.090150 80.241196 19 14 15
-20.454149 2.250956 79.809792 18 15 15
-15.242310 -13.823524 59.978268 36 30 30
-15.211579 -13.666622 59.857342 36 29 30
-15.180972 -13.510351 59.736904 35 28 29
-15.120127 -13.327945 59.497478 35 28 29
-15.059767 -13.146996 59.259964 35 28 29
-15.059767 -13.019251 59.259964 36 29 30
-15.059767 -12.891506 59.259964 35 29 30
-15.059767 -12.763762 59.259964 36 30 31
-15.029768 -12.610846 59.141918 36 30 32
-15.029768 -12.483356 59.141918 37 30 33
-15.059767 -12.380528 59.259964 38 31 34
-15.089887 -12.277289 59.378483 39 32 35
-15.211579 -12.247267 59.857342 39 32 35
-15.784400 -12.574570 62.111385 40 32 35
-15.784400 -12.440679 62.111385 41 33 36
-15.718632 -12.255509 61.852589 41 34 36
-15.718632 -12.122176 61.852589 42 34 35
-16.655504 -12.420849 65.539169 41 33 34
-16.473675 -12.145512 64.823669 41 33 33
-16.402050 -11.953575 64.541832 40 33 33
-16.295774 -11.737893 64.123634 41 33 33
-16.260654 -11.574665 63.985435 41 33 34
-16.260654 -11.436734 63.985435 42 33 35
-11.733971 -7.854813 46.173004 43 31 34
-9.875581 -6.024404 38.860264 38 30 31
-9.824145 -5.909693 38.657867 37 30 30
-9.798628 -5.811227 38.557457 37 30 30
-9.798628 -5.728110 38.557457 37 30 30
-9.798628 -5.644993 38.557457 36 29 30
-11.483932 -6.323660 45.189106 35 28 29
-11.466479 -6.216785 45.120430 35 29 28
-11.431732 -6.100976 44.983700 35 30 28
-11.431732 -6.004007 44.983700 34 30 28
-18.957144 -9.795589 74.596085 34 29 29
-19.052887 -9.683446 74.972832 33 29 29
-19.445730 -9.718156 76.518669 33 30 29
-9.407660 -4.382350 37.019005 33 30 30
-16.225685 -5.906763 63.847832 29 23 23
-16.260654 -5.781561 63.985435 28 23 22
-16.437784 -5.705108 64.682442 28 22 22
-16.509724 -5.590032 64.965523 27 21 21
-16.509724 -5.449988 64.965523 26 21 21
-16.331047 -5.252477 64.262428 25 22 21
-16.260654 -5.091907 63.985435 25 22 21
-16.190866 -4.932714 63.710819 25 22 21
-16.121674 -4.774881 63.438553 24 23 22
-10.154701 -2.921460 39.958603 23 23 23
-10.100326 -2.820140 39.744637 23 23 23
-10.046529 -2.719899 39.532948 23 23 23
-10.046529 -2.634680 39.532948 23 23 22
-18.268627 -4.171052 71.886787 23 21 21
-18.268627 -4.016088 71.886787 23 20 20
-18.268627 -3.861125 71.886787 22 19 19
-18.268627 -3.706161 71.886787 20 17 17
-18.357527 -3.568478 72.236603 17 16 14
-18.402302 -3.421084 72.412788 17 16 13
-18.492508 -3.280992 72.767754 16 16 12
-18.537945 -3.131805 72.946541 16 16 12
-18.537945 -2.974557 72.946541 16 16 12
-18.583605 -2.824248 73.126213 16 16 12
-18.862358 -2.706611 74.223106 16 16 12
-18.957144 -2.559408 74.596085 16 15 11
-23.358957 -2.955556 91.917160 15 15 10
-23.726236 -2.800769 93.362396 15 15 10
-20.727867 0.893834 81.563850 17 15 15
-20.614599 1.063813 81.118149 18 15 15
-20.447001 1.228606 80.458649 19 15 15
-20.336775 1.394489 80.024910 20 15 15
-20.336775 1.566996 80.024910 20 15 15
-20.391739 1.744204 80.241196 20 15 15
-20.391739 1.917177 80.241196 20 15 15
-20.336775 2.084516 80.024910 20 15 15
-20.282106 2.250956 79.809792 20 15 16
-20.282106 2.422999 79.809792 20 16 16
-15.113017 -13.823524 59.978268 37 31 32
-15.082547 -13.666622 59.857342 36 30 31
-15.082547 -13.537590 59.857342 35 30 30
-15.021975 -13.354708 59.616951 36 29 30
-14.991871 -13.199689 59.497478 36 29 30
-14.961886 -13.045289 59.378483 36 29 30
-15.021975 -12.969166 59.616951 36 30 30
-15.021975 -12.840652 59.616951 36 30 31
-15.052200 -12.737716 59.736904 37 30 32
-15.052200 -12.608943 59.736904 37 31 33
-15.052200 -12.480170 59.736904 38 31 34
-15.082547 -12.376300 59.857342 39 31 35
-15.143610 -12.296851 60.099682 40 31 36
-15.650509 -12.574570 62.111385 40 32 36
-15.650509 -12.440679 62.111385 41 32 36
-15.585299 -12.255509 61.852589 42 33 35
-15.585299 -12.122176 61.852589 42 33 35
-16.441633 -12.366252 65.251083 42 34 34
-16.262920 -12.092706 64.541832 41 34 34
-16.227642 -11.927646 64.401825 42 34 34
-16.122723 -11.712596 63.985435 42 34 34
-16.122723 -11.574665 63.985435 43 34 34
-16.122723 -11.436734 63.985435 44 33 35
-9.766245 -5.925123 38.758801 40 31 32
-9.715511 -5.811227 38.557457 39 31 33
-9.715511 -5.728110 38.557457 39 31 33
-9.715511 -5.644993 38.557457 38 30 32
-11.386519 -6.323660 45.189106 36 29 31
-11.369215 -6.216785 45.120430 36 30 31
-9.740811 -5.243027 38.657867 35 31 30
-9.740811 -5.159693 38.657867 35 31 30
-18.702358 -9.746612 74.223106 34 31 31
-18.749231 -9.610638 74.409126 34 31 31
-18.796341 -9.473981 74.596085 34 31 31
-19.330603 -9.577893 76.716385 34 32 31
-16.192518 -6.360703 64.262428 33 28 28
-16.192518 -6.222174 64.262428 33 27 28
-16.122723 -6.057424 63.985435 31 25 26
-16.088051 -5.906763 63.847832 30 25 25
-16.122723 -5.781561 63.985435 29 24 24
-16.298351 -5.705108 64.682442 29 24 24
-16.298351 -5.565674 64.682442 28 23 23
-16.298351 -5.426241 64.682442 27 23 23
-16.122723 -5.229837 63.985435 26 23 23
-16.053526 -5.070053 63.710819 26 23 22
-15.984921 -4.911633 63.438553 26 24 23
-15.984921 -4.774881 63.438553 25 24 23
-16.088051 -4.668053 63.847832 25 24 24
-18.113665 -4.171052 71.886787 24 22 23
-18.069912 -4.006388 71.713142 25 22 22
-18.069912 -3.851798 71.713142 25 22 21
-18.113665 -3.706161 71.886787 22 20 18
-18.157629 -3.559817 72.061264 19 18 15
-18.201809 -3.412760 72.236603 18 16 13
-18.246202 -3.264987 72.412788 17 16 13
-18.246202 -3.108889 72.412788 17 16 13
-18.380695 -2.974557 72.946541 16 16 12
-18.425968 -2.824248 73.126213 16 16 12
-18.702358 -2.706611 74.223106 16 16 12
-18.702358 -2.546611 74.223106 17 16 12
-18.939096 -2.416821 75.162636 17 16 11
-20.439735 0.888949 81.118149 18 16 15
-20.384043 1.060914 80.897118 19 16 15
-20.273560 1.228606 80.458649 20 16 16
-20.164268 1.394489 80.024910 21 16 16
-20.164268 1.566996 80.024910 21 16 16
-20.273560 1.748931 80.458649 21 15 16
-20.273560 1.922373 80.458649 21 15 15
-20.218765 2.090150 80.241196 21 15 15
-20.110064 2.250956 79.809792 21 15 16
-20.110064 2.422999 79.809792 21 16 17
-14.983724 -13.823524 59.978268 38 32 33
-14.953515 -13.666622 59.857342 37 32 32
-14.953515 -13.537590 59.857342 37 31 32
-14.893460 -13.354708 59.616951 37 31 32
-14.893460 -13.226193 59.616951 37 30 31
-14.893460 -13.097680 59.616951 37 30 31
-14.953515 -13.021461 59.857342 37 30 31
-14.953515 -12.892428 59.857342 38 31 32
-14.983724 -12.789181 59.978268 38 31 33
-14.983724 -12.659888 59.978268 38 31 33
-15.014055 -12.555961 60.099682 39 31 35
-15.014055 -12.426406 60.099682 40 32 36
-15.229863 -12.473602 60.963535 41 32 37
-15.581814 -12.627404 62.372356 41 32 37
-15.581814 -12.492950 62.372356 41 33 36
-15.484224 -12.281096 61.981716 42 33 35
-15.549148 -12.198416 62.241596 43 33 35
-15.780730 -12.243924 63.168602 43 33 35
-16.053989 -12.317412 64.262428 43 34 34
-16.088814 -12.205302 64.401825 42 34 35
-16.088814 -12.066474 64.401825 42 35 35
-16.088814 -11.927646 64.401825 43 35 35
-15.984792 -11.712596 63.985435 43 35 35
-15.984792 -11.574665 63.985435 44 34 35
-15.984792 -11.436734 63.985435 45 34 35
-9.682693 -5.841572 38.758801 40 31 34
-9.644919 -5.735559 38.607597 39 31 34
-11.289107 -6.323660 45.189106 36 31 33
-11.254846 -6.207351 45.051960 36 31 33
-9.670070 -5.249863 38.708267 35 32 33
-11.237793 -6.004007 44.983700 35 32 33
-18.542358 -9.746612 74.223106 35 33 33
-18.542358 -9.586612 74.223106 35 32 33
-19.165228 -9.743267 76.716385 35 32 32
-19.165228 -9.577893 76.716385 35 32 32
-19.214880 -9.436903 76.915138 35 32 33
-19.115833 -9.223310 76.518669 36 32 33
-10.988064 -5.206881 43.984062 37 33 34
-16.123791 -6.527488 64.541832 35 30 29
-16.123791 -6.388358 64.541832 35 29 29
-16.088814 -6.235672 64.401825 34 28 29
-16.053989 -6.083646 64.262428 33 27 28
-15.984792 -5.919493 63.985435 32 26 26
-15.984792 -5.781561 63.985435 31 26 25
-16.088814 -5.680357 64.401825 30 25 25
-16.123791 -5.553575 64.541832 30 25 25
-16.088814 -5.402699 64.401825 29 24 25
-15.984792 -5.229837 63.985435 28 24 24
-15.848169 -5.048386 63.438553 27 25 24
-15.780730 -4.890733 63.168602 27 25 24
-15.780730 -4.754563 63.168602 27 26 24
-17.915321 -4.160977 71.713142 26 24 24
-17.915321 -4.006388 71.713142 27 25 25
-17.915321 -3.851798 71.713142 27 25 24
-17.915321 -3.697209 71.713142 25 23 22
-17.958700 -3.551198 71.886787 22 20 18
-18.002289 -3.404477 72.061264 19 17 15
-18.002289 -3.249137 72.061264 18 16 13
-18.002289 -3.093797 72.061264 18 16 13
-18.046091 -2.945607 72.236603 17 16 12
-18.090105 -2.796694 72.412788 17 17 12
-18.313440 -2.673196 73.306770 18 17 13
-18.404325 -2.527654 73.670578 19 17 13
-18.542358 -2.386611 74.223106 19 17 13
-20.320393 0.716042 81.340393 19 17 16
-20.264874 0.888949 81.118149 19 17 16
-20.154737 1.058031 80.677292 20 17 16
-20.100117 1.228606 80.458649 21 17 17
-19.991760 1.394489 80.024910 22 16 17
-19.991760 1.566996 80.024910 22 16 17
-20.045794 1.744204 80.241196 22 15 16
-20.045794 1.917177 80.241196 22 15 16
-20.045794 2.090150 80.241196 21 15 15
-19.991760 2.257023 80.024910 21 15 16
-19.991760 2.429530 80.024910 22 16 17
-14.824483 -13.795654 59.857342 39 32 33
-14.824483 -13.666622 59.857342 38 32 33
-14.794655 -13.510351 59.736904 37 32 33
-14.764947 -13.354708 59.616951 38 31 32
-14.764947 -13.226193 59.616951 38 31 32
-14.764947 -13.097680 59.616951 38 31 32
-14.824483 -13.021461 59.857342 38 31 32
-14.854431 -12.918474 59.978268 39 32 33
-14.884501 -12.815070 60.099682 39 32 34
-14.914693 -12.711246 60.221588 40 32 35
-15.006007 -12.658458 60.590290 41 32 36
-15.098446 -12.605020 60.963535 42 32 37
-15.447360 -12.761858 62.372356 42 33 37
-15.881087 -12.981954 64.123634 43 33 38
-15.578270 -12.598824 62.900936 42 33 37
-15.447360 -12.358497 62.372356 43 33 37
-15.578270 -12.327637 62.900936 43 33 36
-15.644561 -12.243924 63.168602 43 34 36
-15.846861 -12.264320 63.985435 43 35 36
-15.915462 -12.178885 64.262428 43 35 36
-15.915462 -12.040356 64.262428 43 35 36
-15.915462 -11.901828 64.262428 44 35 36
-15.846861 -11.712596 63.985435 45 35 36
-15.778849 -11.524988 63.710819 45 35 36
-15.745061 -11.363264 63.574394 46 34 36
-15.846861 -11.298803 63.985435 46 34 36
-11.057057 -6.632548 44.645477 40 32 36
-12.787727 -7.336773 51.633465 37 32 36
-12.633924 -7.138565 51.012444 36 32 36
-11.174686 -6.216785 45.120430 36 32 36
-11.157729 -6.110234 45.051960 36 33 36
-18.382359 -9.906611 74.223106 36 33 35
-18.382359 -9.746612 74.223106 37 34 35
-18.428429 -9.610638 74.409126 36 33 35
-19.148291 -9.819386 77.315735 36 33 33
-19.049076 -9.602706 76.915138 36 33 33
-19.049076 -9.436903 76.915138 37 33 34
-18.950886 -9.223310 76.518669 38 33 35
-18.902168 -9.035076 76.321960 38 33 35
-16.124876 -6.584747 65.107986 37 31 30
-16.124876 -6.444396 65.107986 36 30 30
-16.019484 -6.262842 64.682442 36 30 30
-15.915462 -6.083646 64.262428 34 29 29
-15.881087 -5.932278 64.123634 33 28 28
-15.881087 -5.794049 64.123634 33 27 27
-15.984659 -5.692706 64.541832 32 27 26
-15.984659 -5.553575 64.541832 31 26 26
-15.949986 -5.402699 64.401825 31 25 25
-15.846861 -5.229837 63.985435 30 26 25
-15.711417 -5.048386 63.438553 29 26 25
-15.644561 -4.890733 63.168602 29 27 25
-15.644561 -4.754563 63.168602 28 27 25
-15.745061 -4.648061 63.574394 28 28 26
-17.675344 -4.294818 71.368370 26 25 25
-17.675344 -4.140973 71.368370 27 25 26
-17.760733 -4.006388 71.713142 29 27 26
-17.760733 -3.851798 71.713142 30 28 27
-17.760733 -3.697209 71.713142 28 26 25
-17.803738 -3.551198 71.886787 24 22 21
-17.803738 -3.396234 71.886787 21 19 18
-17.803738 -3.241270 71.886787 19 18 16
-17.760733 -3.078851 71.713142 19 17 15
-17.760733 -2.924262 71.713142 19 16 14
-17.803738 -2.776379 71.886787 19 17 13
-17.934008 -2.640596 72.412788 19 17 14
-17.934008 -2.484499 72.412788 20 18 14
-17.934008 -2.328401 72.412788 20 18 15
-18.245518 -2.210036 73.670578 20 18 15
-20.035269 0.886527 80.897118 21 17 16
-19.926676 1.055164 80.458649 22 17 16
-19.819254 1.221982 80.024910 22 17 17
-19.819254 1.394489 80.024910 23 16 17
-19.819254 1.566996 80.024910 23 16 17
-19.872820 1.744204 80.241196 23 15 17
-19.872820 1.917177 80.241196 22 15 16
-19.872820 2.090150 80.241196 21 15 16
-19.819254 2.257023 80.024910 22 15 17
-14.665882 -13.767897 59.736904 39 33 34
-14.665882 -13.639124 59.736904 38 33 34
-14.665882 -13.510351 59.736904 38 32 33
-14.636433 -13.354708 59.616951 38 32 33
-14.636433 -13.226193 59.616951 38 31 33
-14.636433 -13.097680 59.616951 39 32 33
-14.784875 -13.100698 60.221588 39 32 33
-14.845098 -13.023716 60.466888 40 33 34
-14.875395 -12.919683 60.590290 41 33 35
-15.028749 -12.920917 61.214931 42 33 36
-15.185299 -12.922176 61.852589 43 33 37
-15.345144 -12.923462 62.503666 44 33 37
-16.090384 -13.409811 65.539169 44 33 38
-16.090384 -13.268531 65.539169 44 33 39
-15.742858 -12.843724 64.123634 44 34 39
-15.574665 -12.569754 63.438553 43 34 39
-15.508390 -12.380095 63.168602 43 34 39
-15.574665 -12.296249 63.438553 43 35 38
-15.708930 -12.264320 63.985435 43 35 38
-15.742858 -12.152580 64.123634 44 36 38
-15.742858 -12.014351 64.123634 44 36 38
-15.708930 -11.850527 63.985435 45 36 37
-15.641509 -11.662328 63.710819 46 36 37
-15.574665 -11.475737 63.438553 47 35 38
-15.574665 -11.338984 63.438553 47 35 38
-15.574665 -11.202232 63.438553 47 34 38
-15.574665 -11.065480 63.438553 47 34 38
-15.608016 -10.952129 63.574394 47 34 37
-10.960817 -6.632548 44.645477 41 34 38
-12.969650 -7.734243 52.827831 40 34 38
-12.765224 -7.500253 51.995171 39 34 38
-12.676423 -7.336773 51.633465 38 33 38
-12.632484 -7.200424 51.454491 37 33 38
-12.610629 -7.077240 51.365471 37 34 38
-18.222359 -9.906611 74.223106 37 35 38
-18.222359 -9.746612 74.223106 38 35 38
-18.932320 -9.627648 77.114914 38 34 34
-18.834478 -9.412519 76.716385 39 34 35
-18.737644 -9.199600 76.321960 39 34 36
-18.737644 -9.035076 76.321960 40 33 37
-18.268028 -8.648232 74.409126 40 33 37
-8.998695 -4.023018 36.653385 39 33 35
-16.054941 -6.613754 65.394806 39 32 32
-16.054941 -6.472785 65.394806 38 31 31
-15.949548 -6.290251 64.965523 37 30 31
-15.845529 -6.110097 64.541832 37 30 30
-15.845529 -5.970966 64.541832 36 29 30
-15.845529 -5.831836 64.541832 35 29 29
-15.880051 -5.705108 64.682442 34 28 28
-15.880051 -5.565674 64.682442 33 28 27
-15.845529 -5.414444 64.541832 32 27 26
-15.708930 -5.229837 63.985435 32 27 26
-15.641509 -5.070053 63.710819 31 28 26
-15.608016 -4.922151 63.574394 30 28 26
-15.608016 -4.785106 63.574394 30 29 27
-15.675147 -4.668053 63.847832 29 29 27
-17.563719 -4.459384 71.540344 26 25 26
-17.521498 -4.294818 71.368370 27 25 26
-17.521498 -4.140973 71.368370 28 26 26
-17.606144 -4.006388 71.713142 30 27 27
-17.606144 -3.851798 71.713142 30 28 27
-17.606144 -3.697209 71.713142 30 27 27
-17.648773 -3.551198 71.886787 27 24 24
-17.648773 -3.396234 71.886787 23 21 20
-17.606144 -3.233441 71.713142 21 19 18
-17.563719 -3.071433 71.540344 21 18 16
-17.521498 -2.910203 71.368370 21 17 15
-17.563719 -2.762999 71.540344 20 17 14
-17.648773 -2.621415 71.886787 20 17 14
-17.734655 -2.478454 72.236603 21 18 15
-17.691610 -2.317098 72.061264 21 18 15
-17.691610 -2.161759 72.061264 21 18 15
-19.753235 0.881722 80.458649 21 18 17
-19.489153 1.041057 79.383003 22 17 17
-19.489153 1.212180 79.383003 22 17 17
-19.489153 1.383303 79.383003 23 17 17
-19.593933 1.562783 79.809792 23 16 17
-19.646748 1.739503 80.024910 23 16 17
-19.646748 1.912009 80.024910 22 16 16
-19.593933 2.078912 79.809792 22 15 17
-19.593933 2.250956 79.809792 22 15 18
-14.537109 -13.767897 59.736904 39 33 34
-14.537109 -13.639124 59.736904 39 33 34
-14.566418 -13.537590 59.857342 39 33 34
-14.566418 -13.408558 59.857342 38 32 33
-14.566418 -13.279525 59.857342 39 32 33
-14.655058 -13.230516 60.221588 39 32 34
-14.958475 -13.371935 61.468410 40 33 34
-14.958475 -13.239429 61.468410 41 33 35
-14.958475 -13.106924 61.468410 42 34 36
-15.083389 -13.082766 61.981716 44 34 36
-15.210407 -13.058199 62.503666 45 34 36
-15.372220 -13.060946 63.168602 45 34 38
-16.019831 -13.469278 65.829803 45 34 40
-16.019831 -13.327372 65.829803 46 34 42
-15.774985 -12.983940 64.823669 45 35 42
-15.604630 -12.705496 64.123634 45 35 41
-15.437913 -12.433002 63.438553 45 35 41
-15.537513 -12.375580 63.847832 44 35 40
-15.570998 -12.264320 63.985435 44 36 40
-15.570998 -12.126390 63.985435 44 36 40
-15.570998 -11.988458 63.985435 45 36 39
-15.570998 -11.850527 63.985435 45 36 39
-15.470971 -11.637355 63.574394 46 36 39
-15.437913 -11.475737 63.438553 47 36 39
-15.372220 -11.290733 63.168602 48 35 39
-15.437913 -11.202232 63.438553 48 34 39
-15.437913 -11.065480 63.438553 48 34 39
-10.864576 -6.632548 44.645477 43 36 39
-12.855771 -7.734243 52.827831 42 36 39
-12.764917 -7.566510 52.454491 40 36 39
-12.764917 -7.453435 52.454491 39 35 39
-12.764917 -7.340362 52.454491 38 35 40
-18.062359 -9.746612 74.223106 39 36 39
-18.017315 -9.562705 74.038010 39 35 38
-18.766087 -9.793882 77.114914 40 35 37
-18.717470 -9.602706 76.915138 40 35 36
-18.669104 -9.412519 76.716385 40 34 36
-18.620989 -9.223310 76.518669 41 35 37
-18.573120 -9.035076 76.321960 42 35 39
-9.053814 -4.083514 37.204563 40 34 37
-8.919683 -3.944005 36.653385 40 34 35
-8.919683 -3.864993 36.653385 40 34 34
-8.919683 -3.785981 36.653385 40 33 33
-15.984388 -6.643019 65.684166 40 33 33
-15.984388 -6.501426 65.684166 40 32 32
-15.878997 -6.317900 65.251083 39 31 32
-15.740618 -6.123409 64.682442 39 31 32
-15.774985 -5.997040 64.823669 38 30 31
-15.740618 -5.844542 64.682442 38 30 31
-15.774985 -5.717565 64.823669 36 30 30
-15.740618 -5.565674 64.682442 35 29 29
-15.672328 -5.402699 64.401825 34 29 28
-15.570998 -5.229837 63.985435 33 29 26
-15.504170 -5.070053 63.710819 32 29 26
-15.470971 -4.922151 63.574394 32 29 27
-15.504170 -4.795374 63.710819 31 30 27
-15.570998 -4.678113 63.985435 30 30 28
-17.409502 -4.459384 71.540344 27 25 26
-17.367653 -4.294818 71.368370 28 25 26
-17.367653 -4.140973 71.368370 29 26 26
-17.451553 -4.006388 71.713142 31 27 27
-17.451553 -3.851798 71.713142 31 28 29
-17.451553 -3.697209 71.713142 31 28 29
-17.493809 -3.551198 71.886787 30 26 27
-17.493809 -3.396234 71.886787 27 24 23
-17.409502 -3.225649 71.540344 25 22 21
-17.367653 -3.064049 71.368370 24 20 19
-17.367653 -2.910203 71.368370 24 19 18
-17.367653 -2.756357 71.368370 23 18 16
-17.409502 -2.608782 71.540344 22 17 16
-17.493809 -2.466452 71.886787 23 17 16
-17.451553 -2.305905 71.713142 23 17 16
-17.409502 -2.146132 71.540344 23 17 16
-17.409502 -1.991915 71.540344 22 17 16
-19.474241 0.704462 80.024910 21 18 18
-14.566418 0.655959 59.857342 21 18 18
-14.566418 0.784991 59.857342 22 18 17
-14.421044 0.904901 59.259964 22 17 17
-14.421044 1.032646 59.259964 23 17 17
-19.421890 1.562783 79.809792 23 17 17
-19.421890 1.734827 79.809792 23 17 17
-19.421890 1.906870 79.809792 23 16 17
-19.421890 2.078912 79.809792 23 16 17
-19.421890 2.250956 79.809792 23 16 18
-14.408337 -13.767897 59.736904 39 32 33
-14.437386 -13.666622 59.857342 39 32 33
-14.495837 -13.592398 60.099682 39 32 33
-14.525240 -13.490151 60.221588 39 32 33
-14.525240 -13.360333 60.221588 39 33 33
-15.043999 -13.703034 62.372356 40 33 34
-15.043999 -13.568581 62.372356 41 34 35
-14.981053 -13.377917 62.111385 43 35 36
-14.981053 -13.244026 62.111385 44 35 36
-15.236050 -13.333286 63.168602 46 36 37
-15.236050 -13.197116 63.168602 45 35 36
-15.567268 -13.344879 64.541832 45 35 37
-15.984248 -13.559474 66.270630 47 35 40
-15.984248 -13.416617 66.270630 48 35 42
-15.807822 -13.127251 65.539169 47 35 43
-15.635247 -12.844202 64.823669 46 35 43
-15.533500 -12.621789 64.401825 45 36 42
-15.533500 -12.482960 64.401825 44 36 42
-15.433067 -12.264320 63.985435 44 36 41
-15.433067 -12.126390 63.985435 45 37 41
-15.433067 -11.988458 63.985435 45 37 41
-15.433067 -11.850527 63.985435 46 37 41
-15.333926 -11.637355 63.574394 47 37 41
-15.268536 -11.451267 63.303288 47 36 41
-15.203701 -11.266761 63.034485 48 36 41
-15.203701 -11.130880 63.034485 49 35 40
-15.236050 -11.018393 63.168602 49 35 40
-15.333926 -10.952129 63.574394 49 35 40
-12.741892 -7.734243 52.827831 42 36 39
-12.651843 -7.566510 52.454491 41 36 40
-12.741892 -7.506485 52.827831 40 35 40
-17.857714 -9.722305 74.038010 40 36 39
-18.503729 -9.577893 76.716385 41 35 37
-18.503729 -9.412519 76.716385 42 36 38
-18.408594 -9.199600 76.321960 42 36 38
-18.408594 -9.035076 76.321960 43 36 39
-8.973613 -4.083514 37.204563 41 34 37
-8.873536 -3.958667 36.789642 41 34 36
-8.873536 -3.879361 36.789642 41 35 36
-9.087492 -3.891681 37.676704 41 35 35
-15.842795 -6.643019 65.684166 41 34 34
-15.842795 -6.501426 65.684166 41 33 33
-15.738338 -6.317900 65.251083 40 32 33
-15.601184 -6.123409 64.682442 40 31 33
-15.738338 -6.036582 65.251083 40 31 33
-15.738338 -5.895922 65.251083 39 31 32
-15.738338 -5.755263 65.251083 38 31 31
-15.635247 -5.577826 64.823669 36 31 30
-15.533500 -5.402699 64.401825 35 31 29
-15.433067 -5.229837 63.985435 34 30 28
-15.433067 -5.091907 63.985435 34 30 27
-15.366831 -4.932714 63.710819 33 30 27
-15.399879 -4.805687 63.847832 32 30 28
-15.433067 -4.678113 63.985435 31 30 28
-17.594456 -4.704286 72.946541 28 27 27
-17.338846 -4.480979 71.886787 28 26 27
-17.213806 -4.294818 71.368370 29 27 27
-17.213806 -4.140973 71.368370 30 27 28
-17.296965 -4.006388 71.713142 32 28 29
-17.296965 -3.851798 71.713142 33 29 30
-17.338846 -3.706161 71.886787 34 30 31
-17.338846 -3.551198 71.886787 33 29 29
-17.338846 -3.396234 71.886787 31 27 27
-17.255285 -3.225649 71.540344 29 25 24
-17.213806 -3.064049 71.368370 27 22 21
-17.213806 -2.910203 71.368370 26 21 20
-17.213806 -2.756357 71.368370 25 20 18
-17.213806 -2.602511 71.368370 24 18 17
-17.255285 -2.454565 71.540344 24 18 16
-17.255285 -2.300348 71.540344 24 18 16
-17.213806 -2.140972 71.368370 24 18 17
-17.213806 -1.987126 71.368370 24 18 17
-17.213806 -1.833280 71.368370 24 18 17
-14.554763 0.531210 60.343987 22 19 19
-14.437386 0.655959 59.857342 21 19 18
-14.236468 0.774067 59.024338 22 18 18
-14.236468 0.901303 59.024338 23 18 17
-14.152062 1.022442 58.674393 23 18 17
-14.293300 1.160390 59.259964 24 18 17
-19.249847 1.734827 79.809792 24 17 17
-19.249847 1.906870 79.809792 23 17 17
-19.198240 2.073339 79.595825 23 17 17
-19.198240 2.244921 79.595825 23 17 18
-14.308353 -13.795654 59.857342 40 32 34
-14.366282 -13.721952 60.099682 40 32 34
-14.483558 -13.703356 60.590290 40 32 34
-14.632873 -13.712669 61.214931 39 32 33
-14.909545 -13.837488 62.372356 40 33 33
-15.196881 -13.967119 63.574394 41 34 34
-15.164409 -13.800523 63.438553 43 35 35
-15.132075 -13.634637 63.303288 45 36 36
-15.132075 -13.498176 63.303288 46 36 37
-15.428138 -13.623140 64.541832 47 36 37
-15.428138 -13.484010 64.541832 47 36 37
-15.632034 -13.521243 65.394806 47 35 37
-15.841392 -13.559474 66.270630 49 35 39
-15.841392 -13.416617 66.270630 49 36 41
-15.736016 -13.185465 65.829803 49 36 42
-15.666542 -12.985970 65.539169 47 35 43
-15.666542 -12.844690 65.539169 45 36 43
-15.632034 -12.675428 65.394806 44 37 43
-15.394671 -12.344131 64.401825 44 37 43
-15.394671 -12.205302 64.401825 45 37 43
-15.132075 -11.451267 63.303288 49 37 42
-15.035897 -11.242891 62.900936 49 37 42
-13.569681 -10.024177 56.767193 50 37 42
-15.035897 -10.971704 62.900936 50 37 41
-15.196881 -10.952129 63.574394 49 36 40
-13.517987 -9.254561 56.550938 46 36 41
-13.191344 -8.911979 55.184464 46 36 40
-13.069878 -8.712052 54.676319 46 36 40
-12.673113 -7.761865 53.016502 43 37 39
-12.628013 -7.620364 52.827831 43 36 40
-12.673113 -7.533294 53.016502 42 35 40
-10.436682 -5.733301 43.660652 42 36 39
-18.291092 -9.388259 76.518669 43 37 39
-18.244070 -9.199600 76.321960 44 37 40
-18.291092 -9.058362 76.518669 44 37 41
-8.838037 -4.058088 36.972904 43 35 39
-8.860104 -3.908420 37.065220 42 36 38
-15.841392 -6.845189 66.270630 42 36 37
-15.701202 -6.643019 65.684166 42 35 36
-15.701202 -6.501426 65.684166 42 34 35
-15.597678 -6.317900 65.251083 41 34 34
-15.461750 -6.123409 64.682442 41 33 34
-15.597678 -6.036582 65.251083 40 32 34
-15.597678 -5.895922 65.251083 40 32 33
-15.597678 -5.755263 65.251083 39 32 32
-15.394671 -5.541528 64.401825 37 32 31
-15.295136 -5.367768 63.985435 36 32 30
-15.164409 -5.185138 63.438553 36 31 29
-15.164409 -5.048386 63.438553 35 31 28
-15.164409 -4.911633 63.438553 35 31 28
-13.365242 -4.208370 55.911945 34 31 29
-13.166871 -4.027170 55.082081 34 30 29
-13.093991 -3.886798 54.777199 33 30 29
-12.903533 -3.713899 53.980442 32 30 28
-17.654087 -4.922001 73.853836 31 29 28
-17.394468 -4.692756 72.767754 31 28 28
-17.267502 -4.502785 72.236603 31 28 28
-17.101068 -4.305168 71.540344 30 28 28
-17.101068 -4.150951 71.540344 31 29 29
-17.142376 -4.006388 71.713142 33 29 30
-17.183882 -3.861125 71.886787 34 30 31
-17.225590 -3.715157 72.061264 36 31 32
-17.225590 -3.559817 72.061264 36 31 32
-17.183882 -3.396234 71.886787 35 30 29
-17.142376 -3.233441 71.713142 33 28 27
-17.059959 -3.064049 71.368370 31 25 24
-17.059959 -2.910203 71.368370 29 23 22
-17.059959 -2.756357 71.368370 27 21 20
-17.059959 -2.602511 71.368370 25 19 18
-17.101068 -2.454565 71.540344 25 18 17
-17.101068 -2.300348 71.540344 25 18 17
-17.059959 -2.140972 71.368370 25 18 17
-17.019049 -1.982361 71.197220 25 18 17
-17.019049 -1.828884 71.197220 25 18 17
-17.059959 -1.679434 71.368370 24 18 17
-17.610281 -1.574800 73.670578 23 18 18
-14.454060 0.401946 60.466888 23 20 19
-14.337259 0.527991 59.978268 22 20 19
-14.308353 0.655959 59.857342 21 19 18
-14.109231 0.774067 59.024338 22 19 17
-14.109231 0.901303 59.024338 23 19 17
-14.025579 1.022442 58.674393 23 19 17
-14.193887 1.162711 59.378483 24 19 17
-19.077805 1.734827 79.809792 24 19 18
-19.077805 1.906870 79.809792 24 18 18
-19.026657 2.073339 79.595825 23 17 18
-18.975784 2.238918 79.383003 23 18 18
-19.026657 2.416503 79.595825 23 18 19
-14.179321 -13.795654 59.857342 41 32 34
-14.352945 -13.833968 60.590290 41 32 34
-14.651965 -13.988843 61.852589 41 32 34
-14.775091 -13.971942 62.372356 41 33 34
-15.092154 -14.134430 63.710819 41 33 33
-15.189942 -14.087785 64.123634 42 34 34
-15.157206 -13.919493 63.985435 44 35 34
-15.157206 -13.781562 63.985435 45 36 36
-15.289007 -13.762271 64.541832 46 36 37
-15.594110 -13.894999 65.829803 48 36 38
-15.594110 -13.753092 65.829803 48 36 38
-15.491065 -13.521243 65.394806 49 35 38
-15.525261 -13.409811 65.539169 50 35 39
-15.594110 -13.327372 65.829803 50 36 41
-15.594110 -13.185465 65.829803 50 36 42
-15.559609 -13.014700 65.684166 48 36 42
-15.525261 -12.844690 65.539169 47 36 43
-15.525261 -12.703409 65.539169 45 37 44
-13.577110 -10.244488 57.315140 50 38 43
-13.421648 -10.005047 56.658859 50 37 42
-13.447310 -9.901806 56.767193 50 37 42
-14.963709 -10.882222 63.168602 50 38 42
-13.550951 -9.484864 57.204704 46 37 41
-13.294789 -9.184584 56.123333 47 37 42
-13.072386 -8.911979 55.184464 47 37 42
-12.952014 -8.712052 54.676319 47 37 41
-12.558827 -7.761865 53.016502 44 37 39
-12.491906 -7.606829 52.734001 44 36 40
-12.514134 -7.506485 52.827831 44 36 40
-17.538511 -9.881907 74.038010 43 36 40
-10.312234 -5.716487 43.532612 42 36 39
-18.126143 -9.058362 76.518669 45 37 42
-8.993534 -4.003382 37.965782 43 37 39
-15.947718 -6.953843 67.322548 43 37 39
-15.698534 -6.702332 66.270630 43 36 38
-15.559609 -6.501426 65.684166 43 36 37
-15.525261 -6.345794 65.539169 42 35 36
-15.355771 -6.136778 64.823669 42 34 36
-15.457018 -5.755263 65.251083 39 34 32
-13.473071 -4.893955 56.875942 38 33 31
-13.319968 -4.717130 56.229626 38 32 31
-13.319968 -4.595918 56.229626 37 32 30
-13.219818 -4.441061 55.806847 37 32 29
-13.121163 -4.288516 55.390377 37 32 29
-12.975910 -4.122961 54.777199 36 31 29
-12.880849 -3.975539 54.375900 35 30 29
