ply
format ascii 1.0
element vertex 1237
property float x
property float y
property float z
property uchar red
property uchar green
property uchar blue
end_header
-5.496233 10.207611 54.375900 64 29 28
-5.516440 10.362785 54.575813 63 28 28
-5.516440 10.480433 54.575813 64 29 28
-5.536796 10.637187 54.777199 64 29 28
-5.547030 10.775148 54.878452 65 29 29
-5.557302 10.913621 54.980080 65 30 30
-5.557302 11.032140 54.980080 66 30 30
-5.557302 11.150659 54.980080 67 30 30
-5.536796 11.227593 54.777199 68 31 31
-5.516440 11.303963 54.575813 68 31 31
-5.516440 11.421609 54.575813 68 31 31
-5.506318 11.518084 54.475674 69 31 30
-5.506318 11.635514 54.475674 70 30 30
-5.496233 11.731421 54.375900 70 30 30
-5.496233 11.848637 54.375900 71 30 30
-5.466199 11.900465 54.078766 72 30 31
-5.486185 12.060979 54.276493 73 32 32
-5.476174 12.155758 54.177448 73 33 32
-5.506318 12.340102 54.475674 73 34 33
-5.547030 12.549641 54.878452 73 36 33
-5.557302 12.691399 54.980080 72 37 34
-5.557302 12.809917 54.980080 71 37 35
-5.516440 12.833374 54.575813 69 37 35
-5.516440 12.951021 54.575813 69 37 35
-5.516440 13.068668 54.575813 66 37 35
-5.516440 13.186316 54.575813 64 36 35
-5.506318 13.279552 54.475674 62 35 34
-5.486185 13.347999 54.276493 61 35 34
-5.486185 13.465001 54.276493 59 34 34
-5.486185 13.582003 54.276493 58 35 34
-5.486185 13.699004 54.276493 58 35 34
-5.476174 13.790794 54.177448 57 35 33
-5.466199 13.882251 54.078766 56 34 33
-5.466199 13.998826 54.078766 55 34 32
-5.496233 14.192959 54.375900 54 33 31
-5.496233 14.310175 54.375900 52 31 30
-5.486185 14.401015 54.276493 49 29 28
-5.476174 14.491525 54.177448 47 28 27
-5.476174 14.608313 54.177448 46 28 27
-5.456261 14.671556 53.980442 45 27 26
-5.416865 14.681147 53.590691 45 26 26
-5.387690 14.716976 53.302052 44 26 26
-5.358828 14.752420 53.016502 43 26 26
-5.339757 14.813800 52.827831 43 27 26
-5.274065 14.744034 52.177929 43 27 27
-5.237248 14.752802 51.813686 44 28 27
-5.209971 14.787075 51.543823 44 28 27
-5.209971 14.898187 51.543823 44 28 27
-5.228124 15.061595 51.723419 44 28 27
-5.255592 15.252811 51.995171 44 27 27
-5.255592 15.364896 51.995171 44 27 27
-5.228124 15.396090 51.723419 44 26 26
-5.228124 15.507588 51.723419 43 24 25
-5.397380 16.124741 53.397919 42 24 24
-5.397380 16.239847 53.397919 42 23 24
-5.368414 16.267183 53.111347 43 24 24
-5.368414 16.381674 53.111347 43 24 24
-5.358828 16.466705 53.016502 43 24 24
-5.330272 16.492638 52.734001 43 24 24
-5.320822 16.576872 52.640499 43 24 24
-5.330272 16.719992 52.734001 43 25 25
-5.349275 16.893682 52.922001 43 25 25
-5.349275 17.007763 52.922001 44 26 26
-5.320822 17.030771 52.640499 43 26 26
-5.255592 16.934072 51.995171 43 26 26
-5.228124 16.957066 51.723419 43 27 26
-5.228124 17.068563 51.723419 43 27 25
-5.219032 17.150183 51.633465 42 27 24
-5.209971 17.231520 51.543823 41 27 23
-5.147416 17.134401 50.924942 40 27 23
-5.129817 17.185223 50.750843 39 26 22
-5.156260 17.383772 51.012444 37 25 22
-5.112339 17.344728 50.577927 35 24 21
-5.147416 17.573509 50.924942 35 23 20
-5.165135 17.744158 51.100246 35 23 20
-5.219032 18.040619 51.633465 35 23 20
-5.228124 18.183546 51.723419 35 23 20
-5.237248 18.326973 51.813686 35 23 21
-5.228124 18.406542 51.723419 35 23 21
-5.237248 18.550358 51.813686 34 23 20
-5.292669 18.859533 52.361980 33 23 19
-5.311404 19.039568 52.547333 33 22 18
-5.572948 -8.490787 56.336323 43 24 23
-5.562393 -8.353494 56.229626 43 24 23
-5.572948 -8.247902 56.336323 43 24 23
-5.658850 -8.251723 57.204704 42 23 23
-5.637127 -8.097206 56.985111 42 23 23
-5.604854 -7.928711 56.658859 42 22 23
-5.604854 -7.806573 56.658859 42 22 21
-5.604854 -7.684436 56.658859 42 21 21
-5.572948 -7.276365 56.336323 46 22 22
-5.562393 -7.141372 56.229626 46 23 23
-5.530967 -6.980498 55.911945 47 25 24
-5.510213 -6.834230 55.702145 46 26 24
-5.499894 -6.701581 55.597832 45 26 24
-5.489614 -6.569429 55.493912 43 26 23
-5.469168 -6.425781 55.287228 41 25 22
-5.479372 -6.318367 55.390377 40 24 22
-5.489614 -6.210550 55.493912 39 22 21
-5.489614 -6.090924 55.493912 38 21 21
-5.438784 -5.916008 54.980080 38 21 21
-5.438784 -5.797490 54.980080 38 21 22
-5.359385 -5.596066 54.177448 38 21 22
-3.895150 -3.982287 39.375652 38 21 22
-3.849205 -3.851434 38.911194 38 21 22
-3.849205 -3.767555 38.911194 39 22 23
-2.823984 -2.333312 28.547348 36 23 21
-9.323629 -7.500459 94.251564 36 23 20
-9.149356 -7.160886 92.489853 35 23 20
-9.149356 -6.961509 92.489853 35 22 20
-9.149356 -6.762133 92.489853 36 21 20
-7.916289 -4.298233 80.024910 43 23 22
-5.702803 -2.972125 57.649014 43 23 23
-5.725036 -2.858956 57.873768 43 23 23
-5.747443 -2.744901 58.100277 44 22 24
-5.770026 -2.629950 58.328571 46 23 25
-5.604854 -1.943978 56.658859 48 23 25
-5.594178 -1.818371 56.550938 48 23 24
-5.459002 -0.703800 55.184464 55 27 29
-5.469168 -0.585930 55.287228 55 27 29
-5.510213 -0.470252 55.702145 55 27 28
-5.520570 -0.350836 55.806847 55 26 27
-5.520570 -0.230535 55.806847 56 26 27
-5.510213 -0.110027 55.702145 57 27 27
-5.499894 0.010029 55.597832 59 27 27
-5.448874 0.128674 55.082081 62 28 28
-5.428731 0.246498 54.878452 65 29 30
-5.379017 0.361457 54.375900 67 29 32
-5.291790 0.470911 53.494129 69 30 33
-5.263340 0.583074 53.206528 71 31 33
-5.263340 0.697770 53.206528 73 31 33
-5.272789 0.813924 53.302052 73 31 33
-5.379017 0.947537 54.375900 73 31 33
-5.562393 1.101052 56.229626 73 32 33
-5.594178 1.229249 56.550938 73 32 33
-5.658850 1.366773 57.204704 74 32 34
-5.669775 1.492964 57.315140 74 33 35
-5.669775 1.616516 57.315140 76 33 36
-5.583542 1.713603 56.443428 78 33 37
-5.510213 1.811173 55.702145 80 33 38
-5.418715 1.899180 54.777199 82 34 38
-5.398793 2.009845 54.575813 84 35 38
-5.388887 2.123588 54.475674 87 37 38
-5.379017 2.236915 54.375900 90 39 41
-5.369184 2.349827 54.276493 92 41 43
-5.359385 2.462327 54.177448 93 42 45
-5.359385 2.579116 54.177448 92 43 46
-5.349624 2.690994 54.078766 92 43 47
-5.349624 2.807569 54.078766 91 43 47
-5.349624 2.924145 54.078766 90 43 47
-5.349624 3.040720 54.078766 90 43 47
-5.349624 3.157296 54.078766 91 44 48
-5.398793 3.303962 54.575813 92 45 48
-5.408735 3.427911 54.676319 92 46 48
-5.418715 3.552316 54.777199 93 47 48
-5.459002 3.697687 55.184464 93 48 48
-5.469168 3.823753 55.287228 93 48 49
-5.499894 3.965085 55.597832 96 49 50
-5.448874 4.521995 55.082081 96 43 47
-5.438784 4.632140 54.980080 96 42 47
-5.428731 4.741877 54.878452 97 42 47
-5.408735 4.842275 54.676319 98 43 48
-5.398793 4.951021 54.575813 99 43 49
-5.398793 5.068668 54.575813 100 44 50
-5.398793 5.186315 54.575813 100 44 50
-5.398793 5.303962 54.575813 99 45 50
-5.438784 5.461770 54.980080 98 44 49
-5.438784 5.580288 54.980080 97 44 49
-5.438784 5.698806 54.980080 95 44 49
-5.438784 5.817325 54.980080 95 44 50
-5.428731 5.924871 54.878452 94 45 50
-5.428731 6.043171 54.878452 93 45 50
-5.428731 6.161470 54.878452 93 45 50
-5.459002 6.314787 55.184464 93 45 50
-5.499894 6.481939 55.597832 93 45 50
-5.520570 6.626608 55.806847 92 45 50
-5.520570 6.746909 55.806847 92 45 49
-5.541402 6.893124 56.017437 91 45 49
-5.562393 7.040446 56.229626 92 46 49
-5.562393 7.161658 56.229626 92 47 49
-5.562393 7.282870 56.229626 89 45 47
-5.562393 7.404082 56.229626 87 43 44
-5.562393 7.525294 56.229626 85 42 44
-5.562393 7.646507 56.229626 85 42 43
-5.562393 7.767719 56.229626 84 42 42
-5.562393 7.888931 56.229626 82 41 41
-5.562393 8.010143 56.229626 80 40 40
-5.541402 8.100671 56.017437 78 39 39
-5.520570 8.190517 55.806847 76 38 38
-5.489614 8.264215 55.493912 74 38 38
-5.408735 8.260324 54.676319 72 38 37
-5.388887 8.347442 54.475674 71 37 37
-5.388887 8.464872 54.475674 69 36 36
-5.339897 8.504283 53.980442 68 35 34
-5.272789 8.512308 53.302052 67 34 33
-5.244542 8.580992 53.016502 67 34 32
-5.244542 8.695277 53.016502 67 33 32
-5.253924 8.825323 53.111347 67 32 32
-5.272789 8.971913 53.302052 66 31 32
-5.272789 9.086814 53.302052 66 29 31
-5.282272 9.218266 53.397919 65 28 30
-5.282272 9.333373 53.397919 65 27 29
-5.282272 9.448481 53.397919 66 27 29
-5.282272 9.563589 53.397919 66 28 29
-5.291790 9.696136 53.494129 67 29 29
-5.291790 9.811451 53.494129 67 30 29
-5.301342 9.944685 53.590691 67 30 29
-5.379017 10.207611 54.375900 67 29 29
-5.398793 10.362785 54.575813 66 29 29
-5.418715 10.519106 54.777199 65 29 28
-5.428731 10.656849 54.878452 65 29 28
-5.448874 10.815131 55.082081 66 29 29
-5.459002 10.954192 55.184464 67 30 31
-5.459002 11.073152 55.184464 68 31 31
-5.448874 11.171346 55.082081 69 32 31
-5.428731 11.248346 54.878452 70 33 32
-5.418715 11.345675 54.777199 71 34 33
-5.408735 11.442643 54.676319 71 34 33
-5.398793 11.539256 54.575813 71 32 33
-5.398793 11.656903 54.575813 71 31 31
-5.388887 11.752946 54.475674 71 30 30
-5.388887 11.870377 54.475674 71 30 30
-5.379017 11.965853 54.375900 73 31 31
-5.379017 12.083069 54.375900 73 32 31
-5.369184 12.177980 54.276493 73 33 32
-5.398793 12.362785 54.575813 73 34 32
-5.438784 12.572881 54.980080 72 35 32
-5.438784 12.691399 54.980080 71 36 33
-5.418715 12.762649 54.777199 70 37 34
-5.398793 12.833374 54.575813 69 37 35
-5.398793 12.951021 54.575813 69 37 36
-5.398793 13.068668 54.575813 68 36 36
-5.388887 13.162120 54.475674 66 36 36
-5.369184 13.230997 54.276493 65 36 36
-5.369184 13.347999 54.276493 63 35 35
-5.369184 13.465001 54.276493 62 35 35
-5.369184 13.582003 54.276493 61 36 35
-5.369184 13.699004 54.276493 60 36 35
-5.369184 13.816007 54.276493 59 36 34
-5.359385 13.907583 54.177448 58 35 34
-5.379017 14.075743 54.375900 56 35 33
-5.379017 14.192959 54.375900 54 33 32
-5.379017 14.310175 54.375900 51 32 30
-5.379017 14.427391 54.375900 48 29 28
-5.388887 14.571295 54.475674 45 28 26
-5.379017 14.661823 54.375900 44 27 26
-5.359385 14.725101 54.177448 44 27 27
-5.339897 14.787919 53.980442 44 26 27
-5.282272 14.743445 53.397919 44 27 27
-5.272789 14.831877 53.302052 44 27 27
-5.244542 14.866706 53.016502 44 28 27
-5.225878 14.927679 52.827831 44 28 28
-5.188946 14.935257 52.454491 44 28 28
-5.134516 14.890482 51.904270 45 28 27
-5.134516 15.002370 51.904270 45 28 27
-5.161588 15.193946 52.177929 45 27 27
-5.179794 15.360415 52.361980 46 27 27
-5.179794 15.473290 52.361980 46 26 27
-5.179794 15.586164 52.361980 45 25 26
-5.235193 15.866943 52.922001 44 24 25
-5.282272 16.124741 53.397919 44 23 24
-5.282272 16.239847 53.397919 44 23 24
-5.253924 16.267183 53.111347 44 24 24
-5.253924 16.381674 53.111347 45 24 24
-5.244542 16.466705 53.016502 45 24 24
-5.216596 16.492638 52.734001 45 25 24
-5.216596 16.606316 52.734001 44 25 24
-5.216596 16.719992 52.734001 44 25 25
-5.235193 16.893682 52.922001 43 26 25
-5.235193 17.007763 52.922001 43 27 26
-5.207346 17.030771 52.640499 43 27 26
-5.143508 16.934072 51.995171 43 27 26
-5.134516 17.016356 51.904270 42 27 26
-5.134516 17.128244 51.904270 42 27 26
-5.125556 17.210045 51.813686 41 27 25
-5.107728 17.261488 51.633465 40 27 24
-5.098860 17.342630 51.543823 39 27 23
-5.098860 17.453743 51.543823 38 27 22
-5.098860 17.564854 51.543823 36 26 21
-5.046294 17.493738 51.012444 34 24 20
-5.037639 17.573509 50.924942 34 23 19
-5.037639 17.683285 50.924942 34 23 19
-5.107728 18.040619 51.633465 34 24 20
-5.116626 18.183546 51.723419 33 23 20
-5.116626 18.295044 51.723419 33 23 21
-5.107728 18.374531 51.633465 32 23 21
-5.107728 18.485836 51.633465 32 23 20
-5.198130 18.926292 52.547333 32 22 18
-5.622199 -8.756643 58.100277 43 24 23
-5.493199 -8.433354 56.767193 43 24 24
-5.611217 -8.489540 57.986801 43 24 24
-5.589384 -8.331993 57.761173 43 23 24
-5.567719 -8.175668 57.537292 43 22 23
-5.535536 -8.005095 57.204704 43 21 22
-5.503723 -7.836484 56.875942 43 20 21
-5.503723 -7.713879 56.875942 43 20 21
-5.524891 -7.620470 57.094696 44 20 21
-5.472273 -7.304085 56.550938 46 21 22
-5.420648 -7.114424 56.017437 47 23 23
-5.400270 -6.967377 55.806847 47 25 24
-5.390138 -6.834230 55.702145 47 26 25
-5.369987 -6.689055 55.493912 46 26 25
-5.349988 -6.544962 55.287228 45 26 24
-5.330136 -6.401938 55.082081 43 26 23
-5.330136 -6.283199 55.082081 41 24 22
-5.359969 -6.198964 55.390377 40 23 22
-5.359969 -6.079561 55.390377 40 22 22
-5.310431 -5.905073 54.878452 39 21 22
-5.310431 -5.786774 54.878452 39 21 22
-5.261801 -5.616565 54.375900 39 21 22
-3.810270 -3.982287 39.375652 39 21 22
-3.765326 -3.851434 38.911194 39 22 23
-3.740812 -3.743027 38.657867 40 22 23
-3.740812 -3.659693 38.657867 40 23 24
-2.762445 -2.394850 28.547348 38 23 21
-2.751862 -2.324372 28.437971 37 23 21
-2.751862 -2.263069 28.437971 36 23 20
-8.949980 -7.160886 92.489853 35 23 20
-9.120455 -7.094110 94.251564 36 23 20
-8.949980 -6.762133 92.489853 36 22 20
-8.653444 -6.345315 89.425430 36 21 20
-8.161771 -5.802968 84.344437 37 21 21
-7.871078 -5.420944 81.340393 38 21 21
-7.871078 -5.245602 81.340393 40 21 22
-7.871078 -5.070259 81.340393 41 22 22
-7.871078 -4.894917 81.340393 42 23 22
-7.806911 -4.681099 80.677292 42 23 22
-7.743783 -4.470740 80.024910 42 23 22
-5.578531 -3.096397 57.649014 42 23 22
-5.556951 -2.960628 57.425999 43 23 23
-5.578531 -2.847853 57.649014 43 23 23
-5.611217 -2.739540 57.986801 44 23 24
-5.410439 -1.797824 55.911945 48 24 25
-5.410439 -1.677297 55.911945 47 24 24
-5.340044 -0.822759 55.184464 54 27 28
-5.340044 -0.703800 55.184464 55 27 29
-5.369987 -0.588121 55.493912 55 27 29
-5.390138 -0.470252 55.702145 55 27 28
-5.390138 -0.350177 55.702145 55 26 27
-5.390138 -0.230102 55.702145 56 26 27
-5.390138 -0.110027 55.702145 58 27 27
-5.380044 0.010029 55.597832 60 28 28
-5.340044 0.128914 55.184464 63 29 29
-5.310431 0.246498 54.878452 66 29 31
-5.261801 0.361457 54.375900 68 30 32
-5.185818 0.471761 53.590691 71 31 34
-5.157887 0.584121 53.302052 73 32 34
-5.148644 0.697770 53.206528 75 32 34
-5.157887 0.813924 53.302052 75 33 34
-5.261801 0.947537 54.375900 75 33 34
-5.410439 1.094831 55.911945 75 33 33
-5.420648 1.217652 56.017437 74 33 33
-5.441181 1.343476 56.229626 74 33 33
-5.535536 1.490088 57.204704 74 33 35
-5.535536 1.613402 57.204704 76 33 36
-5.451506 1.710352 56.336323 78 34 37
-5.390138 1.811173 55.702145 81 34 39
-5.310431 1.902690 54.878452 83 34 39
-5.281146 2.009845 54.575813 84 35 38
-5.271456 2.123588 54.475674 87 37 38
-5.261801 2.236915 54.375900 90 40 42
-5.242598 2.345539 54.177448 92 41 44
-5.233048 2.457842 54.078766 93 43 46
-5.223533 2.569737 53.980442 94 44 48
-5.223533 2.686101 53.980442 94 46 50
-5.233048 2.807569 54.078766 93 45 50
-5.233048 2.924145 54.078766 92 44 49
-5.233048 3.040720 54.078766 92 45 49
-5.233048 3.157296 54.078766 92 45 49
-5.281146 3.303962 54.575813 93 46 48
-5.310431 3.440583 54.878452 93 46 49
-5.340044 3.578728 55.184464 94 47 49
-5.410439 3.746432 55.911945 94 47 49
-5.410439 3.866959 55.911945 95 48 49
-5.441181 4.010143 56.229626 98 50 51
-5.340044 4.530400 55.184464 95 43 47
-5.330136 4.640734 55.082081 96 42 46
-5.320265 4.750659 54.980080 96 42 47
-5.290872 4.842275 54.676319 97 42 47
-5.290872 4.960139 54.676319 99 43 48
-5.281146 5.068668 54.575813 100 45 49
-5.281146 5.186315 54.575813 100 45 50
-5.290872 5.313730 54.676319 99 45 50
-5.320265 5.461770 54.980080 98 45 49
-5.320265 5.580288 54.980080 97 43 49
-5.320265 5.698806 54.980080 95 43 48
-5.320265 5.817325 54.980080 95 43 48
-5.320265 5.935843 54.980080 94 43 49
-5.320265 6.054362 54.980080 94 44 49
-5.330136 6.184333 55.082081 94 44 50
-5.369987 6.350197 55.493912 94 44 50
-5.390138 6.494100 55.702145 94 44 50
-5.400270 6.626608 55.806847 93 44 50
-5.400270 6.746909 55.806847 92 44 49
-5.410439 6.880142 55.911945 91 44 48
-5.430895 7.027137 56.123333 92 46 49
-5.430895 7.148120 56.123333 92 46 49
-5.430895 7.269103 56.123333 89 45 47
-5.430895 7.390086 56.123333 85 41 44
-5.441181 7.525294 56.229626 84 41 43
-5.430895 7.632052 56.123333 84 41 43
-5.430895 7.753035 56.123333 84 40 43
-5.430895 7.874018 56.123333 82 40 41
-5.420648 7.979916 56.017437 80 40 40
-5.400270 8.070217 55.806847 78 39 39
-5.390138 8.175151 55.702145 76 38 38
-5.330136 8.202886 55.082081 75 38 38
-5.281146 8.245139 54.575813 73 38 38
-5.271456 8.347442 54.475674 72 38 38
-5.271456 8.464872 54.475674 70 37 37
-5.233048 8.519773 54.078766 69 36 36
-5.204607 8.589412 53.784859 69 35 34
-5.157887 8.627209 53.302052 69 35 33
-5.139433 8.710833 53.111347 69 34 33
-5.157887 8.857012 53.302052 68 33 32
-5.185818 9.020497 53.590691 68 32 32
-5.185818 9.136021 53.590691 67 30 31
-5.185818 9.251544 53.590691 66 29 30
-5.185818 9.367067 53.590691 65 27 28
-5.176475 9.465506 53.494129 66 27 28
-5.185818 9.598115 53.590691 67 28 29
-5.176475 9.696136 53.494129 68 29 30
-5.185818 9.829162 53.590691 69 31 31
-5.185818 9.944685 53.590691 70 31 31
-5.252182 10.188950 54.276493 68 31 30
-5.290872 10.381870 54.676319 67 29 30
-5.300633 10.519106 54.777199 66 28 29
-5.330136 10.696392 55.082081 65 29 29
-5.340044 10.835234 55.184464 66 30 30
-5.359969 10.995067 55.390377 67 31 32
-5.349988 11.093772 55.287228 69 32 33
-5.340044 11.192110 55.184464 70 33 34
-5.320265 11.269176 54.980080 73 35 36
-5.310431 11.366646 54.878452 75 37 39
-5.300633 11.463756 54.777199 75 36 38
-5.290872 11.560508 54.676319 74 34 35
-5.281146 11.656903 54.575813 73 33 33
-5.281146 11.774550 54.575813 72 32 31
-5.271456 11.870377 54.475674 72 32 31
-5.271456 11.987808 54.475674 72 32 31
-5.271456 12.105240 54.475674 72 33 32
-5.271456 12.222671 54.475674 72 33 32
-5.281146 12.362785 54.575813 72 34 32
-5.310431 12.549641 54.878452 71 34 32
-5.310431 12.667940 54.878452 70 35 33
-5.281146 12.715727 54.575813 69 35 34
-5.271456 12.809827 54.475674 69 36 35
-5.281146 12.951021 54.575813 69 37 36
-5.271456 13.044689 54.475674 69 37 37
-5.271456 13.162120 54.475674 68 37 37
-5.252182 13.230997 54.276493 67 37 37
-5.252182 13.347999 54.276493 66 37 37
-5.252182 13.465001 54.276493 65 37 37
-5.252182 13.582003 54.276493 63 37 36
-5.252182 13.699004 54.276493 62 37 36
-5.252182 13.816007 54.276493 60 37 35
-5.252182 13.933008 54.276493 59 36 34
-5.271456 14.101570 54.475674 57 35 33
-5.271456 14.219001 54.475674 54 34 32
-5.271456 14.336432 54.475674 51 32 30
-5.281146 14.480433 54.575813 49 30 28
-5.281146 14.598080 54.575813 46 28 27
-5.281146 14.715727 54.575813 45 27 27
-5.261801 14.779039 54.375900 45 27 27
-5.233048 14.814856 54.078766 45 27 27
-5.176475 14.770010 53.494129 45 28 27
-5.167164 14.858553 53.397919 45 28 27
-5.139433 14.893301 53.111347 45 28 28
-5.130256 14.980992 53.016502 45 28 28
-5.093871 14.988219 52.640499 45 28 28
-5.066919 15.021791 52.361980 45 28 27
-5.066919 15.134665 52.361980 46 27 27
-5.075871 15.274480 52.454491 46 27 27
-5.084856 15.414788 52.547333 46 26 27
-5.084856 15.528063 52.547333 47 26 26
-5.093871 15.669070 52.640499 47 25 25
-5.130256 15.895278 53.016502 46 24 25
-5.157887 16.095791 53.302052 46 23 24
-5.157887 16.210691 53.302052 45 23 24
-5.139433 16.267183 53.111347 45 24 24
-5.139433 16.381674 53.111347 45 24 24
-5.130256 16.466705 53.016502 46 24 24
-5.111999 16.521984 52.827831 45 25 24
-5.093871 16.576872 52.640499 44 25 24
-5.093871 16.690346 52.640499 43 25 24
-5.121111 16.893682 52.922001 43 26 25
-5.121111 17.007763 52.922001 42 27 26
-5.093871 17.030771 52.640499 42 27 26
-5.040252 16.963781 52.086391 42 27 26
-5.031425 17.046156 51.995171 41 27 26
-5.049109 17.218552 52.177929 40 27 26
-5.049109 17.331030 52.177929 40 27 25
-5.005128 17.291559 51.723419 39 27 24
-5.005128 17.403059 51.723419 38 27 23
-4.996423 17.484097 51.633465 37 27 23
-4.996423 17.595402 51.633465 35 25 21
-4.936329 17.493738 51.012444 33 24 19
-4.902634 17.483541 50.664234 33 23 19
-4.902634 17.592756 50.664234 33 23 19
-4.987749 18.009298 51.543823 32 23 19
-5.005128 18.183546 51.723419 32 23 20
-4.996423 18.263227 51.633465 32 23 20
-4.987749 18.342630 51.543823 31 23 20
-4.987749 18.453743 51.543823 31 23 20
-5.486217 -8.739540 57.986801 43 24 23
-5.486217 -8.614540 57.986801 44 24 23
-5.486217 -8.489540 57.986801 44 23 24
-5.486217 -8.364540 57.986801 44 23 24
-5.454259 -8.191543 57.649014 44 22 23
-5.412222 -8.005095 57.204704 44 21 22
-5.381117 -7.836484 56.875942 44 20 21
-5.360579 -7.684436 56.658859 44 20 20
-5.350368 -7.547894 56.550938 45 19 20
-5.401814 -7.497393 57.094696 46 20 20
-5.319969 -7.262584 56.229626 47 21 21
-5.289912 -7.101026 55.911945 47 23 23
-5.270062 -6.954305 55.702145 48 25 24
-5.250361 -6.808681 55.493912 47 26 25
-5.221084 -6.651756 55.184464 47 26 25
-5.211398 -6.520676 55.082081 46 26 25
-5.182552 -6.366503 54.777199 45 26 24
-5.182552 -6.248422 54.777199 43 25 23
-5.201747 -6.153046 54.980080 41 23 22
-5.201747 -6.034527 54.980080 41 22 22
-5.192132 -5.905073 54.878452 41 22 23
-5.192132 -5.786774 54.878452 40 22 23
-3.725389 -3.897407 39.375652 41 22 23
-3.657478 -3.743027 38.657867 40 23 24
-3.657478 -3.659693 38.657867 40 23 24
-3.647978 -3.567071 38.557457 40 24 24
-2.706111 -2.461122 28.602352 40 24 21
-2.700907 -2.394850 28.547348 39 23 21
-2.700907 -2.333312 28.547348 37 23 20
-4.100647 -3.449116 43.341961 36 23 20
-8.945680 -7.320524 94.551727 36 23 21
-7.979953 -5.984786 84.344437 37 23 21
-7.674709 -5.580996 81.118149 38 22 20
-7.674709 -5.406133 81.118149 40 21 21
-7.695735 -5.245602 81.340393 41 21 22
-7.695735 -5.070259 81.340393 42 22 22
-7.632998 -4.855012 80.677292 43 23 22
-7.571276 -4.643247 80.024910 43 23 22
-5.391446 -3.183579 56.985111 42 23 22
-5.401814 -3.066624 57.094696 42 23 22
-5.422670 -2.954912 57.315140 43 23 22
-5.443689 -2.842334 57.537292 43 23 23
-5.486217 -2.739540 57.986801 44 23 23
-5.270062 -1.911153 55.702145 49 26 26
-5.250361 -1.784382 55.493912 48 26 26
-5.250361 -1.664756 55.493912 48 25 26
-5.230807 -1.539375 55.287228 48 25 26
-5.299893 -1.438952 56.017437 48 24 26
-5.221084 -1.298596 55.184464 49 24 26
-5.192132 -1.173095 54.878452 51 25 27
-5.201747 -1.056749 54.980080 52 26 27
-5.201747 -0.938231 54.980080 53 27 28
-5.201747 -0.819712 54.980080 55 27 29
-5.230807 -0.705111 55.287228 56 28 29
-5.240566 -0.587023 55.390377 56 28 29
-5.260193 -0.469372 55.597832 56 28 28
-5.260193 -0.349522 55.597832 56 27 27
-5.260193 -0.229671 55.597832 57 27 27
-5.260193 -0.109821 55.597832 59 28 28
-5.250361 0.010010 55.493912 61 29 29
-5.221084 0.128914 55.184464 64 30 30
-5.192132 0.246498 54.878452 67 30 32
-5.144585 0.361457 54.375900 69 31 33
-5.070295 0.471761 53.590691 72 31 34
-5.042986 0.584121 53.302052 74 32 34
-5.033949 0.697770 53.206528 76 33 35
-5.052056 0.815388 53.397919 77 34 35
-5.154025 0.949276 54.475674 78 34 34
-5.289912 1.094831 55.911945 77 34 34
-5.299893 1.217652 56.017437 75 34 33
-5.330063 1.346026 56.336323 74 34 33
-5.412222 1.490088 57.204704 75 33 34
-5.412222 1.613402 57.204704 76 34 36
-5.319969 1.707113 56.229626 78 34 37
-5.260193 1.807782 55.597832 81 35 39
-5.192132 1.902690 54.878452 83 35 39
-5.163499 2.009845 54.575813 85 36 38
-5.154025 2.123588 54.475674 87 38 39
-5.135180 2.232825 54.276493 90 40 42
-5.116472 2.341267 54.078766 91 42 44
-5.107170 2.453374 53.980442 93 43 46
-5.097901 2.565073 53.882473 94 45 49
-5.107170 2.686101 53.980442 95 47 51
-5.107170 2.802464 53.980442 95 47 51
-5.116472 2.924145 54.078766 94 45 51
-5.116472 3.040720 54.078766 94 45 50
-5.116472 3.157296 54.078766 94 46 48
-5.163499 3.303962 54.575813 94 46 49
-5.182552 3.434235 54.777199 94 46 49
-5.289912 3.625905 55.911945 95 47 50
-5.309912 3.760596 56.123333 95 47 50
-5.330063 3.896310 56.336323 96 48 49
-5.330063 4.017752 56.336323 98 50 51
-5.250361 4.555805 55.493912 95 43 47
-5.240566 4.666708 55.390377 95 42 46
-5.211398 4.759472 55.082081 95 41 46
-5.192132 4.860177 54.878452 96 41 45
-5.173008 4.960139 54.676319 97 42 46
-5.173008 5.078003 54.676319 99 45 48
-5.173008 5.195867 54.676319 99 45 49
-5.182552 5.323534 54.777199 99 45 49
-5.201747 5.461770 54.980080 98 45 49
-5.201747 5.580288 54.980080 96 43 48
-5.211398 5.709379 55.082081 95 42 47
-5.211398 5.828118 55.082081 94 42 47
-5.211398 5.946856 55.082081 95 42 47
-5.211398 6.065595 55.082081 96 42 48
-5.221084 6.195828 55.184464 96 43 49
-5.250361 6.350197 55.493912 96 43 49
-5.270062 6.494100 55.702145 95 43 49
-5.270062 6.614175 55.702145 94 43 49
-5.270062 6.734251 55.702145 93 43 48
-5.279969 6.867209 55.806847 92 44 48
-5.289912 7.000669 55.911945 91 45 49
-5.299893 7.134633 56.017437 91 45 49
-5.289912 7.241724 55.911945 88 43 48
-5.289912 7.362251 55.911945 85 41 46
-5.299893 7.496897 56.017437 84 40 45
-5.299893 7.617652 56.017437 84 40 45
-5.289912 7.723833 55.911945 83 39 43
-5.289912 7.844360 55.911945 82 39 42
-5.279969 7.949916 55.806847 80 39 40
-5.270062 8.055076 55.702145 78 39 39
-5.250361 8.144589 55.493912 77 38 38
-5.192132 8.172561 54.878452 75 38 38
-5.154025 8.230010 54.475674 74 38 38
-5.154025 8.347442 54.475674 72 38 38
-5.154025 8.464872 54.475674 71 37 38
-5.144585 8.566586 54.375900 71 36 37
-5.116472 8.636349 54.078766 70 36 35
-5.088665 8.705354 53.784859 70 35 34
-5.070295 8.789451 53.590691 70 35 33
-5.079463 8.921077 53.687599 69 34 33
-5.116472 9.102652 54.078766 68 33 32
-5.116472 9.219227 54.078766 68 31 31
-5.107170 9.318829 53.980442 67 30 30
-5.107170 9.435192 53.980442 66 28 29
-5.088665 9.516949 53.784859 67 28 28
-5.088665 9.632891 53.784859 67 28 29
-5.070295 9.713638 53.590691 69 30 30
-5.061159 9.811451 53.494129 71 32 32
-5.061159 9.926766 53.494129 72 33 33
-5.135180 10.188950 54.276493 70 32 32
-5.173008 10.381870 54.676319 68 31 31
-5.182552 10.519106 54.777199 67 30 31
-5.240566 10.756260 55.390377 66 30 31
-5.240566 10.875663 55.390377 67 31 32
-5.260193 11.036246 55.597832 68 32 33
-5.250361 11.135243 55.493912 69 33 34
-5.230807 11.212953 55.287228 71 34 35
-5.211398 11.290084 55.082081 77 39 40
-5.201747 11.387695 54.980080 82 42 45
-5.192132 11.484945 54.878452 80 40 42
-5.182552 11.581837 54.777199 76 35 37
-5.173008 11.678371 54.676319 74 34 35
-5.163499 11.774550 54.575813 74 33 33
-5.163499 11.892198 54.575813 73 32 32
-5.144585 11.965853 54.375900 72 32 32
-5.135180 12.060979 54.276493 72 33 32
-5.116472 12.133616 54.078766 71 34 32
-5.154025 12.340102 54.475674 70 34 33
-5.163499 12.480433 54.575813 70 34 33
-5.163499 12.598080 54.575813 69 35 33
-5.163499 12.715727 54.575813 70 35 33
-5.154025 12.809827 54.475674 70 36 34
-5.154025 12.927258 54.475674 70 37 36
-5.154025 13.044689 54.475674 70 38 38
-5.144585 13.138014 54.375900 70 38 39
-5.135180 13.230997 54.276493 71 38 41
-5.135180 13.347999 54.276493 69 40 41
-5.135180 13.465001 54.276493 68 39 40
-5.135180 13.582003 54.276493 66 39 39
-5.135180 13.699004 54.276493 64 39 37
-5.144585 13.841311 54.375900 61 38 36
-5.144585 13.958527 54.375900 59 37 35
-5.154025 14.101570 54.475674 57 36 34
-5.144585 14.192959 54.375900 55 34 32
-5.154025 14.336432 54.475674 52 33 31
-5.163499 14.480433 54.575813 50 31 29
-5.163499 14.598080 54.575813 48 29 28
-5.163499 14.715727 54.575813 47 29 28
-5.144585 14.779039 54.375900 47 28 28
-5.116472 14.814856 54.078766 47 28 28
-5.070295 14.796671 53.590691 46 28 28
-5.061159 14.885325 53.494129 46 28 28
-5.042986 14.946778 53.302052 46 28 28
-5.024943 15.007792 53.111347 46 28 28
-5.007029 15.068370 52.922001 47 28 28
-4.980396 15.101694 52.640499 47 27 28
-4.971581 15.188240 52.547333 47 27 27
-4.989242 15.355871 52.734001 47 26 27
-4.989242 15.469548 52.734001 47 26 26
-4.989242 15.583224 52.734001 48 25 26
-4.989242 15.696901 52.734001 48 25 25
-5.015970 15.895278 53.016502 48 24 25
-5.024943 16.038202 53.111347 47 24 24
-5.024943 16.152693 53.111347 47 24 24
-5.015970 16.238134 53.016502 46 24 24
-5.015970 16.352421 53.016502 46 24 24
-5.015970 16.466705 53.016502 46 24 24
-4.998120 16.521984 52.827831 45 25 24
-4.962798 16.518295 52.454491 43 25 24
-4.962798 16.631371 52.454491 42 26 24
-5.007029 16.893682 52.922001 41 26 25
-5.007029 17.007763 52.922001 41 26 26
-4.980396 17.030771 52.640499 40 26 26
-4.927971 16.963781 52.086391 39 26 25
-4.927971 17.076063 52.086391 39 26 25
-4.927971 17.188343 52.086391 38 26 24
-4.910740 17.240131 51.904270 38 26 24
-4.893630 17.291559 51.723419 38 26 23
-4.893630 17.403059 51.723419 38 27 23
-4.885119 17.484097 51.633465 38 26 22
-4.885119 17.595402 51.633465 36 25 21
-4.826363 17.493738 51.012444 33 24 19
-4.769004 17.394491 50.406185 32 23 18
-4.769004 17.503151 50.406185 31 23 18
-4.793419 17.701971 50.664234 31 23 19
-4.876638 18.120409 51.543823 31 23 20
-4.876638 18.231520 51.543823 31 23 20
-4.859764 18.279161 51.365471 31 23 20
-5.361217 -8.614540 57.986801 45 23 22
-5.361217 -8.489540 57.986801 45 23 24
-5.361217 -8.364540 57.986801 46 23 24
-5.329987 -8.191543 57.649014 47 22 23
-5.288908 -8.005095 57.204704 47 21 22
-5.238441 -7.806573 56.658859 47 21 22
-5.208621 -7.640692 56.336323 47 20 21
-5.198756 -7.505009 56.229626 47 20 20
-5.198756 -7.383797 56.229626 47 21 20
-5.169385 -7.221553 55.911945 47 21 21
-5.140343 -7.061132 55.597832 47 23 22
-5.092659 -6.876892 55.082081 47 25 24
-5.083229 -6.745638 54.980080 47 26 25
-5.073833 -6.614870 54.878452 47 26 25
-5.064471 -6.484584 54.777199 47 26 25
-5.045852 -6.343097 54.575813 46 26 25
-5.018178 -6.191306 54.276493 45 25 24
-5.045852 -6.107802 54.575813 43 24 23
-5.073833 -6.023373 54.878452 42 23 23
-5.064471 -5.894178 54.777199 42 23 23
-5.064471 -5.776097 54.777199 41 22 23
-5.140343 -5.742780 55.597832 41 22 23
-3.602288 -3.856489 38.962261 41 23 23
-3.555626 -3.723633 38.457569 41 23 24
-3.541862 -3.626638 38.308701 41 24 24
-2.636833 -2.638467 28.519926 41 24 24
-2.647004 -2.586928 28.629934 41 25 23
-2.649559 -2.527649 28.657570 41 24 22
-2.647004 -2.463495 28.629934 40 24 22
-2.639369 -2.394850 28.547348 39 23 21
-2.639369 -2.333312 28.547348 38 23 21
-4.007216 -3.449116 43.341961 37 23 21
-7.754077 -5.950973 83.867912 38 23 21
-7.520393 -5.596286 81.340393 39 23 21
-7.520393 -5.420944 81.340393 40 22 21
-7.520393 -5.245602 81.340393 42 22 22
-7.520393 -5.070259 81.340393 43 22 22
-7.479410 -4.868241 80.897118 45 23 23
-7.398769 -4.643247 80.024910 45 23 23
-5.238441 -3.165352 56.658859 44 23 23
-5.248457 -3.049033 56.767193 43 23 22
-5.278737 -2.943547 57.094696 43 23 22
-5.299119 -2.831360 57.315140 43 23 23
-5.258512 -2.074032 56.875942 50 28 26
-5.130735 -1.904009 55.493912 49 27 27
-5.073833 -1.764593 54.878452 49 27 27
-5.092659 -1.652402 55.082081 48 26 27
-5.102125 -1.536514 55.184464 48 26 27
-5.102125 -1.417555 55.184464 49 25 27
-5.064471 -1.289012 54.777199 50 25 27
-5.064471 -1.170931 54.777199 51 26 27
-5.064471 -1.052850 54.777199 52 26 28
-5.073833 -0.936496 54.878452 54 27 28
-5.083229 -0.819712 54.980080 56 27 29
-5.102125 -0.703800 55.184464 57 28 29
-5.121163 -0.587023 55.390377 58 29 29
-5.121163 -0.467620 55.390377 57 29 29
-5.121163 -0.348217 55.390377 57 28 28
-5.130735 -0.229242 55.493912 58 28 27
-5.130735 -0.109616 55.493912 60 29 28
-5.121163 0.009992 55.390377 62 29 30
-5.092659 0.128674 55.082081 65 30 31
-5.045852 0.245139 54.575813 67 31 32
-4.999897 0.359482 54.078766 70 31 33
-4.945844 0.470911 53.494129 73 32 34
-4.919253 0.583074 53.206528 75 32 35
-4.919253 0.697770 53.206528 77 33 36
-4.945844 0.816857 53.494129 79 34 36
-5.036593 0.949276 54.475674 79 35 35
-8.604838 1.822431 93.069725 79 35 35
-8.472048 1.991838 91.633461 77 35 34
-8.243073 2.130197 89.156883 76 35 34
-8.121134 2.288034 87.837997 76 35 35
-5.288908 1.613402 57.204704 77 35 36
-5.169385 1.697468 55.911945 79 36 37
-5.092659 1.791012 55.082081 81 36 38
-5.083229 1.906214 54.980080 83 36 39
-5.045852 2.009845 54.575813 86 37 39
-5.027369 2.119699 54.375900 87 39 41
-5.009021 2.228751 54.177448 89 41 43
-4.981749 2.332768 53.882473 91 42 45
-4.990806 2.453374 53.980442 92 44 47
-4.981749 2.565073 53.882473 94 45 49
-4.990806 2.686101 53.980442 94 46 51
-4.999897 3.040720 54.078766 95 46 49
-4.999897 3.157296 54.078766 95 47 49
-4.990806 3.267919 53.980442 95 47 49
-5.045852 3.421609 54.575813 96 47 50
-5.169385 3.625905 55.911945 97 47 50
-5.218524 3.782045 56.443428 97 48 51
-5.218524 3.903718 56.443428 98 48 51
-5.208621 4.017752 56.336323 99 49 52
-5.208621 4.139194 56.336323 100 49 52
-5.130735 4.555805 55.493912 95 43 48
-5.130735 4.675431 55.493912 95 41 46
-5.121163 4.786111 55.390377 94 41 45
-5.083229 4.869177 54.980080 95 41 44
-5.073833 4.978476 54.878452 96 42 45
-5.064471 5.087372 54.777199 99 45 47
-5.064471 5.205453 54.777199 99 45 49
-5.073833 5.333374 54.878452 99 45 49
-5.083229 5.461770 54.980080 98 45 48
-5.092659 5.590641 55.082081 96 43 47
-5.102125 5.719992 55.184464 95 42 46
-5.102125 5.838951 55.184464 95 41 45
-5.102125 5.957910 55.184464 95 41 46
-5.102125 6.076869 55.184464 97 41 47
-5.111626 6.207366 55.287228 98 42 49
-5.121163 6.338350 55.390377 97 42 49
-5.130735 6.469823 55.493912 97 42 49
-5.149988 6.614175 55.702145 95 42 48
-5.149988 6.734251 55.702145 94 43 48
-5.140343 6.841490 55.597832 92 44 49
-5.149988 6.974401 55.702145 91 44 49
-5.159668 7.107811 55.806847 90 44 49
-5.140343 7.201040 55.597832 88 42 48
-5.140343 7.320890 55.597832 86 40 46
-5.140343 7.440741 55.597832 85 39 45
-5.140343 7.560591 55.597832 85 39 44
-5.140343 7.680441 55.597832 84 39 43
-5.130735 7.785711 55.493912 82 39 41
-5.102125 7.861256 55.184464 81 39 40
-5.102125 7.980215 55.184464 79 39 39
-5.092659 8.084147 55.082081 77 38 38
-5.073833 8.172561 54.878452 76 38 38
-5.045852 8.245139 54.575813 74 38 38
-5.036593 8.347442 54.475674 73 37 38
-5.045852 8.480433 54.575813 72 37 38
-5.045852 8.598080 54.575813 72 36 37
-5.027369 8.683802 54.375900 71 36 35
-5.009021 8.768897 54.177448 71 35 35
-5.009021 8.885685 54.177448 71 35 35
-5.018178 9.018931 54.276493 71 34 34
-5.027369 9.152666 54.375900 70 33 33
-5.027369 9.269882 54.375900 69 33 32
-5.018178 9.369937 54.276493 68 31 31
-5.009021 9.469626 54.177448 67 30 30
-4.990806 9.551556 53.980442 67 30 29
-4.981749 9.650373 53.882473 68 29 29
-4.972723 9.748833 53.784859 69 31 30
-4.945844 9.811451 53.494129 72 33 33
-4.945844 9.926766 53.494129 73 34 33
-5.009021 10.170357 54.177448 71 33 33
-5.045852 10.362785 54.575813 70 32 34
-5.064471 10.519106 54.777199 68 32 34
-5.121163 10.756260 55.390377 67 31 34
-5.130735 10.895991 55.493912 67 31 34
-5.140343 11.036246 55.597832 68 32 34
-5.130735 11.135243 55.493912 69 33 34
-5.111626 11.212953 55.287228 71 33 35
-5.092659 11.290084 55.082081 77 39 40
-5.092659 11.408823 55.082081 83 43 45
-5.083229 11.506214 54.980080 80 40 42
-5.064471 11.581837 54.777199 75 34 36
-5.055144 11.678371 54.676319 75 33 35
-5.045852 11.774550 54.575813 74 33 33
-5.045852 11.892198 54.575813 73 32 32
-5.027369 11.965853 54.375900 73 33 32
-5.009021 12.038970 54.177448 72 34 33
-4.999897 12.133616 54.078766 71 34 33
-5.036593 12.340102 54.475674 70 34 33
-5.036593 12.457533 54.475674 70 35 33
-5.036593 12.574965 54.475674 70 35 34
-5.036593 12.692395 54.475674 70 36 34
-5.027369 12.786366 54.375900 71 36 35
-5.027369 12.903582 54.375900 72 37 37
-5.027369 13.020798 54.375900 72 38 39
-5.018178 13.113996 54.276493 73 39 41
-5.018178 13.230997 54.276493 75 42 45
-5.018178 13.347999 54.276493 76 45 48
-5.018178 13.465001 54.276493 73 43 46
-5.018178 13.582003 54.276493 68 40 41
-5.018178 13.699004 54.276493 65 39 39
-5.018178 13.816007 54.276493 63 38 37
-5.027369 13.958527 54.375900 60 37 36
-5.036593 14.101570 54.475674 58 36 35
-5.027369 14.192959 54.375900 56 35 34
-5.027369 14.310175 54.375900 54 33 32
-5.045852 14.480433 54.575813 52 32 31
-5.045852 14.598080 54.575813 50 31 30
-5.036593 14.688725 54.475674 49 30 29
-5.027369 14.779039 54.375900 49 29 29
-4.990806 14.787919 53.980442 49 29 29
-4.963731 14.823427 53.687599 48 29 29
-4.954772 14.912194 53.590691 48 29 29
-4.945844 15.000641 53.494129 48 29 30
-4.919253 15.034687 53.206528 49 29 30
-4.901685 15.095278 53.016502 49 28 30
-4.884241 15.155437 52.827831 49 27 29
-4.875566 15.242194 52.734001 49 26 28
-4.884241 15.383195 52.827831 48 25 27
-4.884241 15.497074 52.827831 48 25 27
-4.884241 15.610952 52.827831 49 25 26
-4.884241 15.724832 52.827831 49 24 26
-4.901685 15.895278 53.016502 49 24 25
-4.901685 16.009563 53.016502 49 24 25
-4.901685 16.123850 53.016502 48 25 25
-4.901685 16.238134 53.016502 48 25 25
-4.901685 16.352421 53.016502 47 25 25
-4.901685 16.466705 53.016502 46 25 25
-4.875566 16.492638 52.734001 44 25 24
-4.807256 16.373652 51.995171 42 26 24
-4.807256 16.485737 51.995171 41 26 24
-4.892947 16.893682 52.922001 40 27 25
-4.892947 17.007763 52.922001 39 27 26
-4.866921 17.030771 52.640499 38 26 26
-4.815690 16.963781 52.086391 37 26 25
-4.815690 17.076063 52.086391 36 25 24
-4.807256 17.158241 51.995171 36 24 23
-4.790477 17.210045 51.813686 36 24 23
-4.773815 17.261488 51.633465 37 24 22
-4.765527 17.342630 51.543823 37 24 21
-4.765527 17.453743 51.543823 37 25 21
-4.765527 17.564854 51.543823 36 24 20
-4.708308 17.463732 50.924942 34 24 19
-4.652446 17.365009 50.320751 33 23 18
-4.636729 17.414452 50.150745 32 24 19
-4.636729 17.522560 50.150745 32 24 19
-4.636729 17.630669 50.150745 32 23 20
-4.652446 17.798908 50.320751 32 23 20
-5.205715 -8.564359 57.649014 47 22 22
-5.226010 -8.472991 57.873768 47 22 23
-5.226010 -8.348235 57.873768 48 22 24
-5.195627 -8.175668 57.537292 48 22 23
-5.126087 -7.943871 56.767193 48 21 23
-5.087179 -7.762134 56.336323 49 21 22
-5.067946 -7.611804 56.123333 50 21 21
-5.048858 -7.462607 55.911945 49 21 20
-5.020493 -7.300832 55.597832 49 22 20
-5.011109 -7.167560 55.493912 49 22 21
-4.964710 -6.982675 54.980080 48 23 22
-4.937281 -6.826233 54.676319 48 25 24
-4.928205 -6.696038 54.575813 48 26 25
-4.928205 -6.578391 54.575813 48 26 26
-4.919162 -6.448889 54.475674 47 26 26
-4.892232 -6.296797 54.177448 47 26 26
-4.883321 -6.168751 54.078766 46 25 25
-4.883321 -6.052176 54.078766 45 24 25
-4.946390 -6.012259 54.777199 44 24 24
-4.946390 -5.894178 54.777199 43 23 23
-4.946390 -5.776097 54.777199 42 23 23
-5.001760 -5.721352 55.390377 42 23 22
-5.020493 -5.622930 55.597832 42 23 22
-2.577830 -2.825620 28.547348 42 23 23
-2.572882 -2.758776 28.492556 43 24 24
-2.570415 -2.694769 28.465237 42 24 24
-2.570415 -2.633408 28.465237 43 25 24
-2.570415 -2.572047 28.465237 42 25 24
-2.587783 -2.527649 28.657570 41 25 23
-2.587783 -2.465873 28.657570 40 24 22
-2.577830 -2.394850 28.547348 40 23 21
-2.577830 -2.333312 28.547348 40 23 21
-3.908081 -3.444088 43.278778 39 22 21
-7.885128 -6.384249 87.321304 38 23 22
-7.509645 -5.900965 83.163147 39 23 22
-7.345050 -5.596286 81.340393 40 23 21
-7.345050 -5.420944 81.340393 42 23 21
-7.345050 -5.245602 81.340393 43 23 22
-7.345050 -5.070259 81.340393 45 22 22
-7.305023 -4.868241 80.897118 46 23 23
-5.106559 -3.281228 56.550938 46 23 23
-5.106559 -3.159323 56.550938 46 23 23
-5.106559 -3.037418 56.550938 46 24 23
-5.126087 -2.926663 56.767193 44 24 22
-5.175566 -2.831360 57.315140 44 24 23
-5.011109 -2.023635 55.493912 48 28 26
-4.955533 -1.882892 54.878452 49 28 27
-4.937281 -1.758093 54.676319 49 28 27
-4.946390 -1.643256 54.777199 48 27 27
-4.973921 -1.533663 55.082081 48 27 28
-4.973921 -1.414925 55.082081 49 26 28
-4.946390 -1.289012 54.777199 50 26 28
-4.937281 -1.168774 54.676319 52 26 29
-4.937281 -1.050911 54.676319 53 27 29
-4.946390 -0.934768 54.777199 55 27 29
-4.955533 -0.818197 54.878452 57 28 30
-4.964710 -0.701194 54.980080 58 29 30
-4.964710 -0.582675 54.980080 59 29 30
-4.964710 -0.464157 54.980080 59 29 30
-4.964710 -0.345638 54.980080 59 29 29
-4.964710 -0.227120 54.980080 60 29 29
-4.973921 -0.108802 55.082081 62 30 29
-4.973921 0.009936 55.082081 63 30 30
-4.937281 0.127726 54.676319 65 31 31
-4.910152 0.244241 54.375900 68 31 32
-4.847999 0.356881 53.687599 70 31 33
-4.821841 0.470064 53.397919 73 32 34
-4.795963 0.582031 53.111347 75 32 35
-4.795963 0.696521 53.111347 77 33 36
-4.830529 0.816857 53.494129 79 34 36
-8.483998 1.637201 93.953300 79 35 35
-8.457234 1.833929 93.656914 79 36 35
-8.404211 2.023058 93.069725 80 36 35
-8.249057 2.182632 91.351517 79 37 35
-8.026776 2.315436 88.889946 79 37 35
-7.931785 2.477383 87.837997 79 37 36
-5.048858 1.697468 55.911945 80 37 37
-4.973921 1.791012 55.082081 82 38 38
-4.973921 1.909750 55.082081 83 38 39
-4.955533 2.020990 54.878452 86 39 41
-4.910152 2.119699 54.375900 87 40 42
-4.874443 2.220646 53.980442 89 41 43
-4.856781 2.328542 53.784859 90 43 45
-4.865596 2.448921 53.882473 91 44 47
-4.874443 2.569737 53.980442 93 45 48
-4.865596 3.145836 53.882473 97 48 50
-4.847999 3.250191 53.687599 98 49 50
-4.847999 3.365923 53.687599 98 49 51
-4.910152 3.526292 54.375900 99 48 51
-5.116304 3.796480 56.658859 99 48 52
-5.116304 3.918617 56.658859 99 49 52
-5.067946 4.002563 56.123333 100 49 52
-5.058383 4.115765 56.017437 100 49 52
-5.058383 4.236520 56.017437 100 48 52
-5.020493 4.444486 55.597832 98 46 51
-5.011109 4.555805 55.493912 96 44 49
-5.020493 4.684186 55.597832 96 42 47
-5.011109 4.795057 55.493912 95 41 46
-4.964710 4.869177 54.980080 96 41 44
-4.964710 4.987695 54.980080 97 43 45
-4.955533 5.096776 54.878452 99 45 48
-4.955533 5.215075 54.878452 100 45 49
-4.955533 5.333374 54.878452 99 45 49
-4.964710 5.461770 54.980080 97 44 48
-4.973921 5.590641 55.082081 96 43 47
-4.983166 5.719992 55.184464 95 41 46
-4.983166 5.838951 55.184464 95 40 45
-4.983166 5.957910 55.184464 96 40 46
-4.992446 6.088185 55.287228 97 40 47
-4.992446 6.207366 55.287228 98 41 48
-5.001760 6.338350 55.390377 98 41 48
-5.001760 6.457753 55.390377 97 42 48
-5.011109 6.589449 55.493912 96 42 48
-5.011109 6.709075 55.493912 94 43 48
-5.011109 6.828702 55.493912 93 43 49
-5.001760 6.935365 55.390377 91 43 49
-5.001760 7.054768 55.390377 90 43 49
-4.992446 7.160811 55.287228 88 42 48
-4.983166 7.266460 55.184464 86 41 47
-4.983166 7.385419 55.184464 85 40 45
-4.983166 7.504378 55.184464 85 39 43
-4.973921 7.609194 55.082081 84 39 42
-4.964710 7.713621 54.980080 83 39 41
-4.964710 7.832140 54.980080 82 39 40
-4.973921 7.965409 55.082081 80 39 39
-4.955533 8.054261 54.878452 77 39 38
-4.937281 8.142460 54.676319 76 38 38
-4.928205 8.245139 54.575813 75 37 37
-4.928205 8.362785 54.575813 74 37 37
-4.928205 8.480433 54.575813 74 36 37
-4.928205 8.598080 54.575813 73 36 37
-4.928205 8.715727 54.575813 73 35 35
-4.910152 8.801018 54.375900 73 35 35
-4.901176 8.901930 54.276493 72 34 35
-4.910152 9.035450 54.375900 72 34 35
-4.919162 9.169459 54.475674 71 34 34
-4.919162 9.286891 54.475674 69 33 33
-4.910152 9.387098 54.375900 68 33 32
-4.901176 9.486938 54.276493 67 31 31
-4.892232 9.586415 54.177448 67 30 31
-4.865596 9.650373 53.882473 68 30 31
-4.865596 9.766525 53.882473 68 31 31
-4.830529 9.811451 53.494129 70 32 32
-4.830529 9.926766 53.494129 71 33 33
-4.856781 10.096659 53.784859 70 34 34
-4.910152 10.324827 54.375900 69 33 34
-4.928205 10.480433 54.575813 68 32 34
-4.964710 10.676584 54.980080 67 31 34
-5.011109 10.895991 55.493912 68 31 34
-5.020493 11.036246 55.597832 69 32 34
-5.011109 11.135243 55.493912 70 32 34
-4.983166 11.192110 55.184464 71 33 35
-4.973921 11.290084 55.082081 76 37 39
-4.973921 11.408823 55.082081 79 38 41
-4.964710 11.506214 54.980080 77 36 38
-4.955533 11.603245 54.878452 76 33 36
-4.946390 11.699918 54.777199 76 32 35
-4.937281 11.796235 54.676319 76 33 33
-4.928205 11.892198 54.575813 75 33 33
-4.910152 11.965853 54.375900 74 33 33
-4.901176 12.060979 54.276493 73 34 33
-4.892232 12.155758 54.177448 72 34 34
-4.919162 12.340102 54.475674 72 35 34
-4.928205 12.480433 54.575813 71 35 34
-4.919162 12.574965 54.475674 71 36 34
-4.910152 12.669149 54.375900 71 36 35
-4.910152 12.786366 54.375900 72 37 37
-4.910152 12.903582 54.375900 73 38 39
-4.910152 13.020798 54.375900 73 39 41
-4.901176 13.113996 54.276493 74 41 44
-4.901176 13.230997 54.276493 79 48 51
-4.892232 13.323642 54.177448 84 53 58
-4.901176 13.465001 54.276493 78 48 52
-4.901176 13.582003 54.276493 69 41 44
-4.901176 13.699004 54.276493 65 39 41
-4.901176 13.816007 54.276493 63 38 39
-4.910152 13.958527 54.375900 61 37 38
-4.910152 14.075743 54.375900 60 37 37
-4.910152 14.192959 54.375900 58 36 36
-4.910152 14.310175 54.375900 57 34 34
-4.928205 14.480433 54.575813 54 33 33
-4.928205 14.598080 54.575813 53 32 31
-4.919162 14.688725 54.475674 52 31 31
-4.901176 14.752021 54.276493 51 30 31
-4.874443 14.787919 53.980442 51 30 31
-4.865596 14.877234 53.882473 51 31 31
-4.847999 14.939160 53.687599 51 31 32
-4.839248 15.027718 53.590691 51 31 32
-4.804558 15.034687 53.206528 51 30 32
-4.787399 15.095278 53.016502 52 29 31
-4.778865 15.182452 52.922001 52 29 31
-4.770362 15.269316 52.827831 51 28 30
-4.770362 15.383195 52.827831 51 26 28
-4.770362 15.497074 52.827831 50 25 27
-4.770362 15.610952 52.827831 50 25 27
-4.770362 15.724832 52.827831 50 24 26
-4.787399 15.895278 53.016502 50 24 26
-4.787399 16.009563 53.016502 50 25 26
-4.787399 16.123850 53.016502 50 26 26
-4.787399 16.238134 53.016502 49 26 26
-4.795963 16.381674 53.111347 48 26 26
-4.787399 16.466705 53.016502 46 26 26
-4.761889 16.492638 52.734001 45 26 26
-4.703409 16.402378 52.086391 42 27 26
-4.703409 16.514658 52.086391 41 27 26
-4.778865 16.893682 52.922001 40 27 26
-4.778865 17.007763 52.922001 39 27 26
-4.753446 17.030771 52.640499 38 26 26
-4.736649 17.083668 52.454491 36 26 25
-4.703409 17.076063 52.086391 36 25 24
-4.686964 17.128244 51.904270 35 23 22
-4.678784 17.210045 51.813686 35 23 22
-4.654416 17.231520 51.543823 35 22 21
-4.638310 17.282621 51.365471 36 23 20
-4.638310 17.393349 51.365471 36 23 20
-4.598531 17.353954 50.924942 36 23 21
-4.598531 17.463732 50.924942 36 23 21
-4.528621 17.306343 50.150745 34 23 20
-4.520984 17.385086 50.066177 33 24 20
-4.483183 17.346748 49.647564 33 24 20
-4.423999 17.223358 48.992149 32 23 20
-4.423999 17.328970 48.992149 32 23 20
-5.081443 -8.440086 57.649014 49 22 23
-5.071596 -8.299699 57.537292 50 22 23
-5.052014 -8.144101 57.315140 50 22 23
-4.984654 -7.913609 56.550938 50 22 23
-4.946963 -7.732788 56.123333 51 22 22
-4.900643 -7.540533 55.597832 52 22 21
-4.891483 -7.406812 55.493912 52 23 21
-4.855183 -7.233107 55.082081 51 23 21
-4.837234 -7.088068 54.878452 50 24 22
-4.819417 -6.944097 54.676319 50 25 23
-4.801731 -6.801183 54.475674 49 26 24
-4.801731 -6.683752 54.475674 49 26 26
-4.792936 -6.554294 54.375900 48 26 26
-4.784174 -6.425310 54.276493 47 26 26
-4.766746 -6.285327 54.078766 47 26 26
-4.740839 -6.135226 53.784859 46 25 25
-4.740839 -6.019284 53.784859 45 24 25
-4.828309 -6.012259 54.777199 44 24 24
-4.855183 -5.926984 55.082081 43 23 23
-4.855183 -5.808246 55.082081 43 24 23
-4.900643 -5.742780 55.597832 43 23 23
-4.900643 -5.622930 55.597832 43 23 23
-2.513875 -2.822905 28.519926 43 23 23
-2.511462 -2.758776 28.492556 43 24 24
-2.509054 -2.694769 28.465237 43 25 24
-2.506651 -2.630886 28.437971 43 25 24
-2.506651 -2.569583 28.437971 43 25 24
-2.526007 -2.527649 28.657570 43 25 23
-2.526007 -2.465873 28.657570 41 24 22
-2.518713 -2.397156 28.574823 41 23 21
-2.518713 -2.335558 28.574823 41 22 21
-3.809233 -3.439075 43.215782 40 22 21
-7.696892 -6.384249 87.321304 40 24 22
-7.229125 -5.819460 82.014481 40 24 22
-7.169708 -5.596286 81.340393 41 24 21
-7.169708 -5.420944 81.340393 42 24 21
-7.169708 -5.245602 81.340393 44 23 21
-7.169708 -5.070259 81.340393 45 23 22
-7.111259 -4.855012 80.677292 47 23 23
-4.975177 -3.274990 56.443428 47 24 23
-4.965737 -3.147333 56.336323 46 24 23
-4.965737 -3.025891 56.336323 46 24 23
-4.984654 -2.915513 56.550938 45 24 22
-5.032583 -2.820470 57.094696 43 24 23
-4.855183 -2.008617 55.082081 47 28 26
-4.828309 -1.879418 54.777199 48 28 27
-4.810558 -1.754861 54.575813 48 28 28
-4.810558 -1.637214 54.575813 49 28 28
-4.837234 -1.527994 54.878452 49 27 28
-4.837234 -1.409694 54.878452 50 27 28
-4.828309 -1.289012 54.777199 51 26 29
-4.819417 -1.168774 54.676319 53 26 29
-4.819417 -1.050911 54.676319 55 27 29
-4.828309 -0.934768 54.777199 57 27 30
-4.837234 -0.818197 54.878452 59 28 30
-4.837234 -0.699897 54.878452 60 29 31
-4.837234 -0.581598 54.878452 60 30 31
-4.828309 -0.462444 54.777199 61 30 31
-4.810558 -0.343097 54.575813 62 30 31
-4.810558 -0.225450 54.575813 62 31 31
-4.828309 -0.108200 54.777199 63 31 31
-4.819417 0.009863 54.676319 64 32 32
-4.792936 0.127025 54.375900 66 32 32
-4.758079 0.242464 53.980442 68 32 33
-4.732266 0.356881 53.687599 70 32 33
-4.698283 0.469220 53.302052 72 32 33
-4.681473 0.582031 53.111347 74 32 34
-4.681473 0.696521 53.111347 76 33 35
-8.281466 1.434669 93.953300 78 34 35
-8.281466 1.637201 93.953300 79 35 35
