ply
format ascii 1.0
element vertex 1236
property float x
property float y
property float z
property uchar red
property uchar green
property uchar blue
end_header
-1.869640 -6.276768 72.946541 51 37 35
-1.869640 -6.119520 72.946541 52 38 35
-1.878873 -5.991715 73.306770 53 38 36
-1.846950 -5.423894 72.061264 56 40 39
-1.846950 -5.268555 72.061264 56 40 39
-1.846950 -5.113215 72.061264 56 39 39
-1.833598 -4.922035 71.540344 56 38 39
-1.829191 -4.756357 71.368370 56 38 38
-1.811770 -4.558678 70.688675 57 38 38
-1.798921 -4.375046 70.187332 58 38 38
-1.790455 -4.203869 69.857040 58 38 39
-1.769636 -4.006150 69.044746 58 39 39
-1.761443 -3.839455 68.725098 59 39 40
-1.757375 -3.682782 68.566376 60 40 41
-1.749295 -3.518723 68.251129 61 41 42
-1.749295 -3.371597 68.251129 62 42 43
-1.745283 -3.217075 68.094589 64 43 44
-1.741289 -3.063260 67.938766 65 43 44
-1.737314 -2.910147 67.783661 65 42 44
-1.741289 -2.770354 67.938766 66 42 43
-1.741289 -2.623900 67.938766 65 42 43
-1.749295 -2.488838 68.251129 65 41 43
-1.749295 -2.341712 68.251129 65 42 43
-1.761443 -2.209825 68.725098 64 42 43
-1.769636 -2.071266 69.044746 64 42 44
-1.786252 -1.940480 69.693054 65 43 44
-1.794678 -1.798690 70.021797 66 43 45
-1.816094 -1.667409 70.857384 67 44 45
-1.824804 -1.521929 71.197220 68 44 45
-1.824804 -1.368452 71.197220 68 44 45
-1.824804 -1.214975 71.197220 68 44 45
-1.820439 -1.058958 71.026894 69 43 45
-1.820439 -0.905848 71.026894 70 43 46
-1.811770 -0.749154 70.688675 72 44 47
-1.782069 -0.586990 69.529839 76 46 49
-1.769636 -0.434057 69.044746 81 48 51
-1.769636 -0.285220 69.044746 84 50 52
-1.765530 -0.136066 68.884552 86 51 52
-1.761443 0.012397 68.725098 88 53 54
-1.757375 0.160174 68.566376 89 54 55
-1.753326 0.307271 68.408394 89 54 55
-1.749295 0.453691 68.251129 89 54 56
-1.749295 0.600817 68.251129 89 54 56
-1.745283 0.746228 68.094589 87 53 55
-1.745283 0.893017 68.094589 86 52 54
-1.745283 1.039806 68.094589 85 51 52
-1.753326 1.192063 68.408394 83 48 51
-1.761443 1.345730 68.725098 81 46 49
-1.761443 1.493878 68.725098 81 46 49
-1.757375 1.638234 68.566376 81 46 50
-1.753326 1.781925 68.408394 82 46 50
-1.749295 1.924955 68.251129 84 47 51
-1.741289 2.062598 67.938766 85 47 50
-1.741289 2.209051 67.938766 85 46 50
-1.737314 2.350127 67.783661 86 46 51
-1.729417 2.484899 67.475548 88 46 51
-1.717705 2.612540 67.018608 89 46 52
-1.709985 2.744619 66.717400 89 47 53
-1.709985 2.888439 66.717400 90 48 53
-1.706151 3.025461 66.567810 93 52 55
-1.706151 3.168958 66.567810 97 56 59
-1.702334 3.305046 66.418884 99 58 61
-1.706151 3.455954 66.567810 99 58 61
-1.706151 3.599452 66.567810 97 57 61
-1.706151 3.742949 66.567810 95 56 59
-1.709985 3.895181 66.717400 93 54 57
-1.713836 4.048098 66.867661 91 53 56
-1.721591 4.211212 67.170235 91 52 56
-1.733356 4.385776 67.629250 92 53 57
-1.749295 4.573231 68.251129 93 54 58
-1.757375 4.742160 68.566376 93 55 60
-1.761443 4.901286 68.725098 92 56 61
-1.765530 5.061150 68.884552 92 56 61
-1.769636 5.221757 69.044746 92 56 60
-1.769636 5.370594 69.044746 92 55 59
-1.769636 5.519431 69.044746 92 54 58
-1.769636 5.668269 69.044746 91 53 56
-1.761443 5.790174 68.725098 89 51 54
-1.757375 5.924609 68.566376 89 51 54
-1.753326 6.058423 68.408394 89 51 54
-1.753326 6.205888 68.408394 89 51 55
-1.749295 6.338748 68.251129 88 50 54
-1.749295 6.485875 68.251129 88 51 53
-1.753326 6.648284 68.408394 88 52 53
-1.757375 6.811444 68.566376 89 53 54
-1.753326 6.943215 68.408394 90 54 56
-1.753326 7.090681 68.408394 91 57 59
-1.749295 7.221507 68.251129 94 59 61
-1.749295 7.368633 68.251129 95 61 63
-1.749295 7.515759 68.251129 92 58 60
-1.749295 7.662886 68.251129 87 52 54
-1.749295 7.810012 68.251129 84 49 51
-1.745283 7.938889 68.094589 84 49 51
-1.745283 8.085678 68.094589 84 50 52
-1.741289 8.213628 67.938766 84 49 53
-1.733356 8.321994 67.629250 84 50 54
-1.733356 8.467780 67.629250 84 50 54
-1.733356 8.613566 67.629250 85 51 55
-1.733356 8.759352 67.629250 86 52 56
-1.729417 8.884899 67.475548 87 53 56
-1.725495 9.009876 67.322548 88 54 57
-1.725495 9.155001 67.322548 88 54 57
-1.733356 9.342495 67.629250 88 53 57
-1.737314 9.509944 67.783661 87 53 57
-1.737314 9.656063 67.783661 86 53 56
-1.737314 9.802181 67.783661 85 51 54
-1.721591 9.858271 67.170235 85 51 53
-1.713836 9.958008 66.867661 85 51 52
-1.713836 10.102152 66.867661 83 49 51
-1.713836 10.246296 66.867661 80 48 49
-1.709985 10.367091 66.717400 78 47 48
-1.706151 10.487344 66.567810 76 47 47
-1.702334 10.607059 66.418884 76 47 47
-1.702334 10.750236 66.418884 77 47 48
-1.702334 10.893413 66.418884 77 47 48
-1.698534 11.011954 66.270630 77 46 48
-1.698534 11.154811 66.270630 77 45 48
-1.698534 11.297668 66.270630 77 46 49
-1.709985 11.517653 66.717400 78 48 50
-1.709985 11.661473 66.717400 78 48 50
-1.725495 11.912371 67.322548 77 48 50
-1.761443 12.308693 68.725098 75 48 50
-1.761443 12.456841 68.725098 74 47 50
-1.753326 12.546902 68.408394 73 47 49
-1.753326 12.694367 68.408394 71 46 48
-1.757375 12.871490 68.566376 70 46 48
-1.765530 13.079711 68.884552 70 46 48
-1.765530 13.228203 68.884552 72 47 49
-1.761443 13.345730 68.725098 73 48 49
-1.761443 13.493878 68.725098 75 48 49
-1.765530 13.673678 68.884552 75 49 49
-1.769636 13.854315 69.044746 74 48 49
-1.773761 14.035793 69.205696 72 47 48
-1.773761 14.184978 69.205696 70 46 46
-1.777905 14.367653 69.367386 68 44 45
-1.773761 14.483346 69.205696 65 42 44
-1.769636 14.598501 69.044746 64 41 43
-1.765530 14.713121 68.884552 64 41 43
-1.773393 -10.897314 75.545143 31 26 26
-1.755525 -10.626308 74.783989 31 27 27
-1.746725 -10.412642 74.409126 32 27 28
-1.720848 -9.784307 73.306770 34 27 28
-1.691610 -9.462729 72.061264 35 28 28
-1.691610 -9.307389 72.061264 37 29 29
-1.695726 -9.174317 72.236603 39 30 30
-1.699862 -9.040596 72.412788 41 31 30
-1.738013 -9.083901 74.038010 42 31 30
-1.733690 -8.902101 73.853836 42 31 30
-1.733690 -8.742897 73.853836 42 32 29
-1.725107 -8.541200 73.488220 42 32 29
-1.720848 -8.362085 73.306770 43 33 30
-1.716609 -8.183853 73.126213 44 33 31
-1.695726 -7.928576 72.236603 46 34 33
-1.687514 -7.735217 71.886787 48 35 35
-1.683438 -7.561944 71.713142 48 36 36
-1.683438 -7.407354 71.713142 49 36 36
-1.683438 -7.252765 71.713142 49 37 36
-1.687514 -7.115362 71.886787 49 37 36
-1.687514 -6.960398 71.886787 49 37 35
-1.683438 -6.788996 71.713142 49 37 34
-1.699862 -6.386938 72.412788 51 37 34
-1.699862 -6.230840 72.412788 52 38 35
-1.699862 -6.074743 72.412788 52 38 35
-1.716609 -5.976957 73.126213 54 39 36
-1.720848 -5.833690 73.306770 55 40 37
-1.704018 -5.620158 72.589836 57 41 39
-1.687514 -5.410761 71.886787 58 41 40
-1.687514 -5.255798 71.886787 58 41 41
-1.691610 -5.113215 72.061264 58 40 41
-1.687514 -4.945870 71.886787 58 40 40
-1.675345 -4.756357 71.368370 58 39 39
-1.659389 -4.558678 70.688675 58 39 39
-1.647620 -4.375046 70.187332 59 40 39
-1.639867 -4.203869 69.857040 59 40 40
-1.620798 -4.006150 69.044746 60 41 41
-1.613295 -3.839455 68.725098 60 41 41
-1.609569 -3.682782 68.566376 61 42 42
-1.602169 -3.518723 68.251129 62 43 44
-1.598494 -3.363864 68.094589 63 44 45
-1.594836 -3.209713 67.938766 65 44 45
-1.591195 -3.056266 67.783661 65 44 45
-1.591195 -2.910147 67.783661 65 43 44
-1.591195 -2.764029 67.783661 66 42 43
-1.594836 -2.623900 67.938766 67 42 44
-1.598494 -2.483130 68.094589 67 41 44
-1.602169 -2.341712 68.251129 67 42 45
-1.605860 -2.199642 68.408394 67 43 46
-1.613295 -2.061677 68.725098 67 43 46
-1.628372 -1.931412 69.367386 67 44 46
-1.636017 -1.790245 69.693054 68 44 47
-1.659389 -1.663439 70.688675 68 45 46
-1.667329 -1.518288 71.026894 69 46 46
-1.671327 -1.368452 71.197220 70 46 47
-1.671327 -1.214975 71.197220 70 46 47
-1.671327 -1.061498 71.197220 70 44 46
-1.671327 -0.908020 71.197220 72 44 46
-1.663349 -0.750942 70.857384 74 45 48
-1.636017 -0.588367 69.693054 78 47 50
-1.624577 -0.435069 69.205696 82 48 52
-1.620798 -0.285220 69.044746 86 50 53
-1.617038 -0.136066 68.884552 88 51 54
-1.613295 0.012397 68.725098 90 52 54
-1.602169 0.159438 68.251129 91 53 55
-1.598494 0.305861 68.094589 91 53 56
-1.598494 0.452650 68.094589 91 54 57
-1.598494 0.599439 68.094589 90 54 57
-1.594836 0.744521 67.938766 89 53 56
-1.591195 0.888939 67.783661 88 53 55
-1.591195 1.035058 67.783661 87 52 54
-1.594836 1.183880 67.938766 85 51 53
-1.602169 1.336449 68.251129 84 49 52
-1.602169 1.483576 68.251129 83 48 51
-1.602169 1.630702 68.251129 83 47 51
-1.598494 1.773751 68.094589 83 47 51
-1.594836 1.916145 67.938766 85 48 51
-1.587570 2.053201 67.629250 86 47 51
-1.576795 2.184062 67.170235 87 46 51
-1.576795 2.328859 67.170235 88 46 50
-1.569692 2.462512 66.867661 89 45 51
-1.562653 2.594967 66.567810 89 46 51
-1.559157 2.732339 66.418884 90 47 52
-1.559157 2.875516 66.418884 91 48 52
-1.559157 3.018692 66.418884 95 53 56
-1.559157 3.161869 66.418884 99 57 59
-1.555677 3.297668 66.270630 100 59 60
-1.559157 3.448223 66.418884 100 59 61
-1.562653 3.599452 66.567810 99 58 60
-1.566165 3.751361 66.717400 97 57 59
-1.566165 3.895181 66.717400 95 55 57
-1.573236 4.057236 67.018608 94 54 55
-1.587570 4.239990 67.629250 94 54 56
-1.602169 4.426105 68.251129 94 55 58
-1.609569 4.594355 68.566376 95 56 60
-1.613295 4.753138 68.725098 96 58 62
-1.617038 4.912658 68.884552 96 58 63
-1.620798 5.072920 69.044746 95 58 62
-1.620798 5.221757 69.044746 96 57 62
-1.620798 5.370594 69.044746 95 56 61
-1.620798 5.519431 69.044746 95 55 60
-1.620798 5.668269 69.044746 93 53 57
-1.613295 5.790174 68.725098 90 51 54
-1.605860 5.910957 68.408394 88 49 52
-1.605860 6.058423 68.408394 88 50 53
-1.602169 6.191622 68.251129 88 50 54
-1.598494 6.324210 68.094589 88 50 54
-1.598494 6.470999 68.094589 88 51 53
-1.605860 6.648284 68.408394 88 51 53
-1.605860 6.795750 68.408394 89 52 54
-1.605860 6.943215 68.408394 91 53 56
-1.602169 7.074380 68.251129 93 56 59
-1.598494 7.204944 68.094589 96 60 63
-1.598494 7.351733 68.094589 98 61 64
-1.598494 7.498522 68.094589 95 59 62
-1.598494 7.645311 68.094589 91 55 57
-1.594836 7.774269 67.938766 88 53 54
-1.591195 7.902638 67.783661 87 52 54
-1.591195 8.048757 67.783661 87 52 55
-1.587570 8.176208 67.629250 86 52 56
-1.576795 8.265511 67.170235 85 51 56
-1.573236 8.391321 67.018608 85 51 56
-1.573236 8.535791 67.018608 86 51 57
-1.573236 8.680261 67.018608 87 51 58
-1.573236 8.824730 67.018608 88 52 58
-1.573236 8.969200 67.018608 89 53 59
-1.573236 9.113669 67.018608 90 53 60
-1.576795 9.279085 67.170235 90 54 60
-1.587570 9.488281 67.629250 90 54 60
-1.587570 9.634068 67.629250 88 53 58
-1.587570 9.779853 67.629250 86 50 54
-1.576795 9.858271 67.170235 85 49 52
-1.569692 9.958008 66.867661 85 50 52
-1.569692 10.102152 66.867661 84 49 51
-1.569692 10.246296 66.867661 82 49 50
-1.566165 10.367091 66.717400 80 48 49
-1.559157 10.463882 66.418884 78 48 48
-1.559157 10.607059 66.418884 78 48 48
-1.559157 10.750236 66.418884 79 49 48
-1.555677 10.869097 66.270630 79 49 48
-1.555677 11.011954 66.270630 79 47 48
-1.552212 11.129968 66.123032 79 47 49
-1.552212 11.272507 66.123032 79 48 50
-1.566165 11.517653 66.717400 79 49 51
-1.566165 11.661473 66.717400 79 49 51
-1.562653 11.778824 66.567810 78 49 51
-1.605860 12.251971 68.408394 77 49 52
-1.605860 12.399437 68.408394 75 49 52
-1.602169 12.518059 68.251129 74 49 51
-1.602169 12.665185 68.251129 73 48 50
-1.609569 12.871490 68.566376 72 47 50
-1.613295 13.049434 68.725098 72 47 50
-1.613295 13.197582 68.725098 73 48 50
-1.613295 13.345730 68.725098 75 48 50
-1.613295 13.493878 68.725098 76 48 50
-1.617038 13.673678 68.884552 76 49 50
-1.620798 13.854315 69.044746 75 49 49
-1.620798 14.003152 69.044746 74 48 48
-1.624577 14.184978 69.205696 72 46 46
-1.624577 14.334162 69.205696 69 44 44
-1.620798 14.449664 69.044746 67 42 43
-1.617038 14.564630 68.884552 66 41 43
-1.613295 14.679064 68.725098 66 42 43
-1.618781 -11.116738 75.931564 32 27 26
-1.598342 -10.814759 74.972832 32 28 26
-1.586324 -10.573044 74.409126 31 28 27
-1.570579 -10.309292 73.670578 32 28 27
-1.570579 -10.150483 73.670578 32 27 27
-1.536270 -9.462729 72.061264 37 28 29
-1.536270 -9.307389 72.061264 39 29 30
-1.540008 -9.174317 72.236603 41 31 31
-1.590310 -9.313177 74.596085 42 31 30
-1.594316 -9.175427 74.783989 43 31 30
-1.582358 -8.946611 74.223106 43 32 30
-1.578412 -8.764700 74.038010 42 32 29
-1.574486 -8.583693 73.853836 42 33 29
-1.566692 -8.382784 73.488220 43 33 30
-1.558974 -8.183853 73.126213 44 34 31
-1.540008 -7.928576 72.236603 46 34 33
-1.532550 -7.735217 71.886787 48 35 35
-1.528849 -7.561944 71.713142 48 36 36
-1.525165 -7.389505 71.540344 49 36 36
-1.525165 -7.235288 71.540344 49 36 36
-1.528849 -7.098175 71.713142 50 36 36
-1.528849 -6.943586 71.713142 50 36 35
-1.525165 -6.772637 71.540344 50 36 35
-1.525165 -6.618421 71.540344 50 36 34
-1.540008 -6.527116 72.236603 51 36 34
-1.536270 -6.355933 72.061264 52 36 35
-1.543764 -6.230840 72.412788 53 37 36
-1.543764 -6.074743 72.412788 54 39 36
-1.551332 -5.947658 72.767754 55 40 37
-1.558974 -5.819322 73.126213 56 41 38
-1.547539 -5.620158 72.589836 58 41 40
-1.532550 -5.410761 71.886787 59 41 41
-1.532550 -5.255798 71.886787 59 41 41
-1.536270 -5.113215 72.061264 59 40 41
-1.536270 -4.957875 72.061264 59 40 41
-1.525165 -4.767818 71.540344 59 40 41
-1.517850 -4.591474 71.197220 60 41 41
-1.507008 -4.406297 70.688675 60 41 41
-1.492791 -4.213784 70.021797 61 42 40
-1.475392 -4.015489 69.205696 61 42 41
-1.471961 -3.857313 69.044746 62 43 42
-1.465147 -3.691307 68.725098 63 44 44
-1.458395 -3.526831 68.408394 64 45 45
-1.455042 -3.371597 68.251129 65 46 46
-1.448383 -3.209713 67.938766 66 46 46
-1.445076 -3.056266 67.783661 66 44 45
-1.445076 -2.910147 67.783661 65 43 44
-1.448383 -2.770354 67.938766 66 42 44
-1.451705 -2.629919 68.094589 67 41 44
-1.451705 -2.483130 68.094589 68 41 45
-1.451705 -2.336341 68.094589 69 42 46
-1.455042 -2.194585 68.251129 70 43 47
-1.461763 -2.056916 68.566376 70 44 47
-1.468546 -1.917969 68.884552 70 44 47
-1.478840 -1.781880 69.367386 70 45 47
-1.499866 -1.655556 70.353653 71 46 48
-1.510605 -1.514665 70.857384 72 48 48
-1.517850 -1.368452 71.197220 73 49 49
-1.521498 -1.217896 71.368370 72 47 47
-1.521498 -1.064049 71.368370 72 45 46
-1.521498 -0.910203 71.368370 73 45 47
-1.517850 -0.754543 71.197220 76 47 49
-1.496320 -0.592540 70.187332 79 48 51
-1.475392 -0.435069 69.205696 83 49 53
-1.471961 -0.285220 69.044746 87 50 54
-1.468546 -0.136066 68.884552 90 51 55
-1.458395 0.012340 68.408394 91 52 56
-1.445076 0.158346 67.783661 92 53 57
-1.441784 0.303771 67.629250 93 53 58
-1.445076 0.450583 67.783661 92 54 59
-1.445076 0.596702 67.783661 91 54 58
-1.445076 0.742821 67.783661 91 54 57
-1.441784 0.886914 67.629250 90 54 56
-1.435246 1.028017 67.322548 88 53 56
-1.445076 1.181177 67.783661 86 52 55
-1.448383 1.330333 67.938766 85 50 54
-1.451705 1.480173 68.094589 85 49 53
-1.451705 1.626962 68.094589 85 49 53
-1.448383 1.769692 67.938766 85 49 53
-1.441784 1.907416 67.629250 86 49 52
-1.431998 2.039266 67.170235 87 48 51
-1.428766 2.179132 67.018608 88 47 51
-1.428766 2.323601 67.018608 88 45 50
-1.419155 2.451470 66.567810 89 45 50
-1.415981 2.589162 66.418884 90 46 51
-1.412820 2.726240 66.270630 92 48 52
-1.412820 2.869097 66.270630 95 50 54
-1.412820 3.011954 66.270630 98 54 56
-1.412820 3.154811 66.270630 101 57 58
-1.412820 3.297668 66.270630 101 59 59
-1.412820 3.440526 66.270630 101 60 61
-1.419155 3.599452 66.567810 101 60 61
-1.422345 3.751361 66.717400 99 59 60
-1.422345 3.895181 66.717400 97 58 58
-1.431998 4.066415 67.170235 97 56 57
-1.448383 4.259395 67.938766 97 56 58
-1.461763 4.446548 68.566376 97 57 59
-1.465147 4.604990 68.725098 98 58 60
-1.468546 4.764166 68.884552 98 60 62
-1.471961 4.924082 69.044746 98 60 63
-1.475392 5.084744 69.205696 98 59 63
-1.475392 5.233929 69.205696 98 59 63
-1.471961 5.370594 69.044746 98 58 63
-1.471961 5.519431 69.044746 97 57 61
-1.471961 5.668269 69.044746 96 55 59
-1.465147 5.790174 68.725098 93 52 56
-1.461763 5.924609 68.566376 90 50 54
-1.458395 6.058423 68.408394 89 50 53
-1.455042 6.191622 68.251129 88 50 53
-1.451705 6.324210 68.094589 88 50 53
-1.451705 6.470999 68.094589 88 50 52
-1.458395 6.648284 68.408394 88 50 52
-1.458395 6.795750 68.408394 90 52 54
-1.455042 6.927254 68.251129 92 54 57
-1.451705 7.058155 68.094589 95 56 61
-1.448383 7.188457 67.938766 99 60 64
-1.448383 7.334909 67.938766 100 61 65
-1.448383 7.481363 67.938766 98 60 62
-1.448383 7.627816 67.938766 94 57 59
-1.445076 7.756519 67.783661 92 56 58
-1.445076 7.902638 67.783661 91 56 57
-1.441784 8.030422 67.629250 89 55 58
-1.431998 8.120714 67.170235 88 54 57
-1.428766 8.246852 67.018608 86 52 56
-1.422345 8.353608 66.717400 86 51 57
-1.422345 8.497428 66.717400 87 52 58
-1.425548 8.660710 66.867661 88 52 59
-1.425548 8.804854 66.867661 89 53 59
-1.425548 8.948998 66.867661 90 53 60
-1.425548 9.093143 66.867661 91 53 60
-1.428766 9.258139 67.018608 91 54 61
-1.431998 9.423882 67.170235 91 54 60
-1.438508 9.612171 67.475548 89 52 58
-1.431998 9.713474 67.170235 86 49 54
-1.425548 9.813864 66.867661 85 48 52
-1.425548 9.958008 66.867661 84 48 51
-1.425548 10.102152 66.867661 83 48 51
-1.422345 10.223270 66.717400 82 49 51
-1.422345 10.367091 66.717400 81 49 51
-1.415981 10.463882 66.418884 80 48 50
-1.415981 10.607059 66.418884 80 49 49
-1.415981 10.750236 66.418884 80 50 50
-1.415981 10.893413 66.418884 81 50 50
-1.412820 11.011954 66.270630 81 49 50
-1.412820 11.154811 66.270630 81 49 50
-1.412820 11.297668 66.270630 80 50 51
-1.422345 11.517653 66.717400 80 50 52
-1.422345 11.661473 66.717400 80 50 53
-1.370007 11.370899 64.262428 80 51 54
-1.370007 11.509427 64.262428 79 51 55
-1.451705 12.342559 68.094589 78 51 55
-1.451705 12.489347 68.094589 76 51 54
-1.448383 12.607221 67.938766 75 50 54
-1.455042 12.812311 68.251129 75 50 53
-1.461763 13.019297 68.566376 75 49 53
-1.465147 13.197582 68.725098 76 49 53
-1.465147 13.345730 68.725098 76 49 52
-1.465147 13.493878 68.725098 77 49 51
-1.465147 13.642027 68.725098 77 49 50
-1.468546 13.822170 68.884552 76 48 49
-1.468546 13.970662 68.884552 74 47 47
-1.471961 14.151990 69.044746 72 45 46
-1.468546 14.267646 68.884552 69 43 44
-1.468546 14.416138 68.884552 68 42 43
-1.465147 14.530915 68.725098 67 41 43
-1.465147 14.679064 68.725098 68 42 44
-1.455042 14.724956 68.251129 69 43 45
-1.455098 -11.116738 75.931564 34 29 27
-1.440363 -10.842138 75.162636 34 29 26
-1.429506 -10.599609 74.596085 33 29 26
-1.415282 -10.334937 73.853836 32 28 26
-1.415282 -10.175733 73.853836 32 27 26
-1.429506 -9.634786 74.596085 40 30 31
-1.440363 -9.545936 75.162636 42 31 31
-1.458829 -9.504217 76.126259 43 32 31
-1.458829 -9.340115 76.126259 43 31 30
-1.433107 -9.014218 74.783989 43 32 30
-1.422358 -8.786612 74.223106 43 32 30
-1.418811 -8.605099 74.038010 43 33 30
-1.415282 -8.424489 73.853836 44 33 30
-1.404798 -8.204061 73.306770 46 34 31
-1.384290 -7.928576 72.236603 47 34 33
-1.377587 -7.735217 71.886787 48 35 35
-1.374259 -7.561944 71.713142 49 35 35
-1.367652 -7.371742 71.368370 49 35 35
-1.367652 -7.217896 71.368370 49 35 36
-1.370948 -7.081071 71.540344 50 35 36
-1.370948 -6.926854 71.540344 51 35 35
-1.367652 -6.756357 71.368370 51 35 35
-1.367652 -6.602511 71.368370 52 35 35
-1.370948 -6.464204 71.540344 52 35 35
-1.377587 -6.340544 71.886787 53 36 35
-1.384290 -6.215680 72.236603 54 37 36
-1.387667 -6.074743 72.412788 55 38 37
-1.394469 -5.947658 72.767754 56 40 38
-1.397895 -5.805023 72.946541 57 40 39
-1.391060 -5.620158 72.589836 59 41 41
-1.380931 -5.423894 72.061264 59 41 41
-1.380931 -5.268555 72.061264 59 41 41
-1.384290 -5.125656 72.236603 59 41 41
-1.384290 -4.969938 72.236603 59 41 41
-1.374259 -4.779335 71.713142 59 41 41
-1.367652 -4.602511 71.368370 60 41 41
-1.361109 -4.427379 71.026894 60 42 41
-1.351409 -4.243811 70.520767 61 42 40
-1.335548 -4.043766 69.693054 62 43 41
-1.326208 -3.866304 69.205696 63 44 42
-1.320054 -3.699871 68.884552 64 45 44
-1.316998 -3.543159 68.725098 66 46 46
-1.310929 -3.379365 68.408394 67 47 48
-1.304916 -3.217075 68.094589 67 46 47
-1.301930 -3.063260 67.938766 66 44 46
-1.301930 -2.916807 67.938766 66 43 45
-1.301930 -2.770354 67.938766 66 42 45
-1.304916 -2.629919 68.094589 67 41 45
-1.304916 -2.483130 68.094589 69 42 46
-1.304916 -2.336341 68.094589 71 43 47
-1.304916 -2.189552 68.094589 72 44 48
-1.310929 -2.052176 68.408394 72 45 48
-1.313957 -1.909110 68.566376 72 45 48
-1.320054 -1.769477 68.884552 72 46 48
-1.332420 -1.636170 69.529839 73 47 48
-1.351409 -1.507469 70.520767 74 49 49
-1.357860 -1.361920 70.857384 75 49 50
-1.364373 -1.214975 71.197220 74 48 49
-1.367652 -1.064049 71.368370 74 47 48
-1.367652 -0.910203 71.368370 76 47 48
-1.364373 -0.754543 71.197220 78 47 50
-1.345020 -0.592540 70.187332 81 48 52
-1.326208 -0.435069 69.205696 84 49 53
-1.320054 -0.284558 68.884552 88 50 54
-1.310929 -0.135126 68.408394 90 51 55
-1.298957 0.012227 67.783661 92 52 56
-1.284297 0.156559 67.018608 94 52 57
-1.284297 0.301028 67.018608 94 53 59
-1.284297 0.445498 67.018608 94 54 60
-1.287202 0.591302 67.170235 93 55 59
-1.287202 0.736098 67.170235 92 55 58
-1.287202 0.880895 67.170235 91 55 58
-1.287202 1.025691 67.170235 89 54 57
-1.290121 1.173142 67.322548 88 53 56
-1.298957 1.327296 67.783661 87 51 55
-1.298957 1.473414 67.783661 86 50 54
-1.301930 1.623239 67.938766 87 50 54
-1.298957 1.765652 67.783661 87 50 54
-1.295999 1.907416 67.629250 87 49 53
-1.284297 2.034662 67.018608 88 48 52
-1.284297 2.179132 67.018608 89 47 51
-1.284297 2.323601 67.018608 89 46 51
-1.275658 2.451470 66.567810 90 45 50
-1.269963 2.583383 66.270630 91 46 51
-1.269963 2.726240 66.270630 94 49 53
-1.269963 2.869097 66.270630 97 52 55
-1.269963 3.011954 66.270630 99 55 56
-1.269963 3.154811 66.270630 101 58 58
-1.269963 3.297668 66.270630 101 60 59
-1.269963 3.440526 66.270630 103 61 61
-1.275658 3.599452 66.567810 103 62 62
-1.278524 3.751361 66.717400 102 62 62
-1.278524 3.895181 66.717400 101 61 61
-1.287202 4.066415 67.170235 100 59 60
-1.301930 4.259395 67.938766 100 59 60
-1.313957 4.446548 68.566376 100 59 60
-1.320054 4.615674 68.884552 100 61 61
-1.320054 4.764166 68.884552 100 61 63
-1.323124 4.924082 69.044746 100 62 64
-1.326208 5.084744 69.205696 100 62 63
-1.326208 5.233929 69.205696 100 61 64
-1.323124 5.370594 69.044746 101 61 64
-1.323124 5.519431 69.044746 100 59 63
-1.323124 5.668269 69.044746 99 58 61
-1.316998 5.790174 68.725098 97 55 59
-1.313957 5.924609 68.566376 93 52 56
-1.310929 6.058423 68.408394 91 51 54
-1.304916 6.177421 68.094589 90 50 53
-1.304916 6.324210 68.094589 90 50 53
-1.304916 6.470999 68.094589 89 49 51
-1.307916 6.633001 68.251129 88 49 51
-1.307916 6.780128 68.251129 91 52 54
-1.307916 6.927254 68.251129 94 54 58
-1.304916 7.058155 68.094589 97 56 61
-1.298957 7.172044 67.783661 100 59 64
-1.298957 7.318163 67.783661 100 61 64
-1.295999 7.447279 67.629250 99 60 63
-1.295999 7.593065 67.629250 97 59 62
-1.295999 7.738851 67.629250 95 59 61
-1.295999 7.884636 67.629250 93 58 60
-1.290121 7.994003 67.322548 91 57 59
-1.284297 8.102383 67.018608 88 54 57
-1.278524 8.209787 66.717400 86 52 56
-1.275658 8.334878 66.567810 87 52 57
-1.275658 8.478375 66.567810 88 53 59
-1.275658 8.621873 66.567810 90 53 60
-1.278524 8.785069 66.717400 90 53 60
-1.278524 8.928888 66.717400 91 54 60
-1.278524 9.072709 66.717400 92 54 60
-1.281404 9.237288 66.867661 92 54 60
-1.281404 9.381432 66.867661 92 54 60
-1.281404 9.525576 66.867661 90 52 58
-1.278524 9.647990 66.717400 88 50 55
-1.269963 9.726240 66.270630 86 49 53
-1.269963 9.869097 66.270630 85 48 52
-1.272804 10.034352 66.418884 84 49 51
-1.275658 10.200349 66.567810 84 49 52
-1.272804 10.320705 66.418884 82 49 52
-1.272804 10.463882 66.418884 80 49 51
-1.272804 10.607059 66.418884 80 49 51
-1.272804 10.750236 66.418884 82 51 52
-1.272804 10.893413 66.418884 83 52 53
-1.269963 11.011954 66.270630 82 52 53
-1.269963 11.154811 66.270630 82 52 53
-1.269963 11.297668 66.270630 82 52 53
-1.275658 11.491828 66.567810 82 52 54
-1.275658 11.635326 66.567810 82 52 55
-1.226171 11.321887 63.985435 81 53 57
-1.226171 11.459818 63.985435 81 53 57
-1.269963 12.011954 66.270630 80 53 57
-1.287202 12.319809 67.170235 79 52 57
-1.287202 12.464605 67.170235 78 52 57
-1.301930 12.753674 67.938766 77 51 56
-1.307916 12.959438 68.251129 77 51 55
-1.313957 13.167103 68.566376 77 51 54
-1.313957 13.314909 68.566376 77 49 52
-1.313957 13.462715 68.566376 77 48 50
-1.316998 13.642027 68.725098 77 48 49
-1.316998 13.790174 68.725098 76 47 48
-1.320054 13.970662 68.884552 74 46 46
-1.320054 14.119154 68.884552 71 44 45
-1.316998 14.234619 68.725098 69 42 44
-1.316998 14.382768 68.725098 68 42 43
-1.313957 14.497356 68.566376 69 42 44
-1.307916 14.577828 68.251129 70 43 45
-1.298957 14.624099 67.783661 70 43 45
-1.291415 -10.953055 75.931564 35 29 27
-1.278338 -10.680113 75.162636 34 29 27
-1.268702 -10.438806 74.596085 33 29 27
-1.304763 -9.743267 76.716385 42 31 31
-1.301400 -9.553207 76.518669 43 31 30
-1.298055 -9.364124 76.321960 44 32 31
-1.271898 -9.014218 74.783989 43 31 30
-1.262358 -8.786612 74.223106 44 32 31
-1.259210 -8.605099 74.038010 44 32 31
-1.259210 -8.445498 74.038010 45 33 31
-1.246774 -8.204061 73.306770 47 34 32
-1.228573 -7.928576 72.236603 49 34 34
-1.222623 -7.735217 71.886787 50 34 35
-1.216731 -7.543722 71.540344 50 34 35
-1.213806 -7.371742 71.368370 49 34 35
-1.213806 -7.217896 71.368370 49 34 35
-1.213806 -7.064049 71.368370 50 34 35
-1.213806 -6.910203 71.368370 51 34 35
-1.213806 -6.756357 71.368370 51 34 35
-1.205115 -6.555238 70.857384 52 34 35
-1.207999 -6.417810 71.026894 53 34 36
-1.216731 -6.309987 71.540344 54 35 36
-1.225591 -6.200593 72.061264 55 36 37
-1.231569 -6.074743 72.412788 56 38 38
-1.240647 -5.962272 72.946541 57 39 39
-1.243703 -5.819322 73.126213 58 41 40
-1.237606 -5.633933 72.767754 59 41 41
-1.231569 -5.450353 72.412788 59 41 41
-1.225591 -5.268555 72.061264 59 41 41
-1.231569 -5.138157 72.412788 59 41 41
-1.231569 -4.982060 72.412788 59 41 40
-1.225591 -4.802535 72.061264 59 42 41
-1.216731 -4.613601 71.540344 59 41 41
-1.210895 -4.437996 71.197220 60 42 41
-1.207999 -4.274269 71.026894 61 42 40
-1.199390 -4.091792 70.520767 62 43 41
-1.185313 -3.893532 69.693054 63 44 42
-1.177024 -3.717120 69.205696 64 45 44
-1.171562 -3.551379 68.884552 66 46 46
-1.163464 -3.379365 68.408394 67 46 47
-1.160789 -3.224470 68.251129 67 46 47
-1.155477 -3.063260 67.938766 67 45 46
-1.155477 -2.916807 67.938766 67 43 46
-1.155477 -2.770354 67.938766 68 42 46
-1.158127 -2.629919 68.094589 69 41 46
-1.155477 -2.477448 67.938766 71 42 48
-1.155477 -2.330994 67.938766 73 44 50
-1.155477 -2.184541 67.938766 74 45 51
-1.160789 -2.047459 68.251129 74 46 50
-1.163464 -1.904711 68.408394 74 47 50
-1.166151 -1.761304 68.566376 73 46 49
-1.174287 -1.624755 69.044746 74 48 49
-1.182537 -1.486287 69.529839 75 50 51
-1.196548 -1.352238 70.353653 76 49 51
-1.202246 -1.206296 70.688675 75 48 50
-1.205115 -1.056431 70.857384 76 47 50
-1.210895 -0.908020 71.197220 78 47 50
-1.207999 -0.752738 71.026894 79 47 50
-1.193720 -0.592540 70.187332 82 49 52
-1.174287 -0.434057 69.044746 86 50 53
-1.158127 -0.281295 68.094589 88 50 54
-1.152839 -0.133892 67.783661 91 51 55
-1.139827 0.012089 67.018608 93 52 56
-1.132160 0.155506 66.567810 95 53 58
-1.132160 0.299003 66.567810 96 54 60
-1.132160 0.442501 66.567810 97 56 62
-1.134704 0.587316 66.717400 94 55 61
-1.134704 0.731136 66.717400 92 55 59
-1.137260 0.876927 66.867661 92 55 59
-1.137260 1.021071 66.867661 91 54 58
-1.137260 1.165215 66.867661 90 53 57
-1.142406 1.315284 67.170235 89 52 56
-1.144996 1.463391 67.322548 88 51 55
-1.152839 1.619533 67.783661 89 51 56
-1.150213 1.761630 67.629250 89 51 56
-1.150213 1.907416 67.629250 89 51 56
-1.139827 2.034662 67.018608 89 50 55
-1.139827 2.179132 67.018608 90 49 54
-1.139827 2.323601 67.018608 90 48 53
-1.132160 2.451470 66.567810 91 48 52
-1.127106 2.583383 66.270630 92 49 53
-1.124595 2.720168 66.123032 95 52 55
-1.124595 2.862707 66.123032 99 55 57
-1.127106 3.011954 66.270630 101 57 58
-1.127106 3.154811 66.270630 101 58 58
-1.127106 3.297668 66.270630 102 60 59
-1.127106 3.440526 66.270630 104 63 62
-1.132160 3.599452 66.567810 105 64 64
-1.134704 3.751361 66.717400 105 64 64
-1.134704 3.895181 66.717400 103 62 63
-1.142406 4.066415 67.170235 102 61 62
-1.155477 4.259395 67.938766 102 60 62
-1.166151 4.446548 68.566376 103 60 62
-1.168850 4.604990 68.725098 103 61 63
-1.171562 4.764166 68.884552 103 62 63
-1.171562 4.912658 68.884552 103 63 64
-1.177024 5.084744 69.205696 103 63 64
-1.177024 5.233929 69.205696 103 63 65
-1.174287 5.370594 69.044746 103 63 65
-1.174287 5.519431 69.044746 103 62 65
-1.174287 5.668269 69.044746 102 60 63
-1.166151 5.776803 68.566376 100 57 61
-1.163464 5.910957 68.408394 96 54 58
-1.160789 6.044495 68.251129 94 52 55
-1.158127 6.177421 68.094589 93 51 55
-1.152839 6.295332 67.783661 92 51 54
-1.158127 6.470999 68.094589 91 50 52
-1.158127 6.617788 68.094589 90 49 52
-1.160789 6.780128 68.251129 93 51 55
-1.158127 6.911366 68.094589 96 54 58
-1.155477 7.042003 67.938766 99 57 61
-1.152839 7.172044 67.783661 100 58 63
-1.150213 7.301493 67.629250 100 59 63
-1.150213 7.447279 67.629250 100 60 63
-1.150213 7.593065 67.629250 99 61 63
-1.144996 7.703754 67.322548 98 61 63
-1.144996 7.848878 67.322548 95 60 62
-1.142406 7.975917 67.170235 92 58 60
-1.137260 8.084134 66.867661 89 55 57
-1.132160 8.191380 66.567810 87 53 56
-1.132160 8.334878 66.567810 88 52 58
-1.129627 8.459408 66.418884 89 53 59
-1.132160 8.621873 66.567810 90 53 60
-1.129627 8.745762 66.418884 91 53 59
-1.132160 8.908869 66.567810 92 54 59
-1.134704 9.072709 66.717400 92 54 60
-1.134704 9.216529 66.717400 92 54 60
-1.134704 9.360350 66.717400 92 54 59
-1.134704 9.504169 66.717400 91 52 58
-1.127106 9.583383 66.270630 89 51 56
-1.124595 9.704577 66.123032 88 50 55
-1.122096 9.825234 65.976097 87 50 53
-1.127106 10.011954 66.270630 86 49 52
-1.129627 10.177529 66.418884 84 50 52
-1.127106 10.297668 66.270630 82 50 52
-1.127106 10.440526 66.270630 81 50 52
-1.127106 10.583383 66.270630 81 50 52
-1.129627 10.750236 66.418884 82 51 54
-1.127106 10.869097 66.270630 83 53 54
-1.124595 10.987429 66.123032 83 53 54
-1.122096 11.105234 65.976097 83 53 54
-1.127106 11.297668 66.270630 83 53 55
-1.127106 11.440526 66.270630 83 53 56
-1.122096 11.531901 65.976097 83 53 57
-1.090590 11.346340 64.123634 83 54 58
-1.090590 11.484569 64.123634 83 54 59
-1.117131 11.905654 65.684166 82 54 59
-1.127106 12.154811 66.270630 80 54 59
-1.127106 12.297668 66.270630 79 53 59
-1.134704 12.524394 66.717400 79 53 58
-1.150213 12.841356 67.629250 78 52 57
-1.158127 13.076504 68.094589 78 51 55
-1.158127 13.223292 68.094589 76 49 52
-1.160789 13.400817 68.251129 75 47 49
-1.166151 13.610520 68.566376 75 47 48
-1.166151 13.758327 68.566376 75 47 48
-1.168850 13.938323 68.725098 73 45 46
-1.168850 14.086471 68.725098 71 43 45
-1.168850 14.234619 68.725098 70 42 44
-1.163464 14.316487 68.408394 70 41 44
-1.160789 14.430702 68.251129 70 42 44
-1.152839 14.477981 67.783661 71 43 45
-1.139827 14.459042 67.018608 72 44 46
-1.134704 14.537877 66.717400 72 44 46
-1.133530 -9.199600 76.321960 43 31 30
-1.110689 -8.853009 74.783989 44 31 31
-1.102358 -8.626612 74.223106 45 32 32
-1.099609 -8.445498 74.038010 46 33 32
-1.086067 -8.183853 73.126213 48 33 34
-1.072855 -7.928576 72.236603 50 34 35
-1.067659 -7.735217 71.886787 51 35 36
-1.062514 -7.543722 71.540344 51 35 36
-1.059960 -7.371742 71.368370 51 35 35
-1.059960 -7.217896 71.368370 51 34 34
-1.059960 -7.064049 71.368370 51 33 33
-1.057418 -6.893632 71.197220 51 33 34
-1.052371 -6.707982 70.857384 52 33 35
-1.047371 -6.524096 70.520767 52 33 35
-1.049865 -6.387249 70.688675 54 34 35
-1.054888 -6.264700 71.026894 54 34 36
-1.067659 -6.185580 71.886787 55 36 37
-1.072855 -6.059962 72.236603 57 38 38
-1.086067 -5.976957 73.126213 59 39 40
-1.091444 -5.848130 73.488220 59 41 41
-1.086067 -5.661686 73.126213 60 41 42
-1.080744 -5.477070 72.767754 60 41 42
-1.075472 -5.294255 72.412788 60 41 41
-1.080744 -5.163344 72.767754 60 41 41
-1.086067 -5.031144 73.126213 59 41 40
-1.080744 -4.849619 72.767754 59 41 40
-1.070251 -4.647195 72.061264 59 41 40
-1.059960 -4.448665 71.368370 60 41 40
-1.057418 -4.284519 71.197220 61 41 40
-1.054888 -4.121159 71.026894 62 42 41
-1.047371 -3.939773 70.520767 63 43 42
-1.035078 -3.743297 69.693054 65 44 43
-1.025450 -3.559639 69.044746 66 45 46
-1.015998 -3.379365 68.408394 67 46 47
-1.013663 -3.224470 68.251129 68 46 48
-1.009024 -3.063260 67.938766 68 45 47
-1.009024 -2.916807 67.938766 69 44 47
-1.009024 -2.770354 67.938766 69 43 47
-1.009024 -2.623900 67.938766 70 42 47
-1.006720 -2.471791 67.783661 72 43 49
-1.006720 -2.325672 67.783661 75 45 51
-1.006720 -2.179554 67.783661 76 47 52
-1.009024 -2.038088 67.938766 76 48 52
-1.013663 -1.900332 68.251129 76 47 51
-1.015998 -1.757245 68.408394 75 47 50
-1.020702 -1.617233 68.725098 75 48 50
-1.025450 -1.475917 69.044746 77 50 53
-1.032654 -1.336404 69.529839 77 49 52
-1.032654 -1.186521 69.529839 77 47 50
-1.035078 -1.039072 69.693054 78 47 50
-1.049865 -0.901535 70.688675 80 48 51
-1.047371 -0.747374 70.520767 81 48 51
-1.032654 -0.586990 69.529839 83 49 52
-1.011338 -0.428084 68.094589 86 50 53
-0.997609 -0.277476 67.170235 89 51 54
-0.993116 -0.132082 66.867661 91 52 54
-0.988662 0.012008 66.567810 94 53 56
-0.986450 0.155158 66.418884 96 54 58
-0.984249 0.297668 66.270630 98 57 61
-0.984249 0.440526 66.270630 99 59 63
-0.986450 0.584688 66.418884 97 57 62
-0.986450 0.727865 66.418884 94 55 61
-0.988662 0.872994 66.567810 94 56 61
-0.988662 1.016492 66.567810 93 55 60
-0.990884 1.162597 66.717400 93 55 59
-0.993116 1.309359 66.867661 92 54 58
-0.993116 1.453503 66.867661 91 52 57
-0.997609 1.604877 67.170235 91 51 57
-0.999872 1.753641 67.322548 92 52 58
-0.995357 1.890193 67.018608 92 52 58
-0.995357 2.034662 67.018608 92 52 57
-0.993116 2.174224 66.867661 91 51 55
-0.990884 2.313158 66.717400 92 50 55
-0.988662 2.451470 66.567810 93 51 55
-0.984249 2.583383 66.270630 94 52 56
-0.982056 2.720168 66.123032 97 54 58
-0.979874 2.856345 65.976097 101 57 60
-0.982056 3.005246 66.123032 103 59 60
-0.984249 3.154811 66.270630 103 60 60
-0.984249 3.297668 66.270630 103 61 61
-0.984249 3.440526 66.270630 105 63 63
-0.988662 3.599452 66.567810 106 65 65
-0.990884 3.751361 66.717400 106 65 65
-0.990884 3.895181 66.717400 106 63 65
-0.995357 4.057236 67.018608 105 62 64
-1.006720 4.249670 67.783661 104 61 63
-1.018345 4.446548 68.566376 105 61 64
-1.020702 4.604990 68.725098 106 62 65
-1.020702 4.753138 68.725098 107 64 66
-1.023070 4.912658 68.884552 107 66 66
-1.025450 5.072920 69.044746 106 66 66
-1.025450 5.221757 69.044746 106 65 66
-1.023070 5.358133 68.884552 105 65 66
-1.023070 5.506625 68.884552 104 63 65
-1.020702 5.642026 68.725098 102 60 64
-1.018345 5.776803 68.566376 101 59 63
-1.013663 5.897369 68.251129 99 57 61
-1.013663 6.044495 68.251129 98 55 59
-1.006720 6.149213 67.783661 98 55 58
-1.004427 6.280992 67.629250 97 54 57
-1.006720 6.441451 67.783661 95 53 56
-1.009024 6.602644 67.938766 94 53 55
-1.011338 6.764577 68.094589 97 54 57
-1.009024 6.895550 67.938766 99 56 60
-1.006720 7.025926 67.783661 101 59 62
-1.004427 7.155707 67.629250 102 60 64
-1.004427 7.301493 67.629250 102 60 64
-0.999872 7.413505 67.322548 100 60 64
-0.999872 7.558629 67.322548 101 61 65
-0.997609 7.686325 67.170235 101 62 66
-0.997609 7.831121 67.170235 99 62 65
-0.995357 7.957913 67.018608 95 59 61
-0.993116 8.084134 66.867661 90 55 58
-0.988662 8.191380 66.567810 88 52 57
-0.986450 8.316232 66.418884 88 52 58
-0.986450 8.459408 66.418884 89 52 59
-0.986450 8.602585 66.418884 89 52 59
-0.986450 8.745762 66.418884 90 52 59
-0.986450 8.888938 66.418884 91 53 59
-0.986450 9.032115 66.418884 92 53 59
-0.988662 9.195865 66.567810 92 54 59
-0.988662 9.339362 66.567810 92 54 59
-0.984249 9.440526 66.270630 92 53 58
-0.982056 9.562039 66.123032 90 52 57
-0.975538 9.640167 65.684166 89 51 55
-0.975538 9.781760 65.684166 88 51 54
-0.977701 9.945355 65.829803 87 51 53
-0.979874 10.109679 65.976097 85 51 53
-0.984249 10.297668 66.270630 84 51 52
-0.982056 10.417273 66.123032 82 51 52
-0.982056 10.559812 66.123032 81 50 52
-0.984249 10.726240 66.270630 83 52 54
-0.982056 10.844890 66.123032 84 53 55
-0.979874 10.963012 65.976097 84 53 55
-0.977701 11.080611 65.829803 84 53 55
-0.977701 11.222518 65.829803 84 53 55
-0.979874 11.389679 65.976097 84 54 56
-0.977701 11.506331 65.829803 84 54 58
-0.956493 11.395565 64.401825 84 54 59
-0.956493 11.534393 64.401825 84 54 59
-0.964865 11.775394 64.965523 83 54 59
-0.973385 12.020652 65.539169 82 54 59
-0.975538 12.188840 65.684166 81 54 59
-0.975538 12.330433 65.684166 81 53 58
-0.990884 12.668215 66.717400 80 52 57
-0.995357 12.869877 67.018608 78 51 55
-1.002144 13.103081 67.475548 77 49 52
-1.006720 13.309031 67.783661 75 47 49
-1.011338 13.516870 68.094589 75 47 48
-1.013663 13.695070 68.251129 75 46 48
-1.015998 13.874091 68.408394 73 44 46
-1.015998 14.021557 68.408394 72 43 45
-1.015998 14.169022 68.408394 72 42 45
-1.011338 14.250815 68.094589 72 42 45
-1.006720 14.331861 67.783661 72 42 45
-0.995357 14.314572 67.018608 73 43 46
-0.988662 14.361784 66.567810 73 44 46
-0.984249 14.440526 66.270630 73 45 46
-0.976537 -12.421359 76.915138 32 26 26
-0.976537 -12.089752 76.915138 32 26 27
-0.928432 -8.183853 73.126213 48 32 34
-0.917137 -7.928576 72.236603 50 33 36
-0.914911 -7.753992 72.061264 51 35 37
-0.908297 -7.543722 71.540344 52 35 37
-0.903941 -7.354064 71.197220 52 35 35
-0.903941 -7.200586 71.197220 52 35 34
-0.903941 -7.047109 71.197220 52 33 34
-0.903941 -6.893632 71.197220 52 33 34
-0.895352 -6.676116 70.520767 52 32 34
-0.886926 -6.462693 69.857040 53 33 34
-0.886926 -6.312105 69.857040 54 33 35
-0.901778 -6.264700 71.026894 55 34 36
-0.908297 -6.155770 71.540344 57 36 37
-0.912696 -6.030616 71.886787 59 38 39
-0.933028 -6.006546 73.488220 60 39 41
-0.935343 -5.862641 73.670578 61 41 42
-0.930724 -5.675665 73.306770 61 41 42
-0.928432 -5.504051 73.126213 61 41 42
-0.928432 -5.346415 73.126213 60 41 41
-0.928432 -5.188780 73.126213 60 41 40
-0.930724 -5.043567 73.306770 59 41 40
-0.928432 -4.873509 73.126213 59 40 40
-0.919374 -4.669865 72.412788 58 40 40
-0.908297 -4.459384 71.540344 59 40 39
-0.906114 -4.294818 71.368370 60 40 40
-0.903941 -4.131042 71.197220 62 41 41
-0.901778 -3.968049 71.026894 64 42 42
-0.886926 -3.752105 69.857040 66 44 43
-0.876612 -3.559639 69.044746 68 45 46
-0.868533 -3.379365 68.408394 69 46 48
-0.864549 -3.217075 68.094589 69 46 48
-0.862571 -3.063260 67.938766 70 45 48
-0.860601 -2.910147 67.783661 70 44 48
-0.858641 -2.757732 67.629250 70 43 48
-0.858641 -2.611947 67.629250 70 42 48
-0.858641 -2.466161 67.629250 73 44 51
-0.858641 -2.320375 67.629250 78 48 55
-0.858641 -2.174589 67.629250 80 51 57
-0.858641 -2.028803 67.629250 80 51 56
-0.862571 -1.891635 67.938766 79 49 54
-0.862571 -1.745182 67.938766 78 47 52
-0.866536 -1.606079 68.251129 77 47 52
-0.872554 -1.469085 68.725098 77 48 52
-0.872554 -1.320936 68.725098 78 48 52
-0.870539 -1.170080 68.566376 78 48 52
-0.868533 -1.019918 68.408394 79 48 52
-0.868533 -0.872453 68.408394 81 49 52
-0.872554 -0.728344 68.725098 83 49 53
-0.864549 -0.574873 68.094589 84 50 53
-0.852813 -0.422273 67.170235 87 51 53
-0.845164 -0.274988 66.567810 89 52 53
-0.845164 -0.131490 66.567810 91 52 54
-0.841391 0.011954 66.270630 94 53 55
-0.841391 0.154811 66.270630 96 54 57
-0.841391 0.297668 66.270630 99 58 61
-0.841391 0.440526 66.270630 101 60 64
-0.841391 0.583383 66.270630 99 59 64
-0.843274 0.727865 66.418884 96 57 61
-0.843274 0.871041 66.418884 95 56 61
-0.843274 1.014218 66.418884 94 56 61
-0.843274 1.157395 66.418884 94 55 60
-0.847064 1.306417 66.717400 94 54 60
-0.847064 1.450237 66.717400 93 53 59
-0.847064 1.594057 66.717400 93 53 59
-0.847064 1.737877 66.717400 94 53 60
-0.847064 1.881698 66.717400 94 54 59
-0.847064 2.025518 66.717400 94 54 58
-0.843274 2.159632 66.418884 94 54 58
-0.845164 2.307972 66.567810 94 53 57
-0.841391 2.440526 66.270630 95 54 58
-0.839518 2.577629 66.123032 96 55 60
-0.835795 2.708105 65.829803 99 57 62
-0.835795 2.850012 65.829803 102 59 63
-0.837652 2.998568 65.976097 104 60 63
-0.839518 3.147785 66.123032 105 61 63
-0.841391 3.297668 66.270630 106 62 63
-0.841391 3.440526 66.270630 107 64 65
-0.843274 3.591399 66.418884 107 65 66
-0.845164 3.742949 66.567810 107 65 66
-0.847064 3.895181 66.717400 107 64 66
-0.847064 4.039001 66.717400 106 62 65
-0.852813 4.211212 67.170235 105 61 64
-0.862571 4.405848 67.938766 106 61 64
-0.870539 4.594355 68.566376 109 63 67
-0.872554 4.753138 68.725098 111 66 69
-0.872554 4.901286 68.725098 112 67 70
-0.874579 5.061150 68.884552 110 66 69
-0.874579 5.209641 68.884552 108 65 68
-0.872554 5.345730 68.725098 106 64 67
-0.872554 5.493878 68.725098 105 62 66
-0.870539 5.628996 68.566376 104 61 65
-0.866536 5.750242 68.251129 103 60 64
-0.866536 5.897369 68.251129 102 59 64
-0.860601 6.003095 67.783661 103 59 63
-0.858641 6.135206 67.629250 102 58 62
-0.852813 6.238361 67.170235 101 57 61
-0.854747 6.397632 67.322548 99 55 59
-0.858641 6.572564 67.629250 99 56 59
-0.860601 6.733688 67.783661 101 57 60
-0.860601 6.879807 67.783661 102 59 62
-0.858641 7.009922 67.629250 104 60 63
-0.856689 7.139444 67.475548 104 61 65
-0.854747 7.268380 67.322548 102 60 65
-0.852813 7.396732 67.170235 100 58 64
-0.852813 7.541528 67.170235 101 60 66
-0.850888 7.668974 67.018608 103 63 68
-0.852813 7.831121 67.170235 102 64 68
-0.850888 7.957913 67.018608 97 60 64
-0.848972 8.084134 66.867661 91 54 59
-0.845164 8.191380 66.567810 88 51 58
-0.843274 8.316232 66.418884 88 50 58
-0.843274 8.459408 66.418884 89 51 59
-0.843274 8.602585 66.418884 89 51 59
-0.843274 8.745762 66.418884 90 51 59
-0.843274 8.888938 66.418884 91 52 58
-0.843274 9.032115 66.418884 92 53 58
-0.845164 9.195865 66.567810 92 53 58
-0.841391 9.297668 66.270630 92 53 58
-0.839518 9.419500 66.123032 92 53 58
-0.833946 9.498574 65.684166 91 53 57
-0.828447 9.576606 65.251083 90 53 57
-0.826630 9.695955 65.107986 89 53 55
-0.828447 9.857924 65.251083 88 53 55
-0.835795 10.087263 65.829803 86 52 54
-0.835795 10.229170 65.829803 85 52 53
-0.835795 10.371077 65.829803 83 52 52
-0.835795 10.512983 65.829803 82 51 52
-0.837652 10.678568 65.976097 82 52 53
-0.837652 10.820790 65.976097 84 53 55
-0.833946 10.914503 65.684166 85 54 55
-0.832105 11.031690 65.539169 85 54 55
-0.833946 11.197689 65.684166 85 54 55
-0.835795 11.364425 65.829803 85 54 56
-0.832105 11.455531 65.539169 85 54 57
-0.817665 11.395565 64.401825 85 54 58
-0.815895 11.509427 64.262428 84 54 58
-0.819442 11.698599 64.541832 83 54 59
-0.821227 11.863520 64.682442 83 54 58
-0.824821 12.055483 64.965523 82 54 57
-0.824821 12.195526 64.965523 81 53 57
-0.833946 12.472025 65.684166 80 52 56
-0.847064 12.812035 66.717400 79 51 54
-0.847064 12.955855 66.717400 78 50 52
-0.850888 13.158816 67.018608 77 48 50
-0.858641 13.424500 67.629250 76 47 49
-0.862571 13.632392 67.938766 75 46 48
-0.862571 13.778846 67.938766 74 44 48
-0.864549 13.957237 68.094589 74 43 47
-0.862571 14.071752 67.938766 74 43 47
-0.860601 14.185743 67.783661 74 43 46
-0.850888 14.170103 67.018608 75 43 47
-0.845164 14.218286 66.567810 75 44 47
-0.841391 14.297668 66.270630 75 44 47
-0.839518 14.408364 66.123032 75 46 48
-0.810734 -12.421359 76.915138 32 27 26
-0.810734 -12.255556 76.915138 32 27 27
-0.806555 -12.027434 76.518669 33 27 28
-0.825708 -9.611199 78.335732 45 31 30
-0.792262 -8.573784 75.162636 45 31 33
-0.770796 -8.183853 73.126213 47 32 34
-0.763276 -7.947914 72.412788 49 33 36
-0.761419 -7.772858 72.236603 51 34 36
-0.754080 -7.543722 71.540344 52 35 36
-0.750464 -7.354064 71.197220 52 35 35
-0.750464 -7.200586 71.197220 52 34 34
-0.750464 -7.047109 71.197220 52 33 33
-0.750464 -6.893632 71.197220 52 32 33
-0.743333 -6.676116 70.520767 53 32 34
-0.736337 -6.462693 69.857040 54 33 34
-0.736337 -6.312105 69.857040 55 33 35
-0.750464 -6.279723 71.197220 57 35 36
-0.754080 -6.155770 71.540344 59 37 38
-0.757732 -6.030616 71.886787 60 39 39
-0.774612 -6.006546 73.488220 62 40 41
-0.776534 -5.862641 73.670578 62 40 42
-0.774612 -5.689714 73.488220 62 40 42
-0.770796 -5.504051 73.126213 61 40 42
-0.770796 -5.346415 73.126213 60 40 41
-0.776534 -5.227406 73.670578 59 40 40
-0.776534 -5.068597 73.670578 58 40 40
-0.772700 -4.885542 73.306770 58 39 39
-0.763276 -4.669865 72.412788 58 38 38
-0.755902 -4.470156 71.713142 58 38 38
-0.752268 -4.294818 71.368370 60 39 39
-0.752268 -4.140973 71.368370 62 40 40
-0.748668 -3.968049 71.026894 65 42 41
-0.736337 -3.752105 69.857040 67 44 43
-0.727775 -3.559639 69.044746 68 45 45
-0.719410 -3.371597 68.251129 69 45 47
-0.716118 -3.209713 67.938766 70 46 48
-0.714483 -3.056266 67.783661 71 45 48
-0.712855 -2.903518 67.629250 71 45 49
-0.712855 -2.757732 67.629250 72 44 49
-0.711235 -2.606010 67.475548 72 43 50
-0.708017 -2.449422 67.170235 75 45 53
-0.708017 -2.304626 67.170235 83 52 60
-0.708017 -2.159829 67.170235 89 58 66
-0.709622 -2.019602 67.322548 89 58 64
-0.712855 -1.883017 67.629250 85 53 59
-0.716118 -1.745182 67.938766 81 50 55
-0.717760 -1.602396 68.094589 79 48 53
-0.719410 -1.458953 68.251129 79 48 53
-0.719410 -1.311826 68.251129 79 47 52
-0.711235 -1.151465 67.475548 80 48 53
-0.709622 -1.003729 67.322548 81 49 54
-0.703243 -0.850887 66.717400 83 50 54
-0.703243 -0.707066 66.717400 85 51 55
-0.703243 -0.563246 66.717400 87 51 55
-0.701667 -0.418485 66.567810 88 52 54
-0.698534 -0.273760 66.270630 89 52 54
-0.698534 -0.130903 66.270630 92 52 54
-0.698534 0.011954 66.270630 95 54 55
-0.696979 0.154467 66.123032 97 55 57
-0.696979 0.297006 66.123032 100 59 61
-0.696979 0.439544 66.123032 103 63 65
-0.698534 0.583383 66.270630 100 61 65
-0.698534 0.726240 66.270630 96 57 61
-0.698534 0.869097 66.270630 94 55 60
-0.700097 1.014218 66.418884 95 55 61
-0.700097 1.157395 66.418884 95 55 60
-0.700097 1.300572 66.418884 96 54 60
-0.701667 1.446985 66.567810 96 54 60
-0.701667 1.590483 66.567810 96 54 61
-0.700097 1.730102 66.418884 97 55 61
-0.700097 1.873278 66.418884 97 55 61
-0.698534 2.011954 66.270630 97 55 61
-0.698534 2.154811 66.270630 97 56 61
-0.698534 2.297668 66.270630 98 57 61
-0.696979 2.435090 66.123032 98 57 61
-0.693888 2.566198 65.829803 99 58 63
-0.690824 2.696149 65.539169 101 59 65
-0.689303 2.831179 65.394806 104 60 66
-0.690824 2.978710 65.539169 106 61 66
-0.693888 3.133826 65.829803 107 62 65
-0.695430 3.283012 65.976097 108 62 65
-0.695430 3.425234 65.976097 109 64 66
-0.698534 3.583383 66.270630 109 65 67
-0.700097 3.734576 66.418884 109 65 67
-0.700097 3.877753 66.418884 109 64 67
-0.700097 4.020929 66.418884 107 62 65
-0.703243 4.182821 66.717400 106 60 64
-0.708017 4.356008 67.170235 108 61 66
-0.716118 4.552301 67.938766 110 63 68
-0.717760 4.709531 68.094589 112 65 69
-0.717760 4.856320 68.094589 112 66 69
-0.721068 5.026165 68.408394 110 64 68
-0.721068 5.173630 68.408394 109 64 68
-0.717760 5.296687 68.094589 107 63 67
-0.717760 5.443476 68.094589 106 62 66
-0.716118 5.577473 67.938766 105 61 66
-0.714483 5.710857 67.783661 105 61 66
-0.714483 5.856976 67.783661 105 61 66
-0.708017 5.948768 67.170235 106 61 66
-0.708017 6.093565 67.170235 106 61 66
-0.704827 6.210260 66.867661 104 60 64
-0.706418 6.368748 67.018608 103 59 62
-0.708017 6.527954 67.170235 103 59 61
-0.712855 6.718349 67.629250 103 60 61
-0.712855 6.864135 67.629250 104 61 62
-0.711235 6.993989 67.475548 106 63 64
-0.708017 7.107139 67.170235 106 64 66
-0.708017 7.251935 67.170235 104 62 66
-0.706418 7.380035 67.018608 101 60 65
-0.704827 7.507557 66.867661 102 60 65
-0.704827 7.651701 66.867661 103 61 67
-0.704827 7.795846 66.867661 102 61 67
-0.704827 7.939990 66.867661 98 59 64
-0.704827 8.084134 66.867661 94 55 62
-0.701667 8.191380 66.567810 92 52 60
-0.701667 8.334878 66.567810 91 51 61
-0.700097 8.459408 66.418884 91 51 61
-0.701667 8.621873 66.567810 91 51 61
-0.700097 8.745762 66.418884 91 51 60
-0.700097 8.888938 66.418884 92 52 59
-0.701667 9.052366 66.567810 93 53 58
-0.700097 9.175292 66.418884 93 53 58
-0.698534 9.297668 66.270630 92 52 57
-0.695430 9.398568 65.976097 91 52 57
