ply
format ascii 1.0
element vertex 1167
property float x
property float y
property float z
property uchar red
property uchar green
property uchar blue
end_header
11.514798 7.956463 48.511833 253 193 214
11.514798 8.061038 48.511833 253 203 223
11.533645 8.178978 48.591232 254 202 221
11.533645 8.283724 48.591232 252 185 203
11.514798 8.374763 48.511833 251 175 192
11.514798 8.479339 48.511833 252 175 190
11.514798 8.583914 48.511833 253 175 189
11.496014 8.674315 48.432693 253 173 185
11.514798 8.793064 48.511833 251 177 188
11.533645 8.912202 48.591232 252 196 206
11.552552 9.031731 48.670887 254 209 219
11.533645 9.121695 48.591232 254 199 210
11.514798 9.211365 48.511833 254 178 191
11.514798 9.315940 48.511833 252 163 180
11.533645 9.435934 48.591232 251 158 177
11.552552 9.556320 48.670887 248 154 176
11.552552 9.661239 48.670887 247 151 174
11.552552 9.766156 48.670887 248 152 175
11.552552 9.871075 48.670887 250 153 176
11.552552 9.975992 48.670887 244 146 169
11.552552 10.080911 48.670887 235 137 159
11.552552 10.185828 48.670887 231 135 154
11.552552 10.290747 48.670887 232 139 156
11.533645 10.378651 48.591232 228 138 154
11.533645 10.483397 48.591232 219 133 147
11.533645 10.588143 48.591232 216 132 146
11.533645 10.692889 48.591232 223 141 156
11.552552 10.815337 48.670887 232 152 169
11.552552 10.920255 48.670887 236 157 174
11.552552 11.025173 48.670887 235 154 172
11.552552 11.130091 48.670887 236 155 172
11.552552 11.235009 48.670887 241 163 178
11.552552 11.339927 48.670887 243 165 177
11.571522 11.463638 48.750809 229 146 155
11.571522 11.568728 48.750809 205 119 124
11.571522 11.673819 48.750809 200 116 120
11.571522 11.778909 48.750809 219 138 142
11.571522 11.883999 48.750809 232 155 159
11.533645 11.949845 48.591232 221 148 155
11.533645 12.054591 48.591232 194 124 134
11.533645 12.159338 48.591232 174 106 119
11.533645 12.264084 48.591232 180 113 129
11.533645 12.368831 48.591232 202 137 153
11.533645 12.473577 48.591232 220 155 171
11.514798 12.557771 48.511833 228 163 179
11.496014 12.641689 48.432693 228 165 180
11.514798 12.766921 48.511833 214 147 162
11.514798 12.871496 48.511833 200 129 144
11.552552 13.018616 48.670887 186 113 128
11.571522 13.145082 48.750809 175 100 114
11.590553 13.271966 48.830990 177 101 114
11.571522 13.355264 48.750809 184 107 120
11.571522 13.460354 48.750809 181 105 118
11.571522 13.565444 48.750809 168 95 107
11.571522 13.670534 48.750809 155 84 97
11.571522 13.775624 48.750809 142 76 88
11.590553 13.903545 48.830990 127 67 79
11.571522 13.985806 48.750809 114 58 70
11.496014 13.998948 48.432693 106 53 65
11.458629 14.057488 48.275192 101 49 61
11.458629 14.161553 48.275192 96 44 55
11.496014 14.312162 48.432693 92 39 49
11.496014 14.416567 48.432693 91 34 44
11.496014 14.520971 48.432693 90 30 39
11.514798 14.649274 48.511833 91 25 35
11.514798 14.753849 48.511833 93 22 33
11.514798 14.858424 48.511833 99 23 34
11.552552 15.012058 48.670887 106 25 37
11.552552 15.116976 48.670887 112 28 41
11.571522 15.246889 48.750809 117 31 44
11.590553 15.377230 48.830990 120 32 45
11.590553 15.482492 48.830990 123 33 46
11.590553 15.587756 48.830990 124 33 46
11.590553 15.693019 48.830990 127 34 47
11.590553 15.798282 48.830990 129 35 48
11.590553 15.903545 48.830990 131 37 49
11.667313 16.114826 49.154373 133 38 50
11.667313 16.220787 49.154373 135 40 52
11.686661 16.353823 49.235889 139 43 54
11.745094 16.542259 49.482071 147 51 62
11.764702 16.676720 49.564678 151 54 65
11.764702 16.783566 49.564678 146 50 61
11.764702 16.890409 49.564678 142 46 57
11.784375 17.025679 49.647564 140 45 56
11.784375 17.132702 49.647564 141 47 58
11.784375 17.239725 49.647564 141 48 59
11.784375 17.346748 49.647564 140 48 59
11.991664 2.383399 50.066177 221 104 125
11.971476 2.487130 49.981888 219 104 127
11.951356 2.590513 49.897884 215 100 127
11.931303 2.693549 49.814163 214 101 131
11.931303 2.800932 49.814163 230 125 156
11.871547 2.893749 49.564678 248 160 194
11.832041 2.990608 49.399738 254 182 217
11.812387 3.091953 49.317677 250 172 208
11.812387 3.198265 49.317677 244 147 183
11.812387 3.304577 49.317677 244 145 181
11.812387 3.410889 49.317677 251 164 200
11.851761 3.528926 49.482071 254 167 204
11.871547 3.641662 49.564678 254 152 191
11.871547 3.748507 49.564678 254 139 180
11.851761 3.848926 49.482071 252 132 173
11.812387 3.942451 49.317677 244 120 160
11.792797 4.042049 49.235889 234 106 146
11.792797 4.148185 49.235889 234 105 142
11.773273 4.247277 49.154373 240 111 146
11.773273 4.353238 49.154373 245 117 151
11.773273 4.459198 49.154373 250 130 162
11.753813 4.557612 49.073128 247 129 160
11.753813 4.663397 49.073128 232 108 137
11.734417 4.761312 48.992149 228 100 127
11.734417 4.866923 48.992149 236 110 134
11.734417 4.972534 48.992149 239 114 139
11.734417 5.078145 48.992149 242 120 144
11.734417 5.183755 48.992149 250 132 154
11.734417 5.289365 48.992149 254 136 158
11.734417 5.394976 48.992149 253 130 152
11.734417 5.500587 48.992149 252 124 145
11.734417 5.606197 48.992149 251 118 140
11.734417 5.711808 48.992149 247 112 135
11.753813 5.827034 49.073128 245 111 134
11.734417 5.923029 48.992149 248 117 141
11.715085 6.018708 48.911438 248 122 145
11.715085 6.124144 48.911438 244 122 145
11.715085 6.229581 48.911438 241 123 146
11.695817 6.324598 48.830990 241 127 150
11.695817 6.429861 48.830990 244 134 156
11.695817 6.535124 48.830990 248 142 164
11.695817 6.640387 48.830990 248 145 166
11.676612 6.734574 48.750809 240 139 159
11.676612 6.839664 48.750809 235 137 156
11.676612 6.944755 48.750809 242 147 166
11.676612 7.049845 48.750809 248 158 176
11.657470 7.143206 48.670887 247 159 177
11.657470 7.248124 48.670887 241 153 170
11.638391 7.341007 48.591232 238 156 172
11.638391 7.445754 48.591232 244 176 192
11.638391 7.550500 48.591232 252 202 219
11.638391 7.655246 48.591232 254 209 227
11.619373 7.747313 48.511833 254 197 217
11.619373 7.851888 48.511833 252 184 205
11.619373 7.956463 48.511833 250 182 204
11.619373 8.061038 48.511833 252 195 217
11.638391 8.178978 48.591232 253 197 218
11.638391 8.283724 48.591232 249 179 199
11.638391 8.388471 48.591232 247 169 188
11.619373 8.479339 48.511833 249 170 187
11.619373 8.583914 48.511833 252 171 187
11.600419 8.674315 48.432693 252 173 187
11.638391 8.807456 48.591232 253 184 197
11.638391 8.912202 48.591232 253 201 214
11.657470 9.031731 48.670887 254 206 220
11.638391 9.121695 48.591232 254 192 206
11.619373 9.211365 48.511833 253 173 189
11.619373 9.315940 48.511833 252 162 181
11.638391 9.435934 48.591232 251 159 179
11.638391 9.540680 48.591232 248 155 177
11.638391 9.645427 48.591232 246 150 173
11.657470 9.766156 48.670887 247 151 174
11.657470 9.871075 48.670887 249 153 176
11.657470 9.975992 48.670887 246 149 171
11.657470 10.080911 48.670887 238 140 161
11.657470 10.185828 48.670887 232 136 154
11.657470 10.290747 48.670887 231 137 153
11.638391 10.378651 48.591232 227 136 150
11.638391 10.483397 48.591232 220 132 146
11.619373 10.570843 48.511833 217 132 146
11.638391 10.692889 48.591232 223 140 153
11.638391 10.797636 48.591232 230 149 164
11.657470 10.920255 48.670887 234 153 170
11.657470 11.025173 48.670887 236 155 172
11.638391 11.111875 48.591232 239 158 175
11.638391 11.216621 48.591232 243 162 178
11.638391 11.321367 48.591232 240 159 172
11.676612 11.463638 48.750809 224 140 151
11.676612 11.568728 48.750809 203 117 125
11.676612 11.673819 48.750809 204 119 125
11.676612 11.778909 48.750809 223 142 145
11.657470 11.864517 48.670887 233 155 160
11.638391 11.949845 48.591232 218 144 150
11.638391 12.054591 48.591232 189 118 127
11.638391 12.159338 48.591232 172 105 117
11.619373 12.244045 48.511833 178 113 128
11.619373 12.348620 48.511833 197 133 150
11.619373 12.453196 48.511833 212 148 166
11.600419 12.537285 48.432693 220 156 174
11.581526 12.621100 48.353813 221 156 173
11.600419 12.746094 48.432693 208 141 158
11.619373 12.871496 48.511833 195 126 142
11.638391 12.997309 48.591232 182 111 126
11.657470 13.123533 48.670887 175 102 116
11.676612 13.250174 48.750809 179 106 118
11.676612 13.355264 48.750809 186 112 123
11.657470 13.438288 48.670887 181 108 117
11.657470 13.543205 48.670887 166 95 103
11.657470 13.648124 48.670887 154 86 94
11.657470 13.753042 48.670887 143 79 87
11.657470 13.857960 48.670887 127 68 77
11.600419 13.894544 48.432693 113 58 67
11.525213 13.908194 48.118706 104 52 62
11.506564 13.989248 48.040844 98 47 57
11.506564 14.092808 48.040844 94 42 52
11.525213 14.219377 48.118706 93 38 48
11.525213 14.323105 48.118706 94 36 46
11.525213 14.426832 48.118706 94 31 41
11.562694 14.577814 48.275192 93 25 35
11.581526 14.705791 48.353813 96 23 34
11.600419 14.834185 48.432693 102 24 36
11.619373 14.962999 48.511833 108 26 39
11.638391 15.092235 48.591232 114 29 42
11.657470 15.221894 48.670887 119 31 44
11.676612 15.351979 48.750809 122 33 46
11.695817 15.482492 48.830990 124 33 46
11.695817 15.587756 48.830990 126 34 47
11.695817 15.693019 48.830990 128 35 48
11.695817 15.798282 48.830990 129 36 48
11.695817 15.903545 48.830990 131 37 49
11.753813 16.088190 49.073128 133 38 50
11.773273 16.220787 49.154373 134 39 51
11.792797 16.353823 49.235889 137 42 53
11.871547 16.569876 49.564678 143 47 58
11.871547 16.676720 49.564678 146 50 61
11.871547 16.783566 49.564678 144 48 59
11.891399 16.918655 49.647564 141 46 56
11.911318 17.054197 49.730724 140 46 55
11.911318 17.161400 49.730724 142 48 58
11.911318 17.268602 49.730724 142 48 58
11.931303 17.404959 49.814163 141 48 59
12.099589 2.383399 50.066177 216 104 124
12.079220 2.487130 49.981888 215 104 127
12.058919 2.590513 49.897884 213 104 128
12.038686 2.693549 49.814163 218 110 137
12.018520 2.796240 49.730724 235 140 170
11.978392 2.893749 49.564678 250 180 211
11.938530 2.990608 49.399738 254 194 226
11.918698 3.091953 49.317677 247 167 202
11.918698 3.198265 49.317677 241 140 176
11.918698 3.304577 49.317677 246 144 180
11.938530 3.416565 49.399738 253 158 194
11.958427 3.528926 49.482071 254 157 194
11.998423 3.647752 49.647564 254 145 184
11.998423 3.754775 49.647564 253 134 175
11.958427 3.848926 49.482071 250 125 167
11.918698 3.942451 49.317677 242 114 155
11.898933 4.042049 49.235889 235 105 146
11.898933 4.148185 49.235889 236 105 144
11.879232 4.247277 49.154373 240 110 146
11.879232 4.353238 49.154373 246 117 152
11.859598 4.451827 49.073128 250 126 159
11.859598 4.557612 49.073128 243 120 151
11.840028 4.655702 48.992149 230 102 132
11.820521 4.753469 48.911438 229 101 128
11.820521 4.858905 48.911438 235 109 134
11.820521 4.964342 48.911438 237 113 137
11.820521 5.069778 48.911438 244 123 146
11.820521 5.175215 48.911438 251 132 154
11.820521 5.280652 48.911438 254 131 152
11.820521 5.386088 48.911438 253 125 145
11.820521 5.491525 48.911438 251 118 139
11.820521 5.596961 48.911438 249 114 135
11.820521 5.702398 48.911438 245 110 132
11.840028 5.817418 48.992149 243 108 132
11.820521 5.913271 48.911438 245 113 137
11.820521 6.018708 48.911438 246 119 143
11.801080 6.114071 48.830990 245 121 146
11.801080 6.219335 48.830990 242 123 148
11.801080 6.324598 48.830990 241 126 150
11.801080 6.429861 48.830990 243 131 155
11.801080 6.535124 48.830990 247 140 162
11.801080 6.640387 48.830990 246 142 162
11.781702 6.734574 48.750809 237 135 153
11.781702 6.839664 48.750809 232 131 148
11.781702 6.944755 48.750809 240 141 157
11.781702 7.049845 48.750809 247 152 166
11.762388 7.143206 48.670887 247 153 168
11.762388 7.248124 48.670887 243 152 166
11.743137 7.341007 48.591232 241 154 168
11.743137 7.445754 48.591232 245 166 181
11.743137 7.550500 48.591232 251 185 201
11.743137 7.655246 48.591232 254 196 214
11.723948 7.747313 48.511833 254 193 213
11.723948 7.851888 48.511833 252 185 207
11.723948 7.956463 48.511833 250 183 206
11.743137 8.074231 48.591232 251 191 214
11.743137 8.178978 48.591232 250 189 211
11.743137 8.283724 48.591232 246 173 195
11.743137 8.388471 48.591232 245 166 186
11.743137 8.493217 48.591232 248 169 187
11.743137 8.597963 48.591232 251 170 188
11.743137 8.702709 48.591232 252 175 192
11.743137 8.807456 48.591232 253 189 205
11.743137 8.912202 48.591232 254 201 217
11.762388 9.031731 48.670887 254 197 215
11.762388 9.136648 48.670887 252 181 199
11.723948 9.211365 48.511833 251 167 185
11.723948 9.315940 48.511833 250 160 180
11.743137 9.435934 48.591232 249 157 179
11.743137 9.540680 48.591232 247 153 176
11.743137 9.645427 48.591232 245 149 172
11.743137 9.750173 48.591232 245 149 171
11.762388 9.871075 48.670887 249 153 174
11.762388 9.975992 48.670887 247 151 172
11.762388 10.080911 48.670887 239 142 162
11.743137 10.169158 48.591232 233 136 153
11.743137 10.273904 48.591232 230 135 150
11.723948 10.361691 48.511833 227 135 148
11.723948 10.466267 48.511833 222 133 145
11.704823 10.553597 48.432693 219 133 144
11.723948 10.675418 48.511833 221 137 149
11.743137 10.797636 48.591232 227 144 157
11.743137 10.902382 48.591232 233 151 165
11.743137 11.007129 48.591232 238 157 172
11.743137 11.111875 48.591232 243 163 178
11.743137 11.216621 48.591232 244 164 178
11.743137 11.321367 48.591232 235 153 165
11.762388 11.444845 48.670887 216 131 143
11.781702 11.568728 48.750809 203 117 125
11.781702 11.673819 48.750809 208 124 130
11.762388 11.759599 48.670887 228 147 151
11.762388 11.864517 48.670887 236 159 163
11.743137 11.949845 48.591232 216 142 147
11.743137 12.054591 48.591232 185 115 121
11.723948 12.139470 48.511833 171 105 114
11.723948 12.244045 48.511833 182 118 131
11.723948 12.348620 48.511833 200 138 154
11.704823 12.432880 48.432693 211 149 168
11.685760 12.516866 48.353813 215 152 172
11.666759 12.600578 48.275192 209 145 165
11.685760 12.725334 48.353813 199 132 153
11.704823 12.850498 48.432693 190 122 141
11.743137 12.997309 48.591232 180 110 128
11.762388 13.123533 48.670887 176 104 121
11.762388 13.228452 48.670887 181 109 124
11.762388 13.333369 48.670887 187 114 127
11.762388 13.438288 48.670887 180 107 118
11.743137 13.521040 48.591232 164 94 103
11.743137 13.625787 48.591232 152 86 93
11.743137 13.730533 48.591232 141 79 86
11.723948 13.812673 48.511833 126 68 75
11.666759 13.849359 48.275192 112 58 65
11.591368 13.863256 47.963234 103 51 59
11.572672 13.944121 47.885876 97 45 53
11.572672 14.047347 47.885876 94 41 50
11.591368 14.173433 47.963234 95 40 49
11.591368 14.276826 47.963234 99 40 49
11.591368 14.380219 47.963234 98 33 43
11.610124 14.507048 48.040844 95 25 36
11.628942 14.634288 48.118706 98 23 34
11.685760 14.810025 48.353813 105 24 37
11.685760 14.914260 48.353813 111 26 40
11.723948 15.067575 48.511833 117 29 43
11.743137 15.196981 48.591232 121 31 45
11.781702 15.351979 48.750809 124 33 46
11.801080 15.482492 48.830990 127 34 47
11.801080 15.587756 48.830990 129 36 49
11.801080 15.693019 48.830990 131 37 50
11.801080 15.798282 48.830990 132 38 50
11.801080 15.903545 48.830990 133 38 50
11.859598 16.088190 49.073128 133 38 50
11.879232 16.220787 49.154373 134 38 50
11.879232 16.326748 49.154373 136 41 52
11.978392 16.569876 49.564678 139 44 55
11.978392 16.676720 49.564678 142 47 57
11.978392 16.783566 49.564678 142 47 57
12.018520 16.946995 49.730724 140 46 56
12.018520 17.054197 49.730724 141 46 56
12.018520 17.161400 49.730724 141 49 58
12.038686 17.297577 49.814163 142 49 58
12.166482 2.482950 49.897884 212 106 126
12.146069 2.586167 49.814163 214 110 132
12.125723 2.689038 49.730724 224 122 147
12.105446 2.791564 49.647564 240 155 181
12.085237 2.893749 49.564678 252 187 215
12.045019 2.990608 49.399738 252 185 214
12.025011 3.091953 49.317677 245 154 186
12.025011 3.198265 49.317677 242 136 169
12.045019 3.310076 49.399738 249 146 179
12.065094 3.422259 49.482071 254 156 190
12.085237 3.534817 49.564678 254 151 186
12.105446 3.647752 49.647564 254 143 179
12.105446 3.754775 49.647564 253 134 172
12.065094 3.848926 49.482071 247 121 161
12.025011 3.942451 49.317677 239 109 149
12.005069 4.042049 49.235889 238 106 145
11.985193 4.141317 49.154373 240 107 145
11.985193 4.247277 49.154373 244 111 148
11.965383 4.346042 49.073128 248 118 153
11.965383 4.451827 49.073128 248 120 154
11.945638 4.550092 48.992149 238 110 141
11.925959 4.648032 48.911438 230 100 130
11.906343 4.745650 48.830990 230 103 130
11.906343 4.850914 48.830990 235 108 135
11.906343 4.956177 48.830990 240 115 140
11.906343 5.061440 48.830990 248 126 149
11.906343 5.166703 48.830990 253 131 154
11.906343 5.271966 48.830990 254 128 149
11.906343 5.377229 48.830990 253 122 143
11.906343 5.482492 48.830990 250 117 138
11.925959 5.596961 48.911438 249 114 135
11.925959 5.702398 48.911438 246 111 134
11.925959 5.807834 48.911438 244 110 134
11.925959 5.913271 48.911438 244 112 137
11.906343 6.008808 48.830990 245 117 142
11.906343 6.114071 48.830990 245 122 147
11.906343 6.219335 48.830990 244 125 150
11.906343 6.324598 48.830990 244 128 153
11.906343 6.429861 48.830990 245 133 158
11.906343 6.535124 48.830990 248 141 164
11.886792 6.629484 48.750809 248 143 165
11.886792 6.734574 48.750809 238 134 154
11.886792 6.839664 48.750809 233 129 147
11.867306 6.933370 48.670887 239 137 153
11.867306 7.038288 48.670887 245 146 161
11.867306 7.143206 48.670887 245 149 163
11.867306 7.248124 48.670887 244 150 164
11.847883 7.341007 48.591232 243 152 166
11.828524 7.433588 48.511833 245 158 173
11.828524 7.538163 48.511833 249 171 187
11.828524 7.642738 48.511833 253 183 201
11.828524 7.747313 48.511833 254 187 208
11.828524 7.851888 48.511833 254 190 213
11.828524 7.956463 48.511833 253 196 219
11.847883 8.074231 48.591232 250 193 216
11.847883 8.178978 48.591232 244 178 201
11.847883 8.283724 48.591232 242 167 189
11.847883 8.388471 48.591232 245 166 187
11.867306 8.507140 48.670887 250 170 190
11.867306 8.612058 48.670887 251 172 191
11.847883 8.702709 48.591232 252 176 195
11.847883 8.807456 48.591232 253 188 207
11.886792 8.941470 48.750809 254 194 214
11.886792 9.046560 48.750809 253 187 207
11.867306 9.136648 48.670887 251 172 193
11.828524 9.211365 48.511833 249 162 183
11.828524 9.315940 48.511833 249 159 180
11.847883 9.435934 48.591232 248 157 179
11.847883 9.540680 48.591232 246 151 174
11.847883 9.645427 48.591232 244 148 170
11.847883 9.750173 48.591232 245 147 168
11.847883 9.854918 48.591232 245 149 169
11.867306 9.975992 48.670887 245 148 167
11.847883 10.064411 48.591232 239 142 159
11.847883 10.169158 48.591232 233 136 151
11.828524 10.257116 48.511833 230 134 148
11.809228 10.344789 48.432693 227 134 146
11.809228 10.449193 48.432693 224 133 144
11.809228 10.553597 48.432693 220 132 142
11.809228 10.658003 48.432693 220 135 144
11.828524 10.779993 48.511833 226 142 153
11.847883 10.902382 48.591232 234 152 164
11.847883 11.007129 48.591232 242 161 173
11.847883 11.111875 48.591232 246 166 179
11.847883 11.216621 48.591232 242 163 176
11.847883 11.321367 48.591232 227 146 159
11.867306 11.444845 48.670887 210 126 138
11.867306 11.549763 48.670887 202 116 127
11.867306 11.654681 48.670887 212 128 136
11.867306 11.759599 48.670887 232 152 158
11.867306 11.864517 48.670887 237 161 166
11.847883 11.949845 48.591232 213 139 144
11.828524 12.034895 48.511833 182 112 116
11.828524 12.139470 48.511833 175 108 115
11.828524 12.244045 48.511833 193 129 140
11.809228 12.328476 48.432693 212 149 164
11.789994 12.412631 48.353813 217 155 174
11.770823 12.496513 48.275192 214 152 173
11.770823 12.600578 48.275192 200 137 159
11.770823 12.704643 48.275192 188 124 146
11.809228 12.850498 48.432693 183 116 138
11.828524 12.976071 48.511833 176 107 128
11.847883 13.102055 48.591232 173 104 122
11.867306 13.228452 48.670887 178 108 124
11.867306 13.333369 48.670887 183 112 127
11.847883 13.416294 48.591232 178 107 119
11.847883 13.521040 48.591232 164 96 105
11.828524 13.603522 48.511833 152 87 95
11.809228 13.685735 48.432693 138 77 83
11.809228 13.790139 48.432693 123 66 72
11.713684 13.782128 48.040844 111 57 63
11.675898 13.840896 47.885876 102 49 56
11.657096 13.921667 47.808765 97 44 52
11.657096 14.024727 47.808765 97 43 51
11.675898 14.150574 47.885876 102 46 54
11.675898 14.253799 47.885876 108 47 55
11.675898 14.357025 47.885876 102 36 46
11.694760 14.483611 47.963234 96 26 36
11.694760 14.587004 47.963234 98 21 33
11.732669 14.738015 48.118706 105 23 36
11.770823 14.890009 48.275192 112 26 40
11.809228 15.042994 48.432693 118 29 43
11.847883 15.196981 48.591232 123 31 46
11.886792 15.351979 48.750809 126 33 47
11.906343 15.482492 48.830990 129 35 49
11.906343 15.587756 48.830990 134 39 52
11.906343 15.693019 48.830990 136 42 55
11.906343 15.798282 48.830990 137 42 55
11.925959 15.929746 48.911438 136 40 53
11.965383 16.088190 49.073128 134 38 51
11.965383 16.193975 49.073128 134 38 50
11.985193 16.326748 49.154373 136 40 52
12.065094 16.542259 49.482071 139 43 55
12.085237 16.676720 49.564678 142 46 56
12.085237 16.783566 49.564678 142 47 56
12.125723 16.946995 49.730724 140 46 55
12.146069 17.082811 49.814163 140 46 55
12.146069 17.190193 49.814163 141 48 57
12.166482 17.326649 49.897884 141 49 57
12.274045 2.482950 49.897884 210 108 128
12.253450 2.586167 49.814163 214 114 135
12.232925 2.689038 49.730724 229 135 157
12.212469 2.791564 49.647564 246 167 190
12.192081 2.893749 49.564678 253 180 204
12.151508 2.990608 49.399738 250 164 191
12.151508 3.097097 49.399738 245 144 171
12.151508 3.203587 49.399738 245 138 166
12.151508 3.310076 49.399738 250 149 177
12.192081 3.427972 49.564678 254 155 184
12.192081 3.534817 49.564678 254 148 179
12.212469 3.647752 49.647564 254 138 172
12.212469 3.754775 49.647564 252 131 165
12.171762 3.848926 49.482071 246 119 155
12.131323 3.942451 49.317677 240 108 146
12.111205 4.042049 49.235889 241 107 144
12.091153 4.141317 49.154373 241 107 144
12.071168 4.240257 49.073128 245 110 147
12.071168 4.346042 49.073128 249 116 151
12.051249 4.444481 48.992149 246 114 148
12.031395 4.542595 48.911438 236 105 136
12.031395 4.648032 48.911438 231 100 130
12.011606 4.745650 48.830990 231 103 131
12.011606 4.850914 48.830990 235 109 135
12.011606 4.956177 48.830990 244 118 144
12.011606 5.061440 48.830990 251 128 153
12.011606 5.166703 48.830990 254 130 154
12.011606 5.271966 48.830990 253 126 149
12.011606 5.377229 48.830990 251 120 142
12.011606 5.482492 48.830990 249 116 139
12.011606 5.587756 48.830990 250 118 140
12.011606 5.693019 48.830990 249 119 141
12.031395 5.807834 48.911438 246 115 139
12.011606 5.903545 48.830990 243 113 137
12.011606 6.008808 48.830990 244 117 141
12.011606 6.114071 48.830990 245 123 146
12.011606 6.219335 48.830990 245 126 150
12.011606 6.324598 48.830990 245 129 153
12.011606 6.429861 48.830990 246 136 159
12.011606 6.535124 48.830990 250 145 168
11.991883 6.629484 48.750809 251 148 170
11.991883 6.734574 48.750809 243 140 161
11.991883 6.839664 48.750809 237 132 151
11.972224 6.933370 48.670887 239 135 153
11.972224 7.038288 48.670887 243 141 157
11.972224 7.143206 48.670887 243 144 159
11.952629 7.236261 48.591232 243 146 161
11.933099 7.329012 48.511833 244 150 165
11.933099 7.433588 48.511833 245 155 171
11.933099 7.538163 48.511833 248 163 180
11.933099 7.642738 48.511833 252 173 191
11.933099 7.747313 48.511833 254 180 200
11.913632 7.839079 48.432693 254 192 214
11.913632 7.943484 48.432693 255 206 228
11.952629 8.074231 48.591232 249 195 217
11.952629 8.178978 48.591232 240 171 193
11.952629 8.283724 48.591232 240 162 184
11.952629 8.388471 48.591232 247 166 189
11.972224 8.507140 48.670887 251 171 193
11.972224 8.612058 48.670887 253 173 194
11.952629 8.702709 48.591232 253 175 197
11.952629 8.807456 48.591232 254 181 202
11.991883 8.941470 48.750809 254 184 205
11.991883 9.046560 48.750809 253 177 199
11.972224 9.136648 48.670887 250 166 188
11.933099 9.211365 48.511833 249 163 185
11.933099 9.315940 48.511833 251 166 187
11.933099 9.420515 48.511833 250 164 184
11.933099 9.525090 48.511833 247 154 174
11.933099 9.629665 48.511833 244 146 166
11.952629 9.750173 48.591232 243 144 164
11.952629 9.854918 48.591232 242 145 162
11.952629 9.959665 48.591232 242 143 160
11.933099 10.047966 48.511833 238 140 155
11.933099 10.152541 48.511833 234 137 150
11.913632 10.240384 48.432693 231 134 146
11.894229 10.327941 48.353813 228 134 144
11.874888 10.415212 48.275192 225 133 142
11.894229 10.536409 48.353813 222 132 140
11.913632 10.658003 48.432693 221 133 141
11.913632 10.762407 48.432693 227 142 150
11.933099 10.884568 48.511833 237 156 165
11.952629 11.007129 48.591232 245 166 176
11.952629 11.111875 48.591232 246 165 176
11.952629 11.216621 48.591232 237 155 168
11.952629 11.321367 48.591232 221 138 151
11.972224 11.444845 48.670887 207 123 136
11.972224 11.549763 48.670887 204 119 131
11.972224 11.654681 48.670887 215 130 141
11.972224 11.759599 48.670887 234 152 161
11.952629 11.845098 48.591232 237 158 164
11.952629 11.949845 48.591232 211 135 140
11.933099 12.034895 48.511833 183 109 113
11.913632 12.119666 48.432693 183 113 118
11.913632 12.224071 48.432693 208 141 150
11.913632 12.328476 48.432693 222 158 171
11.894229 12.412631 48.353813 219 155 173
11.855612 12.476227 48.196823 211 148 170
11.855612 12.580123 48.196823 193 129 153
11.874888 12.704643 48.275192 179 115 140
11.894229 12.829569 48.353813 175 110 134
11.913632 12.954903 48.432693 171 104 128
11.933099 13.080647 48.511833 168 101 122
11.952629 13.206801 48.591232 172 104 122
11.952629 13.311547 48.591232 178 109 125
11.933099 13.394372 48.511833 175 106 120
11.913632 13.476926 48.432693 163 96 107
11.913632 13.581330 48.432693 150 85 94
11.874888 13.641229 48.275192 135 74 81
11.817244 13.678569 48.040844 122 64 69
11.779123 13.737670 47.885876 111 55 61
11.760156 13.818608 47.808765 103 49 55
11.760156 13.921667 47.808765 100 45 52
11.741249 14.002179 47.731899 103 47 55
11.760156 14.127787 47.808765 112 54 62
11.760156 14.230846 47.808765 116 54 63
11.760156 14.333906 47.808765 106 40 49
11.779123 14.460251 47.885876 98 26 37
11.779123 14.563477 47.885876 99 21 33
11.798153 14.690396 47.963234 106 23 36
11.817244 14.817727 48.040844 113 27 41
11.894229 15.018495 48.353813 119 30 45
11.933099 15.172150 48.511833 124 32 47
11.991883 15.351979 48.750809 128 34 48
12.011606 15.482492 48.830990 132 37 51
12.011606 15.587756 48.830990 139 44 58
12.011606 15.693019 48.830990 144 49 63
12.011606 15.798282 48.830990 144 48 62
12.031395 15.929746 48.911438 139 43 56
12.071168 16.088190 49.073128 136 39 52
12.071168 16.193975 49.073128 135 39 52
12.091153 16.326748 49.154373 138 41 54
12.131323 16.487301 49.317677 140 44 56
12.151508 16.621223 49.399738 142 46 58
12.192081 16.783566 49.564678 143 47 58
12.232925 16.946995 49.730724 142 46 56
12.253450 17.082811 49.814163 141 46 56
12.253450 17.190193 49.814163 141 47 56
12.274045 17.326649 49.897884 141 48 58
12.340128 2.581835 49.730724 217 122 142
12.319492 2.684541 49.647564 235 149 170
12.319492 2.791564 49.647564 250 176 197
12.298926 2.893749 49.564678 251 171 191
12.278428 2.995592 49.482071 248 152 173
12.257998 3.097097 49.399738 248 144 166
12.257998 3.203587 49.399738 249 143 165
12.278428 3.315593 49.482071 251 146 169
12.298926 3.427972 49.564678 254 150 175
12.319492 3.540728 49.647564 254 143 171
12.319492 3.647752 49.647564 253 134 164
12.319492 3.754775 49.647564 250 127 158
12.298926 3.855351 49.564678 246 118 151
12.237636 3.942451 49.317677 242 111 145
12.217341 4.042049 49.235889 242 108 142
12.197114 4.141317 49.154373 240 105 140
12.176953 4.240257 49.073128 243 107 142
12.176953 4.346042 49.073128 248 113 147
12.156859 4.444481 48.992149 244 110 143
12.136831 4.542595 48.911438 235 102 133
12.136831 4.648032 48.911438 231 100 130
12.116870 4.745650 48.830990 229 101 129
12.116870 4.850914 48.830990 234 108 135
12.116870 4.956177 48.830990 245 120 147
12.116870 5.061440 48.830990 252 129 156
12.116870 5.166703 48.830990 254 130 157
12.116870 5.271966 48.830990 251 125 150
12.116870 5.377229 48.830990 245 115 140
12.116870 5.482492 48.830990 244 113 138
12.116870 5.587756 48.830990 249 122 145
12.116870 5.693019 48.830990 251 128 151
12.116870 5.798282 48.830990 246 122 144
12.116870 5.903545 48.830990 240 113 136
12.116870 6.008808 48.830990 242 115 138
12.116870 6.114071 48.830990 245 122 145
12.116870 6.219335 48.830990 244 125 147
12.116870 6.324598 48.830990 242 127 149
12.116870 6.429861 48.830990 244 134 156
12.116870 6.535124 48.830990 250 146 169
12.096973 6.629484 48.750809 253 152 175
12.096973 6.734574 48.750809 248 145 167
12.096973 6.839664 48.750809 243 136 157
12.077142 6.933370 48.670887 242 135 154
12.077142 7.038288 48.670887 242 137 154
12.077142 7.143206 48.670887 239 137 153
12.057376 7.236261 48.591232 238 140 155
12.037674 7.329012 48.511833 242 147 162
12.018037 7.421461 48.432693 246 154 171
12.018037 7.525866 48.432693 248 160 177
12.037674 7.642738 48.511833 250 166 184
12.018037 7.734674 48.432693 252 172 191
12.018037 7.839079 48.432693 254 189 209
12.018037 7.943484 48.432693 254 205 226
12.057376 8.074231 48.591232 249 191 212
12.057376 8.178978 48.591232 242 167 189
12.057376 8.283724 48.591232 243 161 183
12.057376 8.388471 48.591232 248 166 188
12.077142 8.507140 48.670887 251 169 192
12.077142 8.612058 48.670887 252 171 193
12.057376 8.702709 48.591232 253 172 194
12.057376 8.807456 48.591232 253 174 196
12.096973 8.941470 48.750809 253 175 198
12.096973 9.046560 48.750809 252 171 194
12.077142 9.136648 48.670887 250 166 188
12.037674 9.211365 48.511833 251 167 189
12.018037 9.300743 48.432693 253 173 194
12.018037 9.405148 48.432693 253 170 190
12.018037 9.509552 48.432693 250 159 178
12.037674 9.629665 48.511833 246 149 167
12.037674 9.734241 48.511833 244 145 162
12.037674 9.838816 48.511833 242 143 158
12.037674 9.943391 48.511833 240 141 156
12.037674 10.047966 48.511833 238 139 153
11.998464 10.119472 48.353813 235 137 149
11.998464 10.223706 48.353813 233 136 146
11.978954 10.311147 48.275192 230 134 143
11.959508 10.398304 48.196823 226 133 140
11.959508 10.502200 48.196823 223 131 138
11.978954 10.623343 48.275192 222 133 139
12.018037 10.762407 48.432693 228 142 148
12.018037 10.866812 48.432693 239 159 166
12.037674 10.989143 48.511833 246 169 178
12.037674 11.093719 48.511833 243 163 173
12.057376 11.216621 48.591232 232 147 161
12.057376 11.321367 48.591232 218 133 148
12.057376 11.426114 48.591232 207 121 137
12.077142 11.549763 48.670887 207 121 136
12.077142 11.654681 48.670887 218 132 146
12.077142 11.759599 48.670887 233 147 160
12.057376 11.845098 48.591232 232 149 160
12.057376 11.949845 48.591232 209 128 136
12.037674 12.034895 48.511833 187 110 115
12.037674 12.139470 48.511833 193 120 126
12.018037 12.224071 48.432693 218 150 157
12.018037 12.328476 48.432693 224 156 168
11.998464 12.412631 48.353813 212 145 162
11.978954 12.496513 48.275192 203 137 159
11.978954 12.600578 48.275192 185 119 145
11.978954 12.704643 48.275192 171 105 132
11.978954 12.808708 48.275192 168 102 129
11.998464 12.933804 48.353813 170 103 130
12.018037 13.059307 48.432693 172 105 130
12.037674 13.185222 48.511833 176 109 130
12.037674 13.289797 48.511833 178 111 129
12.018037 13.372521 48.432693 173 105 120
11.998464 13.454976 48.353813 160 93 105
11.978954 13.537164 48.275192 147 82 92
11.940125 13.597011 48.118706 134 71 79
11.901546 13.656471 47.963234 122 62 68
11.863215 13.715549 47.808765 111 54 59
11.863215 13.818608 47.808765 104 47 53
11.844143 13.899285 47.731899 103 46 52
11.844143 14.002179 47.731899 111 52 59
11.844143 14.105073 47.731899 122 62 69
11.844143 14.207967 47.731899 121 58 67
11.844143 14.310861 47.731899 109 41 50
11.863215 14.436965 47.808765 99 26 37
11.863215 14.540025 47.808765 100 22 34
11.882349 14.666702 47.885876 107 25 37
11.901546 14.793789 47.963234 115 28 43
11.959508 14.969733 48.196823 120 31 46
11.998464 15.122728 48.353813 124 33 48
12.077142 15.326812 48.670887 129 36 50
12.096973 15.457069 48.750809 134 39 53
12.116870 15.587756 48.830990 143 48 62
12.116870 15.693019 48.830990 150 55 69
12.116870 15.798282 48.830990 150 54 68
12.136831 15.929746 48.911438 143 46 59
12.156859 16.061644 48.992149 137 40 53
12.176953 16.193975 49.073128 138 40 54
12.176953 16.299761 49.073128 140 42 56
12.237636 16.487301 49.317677 142 44 59
12.237636 16.593615 49.317677 144 47 61
12.257998 16.727713 49.399738 145 48 61
12.319492 16.918655 49.647564 144 47 59
12.360833 17.082811 49.814163 141 46 56
12.360833 17.190193 49.814163 141 47 57
12.381608 17.326649 49.897884 142 48 59
12.447331 2.689038 49.730724 244 169 191
12.426517 2.791564 49.647564 252 183 204
12.405770 2.893749 49.564678 248 162 182
12.385095 2.995592 49.482071 245 144 164
12.385095 3.102259 49.482071 249 147 165
12.385095 3.208926 49.482071 251 145 164
12.385095 3.315593 49.482071 250 141 161
12.405770 3.427972 49.564678 252 143 164
12.426517 3.540728 49.647564 253 138 162
12.426517 3.647752 49.647564 251 130 156
12.426517 3.754775 49.647564 250 127 154
12.405770 3.855351 49.564678 248 123 151
12.343948 3.942451 49.317677 245 114 144
12.343948 4.048763 49.317677 241 106 138
12.303074 4.141317 49.154373 240 103 136
12.282739 4.240257 49.073128 244 106 140
12.282739 4.346042 49.073128 247 110 144
12.262469 4.444481 48.992149 242 105 138
12.242268 4.542595 48.911438 234 100 130
12.242268 4.648032 48.911438 230 98 127
12.222133 4.745650 48.830990 227 99 126
12.222133 4.850914 48.830990 234 108 135
12.222133 4.956177 48.830990 246 121 148
12.202064 5.053129 48.750809 252 128 156
12.202064 5.158219 48.750809 253 129 158
12.202064 5.263309 48.750809 249 124 152
12.222133 5.377229 48.830990 243 115 142
12.222133 5.482492 48.830990 242 114 140
12.222133 5.587756 48.830990 248 126 151
12.222133 5.693019 48.830990 251 135 159
12.222133 5.798282 48.830990 246 125 148
12.222133 5.903545 48.830990 238 112 134
12.202064 5.998941 48.750809 239 112 134
12.222133 6.114071 48.830990 243 119 141
12.222133 6.219335 48.830990 242 123 145
12.222133 6.324598 48.830990 241 127 149
12.222133 6.429861 48.830990 245 135 158
12.222133 6.535124 48.830990 251 144 168
12.222133 6.640387 48.830990 253 147 171
12.202064 6.734574 48.750809 252 143 166
12.202064 6.839664 48.750809 248 137 160
12.182060 6.933370 48.670887 244 135 156
12.182060 7.038288 48.670887 240 132 152
12.162122 7.131515 48.591232 234 129 148
12.142249 7.224437 48.511833 233 131 149
12.122441 7.317056 48.432693 240 142 159
12.122441 7.421461 48.432693 247 154 170
12.122441 7.525866 48.432693 249 158 176
12.122441 7.630270 48.432693 248 160 178
12.102698 7.722077 48.353813 250 165 183
12.102698 7.826312 48.353813 252 182 200
12.102698 7.930546 48.353813 254 194 213
12.142249 8.061038 48.511833 250 182 201
12.162122 8.178978 48.591232 244 164 184
12.162122 8.283724 48.591232 245 161 181
12.162122 8.388471 48.591232 248 164 185
12.162122 8.493217 48.591232 250 165 188
12.162122 8.597963 48.591232 250 166 188
12.162122 8.702709 48.591232 249 165 188
12.162122 8.807456 48.591232 249 166 189
12.202064 8.941470 48.750809 251 168 192
12.202064 9.046560 48.750809 252 168 191
12.182060 9.136648 48.670887 251 167 190
12.122441 9.196339 48.432693 252 171 194
12.122441 9.300743 48.432693 254 177 197
12.102698 9.389830 48.353813 254 172 190
12.122441 9.509552 48.432693 253 161 179
12.122441 9.613956 48.432693 251 156 172
12.142249 9.734241 48.511833 246 149 164
12.142249 9.838816 48.511833 241 142 155
12.142249 9.943391 48.511833 239 139 152
12.102698 10.015237 48.353813 237 138 150
12.083019 10.103017 48.275192 236 137 148
12.063404 10.190512 48.196823 234 137 146
12.024364 10.261093 48.040844 231 134 142
12.004938 10.347909 47.963234 226 131 138
12.024364 10.468213 48.040844 223 130 137
12.063404 10.606096 48.196823 224 133 138
12.083019 10.727407 48.275192 229 141 145
12.122441 10.866812 48.432693 238 154 159
12.122441 10.971216 48.432693 243 162 169
12.142249 11.093719 48.511833 241 157 167
12.142249 11.198294 48.511833 233 147 159
12.162122 11.321367 48.591232 219 133 148
12.162122 11.426114 48.591232 207 121 138
12.162122 11.530860 48.591232 207 121 140
12.182060 11.654681 48.670887 219 131 151
12.182060 11.759599 48.670887 230 142 160
12.182060 11.864517 48.670887 226 138 154
12.162122 11.949845 48.591232 207 121 134
12.162122 12.054591 48.591232 193 111 121
12.142249 12.139470 48.511833 204 127 136
12.142249 12.244045 48.511833 221 150 159
12.122441 12.328476 48.432693 216 145 156
12.102698 12.412631 48.353813 205 135 149
12.102698 12.516866 48.353813 197 130 148
12.083019 12.600578 48.275192 179 112 134
12.083019 12.704643 48.275192 163 98 122
12.102698 12.829569 48.353813 162 97 123
12.102698 12.933804 48.353813 170 106 131
12.122441 13.059307 48.432693 179 115 138
12.122441 13.163712 48.432693 185 120 141
12.122441 13.268117 48.432693 184 119 138
12.102698 13.350741 48.353813 174 108 124
12.083019 13.433099 48.275192 157 91 105
12.043852 13.493282 48.118706 144 78 90
12.024364 13.575008 48.040844 134 69 78
11.985576 13.634444 47.885876 123 60 67
11.966275 13.715549 47.808765 112 52 58
11.947037 13.796391 47.731899 105 45 51
11.927859 13.876975 47.655285 105 45 51
11.927859 13.979704 47.655285 117 55 62
11.927859 14.082433 47.655285 129 66 73
11.927859 14.185162 47.655285 125 59 67
11.927859 14.287890 47.655285 111 41 50
11.947037 14.413754 47.731899 101 27 37
11.947037 14.516648 47.731899 101 23 34
11.966275 14.643085 47.808765 107 26 38
11.966275 14.746144 47.808765 115 30 42
12.024364 14.921288 48.040844 120 32 46
12.063404 15.073629 48.196823 124 35 49
12.162122 15.301727 48.591232 129 37 51
12.202064 15.457069 48.750809 135 41 55
12.222133 15.587756 48.830990 144 49 63
12.222133 15.693019 48.830990 152 57 71
12.222133 15.798282 48.830990 153 57 71
12.242268 15.929746 48.911438 145 47 61
12.262469 16.061644 48.992149 137 39 53
12.262469 16.167253 48.992149 139 40 55
12.282739 16.299761 49.073128 142 43 58
12.323477 16.459959 49.235889 144 45 60
12.343948 16.593615 49.317677 145 46 62
12.343948 16.699926 49.317677 146 48 63
12.426517 16.918655 49.647564 145 47 61
12.468216 17.082811 49.814163 143 46 59
12.489171 17.219086 49.897884 143 47 59
12.489171 17.326649 49.897884 143 48 59
12.554534 2.689038 49.730724 251 190 215
12.533540 2.791564 49.647564 250 183 206
12.533540 2.898588 49.647564 243 150 173
12.512615 3.000593 49.564678 241 137 158
12.491761 3.102259 49.482071 248 144 163
12.491761 3.208926 49.482071 251 144 163
12.512615 3.321128 49.564678 250 139 157
12.533540 3.433705 49.647564 251 137 156
12.533540 3.540728 49.647564 251 133 155
12.554534 3.653862 49.730724 249 128 151
12.533540 3.754775 49.647564 251 130 154
12.491761 3.848926 49.482071 251 130 155
12.450260 3.942451 49.317677 246 116 143
12.450260 4.048763 49.317677 240 103 132
12.409034 4.141317 49.154373 241 102 133
12.388523 4.240257 49.073128 247 107 139
12.388523 4.346042 49.073128 247 108 140
12.368080 4.444481 48.992149 240 102 134
12.347705 4.542595 48.911438 234 98 128
12.347705 4.648032 48.911438 229 96 125
12.327395 4.745650 48.830990 228 99 126
12.327395 4.850914 48.830990 236 110 137
12.327395 4.956177 48.830990 246 122 150
12.307154 5.053129 48.750809 250 126 155
12.307154 5.158219 48.750809 250 126 156
12.307154 5.263309 48.750809 248 124 154
12.327395 5.377229 48.830990 247 122 151
12.327395 5.482492 48.830990 248 126 154
12.327395 5.587756 48.830990 251 136 162
12.327395 5.693019 48.830990 253 141 165
12.327395 5.798282 48.830990 247 128 152
12.307154 5.893851 48.750809 238 111 134
12.307154 5.998941 48.750809 237 109 130
12.307154 6.104032 48.750809 240 114 135
12.327395 6.219335 48.830990 241 122 142
12.327395 6.324598 48.830990 243 137 156
12.327395 6.429861 48.830990 248 147 167
12.327395 6.535124 48.830990 252 146 167
12.327395 6.640387 48.830990 253 140 163
12.307154 6.734574 48.750809 252 138 161
12.286978 6.828452 48.670887 250 136 159
12.286978 6.933370 48.670887 247 134 156
12.266869 7.026768 48.591232 241 131 152
12.246824 7.119862 48.511833 235 128 147
12.226846 7.212652 48.432693 233 130 147
12.187084 7.293261 48.275192 239 140 157
12.167299 7.385317 48.196823 248 152 169
12.187084 7.501391 48.275192 249 156 174
12.187084 7.605456 48.275192 247 156 173
12.187084 7.709521 48.275192 246 157 175
12.167299 7.800902 48.196823 249 169 186
12.187084 7.917651 48.275192 252 178 195
12.206933 8.034781 48.353813 250 171 188
12.246824 8.165613 48.511833 246 160 179
12.246824 8.270188 48.511833 246 159 178
12.266869 8.388471 48.591232 248 160 181
12.266869 8.493217 48.591232 248 161 183
12.286978 8.612058 48.670887 248 161 183
12.286978 8.716976 48.670887 247 159 183
12.307154 8.836380 48.750809 247 160 184
12.327395 8.956177 48.830990 250 164 187
12.307154 9.046560 48.750809 252 165 188
12.286978 9.136648 48.670887 253 166 188
12.226846 9.196339 48.432693 254 170 192
12.187084 9.270496 48.275192 254 174 194
12.187084 9.374561 48.275192 254 168 185
12.206933 9.494064 48.353813 253 160 176
12.226846 9.613956 48.432693 253 159 173
12.266869 9.750173 48.591232 247 150 164
12.266869 9.854918 48.591232 240 139 151
12.246824 9.943391 48.511833 238 137 148
12.187084 9.998952 48.275192 237 137 147
12.147579 10.070269 48.118706 236 136 146
12.127923 10.157533 48.040844 234 135 146
12.108331 10.244516 47.963234 229 132 141
12.088801 10.331219 47.885876 223 127 135
12.088801 10.434444 47.885876 220 126 133
12.127923 10.571773 48.040844 222 130 136
12.167299 10.709992 48.196823 227 137 142
12.187084 10.831472 48.275192 232 144 149
12.226846 10.971216 48.432693 237 150 156
12.226846 11.075621 48.432693 240 154 164
12.246824 11.198294 48.511833 236 151 163
12.266869 11.321367 48.591232 220 134 150
12.266869 11.426114 48.591232 206 118 138
12.266869 11.530860 48.591232 205 117 139
12.286978 11.654681 48.670887 217 129 153
12.286978 11.759599 48.670887 228 138 162
12.286978 11.864517 48.670887 221 131 153
12.266869 11.949845 48.591232 205 116 134
12.266869 12.054591 48.591232 200 114 129
12.266869 12.159338 48.591232 213 132 144
12.246824 12.244045 48.511833 217 141 152
12.246824 12.348620 48.511833 202 128 140
12.206933 12.412631 48.353813 200 128 142
12.206933 12.516866 48.353813 195 126 143
12.206933 12.621100 48.353813 174 106 126
12.206933 12.725334 48.353813 158 93 115
12.206933 12.829569 48.353813 161 97 121
12.206933 12.933804 48.353813 174 111 135
12.226846 13.059307 48.432693 185 121 145
12.226846 13.163712 48.432693 189 125 146
12.206933 13.246508 48.353813 186 122 141
12.187084 13.329033 48.275192 176 111 129
12.127923 13.367889 48.040844 158 92 107
12.127923 13.471449 48.040844 143 76 89
12.127923 13.575008 48.040844 132 66 77
12.069334 13.612489 47.808765 123 58 67
12.049931 13.693498 47.731899 113 49 56
12.049931 13.796391 47.731899 106 43 49
12.030588 13.876975 47.655285 107 43 50
12.030588 13.979704 47.655285 120 55 62
12.011309 14.059865 47.578915 132 65 72
12.030588 14.185162 47.655285 127 59 66
12.030588 14.287890 47.655285 114 43 51
12.030588 14.390618 47.655285 104 30 39
12.030588 14.493347 47.655285 102 26 35
12.049931 14.619542 47.731899 108 28 38
12.049931 14.722437 47.731899 115 31 43
12.088801 14.873154 47.885876 121 34 46
12.127923 15.024847 48.040844 125 37 50
12.246824 15.276725 48.511833 129 39 52
12.286978 15.431730 48.670887 134 42 56
12.327395 15.587756 48.830990 142 49 62
12.327395 15.693019 48.830990 150 55 69
12.327395 15.798282 48.830990 153 57 71
12.347705 15.929746 48.911438 147 48 63
12.347705 16.035181 48.911438 138 38 53
12.368080 16.167253 48.992149 139 39 55
12.388523 16.299761 49.073128 144 43 59
12.409034 16.432707 49.154373 146 46 62
12.429613 16.566095 49.235889 147 47 64
12.450260 16.699926 49.317677 147 47 64
12.491761 16.862259 49.482071 147 47 63
12.554534 17.054197 49.730724 146 47 62
12.596734 17.219086 49.897884 145 48 61
12.640563 2.791564 49.647564 244 169 196
12.640563 2.898588 49.647564 234 134 161
12.619460 3.000593 49.564678 239 130 155
12.619460 3.107438 49.564678 248 139 161
12.619460 3.214283 49.564678 251 140 161
12.640563 3.326681 49.647564 250 136 155
12.640563 3.433705 49.647564 249 133 152
12.661736 3.546659 49.730724 249 129 149
12.661736 3.653862 49.730724 249 127 147
12.661736 3.761065 49.730724 252 131 151
12.598428 3.848926 49.482071 252 130 151
12.577465 3.949011 49.399738 245 114 138
12.535749 4.042049 49.235889 240 101 128
12.514995 4.141317 49.154373 243 101 130
12.494308 4.240257 49.073128 247 105 136
12.494308 4.346042 49.073128 246 104 136
12.473691 4.444481 48.992149 241 101 132
12.453141 4.542595 48.911438 235 98 127
12.453141 4.648032 48.911438 229 96 123
12.432659 4.745650 48.830990 230 100 127
12.432659 4.850914 48.830990 239 112 138
12.432659 4.956177 48.830990 247 121 149
12.412244 5.053129 48.750809 248 124 154
12.412244 5.158219 48.750809 249 125 155
12.412244 5.263309 48.750809 249 126 157
12.432659 5.377229 48.830990 251 130 161
12.432659 5.482492 48.830990 253 137 166
12.432659 5.587756 48.830990 254 144 172
12.432659 5.693019 48.830990 254 145 171
12.432659 5.798282 48.830990 249 130 155
12.412244 5.893851 48.750809 240 112 136
12.412244 5.998941 48.750809 237 107 130
12.412244 6.104032 48.750809 238 111 133
12.412244 6.209122 48.750809 239 119 141
12.432659 6.324598 48.830990 244 137 158
12.432659 6.429861 48.830990 250 150 172
12.432659 6.535124 48.830990 251 143 166
12.432659 6.640387 48.830990 250 133 158
12.412244 6.734574 48.750809 250 132 158
12.391896 6.828452 48.670887 251 133 158
12.371614 6.922022 48.591232 249 134 157
12.351399 7.015287 48.511833 246 133 155
12.331250 7.108247 48.432693 242 132 153
12.291149 7.189196 48.275192 239 134 153
12.231483 7.257857 48.040844 242 140 159
12.251307 7.373348 48.118706 247 149 167
12.271195 7.489213 48.196823 248 153 170
12.291149 7.605456 48.275192 245 152 168
12.271195 7.697006 48.196823 244 152 169
12.251307 7.788259 48.118706 246 158 175
12.251307 7.891986 48.118706 249 163 180
12.311167 8.034781 48.353813 249 161 178
12.351399 8.165613 48.511833 248 158 175
12.351399 8.270188 48.511833 248 157 175
12.371614 8.388471 48.591232 248 158 178
12.371614 8.493217 48.591232 249 158 180
12.391896 8.612058 48.670887 248 159 181
12.432659 8.956177 48.830990 251 162 184
12.432659 9.061440 48.830990 252 163 185
12.391896 9.136648 48.670887 253 163 185
12.331250 9.196339 48.432693 253 164 185
12.291149 9.270496 48.275192 253 165 184
12.271195 9.359344 48.196823 253 161 178
12.291149 9.478627 48.275192 252 157 173
12.311167 9.598299 48.353813 252 156 169
12.371614 9.750173 48.591232 245 147 159
12.371614 9.854918 48.591232 237 136 148
12.351399 9.943391 48.511833 237 135 146
12.251307 9.966540 48.118706 238 137 148
12.231483 10.053973 48.040844 235 135 146
12.211723 10.141124 47.963234 230 131 143
12.192027 10.227993 47.885876 225 128 139
12.192027 10.331219 47.885876 220 124 134
12.192027 10.434444 47.885876 217 123 131
12.231483 10.571773 48.040844 220 127 134
12.271195 10.709992 48.196823 224 134 140
12.291149 10.831472 48.275192 227 139 145
12.311167 10.953347 48.353813 234 147 154
12.331250 11.075621 48.432693 243 161 170
12.351399 11.198294 48.511833 239 158 171
12.371614 11.321367 48.591232 220 135 153
12.371614 11.426114 48.591232 204 116 137
12.371614 11.530860 48.591232 202 113 138
12.391896 11.654681 48.670887 215 125 153
12.391896 11.759599 48.670887 225 135 163
12.391896 11.864517 48.670887 217 127 154
12.391896 11.969435 48.670887 203 113 136
12.371614 12.054591 48.591232 205 118 137
12.371614 12.159338 48.591232 218 135 151
12.371614 12.264084 48.591232 208 128 142
12.351399 12.348620 48.511833 189 112 124
12.311167 12.412631 48.353813 196 122 135
12.311167 12.516866 48.353813 191 120 134
12.311167 12.621100 48.353813 166 100 115
12.311167 12.725334 48.353813 153 89 107
12.311167 12.829569 48.353813 162 99 119
12.311167 12.933804 48.353813 178 115 136
12.311167 13.038038 48.353813 187 124 145
12.311167 13.142273 48.353813 186 123 143
12.291149 13.224968 48.275192 182 118 138
12.291149 13.329033 48.275192 176 110 130
12.231483 13.367889 48.040844 160 93 111
12.231483 13.471449 48.040844 142 75 91
12.211723 13.553079 47.963234 131 63 77
12.152824 13.590604 47.731899 123 55 67
12.152824 13.693498 47.731899 114 47 56
12.152824 13.796391 47.731899 108 41 49
12.133317 13.876975 47.655285 111 43 51
12.133317 13.979704 47.655285 124 56 63
12.113873 14.059865 47.578915 132 62 69
