ply
format ascii 1.0
element vertex 1194
property float x
property float y
property float z
property uchar red
property uchar green
property uchar blue
end_header
16.512444 20.826244 91.071297 93 61 73
12.816801 16.317513 70.688675 93 60 73
12.725903 16.353086 70.187332 92 59 73
12.606690 16.349779 69.529839 91 58 71
12.489691 16.346533 68.884552 90 56 69
12.489691 16.495024 68.884552 89 55 68
12.489691 16.643517 68.884552 89 54 67
12.460779 16.753138 68.725098 88 53 65
12.124002 16.444494 66.867661 87 52 63
12.042632 16.477304 66.418884 86 52 62
12.069633 16.657747 66.567810 85 52 61
12.290084 17.108118 67.783661 84 51 59
12.786358 17.950964 70.520767 82 51 57
12.940040 18.320566 71.368370 81 50 57
12.971221 18.518929 71.540344 81 50 57
13.129406 18.900867 72.412788 80 51 57
14.128757 20.507494 77.924522 79 51 57
14.470582 21.175686 79.809792 78 51 56
14.470582 21.347731 79.809792 77 51 55
14.431787 21.462078 79.595825 75 50 54
14.470582 21.691816 79.809792 73 48 52
14.431787 21.805243 79.595825 73 48 52
14.431787 21.976824 79.595825 75 50 54
14.316640 21.971689 78.960747 75 50 54
14.203316 21.966637 78.335732 74 50 53
14.203316 22.135502 78.335732 72 49 53
14.128757 22.187284 77.924522 71 49 52
14.203316 22.473234 78.335732 70 48 50
14.128757 22.523243 77.924522 69 48 50
14.165938 22.750935 78.129585 68 48 49
14.393200 23.287046 79.383003 68 47 49
14.470582 23.584290 79.809792 68 47 50
14.548801 23.884745 80.241196 68 46 50
14.588229 24.122915 80.458649 67 46 49
12.015752 20.583384 66.270630 64 46 49
12.290084 21.199442 67.783661 63 45 48
12.290084 21.345560 67.783661 62 45 47
12.403357 21.689758 68.408394 61 45 46
12.069633 21.249676 66.567810 60 45 46
11.380670 20.171999 62.767956 59 44 46
11.099086 19.804857 61.214931 59 44 45
11.099086 19.936815 61.214931 58 44 45
12.374843 22.375530 68.251129 57 43 44
12.290084 22.368391 67.783661 56 43 43
11.502257 21.071272 63.438553 55 42 42
11.502257 21.208025 63.438553 54 41 40
11.883127 22.051558 65.539169 53 41 39
11.935824 22.291254 65.829803 52 40 38
11.935824 22.433161 65.829803 52 40 38
11.988990 22.675625 66.123032 51 40 37
11.988990 22.818163 66.123032 52 39 37
11.883127 22.757959 65.539169 52 39 38
11.753399 22.649248 64.823669 52 39 38
11.727792 22.739336 64.682442 52 39 38
11.727792 22.878771 64.682442 53 39 39
11.909417 23.374680 65.684166 53 39 39
11.909417 23.516273 65.684166 53 39 39
11.909417 23.657866 65.684166 53 38 38
11.909417 23.799459 65.684166 53 38 38
12.290084 24.706291 67.783661 52 38 37
12.432001 25.139389 68.566376 52 37 37
12.460779 25.345730 68.725098 51 37 36
12.518737 25.612455 69.044746 50 36 36
12.518737 25.761292 69.044746 49 36 36
12.489691 25.850012 68.884552 48 36 36
12.460779 25.938322 68.725098 48 36 36
12.460779 26.086472 68.725098 47 36 36
12.460779 26.234619 68.725098 46 36 36
12.460779 26.382767 68.725098 45 37 37
12.403357 26.408653 68.408394 44 36 36
12.432001 26.617449 68.566376 43 35 35
12.403357 26.703585 68.408394 42 35 35
12.432001 26.913061 68.566376 42 35 35
12.432001 27.060867 68.566376 41 34 35
12.460779 27.271656 68.725098 42 34 35
12.460779 27.419804 68.725098 42 34 36
12.489691 27.631916 68.884552 43 34 36
12.460779 27.716101 68.725098 43 34 37
13.157142 -1.687547 71.713142 215 231 244
13.125438 -1.529264 71.540344 209 223 238
13.093886 -1.371742 71.368370 181 194 216
13.093886 -1.217896 71.368370 185 197 216
13.062486 -1.061498 71.197220 222 228 238
13.031236 -0.905848 71.026894 224 227 233
13.031236 -0.752738 71.026894 200 203 212
13.031236 -0.599628 71.026894 208 211 218
13.031236 -0.446518 71.026894 235 235 237
12.969182 -0.292011 70.688675 247 247 247
12.816604 -0.137987 69.857040 252 252 252
12.756573 0.012542 69.529839 254 254 254
12.756573 0.162425 69.529839 253 252 252
12.877202 0.315261 70.187332 247 247 245
12.846831 0.465461 70.021797 243 244 241
12.816604 0.614954 69.857040 248 248 246
12.756573 0.761957 69.529839 251 252 252
12.726768 0.909709 69.367386 245 249 249
12.697102 1.056773 69.205696 237 245 245
12.697102 1.205957 69.205696 235 245 245
12.726768 1.358307 69.367386 227 240 243
12.907717 1.529278 70.353653 224 239 243
12.907717 1.680937 70.353653 236 247 249
8.885900 1.261591 48.432693 244 250 251
8.842625 1.359343 48.196823 246 249 250
8.842625 1.463239 48.196823 250 252 252
8.857002 1.569684 48.275192 253 255 253
13.221011 2.964455 72.061264 164 171 166
13.188999 3.112241 71.886787 165 173 170
13.188999 3.267205 71.886787 209 214 217
13.157142 3.413902 71.713142 230 235 242
13.125438 3.559893 71.540344 225 230 241
13.125438 3.714110 71.540344 212 216 231
13.125438 3.868326 71.540344 193 197 215
13.125438 4.022543 71.540344 194 198 215
13.125438 4.176760 71.540344 218 221 235
13.125438 4.330977 71.540344 229 232 245
13.125438 4.485194 71.540344 213 215 231
13.125438 4.639411 71.540344 183 184 202
13.093886 4.782104 71.368370 172 171 188
13.093886 4.935951 71.368370 197 195 207
13.093886 5.089797 71.368370 225 222 229
13.093886 5.243643 71.368370 233 229 233
13.093886 5.397489 71.368370 232 228 231
13.093886 5.551335 71.368370 220 214 217
13.093886 5.705182 71.368370 190 184 189
13.093886 5.859027 71.368370 174 169 176
13.093886 6.012874 71.368370 188 181 191
13.093886 6.166720 71.368370 204 195 208
13.093886 6.320566 71.368370 209 199 213
13.093886 6.474412 71.368370 209 199 212
13.125438 6.644230 71.540344 212 201 213
13.157142 6.814868 71.713142 216 204 214
13.188999 6.986333 71.886787 204 192 200
16.357527 8.856923 89.156883 180 167 173
16.357527 9.049115 89.156883 169 154 159
16.357527 9.241307 89.156883 172 155 160
16.357527 9.433500 89.156883 172 155 160
16.708763 11.206612 91.071297 151 126 137
16.406797 11.196854 89.425430 136 109 122
18.217581 12.860721 99.295128 135 104 121
18.096533 12.987892 98.635353 135 102 120
16.357527 11.931998 89.156883 135 100 119
16.406797 12.160709 89.425430 137 100 119
16.406797 12.353480 89.425430 139 99 120
16.406797 12.546251 89.425430 139 97 118
17.628016 13.687235 96.081688 137 94 116
17.685249 13.939466 96.393646 135 90 111
17.571150 14.055985 95.771751 133 86 106
15.474593 12.560669 84.344437 133 86 104
15.047118 12.390485 82.014481 133 86 101
14.964441 12.498229 81.563850 129 81 95
14.801785 12.536292 80.677292 126 77 91
14.525484 12.472948 79.171310 125 76 90
14.111546 12.283304 76.915138 125 75 89
13.651771 12.043497 74.409126 124 74 88
13.549892 12.112824 73.853836 122 73 86
13.516270 12.241577 73.670578 120 72 83
13.449523 12.339149 73.306770 116 70 80
13.416396 12.466393 73.126213 111 67 76
13.350629 12.562146 72.767754 105 62 72
13.317986 12.687911 72.589836 99 59 68
13.317986 12.844390 72.589836 100 62 71
13.253180 12.937605 72.236603 106 70 79
13.221011 13.061543 72.061264 112 76 86
13.221011 13.216882 72.061264 113 76 88
13.188999 13.339844 71.886787 112 75 86
13.188999 13.494807 71.886787 112 73 85
13.125438 13.583989 71.540344 112 73 85
13.125438 13.738206 71.540344 113 73 84
13.157142 13.925980 71.713142 114 73 83
13.157142 14.080568 71.713142 114 72 83
18.847946 21.056593 102.730942 106 65 81
18.718409 21.131805 102.024887 106 65 82
18.654305 21.278614 101.675484 106 65 83
18.654305 21.497793 101.675484 106 64 83
13.000135 16.203712 70.857384 93 61 73
12.907717 16.240179 70.353653 93 61 73
12.786518 16.237925 69.693054 92 60 72
12.667574 16.235710 69.044746 91 58 71
12.638183 16.346533 68.884552 90 56 68
12.638183 16.495024 68.884552 88 55 67
12.608928 16.604990 68.725098 88 54 65
12.608928 16.753138 68.725098 87 53 63
12.379674 16.593990 67.475548 87 52 62
12.268146 16.588638 66.867661 86 51 61
12.436202 16.961998 67.783661 85 51 61
12.436202 17.108118 67.783661 84 51 60
12.521969 17.373232 68.251129 82 51 59
12.938376 18.102982 70.520767 81 51 58
13.031236 18.386019 71.026894 80 51 58
13.093886 18.628258 71.368370 79 50 57
14.682094 21.060257 80.024910 79 50 57
14.923443 21.581797 81.340393 77 50 56
14.801785 21.579771 80.677292 76 50 55
14.801785 21.753683 80.677292 75 50 54
14.682094 21.750284 80.024910 73 49 52
14.642626 21.863859 79.809792 73 49 52
14.642626 22.035902 79.809792 74 50 53
14.525484 22.030281 79.171310 74 50 54
14.486853 22.141903 78.960747 73 50 53
14.448426 22.252932 78.751305 71 50 52
14.448426 22.422693 78.751305 71 49 52
14.603369 22.834734 79.595825 70 49 50
14.334359 22.582514 78.129585 69 49 50
14.334359 22.750935 78.129585 68 48 49
14.296737 22.859201 77.924522 67 47 49
14.642626 23.584290 79.809792 67 47 49
14.721775 23.884745 80.241196 66 47 49
14.761671 24.122915 80.458649 66 46 49
12.240577 20.578327 66.717400 64 45 48
12.158608 20.583384 66.270630 64 46 49
12.185809 20.772608 66.418884 64 46 49
12.213132 20.962681 66.567810 63 46 48
12.295839 21.249109 67.018608 62 46 47
12.213132 21.249676 66.567810 61 45 46
11.688963 20.475012 63.710819 60 44 46
11.515976 20.307306 62.767956 59 44 46
11.764701 20.884136 64.123634 58 43 45
11.764701 21.022366 64.123634 57 43 44
11.739347 21.114990 63.985435 56 42 43
11.639009 21.071272 63.438553 55 42 42
11.639009 21.208025 63.438553 54 41 40
11.714100 21.482485 63.847832 53 40 39
11.893137 21.950558 64.823669 52 40 39
12.024407 22.334118 65.539169 51 39 38
12.024407 22.475399 65.539169 51 40 38
12.024407 22.616678 65.539169 51 39 37
11.945300 22.608236 65.107986 51 39 37
11.867226 22.599903 64.682442 51 39 38
11.841428 22.689903 64.541832 51 39 38
11.841428 22.829033 64.541832 51 39 38
11.867226 23.018204 64.682442 52 39 38
11.945300 23.309990 65.107986 52 39 38
11.919161 23.399027 64.965523 52 38 38
11.919161 23.539070 64.965523 51 38 37
12.579807 24.991583 68.566376 51 38 37
12.697102 25.373789 69.205696 51 38 37
12.756573 25.642519 69.529839 50 38 36
12.756573 25.792402 69.529839 49 38 36
12.756573 25.942284 69.529839 48 38 36
12.756573 26.092167 69.529839 48 37 36
12.697102 26.119709 69.205696 47 36 36
12.697102 26.268894 69.205696 46 36 36
12.697102 26.418077 69.205696 45 36 36
12.697102 26.567263 69.205696 44 36 36
12.697102 26.716446 69.205696 44 36 36
12.608928 26.679064 68.725098 43 36 36
12.608928 26.827211 68.725098 42 35 36
12.608928 26.975359 68.725098 42 35 36
12.608928 27.123508 68.725098 42 35 36
12.608928 27.271656 68.725098 41 34 35
12.608928 27.419804 68.725098 42 34 36
12.608928 27.567953 68.725098 43 34 36
12.608928 27.716101 68.725098 43 34 36
13.311731 -1.687547 71.713142 212 226 241
13.311731 -1.532958 71.713142 200 214 232
13.279655 -1.375047 71.540344 168 184 207
13.247732 -1.217896 71.368370 164 180 202
13.247732 -1.064049 71.368370 203 213 226
13.215963 -0.908020 71.197220 212 218 224
13.215963 -0.754543 71.197220 194 199 205
13.215963 -0.601066 71.197220 204 206 210
13.215963 -0.447589 71.197220 225 223 223
13.152880 -0.292708 70.857384 238 236 234
13.028502 -0.138640 70.187332 250 249 248
12.997775 0.012631 70.021797 254 254 254
13.028502 0.163961 70.187332 248 247 246
13.028502 0.315261 70.187332 232 233 228
13.028502 0.466561 70.187332 226 228 222
12.997775 0.616404 70.021797 241 242 239
12.936752 0.763745 69.693054 252 253 252
12.906456 0.911839 69.529839 246 250 249
12.876301 1.059242 69.367386 229 240 238
12.876301 1.208774 69.367386 221 235 234
12.876301 1.358307 69.367386 222 238 240
13.059376 1.529278 70.353653 224 242 245
13.059376 1.680937 70.353653 235 248 250
13.059376 1.832596 70.353653 244 248 250
8.990305 1.365996 48.432693 246 248 249
8.961068 1.465619 48.275192 251 252 252
13.376351 2.809115 72.061264 214 217 217
13.343963 2.957277 71.886787 159 165 164
13.311731 3.104723 71.713142 153 160 160
13.311731 3.259313 71.713142 201 207 210
13.311731 3.413902 71.713142 218 223 230
13.247732 3.551335 71.368370 194 202 214
13.247732 3.705181 71.368370 176 184 201
13.247732 3.859028 71.368370 177 182 200
13.279655 4.022543 71.540344 201 205 218
13.279655 4.176760 71.540344 231 233 240
13.279655 4.330977 71.540344 231 231 240
13.247732 4.474412 71.368370 202 200 215
13.247732 4.628258 71.368370 168 166 182
13.247732 4.782104 71.368370 158 154 169
13.247732 4.935951 71.368370 190 185 196
13.247732 5.089797 71.368370 230 225 232
13.247732 5.243643 71.368370 241 235 239
13.247732 5.397489 71.368370 225 219 222
13.247732 5.551335 71.368370 195 188 191
13.247732 5.705182 71.368370 172 166 168
13.247732 5.859027 71.368370 175 169 172
13.247732 6.012874 71.368370 191 184 189
13.247732 6.166720 71.368370 199 190 198
13.247732 6.320566 71.368370 204 194 203
13.247732 6.474412 71.368370 207 196 207
13.279655 6.644230 71.540344 207 195 206
16.599567 8.498058 89.425430 204 192 201
16.599567 8.690829 89.425430 187 175 182
16.599567 8.883601 89.425430 165 152 159
16.549719 9.049115 89.156883 161 147 152
16.700172 9.325319 89.967400 165 149 154
17.495419 10.582081 94.251564 165 145 150
17.330366 10.683508 93.362396 157 135 142
17.330366 10.884766 93.362396 150 126 133
17.330366 11.086023 93.362396 155 130 138
17.009434 11.078258 91.633461 157 130 140
16.599567 11.004083 89.425430 144 115 127
16.599567 11.196854 89.425430 133 103 116
16.599567 11.389625 89.425430 133 102 117
16.700172 11.652593 89.967400 135 102 118
18.309158 12.987892 98.635353 133 99 115
18.009989 12.984821 97.023666 133 96 113
18.009989 13.193973 97.023666 135 96 114
17.835135 13.272995 96.081688 136 97 115
17.835135 13.480115 96.081688 136 95 114
18.128475 13.912354 97.661980 135 93 111
18.128475 14.122880 97.661980 132 89 107
18.128475 14.333406 97.661980 130 86 102
18.069038 14.496247 97.341774 130 85 99
15.394013 12.528926 82.930847 131 85 97
15.223913 12.567281 82.014481 128 82 94
14.975698 12.536292 80.677292 126 80 91
14.696151 12.472948 79.171310 126 78 89
14.277349 12.283304 76.915138 125 77 88
13.812172 12.043497 74.409126 124 76 88
13.709096 12.112824 73.853836 122 75 86
13.675078 12.241577 73.670578 120 74 84
13.641230 12.369692 73.488220 116 72 82
13.574031 12.466393 73.126213 112 69 79
13.540680 12.593011 72.946541 105 64 75
13.507492 12.719008 72.767754 99 60 70
13.474466 12.844390 72.589836 100 63 74
13.441602 12.969160 72.412788 112 76 87
13.408897 13.093323 72.236603 122 86 98
13.376351 13.216882 72.061264 121 86 98
13.376351 13.372222 72.061264 114 78 90
13.343963 13.494807 71.886787 110 72 84
13.311731 13.616800 71.713142 110 71 82
13.311731 13.771390 71.713142 112 72 82
13.311731 13.925980 71.713142 112 72 82
13.311731 14.080568 71.713142 112 72 82
18.938339 21.131805 102.024887 107 64 83
18.938339 21.351736 102.024887 107 64 83
19.003643 21.646053 102.376694 106 63 83
13.184346 16.242477 71.026894 93 61 72
13.090396 16.278753 70.520767 93 61 73
12.997775 16.314518 70.021797 92 60 72
12.876301 16.311579 69.367386 90 58 69
12.816411 16.384548 69.044746 89 56 68
12.816411 16.533384 69.044746 88 54 66
12.786674 16.643517 68.884552 86 54 64
12.757075 16.753138 68.725098 86 53 63
12.611114 16.707907 67.938766 85 52 62
12.582321 16.815880 67.783661 85 52 61
12.669096 17.078978 68.251129 84 52 61
12.698287 17.265797 68.408394 83 52 61
12.757075 17.493879 68.725098 82 51 61
13.090396 18.102982 70.520767 81 51 60
13.121563 18.298466 70.688675 80 51 59
13.215963 18.583586 71.197220 79 50 57
14.854600 21.060257 80.024910 78 50 57
15.098785 21.581797 81.340393 77 50 55
14.935113 21.521288 80.458649 76 49 54
14.935113 21.694731 80.458649 75 49 53
14.894748 21.809069 80.241196 74 49 53
14.854600 21.922791 80.024910 73 49 52
14.657065 22.141903 78.960747 72 50 53
14.464716 22.019306 77.924522 71 50 52
14.464716 22.187284 77.924522 70 49 51
14.774951 22.834734 79.595825 69 49 51
14.464716 22.523243 77.924522 67 49 50
14.094774 22.110884 75.931564 66 48 49
13.743283 21.719091 74.038010 66 48 49
13.376351 21.294552 72.061264 66 48 50
13.028502 20.892094 70.187332 65 48 50
12.727613 20.557404 68.566376 65 47 50
12.669096 20.610012 68.251129 65 46 49
12.669096 20.757139 68.251129 64 45 48
12.496727 20.619854 67.322548 64 45 48
12.384397 20.578327 66.717400 63 45 48
12.356629 20.675684 66.567810 63 45 48
12.356629 20.819183 66.567810 63 45 48
12.356629 20.962681 66.567810 63 45 47
12.356629 21.106178 66.567810 62 45 46
12.192603 20.967600 65.684166 60 44 46
11.826302 20.475012 63.710819 59 43 46
11.826302 20.612350 63.710819 59 43 46
11.902930 20.884136 64.123634 58 43 45
11.902930 21.022366 64.123634 57 42 44
11.877277 21.114990 63.985435 56 42 43
11.877277 21.252922 63.985435 55 42 42
11.877277 21.390852 63.985435 54 41 41
11.877277 21.528784 63.985435 53 41 39
11.954570 21.807713 64.401825 52 40 39
12.032875 22.090296 64.823669 51 40 38
12.085650 22.327534 65.107986 50 39 37
12.085650 22.467884 65.107986 50 39 37
12.006660 22.460470 64.682442 50 38 37
12.006660 22.599903 64.682442 49 38 37
11.980557 22.689903 64.541832 49 38 37
11.980557 22.829033 64.541832 49 38 37
12.006660 23.018204 64.682442 50 38 38
12.006660 23.157637 64.682442 50 38 38
12.192603 23.657866 65.684166 50 38 37
12.301466 24.011953 66.270630 51 38 37
12.846286 25.224606 69.205696 51 38 37
12.906456 25.492636 69.529839 50 38 37
13.090396 26.007971 70.520767 50 38 37
13.090396 26.159988 70.520767 49 39 38
13.028502 26.187601 70.187332 48 39 38
12.936752 26.153416 69.693054 47 38 37
12.936752 26.303652 69.693054 46 36 36
12.936752 26.453886 69.693054 45 36 36
12.936752 26.604120 69.693054 44 36 36
13.028502 26.944103 70.187332 44 36 36
13.028502 27.095404 70.187332 43 36 36
12.876301 26.928400 69.367386 43 36 36
12.786674 26.889456 68.884552 43 36 36
12.786674 27.037949 68.884552 43 36 36
12.786674 27.186440 68.884552 42 35 36
12.786674 27.334932 68.884552 42 34 36
12.906456 27.740879 69.529839 42 34 36
12.786674 27.631916 68.884552 43 34 36
12.757075 27.716101 68.725098 43 34 36
13.466320 -1.687547 71.713142 188 199 213
13.466320 -1.532958 71.713142 180 191 209
13.433871 -1.375047 71.540344 171 184 203
13.401579 -1.217896 71.368370 167 181 199
13.401579 -1.064049 71.368370 181 193 204
13.401579 -0.910203 71.368370 176 185 190
13.401579 -0.756357 71.368370 159 166 168
13.401579 -0.602511 71.368370 172 177 175
13.401579 -0.448665 71.368370 196 197 192
13.369440 -0.294112 71.197220 218 218 214
13.242414 -0.139298 70.520767 243 242 241
13.179803 0.012661 70.187332 253 252 252
13.179803 0.163961 70.187332 242 243 240
13.179803 0.315261 70.187332 218 222 215
13.179803 0.466561 70.187332 214 219 211
13.179803 0.617862 70.187332 238 241 237
13.117781 0.765542 69.857040 249 252 251
13.086987 0.913980 69.693054 227 237 236
13.056338 1.061722 69.529839 193 214 211
13.056338 1.211605 69.529839 191 213 211
13.056338 1.361488 69.529839 221 237 237
13.211035 1.529278 70.353653 238 251 251
13.305624 1.692972 70.857384 242 252 253
13.337456 1.850133 71.026894 248 252 253
13.466320 2.022598 71.713142 250 251 252
13.466320 2.177187 71.713142 252 252 253
13.466320 2.331776 71.713142 253 254 254
13.498926 2.492386 71.886787 254 254 254
13.498926 2.647350 71.886787 250 251 251
13.498926 2.802314 71.886787 222 225 225
13.466320 2.950134 71.713142 169 174 176
13.466320 3.104723 71.713142 153 159 163
13.433871 3.251459 71.540344 193 198 202
13.401579 3.397489 71.368370 202 207 214
13.401579 3.551335 71.368370 162 168 180
13.401579 3.705181 71.368370 141 146 163
13.401579 3.859028 71.368370 167 169 186
13.401579 4.012874 71.368370 210 211 223
13.401579 4.166720 71.368370 233 233 240
13.401579 4.320566 71.368370 215 213 223
13.401579 4.474412 71.368370 178 173 188
13.401579 4.628258 71.368370 149 143 158
13.401579 4.782104 71.368370 151 146 157
13.401579 4.935951 71.368370 192 189 196
13.401579 5.089797 71.368370 236 233 237
13.401579 5.243643 71.368370 234 231 234
13.401579 5.397489 71.368370 192 187 190
13.401579 5.551335 71.368370 153 146 149
13.401579 5.705182 71.368370 158 151 152
13.401579 5.859027 71.368370 187 179 181
13.401579 6.012874 71.368370 195 187 190
13.401579 6.166720 71.368370 188 179 183
13.401579 6.320566 71.368370 191 180 187
13.401579 6.474412 71.368370 199 187 195
16.792339 8.305287 89.425430 202 190 199
16.792339 8.498058 89.425430 196 184 193
16.792339 8.690829 89.425430 175 163 171
16.641960 8.804047 88.624603 155 142 150
13.531691 7.313970 72.061264 154 139 147
16.894112 9.325319 89.967400 157 140 147
17.754957 10.411960 94.551727 160 140 145
17.531624 10.482250 93.362396 164 141 147
17.476667 10.650017 93.069725 157 133 139
17.476667 10.850644 93.069725 149 123 131
17.206964 10.880727 91.633461 150 121 131
17.101400 11.010293 91.071297 149 118 130
16.792339 11.004083 89.425430 141 109 123
16.792339 11.196854 89.425430 136 103 117
16.792339 11.389625 89.425430 135 102 117
16.894112 11.652593 89.967400 133 100 115
18.521782 12.987892 98.635353 130 96 111
18.399527 13.113384 97.984299 130 94 110
18.219139 13.193973 97.023666 132 94 110
18.219139 13.403123 97.023666 133 94 110
18.278873 13.656903 97.341774 133 93 109
18.339003 13.912354 97.661980 132 92 107
18.460453 14.216409 98.308746 131 89 103
18.460453 14.428329 98.308746 129 87 100
18.399527 14.591932 97.984299 129 86 97
15.616405 12.564021 83.163147 129 85 96
15.149611 12.362379 80.677292 128 83 93
15.149611 12.536292 80.677292 127 81 92
15.108555 12.675760 80.458649 126 79 89
14.827278 12.609988 78.960747 125 78 87
13.972573 12.043497 74.409126 124 78 87
13.868300 12.112824 73.853836 122 77 86
13.833887 12.241577 73.670578 119 75 84
13.799645 12.369692 73.488220 115 73 82
13.765572 12.497174 73.306770 111 70 79
13.731667 12.624028 73.126213 105 66 76
13.697927 12.750259 72.946541 101 63 74
13.664354 12.875872 72.767754 102 66 78
13.597699 12.969160 72.412788 114 80 92
13.597699 13.125257 72.412788 126 92 104
13.564614 13.249040 72.236603 125 91 103
13.531691 13.372222 72.061264 116 80 93
13.531691 13.527562 72.061264 109 72 84
13.498926 13.649771 71.886787 108 70 80
13.466320 13.771390 71.713142 110 70 80
13.466320 13.925980 71.713142 110 71 80
13.498926 14.114662 71.886787 110 70 79
19.224333 21.204674 102.376694 107 64 82
19.224333 21.425364 102.376694 106 64 83
19.290854 21.720953 102.730942 105 63 82
13.401579 16.320566 71.368370 93 61 71
13.305624 16.356457 70.857384 93 61 71
13.211035 16.391838 70.353653 92 60 70
13.056338 16.349779 69.529839 90 58 68
13.025833 16.461111 69.367386 88 56 66
13.025833 16.610643 69.367386 87 55 64
12.995470 16.721107 69.205696 85 54 62
12.935166 16.792007 68.884552 84 53 62
12.816222 16.784725 68.251129 84 52 62
12.816222 16.931852 68.251129 84 52 61
12.845753 17.118330 68.408394 83 52 61
12.905224 17.345730 68.725098 82 52 62
13.056338 17.698725 69.529839 81 52 62
13.273945 18.146084 70.688675 80 51 61
13.273945 18.298466 70.688675 79 51 59
13.401579 18.628258 71.368370 78 50 57
15.027107 21.060257 80.024910 77 50 56
15.027107 21.232763 80.024910 75 49 54
14.946532 21.290497 79.595825 74 48 53
14.671202 21.066725 78.129585 74 48 52
14.946532 21.633661 79.595825 73 48 51
14.946532 21.805243 79.595825 72 48 51
14.556284 21.737221 77.517601 71 49 52
14.185895 21.346960 75.545143 70 49 52
13.972573 21.186354 74.409126 69 49 51
13.937641 21.293388 74.223106 68 48 51
13.902884 21.399889 74.038010 67 48 50
13.868300 21.505859 73.853836 66 48 50
13.531691 21.139212 72.061264 65 48 49
13.179803 20.740793 70.187332 65 48 50
12.905224 20.456841 68.725098 65 48 50
12.875420 20.557404 68.566376 65 47 50
12.816222 20.610012 68.251129 65 46 49
12.816222 20.757139 68.251129 64 45 48
12.699446 20.713795 67.629250 64 45 48
12.584778 20.671232 67.018608 64 44 47
12.528217 20.722147 66.717400 64 45 47
12.528217 20.865967 66.717400 64 44 47
12.500127 20.962681 66.567810 63 45 46
12.472162 21.058960 66.418884 62 45 46
12.334196 20.967600 65.684166 60 44 46
12.015208 20.563267 63.985435 60 43 46
12.015208 20.701197 63.985435 59 43 45
12.041159 20.884136 64.123634 57 42 44
12.041159 21.022366 64.123634 57 42 43
12.041159 21.160595 64.123634 56 42 43
12.041159 21.298824 64.123634 56 42 42
12.015208 21.390852 63.985435 55 41 41
12.015208 21.528784 63.985435 53 41 39
12.067223 21.760509 64.262428 52 41 39
12.119688 21.994251 64.541832 51 40 38
12.119688 22.133381 64.541832 50 39 38
12.146093 22.321035 64.682442 49 39 38
12.146093 22.460470 64.682442 49 38 38
12.146093 22.599903 64.682442 48 38 37
12.119688 22.689903 64.541832 47 37 37
12.119688 22.829033 64.541832 47 37 36
12.146093 23.018204 64.682442 47 37 37
12.334196 23.516273 65.684166 48 37 37
12.389015 23.763012 65.976097 49 38 37
12.670584 24.448536 67.475548 49 38 37
13.025833 25.283541 69.367386 49 38 37
13.056338 25.492636 69.529839 49 38 37
13.305624 26.132113 70.857384 49 39 39
13.305624 26.284859 70.857384 49 40 39
13.273945 26.374657 70.688675 48 40 39
13.242414 26.464027 70.520767 47 38 38
13.242414 26.616047 70.520767 45 37 37
13.211035 26.704634 70.353653 44 36 36
13.211035 26.856293 70.353653 43 36 36
13.337456 27.266401 71.026894 43 36 36
13.273945 27.288942 70.688675 43 36 37
13.179803 27.246704 70.187332 43 36 37
13.056338 27.141348 69.529839 43 36 37
13.086987 27.355295 69.693054 43 36 36
13.086987 27.505529 69.693054 42 35 36
13.148719 27.786215 70.021797 42 34 36
13.179803 28.003204 70.187332 42 34 36
13.148719 28.088102 70.021797 42 34 35
13.620910 -1.687547 71.713142 153 158 170
13.620910 -1.532958 71.713142 146 154 167
13.588088 -1.375047 71.540344 150 160 173
13.555425 -1.217896 71.368370 149 160 172
13.555425 -1.064049 71.368370 147 158 166
13.555425 -0.910203 71.368370 141 152 155
13.555425 -0.756357 71.368370 139 149 148
13.555425 -0.602511 71.368370 163 171 167
13.555425 -0.448665 71.368370 193 199 192
13.555425 -0.294819 71.368370 211 215 211
13.458369 -0.139963 70.857384 229 231 230
13.426326 0.012751 70.688675 243 245 245
13.394434 0.164740 70.520767 237 241 238
13.362694 0.316008 70.353653 216 223 217
13.362694 0.467667 70.353653 216 222 217
13.394434 0.620797 70.520767 240 243 241
13.394434 0.772816 70.520767 243 248 247
13.331103 0.920462 70.187332 203 219 217
13.237222 1.064215 69.693054 160 186 182
13.237222 1.214449 69.693054 174 197 194
13.362694 1.377620 70.353653 225 237 236
13.426326 1.536561 70.688675 249 254 254
13.490566 1.697023 71.026894 250 254 254
13.555425 1.859028 71.368370 252 254 254
13.620910 2.022598 71.713142 249 251 254
13.620910 2.177187 71.713142 246 250 254
13.620910 2.331776 71.713142 250 252 254
13.653891 2.492386 71.886787 253 254 254
13.653891 2.647350 71.886787 251 252 252
13.620910 2.795545 71.713142 226 230 233
13.620910 2.950134 71.713142 179 184 192
13.588088 3.097242 71.540344 163 168 178
13.555425 3.243643 71.368370 196 199 207
13.555425 3.397489 71.368370 200 201 209
13.555425 3.551335 71.368370 148 149 162
13.555425 3.705181 71.368370 125 125 141
13.555425 3.859028 71.368370 171 169 183
13.555425 4.012874 71.368370 221 220 230
13.555425 4.166720 71.368370 225 223 231
13.555425 4.320566 71.368370 194 190 201
13.555425 4.474412 71.368370 160 154 168
13.555425 4.628258 71.368370 141 135 147
13.555425 4.782104 71.368370 155 151 161
13.555425 4.935951 71.368370 203 201 207
13.555425 5.089797 71.368370 236 235 237
13.555425 5.243643 71.368370 213 210 213
13.555425 5.397489 71.368370 157 152 156
13.555425 5.551335 71.368370 131 124 128
13.555425 5.705182 71.368370 160 152 155
13.555425 5.859027 71.368370 196 186 189
13.555425 6.012874 71.368370 196 185 188
13.555425 6.166720 71.368370 184 172 175
13.555425 6.320566 71.368370 188 174 178
13.555425 6.474412 71.368370 196 182 188
16.985111 8.498058 89.425430 191 176 185
16.833004 8.613002 88.624603 169 155 165
13.620910 7.124047 71.713142 152 137 147
13.653891 7.296260 71.886787 151 134 144
13.687031 7.469309 72.061264 151 133 142
17.567154 9.786154 92.489853 148 129 136
17.901768 10.378906 94.251564 158 135 142
17.677294 10.449390 93.069725 161 136 143
17.677294 10.650017 93.069725 155 128 136
17.458380 10.716270 91.917160 148 119 129
17.297720 10.813973 91.071297 146 115 127
17.139990 10.909895 90.240860 143 111 125
16.985111 11.004083 89.425430 140 107 123
16.985111 11.196854 89.425430 139 106 122
16.985111 11.389625 89.425430 136 102 119
18.734407 12.775268 98.635353 131 97 113
18.610748 12.902164 97.984299 129 94 110
18.549528 13.070249 97.661980 130 95 109
18.428289 13.193973 97.023666 131 95 108
18.428289 13.403123 97.023666 131 93 106
18.488710 13.656903 97.341774 131 92 105
18.610748 13.958269 97.984299 130 91 103
18.672373 14.216409 98.308746 130 89 101
18.610748 14.380712 97.984299 129 88 99
18.428289 14.448874 97.023666 129 87 97
17.845116 14.194163 93.953300 129 86 95
15.751554 12.707697 82.930847 128 85 94
14.571206 12.416939 76.716385 124 79 86
14.027504 12.112824 73.853836 121 77 85
13.992697 12.241577 73.670578 117 74 83
13.958061 12.369692 73.488220 113 72 82
13.923596 12.497174 73.306770 110 71 80
13.923596 12.655199 73.306770 106 69 79
13.889302 12.781664 73.126213 104 67 78
13.855176 12.907507 72.946541 104 69 81
13.821218 13.032734 72.767754 111 76 88
13.753797 13.125257 72.412788 119 84 97
13.753797 13.281355 72.412788 120 85 98
13.720332 13.404757 72.236603 114 79 91
13.720332 13.560475 72.236603 109 72 84
13.687031 13.682901 72.061264 108 70 80
13.687031 13.838242 72.061264 108 70 79
13.653891 13.959699 71.886787 108 70 79
13.687031 14.148921 72.061264 108 69 78
19.512306 21.499500 102.730942 105 63 80
13.555425 16.166719 71.368370 94 60 71
13.555425 16.320566 71.368370 93 60 70
13.490566 16.395588 71.026894 93 60 69
13.426326 16.469894 70.688675 91 59 68
13.237222 16.388159 69.693054 90 58 67
13.206222 16.499662 69.529839 88 56 65
13.206222 16.649544 69.529839 86 55 62
13.206222 16.799427 69.529839 84 54 61
13.144654 16.870293 69.205696 83 53 61
12.993218 16.823400 68.408394 83 53 61
12.993218 16.970865 68.408394 82 53 61
13.053371 17.197582 68.725098 81 53 61
13.206222 17.548841 69.529839 80 53 62
13.394434 17.950964 70.520767 79 52 62
13.426326 18.146084 70.688675 79 51 61
13.426326 18.298466 70.688675 78 50 59
13.588088 18.673145 71.540344 76 50 57
15.118114 20.947334 79.595825 75 48 55
15.077691 21.062449 79.383003 74 48 53
14.571206 20.520298 76.716385 73 47 52
14.533651 20.632359 76.518669 72 47 51
14.422140 20.637737 75.931564 72 47 50
14.533651 20.962255 76.518669 72 48 51
14.533651 21.127205 76.518669 72 48 51
14.533651 21.292152 76.518669 71 48 51
14.276093 21.076849 75.162636 70 48 51
14.132974 21.025953 74.409126 69 48 51
14.027504 21.028248 73.853836 68 48 50
13.958061 21.082563 73.488220 67 48 50
13.889302 21.136343 73.126213 66 47 50
13.855176 21.241659 72.946541 65 48 50
13.555425 20.935951 71.368370 65 48 49
13.206222 20.546499 69.529839 64 48 49
13.053371 20.456841 68.725098 64 47 49
13.053371 20.604990 68.725098 64 47 49
12.993218 20.657501 68.408394 64 46 48
12.993218 20.804966 68.408394 64 45 48
12.933616 20.856319 68.094589 64 45 48
12.786977 20.764978 67.322548 64 44 47
12.729247 20.815701 67.018608 64 44 47
12.700578 20.912962 66.867661 64 44 46
12.672037 21.009789 66.717400 64 44 46
12.643624 21.106178 66.567810 63 44 46
12.531237 21.060789 65.976097 61 43 45
12.285526 20.787268 64.682442 60 43 45
12.285526 20.926701 64.682442 59 42 44
12.179388 20.884136 64.123634 57 41 43
12.179388 21.022366 64.123634 56 41 43
12.179388 21.160595 64.123634 56 42 42
12.179388 21.298824 64.123634 56 42 42
12.179388 21.437054 64.123634 55 41 40
12.179388 21.575281 64.123634 54 41 40
12.205750 21.760509 64.262428 52 41 39
12.232227 21.946541 64.401825 51 40 39
12.232227 22.085369 64.401825 50 39 39
12.258819 22.272512 64.541832 49 39 39
12.285526 22.460470 64.682442 49 38 38
12.285526 22.599903 64.682442 48 37 38
12.258819 22.689903 64.541832 47 37 37
12.258819 22.829033 64.541832 46 36 36
12.312350 23.068462 64.823669 46 36 36
12.531237 23.620790 65.976097 47 36 36
12.587180 23.869097 66.270630 47 37 37
12.933616 24.672834 68.094589 48 38 37
13.175366 25.283541 69.367386 48 38 37
13.206222 25.492636 69.529839 48 38 38
13.490566 26.194630 71.026894 48 39 39
13.490566 26.347740 71.026894 48 39 40
13.458369 26.437603 70.857384 47 39 40
13.458369 26.590347 70.857384 46 38 39
13.458369 26.743092 70.857384 45 37 38
13.458369 26.895836 70.857384 44 36 37
13.490566 27.113291 71.026894 44 36 37
13.555425 27.397490 71.368370 43 36 37
13.522918 27.485266 71.197220 43 36 37
13.426326 27.441322 70.688675 43 36 37
13.299662 27.333385 70.021797 43 36 37
13.299662 27.484329 70.021797 43 35 37
13.331103 27.700603 70.187332 43 35 36
13.362694 27.917904 70.353653 42 34 36
13.362694 28.069563 70.353653 42 34 36
13.362694 28.221222 70.353653 42 34 36
13.775499 -1.532958 71.713142 129 128 139
13.742305 -1.375047 71.540344 128 131 141
13.709270 -1.217896 71.368370 122 128 137
13.709270 -1.064049 71.368370 121 129 134
13.709270 -0.910203 71.368370 137 146 149
13.709270 -0.756357 71.368370 167 175 175
13.709270 -0.602511 71.368370 201 207 205
13.709270 -0.448665 71.368370 222 226 224
13.709270 -0.294819 71.368370 211 216 215
13.643676 -0.140298 71.026894 199 206 206
13.611114 0.012782 70.857384 217 223 224
13.611114 0.165526 70.857384 225 232 233
13.578707 0.317513 70.688675 209 219 219
13.578707 0.469894 70.688675 214 223 222
13.611114 0.623760 70.857384 240 244 244
13.611114 0.776505 70.857384 240 246 246
13.546453 0.924835 70.520767 199 215 212
13.514352 1.074302 70.353653 162 185 180
13.514352 1.225961 70.353653 185 203 199
13.611114 1.387483 70.857384 232 239 239
13.643676 1.543913 71.026894 249 251 253
13.709270 1.705181 71.368370 249 250 252
13.775499 1.868008 71.713142 247 248 251
13.775499 2.022598 71.713142 242 246 251
13.775499 2.177187 71.713142 241 246 252
13.775499 2.331776 71.713142 247 251 254
13.775499 2.486366 71.713142 251 253 254
13.808854 2.647350 71.886787 245 248 251
13.808854 2.802314 71.886787 219 224 233
13.775499 2.950134 71.713142 179 185 201
13.709270 3.089797 71.368370 173 177 194
13.709270 3.243643 71.368370 207 208 220
13.709270 3.397489 71.368370 209 207 216
13.709270 3.551335 71.368370 155 151 163
13.709270 3.705181 71.368370 134 129 143
13.709270 3.859028 71.368370 187 183 193
13.709270 4.012874 71.368370 230 227 233
13.709270 4.166720 71.368370 214 209 217
13.709270 4.320566 71.368370 174 168 179
13.709270 4.474412 71.368370 148 142 154
13.709270 4.628258 71.368370 142 137 148
13.709270 4.782104 71.368370 168 164 172
13.709270 4.935951 71.368370 215 212 218
13.709270 5.089797 71.368370 229 227 230
13.709270 5.243643 71.368370 188 185 190
13.709270 5.397489 71.368370 139 135 140
13.676394 5.538023 71.197220 139 132 138
13.676394 5.691500 71.197220 177 169 174
13.709270 5.859027 71.368370 200 189 194
13.709270 6.012874 71.368370 192 179 183
13.676394 6.151932 71.197220 182 166 170
13.676394 6.305409 71.197220 185 169 173
13.676394 6.458886 71.197220 191 174 179
17.024050 8.421957 88.624603 177 159 168
13.742305 6.952664 71.540344 161 144 155
13.742305 7.106881 71.540344 152 134 146
13.775499 7.278636 71.713142 151 132 143
13.808854 7.451224 71.886787 148 129 139
13.808854 7.606187 71.886787 148 126 136
13.808854 7.761151 71.886787 153 130 139
17.822052 10.216736 92.778885 157 132 140
17.822052 10.416736 92.778885 156 129 137
17.281990 10.295016 89.967400 151 122 132
17.177881 10.425770 89.425430 147 116 127
17.281990 10.682896 89.967400 144 112 125
17.177881 10.811312 89.425430 140 107 123
17.177881 11.004083 89.425430 139 106 124
17.177881 11.196854 89.425430 139 105 125
18.947033 12.987892 98.635353 129 95 111
18.760056 13.070249 97.661980 131 95 110
18.637440 13.193973 97.023666 131 95 107
18.637440 13.403123 97.023666 131 92 104
18.698545 13.656903 97.341774 130 90 101
18.760056 13.912354 97.661980 129 88 98
18.821970 14.169490 97.984299 128 88 97
18.760056 14.333406 97.661980 129 87 96
18.637440 14.448874 97.023666 130 87 96
18.576733 14.610278 96.707626 130 87 96
14.186708 12.112824 73.853836 119 77 83
14.186708 12.272029 73.853836 115 74 82
14.151505 12.400386 73.670578 112 72 81
14.116477 12.528108 73.488220 109 71 80
14.081621 12.655199 73.306770 107 70 80
14.081621 12.813224 73.306770 106 70 81
14.046938 12.939300 73.126213 106 71 82
14.046938 13.096934 73.126213 108 74 86
13.978080 13.189597 72.767754 111 77 89
13.943904 13.313828 72.589836 112 77 89
13.943904 13.470306 72.589836 109 74 86
13.909894 13.593550 72.412788 107 72 83
13.909894 13.749647 72.412788 106 70 80
13.909894 13.905746 72.412788 106 70 79
13.876050 14.027629 72.236603 106 69 78
13.943904 14.252703 72.589836 106 68 77
18.884293 21.633627 98.308746 96 60 73
13.978080 16.169989 72.767754 95 59 72
13.775499 16.090231 71.713142 94 60 71
13.709270 16.166719 71.368370 93 60 70
13.709270 16.320566 71.368370 93 60 70
13.709270 16.474413 71.368370 92 59 69
13.578707 16.469894 70.688675 91 59 67
13.450605 16.465462 70.021797 89 58 66
13.387457 16.538393 69.693054 88 57 64
13.387457 16.688627 69.693054 86 55 62
13.387457 16.838863 69.693054 84 54 61
13.356105 16.949310 69.529839 82 53 60
13.201520 16.901285 68.725098 81 53 60
13.201520 17.049435 68.725098 80 54 61
13.262922 17.277571 69.044746 80 53 61
13.387457 17.590036 69.693054 79 53 61
13.546453 17.950964 70.520767 78 52 61
13.709270 18.320566 71.368370 77 51 60
13.709270 18.474413 71.368370 76 50 58
15.582122 21.173101 81.118149 75 49 56
15.582122 21.347965 81.118149 75 49 55
15.248815 21.062449 79.383003 74 48 53
14.698600 20.467411 76.518669 73 48 52
14.585823 20.474054 75.931564 72 47 51
14.365382 20.325832 74.783989 72 47 50
14.438118 20.590773 75.162636 72 47 50
14.365382 20.648251 74.783989 71 47 50
14.365382 20.809460 74.783989 70 47 50
14.293375 20.865553 74.409126 69 47 50
14.186708 20.869043 73.853836 68 48 49
14.046938 20.821074 73.126213 67 48 49
14.012424 20.927164 72.946541 66 48 49
13.943904 20.981310 72.589836 65 48 49
13.842370 20.983873 72.061264 65 48 50
13.643676 20.835779 71.026894 64 48 49
13.356105 20.546499 69.529839 64 48 49
13.201520 20.456841 68.725098 64 47 49
13.201520 20.604990 68.725098 64 46 48
13.171032 20.705210 68.566376 64 45 48
13.171032 20.853014 68.566376 64 45 48
13.140683 20.952433 68.408394 64 44 48
13.050473 20.955048 67.938766 64 44 47
12.991017 21.005365 67.629250 64 44 47
12.932101 21.055227 67.322548 64 43 46
12.873717 21.104639 67.018608 63 43 45
12.815858 21.153608 66.717400 63 44 46
12.787123 21.249676 66.567810 62 43 45
12.730037 21.297668 66.270630 61 42 45
12.673459 21.345234 65.976097 58 41 43
12.617382 21.392380 65.684166 56 40 42
12.561799 21.439110 65.394806 56 40 42
12.371056 21.252398 64.401825 56 41 42
12.397949 21.437729 64.541832 56 41 41
12.371056 21.530056 64.401825 55 41 40
12.371056 21.668884 64.401825 55 41 40
12.371056 21.807713 64.401825 53 40 40
12.397949 21.994251 64.541832 52 40 39
12.397949 22.133381 64.541832 51 39 40
12.397949 22.272512 64.541832 50 39 39
12.424960 22.460470 64.682442 50 39 39
12.424960 22.599903 64.682442 49 38 38
12.424960 22.739336 64.682442 48 37 38
12.424960 22.878771 64.682442 46 36 37
12.452088 23.068462 64.823669 46 36 36
12.673459 23.620790 65.976097 46 36 36
12.730037 23.869097 66.270630 47 37 36
13.262922 25.017105 69.044746 47 37 37
13.293839 25.224606 69.205696 47 37 37
13.324899 25.433073 69.367386 47 38 38
13.546453 26.007971 70.520767 47 38 39
13.578707 26.222275 70.688675 47 39 40
13.611114 26.437603 70.857384 47 39 40
13.611114 26.590347 70.857384 46 37 39
13.611114 26.743092 70.857384 45 37 39
13.643676 26.960180 71.026894 45 36 39
13.709270 27.243643 71.368370 44 36 38
13.709270 27.397490 71.368370 43 36 37
13.709270 27.551334 71.368370 43 36 37
13.578707 27.441322 70.688675 43 36 37
13.450605 27.333385 70.021797 43 36 37
13.450605 27.484329 70.021797 43 35 37
13.514352 27.766245 70.353653 43 35 36
13.546453 28.288256 70.520767 42 34 36
13.930088 -1.532958 71.713142 133 125 134
13.896522 -1.375047 71.540344 133 130 137
13.863117 -1.217896 71.368370 121 121 128
13.863117 -1.064049 71.368370 118 121 126
13.863117 -0.910203 71.368370 148 153 157
13.863117 -0.756357 71.368370 195 200 202
13.863117 -0.602511 71.368370 227 229 230
13.863117 -0.448665 71.368370 232 233 236
13.863117 -0.294819 71.368370 199 205 209
13.796786 -0.140298 71.026894 167 178 182
13.796786 0.012812 71.026894 182 193 199
13.796786 0.165922 71.026894 195 205 213
13.763859 0.318271 70.857384 181 194 200
13.763859 0.471015 70.857384 196 207 210
13.829872 0.626752 71.197220 232 238 239
13.829872 0.780229 71.197220 240 246 246
13.763859 0.929249 70.857384 219 230 227
13.763859 1.081994 70.857384 203 217 212
13.763859 1.234739 70.857384 216 227 223
13.829872 1.394138 71.197220 232 237 239
13.863117 1.551335 71.368370 231 234 240
13.896522 1.709290 71.540344 227 230 238
13.930088 1.868008 71.713142 225 228 237
13.963818 2.027495 71.886787 230 233 241
13.963818 2.182459 71.886787 241 245 250
13.930088 2.331776 71.713142 249 252 254
13.963818 2.492386 71.886787 246 250 253
13.963818 2.647350 71.886787 233 240 247
13.963818 2.802314 71.886787 209 217 232
13.930088 2.950134 71.713142 186 193 214
13.863117 3.089797 71.368370 193 196 216
13.863117 3.243643 71.368370 221 220 234
13.863117 3.397489 71.368370 216 210 223
13.863117 3.551335 71.368370 169 158 173
13.863117 3.705181 71.368370 152 140 155
13.863117 3.859028 71.368370 196 187 197
13.863117 4.012874 71.368370 227 220 227
13.863117 4.166720 71.368370 202 194 202
13.863117 4.320566 71.368370 162 153 164
13.863117 4.474412 71.368370 143 135 147
13.863117 4.628258 71.368370 148 141 153
13.863117 4.782104 71.368370 175 170 180
13.863117 4.935951 71.368370 208 205 213
13.863117 5.089797 71.368370 207 205 212
13.863117 5.243643 71.368370 170 167 175
13.829872 5.384545 71.197220 142 137 145
13.829872 5.538023 71.197220 155 148 156
13.829872 5.691500 71.197220 188 178 186
13.863117 5.859027 71.368370 199 185 194
13.863117 6.012874 71.368370 186 169 178
13.829872 6.151932 71.197220 177 158 166
13.829872 6.305409 71.197220 181 160 168
13.829872 6.458886 71.197220 188 166 174
13.863117 6.628258 71.368370 181 160 169
13.863117 6.782104 71.368370 162 141 152
13.863117 6.935951 71.368370 149 129 141
13.896522 7.106881 71.540344 150 128 142
13.930088 7.278636 71.713142 150 129 142
13.963818 7.451224 71.886787 148 125 138
13.963818 7.606187 71.886787 148 123 136
13.963818 7.761151 71.886787 154 127 140
13.963818 7.916115 71.886787 157 128 140
13.997710 8.090669 72.061264 153 123 134
14.031768 8.266071 72.236603 148 117 129
13.997710 8.401348 72.061264 145 113 126
14.100383 8.619451 72.589836 142 109 124
17.318489 10.778845 89.156883 139 105 123
17.475929 11.070774 89.967400 139 105 125
19.033190 12.902164 97.984299 130 94 111
18.970581 13.070249 97.661980 132 94 109
18.785200 13.150995 96.707626 131 93 106
18.785200 13.359464 96.707626 129 90 102
18.846590 13.612273 97.023666 128 88 98
18.970581 13.912354 97.661980 127 86 96
18.970581 14.122880 97.661980 128 85 95
18.970581 14.333406 97.661980 129 86 95
18.785200 14.401810 96.707626 130 87 96
18.785200 14.610278 96.707626 130 87 96
14.417642 12.173388 74.223106 118 77 83
14.345912 12.272029 73.853836 115 75 82
14.345912 12.431232 73.853836 112 73 81
14.310314 12.559195 73.670578 110 72 80
14.310314 12.718003 73.670578 108 72 80
14.310314 12.876813 73.670578 107 72 82
14.239646 12.971248 73.306770 107 73 83
14.239646 13.129272 73.306770 108 73 84
14.204573 13.254570 73.126213 108 74 85
14.204573 13.412206 73.126213 108 73 85
14.204573 13.569841 73.126213 106 72 83
14.239646 13.761372 73.306770 105 71 81
14.239646 13.919396 73.306770 105 70 80
14.239646 14.077421 73.306770 105 70 79
14.100383 14.096224 72.589836 104 68 78
14.239646 14.393471 73.306770 103 67 77
14.239646 14.551495 73.306770 103 65 76
19.096214 21.209785 98.308746 98 60 75
14.381687 16.133057 74.038010 96 59 73
14.310314 16.211800 73.670578 95 59 72
13.997710 16.012999 72.061264 94 60 71
13.963818 16.129190 71.886787 93 59 70
13.930088 16.244820 71.713142 93 59 69
13.930088 16.399410 71.713142 92 59 69
13.863117 16.474413 71.368370 92 59 68
13.763859 16.509201 70.857384 91 58 67
13.698472 16.582792 70.520767 89 57 65
13.569545 16.577307 69.857040 87 57 63
13.537692 16.688627 69.693054 85 55 61
13.537692 16.838863 69.693054 84 54 60
13.505987 16.949310 69.529839 82 53 60
13.349669 16.901285 68.725098 81 53 59
13.349669 17.049435 68.725098 79 53 59
13.505987 17.398958 69.529839 79 53 60
13.601549 17.673008 70.021797 78 53 60
13.633703 17.866089 70.187332 77 52 60
13.863117 18.320566 71.368370 76 51 58
13.698472 18.255001 70.520767 75 50 56
15.756986 21.173101 81.118149 74 49 55
15.756986 21.347965 81.118149 74 49 54
15.502840 21.175686 79.809792 74 48 53
14.979368 20.626898 77.114914 73 48 52
14.749505 20.474054 75.931564 72 47 51
14.526591 20.325832 74.783989 72 47 50
14.526591 20.487041 74.783989 72 46 50
14.490092 20.596371 74.596085 71 46 49
14.417642 20.653389 74.223106 70 46 49
14.381687 20.761484 74.038010 69 47 49
14.204573 20.663437 73.126213 68 47 48
14.100383 20.668350 72.589836 67 47 48
13.997710 20.673193 72.061264 66 48 49
13.963818 20.778101 71.886787 65 48 49
13.896522 20.832182 71.540344 64 48 49
13.763859 20.786051 70.857384 64 48 49
13.505987 20.546499 69.529839 64 48 49
13.443023 20.599895 69.205696 64 47 49
13.349669 20.604990 68.725098 64 46 48
13.349669 20.753138 68.725098 64 45 48
13.349669 20.901285 68.725098 64 45 48
13.318837 21.000820 68.566376 64 44 48
13.288149 21.099897 68.408394 64 44 47
13.196926 21.101500 67.938766 64 43 46
13.166796 21.199442 67.783661 64 43 45
13.106947 21.248535 67.475548 63 43 45
13.018187 21.249109 67.018608 63 43 45
12.959678 21.297428 66.717400 63 43 45
13.136804 21.734295 67.629250 62 42 45
12.959678 21.585068 66.717400 59 41 43
12.872894 21.583384 66.270630 57 40 42
12.815681 21.629679 65.976097 56 40 41
12.647054 21.485428 65.107986 56 41 41
12.674850 21.673309 65.251083 56 41 41
12.537080 21.576860 64.541832 56 40 40
12.537080 21.715990 64.541832 55 40 40
12.537080 21.855120 64.541832 54 40 40
12.564394 22.042170 64.682442 52 40 39
12.564394 22.181602 64.682442 51 39 40
12.564394 22.321035 64.682442 51 39 40
12.564394 22.460470 64.682442 51 39 39
12.564394 22.599903 64.682442 50 39 39
12.564394 22.739336 64.682442 49 38 39
12.591826 22.928724 64.823669 47 37 38
12.619380 23.118940 64.965523 46 36 37
12.787265 23.568417 65.829803 46 36 36
12.872894 23.869097 66.270630 46 36 37
13.411759 25.017105 69.044746 47 37 37
13.474431 25.283541 69.367386 47 37 37
13.474431 25.433073 69.367386 47 38 38
13.698472 26.007971 70.520767 47 38 39
13.731088 26.222275 70.688675 47 38 39
13.763859 26.437603 70.857384 46 38 39
13.763859 26.590347 70.857384 45 37 39
13.763859 26.743092 70.857384 45 37 39
13.796786 26.960180 71.026894 44 36 38
13.863117 27.243643 71.368370 44 35 37
13.863117 27.397490 71.368370 43 35 36
13.829872 27.485266 71.197220 43 35 36
13.731088 27.441322 70.688675 43 35 36
13.601549 27.333385 70.021797 43 35 36
13.601549 27.484329 70.021797 43 35 36
13.601549 27.635273 70.021797 43 35 36
9.960374 20.568834 51.276756 41 33 36
14.084678 -1.532958 71.713142 138 124 132
14.050739 -1.375047 71.540344 143 134 141
14.016963 -1.217896 71.368370 131 126 132
14.016963 -1.064049 71.368370 125 124 129
14.016963 -0.910203 71.368370 149 151 155
14.016963 -0.756357 71.368370 184 185 191
14.016963 -0.602511 71.368370 199 199 206
14.016963 -0.448665 71.368370 198 199 207
14.016963 -0.294819 71.368370 177 181 191
13.983349 -0.140634 71.197220 150 158 171
13.949896 0.012812 71.026894 154 163 178
13.949896 0.165922 71.026894 158 168 183
13.949896 0.319032 71.026894 151 163 175
13.983349 0.473274 71.197220 178 190 197
13.983349 0.626752 71.197220 216 227 229
14.016963 0.782104 71.368370 227 236 235
13.983349 0.933706 71.197220 228 236 234
13.983349 1.087183 71.197220 235 239 239
13.983349 1.240661 71.197220 236 240 242
14.016963 1.397489 71.368370 221 225 230
14.050739 1.555073 71.540344 198 203 216
14.084678 1.713419 71.713142 188 195 211
14.118781 1.872531 71.886787 191 197 213
14.153050 2.032416 72.061264 212 217 228
14.153050 2.187756 72.061264 240 243 247
14.118781 2.337422 71.886787 245 248 251
14.084678 2.486366 71.713142 231 237 246
14.084678 2.640955 71.713142 217 226 240
14.084678 2.795545 71.713142 209 218 237
14.084678 2.950134 71.713142 208 213 234
14.050739 3.097242 71.540344 217 218 237
14.016963 3.243643 71.368370 224 221 238
14.016963 3.397489 71.368370 208 198 217
14.016963 3.551335 71.368370 173 157 177
14.016963 3.705181 71.368370 162 145 162
14.016963 3.859028 71.368370 193 179 190
14.016963 4.012874 71.368370 213 201 210
14.016963 4.166720 71.368370 188 176 185
14.016963 4.320566 71.368370 153 143 152
14.016963 4.474412 71.368370 143 133 144
