ply
format ascii 1.0
element vertex 1235
property float x
property float y
property float z
property uchar red
property uchar green
property uchar blue
end_header
14.646900 16.969755 77.114914 40 22 26
14.571206 17.047430 76.716385 47 24 30
14.385348 16.993254 75.737862 54 26 34
13.992697 16.688227 73.670578 61 28 37
13.720332 16.519114 72.236603 67 31 41
13.588088 16.514109 71.540344 75 38 48
13.490566 16.548697 71.026894 87 49 60
13.394434 16.582792 70.520767 96 61 72
13.362694 16.695154 70.353653 110 77 89
13.299662 16.767347 70.021797 150 119 134
13.299662 16.918291 70.021797 172 142 159
13.268369 17.029072 69.857040 148 120 137
13.268369 17.179661 69.857040 115 88 106
13.299662 17.371120 70.021797 95 69 85
13.299662 17.522064 70.021797 86 60 74
13.331103 17.714788 70.187332 81 55 69
13.299662 17.823952 70.021797 80 54 66
13.237222 17.890507 69.693054 79 54 64
13.237222 18.040741 69.693054 78 54 62
15.365277 21.115410 80.897118 77 53 61
15.365277 21.289797 80.897118 77 53 60
15.365277 21.464184 80.897118 76 52 59
15.323524 21.579771 80.677292 76 52 58
15.323524 21.753683 80.677292 76 51 58
15.323524 21.927597 80.677292 75 51 58
15.199614 21.922791 80.024910 76 51 58
15.199614 22.095297 80.024910 75 51 59
14.685043 21.513947 77.315735 75 51 59
14.168484 20.917978 74.596085 76 52 59
13.687031 20.362513 72.061264 76 52 59
13.653891 20.468174 71.886787 76 52 59
13.588088 20.523748 71.540344 77 52 58
13.588088 20.677965 71.540344 77 52 56
13.555425 20.782104 71.368370 76 52 55
13.555425 20.935951 71.368370 76 52 55
13.653891 21.242992 71.886787 76 52 54
13.653891 21.397955 71.886787 76 51 54
13.653891 21.552919 71.886787 75 50 54
13.653891 21.707882 71.886787 73 49 54
13.753797 22.022818 72.412788 72 49 54
13.753797 22.178915 72.412788 72 48 55
13.687031 22.226591 72.061264 72 48 55
13.653891 22.327738 71.886787 72 48 55
13.653891 22.482700 71.886787 72 48 54
13.620910 22.582985 71.713142 72 48 53
13.620910 22.737574 71.713142 72 48 52
13.588088 22.837002 71.540344 72 49 52
13.555425 22.935951 71.368370 72 49 52
13.555425 23.089796 71.368370 72 49 52
13.522918 23.187902 71.197220 71 49 52
13.555425 23.397490 71.368370 71 50 53
12.963348 23.552542 68.251129 79 55 59
12.904019 23.591202 67.938766 77 54 58
12.845231 23.629511 67.629250 74 51 55
12.758047 23.613926 67.170235 72 49 55
12.559146 24.243553 66.123032 76 53 62
12.559146 24.386093 66.123032 74 52 61
12.587180 24.583384 66.270630 72 50 59
12.615339 24.781555 66.418884 70 48 56
12.672037 25.036755 66.717400 68 47 54
12.672037 25.180574 66.717400 69 48 54
12.700578 25.381432 66.867661 71 51 56
12.700578 25.525576 66.867661 72 53 57
14.438118 -1.444670 75.162636 87 55 65
14.401658 -1.279405 74.972832 85 55 63
14.365382 -1.114974 74.783989 84 54 61
14.365382 -0.953765 74.783989 83 53 59
14.365382 -0.792556 74.783989 82 52 59
14.365382 -0.631346 74.783989 81 51 58
14.365382 -0.470137 74.783989 81 51 58
14.257642 -0.306611 74.223106 81 50 58
14.151505 -0.145520 73.670578 81 50 58
14.116477 0.013256 73.488220 81 50 57
14.046938 0.170826 73.126213 81 50 56
14.046938 0.328462 73.126213 81 50 56
14.081621 0.487297 73.306770 83 50 57
14.081621 0.645322 73.306770 83 50 58
14.081621 0.803347 73.306770 83 50 60
14.081621 0.961372 73.306770 84 50 61
14.012424 1.113896 72.946541 85 51 62
13.909894 1.261843 72.412788 87 53 64
14.012424 1.428392 72.946541 89 54 65
14.046938 1.589545 73.126213 89 55 65
14.116477 1.755830 73.488220 88 55 64
14.186708 1.923770 73.853836 87 55 63
14.116477 2.072662 73.488220 85 54 62
14.186708 2.242178 73.853836 83 53 60
14.736581 2.494459 76.716385 81 52 59
14.774758 2.666724 76.915138 79 51 58
14.929467 2.862187 77.720528 78 50 58
14.929467 3.029726 77.720528 78 50 58
14.890488 3.188918 77.517601 78 50 58
14.851710 3.347280 77.315735 78 49 58
14.851710 3.513947 77.315735 78 49 58
14.851710 3.680613 77.315735 78 50 58
14.851710 3.847280 77.315735 79 50 58
14.851710 4.013947 77.315735 80 50 58
14.813134 4.169755 77.114914 81 49 58
14.660814 4.291402 76.321960 81 49 57
14.585823 4.433134 75.931564 80 49 57
14.548614 4.585091 75.737862 80 49 57
14.365382 4.688553 74.783989 81 48 56
14.222086 4.801385 74.038010 82 48 57
14.116477 4.924147 73.488220 83 49 59
14.012424 5.045099 72.946541 84 50 60
13.943904 5.176908 72.589836 85 50 60
13.943904 5.333387 72.589836 86 51 61
14.012424 5.516844 72.946541 86 52 61
14.081621 5.702112 73.306770 86 52 60
14.081621 5.860137 73.306770 85 51 58
14.081621 6.018162 73.306770 85 51 58
14.116477 6.191474 73.488220 87 52 59
14.046938 6.318610 73.126213 89 53 60
13.909894 6.413062 72.412788 89 53 59
13.876050 6.553176 72.236603 89 53 60
13.775499 6.660279 71.713142 89 54 61
14.116477 6.983553 73.488220 88 54 61
13.876050 7.020329 72.236603 87 54 61
13.842370 7.158630 72.061264 86 55 62
13.842370 7.313970 72.061264 86 55 63
13.876050 7.487483 72.236603 87 55 63
13.876050 7.643201 72.236603 88 56 64
13.909894 7.817940 72.412788 89 57 64
13.842370 7.935329 72.061264 90 57 64
14.012424 8.190063 72.946541 89 58 63
14.116477 8.409296 73.488220 88 57 61
14.222086 8.631809 74.038010 87 56 60
14.257642 8.813389 74.223106 86 55 59
14.438118 9.086976 75.162636 85 54 59
14.585823 9.343620 75.931564 84 53 59
14.585823 9.507303 75.931564 84 53 60
14.585823 9.670986 75.931564 85 53 62
14.365382 9.686034 74.783989 87 55 64
14.257642 9.773389 74.223106 89 57 68
14.257642 9.933389 74.223106 93 61 72
14.222086 10.068218 74.038010 97 66 77
14.186708 10.202376 73.853836 98 69 81
14.116477 10.310286 73.488220 98 69 80
14.012424 10.391537 72.946541 100 73 85
13.909894 10.471599 72.412788 101 76 86
13.876050 10.601838 72.236603 89 65 75
13.876050 10.757556 72.236603 72 51 59
13.842370 10.886786 72.061264 61 43 48
13.808854 11.015388 71.886787 58 41 44
13.775499 11.143371 71.713142 55 39 41
13.709270 11.243643 71.368370 52 37 39
13.676394 11.370157 71.197220 49 36 37
13.643676 11.496066 71.026894 48 35 36
13.775499 11.761728 71.713142 47 35 35
14.365382 12.426588 74.783989 45 34 33
14.585823 12.780960 75.931564 44 34 33
14.736581 13.078438 76.716385 43 34 33
14.813134 13.312612 77.114914 43 35 34
14.813134 13.478846 77.114914 44 36 36
14.851710 13.680614 77.315735 44 37 37
14.851710 13.847280 77.315735 44 37 37
14.851710 14.013947 77.315735 44 36 36
14.851710 14.180614 77.315735 44 35 36
14.851710 14.347280 77.315735 43 35 35
14.736581 14.401435 76.716385 44 35 35
14.736581 14.566810 76.716385 45 35 35
14.736581 14.732184 76.716385 46 35 34
14.774758 14.936154 76.915138 46 35 34
14.813134 15.141183 77.114914 47 35 33
14.851710 15.347280 77.315735 48 36 31
14.890488 15.554453 77.517601 49 36 30
14.929467 15.762711 77.720528 51 37 31
14.929467 15.930250 77.720528 52 39 31
14.929467 16.097790 77.720528 65 54 45
14.968653 16.308020 77.924522 85 75 66
14.929467 16.432867 77.720528 76 66 60
14.890488 16.557064 77.517601 48 38 35
14.851710 16.680613 77.315735 34 22 21
14.813134 16.803520 77.114914 36 20 22
14.736581 16.882055 76.716385 42 23 27
14.660814 16.959784 76.321960 50 25 32
14.329288 16.737074 74.596085 57 27 35
13.909894 16.403307 72.412788 64 29 39
13.775499 16.399410 71.713142 72 33 44
13.709270 16.474413 71.368370 84 45 57
13.611114 16.509201 70.857384 108 69 81
13.546453 16.582792 70.520767 130 94 106
13.482404 16.655687 70.187332 131 97 110
13.450605 16.767347 70.021797 134 103 117
13.418957 16.878483 69.857040 137 109 124
13.418957 17.029072 69.857040 123 96 112
13.418957 17.179661 69.857040 104 79 95
13.450605 17.371120 70.021797 93 68 83
13.450605 17.522064 70.021797 87 61 75
13.482404 17.714788 70.187332 83 57 69
13.482404 17.866089 70.187332 81 55 66
13.387457 17.890507 69.693054 80 55 63
13.387457 18.040741 69.693054 79 54 62
15.455438 21.000963 80.458649 78 53 60
15.497437 21.231945 80.677292 77 53 59
15.497437 21.405857 80.677292 76 52 58
15.497437 21.579771 80.677292 76 52 58
15.497437 21.753683 80.677292 76 51 58
15.372120 21.750284 80.024910 75 51 57
15.372120 21.922791 80.024910 75 50 58
15.289696 21.976824 79.595825 75 51 58
14.851710 21.513947 77.315735 75 51 58
14.329288 20.917978 74.596085 75 51 58
13.876050 20.412058 72.236603 76 52 58
13.842370 20.517853 72.061264 76 52 58
13.775499 20.573322 71.713142 76 52 56
13.742305 20.677965 71.540344 76 51 55
13.709270 20.782104 71.368370 75 51 54
13.709270 20.935951 71.368370 75 50 53
13.808854 21.242992 71.886787 75 50 53
13.808854 21.397955 71.886787 75 50 53
13.775499 21.500858 71.713142 74 49 53
13.775499 21.655449 71.713142 73 48 53
13.909894 22.022818 72.412788 71 48 53
13.909894 22.178915 72.412788 70 47 53
13.876050 22.280670 72.236603 70 47 53
13.808854 22.327738 71.886787 70 48 54
13.808854 22.482700 71.886787 71 48 54
13.775499 22.582985 71.713142 71 48 53
13.742305 22.682785 71.540344 70 48 52
13.709270 22.782104 71.368370 70 48 52
13.676394 22.880949 71.197220 70 48 52
13.676394 23.034426 71.197220 70 48 52
13.643676 23.132429 71.026894 71 49 52
13.643676 23.285540 71.026894 71 49 52
13.643676 23.438650 71.026894 70 49 52
13.643676 23.591759 71.026894 70 50 52
13.676394 23.801811 71.197220 71 51 54
13.110475 23.552542 68.251129 77 54 59
13.110475 23.699667 68.251129 76 53 58
13.050473 23.737656 67.938766 74 50 55
12.730037 24.154812 66.270630 76 53 60
12.701685 24.243553 66.123032 75 52 59
12.701685 24.386093 66.123032 73 50 58
12.701685 24.528631 66.123032 72 49 56
12.730037 24.726240 66.270630 71 48 55
12.758516 24.924732 66.418884 70 47 54
12.787123 25.124115 66.567810 70 48 54
12.815858 25.324394 66.717400 71 50 56
12.815858 25.468214 66.717400 71 52 57
14.453776 -1.269786 74.409126 85 54 62
14.453776 -1.109385 74.409126 83 54 60
14.490092 -0.951368 74.596085 82 53 59
14.526591 -0.792556 74.783989 82 52 59
14.526591 -0.631346 74.783989 82 51 59
14.417642 -0.466611 74.223106 81 51 58
14.381687 -0.305847 74.038010 80 50 58
14.274893 -0.145160 73.488220 80 49 57
14.239646 0.013223 73.306770 80 50 57
14.204573 0.170826 73.126213 80 50 56
14.239646 0.329273 73.306770 80 50 57
14.239646 0.487297 73.306770 82 50 57
14.274893 0.646919 73.488220 83 50 59
14.239646 0.803347 73.306770 84 51 60
14.169672 0.956647 72.946541 85 51 61
14.031768 1.103055 72.236603 87 52 63
13.930088 1.249651 71.713142 89 54 64
13.930088 1.404240 71.713142 89 55 65
14.169672 1.585640 72.946541 89 55 65
14.204573 1.747181 73.126213 89 55 64
14.274893 1.914246 73.488220 87 55 63
14.065991 2.042331 72.412788 85 54 61
14.065991 2.198428 72.412788 83 53 60
14.901956 2.494459 76.716385 81 52 59
15.018376 2.680613 77.315735 79 51 58
15.176465 2.877251 78.129585 78 50 57
15.176465 3.045672 78.129585 77 49 57
15.097007 3.197266 77.720528 76 49 57
15.018376 3.347280 77.315735 76 48 57
15.018376 3.513947 77.315735 76 48 57
14.979368 3.671053 77.114914 77 49 57
15.018376 3.847280 77.315735 77 49 57
14.979368 4.003520 77.114914 78 49 57
14.979368 4.169755 77.114914 80 49 57
14.825338 4.291402 76.321960 80 48 57
14.787325 4.444501 76.126259 79 48 56
14.787325 4.608604 76.126259 79 48 56
14.563274 4.700393 74.972832 80 48 55
14.417642 4.813389 74.223106 81 48 56
14.345912 4.948646 73.853836 82 48 58
14.274893 5.082563 73.488220 83 49 60
14.100383 5.176908 72.589836 84 50 60
14.100383 5.333387 72.589836 85 51 61
14.100383 5.489867 72.589836 85 52 61
14.100383 5.646346 72.589836 85 51 60
14.134943 5.817048 72.767754 84 50 58
14.204573 6.003339 73.126213 84 50 57
14.204573 6.160974 73.126213 86 52 59
14.100383 6.272263 72.589836 87 54 60
14.031768 6.397459 72.236603 87 53 59
13.997710 6.537271 72.061264 87 53 59
13.930088 6.660279 71.713142 87 53 59
14.274893 6.983553 73.488220 86 53 60
14.031768 7.020329 72.236603 85 53 61
14.031768 7.176047 72.236603 84 54 61
14.031768 7.331765 72.236603 84 54 62
14.239646 7.598409 73.306770 84 54 62
14.345912 7.814317 73.853836 85 55 63
14.239646 7.914458 73.306770 86 56 64
14.169672 8.032814 72.946541 88 57 64
14.274893 8.250880 73.488220 88 57 63
14.345912 8.451133 73.853836 88 56 61
14.381687 8.631809 74.038010 87 55 60
14.417642 8.813389 74.223106 85 54 59
14.674444 9.133220 75.545143 84 53 59
14.749505 9.343620 75.931564 83 52 59
14.749505 9.507303 75.931564 84 52 59
14.600143 9.573051 75.162636 85 53 60
14.490092 9.661697 74.596085 87 54 63
14.417642 9.773389 74.223106 89 56 66
14.381687 9.908617 74.038010 91 59 70
14.381687 10.068218 74.038010 94 62 73
14.345912 10.202376 73.853836 95 65 76
14.274893 10.310286 73.488220 95 67 77
14.204573 10.417131 73.126213 96 70 81
14.134943 10.522930 72.767754 93 69 80
14.065991 10.627696 72.412788 81 59 68
14.031768 10.757556 72.236603 67 47 54
13.997710 10.886786 72.061264 60 41 47
13.997710 11.042125 72.061264 57 40 44
13.963818 11.170352 71.886787 54 38 41
13.863117 11.243643 71.368370 51 36 38
13.863117 11.397490 71.368370 49 36 37
13.863117 11.551335 71.368370 49 35 36
14.031768 11.847580 72.236603 48 34 35
14.563274 12.457969 74.972832 46 35 34
14.787325 12.813732 76.126259 45 35 34
14.940561 13.112320 76.915138 44 34 34
14.979368 13.312612 77.114914 44 35 36
14.979368 13.478846 77.114914 44 37 37
15.018376 13.680614 77.315735 45 38 38
15.018376 13.847280 77.315735 44 38 38
15.018376 14.013947 77.315735 43 37 37
15.018376 14.180614 77.315735 43 36 36
15.018376 14.347280 77.315735 43 35 35
14.901956 14.401435 76.716385 44 36 35
14.901956 14.566810 76.716385 45 37 35
14.940561 14.770351 76.915138 45 37 35
14.979368 14.974949 77.114914 46 38 35
14.979368 15.141183 77.114914 46 38 35
15.018376 15.347280 77.315735 46 38 33
15.018376 15.513947 77.315735 47 38 32
15.057590 15.721555 77.517601 49 39 32
15.057590 15.888657 77.517601 50 41 33
15.057590 16.055758 77.517601 63 54 46
15.057590 16.222860 77.517601 81 72 64
15.057590 16.389961 77.517601 75 64 59
15.018376 16.513947 77.315735 50 39 37
14.979368 16.637287 77.114914 36 23 23
14.901956 16.716681 76.716385 38 22 24
14.825338 16.795258 76.321960 45 24 28
14.749505 16.873032 75.931564 51 26 33
14.274893 16.488504 73.488220 58 28 36
13.963818 16.284153 71.886787 64 30 39
13.863117 16.320566 71.368370 74 37 48
13.829872 16.434906 71.197220 96 57 68
13.731088 16.469894 70.688675 126 87 100
13.666011 16.543497 70.353653 147 110 123
13.601549 16.616404 70.021797 140 105 118
13.601549 16.767347 70.021797 122 91 105
13.569545 16.878483 69.857040 113 84 97
13.569545 17.029072 69.857040 104 79 91
13.569545 17.179661 69.857040 97 72 84
13.601549 17.371120 70.021797 92 66 78
13.633703 17.563488 70.187332 88 61 73
13.633703 17.714788 70.187332 84 57 68
13.633703 17.866089 70.187332 81 55 65
13.537692 17.890507 69.693054 80 55 62
13.505987 17.998491 69.529839 79 54 60
15.628880 21.000963 80.458649 78 53 59
15.628880 21.174404 80.458649 76 53 57
15.628880 21.347847 80.458649 76 52 57
15.671350 21.579771 80.677292 76 52 57
15.671350 21.753683 80.677292 75 51 57
15.544627 21.750284 80.024910 75 51 57
15.502840 21.863859 79.809792 75 51 57
15.419937 21.918062 79.383003 75 51 57
15.018376 21.513947 77.315735 75 51 57
14.526591 20.970669 74.783989 75 51 56
14.031768 20.412058 72.236603 75 51 56
13.997710 20.517853 72.061264 75 50 55
13.963818 20.623137 71.886787 75 50 54
13.930088 20.727911 71.713142 74 49 53
13.863117 20.782104 71.368370 74 49 53
13.863117 20.935951 71.368370 74 49 53
13.963818 21.242992 71.886787 74 49 52
13.963818 21.397955 71.886787 73 48 52
13.930088 21.500858 71.713142 73 48 52
13.930088 21.655449 71.713142 72 47 52
14.031768 21.969234 72.236603 70 47 53
14.065991 22.178915 72.412788 69 47 53
14.065991 22.335012 72.412788 68 46 52
13.963818 22.327738 71.886787 69 47 53
13.930088 22.428394 71.713142 69 47 53
13.930088 22.582985 71.713142 69 48 52
13.930088 22.737574 71.713142 70 48 52
13.863117 22.782104 71.368370 70 48 52
13.829872 22.880949 71.197220 70 48 52
13.796786 22.979319 71.026894 70 48 51
13.763859 23.077221 70.857384 70 48 51
13.763859 23.229965 70.857384 70 48 52
13.763859 23.382710 70.857384 70 49 52
13.763859 23.535454 70.857384 70 50 52
13.796786 23.744869 71.026894 70 51 53
13.318837 23.513523 68.566376 74 53 57
13.257602 23.552542 68.251129 74 53 57
13.257602 23.699667 68.251129 73 52 57
13.196926 23.737656 67.938766 72 50 55
12.844224 24.101015 66.123032 75 53 57
12.844224 24.243553 66.123032 75 52 56
12.844224 24.386093 66.123032 73 50 55
12.844224 24.528631 66.123032 72 49 53
12.844224 24.671171 66.123032 71 47 52
12.872894 24.869097 66.270630 70 47 52
12.901692 25.067909 66.418884 70 48 53
12.930620 25.267612 66.567810 71 49 54
14.614177 -0.948984 74.409126 83 52 59
14.687800 -0.792556 74.783989 83 52 59
14.687800 -0.631346 74.783989 83 52 59
14.541288 -0.465448 74.038010 82 51 58
14.469123 -0.304329 73.670578 81 50 58
14.433309 -0.145160 73.488220 80 50 57
14.362208 0.013191 73.126213 79 49 57
14.362208 0.170826 73.126213 80 50 57
14.397671 0.329273 73.306770 81 50 57
14.433309 0.488504 73.488220 82 50 58
14.433309 0.646919 73.488220 83 51 60
14.397671 0.803347 73.306770 85 51 62
14.118781 0.942749 71.886787 87 52 63
14.084678 1.095062 71.713142 88 53 64
14.084678 1.249651 71.713142 89 54 65
14.084678 1.404240 71.713142 89 54 65
14.153050 1.566397 72.061264 89 54 64
14.362208 1.747181 73.126213 88 54 63
14.433309 1.914246 73.488220 87 54 62
14.433309 2.072662 73.488220 85 54 61
14.577641 2.253389 74.223106 83 53 60
15.185043 2.513947 77.315735 80 52 59
15.264546 2.694648 77.720528 78 51 58
15.344886 2.877251 78.129585 77 50 56
15.344886 3.045672 78.129585 76 49 55
15.264546 3.197266 77.720528 75 48 55
15.185043 3.347280 77.315735 75 47 55
15.145601 3.504819 77.114914 75 47 55
15.106364 3.661543 76.915138 76 47 55
15.106364 3.827346 76.915138 77 48 56
15.106364 3.993149 76.915138 78 48 56
15.106364 4.158952 76.915138 79 48 56
14.951427 4.280399 76.126259 79 48 56
14.913188 4.433134 75.931564 79 48 55
14.913188 4.596817 75.931564 78 48 55
14.724891 4.700393 74.972832 79 47 55
14.577641 4.813389 74.223106 80 48 56
14.469123 4.936366 73.670578 81 48 57
14.433309 5.082563 73.488220 82 48 58
14.222090 5.164282 72.412788 83 49 59
14.222090 5.320379 72.412788 83 50 59
14.153050 5.449892 72.061264 84 50 58
14.222090 5.632574 72.412788 84 50 58
14.222090 5.788672 72.412788 83 50 57
14.291805 5.973910 72.767754 84 51 57
14.291805 6.130773 72.767754 85 52 58
14.187486 6.241741 72.236603 86 53 58
14.187486 6.397459 72.236603 86 53 58
14.153050 6.537271 72.061264 86 52 57
16.019386 7.575152 81.563850 86 52 57
14.762169 7.142672 75.162636 85 52 58
14.433309 7.141969 73.488220 84 52 59
14.326921 7.246573 72.946541 83 52 60
14.326921 7.403822 72.946541 83 52 60
14.614177 7.712670 74.409126 83 53 60
14.724891 7.932716 74.972832 84 54 61
14.577641 8.013389 74.223106 84 55 62
14.505116 8.132725 73.853836 86 55 63
14.541288 8.312607 74.038010 87 56 62
14.541288 8.472208 74.038010 86 56 61
14.577641 8.653389 74.223106 85 55 60
14.577641 8.813389 74.223106 84 54 59
14.724891 9.064029 74.972832 83 53 58
14.837295 9.296070 75.545143 83 53 59
14.762169 9.411027 75.162636 84 53 59
14.650896 9.500894 74.596085 85 53 61
14.577641 9.613389 74.223106 87 54 64
14.541288 9.749016 74.038010 89 56 66
14.541288 9.908617 74.038010 90 57 68
14.505116 10.043173 73.853836 91 59 70
14.469123 10.177061 73.670578 92 62 72
14.433309 10.310286 73.488220 92 65 74
14.362208 10.417131 73.126213 91 66 75
14.291805 10.522930 72.767754 84 62 71
14.222090 10.627696 72.412788 73 54 61
14.187486 10.757556 72.236603 63 45 50
14.153050 10.886786 72.061264 57 41 45
14.118781 11.015388 71.886787 56 40 43
14.118781 11.170352 71.886787 53 37 41
14.016963 11.243643 71.368370 51 35 38
14.016963 11.397490 71.368370 50 35 37
14.016963 11.551335 71.368370 49 35 36
14.187486 11.847580 72.236603 48 34 36
14.762169 12.489508 75.162636 47 34 35
14.989862 12.846672 76.321960 45 34 34
15.106364 13.112320 76.915138 44 34 34
15.145601 13.312612 77.114914 44 36 36
15.185043 13.513947 77.315735 45 38 38
15.185043 13.680614 77.315735 45 38 39
15.185043 13.847280 77.315735 44 38 39
15.185043 14.013947 77.315735 43 37 38
15.185043 14.180614 77.315735 42 36 36
15.185043 14.347280 77.315735 43 35 35
15.106364 14.438745 76.915138 43 36 35
15.106364 14.604548 76.915138 44 37 36
15.145601 14.808716 77.114914 45 38 36
15.185043 15.013947 77.315735 45 39 37
15.185043 15.180614 77.315735 44 39 36
15.185043 15.347280 77.315735 44 39 35
15.185043 15.513947 77.315735 44 39 35
15.185043 15.680614 77.315735 47 41 36
15.224691 15.888657 77.517601 52 45 40
15.224691 16.055758 77.517601 62 54 49
15.224691 16.222860 77.517601 69 60 55
15.185043 16.347281 77.315735 62 51 48
15.185043 16.513947 77.315735 46 34 33
15.067329 16.551306 76.716385 39 24 25
14.989862 16.630733 76.321960 41 24 26
14.913188 16.709349 75.931564 47 26 30
14.614177 16.534725 74.409126 53 28 34
14.256863 16.286932 72.589836 59 29 37
14.084678 16.244820 71.713142 64 32 40
14.016963 16.320566 71.368370 77 42 52
13.983349 16.434906 71.197220 108 71 83
13.883469 16.469894 70.688675 141 104 117
13.817670 16.543497 70.353653 147 111 125
13.752492 16.616404 70.021797 131 97 110
13.720133 16.727896 69.857040 112 81 94
13.720133 16.878483 69.857040 100 72 83
13.720133 17.029072 69.857040 95 68 79
13.720133 17.179661 69.857040 91 66 76
13.720133 17.330248 69.857040 89 63 73
13.720133 17.480837 69.857040 86 59 69
13.785004 17.714788 70.187332 83 57 65
13.785004 17.866089 70.187332 80 55 62
13.655870 17.848608 69.529839 79 54 60
13.655870 17.998491 69.529839 78 54 59
15.802321 21.000963 80.458649 76 53 57
15.802321 21.174404 80.458649 75 52 56
15.717134 21.232763 80.024910 75 51 55
15.674884 21.347731 79.809792 75 51 55
15.717134 21.577778 80.024910 75 52 55
15.591061 21.575817 79.383003 75 52 55
15.591061 21.746941 79.383003 75 52 56
15.426076 21.686125 78.542969 76 52 56
15.185043 21.513947 77.315735 75 51 56
14.687800 20.970669 74.783989 74 49 54
14.187486 20.412058 72.236603 74 49 53
14.118781 20.468174 71.886787 74 48 53
14.118781 20.623137 71.886787 74 48 53
14.084678 20.727911 71.713142 74 48 53
14.050739 20.832182 71.540344 73 48 52
14.050739 20.986399 71.540344 73 48 52
14.153050 21.294552 72.061264 73 47 52
14.326921 21.713404 72.946541 72 47 51
14.153050 21.605232 72.061264 71 46 52
14.153050 21.760572 72.061264 70 46 52
14.222090 22.022818 72.412788 69 46 52
14.326921 22.342396 72.946541 68 46 52
14.291805 22.444498 72.767754 67 46 52
14.222090 22.491112 72.412788 67 47 52
14.118781 22.482700 71.886787 68 47 52
14.016963 22.782104 71.368370 70 48 52
13.916603 22.771732 70.857384 70 47 52
13.850491 22.815571 70.520767 69 46 50
13.720133 22.751425 69.857040 69 47 50
13.785004 23.010296 70.187332 70 48 51
13.850491 23.271627 70.520767 70 49 52
13.850491 23.423647 70.520767 70 50 52
13.949896 23.744869 71.026894 70 50 52
13.529134 23.474142 68.884552 70 52 54
13.466643 23.513523 68.566376 71 52 54
13.404728 23.552542 68.251129 71 52 55
13.343379 23.591202 67.938766 71 51 55
13.343379 23.737656 67.938766 71 50 55
13.312915 23.829578 67.783661 70 50 54
13.015752 24.011953 66.270630 74 53 56
12.986763 24.101015 66.123032 74 52 55
12.986763 24.243553 66.123032 73 51 54
12.986763 24.386093 66.123032 73 50 53
12.986763 24.528631 66.123032 72 49 52
12.986763 24.671171 66.123032 70 47 51
13.015752 24.869097 66.270630 68 46 50
13.015752 25.011953 66.270630 68 46 51
13.044869 25.211086 66.418884 69 48 52
14.849010 -0.953765 74.783989 83 53 59
14.924194 -0.796568 75.162636 83 53 59
14.849010 -0.631346 74.783989 83 52 59
14.737641 -0.466611 74.223106 83 51 59
14.627933 -0.304329 73.670578 82 51 59
14.591724 -0.145160 73.488220 81 50 58
14.591724 0.013256 73.488220 80 49 57
14.555696 0.171248 73.306770 80 50 58
14.627933 0.330907 73.670578 81 51 59
14.627933 0.489716 73.670578 82 51 59
14.591724 0.646919 73.488220 83 51 60
14.484169 0.799399 72.946541 85 51 62
14.239267 0.940472 71.713142 87 53 63
14.239267 1.095062 71.713142 89 55 65
14.273745 1.252677 71.886787 89 55 65
14.239267 1.404240 71.713142 89 54 64
14.484169 1.585640 72.946541 88 54 63
14.519844 1.747181 73.126213 88 54 62
14.737641 1.933389 74.223106 86 53 61
14.737641 2.093389 74.223106 85 54 60
15.472589 2.365762 77.924522 82 53 59
15.432085 2.527109 77.720528 80 52 59
15.472589 2.701720 77.924522 78 51 57
15.513307 2.877251 78.129585 76 50 56
15.513307 3.045672 78.129585 75 48 55
15.391793 3.188918 77.517601 75 47 55
15.311835 3.338586 77.114914 75 47 55
15.272167 3.495739 76.915138 75 46 55
15.272167 3.661543 76.915138 76 46 55
15.272167 3.827346 76.915138 77 47 55
15.272167 3.993149 76.915138 78 47 55
15.232704 4.148205 76.716385 79 48 55
15.076871 4.269451 75.931564 79 48 55
15.076871 4.433134 75.931564 79 48 54
15.000144 4.573423 75.545143 79 48 54
14.849010 4.688553 74.783989 79 48 54
14.737641 4.813389 74.223106 80 48 55
14.627933 4.936366 73.670578 80 48 56
14.591724 5.082563 73.488220 81 48 57
14.343204 5.151716 72.236603 82 48 57
14.343204 5.307434 72.236603 82 48 56
14.273745 5.436696 71.886787 82 48 56
14.273745 5.591660 71.886787 82 49 56
14.273745 5.746624 71.886787 82 49 56
14.378187 5.944769 72.412788 83 50 56
14.448668 6.130773 72.767754 84 51 56
14.343204 6.241741 72.236603 84 51 56
14.308390 6.381931 72.061264 84 51 56
14.308390 6.537271 72.061264 84 51 56
16.195211 7.575152 81.563850 83 50 55
16.106712 7.708622 81.118149 82 50 56
14.924194 7.304698 75.162636 82 50 56
14.737641 7.373389 74.223106 81 50 57
14.962072 7.648110 75.353409 81 51 59
14.962072 7.810547 75.353409 82 52 60
15.038410 8.013662 75.737862 83 53 60
14.886507 8.094332 74.972832 83 54 61
14.737641 8.173388 74.223106 84 54 62
14.737641 8.333388 74.223106 84 55 61
14.700890 8.472208 74.038010 84 55 60
14.737641 8.653389 74.223106 84 54 60
14.737641 8.813389 74.223106 83 53 59
14.811700 9.018481 74.596085 82 53 58
14.886507 9.225645 74.972832 82 53 59
14.811700 9.340089 74.596085 83 54 60
14.737641 9.453388 74.223106 85 55 62
14.664320 9.565561 73.853836 87 56 65
14.627933 9.700634 73.670578 89 57 67
14.627933 9.859443 73.670578 89 57 68
14.627933 10.018251 73.670578 89 58 68
14.591724 10.151870 73.488220 89 60 70
14.519844 10.259497 73.126213 90 63 71
14.448668 10.366067 72.767754 85 62 69
14.378187 10.471599 72.412788 76 55 61
14.343204 10.601838 72.236603 68 48 54
14.308390 10.731445 72.061264 61 44 48
14.308390 10.886786 72.061264 57 41 44
14.273745 11.015388 71.886787 54 39 42
14.239267 11.143371 71.713142 52 37 39
14.136827 11.216680 71.197220 50 35 37
14.136827 11.370157 71.197220 49 34 36
14.170809 11.551335 71.368370 49 34 36
14.591724 12.052860 73.488220 48 34 36
15.115530 12.649630 76.126259 47 34 35
15.272167 12.946517 76.915138 45 34 34
15.311835 13.146378 77.114914 44 34 34
15.351710 13.347280 77.315735 43 35 36
15.391793 13.549231 77.517601 44 37 38
15.391793 13.716332 77.517601 44 38 39
15.391793 13.883434 77.517601 44 38 39
15.391793 14.050536 77.517601 43 38 38
15.351710 14.180614 77.315735 42 36 37
15.351710 14.347280 77.315735 42 36 36
15.311835 14.476248 77.114914 43 37 36
15.311835 14.642482 77.114914 43 38 37
15.351710 14.847280 77.315735 44 39 37
15.351710 15.013947 77.315735 44 39 38
15.351710 15.180614 77.315735 43 39 37
15.351710 15.347280 77.315735 41 39 36
15.351710 15.513947 77.315735 41 39 36
15.351710 15.680614 77.315735 43 40 37
15.351710 15.847280 77.315735 52 48 46
15.351710 16.013947 77.315735 64 58 56
15.351710 16.180613 77.315735 64 55 53
15.351710 16.347281 77.315735 52 41 40
15.311835 16.471054 77.114914 42 29 29
15.193445 16.508648 76.518669 40 24 25
15.076871 16.545666 75.931564 43 25 27
14.849010 16.456816 74.783989 49 27 30
14.664320 16.411331 73.853836 55 30 34
14.343204 16.207678 72.236603 61 33 38
14.204956 16.205675 71.540344 69 38 44
14.170809 16.320566 71.368370 86 53 61
14.103006 16.395588 71.026894 119 85 95
14.035850 16.469894 70.688675 146 112 124
13.936304 16.504387 70.187332 140 106 119
13.936304 16.655687 70.187332 118 86 99
13.870722 16.727896 69.857040 101 71 82
13.870722 16.878483 69.857040 92 64 74
13.870722 17.029072 69.857040 88 62 72
13.870722 17.179661 69.857040 87 61 71
13.870722 17.330248 69.857040 86 60 68
13.870722 17.480837 69.857040 84 57 65
13.936304 17.714788 70.187332 81 55 62
13.936304 17.866089 70.187332 79 54 59
13.805754 17.848608 69.529839 78 53 57
13.805754 17.998491 69.529839 76 52 57
13.838161 18.190975 69.693054 75 51 55
15.846927 21.003643 79.809792 74 50 54
14.136827 18.890541 71.197220 74 50 53
14.170809 19.089796 71.368370 74 51 54
14.170809 19.243643 71.368370 75 52 55
14.170809 19.397490 71.368370 75 52 55
15.432085 21.291506 77.720528 75 52 56
15.351710 21.347281 77.315735 76 52 56
15.272167 21.402475 76.915138 76 52 56
14.811700 20.917978 74.596085 74 49 54
14.343204 20.412058 72.236603 73 48 53
14.239267 20.418734 71.713142 73 48 52
14.273745 20.623137 71.886787 73 48 52
14.484169 21.084412 72.946541 73 47 52
14.239267 20.882502 71.713142 73 47 52
14.204956 20.986399 71.540344 73 47 52
14.484169 21.556156 72.946541 72 46 52
14.484169 21.713404 72.946541 71 46 51
14.484169 21.870653 72.946541 70 45 51
14.343204 21.813517 72.236603 69 45 51
14.484169 22.185148 72.946541 68 45 51
14.519844 22.397427 73.126213 67 45 51
14.519844 22.555063 73.126213 66 45 51
14.448668 22.601362 72.767754 67 46 51
14.448668 22.758224 72.767754 67 46 51
14.136827 22.880949 71.197220 70 47 51
14.002510 22.815571 70.520767 70 46 50
13.838161 22.698017 69.693054 70 47 51
13.805754 22.794743 69.529839 70 48 52
13.805754 22.944626 69.529839 70 49 52
13.838161 23.148722 69.693054 70 50 52
14.035850 23.631798 70.688675 70 50 52
13.677626 23.325651 68.884552 69 52 52
13.614450 23.365717 68.566376 70 52 53
13.551854 23.405415 68.251129 70 52 53
13.520772 23.498522 68.094589 69 51 53
13.489832 23.591202 67.938766 69 50 54
13.459033 23.683460 67.783661 70 50 54
13.428375 23.775297 67.629250 70 50 54
13.397856 23.866716 67.475548 72 52 55
13.307126 23.849562 67.018608 75 54 57
13.247318 24.030012 66.717400 74 54 56
13.158608 24.011953 66.270630 73 53 55
13.129302 24.101015 66.123032 72 52 54
13.129302 24.243553 66.123032 71 51 53
13.100126 24.331902 65.976097 71 50 52
13.129302 24.528631 66.123032 70 48 51
13.071079 24.561764 65.829803 69 47 50
13.129302 24.813709 66.123032 67 46 50
13.129302 24.956247 66.123032 67 46 50
13.158608 25.154812 66.270630 66 47 51
15.240554 -0.641035 75.931564 83 52 59
14.972504 -0.468956 74.596085 83 51 59
14.860491 -0.305847 74.038010 82 51 59
14.786741 -0.145520 73.670578 81 51 58
14.786741 0.013289 73.670578 80 49 57
14.823524 0.172526 73.853836 81 49 58
14.860491 0.332557 74.038010 82 51 60
14.823524 0.490934 73.853836 83 51 60
14.786741 0.648525 73.670578 84 52 61
14.428709 1.097713 71.886787 89 56 65
14.713720 1.277421 73.306770 89 55 64
14.677480 1.431910 73.126213 89 54 63
15.201675 1.646315 75.737862 88 54 62
15.201675 1.809580 75.737862 87 53 61
15.398079 1.998335 76.716385 86 53 60
15.640569 2.197783 77.924522 84 53 59
15.681728 2.371988 78.129585 82 53 58
15.640569 2.533741 77.924522 80 52 58
15.640569 2.701720 77.924522 77 51 56
15.599625 2.862187 77.720528 76 49 55
15.599625 3.029726 77.720528 75 48 54
15.518376 3.180613 77.315735 74 47 54
15.478069 3.338586 77.114914 75 46 55
15.437970 3.495739 76.915138 75 45 55
15.437970 3.661543 76.915138 76 46 55
15.437970 3.827346 76.915138 77 46 54
15.398079 3.982831 76.716385 78 47 55
15.398079 4.148205 76.716385 80 48 56
15.240554 4.269451 75.931564 80 49 55
15.240554 4.433134 75.931564 80 49 55
15.162994 4.573423 75.545143 80 49 55
15.010219 4.688553 74.783989 80 49 55
14.897641 4.813389 74.223106 80 49 55
14.786741 4.936366 73.670578 80 49 56
14.750140 5.082563 73.488220 81 48 57
14.534285 5.164282 72.412788 82 48 57
14.463730 5.294552 72.061264 82 48 56
14.428709 5.436696 71.886787 82 48 55
14.428709 5.591660 71.886787 82 48 56
14.428709 5.746624 71.886787 82 49 56
14.534285 5.944769 72.412788 83 50 56
14.641417 6.303085 72.946541 83 52 56
16.929138 7.469760 84.344437 83 52 55
16.371035 7.399328 81.563850 83 51 55
16.929138 7.833396 84.344437 82 51 55
16.281576 7.708622 81.118149 81 50 55
15.086220 7.304698 75.162636 81 49 56
15.086220 7.466722 75.162636 81 49 57
15.201675 7.687131 75.737862 81 50 58
15.279633 7.890655 76.126259 82 51 59
15.279633 8.054758 76.126259 82 52 59
15.279633 8.218861 76.126259 83 53 60
15.279633 8.382963 76.126259 83 53 61
14.897641 8.333388 74.223106 83 53 61
14.897641 8.493389 74.223106 82 53 60
14.897641 8.653389 74.223106 82 53 59
14.860491 8.791410 74.038010 81 52 59
14.897641 8.973389 74.223106 80 52 58
14.897641 9.133389 74.223106 80 52 59
14.897641 9.293388 74.223106 82 54 60
14.786741 9.383016 73.670578 85 56 63
14.750140 9.518207 73.488220 88 58 67
14.713720 9.652730 73.306770 90 59 69
14.713720 9.810754 73.306770 89 58 68
14.713720 9.968779 73.306770 88 58 67
14.677480 10.101861 73.126213 87 58 66
14.605531 10.209205 72.767754 85 60 66
14.534285 10.315501 72.412788 79 57 62
14.498921 10.446120 72.236603 70 50 55
14.463730 10.576105 72.061264 64 45 49
14.428709 10.705462 71.886787 59 43 46
14.428709 10.860425 71.886787 56 40 42
14.393857 10.988781 71.713142 53 38 40
14.393857 11.143371 71.713142 51 37 38
14.290303 11.216680 71.197220 49 35 36
14.290303 11.370157 71.197220 48 34 35
14.463730 11.663485 72.061264 48 34 34
14.897641 12.173388 74.223106 47 33 34
15.279633 12.649630 76.126259 46 33 34
15.437970 12.946517 76.915138 45 33 33
15.518376 13.180614 77.315735 44 34 34
15.518376 13.347280 77.315735 44 35 36
15.518376 13.513947 77.315735 44 36 37
15.558894 13.716332 77.517601 44 37 39
15.518376 13.847280 77.315735 44 38 39
15.518376 14.013947 77.315735 43 38 39
15.518376 14.180614 77.315735 42 37 38
15.518376 14.347280 77.315735 42 37 37
15.478069 14.476248 77.114914 42 38 37
15.478069 14.642482 77.114914 43 38 37
15.518376 14.847280 77.315735 43 39 38
15.558894 15.053147 77.517601 43 40 39
15.518376 15.180614 77.315735 42 39 39
15.558894 15.387351 77.517601 41 38 37
15.518376 15.513947 77.315735 40 37 37
15.518376 15.680614 77.315735 40 37 38
15.518376 15.847280 77.315735 49 44 46
15.518376 16.013947 77.315735 62 55 56
15.518376 16.180613 77.315735 61 51 53
15.518376 16.347281 77.315735 48 36 38
15.437970 16.428383 76.915138 40 25 27
15.279633 16.423988 76.126259 41 24 25
15.048122 16.336756 74.972832 46 26 27
14.860491 16.292658 74.038010 51 29 30
14.641417 16.209719 72.946541 57 32 33
14.463730 16.168339 72.061264 64 37 39
14.324656 16.166719 71.368370 77 47 52
14.290303 16.281427 71.197220 98 68 75
14.256116 16.395588 71.026894 128 96 105
14.188231 16.469894 70.688675 142 110 120
14.120987 16.543497 70.353653 128 96 108
14.087605 16.655687 70.187332 105 75 87
14.087605 16.806988 70.187332 90 62 73
14.021310 16.878483 69.857040 85 57 68
14.021310 17.029072 69.857040 83 57 66
14.021310 17.179661 69.857040 83 57 65
14.087605 17.412188 70.187332 82 56 64
14.087605 17.563488 70.187332 81 55 61
14.120987 17.756767 70.353653 79 53 59
14.120987 17.908424 70.353653 78 52 57
13.988396 17.890507 69.693054 77 52 56
13.955636 17.998491 69.529839 75 50 55
13.988396 18.190975 69.693054 74 49 53
14.188231 18.603228 70.688675 73 48 52
14.256116 18.845348 71.026894 73 49 52
14.290303 19.044018 71.197220 74 50 53
14.290303 19.197495 71.197220 75 51 54
14.290303 19.350973 71.197220 75 52 55
14.290303 19.504450 71.197220 75 52 54
14.359173 19.752665 71.540344 76 52 55
14.897641 20.653389 74.223106 75 52 55
14.677480 20.505802 73.126213 75 50 54
14.393857 20.264143 71.713142 73 49 53
14.359173 20.369532 71.540344 73 48 52
14.359173 20.523748 71.540344 73 48 52
14.393857 20.727911 71.713142 73 48 52
14.222093 20.633307 70.857384 73 47 53
14.154529 20.687305 70.520767 73 47 53
13.988396 20.594730 69.693054 72 46 53
14.641417 21.713404 72.946541 70 46 52
14.641417 21.870653 72.946541 69 46 52
14.641417 22.027901 72.946541 68 45 52
14.641417 22.185148 72.946541 67 45 51
14.786741 22.564157 73.670578 66 45 51
14.750140 22.666721 73.488220 65 45 51
14.605531 22.601362 72.767754 66 46 51
14.498921 22.592106 72.236603 67 46 51
13.890574 22.390106 69.205696 70 47 50
13.794112 22.382767 68.725098 71 48 51
13.794112 22.530916 68.725098 71 49 52
13.858272 22.784548 69.044746 71 49 52
13.858272 22.933384 69.044746 70 50 52
13.858272 23.082222 69.044746 70 50 52
13.794112 23.123508 68.725098 69 51 51
13.762256 23.217911 68.566376 69 52 52
13.698980 23.258289 68.251129 70 52 52
13.667562 23.351732 68.094589 69 52 52
13.636285 23.444750 67.938766 68 50 52
13.605152 23.537342 67.783661 68 50 52
13.574161 23.629511 67.629250 68 50 52
13.543310 23.721262 67.475548 69 51 53
13.451595 23.705091 67.018608 71 52 54
13.451595 23.849562 67.018608 73 54 56
13.421299 23.939989 66.867661 74 55 57
13.391138 24.030012 66.717400 73 54 56
13.301466 24.011953 66.270630 71 52 54
13.271841 24.101015 66.123032 70 51 52
13.271841 24.243553 66.123032 69 50 51
13.242348 24.331902 65.976097 68 49 51
13.212986 24.419857 65.829803 68 48 50
13.212986 24.561764 65.829803 67 47 50
15.443735 -0.642678 76.126259 83 52 59
15.171428 -0.470137 74.783989 82 51 59
15.057642 -0.306611 74.223106 82 51 58
15.020091 -0.146246 74.038010 81 51 57
15.020091 0.013355 74.038010 80 49 56
15.057642 0.173389 74.223106 82 50 58
15.057642 0.333389 74.223106 84 52 61
15.057642 0.493389 74.223106 85 53 62
15.020091 0.651759 74.038010 85 53 62
14.945550 0.807334 73.670578 86 53 62
14.871745 0.961372 73.306770 88 54 62
15.095380 1.136229 74.409126 89 55 63
15.725996 1.350798 77.517601 89 55 63
16.104429 1.554426 79.383003 89 54 62
15.685043 1.680613 77.315735 88 53 61
15.685043 1.847280 77.315735 87 53 59
15.685043 2.013947 77.315735 85 53 58
15.934012 2.215226 78.542969 83 52 57
15.934012 2.384538 78.542969 81 52 56
15.767164 2.527109 77.720528 79 51 56
15.767164 2.694648 77.720528 77 50 55
15.767164 2.862187 77.720528 76 49 54
15.685043 3.013947 77.315735 75 48 53
15.685043 3.180613 77.315735 75 47 53
15.644303 3.338586 77.114914 75 46 54
15.603774 3.495739 76.915138 76 45 54
15.603774 3.661543 76.915138 76 45 54
15.603774 3.827346 76.915138 77 45 54
15.603774 3.993149 76.915138 78 46 54
15.563454 4.148205 76.716385 81 48 56
15.443735 4.280399 76.126259 81 50 57
15.404237 4.433134 75.931564 80 49 56
15.404237 4.596817 75.931564 80 49 56
15.209739 4.700393 74.972832 81 50 56
15.057642 4.813389 74.223106 81 50 57
14.982728 4.948646 73.853836 81 49 57
14.908556 5.082563 73.488220 82 49 57
14.690382 5.164282 72.412788 82 49 57
14.583673 5.281733 71.886787 82 49 56
14.548446 5.423564 71.713142 82 48 56
14.548446 5.578153 71.713142 82 49 56
14.548446 5.732743 71.713142 82 49 57
15.325844 7.341871 75.545143 81 50 56
14.654639 7.176047 72.236603 81 50 56
14.654639 7.331765 72.236603 82 50 57
15.523342 7.931328 76.518669 82 51 58
15.603774 8.138227 76.915138 82 52 59
14.982728 8.769541 73.853836 79 52 59
14.982728 8.928745 73.853836 79 51 59
14.908556 9.042959 73.488220 79 52 59
14.908556 9.201375 73.488220 81 54 61
14.835114 9.313684 73.126213 85 56 65
14.798665 9.448048 72.946541 87 58 67
14.798665 9.605296 72.946541 89 58 69
14.726300 9.714806 72.589836 88 58 68
14.726300 9.871284 72.589836 87 57 66
14.762394 10.052341 72.767754 84 57 63
14.690382 10.159404 72.412788 81 56 61
14.690382 10.315501 72.412788 75 53 57
14.619069 10.420766 72.061264 67 48 52
14.619069 10.576105 72.061264 61 43 47
14.583673 10.705462 71.886787 57 41 43
14.583673 10.860425 71.886787 53 39 40
14.583673 11.015388 71.886787 51 38 38
14.548446 11.143371 71.713142 49 36 37
14.548446 11.297960 71.713142 48 35 36
14.548446 11.452549 71.713142 47 34 34
14.982728 11.953621 73.853836 46 33 33
15.209739 12.296352 74.972832 46 33 33
15.443735 12.649630 76.126259 46 33 33
15.603774 12.946517 76.915138 45 34 33
15.685043 13.180614 77.315735 44 34 34
15.725996 13.382129 77.517601 44 35 35
15.685043 13.513947 77.315735 44 36 36
15.685043 13.680614 77.315735 44 37 38
15.685043 13.847280 77.315735 44 38 40
15.685043 14.013947 77.315735 44 38 40
15.685043 14.180614 77.315735 43 38 40
15.685043 14.347280 77.315735 42 37 39
15.685043 14.513947 77.315735 43 38 39
15.685043 14.680614 77.315735 43 39 38
15.725996 14.886045 77.517601 44 40 39
15.725996 15.053147 77.517601 44 40 41
15.725996 15.220249 77.517601 42 39 39
15.725996 15.387351 77.517601 41 37 38
15.685043 15.513947 77.315735 41 37 39
15.685043 15.680614 77.315735 40 37 39
15.685043 15.847280 77.315735 44 39 43
15.685043 16.013947 77.315735 52 44 49
15.685043 16.180613 77.315735 53 42 47
15.603774 16.262579 76.915138 46 33 37
15.523342 16.343700 76.518669 42 25 29
15.364941 16.340193 75.737862 45 25 27
15.057642 16.173389 74.223106 49 27 29
14.835114 16.092009 73.126213 54 30 31
14.654639 16.051960 72.236603 59 34 33
14.548446 16.090231 71.713142 69 42 42
14.478501 16.166719 71.368370 88 60 62
14.443781 16.281427 71.197220 115 85 89
14.409226 16.395588 71.026894 135 105 111
14.340611 16.469894 70.688675 135 104 112
14.272646 16.543497 70.353653 116 86 96
14.272646 16.695154 70.353653 95 66 76
14.238905 16.806988 70.187332 82 55 65
14.238905 16.958286 70.187332 79 52 62
14.238905 17.109587 70.187332 79 53 62
14.238905 17.260887 70.187332 79 54 61
14.340611 17.536560 70.688675 79 53 60
14.374837 17.731159 70.857384 79 53 59
14.306548 17.798944 70.520767 78 52 57
14.272646 17.908424 70.353653 77 51 55
14.138631 17.890507 69.693054 76 50 54
14.138631 18.040741 69.693054 75 50 54
14.138631 18.190975 69.693054 73 49 53
14.171898 18.384365 69.857040 73 48 52
14.374837 18.800371 70.857384 72 48 52
14.409226 18.998459 71.026894 73 50 52
14.443781 19.197495 71.197220 74 51 53
14.443781 19.350973 71.197220 74 52 53
14.443781 19.504450 71.197220 74 52 53
14.409226 19.610899 71.026894 75 52 54
14.513390 19.906881 71.540344 75 52 54
14.548446 20.109554 71.713142 74 51 53
14.478501 20.166719 71.368370 73 49 53
14.409226 20.223339 71.026894 73 49 52
14.306548 20.231249 70.520767 73 48 52
14.306548 20.383266 70.520767 72 48 53
14.238905 20.438192 70.187332 72 47 53
14.039759 20.301527 69.205696 72 47 54
13.974609 20.355814 68.884552 71 46 54
14.726300 21.607225 72.589836 69 46 54
14.908556 22.666721 73.488220 66 46 53
11.672590 17.870844 57.537292 66 46 52
11.672590 17.994875 57.537292 67 46 52
11.672590 18.118906 57.537292 67 47 52
13.814350 21.590265 68.094589 68 46 51
13.974609 21.989223 68.884552 68 46 51
13.974609 22.137716 68.884552 70 47 51
13.910062 22.183270 68.566376 71 48 51
13.910062 22.331076 68.566376 72 48 51
13.942261 22.530916 68.725098 72 49 51
13.942261 22.679064 68.725098 72 49 51
13.942261 22.827211 68.725098 71 49 51
13.942261 22.975359 68.725098 70 50 51
13.910062 23.070105 68.566376 70 50 51
13.846107 23.111162 68.251129 69 51 51
13.846107 23.258289 68.251129 69 51 51
13.814350 23.351732 68.094589 68 51 51
13.814350 23.498522 68.094589 66 49 50
13.782739 23.591202 67.938766 66 49 50
13.719947 23.629511 67.629250 68 50 52
13.719947 23.775297 67.629250 69 52 54
13.626825 23.758722 67.170235 70 53 55
13.596065 23.849562 67.018608 72 54 56
13.565443 23.939989 66.867661 72 54 56
13.534959 24.030012 66.717400 71 53 55
13.474400 24.065672 66.418884 69 52 53
13.444323 24.154812 66.270630 68 50 52
13.414380 24.243553 66.123032 66 49 51
13.444323 24.440525 66.270630 65 48 50
13.444323 24.583384 66.270630 65 47 49
15.607838 -0.642678 76.126259 82 51 58
15.332637 -0.470137 74.783989 82 51 58
15.217642 -0.306611 74.223106 81 50 57
15.179692 -0.146246 74.038010 80 49 56
15.179692 0.013355 74.038010 80 49 56
15.332637 0.174699 74.783989 83 51 59
15.294112 0.335064 74.596085 86 54 62
15.217642 0.493389 74.223106 88 54 63
15.217642 0.653389 74.223106 87 54 63
15.217642 0.813389 74.223106 87 54 62
15.255781 0.975828 74.409126 88 53 61
15.893098 1.183696 77.517601 88 53 60
16.585985 1.409688 80.897118 88 53 60
16.540915 1.579770 80.677292 87 53 60
16.275553 1.725549 79.383003 88 54 60
15.851710 1.847280 77.315735 87 54 59
15.851710 2.013947 77.315735 84 52 57
16.103325 2.215226 78.542969 81 50 55
16.103325 2.384538 78.542969 79 50 55
15.934703 2.527109 77.720528 78 50 54
15.893098 2.687612 77.517601 77 49 53
15.851710 2.847280 77.315735 76 48 52
15.851710 3.013947 77.315735 76 48 52
15.810536 3.172352 77.114914 76 47 52
15.769577 3.329937 76.915138 76 46 53
15.769577 3.495739 76.915138 76 45 53
15.810536 3.671053 77.114914 76 45 53
15.810536 3.837287 77.114914 76 44 53
15.769577 3.993149 76.915138 78 45 54
15.769577 4.158952 76.915138 81 48 56
15.607838 4.280399 76.126259 82 50 58
15.607838 4.444501 76.126259 80 49 57
15.567920 4.596817 75.931564 80 49 57
15.410270 4.712292 75.162636 81 49 57
15.217642 4.813389 74.223106 81 50 58
15.179692 4.960986 74.038010 81 50 58
15.104359 5.095175 73.670578 81 49 58
14.955914 5.202348 72.946541 82 49 58
14.738636 5.281733 71.886787 82 49 57
14.703035 5.423564 71.713142 82 49 57
14.703035 5.578153 71.713142 82 49 57
14.703035 5.732743 71.713142 82 50 58
15.410270 7.304698 75.162636 81 50 56
14.597259 7.072795 71.197220 82 50 57
14.632348 7.243643 71.368370 82 50 57
15.728828 7.951823 76.716385 82 51 58
15.066972 8.884543 73.488220 78 52 59
15.066972 9.042959 73.488220 78 52 60
14.992750 9.156048 73.126213 80 53 61
14.919256 9.268028 72.767754 83 54 63
14.919256 9.424891 72.767754 85 56 65
14.882779 9.558327 72.589836 86 56 67
14.882779 9.714806 72.589836 87 58 67
14.846479 9.847208 72.412788 86 59 66
14.882779 10.027764 72.589836 84 58 64
14.846479 10.159404 72.412788 79 55 60
14.846479 10.315501 72.412788 73 51 55
14.810357 10.446120 72.236603 65 46 50
14.810357 10.601838 72.236603 59 42 45
14.774409 10.731445 72.061264 55 40 41
14.774409 10.886786 72.061264 51 38 39
14.774409 11.042125 72.061264 49 37 37
14.774409 11.197465 72.061264 47 36 36
14.774409 11.352804 72.061264 46 35 35
14.846479 11.564281 72.412788 46 34 34
15.294112 12.073757 74.596085 45 34 34
15.371355 12.296352 74.972832 45 34 34
15.567920 12.617277 75.931564 45 34 33
15.728828 12.913063 76.716385 45 34 33
15.851710 13.180614 77.315735 44 35 33
15.851710 13.347280 77.315735 43 35 34
15.851710 13.513947 77.315735 44 36 35
15.851710 13.680614 77.315735 44 37 37
15.851710 13.847280 77.315735 44 38 39
15.851710 14.013947 77.315735 44 38 41
15.851710 14.180614 77.315735 43 38 41
15.851710 14.347280 77.315735 43 38 41
15.851710 14.513947 77.315735 43 38 40
15.851710 14.680614 77.315735 43 38 39
15.934703 14.925014 77.720528 44 39 40
15.934703 15.092553 77.720528 44 40 41
15.893098 15.220249 77.517601 43 40 40
15.851710 15.347280 77.315735 42 38 40
15.851710 15.513947 77.315735 43 38 41
15.851710 15.680614 77.315735 43 38 41
15.851710 15.847280 77.315735 42 36 41
15.851710 16.013947 77.315735 44 35 41
15.769577 16.096775 76.915138 45 32 39
15.688291 16.178751 76.518669 44 29 35
15.567920 16.218300 75.931564 45 27 31
15.332637 16.134398 74.783989 49 28 30
15.066972 16.013256 73.488220 53 30 31
14.810357 15.896242 72.236603 58 33 32
14.738636 15.974226 71.886787 63 37 34
14.632348 16.012875 71.368370 74 47 44
14.597259 16.127951 71.197220 101 74 71
14.562337 16.242477 71.026894 133 105 105
14.527581 16.356457 70.857384 143 114 116
14.458567 16.430773 70.520767 129 99 103
14.424305 16.543497 70.353653 106 77 84
14.424305 16.695154 70.353653 87 59 67
14.424305 16.846813 70.353653 78 51 59
14.390204 16.958286 70.187332 76 50 58
14.390204 17.109587 70.187332 77 52 59
14.492992 17.384180 70.688675 77 52 59
14.527581 17.578415 70.857384 78 52 59
14.527581 17.731159 70.857384 78 51 58
14.527581 17.883904 70.857384 77 51 57
14.458567 17.950964 70.520767 76 50 56
14.322486 17.932602 69.857040 76 50 55
14.288865 18.040741 69.693054 75 50 54
14.255402 18.148373 69.529839 74 49 53
14.322486 18.384365 69.857040 73 48 53
14.527581 18.800371 70.857384 73 48 52
14.562337 18.998459 71.026894 72 49 52
14.597259 19.197495 71.197220 73 50 52
14.562337 19.304678 71.026894 74 51 52
14.562337 19.457788 71.026894 74 52 53
14.562337 19.610899 71.026894 74 52 53
14.597259 19.811403 71.197220 74 52 53
14.632348 20.012875 71.368370 74 52 53
14.597259 20.118359 71.197220 73 51 53
14.458567 20.079229 70.520767 72 50 53
14.390204 20.135592 70.187332 71 49 53
14.288865 20.144028 69.693054 71 48 53
14.222095 20.199429 69.367386 71 47 53
14.123101 20.207321 68.884552 71 47 54
13.961139 20.122375 68.094589 70 47 55
13.897389 20.176611 67.783661 69 47 55
13.929192 20.369234 67.938766 69 46 55
13.678779 20.578327 66.717400 66 47 53
11.796621 17.870844 57.537292 66 47 53
11.796621 17.994875 57.537292 67 47 53
11.796621 18.118906 57.537292 67 47 52
