ply
format ascii 1.0
element vertex 1181
property float x
property float y
property float z
property uchar red
property uchar green
property uchar blue
end_header
19.032520 10.745163 87.321304 169 141 155
19.032520 10.933398 87.321304 170 144 159
19.032520 11.121634 87.321304 171 145 160
19.032520 11.309869 87.321304 175 150 164
19.032520 11.498104 87.321304 182 156 168
19.032520 11.686339 87.321304 174 148 156
18.976706 11.839752 87.065224 159 134 135
18.976706 12.027435 87.065224 180 159 156
18.921219 12.179402 86.810646 224 211 205
18.866055 12.330482 86.557556 220 208 201
18.702477 12.408542 85.807060 173 156 146
18.648579 12.557220 85.559776 154 133 124
18.594990 12.705045 85.313911 167 146 141
18.541710 12.852021 85.069466 174 152 152
18.541710 13.035402 85.069466 173 151 154
18.488733 13.181016 84.826408 174 152 157
18.488733 13.363873 84.826408 176 156 161
18.488733 13.546730 84.826408 177 158 162
18.488733 13.729587 84.826408 174 157 160
18.488733 13.912444 84.826408 172 155 158
18.541710 14.135689 85.069466 170 153 156
18.594990 14.360217 85.313911 168 150 155
18.702477 14.628195 85.807060 165 147 154
18.702477 14.813166 85.807060 163 144 152
18.921219 15.173554 86.810646 160 141 150
18.811211 15.271382 86.305939 158 139 148
18.702477 15.368079 85.807060 157 137 147
18.648579 15.508229 85.559776 157 137 147
18.648579 15.692667 85.559776 155 135 145
18.594990 15.831481 85.313911 154 135 143
18.436058 15.878506 84.584732 154 135 143
18.383684 16.015215 84.344437 156 137 144
18.331606 16.151148 84.105499 156 138 144
18.126209 16.149456 83.163147 156 137 142
17.826603 16.058830 81.788544 154 136 139
17.826603 16.235140 81.788544 153 136 135
17.777628 16.366362 81.563850 153 136 132
17.777628 16.542185 81.563850 153 136 130
17.777628 16.718010 81.563850 152 136 130
17.728922 16.847549 81.340393 152 136 132
17.728922 17.022892 81.340393 152 136 134
17.875847 17.340761 82.014481 151 136 137
18.075577 17.713284 82.930847 150 134 138
18.488733 18.301016 84.826408 149 132 138
18.702477 18.697559 85.807060 147 131 137
18.702477 18.882530 85.807060 145 128 135
18.594990 18.957918 85.313911 143 126 131
18.541710 19.086979 85.069466 140 125 125
18.488733 19.215302 84.826408 134 123 117
18.436058 19.342894 84.584732 126 119 108
18.436058 19.525229 84.584732 114 109 95
18.383684 19.651579 84.344437 104 100 83
18.383684 19.833397 84.344437 123 121 101
18.331606 19.958513 84.105499 169 168 147
18.279821 20.082926 83.867912 189 188 166
18.279821 20.263716 83.867912 157 151 131
18.331606 20.502424 84.105499 115 103 86
18.331606 20.683727 84.105499 104 89 75
18.331606 20.865030 84.105499 118 101 90
18.331606 21.046333 84.105499 139 121 113
18.331606 21.227636 84.105499 135 115 111
18.331606 21.408939 84.105499 113 92 91
18.331606 21.590242 84.105499 101 78 82
18.331606 21.771545 84.105499 97 75 82
18.383684 22.015215 84.344437 96 75 84
18.331606 22.134151 84.105499 95 74 84
18.279821 22.252417 83.867912 94 72 82
18.279821 22.433208 83.867912 92 71 81
18.279821 22.613998 83.867912 90 69 78
18.279821 22.794790 83.867912 88 69 76
18.279821 22.975580 83.867912 87 69 74
18.228329 23.091143 83.631668 86 69 72
18.228329 23.271423 83.631668 85 68 71
18.177126 23.385830 83.396751 84 66 70
18.126209 23.499596 83.163147 82 65 70
18.126209 23.678867 83.163147 80 64 69
18.126209 23.858139 83.163147 78 64 68
18.126209 24.037411 83.163147 76 63 67
17.875847 23.882198 82.014481 73 62 65
17.826603 23.992714 81.788544 71 62 64
18.025227 24.438316 82.699837 69 61 62
18.075577 24.685350 82.930847 68 60 60
18.512909 -1.616557 84.105499 41 30 29
18.512909 -1.435254 84.105499 41 30 29
18.565502 -1.257513 84.344437 43 31 32
18.671591 -1.081841 84.826408 43 31 32
18.618395 -0.896423 84.584732 40 30 30
18.618395 -0.714087 84.584732 37 27 27
18.618395 -0.531751 84.584732 37 28 28
18.671591 -0.350413 84.826408 39 30 30
18.725090 -0.168036 85.069466 40 32 33
18.725090 0.015345 85.069466 38 30 31
18.778898 0.199297 85.313911 33 26 29
18.778898 0.383205 85.313911 32 25 30
18.725090 0.565488 85.069466 33 26 34
18.725090 0.748870 85.069466 38 31 42
18.833015 0.937624 85.559776 53 44 60
18.833015 1.122062 85.559776 71 60 80
18.833015 1.306500 85.559776 75 62 83
18.778898 1.486654 85.313911 67 52 73
18.778898 1.670562 85.313911 64 46 66
18.725090 1.849156 85.069466 59 41 57
18.725090 2.032537 85.069466 49 31 43
18.671591 2.209587 84.826408 46 29 36
18.671591 2.392444 84.826408 51 34 39
18.671591 2.575301 84.826408 57 41 46
18.671591 2.758158 84.826408 61 46 50
18.618395 2.932637 84.584732 59 45 49
18.618395 3.114973 84.584732 54 42 45
18.618395 3.297309 84.584732 47 36 38
18.618395 3.479645 84.584732 40 30 32
18.671591 3.672444 84.826408 37 27 28
18.725090 3.866348 85.069466 37 26 28
18.887447 4.084842 85.807060 40 27 29
18.942194 4.282190 86.055771 44 29 32
19.052643 4.493748 86.557556 49 30 35
19.108353 4.694022 86.810646 50 30 37
19.220755 4.909869 87.321304 51 30 38
19.277452 5.113143 87.578888 53 31 43
19.334488 5.317620 87.837997 58 37 51
19.391859 5.523310 88.098640 72 53 67
19.449574 5.730225 88.360840 100 82 98
19.449574 5.920701 88.360840 129 111 128
19.507631 6.129419 88.624603 141 124 142
19.507631 6.320464 88.624603 146 128 147
19.449574 6.492129 88.360840 154 133 152
19.449574 6.682606 88.360840 159 136 155
19.391859 6.852687 88.098640 161 135 153
19.334488 7.021762 87.837997 160 132 149
19.164389 7.147670 87.065224 152 122 138
19.164389 7.335353 87.065224 141 110 126
19.108353 7.501040 86.810646 135 105 120
18.942194 7.621320 86.055771 136 107 121
18.778898 7.739527 85.313911 137 110 122
18.671591 7.878159 84.826408 136 113 123
18.565502 8.015214 84.344437 135 117 124
18.565502 8.197033 84.344437 130 116 121
18.565502 8.378851 84.344437 120 110 113
18.618395 8.585058 84.584732 119 110 111
18.725090 8.817637 85.069466 154 146 147
18.887447 9.079062 85.807060 208 201 203
18.942194 9.290885 86.055771 215 202 206
18.997257 9.503941 86.305939 187 166 174
19.052643 9.718238 86.557556 186 161 171
19.108353 9.933788 86.810646 189 161 173
19.164389 10.150602 87.065224 173 144 156
19.220755 10.368692 87.321304 164 135 148
19.220755 10.556928 87.321304 166 137 151
19.220755 10.745163 87.321304 169 142 155
19.220755 10.933398 87.321304 173 147 159
19.220755 11.121634 87.321304 172 146 160
19.220755 11.309869 87.321304 173 147 159
19.220755 11.498104 87.321304 179 152 163
19.220755 11.686339 87.321304 178 150 157
19.220755 11.874575 87.321304 167 141 141
19.164389 12.027435 87.065224 178 156 153
19.108353 12.179402 86.810646 213 200 195
19.052643 12.330482 86.557556 214 206 199
18.887447 12.408542 85.807060 173 161 152
18.833015 12.557220 85.559776 153 137 129
18.778898 12.705045 85.313911 165 148 144
18.725090 12.852021 85.069466 174 156 157
18.725090 13.035402 85.069466 175 156 160
18.671591 13.181016 84.826408 176 157 163
18.671591 13.363873 84.826408 177 158 164
18.671591 13.546730 84.826408 177 159 163
18.671591 13.729587 84.826408 176 158 161
18.671591 13.912444 84.826408 174 156 159
18.725090 14.135689 85.069466 172 154 158
18.725090 14.319070 85.069466 170 152 157
18.778898 14.544125 85.313911 168 149 155
18.887447 14.813166 85.807060 166 146 154
18.887447 14.998137 85.807060 165 145 153
18.887447 15.183108 85.807060 164 143 152
18.833015 15.323791 85.559776 162 141 150
18.778898 15.463665 85.313911 161 140 150
18.778898 15.647573 85.313911 159 138 148
18.725090 15.786119 85.069466 157 137 146
18.565502 15.833396 84.344437 158 138 146
18.512909 15.969846 84.105499 159 139 146
18.408609 16.060156 83.631668 160 140 145
18.254349 16.104345 82.930847 161 140 141
17.953453 16.014713 81.563850 160 140 136
17.953453 16.190536 81.563850 159 140 130
17.953453 16.366362 81.563850 158 139 125
17.953453 16.542185 81.563850 157 138 120
17.904264 16.672207 81.340393 155 138 119
17.904264 16.847549 81.340393 154 137 122
17.953453 17.069658 81.563850 155 138 127
18.152935 17.437099 82.470116 155 138 132
18.305481 17.762901 83.163147 153 136 136
18.565502 18.197033 84.344437 152 134 138
18.833015 18.643675 85.559776 151 132 138
18.833015 18.828114 85.559776 147 128 135
18.778898 18.957918 85.313911 144 125 132
18.778898 19.141827 85.313911 141 124 128
18.671591 19.215302 84.826408 136 120 123
18.618395 19.342894 84.584732 130 116 118
18.618395 19.525229 84.584732 122 111 112
18.565502 19.651579 84.344437 109 100 100
18.512909 19.777210 84.105499 110 102 101
18.512909 19.958513 84.105499 145 137 134
18.460611 20.082926 83.867912 181 174 169
18.460611 20.263716 83.867912 168 159 151
18.460611 20.444508 83.867912 119 105 98
18.512909 20.683727 84.105499 102 84 77
18.512909 20.865030 84.105499 131 112 105
18.512909 21.046333 84.105499 170 152 145
18.512909 21.227636 84.105499 163 143 138
18.512909 21.408939 84.105499 123 102 101
18.512909 21.590242 84.105499 99 78 79
18.512909 21.771545 84.105499 94 73 78
18.512909 21.952848 84.105499 95 73 82
18.460611 22.071625 83.867912 94 73 83
18.460611 22.252417 83.867912 93 72 82
18.408609 22.370016 83.631668 91 71 81
18.408609 22.550297 83.631668 89 69 79
18.408609 22.730579 83.631668 89 69 77
18.408609 22.910860 83.631668 87 68 74
18.408609 23.091143 83.631668 86 68 72
18.356901 23.206055 83.396751 85 68 71
18.305481 23.320324 83.163147 84 66 70
18.305481 23.499596 83.163147 82 65 68
18.305481 23.678867 83.163147 80 64 68
18.254349 23.791496 82.930847 78 63 67
18.102650 23.771069 82.241669 75 63 65
18.052643 23.882198 82.014481 73 62 64
18.002911 23.992714 81.788544 71 61 63
18.002911 24.169024 81.788544 69 61 62
18.203501 24.616589 82.699837 68 60 61
18.694212 -1.616557 84.105499 40 29 29
18.641403 -1.431199 83.867912 41 30 29
18.694212 -1.253950 84.105499 41 31 31
18.747320 -1.075695 84.344437 41 31 31
18.800732 -0.896423 84.584732 39 29 29
18.800732 -0.714087 84.584732 37 27 27
18.800732 -0.531751 84.584732 36 27 27
18.854448 -0.350413 84.826408 36 27 27
18.908472 -0.168036 85.069466 35 27 28
18.908472 0.015345 85.069466 34 27 28
18.908472 0.198726 85.069466 33 26 28
18.908472 0.382107 85.069466 32 26 31
18.908472 0.565488 85.069466 34 26 35
18.908472 0.748870 85.069466 39 31 45
19.017454 0.937624 85.559776 53 43 62
19.017454 1.122062 85.559776 69 56 80
19.017454 1.306500 85.559776 78 61 88
18.962807 1.486654 85.313911 87 67 94
18.962807 1.670562 85.313911 99 76 101
18.908472 1.849156 85.069466 89 64 84
18.854448 2.026730 84.826408 60 36 51
18.854448 2.209587 84.826408 48 25 35
18.854448 2.392444 84.826408 53 31 38
18.854448 2.575301 84.826408 60 39 45
18.800732 2.750300 84.584732 65 47 52
18.800732 2.932637 84.584732 70 53 58
18.800732 3.114973 84.584732 69 54 58
18.747320 3.287942 84.344437 57 44 47
18.747320 3.469760 84.344437 44 32 33
18.800732 3.661981 84.584732 38 27 28
18.854448 3.855301 84.826408 37 27 28
19.072418 4.084842 85.807060 39 27 29
19.127701 4.282190 86.055771 43 28 31
19.239233 4.493748 86.557556 47 29 34
19.295486 4.694022 86.810646 50 30 36
19.408991 4.909869 87.321304 53 30 38
19.466244 5.113143 87.578888 56 32 43
19.523836 5.317620 87.837997 60 36 48
19.581770 5.523310 88.098640 70 47 60
19.640049 5.730225 88.360840 93 72 86
19.640049 5.920701 88.360840 121 102 118
19.698677 6.129419 88.624603 138 120 136
19.698677 6.320464 88.624603 145 126 144
19.640049 6.492129 88.360840 152 132 150
19.640049 6.682606 88.360840 159 137 155
19.640049 6.873082 88.360840 162 137 154
19.523836 7.021762 87.837997 161 134 150
19.352072 7.147670 87.065224 153 124 139
19.352072 7.335353 87.065224 140 111 126
19.295486 7.501040 86.810646 134 106 119
19.127701 7.621320 86.055771 136 108 120
18.962807 7.739527 85.313911 137 110 121
18.854448 7.878159 84.826408 137 113 122
18.747320 8.015214 84.344437 135 117 123
18.747320 8.197033 84.344437 131 116 122
18.747320 8.378851 84.344437 124 111 116
18.800732 8.585058 84.584732 118 106 109
18.854448 8.792444 84.826408 133 121 125
18.962807 9.026883 85.313911 173 159 165
19.072418 9.264033 85.807060 187 170 179
19.072418 9.449004 85.807060 172 150 161
19.127701 9.661900 86.055771 171 146 158
19.239233 9.904826 86.557556 177 150 163
19.295486 10.120922 86.810646 170 142 155
19.352072 10.338285 87.065224 164 136 148
19.408991 10.556928 87.321304 164 136 148
19.408991 10.745163 87.321304 171 144 155
19.408991 10.933398 87.321304 177 150 161
19.408991 11.121634 87.321304 174 148 158
19.408991 11.309869 87.321304 172 145 154
19.466244 11.532022 87.578888 177 149 157
19.466244 11.720813 87.578888 180 153 158
19.408991 11.874575 87.321304 176 150 151
19.352072 12.027435 87.065224 176 155 152
19.295486 12.179402 86.810646 191 178 172
19.239233 12.330482 86.557556 192 186 179
19.072418 12.408542 85.807060 170 163 157
18.962807 12.521136 85.313911 157 149 145
18.962807 12.705045 85.313911 163 153 154
18.908472 12.852021 85.069466 170 158 163
18.854448 12.998158 84.826408 172 158 167
18.854448 13.181016 84.826408 175 159 169
18.854448 13.363873 84.826408 177 160 169
18.800732 13.508135 84.584732 177 160 167
18.854448 13.729587 84.826408 177 159 165
18.854448 13.912444 84.826408 175 158 163
18.854448 14.095302 84.826408 174 156 161
18.908472 14.319070 85.069466 172 154 159
18.908472 14.502451 85.069466 170 151 157
18.962807 14.728033 85.313911 169 150 156
18.962807 14.911941 85.313911 169 149 156
18.962807 15.095849 85.313911 167 146 155
18.908472 15.235975 85.069466 165 143 153
18.908472 15.419356 85.069466 165 143 154
18.908472 15.602737 85.069466 163 142 153
18.854448 15.741015 84.826408 162 141 151
18.747320 15.833396 84.344437 162 141 150
18.641403 15.924733 83.867912 163 142 149
18.536676 16.015043 83.396751 165 143 145
18.433119 16.104345 82.930847 165 144 140
18.079607 15.970837 81.340393 166 144 132
18.079607 16.146179 81.340393 165 144 123
18.079607 16.321522 81.340393 162 142 114
18.079607 16.496864 81.340393 158 140 108
18.079607 16.672207 81.340393 158 141 109
18.079607 16.847549 81.340393 158 142 113
18.179220 17.116682 81.788544 157 140 118
18.484753 17.583630 83.163147 157 139 125
18.536676 17.812796 83.396751 155 137 132
18.747320 18.197033 84.344437 153 135 135
19.017454 18.643675 85.559776 152 133 138
19.017454 18.828114 85.559776 148 129 136
18.962807 18.957918 85.313911 143 123 132
18.962807 19.141827 85.313911 140 121 130
18.854448 19.215302 84.826408 136 118 127
18.800732 19.342894 84.584732 131 114 124
18.800732 19.525229 84.584732 124 110 121
18.747320 19.651579 84.344437 115 103 114
18.694212 19.777210 84.105499 110 99 110
18.694212 19.958513 84.105499 125 114 124
18.641403 20.082926 83.867912 150 139 146
18.641403 20.263716 83.867912 150 138 141
18.641403 20.444508 83.867912 119 103 105
18.641403 20.625298 83.867912 105 86 85
18.641403 20.806089 83.867912 134 114 111
18.694212 21.046333 84.105499 173 153 149
18.694212 21.227636 84.105499 167 146 142
18.641403 21.348461 83.867912 126 105 104
18.641403 21.529253 83.867912 99 77 79
18.641403 21.710043 83.867912 93 72 77
18.641403 21.890835 83.867912 94 73 81
18.641403 22.071625 83.867912 93 72 82
18.588892 22.189734 83.631668 91 71 81
18.536676 22.307178 83.396751 89 70 80
18.536676 22.486954 83.396751 88 69 78
18.536676 22.666729 83.396751 88 69 77
18.536676 22.846504 83.396751 87 70 75
18.536676 23.026279 83.396751 88 71 75
18.536676 23.206055 83.396751 86 70 73
18.536676 23.385830 83.396751 83 67 70
18.484753 23.499596 83.163147 80 64 67
18.536676 23.745380 83.396751 79 63 67
18.484753 23.858139 83.163147 77 63 66
18.381773 23.903498 82.699837 75 62 64
18.229439 23.882198 82.014481 73 61 64
18.229439 24.058992 82.014481 71 61 63
18.330713 24.370432 82.470116 70 60 62
18.381773 24.616589 82.699837 69 60 61
18.664024 -1.419172 83.163147 40 30 29
18.769175 -1.246886 83.631668 40 30 30
18.875515 -1.072647 84.105499 39 30 29
18.929138 -0.893876 84.344437 37 28 27
18.929138 -0.712058 84.344437 36 27 27
18.929138 -0.530240 84.344437 35 26 26
19.037304 -0.350413 84.826408 35 26 26
19.091852 -0.168036 85.069466 34 26 26
19.091852 0.015345 85.069466 33 25 26
19.146715 0.199297 85.313911 32 25 27
19.146715 0.383205 85.313911 32 24 30
19.146715 0.567113 85.313911 33 25 35
19.146715 0.751021 85.313911 39 28 43
19.257389 0.940334 85.807060 50 37 58
19.257389 1.125305 85.807060 63 46 70
19.201893 1.306500 85.559776 77 55 82
19.146715 1.486654 85.313911 106 80 106
19.146715 1.670562 85.313911 140 111 135
19.091852 1.849156 85.069466 132 102 120
19.037304 2.026730 84.826408 85 55 68
19.037304 2.209587 84.826408 57 29 36
19.037304 2.392444 84.826408 60 33 37
18.983067 2.567964 84.584732 66 42 45
18.983067 2.750300 84.584732 72 49 53
18.929138 2.924305 84.344437 82 62 65
18.929138 3.106123 84.344437 89 71 74
18.929138 3.287942 84.344437 76 60 62
18.929138 3.469760 84.344437 52 38 39
18.929138 3.651578 84.344437 40 27 28
18.983067 3.844318 84.584732 39 27 28
19.146715 4.061366 85.313911 41 29 30
19.257389 4.269814 85.807060 44 29 32
19.313208 4.467697 86.055771 47 30 34
19.482622 4.694022 86.810646 51 30 36
19.597225 4.909869 87.321304 54 31 38
19.655035 5.113143 87.578888 58 32 42
19.771681 5.333399 88.098640 60 34 46
19.771681 5.523310 88.098640 67 43 55
19.830526 5.730225 88.360840 88 65 78
19.830526 5.920701 88.360840 118 98 111
19.889721 6.129419 88.624603 139 120 135
19.889721 6.320464 88.624603 146 128 144
19.830526 6.492129 88.360840 153 132 149
19.830526 6.682606 88.360840 160 138 155
19.830526 6.873082 88.360840 164 140 156
19.713186 7.021762 87.837997 162 136 151
19.539755 7.147670 87.065224 153 125 140
19.482622 7.313905 86.810646 140 113 126
19.369350 7.457428 86.305939 134 106 119
19.257389 7.599293 85.807060 135 108 119
19.146715 7.739527 85.313911 137 110 121
19.037304 7.878159 84.826408 138 114 123
18.929138 8.015214 84.344437 140 118 125
18.929138 8.197033 84.344437 135 116 122
18.929138 8.378851 84.344437 130 112 119
18.929138 8.560669 84.344437 125 108 114
18.983067 8.767394 84.584732 127 109 117
19.091852 9.001019 85.069466 143 123 134
19.146715 9.210792 85.313911 155 133 145
19.201893 9.421774 85.559776 155 132 145
19.257389 9.633975 85.807060 160 135 150
19.369350 9.876034 86.305939 167 140 154
19.425821 10.091415 86.557556 163 137 150
19.482622 10.308057 86.810646 159 133 144
19.539755 10.525970 87.065224 164 138 147
19.597225 10.745163 87.321304 181 156 164
19.597225 10.933398 87.321304 190 166 173
19.597225 11.121634 87.321304 179 154 160
19.597225 11.309869 87.321304 171 144 149
19.597225 11.498104 87.321304 174 148 153
19.597225 11.686339 87.321304 179 153 157
19.539755 11.839752 87.065224 178 156 157
19.482622 11.992268 86.810646 174 157 156
19.425821 12.143893 86.557556 173 164 160
19.313208 12.259002 86.055771 172 169 165
19.201893 12.372783 85.559776 164 165 162
19.146715 12.521136 85.313911 157 159 160
19.091852 12.668640 85.069466 156 158 163
19.037304 12.815301 84.826408 160 159 168
19.037304 12.998158 84.826408 164 159 171
18.983067 13.143463 84.584732 168 159 172
18.983067 13.325799 84.584732 172 159 171
18.983067 13.508135 84.584732 176 161 170
18.983067 13.690472 84.584732 177 161 169
18.983067 13.872808 84.584732 176 159 167
19.037304 14.095302 84.826408 175 158 165
19.037304 14.278158 84.826408 175 156 163
19.091852 14.502451 85.069466 173 154 161
19.091852 14.685832 85.069466 172 153 159
19.091852 14.869213 85.069466 171 152 158
19.091852 15.052594 85.069466 170 150 158
19.037304 15.192444 84.826408 169 148 157
19.037304 15.375301 84.826408 168 147 158
19.037304 15.558159 84.826408 167 147 158
18.929138 15.651578 84.344437 167 145 156
18.875515 15.788543 84.105499 166 144 154
18.769175 15.879874 83.631668 167 144 150
18.664024 15.970183 83.163147 168 144 145
18.611891 16.104345 82.930847 171 147 138
18.254950 15.970837 81.340393 172 148 129
18.254950 16.146179 81.340393 170 148 116
18.254950 16.321522 81.340393 162 141 100
18.254950 16.496864 81.340393 157 140 94
18.254950 16.672207 81.340393 166 152 108
18.254950 16.847549 81.340393 175 162 123
18.560047 17.307396 82.699837 165 150 119
18.822193 17.732643 83.867912 152 134 113
18.822193 17.913433 83.867912 151 133 123
18.929138 18.197033 84.344437 153 135 132
19.257389 18.697559 85.807060 153 134 138
19.257389 18.882530 85.807060 151 131 138
19.201893 19.012552 85.559776 145 124 133
19.146715 19.141827 85.313911 141 120 131
19.037304 19.215302 84.826408 137 117 129
18.983067 19.342894 84.584732 131 113 126
18.929138 19.469759 84.344437 126 109 124
18.875515 19.595907 84.105499 119 104 120
18.875515 19.777210 84.105499 114 100 117
18.822193 19.902134 83.867912 116 102 119
18.822193 20.082926 83.867912 125 111 124
18.822193 20.263716 83.867912 127 111 122
18.822193 20.444508 83.867912 116 99 106
18.822193 20.625298 83.867912 112 92 95
18.822193 20.806089 83.867912 128 106 107
18.822193 20.986879 83.867912 148 126 125
18.822193 21.167671 83.867912 144 121 121
18.822193 21.348461 83.867912 120 98 99
18.822193 21.529253 83.867912 102 79 83
18.769175 21.648890 83.631668 97 74 81
18.769175 21.829170 83.631668 96 74 83
18.769175 22.009453 83.631668 93 72 82
18.716452 22.127403 83.396751 91 70 81
18.716452 22.307178 83.396751 89 69 81
18.664024 22.423965 83.163147 87 68 78
18.664024 22.603237 83.163147 87 69 78
18.664024 22.782509 83.163147 90 72 80
18.716452 23.026279 83.396751 92 75 81
18.716452 23.206055 83.396751 90 73 79
18.716452 23.385830 83.396751 84 67 73
18.716452 23.565605 83.396751 79 63 68
18.716452 23.745380 83.396751 77 62 66
18.716452 23.925156 83.396751 77 62 66
18.611891 23.970266 82.930847 75 61 65
18.560047 24.081770 82.699837 73 61 64
18.560047 24.260042 82.699837 71 60 63
18.664024 24.575226 83.163147 69 60 61
18.843296 -1.419172 83.163147 40 31 28
18.949455 -1.246886 83.631668 38 30 28
19.056818 -1.072647 84.105499 37 29 28
19.110956 -0.893876 84.344437 36 28 27
19.110956 -0.712058 84.344437 35 26 26
19.165403 -0.531751 84.584732 34 25 26
19.275234 -0.351417 85.069466 34 25 26
19.275234 -0.168036 85.069466 33 25 25
19.330622 0.015389 85.313911 32 24 25
19.330622 0.199297 85.313911 31 24 26
19.330622 0.383205 85.313911 30 23 27
19.330622 0.567113 85.313911 32 23 31
19.330622 0.751021 85.313911 36 25 38
19.442360 0.940334 85.807060 44 28 47
19.442360 1.125305 85.807060 54 33 54
19.330622 1.302746 85.313911 69 43 65
19.330622 1.486654 85.313911 106 76 97
19.330622 1.670562 85.313911 156 122 139
19.220161 1.843873 84.826408 161 126 138
19.220161 2.026730 84.826408 112 76 83
19.165403 2.203292 84.584732 76 42 44
19.165403 2.385628 84.584732 81 50 50
19.165403 2.567964 84.584732 91 63 62
19.165403 2.750300 84.584732 85 60 60
19.110956 2.924305 84.344437 85 62 63
19.110956 3.106123 84.344437 97 77 78
19.110956 3.287942 84.344437 92 73 74
19.110956 3.469760 84.344437 65 48 49
19.110956 3.651578 84.344437 48 33 34
19.110956 3.833396 84.344437 45 32 32
19.330622 4.061366 85.313911 46 32 33
19.386330 4.257509 85.559776 47 32 34
19.442360 4.454784 85.807060 50 32 35
19.669756 4.694022 86.810646 53 32 37
19.727438 4.895471 87.065224 56 32 39
19.843824 5.113143 87.578888 59 32 41
19.961592 5.333399 88.098640 60 33 44
19.961592 5.523310 88.098640 66 39 51
19.961592 5.713221 88.098640 84 60 72
20.021002 5.920701 88.360840 115 93 106
20.021002 6.111177 88.360840 139 119 134
20.021002 6.301653 88.360840 149 130 145
20.021002 6.492129 88.360840 153 133 150
20.021002 6.682606 88.360840 160 139 155
20.021002 6.873082 88.360840 165 142 158
19.902534 7.021762 87.837997 163 138 153
19.727438 7.147670 87.065224 153 128 142
19.612410 7.292582 86.557556 142 116 129
19.498714 7.435813 86.055771 136 109 121
19.442360 7.599293 85.807060 135 107 119
19.330622 7.739527 85.313911 138 110 120
19.220161 7.878159 84.826408 143 116 125
19.165403 8.038050 84.584732 146 120 127
19.110956 8.197033 84.344437 141 117 124
19.110956 8.378851 84.344437 137 112 120
19.110956 8.560669 84.344437 134 110 119
19.110956 8.742487 84.344437 133 109 119
19.220161 8.975302 84.826408 138 112 125
19.330622 9.210792 85.313911 142 116 131
19.386330 9.421774 85.559776 145 119 136
19.386330 9.606212 85.559776 151 125 142
19.498714 9.847407 86.055771 157 131 146
19.612410 10.091415 86.557556 157 131 144
19.612410 10.278005 86.557556 154 129 139
19.669756 10.495192 86.810646 164 139 147
19.727438 10.713653 87.065224 197 175 180
19.727438 10.901336 87.065224 209 190 193
19.727438 11.089019 87.065224 184 163 165
19.727438 11.276702 87.065224 167 142 144
19.727438 11.464386 87.065224 170 146 149
19.727438 11.652069 87.065224 175 153 155
19.727438 11.839752 87.065224 175 157 159
19.669756 11.992268 86.810646 173 161 162
19.498714 12.073494 86.055771 168 165 165
19.386330 12.188344 85.559776 164 169 169
19.330622 12.337229 85.313911 158 169 171
19.275234 12.485259 85.069466 146 161 165
19.220161 12.632444 84.826408 139 153 161
19.165403 12.778790 84.584732 150 160 171
19.165403 12.961126 84.584732 162 167 180
19.165403 13.143463 84.584732 161 160 175
19.110956 13.287942 84.344437 162 155 170
19.110956 13.469760 84.344437 171 159 173
19.110956 13.651578 84.344437 177 162 174
19.110956 13.833396 84.344437 178 161 171
19.165403 14.055143 84.584732 178 160 169
19.165403 14.237480 84.584732 177 159 167
19.220161 14.461016 84.826408 176 158 165
19.220161 14.643873 84.826408 173 156 162
19.220161 14.826730 84.826408 171 154 160
19.220161 15.009587 84.826408 171 153 160
19.165403 15.149161 84.584732 170 152 160
19.165403 15.331497 84.584732 169 151 161
19.110956 15.469760 84.344437 169 149 162
19.110956 15.651578 84.344437 170 148 161
19.002985 15.743942 83.867912 169 145 157
18.896227 15.835268 83.396751 168 143 151
18.790661 15.925574 82.930847 170 145 145
18.738319 16.059486 82.699837 173 148 136
18.430292 15.970837 81.340393 175 150 124
18.379936 16.102064 81.118149 171 148 108
18.379936 16.276928 81.118149 158 138 86
18.430292 16.496864 81.340393 150 135 78
18.430292 16.672207 81.340393 172 162 109
18.430292 16.847549 81.340393 198 190 145
19.002985 17.551851 83.867912 176 165 128
19.110956 17.833397 84.344437 134 120 94
19.110956 18.015215 84.344437 133 118 104
19.220161 18.301016 84.826408 149 132 128
19.612410 18.861095 86.557556 153 135 137
19.612410 19.047684 86.557556 153 132 139
19.442360 19.067501 85.807060 147 126 135
19.386330 19.196989 85.559776 143 120 132
19.220161 19.215302 84.826408 139 116 130
19.165403 19.342894 84.584732 134 113 129
19.110956 19.469759 84.344437 130 109 127
19.002985 19.540552 83.867912 124 105 125
18.949455 19.665791 83.631668 119 101 121
18.949455 19.846071 83.631668 117 99 118
18.949455 20.026354 83.631668 117 100 116
18.949455 20.206635 83.631668 116 98 112
19.002985 20.444508 83.867912 115 95 106
19.002985 20.625298 83.867912 116 95 102
19.002985 20.806089 83.867912 120 98 103
19.002985 20.986879 83.867912 124 100 104
19.002985 21.167671 83.867912 122 97 101
19.002985 21.348461 83.867912 113 89 94
18.949455 21.468607 83.631668 105 82 88
18.949455 21.648890 83.631668 100 78 85
18.896227 21.767853 83.396751 97 75 84
18.896227 21.947628 83.396751 94 73 82
18.843296 22.065422 83.163147 90 70 81
18.843296 22.244694 83.163147 87 68 80
18.843296 22.423965 83.163147 84 66 77
18.843296 22.603237 83.163147 85 68 79
18.843296 22.782509 83.163147 92 74 85
18.843296 22.961781 83.163147 96 78 88
18.896227 23.206055 83.396751 92 75 84
18.896227 23.385830 83.396751 84 67 76
18.896227 23.565605 83.396751 77 61 69
18.896227 23.745380 83.396751 76 60 67
18.896227 23.925156 83.396751 76 61 67
18.843296 24.037411 83.163147 75 61 66
18.790661 24.149038 82.930847 74 60 65
18.843296 24.395954 83.163147 72 60 63
18.843296 24.575226 83.163147 70 59 61
19.129738 -1.246886 83.631668 37 30 27
19.292774 -1.075695 84.344437 36 28 26
19.347740 -0.896423 84.584732 35 27 26
19.347740 -0.714087 84.584732 34 26 25
19.403019 -0.533270 84.826408 33 25 24
19.458614 -0.351417 85.069466 32 24 24
19.458614 -0.168036 85.069466 31 24 23
19.514530 0.015389 85.313911 30 23 23
19.514530 0.199297 85.313911 29 22 23
19.514530 0.383205 85.313911 29 21 24
19.514530 0.567113 85.313911 30 21 26
19.514530 0.751021 85.313911 34 21 31
19.570768 0.937624 85.559776 40 21 35
19.570768 1.122062 85.559776 47 22 38
19.514530 1.302746 85.313911 59 28 44
19.514530 1.486654 85.313911 92 56 70
19.458614 1.665775 85.069466 147 107 117
19.403019 1.843873 84.826408 169 128 133
19.403019 2.026730 84.826408 129 88 88
19.347740 2.203292 84.584732 96 58 55
19.347740 2.385628 84.584732 118 84 78
19.347740 2.567964 84.584732 138 108 103
19.292774 2.742487 84.344437 112 85 82
19.292774 2.924305 84.344437 83 58 57
19.292774 3.106123 84.344437 86 64 65
19.292774 3.287942 84.344437 91 71 71
19.292774 3.469760 84.344437 76 58 58
19.292774 3.651578 84.344437 61 45 46
19.292774 3.833396 84.344437 56 41 41
19.458614 4.049729 85.069466 54 39 39
19.514530 4.245275 85.313911 54 37 39
19.570768 4.441947 85.559776 55 36 38
19.741444 4.666731 86.305939 57 35 39
19.856892 4.881156 86.810646 58 34 39
19.973696 5.098104 87.321304 60 33 41
20.091883 5.317620 87.837997 61 33 43
20.091883 5.506969 87.837997 64 37 48
20.151503 5.713221 88.098640 80 55 67
20.151503 5.903132 88.098640 108 86 99
20.211477 6.111177 88.360840 135 114 128
20.211477 6.301653 88.360840 149 130 144
20.211477 6.492129 88.360840 154 134 150
20.211477 6.682606 88.360840 158 138 154
20.211477 6.873082 88.360840 163 142 158
20.091883 7.021762 87.837997 163 140 155
19.915123 7.147670 87.065224 156 132 146
19.741444 7.271382 86.305939 146 121 134
19.627331 7.414322 85.807060 138 111 124
19.570768 7.577393 85.559776 135 107 120
19.514530 7.739527 85.313911 139 110 121
19.403019 7.878159 84.826408 146 117 127
19.347740 8.038050 84.584732 150 121 130
19.292774 8.197033 84.344437 146 116 125
19.292774 8.378851 84.344437 142 110 120
19.292774 8.560669 84.344437 141 109 120
19.292774 8.742487 84.344437 140 110 122
19.347740 8.949731 84.584732 141 112 125
19.403019 9.158158 84.826408 142 113 129
19.514530 9.394700 85.313911 143 115 133
19.570768 9.606212 85.559776 144 118 135
19.684221 9.847407 86.055771 148 122 138
19.741444 10.062079 86.305939 152 128 139
19.799000 10.278005 86.557556 151 127 135
19.856892 10.495192 86.810646 165 140 146
19.915123 10.713653 87.065224 206 186 188
19.915123 10.901336 87.065224 220 204 204
19.915123 11.089019 87.065224 188 169 167
19.915123 11.276702 87.065224 165 142 140
19.915123 11.464386 87.065224 167 145 146
19.915123 11.652069 87.065224 171 151 153
19.856892 11.805133 86.810646 170 156 158
19.741444 11.922545 86.305939 169 162 165
19.627331 12.038600 85.807060 166 169 171
19.514530 12.153320 85.313911 162 174 177
19.458614 12.301878 85.069466 152 171 176
19.403019 12.449587 84.826408 129 152 159
19.347740 12.596455 84.584732 118 140 150
19.347740 12.778790 84.584732 147 163 174
19.347740 12.961126 84.584732 176 185 197
19.292774 13.106124 84.344437 163 167 182
19.292774 13.287942 84.344437 148 145 163
19.292774 13.469760 84.344437 162 153 170
19.292774 13.651578 84.344437 177 163 178
19.292774 13.833396 84.344437 180 163 176
19.292774 14.015214 84.344437 180 162 173
19.292774 14.197033 84.344437 178 160 169
19.347740 14.419816 84.584732 176 158 166
19.347740 14.602152 84.584732 172 156 162
19.347740 14.784489 84.584732 172 155 161
19.347740 14.966825 84.584732 172 156 162
19.292774 15.106124 84.344437 172 156 163
19.292774 15.287942 84.344437 170 153 163
19.292774 15.469760 84.344437 171 151 163
19.238121 15.607240 84.105499 174 151 165
19.129738 15.699593 83.631668 175 151 163
18.969433 15.746803 82.930847 174 147 156
18.916592 15.881213 82.699837 173 145 145
18.864046 16.014875 82.470116 174 146 133
18.554800 15.927200 81.118149 174 148 120
18.554800 16.102064 81.118149 170 147 102
18.554800 16.276928 81.118149 157 137 79
18.605635 16.496864 81.340393 147 133 70
18.605635 16.672207 81.340393 172 164 107
18.811790 17.034225 82.241669 209 204 156
19.183775 17.551851 83.867912 181 173 135
19.292774 17.833397 84.344437 115 103 76
19.347740 18.066540 84.584732 110 97 83
19.403019 18.301016 84.826408 142 127 122
19.684221 18.751755 86.055771 152 135 138
19.684221 18.937262 86.055771 151 132 139
19.627331 19.067501 85.807060 146 127 136
19.570768 19.196989 85.559776 142 122 133
19.403019 19.215302 84.826408 139 118 131
19.347740 19.342894 84.584732 135 115 130
19.238121 19.414604 84.105499 131 112 128
19.076002 19.430775 83.396751 127 108 126
19.076002 19.610550 83.396751 122 105 123
19.076002 19.790325 83.396751 119 101 119
19.076002 19.970100 83.396751 117 98 115
19.076002 20.149876 83.396751 114 96 110
19.076002 20.329651 83.396751 115 95 107
19.076002 20.509426 83.396751 117 96 107
19.129738 20.747480 83.631668 118 96 105
19.129738 20.927761 83.631668 117 93 101
19.183775 21.167671 83.867912 114 89 98
19.129738 21.288324 83.631668 110 85 94
19.129738 21.468607 83.631668 106 82 91
19.076002 21.588078 83.396751 101 79 88
19.076002 21.767853 83.396751 97 76 85
19.022568 21.886150 83.163147 94 73 82
19.022568 22.065422 83.163147 91 70 80
18.969433 22.182558 82.930847 86 66 77
18.969433 22.361328 82.930847 82 63 74
18.969433 22.540098 82.930847 88 70 81
19.022568 22.782509 83.163147 102 85 97
19.022568 22.961781 83.163147 107 90 103
19.076002 23.206055 83.396751 97 80 93
19.076002 23.385830 83.396751 82 67 78
19.076002 23.565605 83.396751 75 60 70
19.076002 23.745380 83.396751 75 60 69
19.076002 23.925156 83.396751 75 60 68
19.076002 24.104931 83.396751 74 60 68
19.022568 24.216682 83.163147 73 60 66
19.076002 24.464481 83.396751 72 60 63
19.076002 24.644257 83.396751 70 59 61
19.474592 -1.257513 84.344437 36 29 26
19.530075 -1.078759 84.584732 34 27 25
19.585876 -0.898984 84.826408 33 26 24
19.585876 -0.716127 84.826408 32 25 24
19.585876 -0.533270 84.826408 31 24 23
19.585876 -0.350413 84.826408 30 23 21
19.641996 -0.168036 85.069466 29 22 20
19.641996 0.015345 85.069466 27 21 20
19.698439 0.199297 85.313911 26 20 20
19.698439 0.383205 85.313911 26 19 19
19.698439 0.567113 85.313911 28 18 21
19.698439 0.751021 85.313911 32 17 24
19.755207 0.937624 85.559776 37 17 26
19.755207 1.122062 85.559776 43 16 26
19.698439 1.302746 85.313911 52 18 28
19.641996 1.482394 85.069466 79 38 45
19.641996 1.665775 85.069466 130 85 88
19.585876 1.843873 84.826408 159 113 111
19.530075 2.020956 84.584732 135 91 85
19.530075 2.203292 84.584732 118 80 71
19.530075 2.385628 84.584732 149 116 106
19.530075 2.567964 84.584732 165 136 127
19.474592 2.742487 84.344437 126 98 92
19.474592 2.924305 84.344437 80 56 53
19.474592 3.106123 84.344437 75 52 51
19.474592 3.287942 84.344437 84 63 63
19.474592 3.469760 84.344437 84 65 65
19.474592 3.651578 84.344437 76 59 59
19.474592 3.833396 84.344437 68 53 52
19.585876 4.038158 84.826408 64 48 48
19.698439 4.245275 85.313911 62 44 45
19.698439 4.429183 85.313911 61 41 43
19.812302 4.639756 85.807060 60 37 41
19.927490 4.852777 86.305939 61 35 40
20.044025 5.068291 86.810646 62 33 41
20.221407 5.301934 87.578888 62 33 44
20.221407 5.490724 87.578888 65 37 49
20.281233 5.696318 87.837997 79 53 66
20.281233 5.885667 87.837997 104 81 93
20.401955 6.111177 88.360840 128 109 122
20.401955 6.301653 88.360840 144 126 140
20.401955 6.492129 88.360840 150 133 147
20.401955 6.682606 88.360840 155 137 152
20.401955 6.873082 88.360840 162 143 158
20.281233 7.021762 87.837997 164 143 158
20.102806 7.147670 87.065224 159 136 151
19.927490 7.271382 86.305939 150 125 139
19.812302 7.414322 85.807060 142 115 128
19.755207 7.577393 85.559776 138 109 122
19.698439 7.739527 85.313911 140 109 122
19.585876 7.878159 84.826408 146 114 125
19.530075 8.038050 84.584732 150 117 127
19.474592 8.197033 84.344437 148 114 125
19.474592 8.378851 84.344437 145 110 120
19.474592 8.560669 84.344437 143 109 120
19.474592 8.742487 84.344437 143 110 121
19.474592 8.924305 84.344437 143 111 124
19.530075 9.132067 84.584732 144 112 128
19.698439 9.394700 85.313911 143 114 131
19.755207 9.606212 85.559776 142 113 130
19.927490 9.876034 86.305939 143 116 131
19.985588 10.091415 86.557556 150 125 136
19.985588 10.278005 86.557556 151 126 133
20.102806 10.525970 87.065224 164 140 142
20.102806 10.713653 87.065224 206 184 183
20.102806 10.901336 87.065224 223 204 200
20.102806 11.089019 87.065224 190 169 165
20.102806 11.276702 87.065224 165 143 139
20.102806 11.464386 87.065224 166 145 144
20.102806 11.652069 87.065224 167 150 151
19.985588 11.770716 86.557556 164 153 156
19.869730 11.887987 86.055771 163 160 164
19.755207 12.003906 85.559776 162 169 172
19.698439 12.153320 85.313911 158 175 179
19.585876 12.266730 84.826408 141 165 171
19.530075 12.414118 84.584732 110 138 146
19.530075 12.596455 84.584732 104 129 140
19.530075 12.778790 84.584732 154 171 180
19.530075 12.961126 84.584732 196 205 212
19.474592 13.106124 84.344437 171 174 187
19.474592 13.287942 84.344437 138 136 156
19.474592 13.469760 84.344437 154 146 167
19.474592 13.651578 84.344437 177 163 182
19.474592 13.833396 84.344437 182 164 180
19.474592 14.015214 84.344437 182 164 176
19.474592 14.197033 84.344437 180 162 172
19.474592 14.378851 84.344437 176 159 167
19.530075 14.602152 84.584732 174 157 163
19.530075 14.784489 84.584732 176 161 166
19.530075 14.966825 84.584732 182 167 173
19.474592 15.106124 84.344437 178 163 170
19.474592 15.287942 84.344437 171 155 164
19.474592 15.469760 84.344437 171 154 165
19.419424 15.607240 84.105499 182 161 175
19.310019 15.699593 83.631668 191 167 180
19.201839 15.790912 83.163147 188 161 170
19.148203 15.925574 82.930847 182 152 153
19.041824 16.014875 82.470116 181 149 138
18.780977 15.970837 81.340393 179 149 122
18.729664 16.102064 81.118149 175 148 104
18.780977 16.321522 81.340393 167 145 87
18.780977 16.496864 81.340393 161 145 80
18.936621 16.810373 82.014481 177 167 109
19.201839 17.225086 83.163147 208 202 154
19.364567 17.551851 83.867912 183 175 138
19.474592 17.833397 84.344437 114 103 76
19.530075 18.066540 84.584732 105 92 79
19.585876 18.301016 84.826408 139 125 121
19.755207 18.643675 85.559776 151 135 138
19.812302 18.882530 85.807060 150 132 139
19.755207 19.012552 85.559776 145 127 136
19.698439 19.141827 85.313911 141 123 134
19.585876 19.215302 84.826408 138 119 132
19.530075 19.342894 84.584732 136 116 130
19.419424 19.414604 84.105499 133 113 129
19.148203 19.322222 82.930847 129 111 126
19.148203 19.500994 82.930847 125 107 123
19.201839 19.734890 83.163147 121 103 119
19.201839 19.914162 83.163147 118 100 115
19.201839 20.093433 83.163147 115 97 111
19.255777 20.329651 83.396751 115 96 108
19.255777 20.509426 83.396751 116 96 108
19.255777 20.689201 83.396751 117 96 107
19.310019 20.927761 83.631668 116 93 104
19.310019 21.108044 83.631668 113 88 100
19.310019 21.288324 83.631668 108 84 96
19.255777 21.408302 83.396751 104 81 93
19.255777 21.588078 83.396751 100 78 89
19.201839 21.706879 83.163147 97 76 85
19.148203 21.825016 82.930847 93 73 82
19.148203 22.003786 82.930847 90 70 79
19.148203 22.182558 82.930847 83 63 73
19.148203 22.361328 82.930847 80 59 71
19.148203 22.540098 82.930847 98 79 91
19.201839 22.782509 83.163147 127 109 123
19.201839 22.961781 83.163147 133 115 130
19.201839 23.141052 83.163147 108 92 107
19.255777 23.385830 83.396751 80 65 79
19.255777 23.565605 83.396751 71 56 69
19.255777 23.745380 83.396751 73 59 69
19.255777 23.925156 83.396751 73 60 68
19.255777 24.104931 83.396751 72 60 67
19.201839 24.216682 83.163147 71 60 66
19.255777 24.464481 83.396751 71 60 63
19.255777 24.644257 83.396751 69 59 61
19.712412 -1.078759 84.584732 33 27 24
19.768734 -0.898984 84.826408 31 25 23
19.712412 -0.714087 84.584732 30 23 22
19.712412 -0.531751 84.584732 29 22 21
19.712412 -0.349415 84.584732 28 21 19
19.768734 -0.167556 84.826408 27 20 18
19.768734 0.015301 84.826408 25 19 17
19.768734 0.198158 84.826408 24 18 17
19.825377 0.382107 85.069466 24 17 17
19.882347 0.567113 85.313911 25 17 18
19.882347 0.751021 85.313911 30 16 20
19.882347 0.934929 85.313911 36 15 20
19.882347 1.118838 85.313911 42 13 20
19.882347 1.302746 85.313911 51 14 19
19.882347 1.486654 85.313911 71 27 30
19.882347 1.670562 85.313911 107 58 57
19.768734 1.843873 84.826408 132 82 77
19.768734 2.026730 84.826408 137 93 85
19.712412 2.203292 84.584732 154 119 110
19.712412 2.385628 84.584732 168 139 130
19.656410 2.560669 84.344437 146 118 110
19.656410 2.742487 84.344437 105 77 72
19.656410 2.924305 84.344437 77 53 50
19.656410 3.106123 84.344437 75 53 52
19.656410 3.287942 84.344437 84 63 63
19.656410 3.469760 84.344437 90 69 70
19.600727 3.641234 84.105499 87 68 68
19.656410 3.833396 84.344437 79 62 62
19.768734 4.038158 84.826408 74 56 56
19.825377 4.233110 85.069466 71 52 53
19.882347 4.429183 85.313911 68 47 49
19.939644 4.626385 85.559776 65 41 44
19.997274 4.824727 85.807060 62 35 41
20.113537 5.038824 86.305939 62 33 42
20.350166 5.286340 87.321304 63 34 45
20.410196 5.490724 87.578888 68 39 52
20.410196 5.679515 87.578888 81 55 67
20.410196 5.868305 87.578888 101 79 91
20.531326 6.093043 88.098640 122 103 115
20.592430 6.301653 88.360840 136 119 132
20.592430 6.492129 88.360840 143 127 140
20.592430 6.682606 88.360840 149 135 148
20.592430 6.873082 88.360840 159 143 156
20.470581 7.021762 87.837997 164 146 160
20.350166 7.168693 87.321304 162 141 155
20.172176 7.292582 86.557556 156 132 146
19.997274 7.414322 85.807060 147 120 134
19.939644 7.577393 85.559776 139 109 123
19.882347 7.739527 85.313911 139 107 121
19.825377 7.900732 85.069466 144 110 123
19.712412 8.038050 84.584732 148 113 124
19.656410 8.197033 84.344437 148 113 123
19.656410 8.378851 84.344437 146 110 120
19.600727 8.536418 84.105499 144 109 119
19.600727 8.717721 84.105499 144 109 120
19.600727 8.899024 84.105499 144 111 123
19.656410 9.106124 84.344437 144 112 127
19.712412 9.314403 84.584732 144 114 129
19.882347 9.578608 85.313911 142 113 128
20.113537 9.876034 86.305939 142 115 128
20.113537 10.062079 86.305939 149 123 133
20.172176 10.278005 86.557556 149 124 129
20.290489 10.525970 87.065224 158 133 134
20.290489 10.713653 87.065224 197 173 171
20.290489 10.901336 87.065224 219 197 193
20.290489 11.089019 87.065224 193 170 165
20.290489 11.276702 87.065224 166 144 139
20.290489 11.464386 87.065224 165 145 143
20.231159 11.617998 86.810646 165 150 150
20.172176 11.770716 86.557556 161 152 155
19.997274 11.853628 85.807060 159 157 162
19.882347 11.969412 85.313911 159 167 171
19.825377 12.118497 85.069466 155 172 177
19.768734 12.266730 84.826408 135 157 165
19.712412 12.414118 84.584732 103 129 140
19.712412 12.596455 84.584732 110 132 145
19.712412 12.778790 84.584732 171 184 193
19.656410 12.924305 84.344437 211 216 223
19.656410 13.106124 84.344437 177 178 191
19.656410 13.287942 84.344437 137 134 156
19.656410 13.469760 84.344437 152 143 169
19.656410 13.651578 84.344437 177 163 185
19.656410 13.833396 84.344437 182 164 182
19.656410 14.015214 84.344437 182 163 178
19.656410 14.197033 84.344437 181 161 173
19.656410 14.378851 84.344437 178 159 168
19.712412 14.602152 84.584732 176 159 166
19.712412 14.784489 84.584732 183 168 173
19.712412 14.966825 84.584732 194 179 185
19.656410 15.106124 84.344437 186 171 179
19.656410 15.287942 84.344437 169 155 165
19.656410 15.469760 84.344437 171 155 168
19.656410 15.651578 84.344437 190 172 187
19.490301 15.699593 83.631668 207 185 200
19.435553 15.835268 83.396751 206 179 192
19.381111 15.970183 83.163147 200 169 173
19.273138 16.059486 82.699837 200 166 158
19.113417 16.103191 82.014481 198 164 140
19.008398 16.190536 81.563850 190 159 120
19.060762 16.411448 81.788544 188 163 110
19.166363 16.679655 82.241669 188 170 109
19.326973 16.998199 82.930847 184 171 113
19.490301 17.322128 83.631668 188 179 130
19.545359 17.551851 83.867912 174 165 126
19.656410 17.833397 84.344437 132 121 93
19.712412 18.066540 84.584732 123 111 98
19.768734 18.301016 84.826408 142 129 126
19.939644 18.643675 85.559776 149 135 137
19.939644 18.828114 85.559776 147 132 139
19.939644 19.012552 85.559776 144 128 136
19.882347 19.141827 85.313911 141 124 134
19.768734 19.215302 84.826408 138 121 132
19.712412 19.342894 84.584732 135 118 130
19.600727 19.414604 84.105499 133 115 128
19.435553 19.430775 83.396751 130 113 126
19.381111 19.555618 83.163147 126 109 123
19.381111 19.734890 83.163147 122 105 119
19.381111 19.914162 83.163147 118 101 114
19.381111 20.093433 83.163147 115 98 111
19.435553 20.329651 83.396751 115 96 109
19.435553 20.509426 83.396751 114 94 107
19.435553 20.689201 83.396751 114 93 106
19.490301 20.927761 83.631668 112 90 103
19.545359 21.167671 83.867912 110 87 100
19.490301 21.288324 83.631668 106 84 96
19.435553 21.408302 83.396751 102 81 92
19.381111 21.527607 83.163147 98 79 88
19.326973 21.646244 82.930847 95 77 84
19.326973 21.825016 82.930847 91 73 80
19.326973 22.003786 82.930847 88 69 76
19.326973 22.182558 82.930847 79 59 67
19.326973 22.361328 82.930847 79 59 68
19.326973 22.540098 82.930847 112 92 103
19.381111 22.782509 83.163147 152 133 146
19.381111 22.961781 83.163147 154 135 150
19.381111 23.141052 83.163147 117 99 115
19.381111 23.320324 83.163147 77 61 76
19.381111 23.499596 83.163147 67 52 65
19.435553 23.745380 83.396751 71 57 69
19.435553 23.925156 83.396751 71 59 67
19.381111 24.037411 83.163147 70 59 66
19.381111 24.216682 83.163147 70 59 64
19.381111 24.395954 83.163147 69 59 62
19.838228 -0.893876 84.344437 30 24 22
19.838228 -0.712058 84.344437 28 22 21
19.838228 -0.530240 84.344437 27 20 19
19.838228 -0.348422 84.344437 26 19 18
19.838228 -0.166604 84.344437 25 18 17
19.838228 0.015214 84.344437 24 18 16
19.838228 0.197033 84.344437 23 17 15
19.894749 0.379930 84.584732 23 16 16
19.951590 0.563873 84.826408 24 16 17
19.951590 0.746730 84.826408 29 15 18
20.066256 0.934929 85.313911 35 14 18
20.008759 1.115632 85.069466 42 12 17
20.066256 1.302746 85.313911 51 12 16
20.066256 1.486654 85.313911 64 17 20
20.066256 1.670562 85.313911 83 31 30
20.008759 1.849156 85.069466 102 51 46
19.951590 2.026730 84.826408 140 98 92
19.894749 2.203292 84.584732 189 159 155
19.894749 2.385628 84.584732 176 151 147
19.838228 2.560669 84.344437 112 84 79
19.838228 2.742487 84.344437 76 49 45
19.838228 2.924305 84.344437 76 52 50
19.838228 3.106123 84.344437 82 60 60
19.838228 3.287942 84.344437 88 67 68
19.782030 3.459930 84.105499 93 72 74
19.782030 3.641234 84.105499 93 72 74
19.838228 3.833396 84.344437 88 68 69
19.894749 4.026654 84.584732 82 63 64
20.008759 4.233110 85.069466 79 59 61
20.008759 4.416492 85.069466 75 53 55
20.066256 4.613091 85.313911 69 44 48
20.124083 4.810822 85.559776 63 36 42
20.240744 5.024219 86.055771 62 33 41
20.478172 5.270837 87.065224 65 36 46
20.538403 5.474575 87.321304 72 43 56
20.538403 5.662810 87.321304 83 57 70
20.538403 5.851046 87.321304 99 77 90
20.721237 6.093043 88.098640 116 97 110
20.782907 6.301653 88.360840 129 113 125
20.782907 6.492129 88.360840 136 122 134
20.782907 6.682606 88.360840 142 130 142
20.782907 6.873082 88.360840 153 140 152
20.659931 7.021762 87.837997 161 145 159
20.538403 7.168693 87.321304 164 145 159
20.358767 7.292582 86.557556 161 138 153
20.182245 7.414322 85.807060 151 125 141
20.182245 7.599293 85.807060 141 111 126
20.066256 7.739527 85.313911 138 106 121
20.008759 7.900732 85.069466 142 107 121
19.894749 8.038050 84.584732 146 111 123
19.838228 8.197033 84.344437 147 112 123
19.782030 8.355115 84.105499 146 110 121
19.726149 8.512303 83.867912 144 109 119
19.726149 8.693094 83.867912 144 109 120
19.726149 8.873885 83.867912 145 111 124
19.726149 9.054676 83.867912 145 113 126
19.838228 9.287942 84.344437 146 115 129
19.951590 9.523872 84.826408 145 116 128
20.124083 9.790649 85.559776 145 117 127
20.299583 10.062079 86.305939 148 121 128
20.358767 10.278005 86.557556 147 120 123
20.538403 10.556928 87.321304 148 122 121
20.538403 10.745163 87.321304 180 154 152
20.478172 10.901336 87.065224 211 188 184
20.478172 11.089019 87.065224 195 172 167
20.478172 11.276702 87.065224 168 145 140
20.418295 11.430864 86.810646 163 143 140
20.418295 11.617998 86.810646 164 149 148
20.358767 11.770716 86.557556 160 151 152
20.124083 11.819468 85.559776 156 154 158
20.066256 11.969412 85.313911 156 164 167
19.951590 12.083873 84.826408 154 169 174
19.894749 12.231782 84.584732 137 156 165
19.894749 12.414118 84.584732 119 139 152
19.838228 12.560669 84.344437 137 154 169
19.838228 12.742487 84.344437 191 200 213
19.838228 12.924305 84.344437 214 217 228
19.838228 13.106124 84.344437 175 174 191
