ply
format ascii 1.0
element vertex 1262
property float x
property float y
property float z
property uchar red
property uchar green
property uchar blue
end_header
4.259188 7.756973 38.657867 125 56 69
4.259188 7.840307 38.657867 122 54 66
4.253650 7.913336 38.607597 122 55 66
4.248126 7.986176 38.557457 126 59 69
4.242616 8.058826 38.507446 129 63 74
4.242616 8.141836 38.507446 131 64 75
4.237120 8.214191 38.457569 130 63 74
4.231638 8.286359 38.407818 129 61 73
4.199046 8.304692 38.111992 128 59 72
4.193662 8.376097 38.063129 128 58 71
4.193662 8.458148 38.063129 130 59 72
4.177595 8.507479 37.917294 134 61 75
4.172266 8.578259 37.868931 138 63 78
4.172266 8.659892 37.868931 140 64 80
4.172266 8.741525 37.868931 141 64 81
4.161650 8.800707 37.772572 140 64 83
4.145826 8.848359 37.628952 140 63 83
4.145826 8.929475 37.628952 140 63 84
6.268903 0.250668 55.806847 126 85 105
6.280709 0.371668 55.911945 127 85 105
6.280709 0.492195 55.911945 127 85 105
6.292560 0.613878 56.017437 128 84 105
6.292560 0.734633 56.017437 127 84 104
6.292560 0.855388 56.017437 127 84 104
6.292560 0.976142 56.017437 127 83 103
6.292560 1.096897 56.017437 126 83 102
6.304455 1.219954 56.123333 127 84 103
6.304455 1.340937 56.123333 128 86 104
6.316395 1.464688 56.229626 128 87 105
6.316395 1.585901 56.229626 128 89 106
6.316395 1.707113 56.229626 126 89 106
6.316395 1.828325 56.229626 123 88 103
6.328381 1.953236 56.336323 121 89 102
6.328381 2.074678 56.336323 120 90 101
6.328381 2.196121 56.336323 119 92 100
6.340412 2.321969 56.443428 118 93 99
6.352489 2.448296 56.550938 119 94 98
6.352489 2.570201 56.550938 119 94 99
6.364612 2.697243 56.658859 120 94 99
6.352489 2.814010 56.550938 121 93 98
6.340412 2.930334 56.443428 121 92 98
6.316395 3.040446 56.229626 118 89 95
6.268903 3.137886 55.806847 114 84 90
6.176031 3.209918 54.980080 109 81 86
6.096996 3.285842 54.276493 106 78 83
6.096996 3.402844 54.276493 102 76 80
6.063739 3.500646 53.980442 97 74 77
5.790029 3.453742 51.543823 92 70 73
5.662235 3.486172 50.406185 88 66 68
5.577018 3.540728 49.647564 84 62 64
5.494327 3.593666 48.911438 81 58 60
5.458358 3.674886 48.591232 80 53 56
5.440549 3.767301 48.432693 79 50 53
5.361827 3.815684 47.731899 80 47 50
5.319069 3.887329 47.351265 81 46 49
5.285351 3.964113 47.051098 84 46 50
5.252058 4.039930 46.754711 87 46 51
5.235568 4.127717 46.607914 90 46 52
4.854522 4.293094 43.215782 96 48 54
4.819446 4.354560 42.903530 97 49 56
4.798643 4.427850 42.718334 99 49 57
4.791748 4.513442 42.656956 101 49 58
4.778018 4.592200 42.534733 103 49 59
4.778018 4.683890 42.534733 105 48 58
4.771183 4.768749 42.473881 105 46 56
4.764367 4.853365 42.413204 106 44 55
4.764367 4.944794 42.413204 111 46 57
4.750793 5.021874 42.292366 116 49 60
4.737297 5.098516 42.172218 115 48 58
4.737297 5.189425 42.172218 112 45 56
4.723876 5.265376 42.052750 111 45 55
4.717195 5.348452 41.993271 110 44 55
4.710532 5.431293 41.933956 112 48 57
4.690656 5.498390 41.757023 114 50 60
4.644926 5.533921 41.349918 115 51 61
4.632023 5.607438 41.235058 114 50 62
4.625599 5.688426 41.177868 113 51 63
4.612803 5.761211 41.063957 114 52 65
4.600078 5.833594 40.950680 117 58 71
4.587423 5.905578 40.838024 123 65 78
4.568571 5.968980 40.670197 124 67 80
4.562321 6.048366 40.614559 120 63 77
4.562321 6.135917 40.614559 119 60 75
4.549872 6.206488 40.503742 119 59 75
4.543674 6.285225 40.448559 121 60 75
4.543674 6.372419 40.448559 123 61 76
4.537492 6.450824 40.393528 126 62 78
4.531327 6.529016 40.338646 131 64 81
4.512932 6.589114 40.174889 136 68 84
4.512932 6.675718 40.174889 139 70 86
4.512932 6.762321 40.174889 137 67 83
4.506833 6.839670 40.120598 132 60 77
4.482603 6.888919 39.904896 127 54 71
4.470585 6.956241 39.797913 124 51 68
4.458632 7.023202 39.691502 123 50 67
4.440821 7.080367 39.532948 123 52 68
4.429026 7.146554 39.427944 124 53 71
4.417294 7.212391 39.323498 127 56 74
4.394014 7.258703 39.116261 129 58 75
4.376715 7.314115 38.962261 127 56 72
4.365257 7.378737 38.860264 122 51 66
4.353860 7.443023 38.758801 123 51 66
4.348183 7.516761 38.708267 129 56 72
4.342522 7.590307 38.657867 133 61 75
4.342522 7.673640 38.657867 130 59 73
4.342522 7.756973 38.657867 126 56 69
4.342522 7.840307 38.657867 123 54 66
4.336874 7.913336 38.607597 122 54 65
4.331243 7.986176 38.557457 124 58 69
4.325624 8.058826 38.507446 128 61 73
4.325624 8.141836 38.507446 130 63 74
4.320022 8.214191 38.457569 130 63 75
4.308859 8.275653 38.358192 130 62 75
4.281202 8.304692 38.111992 130 61 74
4.275713 8.376097 38.063129 130 60 74
4.270239 8.447318 38.014393 131 60 74
4.259332 8.507479 37.917294 134 62 76
4.253899 8.578259 37.868931 137 62 77
4.253899 8.659892 37.868931 138 62 78
4.253899 8.741525 37.868931 138 62 78
4.243074 8.800707 37.772572 138 61 80
4.232306 8.859589 37.676704 137 61 81
4.226941 8.929475 37.628952 136 61 82
6.401237 0.251140 55.911945 124 82 102
6.401237 0.371668 55.911945 125 83 102
6.413314 0.493124 56.017437 126 83 103
6.413314 0.613878 56.017437 128 84 104
6.425438 0.736022 56.123333 129 85 104
6.425438 0.857005 56.123333 129 86 104
6.425438 0.977988 56.123333 128 86 103
6.425438 1.098971 56.123333 127 85 102
6.437607 1.222264 56.229626 125 84 101
6.437607 1.343476 56.229626 123 83 101
6.437607 1.464688 56.229626 123 84 102
6.437607 1.585901 56.229626 125 88 105
6.437607 1.707113 56.229626 126 89 106
6.449823 1.831794 56.336323 124 89 104
6.449823 1.953236 56.336323 121 89 102
6.462085 2.078623 56.443428 120 90 101
6.462085 2.200296 56.443428 118 90 99
6.474393 2.326391 56.550938 118 91 98
6.499152 2.457659 56.767193 118 92 98
6.499152 2.580029 56.767193 119 92 99
6.499152 2.702400 56.767193 119 92 99
6.486749 2.819381 56.658859 120 92 100
6.474393 2.935915 56.550938 121 91 100
6.449823 3.046215 56.336323 118 88 97
6.413314 3.149727 56.017437 113 83 93
6.317949 3.221850 55.184464 108 80 89
6.236801 3.297900 54.475674 105 78 85
6.213997 3.402844 54.276493 101 77 83
6.191360 3.507023 54.078766 97 75 80
6.069744 3.552420 53.016502 92 72 75
5.790556 3.498050 50.577927 88 68 70
5.703115 3.552610 49.814163 84 64 65
5.609004 3.599597 48.992149 82 59 61
5.572224 3.680911 48.670887 80 54 57
5.535923 3.761165 48.353813 79 51 54
5.464721 3.815684 47.731899 80 49 52
5.429803 3.893539 47.426903 82 47 50
5.403905 3.976718 47.200703 84 47 51
5.352845 4.039930 46.754711 86 46 52
5.352845 4.140718 46.754711 88 47 53
4.947680 4.293094 43.215782 95 48 56
4.904844 4.348276 42.841618 96 48 56
4.890729 4.427850 42.718334 97 49 56
4.883702 4.513442 42.656956 99 48 57
4.869709 4.592200 42.534733 101 48 58
4.869709 4.683890 42.534733 103 48 58
4.862742 4.768749 42.473881 104 46 57
4.862742 4.860308 42.473881 106 44 56
4.855795 4.944794 42.413204 110 46 58
4.841961 5.021874 42.292366 113 48 60
4.828206 5.098516 42.172218 113 47 59
4.828206 5.189425 42.172218 112 46 57
4.821357 5.272845 42.112400 111 45 56
4.807718 5.348452 41.993271 110 45 56
4.800928 5.431293 41.933956 112 48 58
4.767261 5.482967 41.639893 115 51 61
4.734062 5.533921 41.349918 116 51 62
4.720912 5.607438 41.235058 114 51 62
4.714364 5.688426 41.177868 113 50 62
4.701323 5.761211 41.063957 112 50 63
4.688354 5.833594 40.950680 115 55 67
4.681896 5.913713 40.894272 122 63 75
4.669034 5.985378 40.781925 124 65 77
4.656242 6.056651 40.670197 122 62 75
4.656242 6.144322 40.670197 119 58 73
4.643520 6.214966 40.559074 119 57 72
4.637185 6.293800 40.503742 120 57 72
4.630867 6.372419 40.448559 121 57 73
4.630867 6.459612 40.448559 124 58 75
4.618283 6.529016 40.338646 127 61 77
4.599535 6.589114 40.174889 132 64 79
4.599535 6.675718 40.174889 136 66 81
4.593320 6.753183 40.120598 137 67 82
4.587121 6.830439 40.066452 133 62 78
4.556376 6.870450 39.797913 126 55 71
4.550277 6.946929 39.744637 123 51 68
4.538126 7.013826 39.638508 123 51 68
4.520022 7.070951 39.480373 123 53 69
4.514019 7.146554 39.427944 124 54 71
4.496107 7.202851 39.271484 127 57 74
4.466566 7.239626 39.013458 127 57 73
4.454858 7.304529 38.911194 125 55 69
4.449027 7.378737 38.860264 121 50 64
4.437411 7.443023 38.758801 121 49 63
4.431625 7.516761 38.708267 126 53 68
4.425855 7.590307 38.657867 132 58 72
4.425855 7.673640 38.657867 131 58 72
4.425855 7.756973 38.657867 127 56 69
4.425855 7.840307 38.657867 124 54 67
4.420100 7.913336 38.607597 122 54 66
4.414359 7.986176 38.557457 123 57 68
4.414359 8.069293 38.557457 126 59 71
4.408634 8.141836 38.507446 128 61 74
4.402923 8.214191 38.457569 130 62 75
4.391546 8.275653 38.358192 131 63 76
4.368968 8.315367 38.160980 132 63 77
4.357765 8.376097 38.063129 132 63 77
4.352185 8.447318 38.014393 134 63 77
4.341069 8.507479 37.917294 135 63 77
4.335531 8.578259 37.868931 137 62 77
4.335531 8.659892 37.868931 137 62 77
4.335531 8.741525 37.868931 137 61 78
4.324500 8.800707 37.772572 137 60 78
4.313524 8.859589 37.676704 136 60 79
6.534069 0.372369 56.017437 123 80 101
6.534069 0.493124 56.017437 125 82 103
6.534069 0.613878 56.017437 127 84 104
6.546421 0.736022 56.123333 129 86 104
6.546421 0.857005 56.123333 129 87 104
6.558819 0.979840 56.229626 128 87 103
6.558819 1.101052 56.229626 125 85 101
6.558819 1.222264 56.229626 122 82 99
6.558819 1.343476 56.229626 119 80 97
6.558819 1.464688 56.229626 120 82 100
6.558819 1.585901 56.229626 124 87 105
6.558819 1.707113 56.229626 125 89 107
6.571265 1.831794 56.336323 123 89 105
6.583758 1.956950 56.443428 121 88 102
6.583758 2.078623 56.443428 119 88 100
6.596298 2.204487 56.550938 117 88 98
6.621523 2.335288 56.767193 117 89 97
6.634208 2.462367 56.875942 117 89 97
6.646942 2.589934 56.985111 118 90 99
6.646942 2.712775 56.985111 120 91 101
6.634208 2.830183 56.875942 122 92 103
6.621523 2.947142 56.767193 121 91 103
6.596298 3.057820 56.550938 117 87 99
6.546421 3.155681 56.123333 112 82 94
6.473003 3.239917 55.493912 107 79 90
6.354232 3.297900 54.475674 104 78 88
6.319447 3.396634 54.177448 101 78 86
6.307936 3.507023 54.078766 97 76 83
6.022707 3.571053 51.633465 88 69 73
5.820263 3.558581 49.897884 84 64 68
5.733538 3.611516 49.154373 82 59 63
5.686464 3.686955 48.750809 81 55 60
5.640157 3.761165 48.353813 80 52 57
5.567615 3.815684 47.731899 80 50 54
5.532039 3.893539 47.426903 81 48 53
5.488204 3.964113 47.051098 83 47 53
5.445057 4.033578 46.681198 84 47 54
5.445057 4.134207 46.681198 86 47 55
5.040839 4.293094 43.215782 93 48 57
4.997196 4.348276 42.841618 94 48 57
4.989995 4.434230 42.779888 95 48 57
4.982815 4.519936 42.718334 97 48 57
4.975656 4.605396 42.656956 99 48 57
4.961399 4.683890 42.534733 101 48 58
4.961399 4.775581 42.534733 103 46 58
4.954301 4.860308 42.473881 105 45 57
4.947224 4.944794 42.413204 109 46 58
4.940166 5.029038 42.352699 111 47 59
4.926112 5.105769 42.232208 112 47 59
4.919115 5.189425 42.172218 111 46 57
4.912137 5.272845 42.112400 110 45 56
4.898242 5.348452 41.993271 110 45 56
4.877544 5.415994 41.815834 113 48 59
4.857022 5.482967 41.639893 116 51 62
4.823199 5.533921 41.349918 116 51 63
4.809801 5.607438 41.235058 115 51 63
4.803130 5.688426 41.177868 113 50 62
4.789843 5.761211 41.063957 112 49 62
4.776630 5.833594 40.950680 114 52 65
4.770051 5.913713 40.894272 119 58 69
4.756946 5.985378 40.781925 123 61 73
4.750421 6.064960 40.725983 122 60 73
4.743913 6.144322 40.670197 121 57 71
4.730952 6.214966 40.559074 120 56 70
4.724497 6.293800 40.503742 119 55 68
4.718061 6.372419 40.448559 119 54 69
4.718061 6.459612 40.448559 121 55 70
4.705240 6.529016 40.338646 124 58 72
4.686139 6.589114 40.174889 129 61 75
4.686139 6.675718 40.174889 134 65 79
4.673491 6.744070 40.066452 136 67 81
4.660911 6.812053 39.958603 133 64 79
4.635952 6.861252 39.744637 127 57 72
4.629755 6.937641 39.691502 123 52 68
4.623574 7.013826 39.638508 123 53 69
4.605128 7.070951 39.480373 124 54 71
4.592913 7.137076 39.375652 125 56 72
4.580763 7.202851 39.271484 126 57 72
4.544694 7.230125 38.962261 125 56 70
4.538737 7.304529 38.911194 122 53 66
4.532797 7.378737 38.860264 120 49 62
4.520962 7.443023 38.758801 118 46 59
4.515067 7.516761 38.708267 122 49 62
4.509188 7.590307 38.657867 129 55 68
4.509188 7.673640 38.657867 132 58 72
4.509188 7.756973 38.657867 128 56 68
4.509188 7.840307 38.657867 124 53 66
4.503325 7.913336 38.607597 123 54 64
4.497476 7.986176 38.557457 123 55 66
4.497476 8.069293 38.557457 124 57 69
4.497476 8.152410 38.557457 127 59 72
4.491643 8.224845 38.507446 129 62 74
4.474233 8.275653 38.358192 132 63 77
4.451230 8.315367 38.160980 133 64 78
4.439816 8.376097 38.063129 134 65 79
4.434132 8.447318 38.014393 135 65 79
4.422805 8.507479 37.917294 136 64 78
4.422805 8.589215 37.917294 136 62 77
4.417164 8.659892 37.868931 135 61 76
4.417164 8.741525 37.868931 135 60 77
4.411537 8.811918 37.820690 136 61 78
4.394742 8.859589 37.676704 136 61 79
6.654824 0.493124 56.017437 123 80 102
6.667404 0.615039 56.123333 126 83 104
6.680031 0.737416 56.229626 127 85 104
6.680031 0.858628 56.229626 127 86 102
6.680031 0.979840 56.229626 127 86 102
6.680031 1.101052 56.229626 125 86 101
6.680031 1.222264 56.229626 122 83 99
6.680031 1.343476 56.229626 119 81 98
6.680031 1.464688 56.229626 119 82 100
6.680031 1.585901 56.229626 123 87 104
6.680031 1.707113 56.229626 125 89 106
6.705431 1.835277 56.443428 123 89 104
6.705431 1.956950 56.443428 120 87 101
6.718203 2.082582 56.550938 118 86 98
6.718203 2.204487 56.550938 117 87 97
6.756814 2.339761 56.875942 116 87 97
6.782801 2.471838 57.094696 117 88 97
6.808990 2.604933 57.315140 119 88 99
6.822160 2.733763 57.425999 121 90 102
6.795870 2.846542 57.204704 124 93 106
6.756814 2.952788 56.875942 124 93 106
6.731024 3.063655 56.658859 118 87 102
6.667404 3.155681 56.123333 112 81 96
6.592629 3.239917 55.493912 108 78 92
6.483560 3.303962 54.575813 105 78 90
6.424511 3.390447 54.078766 101 77 88
6.401192 3.494293 53.882473 97 75 84
5.927826 3.558581 49.897884 84 63 68
5.839498 3.611516 49.154373 82 59 64
5.791554 3.686955 48.750809 81 55 61
5.735052 3.755049 48.275192 80 52 59
5.661407 3.809559 47.655285 79 50 57
5.625290 3.887329 47.351265 80 48 55
5.571970 3.951588 46.902435 81 47 54
5.545687 4.033578 46.681198 83 47 55
5.545687 4.134207 46.681198 84 47 57
5.148988 4.305628 43.341961 92 48 58
5.104279 4.360862 42.965618 93 48 58
5.089548 4.440629 42.841618 94 48 58
5.082214 4.526449 42.779888 95 49 58
5.074902 4.612022 42.718334 97 48 58
5.074902 4.704109 42.718334 99 48 58
5.060339 4.782433 42.595757 100 47 57
5.053090 4.867271 42.534733 102 46 57
5.045861 4.951868 42.473881 106 46 58
5.038652 5.036222 42.413204 109 48 60
5.024297 5.113042 42.292366 111 48 59
5.010024 5.189425 42.172218 110 47 57
5.010024 5.280334 42.172218 109 45 56
4.988765 5.348452 41.993271 110 45 56
4.967685 5.415994 41.815834 113 48 59
4.946784 5.482967 41.639893 116 51 63
4.912335 5.533921 41.349918 116 51 63
4.891895 5.599661 41.177868 115 50 63
4.885120 5.680548 41.120834 114 49 63
4.878363 5.761211 41.063957 113 48 62
4.871625 5.841651 41.007240 113 50 63
4.858205 5.913713 40.894272 117 54 66
4.851522 5.993611 40.838024 122 59 71
4.844858 6.073290 40.781925 123 59 71
4.831584 6.144322 40.670197 122 56 69
4.824975 6.223468 40.614559 120 55 67
4.811810 6.293800 40.503742 119 53 66
4.805254 6.372419 40.448559 118 52 65
4.805254 6.459612 40.448559 119 53 66
4.792197 6.529016 40.338646 122 55 69
4.772742 6.589114 40.174889 126 58 72
4.766293 6.666697 40.120598 131 62 76
4.759861 6.744070 40.066452 135 66 81
4.747048 6.812053 39.958603 134 65 81
4.721629 6.861252 39.744637 128 59 76
4.715316 6.937641 39.691502 124 55 73
4.702742 7.004474 39.585655 123 55 73
4.690235 7.070951 39.480373 124 56 73
4.677794 7.137076 39.375652 125 57 73
4.665419 7.202851 39.271484 125 57 73
4.628683 7.230125 38.962261 124 55 70
4.622617 7.304529 38.911194 121 52 66
4.616566 7.378737 38.860264 118 47 61
4.604513 7.443023 38.758801 116 43 57
4.604513 7.526574 38.758801 118 44 58
4.598509 7.600203 38.708267 127 53 65
4.592522 7.673640 38.657867 132 58 70
4.592522 7.756973 38.657867 129 56 68
4.592522 7.840307 38.657867 126 53 64
4.592522 7.923640 38.657867 123 52 63
4.586550 7.996561 38.607597 122 52 63
4.580593 8.069293 38.557457 123 54 66
4.580593 8.152410 38.557457 126 58 69
4.574652 8.224845 38.507446 129 61 72
4.562816 8.286359 38.407818 132 64 76
4.533492 8.315367 38.160980 135 65 78
4.521867 8.376097 38.063129 136 66 79
4.516078 8.447318 38.014393 137 66 80
4.504542 8.507479 37.917294 136 65 79
4.504542 8.589215 37.917294 135 62 77
4.498797 8.659892 37.868931 134 60 75
4.498797 8.741525 37.868931 135 60 76
4.493066 8.811918 37.820690 137 61 78
4.481647 8.870846 37.724579 137 62 78
6.788387 0.615039 56.123333 126 84 103
6.801244 0.737416 56.229626 125 84 101
6.801244 0.858628 56.229626 124 83 99
6.801244 0.979840 56.229626 125 85 100
6.801244 1.101052 56.229626 125 86 101
6.801244 1.222264 56.229626 122 83 100
6.801244 1.343476 56.229626 119 81 99
6.801244 1.464688 56.229626 119 82 100
6.801244 1.585901 56.229626 122 86 104
6.814149 1.710352 56.336323 123 88 105
6.827104 1.835277 56.443428 123 88 103
6.827104 1.956950 56.443428 121 87 101
6.840108 2.082582 56.550938 120 87 99
6.840108 2.204487 56.550938 118 86 97
6.879419 2.339761 56.875942 117 85 95
6.932542 2.481381 57.315140 117 85 96
6.945951 2.609972 57.425999 119 87 98
6.959412 2.739061 57.537292 121 89 101
6.959412 2.863092 57.537292 123 91 104
6.879419 2.952788 56.875942 122 90 104
6.866265 3.069513 56.767193 118 86 101
6.801244 3.161658 56.229626 114 83 98
6.712255 3.239917 55.493912 110 80 94
6.712255 3.359543 55.493912 106 78 92
6.577027 3.409076 54.375900 101 76 89
6.401170 3.432006 52.922001 97 74 85
6.401170 3.546088 52.922001 93 72 81
6.245316 3.571053 51.633465 88 67 75
6.045550 3.564571 49.981888 83 62 68
5.945458 3.611516 49.154373 81 58 64
5.896645 3.686955 48.750809 80 55 62
5.839117 3.755049 48.275192 79 52 60
5.764136 3.809559 47.655285 78 50 59
5.718243 3.881139 47.275864 78 47 57
5.664127 3.945356 46.828457 79 47 56
5.664127 4.046302 46.828457 81 47 57
5.250083 4.311923 43.405323 91 48 59
5.204430 4.367182 43.027885 92 48 59
5.196898 4.453481 42.965618 93 48 58
5.189388 4.539531 42.903530 94 48 58
5.181900 4.625332 42.841618 95 48 58
5.174433 4.710887 42.779888 97 48 57
5.174433 4.803106 42.779888 99 47 57
5.159564 4.881258 42.656956 100 46 56
5.144780 4.958962 42.534733 104 46 57
5.137420 5.043427 42.473881 108 48 59
5.115465 5.113042 42.292366 110 50 60
5.108189 5.196807 42.232208 110 48 59
5.100933 5.280334 42.172218 109 46 56
5.079288 5.348452 41.993271 110 46 57
5.057826 5.415994 41.815834 113 49 60
5.036545 5.482967 41.639893 115 51 63
5.001472 5.533921 41.349918 115 50 63
4.980661 5.599661 41.177868 114 49 63
4.973763 5.680548 41.120834 114 49 64
4.966883 5.761211 41.063957 113 48 63
4.960023 5.841651 41.007240 113 48 62
4.946359 5.913713 40.894272 117 52 65
4.946359 6.001867 40.894272 123 57 69
4.939555 6.081645 40.838024 124 58 70
4.932770 6.161202 40.781925 122 56 67
4.919256 6.231994 40.670197 120 54 65
4.905815 6.302398 40.559074 119 52 63
4.899122 6.381113 40.503742 118 51 62
4.892448 6.459612 40.448559 118 52 63
4.885791 6.537899 40.393528 120 53 66
4.865931 6.598042 40.229324 123 56 69
4.852779 6.666697 40.120598 128 59 73
4.846231 6.744070 40.066452 133 64 79
4.833185 6.812053 39.958603 134 65 81
4.807305 6.861252 39.744637 131 62 80
4.800878 6.937641 39.691502 127 58 77
4.788075 7.004474 39.585655 124 56 75
4.775342 7.070951 39.480373 124 57 74
4.769000 7.146554 39.427944 124 57 74
4.750075 7.202851 39.271484 124 57 73
4.725074 7.249152 39.064793 122 55 70
4.712673 7.314115 38.962261 120 52 66
4.706496 7.388408 38.911194 118 48 62
4.694191 7.452752 38.809467 116 44 58
4.688064 7.526574 38.758801 117 44 58
4.681952 7.600203 38.708267 126 51 63
4.681952 7.683645 38.708267 133 59 70
4.675855 7.756973 38.657867 131 57 68
4.675855 7.840307 38.657867 127 54 64
4.675855 7.923640 38.657867 124 52 62
4.669775 7.996561 38.607597 122 51 61
4.663710 8.069293 38.557457 122 52 63
4.663710 8.152410 38.557457 125 56 67
4.657661 8.224845 38.507446 129 61 72
4.645610 8.286359 38.407818 134 65 76
4.615754 8.315367 38.160980 137 67 79
4.603919 8.376097 38.063129 139 68 81
4.592144 8.436516 37.965782 139 68 81
4.580430 8.496627 37.868931 136 65 78
4.580430 8.578259 37.868931 133 61 75
4.580430 8.659892 37.868931 132 59 73
4.580430 8.741525 37.868931 134 60 75
4.574594 8.811918 37.820690 137 62 77
6.909370 0.615039 56.123333 124 81 101
6.909370 0.736022 56.123333 122 81 99
6.922456 0.858628 56.229626 121 81 98
6.922456 0.979840 56.229626 122 82 99
6.922456 1.101052 56.229626 123 84 101
6.922456 1.222264 56.229626 122 84 101
6.922456 1.343476 56.229626 121 84 101
6.922456 1.464688 56.229626 121 84 102
6.922456 1.585901 56.229626 122 86 103
6.935591 1.710352 56.336323 122 87 103
6.935591 1.831794 56.336323 122 87 102
6.948777 1.956950 56.443428 122 88 100
6.948777 2.078623 56.443428 122 88 99
6.962013 2.204487 56.550938 120 87 97
7.002024 2.339761 56.875942 117 84 94
7.056094 2.481381 57.315140 116 84 93
7.069742 2.609972 57.425999 118 86 96
7.083443 2.739061 57.537292 121 88 99
7.083443 2.863092 57.537292 121 89 100
7.015464 2.958456 56.985111 120 87 101
6.988636 3.069513 56.767193 118 85 99
6.922456 3.161658 56.229626 115 83 97
6.844676 3.245984 55.597832 111 81 95
6.844676 3.365834 55.597832 106 79 93
6.706526 3.415331 54.475674 101 76 90
6.480597 3.413751 52.640499 97 74 85
6.480597 3.527226 52.640499 93 71 81
6.356620 3.571053 51.633465 88 67 75
6.153294 3.564571 49.981888 84 63 70
6.061454 3.617505 49.235889 81 59 66
6.001735 3.686955 48.750809 79 56 64
5.943182 3.755049 48.275192 78 53 62
5.866865 3.809559 47.655285 77 50 59
5.820154 3.881139 47.275864 76 47 58
5.765074 3.945356 46.828457 77 46 57
5.765074 4.046302 46.828457 80 47 58
5.312582 4.379877 43.152969 92 47 59
5.297184 4.459936 43.027885 92 48 58
5.281874 4.539531 42.903530 93 48 58
5.281874 4.632017 42.903530 95 48 58
5.281874 4.724502 42.903530 97 48 57
5.274252 4.810037 42.841618 98 47 57
5.266652 4.895325 42.779888 100 46 56
5.251518 4.973212 42.656956 101 45 56
5.236471 5.050653 42.534733 105 48 58
5.214061 5.120336 42.352699 109 50 61
5.199227 5.196807 42.232208 109 49 60
5.191842 5.280334 42.172218 109 48 58
5.169811 5.348452 41.993271 109 47 58
5.147967 5.415994 41.815834 112 50 61
5.126307 5.482967 41.639893 114 50 63
5.097708 5.541639 41.407589 113 49 63
5.076468 5.607438 41.235058 113 48 63
5.069427 5.688426 41.177868 113 48 63
5.062405 5.769190 41.120834 114 47 64
5.055403 5.849731 41.063957 115 48 63
5.041458 5.921870 40.950680 118 51 65
5.034513 6.001867 40.894272 123 56 68
5.034513 6.090021 40.894272 125 58 69
5.034513 6.178175 40.894272 123 56 67
5.020682 6.249115 40.781925 120 53 64
5.006927 6.319665 40.670197 118 52 62
4.993247 6.389830 40.559074 117 51 61
4.986435 6.468425 40.503742 118 51 62
4.972866 6.537899 40.393528 119 52 64
4.952652 6.598042 40.229324 121 54 67
4.945950 6.675718 40.174889 125 57 71
4.932600 6.744070 40.066452 132 63 78
4.919322 6.812053 39.958603 135 66 84
4.892981 6.861252 39.744637 134 64 84
4.886439 6.937641 39.691502 129 60 81
4.879915 7.013826 39.638508 126 58 79
4.860448 7.070951 39.480373 124 57 78
4.860448 7.156058 39.480373 124 57 77
4.841135 7.212391 39.323498 123 56 74
4.821974 7.268279 39.167866 122 54 70
4.809285 7.333363 39.064793 120 51 66
4.796662 7.398104 38.962261 118 48 62
4.784106 7.462507 38.860264 117 45 59
4.777852 7.536412 38.809467 117 44 57
4.771615 7.610125 38.758801 124 50 62
4.765393 7.683645 38.708267 132 58 70
4.759188 7.756973 38.657867 132 58 69
4.759188 7.840307 38.657867 128 54 65
4.759188 7.923640 38.657867 125 52 63
4.752999 7.996561 38.607597 123 51 61
4.746827 8.069293 38.557457 123 52 62
4.746827 8.152410 38.557457 125 55 66
4.740670 8.224845 38.507446 131 61 72
4.728405 8.286359 38.407818 137 66 78
4.698016 8.315367 38.160980 140 69 81
4.685970 8.376097 38.063129 141 70 82
4.673985 8.436516 37.965782 139 68 81
4.662062 8.496627 37.868931 134 63 77
4.662062 8.578259 37.868931 130 58 72
4.662062 8.659892 37.868931 130 57 71
4.662062 8.741525 37.868931 133 59 73
4.662062 8.823157 37.868931 136 61 76
7.030353 0.736022 56.123333 121 80 96
7.043668 0.858628 56.229626 121 80 96
7.043668 0.979840 56.229626 122 81 98
7.043668 1.101052 56.229626 124 83 101
7.043668 1.222264 56.229626 125 84 103
7.043668 1.343476 56.229626 124 84 103
7.043668 1.464688 56.229626 123 85 103
7.043668 1.585901 56.229626 123 85 103
7.043668 1.707113 56.229626 122 86 102
7.057034 1.831794 56.336323 122 86 100
7.070450 1.956950 56.443428 122 87 99
7.070450 2.078623 56.443428 122 88 98
7.083918 2.204487 56.550938 121 88 97
7.124629 2.339761 56.875942 120 87 95
7.179646 2.481381 57.315140 119 86 94
7.193533 2.609972 57.425999 120 87 96
7.207474 2.739061 57.537292 121 88 98
7.207474 2.863092 57.537292 120 88 98
7.138305 2.958456 56.985111 120 87 98
7.111007 3.069513 56.767193 118 86 98
7.043668 3.161658 56.229626 116 84 96
6.964526 3.245984 55.597832 112 82 93
6.964526 3.365834 55.597832 107 80 91
6.823957 3.415331 54.475674 102 77 88
6.594072 3.413751 52.640499 97 73 83
6.594072 3.527226 52.640499 93 70 79
6.467925 3.571053 51.633465 89 66 75
6.261038 3.564571 49.981888 85 62 71
6.177835 3.623514 49.317677 81 60 67
6.106825 3.686955 48.750809 78 57 64
6.047246 3.755049 48.275192 77 53 61
5.969594 3.809559 47.655285 75 50 59
5.912650 3.874969 47.200703 74 46 57
5.856782 3.939142 46.754711 75 46 57
5.856782 4.039930 46.754711 79 48 59
5.405606 4.379877 43.152969 90 47 59
5.397760 4.466409 43.090336 91 47 58
5.382137 4.546101 42.965618 92 48 58
5.382137 4.638720 42.965618 95 48 58
5.374359 4.724502 42.903530 97 48 57
5.374359 4.816988 42.903530 99 47 57
5.366604 4.902389 42.841618 99 46 57
5.358871 4.987544 42.779888 100 45 56
5.335806 5.057899 42.595757 103 46 58
5.312938 5.127651 42.413204 106 49 60
5.297801 5.204210 42.292366 109 50 61
5.282751 5.280334 42.172218 109 50 60
5.260334 5.348452 41.993271 110 50 61
5.238108 5.415994 41.815834 111 50 62
5.223394 5.490668 41.698376 112 50 63
5.194213 5.549379 41.465424 111 48 61
5.165357 5.607438 41.235058 110 45 61
5.165357 5.696327 41.235058 112 45 62
5.158192 5.777192 41.177868 114 46 63
5.151048 5.857833 41.120834 115 47 62
5.136818 5.930049 41.007240 119 51 64
5.129733 6.010146 40.950680 123 56 66
5.129733 6.098422 40.950680 125 58 68
5.129733 6.186697 40.950680 123 56 66
5.122667 6.266330 40.894272 120 53 63
5.101587 6.328334 40.725983 118 51 61
5.087629 6.398571 40.614559 117 51 61
5.073747 6.468425 40.503742 117 51 61
5.066834 6.546806 40.448559 119 52 63
5.046210 6.606995 40.283909 121 53 66
5.039372 6.684763 40.229324 125 57 70
5.025752 6.753183 40.120598 131 61 77
5.012206 6.821234 40.012455 135 64 82
4.985331 6.870450 39.797913 134 63 84
4.978657 6.946929 39.744637 130 61 82
4.972001 7.023202 39.691502 127 58 80
4.952139 7.080367 39.532948 125 58 79
4.945554 7.156058 39.480373 124 57 77
4.932436 7.221957 39.375652 122 55 73
4.919387 7.287507 39.271484 120 52 69
4.906407 7.352712 39.167866 119 50 65
4.893496 7.417573 39.064793 118 48 62
4.874255 7.472288 38.911194 116 45 59
4.867875 7.546277 38.860264 116 45 57
4.855165 7.610125 38.758801 123 50 63
4.848835 7.683645 38.708267 130 57 69
4.842522 7.756973 38.657867 131 58 69
4.842522 7.840307 38.657867 128 55 67
4.842522 7.923640 38.657867 126 53 66
4.836225 7.996561 38.607597 126 53 65
4.829944 8.069293 38.557457 126 54 65
4.829944 8.152410 38.557457 128 57 68
4.817431 8.214191 38.457569 133 61 74
4.804983 8.275653 38.358192 138 67 79
4.780279 8.315367 38.160980 140 69 82
4.768021 8.376097 38.063129 140 69 81
4.755827 8.436516 37.965782 138 66 79
4.743695 8.496627 37.868931 134 62 75
4.743695 8.578259 37.868931 129 58 71
4.743695 8.659892 37.868931 129 56 70
4.743695 8.741525 37.868931 131 59 72
4.743695 8.823157 37.868931 135 60 74
7.164880 0.858628 56.229626 120 78 93
7.164880 0.979840 56.229626 123 81 97
7.164880 1.101052 56.229626 126 83 102
7.164880 1.222264 56.229626 127 84 103
7.164880 1.343476 56.229626 126 83 103
7.164880 1.464688 56.229626 124 84 103
7.164880 1.585901 56.229626 123 84 103
7.164880 1.707113 56.229626 122 84 100
7.164880 1.828325 56.229626 120 84 97
7.178475 1.953236 56.336323 121 86 97
7.192123 2.078623 56.443428 122 89 98
7.192123 2.200296 56.443428 123 90 98
7.247235 2.339761 56.875942 123 90 97
7.289126 2.476600 57.204704 122 90 96
7.303198 2.604933 57.315140 122 89 97
7.317324 2.733763 57.425999 121 89 97
7.317324 2.857554 57.425999 120 89 97
7.261145 2.958456 56.985111 119 87 97
7.233378 3.069513 56.767193 117 86 95
7.164880 3.161658 56.229626 115 85 93
7.084376 3.245984 55.597832 112 84 92
6.954148 3.303962 54.575813 109 82 91
6.903388 3.396634 54.177448 105 79 88
6.767543 3.444285 53.111347 98 74 83
6.743416 3.546088 52.922001 92 70 78
6.579229 3.571053 51.633465 88 66 74
6.379522 3.570583 50.066177 84 62 71
6.284147 3.623514 49.317677 80 59 67
6.222133 3.693019 48.830990 77 56 64
6.151311 3.755049 48.275192 75 53 61
6.072322 3.809559 47.655285 73 49 59
6.014399 3.874969 47.200703 71 46 56
5.957570 3.939142 46.754711 73 46 56
5.948202 4.033578 46.681198 77 48 59
5.506633 4.386252 43.215782 88 47 59
5.498629 4.472900 43.152969 89 47 57
5.482691 4.552689 43.027885 91 47 57
5.482691 4.645442 43.027885 93 48 57
5.474756 4.731339 42.965618 96 48 57
5.474756 4.823959 42.965618 98 47 57
5.466845 4.909473 42.903530 99 46 57
5.458956 4.994741 42.841618 100 45 56
5.427628 5.057899 42.595757 102 45 58
5.404366 5.127651 42.413204 104 47 59
5.388969 5.204210 42.292366 106 49 61
5.373660 5.280334 42.172218 109 51 62
5.350858 5.348452 41.993271 111 52 64
5.335764 5.423633 41.874813 111 51 64
5.320755 5.498390 41.757023 110 49 63
5.290988 5.557140 41.523415 108 46 60
5.261553 5.615237 41.292408 108 44 59
5.254245 5.696327 41.235058 110 44 60
5.246958 5.777192 41.177868 112 45 61
5.239691 5.857833 41.120834 114 46 61
5.225216 5.930049 41.007240 117 50 63
5.225216 6.018447 41.007240 122 56 67
5.225216 6.106844 41.007240 125 59 69
5.225216 6.195242 41.007240 123 57 66
5.218009 6.274973 40.950680 119 53 63
5.203654 6.345744 40.838024 117 52 61
5.182270 6.407336 40.670197 116 51 61
5.168110 6.477262 40.559074 117 51 61
5.161059 6.555737 40.503742 118 52 63
5.140023 6.615972 40.338646 121 53 65
5.133049 6.693834 40.283909 125 57 70
5.119156 6.762321 40.174889 130 61 75
5.098459 6.821234 40.012455 132 63 80
5.071122 6.870450 39.797913 131 61 80
5.064333 6.946929 39.744637 128 59 78
5.057562 7.023202 39.691502 126 58 77
5.044075 7.089808 39.585655 125 58 77
5.030661 7.156058 39.480373 125 58 77
5.023980 7.231548 39.427944 122 55 73
5.010671 7.297160 39.323498 119 51 67
5.004043 7.372163 39.271484 117 49 64
4.990840 7.437144 39.167866 116 47 61
4.964641 7.482094 38.962261 115 46 59
4.958135 7.556167 38.911194 116 46 58
4.938716 7.610125 38.758801 121 50 62
4.932277 7.683645 38.708267 128 56 69
4.925855 7.756973 38.657867 130 57 70
4.925855 7.840307 38.657867 129 56 69
4.925855 7.923640 38.657867 127 55 68
4.919449 7.996561 38.607597 128 55 68
4.913061 8.069293 38.557457 128 56 69
4.913061 8.152410 38.557457 130 58 71
4.900332 8.214191 38.457569 134 62 75
4.887670 8.275653 38.358192 137 65 79
4.862541 8.315367 38.160980 139 67 80
4.843863 8.365372 38.014393 138 66 80
4.831490 8.425741 37.917294 137 65 78
4.825327 8.496627 37.868931 134 62 75
4.825327 8.578259 37.868931 130 59 73
4.825327 8.659892 37.868931 129 57 71
4.825327 8.741525 37.868931 131 59 72
4.825327 8.823157 37.868931 133 59 73
7.286092 0.979840 56.229626 125 81 97
7.286092 1.101052 56.229626 128 83 102
7.286092 1.222264 56.229626 127 83 103
7.286092 1.343476 56.229626 125 81 101
7.286092 1.464688 56.229626 123 81 101
7.286092 1.585901 56.229626 123 83 100
7.286092 1.707113 56.229626 121 83 98
7.286092 1.828325 56.229626 118 82 95
7.286092 1.949537 56.229626 119 84 94
7.299918 2.074678 56.336323 122 89 97
7.313796 2.200296 56.443428 123 91 98
7.341711 2.330831 56.658859 123 90 96
7.369840 2.462367 56.875942 122 90 96
7.412441 2.599914 57.204704 122 90 97
7.412441 2.723228 57.204704 122 90 97
7.398186 2.841068 57.094696 120 89 97
7.383986 2.958456 56.985111 118 87 96
7.341711 3.063655 56.658859 116 86 94
7.272319 3.155681 56.123333 113 85 91
7.177344 3.233872 55.390377 111 84 89
7.071795 3.303962 54.575813 110 84 89
7.020176 3.396634 54.177448 106 80 86
6.969306 3.487963 53.784859 98 73 80
6.882033 3.558775 53.111347 92 69 76
6.655807 3.552518 51.365471 88 65 73
6.498406 3.576614 50.150745 84 62 70
6.422465 3.641662 49.564678 80 58 66
6.327396 3.693019 48.830990 77 55 63
6.255377 3.755049 48.275192 75 52 61
6.165155 3.803454 47.578915 73 49 58
6.067913 3.844409 46.828457 71 47 57
6.048831 3.932949 46.681198 72 46 56
6.001648 4.002115 46.317070 76 48 58
6.001648 4.101959 46.317070 80 50 61
5.607955 4.392646 43.278778 87 47 59
5.591652 4.472900 43.152969 86 45 56
5.591652 4.565924 43.152969 89 46 56
5.583537 4.652185 43.090336 93 48 57
5.575444 4.738196 43.027885 95 48 57
5.575444 4.830950 43.027885 97 46 56
5.567376 4.916578 42.965618 98 45 56
5.551308 4.994741 42.841618 98 44 56
5.535333 5.072454 42.718334 99 43 56
5.503657 5.134986 42.473881 101 45 57
5.472342 5.196807 42.232208 104 47 59
5.464569 5.280334 42.172218 107 50 62
5.441381 5.348452 41.993271 110 53 65
5.426032 5.423633 41.874813 111 52 64
5.418390 5.506135 41.815834 108 49 62
5.388034 5.564924 41.581573 107 46 59
5.358017 5.623058 41.349918 106 44 58
5.343134 5.696327 41.235058 108 44 58
5.343134 5.785216 41.235058 110 45 58
5.335723 5.865958 41.177868 112 46 59
5.320963 5.938251 41.063957 116 49 61
5.320963 6.026771 41.063957 121 55 65
5.313614 6.106844 41.007240 124 59 69
5.313614 6.195242 41.007240 122 57 67
5.313614 6.283640 41.007240 118 54 64
5.298976 6.354484 40.894272 116 52 62
5.269940 6.407336 40.670197 115 51 61
5.262732 6.486123 40.614559 116 52 62
5.255542 6.564693 40.559074 118 52 63
5.226979 6.615972 40.338646 121 54 66
5.219887 6.693834 40.283909 125 57 69
5.212814 6.771484 40.229324 129 60 74
5.191710 6.830439 40.066452 129 60 76
5.163835 6.879672 39.851334 127 58 75
5.150009 6.946929 39.744637 124 56 73
5.150009 7.032604 39.744637 123 55 73
5.129409 7.089808 39.585655 125 58 76
5.122579 7.165586 39.532948 126 59 77
5.115767 7.241164 39.480373 123 55 72
5.102197 7.306838 39.375652 117 50 66
5.095439 7.381928 39.323498 116 48 63
5.088699 7.456820 39.271484 115 47 61
5.068586 7.511667 39.116261 115 46 59
5.048631 7.566083 38.962261 115 46 58
5.035414 7.630046 38.860264 118 49 61
5.022267 7.693676 38.758801 124 54 68
5.015719 7.767087 38.708267 129 58 71
5.009188 7.840307 38.657867 129 58 72
5.009188 7.923640 38.657867 129 57 71
5.002675 7.996561 38.607597 129 57 71
4.996178 8.069293 38.557457 130 58 72
4.996178 8.152410 38.557457 132 59 74
4.983234 8.214191 38.457569 134 62 76
4.970357 8.275653 38.358192 135 63 78
4.938455 8.304692 38.111992 136 64 79
4.925809 8.365372 38.014393 136 64 79
4.913227 8.425741 37.917294 135 63 78
4.906960 8.496627 37.868931 134 62 77
4.906960 8.578259 37.868931 132 60 75
4.906960 8.659892 37.868931 130 58 73
4.906960 8.741525 37.868931 130 58 72
4.900709 8.811918 37.820690 131 59 73
7.407304 1.101052 56.229626 129 84 100
7.407304 1.222264 56.229626 126 82 99
7.421360 1.346026 56.336323 121 78 95
7.407304 1.464688 56.229626 119 77 94
7.407304 1.585901 56.229626 121 80 96
7.407304 1.707113 56.229626 120 82 96
7.407304 1.828325 56.229626 117 81 93
7.407304 1.949537 56.229626 118 83 93
7.407304 2.070749 56.229626 122 88 96
7.421360 2.196121 56.336323 123 90 97
7.435469 2.321969 56.443428 122 89 96
7.463849 2.452968 56.658859 121 89 96
7.492445 2.584972 56.875942 122 90 97
7.492445 2.707577 56.875942 122 90 98
7.492445 2.830183 56.875942 120 89 97
7.463849 2.941518 56.658859 118 87 95
7.435469 3.052006 56.443428 116 86 93
7.379352 3.149727 56.017437 113 85 90
7.269622 3.221850 55.184464 111 84 89
7.202682 3.310047 54.676319 109 83 87
7.163107 3.409076 54.375900 103 78 82
7.163107 3.526292 54.375900 97 72 78
7.046949 3.584424 53.494129 92 69 75
6.766534 3.552518 51.365471 88 65 73
6.628910 3.588738 50.320751 84 61 70
6.573205 3.666144 49.897884 80 58 67
6.443256 3.699103 48.911438 77 55 64
6.328571 3.736821 48.040844 74 52 61
6.237730 3.785256 47.351265 72 49 60
6.149460 3.832320 46.681198 71 47 59
6.130183 3.920620 46.534863 72 46 58
6.073069 3.983471 46.101307 74 48 59
6.073069 4.082850 46.101307 77 50 61
5.701249 4.392646 43.278778 87 48 58
5.692950 4.479411 43.215782 85 44 55
5.684675 4.565924 43.152969 88 46 55
5.684675 4.658947 43.152969 93 48 57
5.676425 4.745073 43.090336 95 48 56
5.676425 4.837962 43.090336 96 47 55
5.668198 4.923704 43.027885 97 45 55
5.651816 5.001959 42.903530 96 43 54
5.627419 5.072454 42.718334 95 42 54
5.595217 5.134986 42.473881 98 44 55
5.563381 5.196807 42.232208 101 47 57
5.555478 5.280334 42.172218 105 50 60
5.531905 5.348452 41.993271 108 53 63
5.524091 5.431293 41.933956 109 52 63
5.508531 5.506135 41.815834 107 49 60
5.493057 5.580555 41.698376 105 46 58
5.454751 5.630900 41.407589 105 45 57
5.432023 5.696327 41.235058 107 44 56
5.432023 5.785216 41.235058 109 45 57
5.424489 5.865958 41.177868 111 46 58
5.409483 5.938251 41.063957 114 49 61
5.409483 6.026771 41.063957 118 54 64
5.409483 6.115291 41.063957 121 57 68
5.409483 6.203811 41.063957 120 57 67
5.402012 6.283640 41.007240 117 54 64
5.387130 6.354484 40.894272 115 52 62
5.357612 6.407336 40.670197 114 52 61
5.357612 6.495008 40.670197 115 52 62
5.342974 6.564693 40.559074 118 53 63
5.313936 6.615972 40.338646 121 54 65
5.313936 6.702929 40.338646 124 56 68
5.299535 6.771484 40.229324 126 57 70
5.278079 6.830439 40.066452 125 57 71
5.249741 6.879672 39.851334 122 55 69
5.242703 6.956241 39.797913 120 53 67
5.235685 7.032604 39.744637 120 52 67
5.221704 7.099273 39.638508 123 56 71
5.207798 7.165586 39.532948 127 60 75
5.200873 7.241164 39.480373 125 57 73
5.200873 7.326271 39.480373 119 51 66
5.187078 7.391718 39.375652 116 49 63
5.180207 7.466696 39.323498 116 48 62
5.159705 7.521577 39.167866 114 47 59
5.152907 7.595989 39.116261 112 44 57
5.125894 7.640047 38.911194 114 46 59
5.112493 7.703732 38.809467 121 52 66
5.105818 7.777226 38.758801 129 58 73
5.099161 7.850529 38.708267 131 61 76
5.092522 7.923640 38.657867 130 60 75
5.092522 8.006973 38.657867 130 58 74
5.085899 8.079786 38.607597 130 58 75
5.079294 8.152410 38.557457 132 59 76
5.072706 8.224845 38.507446 133 61 78
5.053045 8.275653 38.358192 133 61 78
5.020612 8.304692 38.111992 133 61 78
5.007755 8.365372 38.014393 133 61 78
4.994964 8.425741 37.917294 133 61 78
4.988593 8.496627 37.868931 133 61 77
4.988593 8.578259 37.868931 132 61 77
4.988593 8.659892 37.868931 130 59 74
4.988593 8.741525 37.868931 128 57 72
7.542802 1.224583 56.336323 125 81 96
7.542802 1.346026 56.336323 119 76 91
7.542802 1.467468 56.336323 117 75 89
7.528516 1.585901 56.229626 119 78 92
7.528516 1.707113 56.229626 119 81 93
7.528516 1.828325 56.229626 118 82 92
7.528516 1.949537 56.229626 119 84 92
7.528516 2.070749 56.229626 122 87 95
7.528516 2.191961 56.229626 123 89 96
7.542802 2.317563 56.336323 121 88 95
7.557142 2.443642 56.443428 121 89 96
7.571537 2.570201 56.550938 122 90 98
7.571537 2.692106 56.550938 122 90 98
7.585986 2.819381 56.658859 120 88 97
7.571537 2.935915 56.550938 118 86 96
7.542802 3.046215 56.336323 116 85 94
7.485982 3.143796 55.911945 114 84 93
7.374873 3.215873 55.082081 112 84 91
7.320546 3.310047 54.676319 108 81 87
7.280324 3.409076 54.375900 101 76 82
7.253753 3.513422 54.177448 95 71 78
7.214259 3.610445 53.882473 91 68 75
7.098315 3.666706 53.016502 87 64 73
6.877261 3.663245 51.365471 84 61 70
6.760301 3.709788 50.491909 80 58 67
6.669558 3.767375 49.814163 77 55 64
6.390766 3.712790 47.731899 74 52 62
6.269805 3.743463 46.828457 72 49 60
6.230496 3.820306 46.534863 71 48 59
6.211026 3.908368 46.389442 72 47 58
6.172448 3.983471 46.101307 73 48 59
6.172448 4.082850 46.101307 76 49 60
5.794543 4.392646 43.278778 87 49 58
5.794543 4.485941 43.278778 85 46 55
5.786108 4.572570 43.215782 87 47 55
5.777699 4.658947 43.152969 92 49 57
5.777699 4.751970 43.152969 94 49 57
5.769313 4.837962 43.090336 96 48 55
5.760952 4.923704 43.027885 96 46 55
5.744301 5.001959 42.903530 94 43 53
5.719506 5.072454 42.718334 93 42 51
5.686776 5.134986 42.473881 95 44 53
5.654419 5.196807 42.232208 98 47 55
5.638378 5.272845 42.112400 103 50 58
5.622428 5.348452 41.993271 107 53 61
5.614487 5.431293 41.933956 108 53 62
5.606568 5.513901 41.874813 106 50 60
5.590797 5.588404 41.757023 105 47 58
5.551755 5.638765 41.465424 104 45 57
5.528591 5.704249 41.292408 105 44 56
5.520912 5.785216 41.235058 107 45 56
5.520912 5.874105 41.235058 109 47 58
5.505619 5.946476 41.120834 113 50 62
5.498003 6.026771 41.063957 116 54 65
5.498003 6.115291 41.063957 119 57 69
5.498003 6.203811 41.063957 119 58 69
5.490410 6.283640 41.007240 116 56 66
5.467753 6.345744 40.838024 114 54 63
5.445283 6.407336 40.670197 113 52 61
5.445283 6.495008 40.670197 115 52 62
5.430405 6.564693 40.559074 117 53 63
5.400892 6.615972 40.338646 120 54 65
5.400892 6.702929 40.338646 123 56 67
5.393564 6.780672 40.283909 124 56 68
5.371698 6.839670 40.120598 123 55 68
5.357219 6.907487 40.012455 120 53 66
5.335647 6.965578 39.851334 117 50 63
5.328494 7.042031 39.797913 116 49 64
5.307152 7.099273 39.638508 121 54 69
5.300076 7.175141 39.585655 127 60 75
5.293018 7.250806 39.532948 128 61 76
5.285980 7.326271 39.480373 123 56 70
5.278960 7.401535 39.427944 118 51 64
5.271958 7.476599 39.375652 116 50 62
5.251066 7.531513 39.219608 115 48 60
5.244138 7.606010 39.167866 111 44 57
5.223464 7.660125 39.013458 112 44 57
5.202954 7.713816 38.860264 119 50 64
5.196153 7.787393 38.809467 128 58 74
5.189369 7.860777 38.758801 133 63 79
5.182603 7.933970 38.708267 132 62 78
5.175855 8.006973 38.657867 129 59 75
5.175855 8.090306 38.657867 129 57 75
5.169125 8.163011 38.607597 130 58 77
5.155715 8.224845 38.507446 132 59 78
5.142376 8.286359 38.407818 131 60 79
5.109327 8.315367 38.160980 130 59 77
5.096227 8.376097 38.063129 129 59 76
5.083193 8.436516 37.965782 130 59 77
5.070225 8.496627 37.868931 132 60 77
5.070225 8.578259 37.868931 132 62 78
5.070225 8.659892 37.868931 131 60 76
5.063766 8.730390 37.820690 129 58 72
7.664244 1.467468 56.336323 117 76 89
7.649728 1.585901 56.229626 118 79 91
7.649728 1.707113 56.229626 119 82 93
7.649728 1.828325 56.229626 120 84 94
7.649728 1.949537 56.229626 121 86 94
7.649728 2.070749 56.229626 122 88 95
7.649728 2.191961 56.229626 122 88 96
7.664244 2.317563 56.336323 121 88 96
7.664244 2.439005 56.336323 121 88 97
7.678815 2.565315 56.443428 121 89 98
7.693441 2.692106 56.550938 121 89 99
7.693441 2.814010 56.550938 120 87 98
7.693441 2.935915 56.550938 118 86 97
7.664244 3.046215 56.336323 116 84 96
7.592212 3.137886 55.806847 114 83 94
7.493612 3.215873 55.082081 112 82 91
7.424736 3.303962 54.575813 107 79 88
7.370541 3.396634 54.177448 101 74 83
7.357116 3.507023 54.078766 95 70 79
7.357116 3.623598 54.078766 89 66 76
6.788331 3.773707 49.897884 76 54 64
6.472847 3.700890 47.578915 73 52 61
6.370752 3.743463 46.828457 72 50 59
6.330810 3.820306 46.534863 71 48 58
6.311026 3.908368 46.389442 72 47 58
6.271827 3.983471 46.101307 72 48 58
6.271827 4.082850 46.101307 75 49 59
7.036684 4.692257 51.723419 78 50 60
5.887838 4.485941 43.278778 85 46 54
5.887838 4.579236 43.278778 87 46 54
5.870722 4.658947 43.152969 92 48 56
5.870722 4.751970 43.152969 93 49 56
5.862201 4.837962 43.090336 94 48 55
5.853705 4.923704 43.027885 94 47 54
5.828364 4.994741 42.841618 93 45 52
5.811592 5.072454 42.718334 92 43 51
5.778336 5.134986 42.473881 94 44 52
5.745458 5.196807 42.232208 97 47 53
5.729158 5.272845 42.112400 101 49 56
5.721044 5.356028 42.052750 105 51 59
5.712951 5.438975 41.993271 106 52 61
5.704882 5.521688 41.933956 105 50 60
5.688812 5.596275 41.815834 104 48 58
5.649030 5.646651 41.523415 103 45 57
5.625427 5.712194 41.349918 103 44 55
5.617603 5.793262 41.292408 104 45 56
5.609801 5.874105 41.235058 107 47 59
5.594261 5.946476 41.120834 111 50 63
5.594261 6.035119 41.120834 115 55 67
5.586524 6.115291 41.063957 118 59 70
5.586524 6.203811 41.063957 119 60 70
5.578807 6.283640 41.007240 116 57 67
5.555786 6.345744 40.838024 113 54 64
5.532954 6.407336 40.670197 112 53 62
5.532954 6.495008 40.670197 114 53 62
5.517837 6.564693 40.559074 117 54 63
5.495315 6.624973 40.393528 120 55 65
5.487849 6.702929 40.338646 123 56 67
5.487849 6.789885 40.338646 124 56 67
5.472977 6.858205 40.229324 123 55 67
5.450819 6.916809 40.066452 119 51 65
5.443472 6.993741 40.012455 116 48 62
5.421553 7.051484 39.851334 116 48 62
5.407037 7.118280 39.744637 119 51 66
5.392599 7.184720 39.638508 126 58 72
5.385409 7.260474 39.585655 128 62 75
5.378238 7.336026 39.532948 124 59 71
5.371086 7.411377 39.480373 119 53 65
5.363953 7.486528 39.427944 118 51 63
5.342668 7.541475 39.271484 115 48 60
5.335610 7.616057 39.219608 111 44 57
5.321550 7.680310 39.116261 112 44 58
5.293652 7.723926 38.911194 118 49 64
5.286723 7.797585 38.860264 126 57 73
5.279813 7.871053 38.809467 132 63 80
5.272920 7.944328 38.758801 131 62 79
5.266045 8.017412 38.708267 128 58 76
5.259188 8.090306 38.657867 126 55 74
5.252349 8.163011 38.607597 127 56 76
5.245528 8.235527 38.557457 130 58 79
5.225170 8.286359 38.407818 131 59 79
5.191589 8.315367 38.160980 129 57 77
5.178278 8.376097 38.063129 127 56 75
5.165034 8.436516 37.965782 128 57 75
5.151858 8.496627 37.868931 130 60 77
5.151858 8.578259 37.868931 133 62 79
5.151858 8.659892 37.868931 133 62 79
5.145295 8.730390 37.820690 131 60 75
7.770941 1.585901 56.229626 119 81 92
7.770941 1.707113 56.229626 120 83 94
7.770941 1.828325 56.229626 121 85 95
7.770941 1.949537 56.229626 122 87 95
7.770941 2.070749 56.229626 122 88 96
7.770941 2.191961 56.229626 122 89 97
7.785686 2.317563 56.336323 122 89 97
7.785686 2.439005 56.336323 122 88 98
7.800488 2.565315 56.443428 121 87 98
7.800488 2.686988 56.443428 121 87 99
7.815346 2.814010 56.550938 120 86 99
7.815346 2.935915 56.550938 118 85 99
7.785686 3.046215 56.336323 116 83 98
7.712512 3.137886 55.806847 114 82 96
7.612350 3.215873 55.082081 111 80 93
7.542384 3.303962 54.575813 106 77 89
7.487329 3.396634 54.177448 100 73 85
7.473691 3.507023 54.078766 93 69 80
6.628524 3.627392 47.963234 75 55 63
6.575411 3.700890 47.578915 73 52 60
6.481922 3.749377 46.902435 72 50 58
6.441219 3.826304 46.607914 71 49 57
6.431123 3.920620 46.534863 72 48 57
6.391054 3.995881 46.244926 73 48 57
6.391054 4.095569 46.244926 75 49 58
7.111017 4.667861 51.454491 77 50 59
7.148182 4.803755 51.723419 79 50 60
7.111017 4.889698 51.454491 82 50 60
5.963745 4.751970 43.152969 92 48 56
5.963745 4.844994 43.152969 92 48 54
5.946459 4.923704 43.027885 92 47 54
5.920717 4.994741 42.841618 92 46 53
5.895196 5.065166 42.656956 92 46 52
5.869895 5.134986 42.473881 94 46 52
5.836496 5.196807 42.232208 96 47 53
5.828206 5.280334 42.172218 99 48 54
5.811695 5.356028 42.052750 102 49 56
5.811695 5.446679 42.052750 103 50 58
5.795278 5.521688 41.933956 104 49 59
5.778953 5.596275 41.815834 103 47 58
5.746578 5.654560 41.581573 101 45 56
5.714563 5.712194 41.349918 100 44 55
5.706615 5.793262 41.292408 101 44 55
5.698690 5.874105 41.235058 104 46 58
5.690786 5.954723 41.177868 109 51 63
5.682904 6.035119 41.120834 113 56 68
5.682904 6.123761 41.120834 117 60 72
5.675044 6.203811 41.063957 118 61 72
5.667205 6.283640 41.007240 116 59 69
5.643819 6.345744 40.838024 114 56 66
5.643819 6.433776 40.838024 114 56 64
5.620625 6.495008 40.670197 115 56 64
5.612936 6.573674 40.614559 118 57 65
5.589995 6.633999 40.448559 121 57 67
5.582390 6.712048 40.393528 123 57 68
5.574805 6.789885 40.338646 123 56 67
5.567241 6.867511 40.283909 121 54 66
5.544671 6.926156 40.120598 119 51 64
5.537189 7.003179 40.066452 115 48 61
5.529726 7.079994 40.012455 115 47 61
5.500076 7.127822 39.797913 118 50 63
5.485370 7.194325 39.691502 122 55 68
5.478046 7.270167 39.638508 125 60 71
5.470742 7.345807 39.585655 124 59 70
5.463458 7.421246 39.532948 121 55 67
5.448946 7.486528 39.427944 119 53 64
5.434512 7.551464 39.323498 116 50 61
5.427324 7.626132 39.271484 113 47 59
5.413003 7.690443 39.167866 114 46 60
5.377532 7.723926 38.911194 119 51 66
5.370493 7.797585 38.860264 126 58 74
5.363473 7.871053 38.809467 131 63 80
