ply
format ascii 1.0
element vertex 1268
property float x
property float y
property float z
property uchar red
property uchar green
property uchar blue
end_header
8.154619 5.825137 38.557457 91 45 54
8.122972 5.885324 38.407818 90 45 54
8.081154 5.937395 38.210094 90 44 53
8.081154 6.019763 38.210094 88 44 52
8.112476 6.125782 38.358192 87 44 51
8.112476 6.208469 38.358192 87 44 51
8.122972 6.299295 38.407818 86 45 50
8.133493 6.390357 38.457569 85 45 49
8.133493 6.473258 38.457569 84 44 48
8.133493 6.556160 38.457569 84 44 47
8.133493 6.639061 38.457569 85 45 48
8.133493 6.721963 38.457569 86 46 49
8.154619 6.822540 38.557457 87 46 50
8.154619 6.905656 38.557457 88 48 50
8.165223 6.997861 38.607597 86 47 49
8.175855 7.090307 38.657867 84 46 48
8.175855 7.173640 38.657867 82 45 47
8.186515 7.266435 38.708267 80 44 46
8.229432 7.388408 38.911194 78 43 46
8.294659 7.531513 39.219608 76 43 45
8.294659 7.616057 39.219608 74 42 44
8.294659 7.700602 39.219608 72 41 43
8.283716 7.774875 39.167866 70 39 43
8.229432 7.807806 38.911194 69 38 42
8.218660 7.881355 38.860264 69 38 43
8.207917 7.954713 38.809467 69 38 43
8.186515 8.017412 38.708267 70 40 43
8.175855 8.090306 38.657867 69 40 43
8.175855 8.173640 38.657867 69 40 42
8.175855 8.256973 38.657867 69 40 41
8.165223 8.329461 38.607597 69 40 40
8.154619 8.401760 38.557457 68 39 39
8.144042 8.473872 38.507446 67 38 39
8.144042 8.556881 38.507446 68 39 39
8.144042 8.639891 38.507446 68 39 40
8.175855 8.756973 38.657867 68 39 41
8.175855 8.840306 38.657867 68 39 42
8.186515 8.935274 38.708267 69 40 43
8.229432 9.065997 38.911194 70 41 44
8.229432 9.149876 38.911194 71 43 44
8.261916 9.270205 39.064793 71 44 44
8.261916 9.354415 39.064793 73 45 44
8.272802 9.451061 39.116261 74 46 45
8.272802 9.535382 39.116261 75 47 45
8.272802 9.619704 39.116261 75 49 44
8.272802 9.704025 39.116261 75 50 44
8.283716 9.801261 39.167866 75 51 44
8.294659 9.898752 39.219608 75 52 44
8.349810 10.049675 39.480373 75 52 45
8.349810 10.134781 39.480373 75 52 45
8.349810 10.219888 39.480373 74 53 46
8.338720 10.291308 39.427944 74 53 47
8.272802 10.294276 39.116261 74 53 48
8.060407 10.112138 38.111992 73 53 48
8.050073 10.181225 38.063129 72 53 48
8.240232 10.505715 38.962261 70 53 49
8.240232 10.589705 38.962261 69 52 49
8.186515 10.604114 38.708267 68 51 49
8.165223 10.659760 38.607597 66 49 47
8.165223 10.742985 38.607597 63 47 46
8.394461 11.130155 39.691502 63 48 46
8.313312 -1.838328 38.911194 141 87 103
8.302430 -1.752153 38.860264 143 86 103
8.302430 -1.668383 38.860264 143 84 102
8.302430 -1.584613 38.860264 143 81 100
8.302430 -1.500844 38.860264 143 79 97
8.302430 -1.417074 38.860264 141 77 93
8.302430 -1.333304 38.860264 140 74 89
8.302430 -1.249535 38.860264 138 70 85
8.291577 -1.164241 38.809467 136 68 83
8.280753 -1.079170 38.758801 135 66 82
8.291577 -0.996921 38.809467 136 66 82
8.291577 -0.913261 38.809467 137 67 83
8.291577 -0.829601 38.809467 139 68 84
8.291577 -0.745941 38.809467 141 69 84
8.291577 -0.662280 38.809467 141 69 83
8.291577 -0.578620 38.809467 137 65 80
8.291577 -0.494960 38.809467 130 58 72
8.291577 -0.411300 38.809467 125 53 67
8.291577 -0.327640 38.809467 126 54 67
8.302430 -0.244299 38.860264 128 56 68
8.291577 -0.160320 38.809467 129 59 68
8.291577 -0.076660 38.809467 130 61 69
8.269957 0.006982 38.708267 130 62 68
8.269957 0.090424 38.708267 129 62 68
8.269957 0.173866 38.708267 127 63 68
8.259189 0.256973 38.657867 126 63 70
8.259189 0.340307 38.657867 126 64 72
8.259189 0.423640 38.657867 128 66 75
8.259189 0.506973 38.657867 131 68 78
8.259189 0.590307 38.657867 134 70 80
8.259189 0.673640 38.657867 135 69 80
8.248448 0.755989 38.607597 134 66 76
8.248448 0.839214 38.607597 132 64 74
8.237736 0.921241 38.557457 134 66 75
8.227052 1.003055 38.507446 135 67 76
8.227052 1.086064 38.507446 136 68 78
8.216394 1.167559 38.457569 137 68 80
8.174042 1.244015 38.259335 137 69 81
8.132124 1.319687 38.063129 135 68 81
8.111325 1.398153 37.965782 132 67 81
8.111325 1.479994 37.965782 131 68 82
8.142563 1.567850 38.111992 130 69 84
8.184589 1.658523 38.308701 130 71 86
8.195164 1.743353 38.358192 131 73 88
8.205766 1.828403 38.407818 133 76 91
8.216394 1.913673 38.457569 135 77 92
8.216394 1.996574 38.457569 133 75 88
8.216394 2.079476 38.457569 130 72 85
8.227052 2.165182 38.507446 130 70 83
8.248448 2.254038 38.607597 130 69 82
8.259189 2.340307 38.657867 130 68 82
8.259189 2.423640 38.657867 129 68 81
8.269957 2.510242 38.708267 129 67 80
8.269957 2.593684 38.708267 128 66 79
8.291577 2.684125 38.809467 127 65 78
8.291577 2.767785 38.809467 126 64 78
8.302430 2.855177 38.860264 126 64 78
8.302430 2.938947 38.860264 124 63 77
8.302430 3.022717 38.860264 123 62 77
8.324222 3.114640 38.962261 122 62 77
8.313312 3.194437 38.911194 122 62 77
8.313312 3.278316 38.911194 122 62 78
8.302430 3.357795 38.860264 122 62 78
8.280753 3.432579 38.758801 122 62 77
8.269957 3.511546 38.708267 121 62 76
8.269957 3.594988 38.708267 120 61 75
8.269957 3.678430 38.708267 118 60 73
8.269957 3.761872 38.708267 116 60 72
8.259189 3.840307 38.657867 114 61 72
8.259189 3.923640 38.657867 113 60 71
8.259189 4.006973 38.657867 113 60 71
8.259189 4.090307 38.657867 113 60 71
8.259189 4.173640 38.657867 112 60 71
8.259189 4.256973 38.657867 111 60 69
8.269957 4.345965 38.708267 111 60 69
8.269957 4.429408 38.708267 110 60 69
8.280753 4.518741 38.758801 109 59 69
8.324222 4.626451 38.962261 107 57 67
8.324222 4.710440 38.962261 104 54 65
8.313312 4.788146 38.911194 104 54 66
8.302430 4.865649 38.860264 103 55 66
8.291577 4.942948 38.809467 101 51 63
8.302430 5.033188 38.860264 98 49 62
8.302430 5.116957 38.860264 97 49 61
8.291577 5.193929 38.809467 98 50 62
8.280753 5.270699 38.758801 100 52 64
8.280753 5.354250 38.758801 100 54 65
8.269957 5.430711 38.708267 96 51 61
8.259189 5.506973 38.657867 92 49 57
8.259189 5.590307 38.657867 90 47 55
8.248448 5.666262 38.607597 89 45 53
8.237736 5.742020 38.557457 89 44 53
8.216394 5.810046 38.457569 89 44 53
8.195164 5.877720 38.358192 89 44 53
8.153029 5.929763 38.160980 89 44 52
8.153029 6.012025 38.160980 89 44 52
8.195164 6.125782 38.358192 88 44 52
8.205766 6.216501 38.407818 87 45 51
8.227052 6.315636 38.507446 87 45 50
8.216394 6.390357 38.457569 86 45 50
8.216394 6.473258 38.457569 85 44 49
8.227052 6.564663 38.507446 84 44 48
8.237736 6.656306 38.557457 84 45 48
8.237736 6.739423 38.557457 84 45 49
8.248448 6.831411 38.607597 85 45 50
8.259189 6.923640 38.657867 85 45 49
8.259189 7.006973 38.657867 84 46 48
8.259189 7.090307 38.657867 81 45 47
8.269957 7.182993 38.708267 79 44 46
8.269957 7.266435 38.708267 78 43 46
8.401400 7.466696 39.323498 76 43 45
8.401400 7.551464 39.323498 75 42 44
8.401400 7.636232 39.323498 73 41 44
8.379203 7.700602 39.219608 71 40 43
8.368149 7.774875 39.167866 70 39 42
8.313312 7.807806 38.911194 68 37 41
8.291577 7.871053 38.809467 67 37 41
8.291577 7.954713 38.809467 68 38 42
8.259189 8.006973 38.657867 68 40 43
8.259189 8.090306 38.657867 68 41 43
8.259189 8.173640 38.657867 68 41 42
8.248448 8.246236 38.607597 67 40 40
8.237736 8.318644 38.557457 66 39 39
8.227052 8.390863 38.507446 65 38 38
8.216394 8.462895 38.457569 66 38 39
8.205766 8.534741 38.407818 66 38 39
8.216394 8.628698 38.457569 67 38 39
8.259189 8.756973 38.657867 67 38 40
8.259189 8.840306 38.657867 68 39 41
8.313312 8.982118 38.911194 69 40 42
8.368149 9.125799 39.167866 70 41 43
8.368149 9.210232 39.167866 70 42 43
8.401400 9.331596 39.323498 71 44 43
8.401400 9.416365 39.323498 72 45 43
8.401400 9.501133 39.323498 73 46 43
8.401400 9.585901 39.323498 74 47 43
8.368149 9.632395 39.167866 75 49 43
8.379203 9.729664 39.219608 75 50 43
8.379203 9.814208 39.219608 76 51 43
8.379203 9.898752 39.219608 76 52 43
8.423714 10.036328 39.427944 76 52 44
8.423714 10.121322 39.427944 76 52 45
8.423714 10.206315 39.427944 76 52 46
8.390286 10.250470 39.271484 75 52 47
8.357123 10.294276 39.116261 74 52 47
8.142563 10.112138 38.111992 73 53 48
8.142563 10.194295 38.111992 72 52 48
8.412542 10.617183 39.375652 70 51 48
8.412542 10.702063 39.375652 68 51 48
8.313312 10.659706 38.911194 67 50 47
8.259189 10.673640 38.657867 65 49 46
8.259189 10.756973 38.657867 64 48 45
8.408211 -1.756751 38.962261 142 85 102
8.386200 -1.668383 38.860264 142 83 100
8.375237 -1.582542 38.809467 142 81 96
8.375237 -1.498882 38.809467 140 77 92
8.386200 -1.417074 38.860264 138 73 87
8.386200 -1.333304 38.860264 136 71 84
8.375237 -1.247901 38.809467 136 68 81
8.364304 -1.162721 38.758801 136 67 81
8.364304 -1.079170 38.758801 136 66 81
8.364304 -0.995619 38.758801 136 66 81
8.364304 -0.912069 38.758801 136 65 80
8.375237 -0.829601 38.809467 137 65 80
8.375237 -0.745941 38.809467 139 66 81
8.375237 -0.662280 38.809467 140 68 82
8.375237 -0.578620 38.809467 138 67 80
8.375237 -0.494960 38.809467 131 60 73
8.375237 -0.411300 38.809467 126 55 68
8.386200 -0.328069 38.860264 126 55 68
8.386200 -0.244299 38.860264 128 58 69
8.386200 -0.160529 38.860264 131 61 70
8.375237 -0.076660 38.809467 132 64 71
8.364304 0.006991 38.758801 131 64 71
8.353398 0.090424 38.708267 130 64 69
8.353398 0.173866 38.708267 129 64 70
8.353398 0.257308 38.708267 127 64 71
8.342522 0.340307 38.657867 127 65 73
8.342522 0.423640 38.657867 129 67 75
8.342522 0.506973 38.657867 131 68 77
8.342522 0.590307 38.657867 133 69 78
8.342522 0.673640 38.657867 133 67 77
8.342522 0.756973 38.657867 131 64 73
8.331673 0.839214 38.607597 130 63 72
8.320853 0.921241 38.557457 131 65 73
8.320853 1.004358 38.557457 132 66 75
8.320853 1.087475 38.557457 133 67 77
8.310061 1.169073 38.507446 133 68 78
8.277851 1.247229 38.358192 133 68 79
8.267170 1.328201 38.308701 132 67 79
8.214175 1.401738 38.063129 131 67 79
8.224720 1.485694 38.111992 130 67 80
8.310061 1.750137 38.507446 132 73 88
8.310061 1.833146 38.507446 133 74 89
8.299296 1.913673 38.457569 134 75 89
8.299296 1.996574 38.457569 132 73 86
8.299296 2.079476 38.457569 129 70 82
8.310061 2.165182 38.507446 127 68 80
8.331673 2.254038 38.607597 128 67 80
8.342522 2.340307 38.657867 128 67 80
8.353398 2.426800 38.708267 128 66 79
8.353398 2.510242 38.708267 128 66 79
8.375237 2.600465 38.809467 128 65 78
8.386200 2.687638 38.860264 126 63 76
8.386200 2.771408 38.860264 124 61 76
8.386200 2.855177 38.860264 123 61 76
8.386200 2.938947 38.860264 123 61 76
8.397191 3.026678 38.911194 121 60 77
8.408211 3.114640 38.962261 120 60 77
8.397191 3.194437 38.911194 119 60 77
8.397191 3.278316 38.911194 120 61 78
8.386200 3.357795 38.860264 120 61 78
8.364304 3.432579 38.758801 120 61 77
8.353398 3.511546 38.708267 119 62 76
8.353398 3.594988 38.708267 118 61 74
8.353398 3.678430 38.708267 116 60 73
8.353398 3.761872 38.708267 114 59 71
8.342522 3.840307 38.657867 112 59 70
8.342522 3.923640 38.657867 111 59 70
8.342522 4.006973 38.657867 110 58 69
8.342522 4.090307 38.657867 109 58 69
8.342522 4.173640 38.657867 110 58 69
8.353398 4.262524 38.708267 110 58 68
8.353398 4.345965 38.708267 110 58 67
8.364304 4.435190 38.758801 110 58 68
8.397191 4.536508 38.911194 109 58 68
8.408211 4.626451 38.962261 107 56 66
8.397191 4.704267 38.911194 103 53 64
8.397191 4.788146 38.911194 102 53 64
8.375237 4.859288 38.809467 102 53 64
8.375237 4.942948 38.809467 99 50 60
8.375237 5.026608 38.809467 96 48 58
8.375237 5.110269 38.809467 95 47 58
8.364304 5.187148 38.758801 96 48 58
8.364304 5.270699 38.758801 96 49 60
8.342522 5.340307 38.657867 96 50 59
8.342522 5.423640 38.657867 93 49 57
8.342522 5.506973 38.657867 89 47 54
8.331673 5.583037 38.607597 88 46 52
8.320853 5.658903 38.557457 87 44 51
8.310061 5.734572 38.507446 86 44 51
8.288560 5.802530 38.407818 87 43 51
8.235291 5.847501 38.160980 87 43 51
8.214175 5.914558 38.063129 88 43 51
8.224720 6.004307 38.111992 88 44 51
8.288560 6.133707 38.407818 88 44 51
8.320853 6.240721 38.557457 88 45 51
8.320853 6.323838 38.557457 88 46 51
8.310061 6.398645 38.507446 87 46 50
8.310061 6.481654 38.507446 86 46 50
8.320853 6.573189 38.557457 85 46 50
8.331673 6.664962 38.607597 83 45 49
8.342522 6.756973 38.657867 83 44 49
8.342522 6.840307 38.657867 83 44 49
8.342522 6.923640 38.657867 82 44 48
8.342522 7.006973 38.657867 80 43 47
8.353398 7.099551 38.708267 79 43 46
8.364304 7.192370 38.758801 77 43 44
8.520022 7.411377 39.480373 76 42 44
8.520022 7.496483 39.480373 74 42 43
8.520022 7.581590 39.480373 73 42 43
8.497422 7.646360 39.375652 72 41 43
8.486168 7.721001 39.323498 70 40 42
8.463747 7.785146 39.219608 68 39 41
8.441444 7.848953 39.116261 67 37 41
8.397191 7.891685 38.911194 66 37 40
8.375237 7.954713 38.809467 66 38 41
8.353398 8.017412 38.708267 68 41 43
8.342522 8.090306 38.657867 68 41 43
8.342522 8.173640 38.657867 66 41 42
8.331673 8.246236 38.607597 65 39 40
8.310061 8.307854 38.507446 64 38 38
8.299296 8.379994 38.457569 63 36 37
8.267170 8.430136 38.308701 64 37 38
8.267170 8.512716 38.308701 65 37 38
8.277851 8.606402 38.358192 66 37 38
8.331673 8.745585 38.607597 67 38 40
8.342522 8.840306 38.657867 68 38 42
8.397191 8.982118 38.911194 69 40 43
8.463747 9.137854 39.219608 70 42 44
8.497422 9.259092 39.375652 70 43 44
8.497422 9.343973 39.375652 71 44 43
8.497422 9.428853 39.375652 72 45 43
8.497422 9.513734 39.375652 72 47 43
8.497422 9.598615 39.375652 73 48 43
8.486168 9.670670 39.323498 74 49 43
8.441444 9.704025 39.116261 76 51 43
8.408211 9.749810 38.962261 76 52 43
8.038967 9.401952 37.251244 76 52 44
8.038967 9.482253 37.251244 77 52 44
8.497422 10.107899 39.375652 77 52 45
8.497422 10.192780 39.375652 77 52 46
8.463747 10.236929 39.219608 77 52 47
8.397191 10.240309 38.911194 76 52 48
8.224720 10.112138 38.111992 75 52 48
8.224720 10.194295 38.111992 73 52 48
8.508707 10.631282 39.427944 71 51 47
8.508707 10.716275 39.427944 69 50 47
8.419260 10.687720 39.013458 67 49 45
8.342522 10.673640 38.657867 65 48 44
8.458898 -1.666202 38.809467 142 83 98
8.447855 -1.580476 38.758801 141 80 94
8.436840 -1.494973 38.708267 138 75 88
8.447855 -1.413374 38.758801 135 71 82
8.447855 -1.329823 38.758801 134 69 80
8.447855 -1.246272 38.758801 134 67 80
8.436840 -1.161205 38.708267 136 67 81
8.436840 -1.077763 38.708267 136 67 81
8.436840 -0.994321 38.708267 136 66 80
8.447855 -0.912069 38.758801 135 64 78
8.447855 -0.828518 38.758801 135 63 78
8.458898 -0.745941 38.809467 137 66 80
8.458898 -0.662280 38.809467 140 69 83
8.458898 -0.578620 38.809467 139 69 82
8.458898 -0.494960 38.809467 133 63 76
8.469970 -0.411838 38.860264 129 58 71
8.469970 -0.328069 38.860264 128 58 70
8.469970 -0.244299 38.860264 129 60 71
8.481071 -0.160740 38.911194 132 63 73
8.469970 -0.076760 38.860264 133 66 74
8.458898 0.007001 38.809467 132 66 73
8.447855 0.090542 38.758801 131 65 72
8.447855 0.174093 38.758801 130 65 72
8.436840 0.257308 38.708267 128 65 73
8.436840 0.340750 38.708267 128 66 73
8.436840 0.424192 38.708267 130 67 75
8.436840 0.507634 38.708267 132 68 77
8.425855 0.590307 38.657867 133 68 77
8.425855 0.673640 38.657867 131 65 73
8.425855 0.756973 38.657867 128 61 70
8.425855 0.840307 38.657867 128 62 71
8.414898 0.922439 38.607597 129 64 72
8.414898 1.005664 38.607597 130 66 74
8.414898 1.088889 38.607597 130 67 76
8.414898 1.172114 38.607597 130 68 77
8.382197 1.250461 38.457569 130 68 77
8.382197 1.333362 38.457569 129 68 78
8.360538 1.412604 38.358192 128 67 78
10.337152 2.155520 47.426903 131 71 86
8.403970 1.835527 38.557457 132 72 86
8.393069 1.916155 38.507446 132 72 85
8.382197 1.996574 38.457569 130 70 83
8.382197 2.079476 38.457569 128 69 80
8.393069 2.165182 38.507446 126 68 78
8.403970 2.251111 38.557457 126 67 78
8.425855 2.340307 38.657867 127 66 77
10.174618 2.926660 46.681198 127 66 77
10.174618 3.027288 46.681198 127 65 76
10.174618 3.127917 46.681198 127 64 76
8.492200 2.694692 38.962261 125 62 75
8.469970 2.771408 38.860264 123 61 74
8.469970 2.855177 38.860264 122 60 75
8.469970 2.938947 38.860264 121 60 75
8.492200 3.030650 38.962261 120 59 76
8.492200 3.114640 38.962261 118 58 76
8.481071 3.278316 38.911194 117 59 77
8.469970 3.357795 38.860264 117 60 77
8.458898 3.437066 38.809467 117 61 76
8.447855 3.516130 38.758801 116 61 75
8.436840 3.594988 38.708267 115 60 74
8.447855 3.683232 38.758801 114 60 72
8.447855 3.766783 38.758801 112 59 70
8.436840 3.845314 38.708267 110 58 69
8.425855 3.923640 38.657867 109 58 68
8.425855 4.006973 38.657867 108 57 67
8.436840 4.095639 38.708267 107 58 66
8.436840 4.179081 38.708267 108 57 66
8.447855 4.268088 38.758801 109 57 66
8.447855 4.351639 38.758801 110 57 65
8.469970 4.446800 38.860264 110 57 66
8.503360 4.548430 39.013458 109 57 66
8.492200 4.626451 38.962261 107 56 64
8.481071 4.704267 38.911194 105 54 63
8.469970 4.781879 38.860264 103 53 62
8.458898 4.859288 38.809467 101 52 61
8.458898 4.942948 38.809467 98 49 58
8.447855 5.020046 38.758801 95 46 55
8.447855 5.103597 38.758801 94 46 54
8.436840 5.180385 38.708267 94 46 55
8.425855 5.256973 38.657867 94 47 56
8.425855 5.340307 38.657867 93 48 56
8.425855 5.423640 38.657867 91 47 54
8.425855 5.506973 38.657867 88 46 53
8.414898 5.583037 38.607597 86 45 51
8.403970 5.658903 38.557457 85 44 50
8.393069 5.734572 38.507446 84 43 50
8.349751 5.787555 38.308701 85 42 50
8.306876 5.839994 38.111992 86 42 50
8.296227 5.914558 38.063129 87 43 51
8.296227 5.996610 38.063129 87 43 51
8.382197 6.141652 38.457569 88 44 51
8.425855 6.256973 38.657867 88 45 52
8.425855 6.340307 38.657867 88 46 51
8.403970 6.406955 38.557457 87 46 51
8.403970 6.490072 38.557457 86 46 51
8.403970 6.573189 38.557457 85 46 51
8.425855 6.673640 38.657867 83 45 51
8.425855 6.756973 38.657867 81 44 50
8.447855 6.858166 38.758801 80 43 49
8.447855 6.941717 38.758801 79 43 48
8.447855 7.025268 38.758801 78 42 47
9.178803 7.723908 42.112400 77 42 45
9.178803 7.814689 42.112400 75 42 43
8.744671 7.531561 40.120598 73 41 42
8.721101 7.597514 40.012455 72 41 42
8.616587 7.591685 39.532948 71 41 42
8.605128 7.666696 39.480373 70 40 41
8.582303 7.731241 39.375652 68 40 41
8.570936 7.805769 39.323498 66 39 40
8.537014 7.859308 39.167866 65 38 40
8.492200 7.902041 38.962261 65 38 40
8.481071 7.975564 38.911194 66 39 41
8.447855 8.027879 38.758801 66 40 42
8.436840 8.100855 38.708267 66 41 42
8.436840 8.184297 38.708267 65 40 42
8.425855 8.256973 38.657867 63 39 40
8.393069 8.307854 38.507446 61 37 38
8.360538 8.358340 38.358192 61 36 37
8.349751 8.430136 38.308701 62 37 37
8.328259 8.490805 38.210094 64 37 38
8.328259 8.573174 38.210094 65 37 39
8.414898 8.745585 38.607597 66 39 41
8.425855 8.840306 38.657867 68 40 43
8.503360 9.005723 39.013458 69 41 44
8.582303 9.174212 39.375652 70 43 45
8.582303 9.259092 39.375652 71 44 46
8.582303 9.343973 39.375652 71 45 45
8.582303 9.428853 39.375652 71 46 44
8.570936 9.501133 39.323498 71 47 44
8.570936 9.585901 39.323498 72 49 44
8.525766 9.619704 39.116261 74 50 43
8.492200 9.665821 38.962261 75 52 44
8.481071 9.737032 38.911194 76 52 44
8.492200 9.833799 38.962261 76 52 44
8.570936 10.009743 39.323498 77 52 44
8.570936 10.094510 39.323498 77 52 45
8.559599 10.165814 39.271484 77 52 46
8.548291 10.236929 39.219608 77 52 47
8.425855 10.173640 38.657867 76 52 48
8.317554 10.125135 38.160980 75 52 48
8.317554 10.207397 38.160980 74 51 48
8.628076 10.673807 39.585655 71 51 47
8.605128 10.730526 39.480373 69 49 46
8.509189 -1.493027 38.657867 137 75 86
8.509189 -1.409693 38.657867 134 71 81
8.520283 -1.328089 38.708267 133 69 79
8.520283 -1.244647 38.708267 134 68 80
8.509189 -1.159693 38.657867 136 68 81
8.509189 -1.076360 38.657867 136 68 81
8.520283 -0.994321 38.708267 136 67 81
8.520283 -0.910879 38.708267 135 65 79
8.531405 -0.828518 38.758801 135 64 79
8.542558 -0.745941 38.809467 137 67 81
8.542558 -0.662280 38.809467 140 70 83
8.553739 -0.579378 38.860264 141 71 84
8.553739 -0.495608 38.860264 137 68 80
8.553739 -0.411838 38.860264 133 63 75
8.564950 -0.328499 38.911194 131 61 73
8.564950 -0.244619 38.911194 130 62 73
8.564950 -0.160740 38.911194 132 65 75
8.564950 -0.076860 38.911194 134 67 77
8.553739 0.007010 38.860264 133 67 75
8.542558 0.090661 38.809467 131 65 73
8.542558 0.174321 38.809467 130 66 74
8.531405 0.257644 38.758801 129 66 74
8.531405 0.341195 38.758801 129 66 75
8.531405 0.424746 38.758801 131 68 76
8.531405 0.508297 38.758801 133 69 77
8.520283 0.591076 38.708267 133 68 76
8.520283 0.674518 38.708267 129 63 71
8.509189 0.756973 38.657867 126 60 69
8.509189 0.840307 38.657867 126 61 70
8.509189 0.923640 38.657867 127 63 72
8.509189 1.006973 38.657867 128 65 74
8.509189 1.090307 38.657867 128 67 76
8.509189 1.173640 38.657867 128 68 76
8.487086 1.253708 38.557457 128 69 77
8.487086 1.336825 38.557457 128 69 77
10.472847 2.162429 47.578915 131 70 83
10.422738 2.254155 47.351265 131 70 83
8.487086 1.918643 38.557457 130 70 82
8.465099 1.996574 38.457569 129 69 80
8.454148 2.076786 38.407818 127 68 79
8.465099 2.162378 38.457569 126 68 78
8.487086 2.251111 38.557457 125 67 77
10.307660 2.834945 46.828457 125 66 76
10.323944 2.940530 46.902435 125 65 75
10.307660 3.036838 46.828457 126 64 74
10.307660 3.137785 46.828457 126 62 74
10.275247 3.228546 46.681198 125 61 73
8.564950 2.775040 38.911194 123 61 73
8.564950 2.858919 38.911194 122 61 73
8.564950 2.942799 38.911194 120 60 74
8.576190 3.030650 38.962261 119 59 74
8.576190 3.282619 38.962261 114 57 74
8.553739 3.357795 38.860264 114 58 75
8.542558 3.437066 38.809467 114 59 75
8.531405 3.516130 38.758801 115 61 75
8.531405 3.599681 38.758801 115 62 75
8.531405 3.683232 38.758801 113 60 72
8.531405 3.766783 38.758801 110 58 68
8.520283 3.845314 38.708267 108 57 67
8.520283 3.928756 38.708267 107 57 67
8.520283 4.012197 38.708267 107 57 66
8.531405 4.100986 38.758801 107 57 65
8.531405 4.184537 38.758801 107 57 65
8.531405 4.268088 38.758801 108 57 65
8.542558 4.357327 38.809467 109 57 65
8.576190 4.458472 38.962261 109 57 65
8.587460 4.548430 39.013458 109 57 65
8.576190 4.626451 38.962261 107 56 63
8.553739 4.698109 38.860264 105 55 62
8.542558 4.775628 38.809467 103 53 61
8.531405 4.852944 38.758801 101 51 59
8.531405 4.936495 38.758801 98 48 56
8.520283 5.013501 38.708267 95 45 53
8.520283 5.096943 38.708267 92 44 52
8.509189 5.173640 38.657867 92 45 53
8.509189 5.256973 38.657867 92 46 54
8.509189 5.340307 38.657867 92 46 54
8.509189 5.423640 38.657867 90 46 54
8.498123 5.499812 38.607597 88 46 52
8.498123 5.583037 38.607597 86 45 51
8.487086 5.658903 38.557457 85 44 50
8.476079 5.734572 38.507446 84 43 50
8.432331 5.787555 38.308701 84 43 50
8.389033 5.839994 38.111992 84 43 50
8.378278 5.914558 38.063129 85 43 50
8.410626 6.019763 38.210094 86 44 51
8.509189 6.173640 38.657867 87 44 51
8.564950 6.297976 38.911194 87 45 52
8.553739 6.373502 38.860264 88 46 52
8.520283 6.432015 38.708267 87 47 53
8.498123 6.498512 38.607597 86 47 53
8.520283 6.598899 38.708267 84 47 53
8.531405 6.691064 38.758801 82 45 52
8.553739 6.792350 38.860264 79 44 51
8.553739 6.876120 38.860264 78 43 49
8.553739 6.959889 38.860264 76 42 48
9.402959 7.742958 42.718334 75 42 47
9.484842 7.903274 43.090336 75 41 45
9.402959 7.927130 42.718334 73 41 43
9.026321 7.698005 41.007240 70 40 41
8.819240 7.607767 40.066452 69 39 40
8.701806 7.591685 39.532948 68 39 39
8.690235 7.666696 39.480373 67 39 39
8.678694 7.741508 39.427944 66 39 39
8.667184 7.816121 39.375652 64 38 39
8.632835 7.869690 39.219608 64 38 39
8.621447 7.943741 39.167866 64 38 40
8.576190 7.986031 38.962261 64 38 40
8.542558 8.038373 38.809467 64 39 41
8.542558 8.122033 38.809467 63 39 41
8.531405 8.194981 38.758801 63 39 40
8.520283 8.267738 38.708267 62 38 40
8.498123 8.329461 38.607597 61 37 38
8.476079 8.390863 38.507446 61 37 37
8.432331 8.430136 38.308701 61 37 37
8.399816 8.479892 38.160980 63 38 38
8.399816 8.562154 38.160980 64 39 40
8.498123 8.745585 38.607597 67 40 43
8.520283 8.851832 38.708267 69 42 44
8.644255 9.065285 39.271484 70 43 46
8.667184 9.174212 39.375652 70 44 47
8.667184 9.259092 39.375652 70 45 47
8.667184 9.343973 39.375652 70 46 47
8.667184 9.428853 39.375652 71 47 46
8.655704 9.501133 39.323498 71 48 45
8.655704 9.585901 39.323498 72 49 45
8.576190 9.581831 38.962261 73 51 44
8.564950 9.653152 38.911194 74 52 44
8.542558 9.711576 38.809467 75 52 44
8.564950 9.820911 38.911194 75 52 44
8.655704 10.009743 39.323498 76 52 45
8.655704 10.094510 39.323498 76 52 45
8.632835 10.152385 39.219608 76 52 46
8.632835 10.236929 39.219608 77 52 47
8.509189 10.173640 38.657867 76 51 48
8.509189 10.256973 38.657867 75 51 48
8.736707 10.616785 39.691502 74 50 47
8.736707 10.702347 39.691502 72 50 47
8.592522 -1.409693 38.657867 134 72 81
8.592522 -1.326360 38.657867 134 69 80
8.592522 -1.243027 38.657867 135 68 80
8.592522 -1.159693 38.657867 135 68 81
8.592522 -1.076360 38.657867 137 68 82
8.592522 -0.993027 38.657867 137 68 82
8.603724 -0.910879 38.708267 137 67 82
8.614957 -0.828518 38.758801 137 67 82
8.626218 -0.745941 38.809467 139 69 84
8.637508 -0.663147 38.860264 142 72 85
8.637508 -0.579378 38.860264 143 73 86
8.637508 -0.495608 38.860264 142 73 86
8.648829 -0.412378 38.911194 138 68 81
8.648829 -0.328499 38.911194 133 64 76
8.660179 -0.244940 38.962261 132 63 74
8.660179 -0.160951 38.962261 133 65 75
8.660179 -0.076961 38.962261 134 67 77
8.648829 0.007019 38.911194 132 67 76
8.637508 0.090779 38.860264 131 66 75
8.626218 0.174321 38.809467 130 66 76
8.626218 0.257981 38.809467 129 66 76
8.626218 0.341641 38.809467 129 67 75
8.614957 0.424746 38.758801 130 68 76
8.614957 0.508297 38.758801 133 70 78
8.603724 0.591076 38.708267 133 68 77
8.603724 0.674518 38.708267 127 62 71
8.592522 0.756973 38.657867 123 59 67
8.592522 0.840307 38.657867 124 61 69
8.592522 0.923640 38.657867 125 63 72
8.592522 1.006973 38.657867 126 65 74
8.592522 1.090307 38.657867 126 67 76
8.603724 1.175170 38.708267 126 68 76
8.592522 1.256973 38.657867 127 70 76
8.536942 1.331637 38.407818 127 70 76
8.536942 1.414431 38.407818 128 70 76
10.609416 2.066488 47.731899 130 69 78
10.575411 2.162429 47.578915 130 69 80
10.541624 2.257756 47.426903 130 68 80
8.570204 1.918643 38.557457 129 68 79
8.548001 1.996574 38.457569 127 67 78
8.536942 2.076786 38.407818 126 67 77
8.548001 2.162378 38.457569 125 67 77
10.458093 2.746998 47.051098 125 67 76
10.491346 2.857481 47.200703 124 66 75
10.474693 2.954532 47.125782 124 65 74
10.425050 3.041636 46.902435 124 64 73
10.425050 3.142742 46.902435 124 63 72
10.392215 3.233631 46.754711 123 61 71
8.705879 2.793345 39.167866 122 61 70
8.648829 2.858919 38.911194 121 61 71
8.660179 2.946661 38.962261 120 61 72
8.694409 3.295594 39.116261 112 57 72
8.660179 3.366608 38.962261 111 57 72
8.637508 3.441565 38.860264 111 57 72
8.614957 3.516130 38.758801 113 59 74
8.614957 3.599681 38.758801 115 61 75
8.614957 3.683232 38.758801 113 59 71
8.614957 3.766783 38.758801 108 55 66
8.603724 3.845314 38.708267 107 54 65
8.603724 3.928756 38.708267 106 56 65
8.626218 4.022687 38.809467 106 56 65
8.626218 4.106347 38.809467 106 56 64
8.614957 4.184537 38.758801 107 56 64
8.626218 4.273667 38.809467 107 56 63
8.626218 4.357327 38.809467 107 55 63
8.671559 4.464331 39.013458 107 55 64
8.671559 4.548430 39.013458 107 55 63
8.660179 4.626451 38.962261 105 55 62
8.637508 4.698109 38.860264 104 53 61
8.614957 4.769393 38.758801 102 51 59
8.614957 4.852944 38.758801 100 50 57
8.603724 4.930059 38.708267 97 47 55
8.592522 5.006973 38.657867 94 45 52
8.592522 5.090307 38.657867 91 43 51
8.592522 5.173640 38.657867 90 43 51
8.592522 5.256973 38.657867 91 44 52
8.581348 5.333362 38.607597 91 46 54
8.581348 5.416587 38.607597 90 46 54
8.581348 5.499812 38.607597 89 46 53
8.581348 5.583037 38.607597 87 45 51
8.581348 5.666262 38.607597 85 44 51
8.559088 5.734572 38.507446 84 43 50
8.536942 5.802530 38.407818 83 43 50
8.514912 5.870136 38.308701 83 43 50
8.492994 5.937395 38.210094 84 43 50
8.592522 6.090307 38.657867 85 43 50
8.705879 6.255086 39.167866 85 44 50
8.705879 6.339519 39.167866 86 45 51
8.694409 6.415488 39.116261 86 46 51
8.637508 6.457272 38.860264 85 46 52
8.603724 6.515457 38.708267 84 46 52
8.728910 6.694915 39.271484 83 46 52
8.728910 6.779571 39.271484 80 44 51
8.728910 6.864227 39.271484 77 43 50
8.763687 6.976568 39.427944 75 42 49
9.577731 7.717497 43.090336 74 41 48
9.577731 7.810385 43.090336 73 41 46
9.577731 7.903274 43.090336 72 40 45
9.481403 7.915740 42.656956 70 39 43
8.941812 7.551972 40.229324 68 38 41
8.834079 7.546660 39.744637 66 37 38
8.775341 7.581590 39.480373 65 37 37
8.763687 7.656515 39.427944 64 37 37
8.752065 7.731241 39.375652 63 37 38
8.740473 7.805769 39.323498 62 37 38
8.717380 7.869690 39.219608 61 37 38
8.705879 7.943741 39.167866 61 37 38
8.660179 7.986031 38.962261 61 37 39
8.637508 8.048895 38.860264 61 37 39
8.626218 8.122033 38.809467 61 38 39
8.626218 8.205693 38.809467 61 38 39
8.614957 8.278532 38.758801 61 38 40
8.592522 8.340306 38.657867 60 38 39
8.570204 8.401760 38.557457 61 38 38
8.536942 8.451947 38.407818 61 38 39
8.482078 8.479892 38.160980 62 39 40
8.482078 8.562154 38.160980 65 40 42
8.559088 8.722899 38.507446 68 42 44
8.660179 8.909915 38.962261 70 43 46
8.763687 9.101401 39.427944 71 45 48
8.763687 9.186395 39.427944 71 46 49
8.752065 9.259092 39.375652 71 47 49
8.752065 9.343973 39.375652 70 48 48
8.752065 9.428853 39.375652 71 49 48
8.740473 9.501133 39.323498 71 49 47
8.740473 9.585901 39.323498 72 50 46
8.671559 9.594422 39.013458 73 51 46
8.648829 9.653152 38.911194 74 52 45
8.637508 9.724287 38.860264 75 52 45
8.637508 9.808057 38.860264 76 52 45
8.682969 9.943889 39.064793 76 52 45
8.728910 10.081158 39.271484 76 52 46
8.717380 10.152385 39.219608 76 52 47
8.717380 10.236929 39.219608 76 52 47
8.648829 10.240309 38.911194 76 51 47
8.648829 10.324188 38.911194 76 51 47
8.810490 10.602611 39.638508 75 50 47
8.675855 -1.243027 38.657867 134 67 78
8.664573 -1.158185 38.607597 135 67 80
8.664573 -1.074960 38.607597 136 68 82
8.664573 -0.991735 38.607597 138 69 83
8.687166 -0.910879 38.708267 138 69 85
8.698507 -0.828518 38.758801 139 70 86
8.721278 -0.746917 38.860264 141 72 87
8.721278 -0.663147 38.860264 143 73 88
8.732709 -0.580137 38.911194 145 75 89
8.732709 -0.496258 38.911194 146 76 89
8.732709 -0.412378 38.911194 142 72 84
8.744169 -0.328930 38.962261 136 66 78
8.755659 -0.245262 39.013458 132 63 74
8.767179 -0.161374 39.064793 133 64 75
8.755659 -0.077062 39.013458 133 65 76
8.744169 0.007028 38.962261 133 66 77
8.721278 0.090779 38.860264 132 66 77
8.721278 0.174549 38.860264 131 67 77
8.709878 0.257981 38.809467 129 67 77
8.709878 0.341641 38.809467 128 66 76
8.698507 0.424746 38.758801 129 67 76
8.698507 0.508297 38.758801 132 71 80
8.687166 0.591076 38.708267 134 71 80
8.687166 0.674518 38.708267 128 65 74
8.675855 0.756973 38.657867 124 61 69
8.675855 0.840307 38.657867 124 62 71
8.675855 0.923640 38.657867 125 64 73
8.675855 1.006973 38.657867 125 65 75
8.687166 1.091728 38.708267 125 67 76
8.698507 1.176704 38.758801 126 69 76
8.675855 1.256973 38.657867 127 71 76
8.664573 1.338564 38.607597 128 72 76
8.619737 1.414431 38.407818 128 72 76
8.664573 1.505014 38.607597 129 72 76
10.677976 1.957300 47.578915 129 70 76
10.712310 2.066488 47.731899 129 69 76
10.712310 2.169382 47.731899 129 68 77
10.677976 2.264993 47.578915 128 67 77
8.675855 1.923640 38.657867 127 66 77
8.653320 2.001760 38.557457 126 66 76
8.630902 2.079476 38.457569 124 67 76
8.653320 2.167994 38.557457 124 67 76
10.626884 2.764522 47.351265 124 66 76
10.626884 2.866596 47.351265 124 66 75
10.626884 2.968669 47.351265 123 65 74
10.576281 3.056120 47.125782 122 64 73
10.526155 3.142742 46.902435 121 62 71
8.848680 2.726900 39.427944 120 61 69
8.825240 2.804444 39.323498 119 61 69
8.801924 2.881579 39.219608 119 62 69
8.825240 2.973981 39.323498 119 62 70
8.790312 3.299941 39.167866 112 55 69
8.755659 3.371032 39.013458 110 55 69
8.732709 3.446075 38.911194 110 55 69
8.709878 3.520726 38.809467 111 57 71
8.698507 3.599681 38.758801 112 58 71
8.698507 3.683232 38.758801 111 57 69
8.698507 3.766783 38.758801 108 54 66
8.687166 3.845314 38.708267 108 54 65
8.687166 3.928756 38.708267 108 56 65
8.709878 4.022687 38.809467 107 56 65
8.709878 4.106347 38.809467 107 56 64
8.709878 4.190007 38.809467 106 55 63
8.709878 4.273667 38.809467 105 54 62
8.709878 4.357327 38.809467 104 53 61
8.744169 4.458472 38.962261 104 53 62
8.744169 4.542461 38.962261 104 53 61
8.721278 4.614340 38.860264 103 53 60
8.698507 4.685843 38.758801 102 51 59
8.687166 4.763175 38.708267 100 50 58
8.687166 4.846617 38.708267 97 48 55
8.675855 4.923640 38.657867 95 46 53
8.675855 5.006973 38.657867 92 44 51
8.675855 5.090307 38.657867 89 42 49
8.675855 5.173640 38.657867 88 41 49
8.664573 5.250137 38.607597 89 43 50
8.664573 5.333362 38.607597 90 45 52
8.664573 5.416587 38.607597 90 46 53
8.664573 5.499812 38.607597 89 46 53
8.664573 5.583037 38.607597 87 45 52
8.664573 5.666262 38.607597 85 44 51
8.664573 5.749487 38.607597 83 43 50
8.653320 5.825137 38.557457 82 43 50
8.642097 5.900591 38.507446 81 43 50
8.675855 6.006973 38.657867 81 43 50
8.790312 6.170654 39.167866 82 43 49
8.825240 6.279941 39.323498 83 44 50
8.825240 6.364709 39.323498 83 44 49
8.813567 6.440947 39.271484 83 45 49
8.778730 6.499810 39.116261 83 45 49
8.813567 6.610259 39.271484 82 45 50
8.884075 6.748474 39.585655 80 44 50
8.895937 6.842931 39.638508 78 43 50
8.907829 6.937641 39.691502 76 43 50
8.931711 7.042031 39.797913 74 41 48
9.813044 7.831157 43.724953 72 41 47
9.813044 7.925413 43.724953 71 40 46
8.943700 7.309202 39.851334 69 40 44
8.979860 7.425007 40.012455 67 38 42
8.919755 7.460985 39.744637 65 37 40
8.895937 7.526509 39.638508 64 37 38
8.848680 7.571521 39.427944 63 36 37
8.836946 7.646360 39.375652 62 36 36
8.836946 7.731241 39.375652 60 36 36
8.825240 7.805769 39.323498 59 36 36
8.801924 7.869690 39.219608 59 36 36
8.790312 7.943741 39.167866 59 35 36
8.744169 7.986031 38.962261 58 36 37
8.721278 8.048895 38.860264 59 36 38
8.721278 8.132665 38.860264 59 36 38
8.721278 8.216434 38.860264 60 37 38
8.698507 8.278532 38.758801 60 38 39
8.687166 8.351180 38.708267 60 38 40
8.675855 8.423640 38.657867 61 39 40
8.653320 8.484878 38.557457 61 39 40
8.564341 8.479892 38.160980 63 40 42
8.564341 8.562154 38.160980 66 41 44
8.642097 8.722899 38.507446 68 43 46
8.872246 9.040421 39.532948 70 45 49
8.860448 9.113504 39.480373 71 47 50
8.848680 9.186395 39.427944 71 48 50
8.836946 9.259092 39.375652 71 49 50
8.836946 9.343973 39.375652 71 49 49
8.836946 9.428853 39.375652 71 50 48
8.813567 9.488565 39.271484 72 50 48
8.813567 9.573221 39.271484 73 51 47
8.755659 9.594422 39.013458 74 52 47
8.721278 9.640517 38.860264 74 52 46
8.721278 9.724287 38.860264 75 52 46
8.709878 9.795236 38.809467 76 52 46
8.709878 9.878896 38.809467 76 52 47
8.801924 10.067841 39.219608 76 52 47
8.801924 10.152385 39.219608 76 52 47
8.801924 10.236929 39.219608 76 52 48
8.767179 10.280731 39.064793 76 51 48
8.747798 -1.158185 38.607597 134 67 79
8.747798 -1.074960 38.607597 136 68 81
8.747798 -0.991735 38.607597 138 70 84
8.770608 -0.910879 38.708267 139 70 86
8.782059 -0.828518 38.758801 140 71 88
8.805048 -0.746917 38.860264 142 73 89
8.816588 -0.664016 38.911194 143 74 89
8.816588 -0.580137 38.911194 146 76 90
8.816588 -0.496258 38.911194 146 76 89
8.828158 -0.412919 38.962261 143 73 85
8.851390 -0.329795 39.064793 136 66 78
8.851390 -0.245585 39.064793 133 63 73
8.863052 -0.161587 39.116261 133 64 74
8.851390 -0.077164 39.064793 134 65 76
8.839759 0.007037 39.013458 134 66 77
8.816588 0.090898 38.911194 133 68 78
8.805048 0.174549 38.860264 131 68 78
8.793538 0.257981 38.809467 130 67 78
8.782059 0.341195 38.758801 128 67 77
8.782059 0.424746 38.758801 129 68 78
8.770608 0.507634 38.708267 132 72 81
8.759189 0.590307 38.657867 135 74 84
8.759189 0.673640 38.657867 132 71 81
8.759189 0.756973 38.657867 127 66 76
8.759189 0.840307 38.657867 126 64 74
8.747798 0.922439 38.607597 127 66 76
8.747798 1.005664 38.607597 127 68 77
8.770608 1.091728 38.708267 126 69 78
8.793538 1.178242 38.809467 126 70 77
8.793538 1.261903 38.809467 127 73 77
8.782059 1.343806 38.758801 128 74 77
8.759189 1.423640 38.657867 129 74 76
8.759189 1.506973 38.657867 129 73 76
8.793538 1.596543 38.809467 130 71 76
10.885205 2.079863 48.040844 129 69 75
10.885205 2.183423 48.040844 129 67 75
10.815204 2.272276 47.731899 127 65 74
8.782059 1.928663 38.758801 126 66 75
8.759189 2.006973 38.657867 125 66 75
8.747798 2.087588 38.607597 124 66 75
8.770608 2.176474 38.708267 123 66 75
10.780540 2.777813 47.578915 123 67 75
10.780540 2.880377 47.578915 123 66 75
10.728958 2.968669 47.351265 122 65 74
10.627262 3.041636 46.902435 121 63 72
8.933674 2.641906 39.427944 119 61 69
8.933674 2.726900 39.427944 117 60 66
8.921825 2.808164 39.375652 117 61 67
8.921825 2.893044 39.375652 117 62 68
8.921825 2.977925 39.375652 118 62 70
8.921825 3.062806 39.375652 118 62 70
8.910008 3.228285 39.323498 115 57 68
8.874745 3.299941 39.167866 113 55 66
8.874745 3.384374 39.167866 111 54 66
8.839759 3.455132 39.013458 110 55 67
8.816588 3.529955 38.911194 110 55 68
8.805048 3.609104 38.860264 110 55 68
8.805048 3.692874 38.860264 110 55 68
8.793538 3.771707 38.809467 109 55 67
8.782059 3.850333 38.758801 109 55 67
8.782059 3.933884 38.758801 109 55 67
8.805048 4.027952 38.860264 109 55 67
8.805048 4.111722 38.860264 108 55 66
8.793538 4.190007 38.809467 106 53 64
8.793538 4.273667 38.809467 103 51 61
8.793538 4.357327 38.809467 101 50 59
8.805048 4.446800 38.860264 101 51 59
8.805048 4.530570 38.860264 100 51 59
8.782059 4.602292 38.758801 99 50 58
8.770608 4.679733 38.708267 98 50 58
8.759189 4.756973 38.657867 97 49 56
8.759189 4.840307 38.657867 94 47 53
8.759189 4.923640 38.657867 92 45 51
8.759189 5.006973 38.657867 89 43 49
8.759189 5.090307 38.657867 87 42 48
8.759189 5.173640 38.657867 86 41 48
8.759189 5.256973 38.657867 87 42 49
8.747798 5.333362 38.607597 88 44 51
8.759189 5.423640 38.657867 89 45 52
8.759189 5.506973 38.657867 89 45 52
8.759189 5.590307 38.657867 87 45 52
8.759189 5.673640 38.657867 85 44 51
8.759189 5.756973 38.657867 82 43 50
8.759189 5.840307 38.657867 81 43 49
8.759189 5.923640 38.657867 80 43 49
8.805048 6.038424 38.860264 80 43 49
8.874745 6.170654 39.167866 81 43 49
8.933674 6.296621 39.427944 81 43 48
8.933674 6.381614 39.427944 81 43 47
8.898223 6.440947 39.271484 81 43 46
8.898223 6.525602 39.271484 81 43 46
8.969409 6.663141 39.585655 79 43 47
8.981384 6.757484 39.638508 78 42 47
9.017502 6.870450 39.797913 76 42 47
9.053912 6.984328 39.958603 75 42 47
9.017502 7.042031 39.797913 73 41 47
9.029606 7.137390 39.851334 71 40 47
9.017502 7.213613 39.797913 69 40 46
8.945554 7.241164 39.480373 67 39 43
8.945554 7.326271 39.480373 64 37 40
8.969409 7.431140 39.585655 62 36 39
8.969409 7.516474 39.585655 62 36 38
8.933674 7.571521 39.427944 61 35 37
8.921825 7.646360 39.375652 59 34 36
8.921825 7.731241 39.375652 58 34 35
8.910008 7.805769 39.323498 57 34 35
8.898223 7.880100 39.271484 57 34 35
8.886469 7.954235 39.219608 56 34 35
8.828158 7.986031 38.962261 57 35 36
8.816588 8.059443 38.911194 58 35 37
8.816588 8.143323 38.911194 60 36 38
8.805048 8.216434 38.860264 60 37 38
8.805048 8.300203 38.860264 61 38 39
8.782059 8.362082 38.758801 61 38 40
8.770608 8.434623 38.708267 62 38 40
8.759189 8.506973 38.657867 64 39 42
8.736437 8.567994 38.557457 65 40 43
8.713804 8.628698 38.457569 67 42 45
9.078349 9.076054 40.066452 70 44 47
9.078349 9.162423 40.066452 72 46 50
8.957465 9.125640 39.532948 72 48 51
8.933674 9.186395 39.427944 72 49 51
8.933674 9.271388 39.427944 72 50 50
8.921825 9.343973 39.375652 72 50 49
8.898223 9.403910 39.271484 72 51 49
8.898223 9.488565 39.271484 72 52 48
8.886469 9.560575 39.219608 73 53 48
8.839759 9.594422 39.013458 74 53 48
8.805048 9.640517 38.860264 75 53 47
8.805048 9.724287 38.860264 75 52 47
8.793538 9.795236 38.809467 76 52 47
8.793538 9.878896 38.809467 76 52 48
8.886469 10.067841 39.219608 76 52 48
8.886469 10.152385 39.219608 76 51 48
8.886469 10.236929 39.219608 77 51 48
8.831023 -0.991735 38.607597 138 71 85
8.854051 -0.910879 38.708267 140 72 87
8.877198 -0.829601 38.809467 141 73 89
8.900468 -0.747896 38.911194 142 74 90
8.900468 -0.664016 38.911194 143 75 91
8.900468 -0.580137 38.911194 144 76 91
8.912148 -0.496909 38.962261 144 75 89
8.923859 -0.413462 39.013458 141 72 83
8.947373 -0.330230 39.116261 136 67 77
8.947373 -0.245908 39.116261 134 64 74
8.947373 -0.161587 39.116261 134 65 74
8.947373 -0.077266 39.116261 135 66 75
8.923859 0.007037 39.013458 135 68 77
8.900468 0.090898 38.911194 134 69 78
8.888818 0.174549 38.860264 132 69 78
8.877198 0.257981 38.809467 130 68 78
8.865609 0.341195 38.758801 129 69 78
8.865609 0.424746 38.758801 130 71 80
8.854051 0.507634 38.708267 133 74 84
8.842522 0.590307 38.657867 136 76 87
8.842522 0.673640 38.657867 135 76 86
8.842522 0.756973 38.657867 130 72 82
8.842522 0.840307 38.657867 128 69 79
8.831023 0.922439 38.607597 130 71 80
8.831023 1.005664 38.607597 130 72 81
8.877198 1.094582 38.809467 129 72 80
8.900468 1.181331 38.911194 128 72 78
8.900468 1.265210 38.911194 129 75 78
8.900468 1.349090 38.911194 130 76 78
8.888818 1.431094 38.860264 131 75 76
8.888818 1.514863 38.860264 131 74 76
11.060353 1.989178 48.353813 131 72 76
11.114659 2.103691 48.591232 130 70 75
11.096498 2.204829 48.511833 128 67 74
10.935679 2.275935 47.808765 126 65 73
8.888818 1.933711 38.860264 124 65 74
8.865609 2.012213 38.758801 124 66 74
8.854051 2.093032 38.708267 123 66 74
8.888818 2.185020 38.860264 123 67 74
10.900573 2.782272 47.655285 123 67 74
10.900573 2.885001 47.655285 122 66 74
10.831032 2.968669 47.351265 120 65 73
9.018667 2.556913 39.427944 119 63 71
9.018667 2.641906 39.427944 117 61 67
9.018667 2.726900 39.427944 116 60 66
9.018667 2.811893 39.427944 116 61 67
9.006706 2.893044 39.375652 116 61 68
9.006706 2.977925 39.375652 116 61 70
9.006706 3.062806 39.375652 117 61 70
8.994777 3.143517 39.323498 116 60 69
8.982879 3.224015 39.271484 115 57 67
8.959178 3.299941 39.167866 113 56 66
8.959178 3.384374 39.167866 112 55 66
8.959178 3.468807 39.167866 110 55 66
8.923859 3.539232 39.013458 110 55 66
8.900468 3.613834 38.911194 110 55 66
8.900468 3.697714 38.911194 110 55 66
8.888818 3.776643 38.860264 110 55 67
8.877198 3.855367 38.809467 110 55 67
8.877198 3.939027 38.809467 110 55 67
8.888818 4.027952 38.860264 110 55 67
8.888818 4.111722 38.860264 109 54 66
8.877198 4.190007 38.809467 106 52 64
8.865609 4.268088 38.758801 101 49 59
8.865609 4.351639 38.758801 98 47 57
8.877198 4.440988 38.809467 98 48 57
8.877198 4.524648 38.809467 97 49 57
8.854051 4.596292 38.708267 96 48 56
8.842522 4.673640 38.657867 95 48 56
8.842522 4.756973 38.657867 93 47 54
8.842522 4.840307 38.657867 91 46 52
8.842522 4.923640 38.657867 89 45 50
8.842522 5.006973 38.657867 87 43 49
8.842522 5.090307 38.657867 85 42 48
8.842522 5.173640 38.657867 85 41 48
8.842522 5.256973 38.657867 85 42 49
8.842522 5.340307 38.657867 87 44 51
8.842522 5.423640 38.657867 88 44 52
8.842522 5.506973 38.657867 88 44 52
8.842522 5.590307 38.657867 87 44 51
8.854051 5.681037 38.708267 85 43 51
8.842522 5.756973 38.657867 82 42 49
8.842522 5.840307 38.657867 80 42 49
8.854051 5.931363 38.708267 80 43 49
8.888818 6.038424 38.860264 80 43 49
8.959178 6.170654 39.167866 80 43 48
9.018667 6.296621 39.427944 80 41 46
9.018667 6.381614 39.427944 79 41 45
8.994777 6.449478 39.323498 79 41 44
8.994777 6.534245 39.323498 78 41 43
9.066832 6.672037 39.638508 77 41 44
9.066832 6.757484 39.638508 76 41 44
9.127765 6.888919 39.904896 74 41 45
9.127765 6.974940 39.904896 73 41 45
9.103293 7.042031 39.797913 71 40 45
9.091106 7.118280 39.744637 69 40 45
9.078953 7.194325 39.691502 68 39 44
9.030661 7.241164 39.480373 65 38 42
9.030661 7.326271 39.480373 62 36 40
9.042686 7.421246 39.532948 60 36 38
9.042686 7.506465 39.532948 60 35 37
9.018667 7.571521 39.427944 58 34 36
9.006706 7.646360 39.375652 57 34 35
8.994777 7.721001 39.323498 57 33 34
8.994777 7.805769 39.323498 56 33 33
8.994777 7.890537 39.323498 55 33 33
8.982879 7.964756 39.271484 56 33 34
8.947373 8.017596 39.116261 57 34 35
8.912148 8.070021 38.962261 58 35 36
8.912148 8.154010 38.962261 60 36 37
8.912148 8.237999 38.962261 61 37 38
8.900468 8.311082 38.911194 62 38 39
8.900468 8.394961 38.911194 63 38 40
8.912148 8.489967 38.962261 64 38 41
8.912148 8.573957 38.962261 66 40 43
8.912148 8.657947 38.962261 68 41 44
8.982879 8.811316 39.271484 69 42 46
9.177104 9.088318 40.120598 71 43 48
9.177104 9.174805 40.120598 73 45 50
9.042686 9.125640 39.532948 73 47 51
9.018667 9.186395 39.427944 73 49 51
9.018667 9.271388 39.427944 73 50 50
9.006706 9.343973 39.375652 73 51 49
8.982879 9.403910 39.271484 73 52 49
8.982879 9.488565 39.271484 74 53 48
8.959178 9.547962 39.167866 74 53 48
8.912148 9.581831 38.962261 75 53 48
8.888818 9.640517 38.860264 75 53 48
8.877198 9.711576 38.809467 75 52 47
8.877198 9.795236 38.809467 76 52 48
8.877198 9.878896 38.809467 76 51 48
8.971013 10.067841 39.219608 76 51 49
8.937492 -0.910879 38.708267 140 73 88
8.960858 -0.829601 38.809467 141 75 91
8.984346 -0.747896 38.911194 142 76 92
8.984346 -0.664016 38.911194 142 76 92
8.996138 -0.580898 38.962261 143 76 91
9.007958 -0.497562 39.013458 142 75 88
9.019812 -0.414006 39.064793 139 72 82
9.031695 -0.330230 39.116261 136 68 77
9.031695 -0.245908 39.116261 135 66 75
9.031695 -0.161587 39.116261 135 67 74
9.019812 -0.077164 39.064793 135 68 74
8.996138 0.007028 38.962261 135 69 75
8.972588 0.090779 38.860264 134 70 77
8.972588 0.174549 38.860264 132 69 77
8.960858 0.257981 38.809467 129 69 76
8.949161 0.341195 38.758801 131 71 80
8.949161 0.424746 38.758801 133 75 84
8.925855 0.506973 38.657867 135 76 87
8.925855 0.590307 38.657867 135 77 88
8.925855 0.673640 38.657867 135 77 88
8.925855 0.756973 38.657867 132 75 86
8.925855 0.840307 38.657867 131 74 84
8.914248 0.922439 38.607597 131 75 84
8.925855 1.006973 38.657867 131 76 84
8.984346 1.097451 38.911194 131 75 82
9.067535 1.192269 39.271484 130 76 81
9.079545 1.278617 39.323498 130 77 80
9.079545 1.363385 39.323498 131 77 79
9.043611 1.442421 39.167866 132 76 78
9.055557 1.528871 39.219608 133 75 77
11.219405 1.998945 48.591232 132 73 77
9.043611 1.864585 39.167866 126 66 73
8.996138 1.938787 38.962261 124 66 73
8.984346 2.020125 38.911194 123 66 73
8.972588 2.101251 38.860264 123 66 73
8.996138 2.190755 38.962261 123 67 73
11.020991 2.786745 47.731899 123 67 73
11.020991 2.889639 47.731899 122 66 73
9.103661 2.471920 39.427944 120 64 72
9.091587 2.553522 39.375652 118 63 70
9.091587 2.638402 39.375652 117 61 67
9.091587 2.723283 39.375652 116 60 67
9.091587 2.808164 39.375652 116 60 68
9.091587 2.893044 39.375652 115 60 69
9.091587 2.977925 39.375652 116 61 70
9.067535 3.054703 39.271484 115 60 70
9.067535 3.139359 39.271484 114 59 69
9.067535 3.224015 39.271484 114 58 67
9.043611 3.299941 39.167866 113 56 66
9.043611 3.384374 39.167866 112 55 65
9.031695 3.464236 39.116261 111 55 65
9.007958 3.539232 39.013458 110 55 65
8.984346 3.613834 38.911194 110 55 65
8.984346 3.697714 38.911194 110 55 65
8.960858 3.771707 38.809467 110 55 66
8.960858 3.855367 38.809467 110 55 67
8.960858 3.939027 38.809467 110 55 67
8.972588 4.027952 38.860264 110 55 66
8.972588 4.111722 38.860264 109 54 65
8.960858 4.190007 38.809467 105 52 62
8.960858 4.273667 38.809467 101 49 58
8.960858 4.357327 38.809467 97 47 56
8.960858 4.440988 38.809467 95 47 55
8.960858 4.524648 38.809467 94 47 55
8.937492 4.596292 38.708267 94 47 55
8.925855 4.673640 38.657867 92 47 54
8.925855 4.756973 38.657867 91 46 53
8.925855 4.840307 38.657867 89 45 51
8.925855 4.923640 38.657867 86 44 49
8.925855 5.006973 38.657867 85 43 48
8.925855 5.090307 38.657867 84 41 48
8.925855 5.173640 38.657867 84 41 48
8.925855 5.256973 38.657867 85 43 49
8.925855 5.340307 38.657867 86 44 50
8.925855 5.423640 38.657867 87 44 50
8.925855 5.506973 38.657867 86 42 49
8.937492 5.597595 38.708267 84 42 49
8.937492 5.681037 38.708267 84 42 49
8.937492 5.764479 38.708267 82 41 48
8.937492 5.847921 38.708267 80 42 47
8.949161 5.939106 38.758801 79 42 48
8.972588 6.038424 38.860264 79 42 48
9.043611 6.170654 39.167866 78 41 46
9.115767 6.304994 39.480373 77 40 44
9.115767 6.390100 39.480373 77 39 42
9.115767 6.475207 39.480373 77 38 41
9.115767 6.560313 39.480373 76 39 42
