ply
format ascii 1.0
element vertex 1212
property float x
property float y
property float z
property uchar red
property uchar green
property uchar blue
end_header
3.176001 22.524418 58.674393 10 40 37
3.169737 22.606224 58.558662 7 41 42
3.410320 5.757868 60.590290 248 247 248
3.403374 5.876488 60.466888 252 252 252
3.403374 6.006834 60.466888 254 254 254
3.403374 6.137180 60.466888 254 254 254
3.403374 6.267527 60.466888 254 254 254
3.403374 6.397872 60.466888 254 254 254
3.396456 6.514950 60.343987 253 254 253
3.389567 6.631553 60.221588 254 254 254
3.389567 6.761370 60.221588 254 254 254
3.382706 6.877238 60.099682 251 251 251
3.375872 6.992637 59.978268 241 241 241
3.375872 7.121930 59.978268 237 238 237
3.369066 7.236604 59.857342 246 246 246
3.369066 7.365636 59.857342 254 254 254
3.369066 7.494668 59.857342 254 254 254
3.369066 7.623701 59.857342 254 254 254
3.369066 7.752733 59.857342 252 253 253
3.369066 7.881765 59.857342 251 252 252
3.369066 8.010798 59.857342 252 253 253
3.369066 8.139830 59.857342 254 254 254
3.369066 8.268862 59.857342 254 254 254
3.369066 8.397894 59.857342 254 254 254
3.369066 8.526926 59.857342 254 254 254
3.369066 8.655958 59.857342 254 254 253
3.369066 8.784991 59.857342 238 237 235
3.369066 8.914023 59.857342 221 219 214
3.369066 9.043056 59.857342 232 230 225
3.369066 9.172088 59.857342 233 232 227
3.369066 9.301120 59.857342 212 213 208
3.362287 9.411178 59.736904 219 221 217
3.362287 9.539950 59.736904 241 243 241
3.355536 9.649308 59.616951 250 251 251
3.355536 9.777822 59.616951 252 253 253
3.355536 9.906336 59.616951 254 254 254
3.355536 10.034850 59.616951 253 252 254
3.348811 10.142997 59.497478 250 247 252
3.342113 10.250710 59.378483 249 243 251
3.335442 10.357995 59.259964 250 244 252
3.322180 10.444047 59.024338 251 246 253
3.322180 10.571283 59.024338 245 240 247
3.322180 10.698520 59.024338 227 223 232
3.328798 10.847322 59.141918 216 213 223
3.335442 10.996717 59.259964 225 225 231
3.342113 11.146711 59.378483 236 238 242
3.335442 11.252207 59.259964 232 236 240
3.335442 11.379951 59.259964 230 234 239
3.335442 11.507695 59.259964 240 243 246
3.342113 11.658710 59.378483 238 241 245
3.342113 11.786711 59.378483 226 229 237
3.348811 11.938588 59.497478 230 234 241
3.348811 12.066845 59.497478 242 246 250
3.335442 12.146419 59.259964 239 244 250
3.328798 12.249712 59.141918 235 240 248
3.309023 12.303674 58.790577 242 246 252
3.295970 12.381371 58.558662 250 251 254
3.295970 12.507605 58.558662 252 252 254
3.806507 14.590787 67.629250 252 252 254
3.806507 14.736573 67.629250 252 251 254
3.780671 14.781347 67.170235 246 244 249
3.772137 14.892450 67.018608 236 235 242
3.746764 14.935775 66.567810 232 231 238
3.730037 15.011954 66.270630 231 229 237
3.713459 15.087457 65.976097 225 223 232
3.672652 15.062320 65.251083 215 213 222
3.601415 14.908093 63.985435 204 201 212
3.555440 14.853948 63.168602 195 192 204
3.503263 14.770137 62.241596 186 184 196
3.488636 14.842078 61.981716 175 174 187
3.481368 14.944490 61.852589 165 164 177
3.466923 15.015261 61.595940 155 153 167
3.452596 15.085445 61.341408 144 141 156
3.445478 15.186300 61.214931 131 127 143
3.431328 15.255350 60.963535 119 114 130
3.431328 15.386766 60.963535 108 102 117
3.410320 15.423175 60.590290 97 91 104
3.403374 15.522109 60.466888 87 81 91
3.389567 15.588956 60.221588 78 71 79
3.389567 15.718774 60.221588 70 64 70
3.382706 15.816509 60.099682 66 58 63
3.369066 15.881765 59.857342 62 55 58
3.362287 15.978582 59.736904 60 52 54
3.348811 16.042797 59.497478 58 51 52
3.335442 16.106499 59.259964 55 48 49
3.315588 16.137609 58.907227 53 46 46
3.289482 16.136526 58.443390 49 44 43
3.283019 16.230560 58.328571 48 43 42
3.263783 16.260460 57.986801 46 42 41
3.251083 16.321703 57.761173 45 41 40
3.251083 16.446217 57.761173 43 40 40
3.257420 16.603031 57.873768 42 40 40
3.257420 16.727789 57.873768 40 38 38
3.257420 16.852545 57.873768 38 36 37
3.263783 17.010460 57.986801 35 33 35
3.263783 17.135460 57.986801 32 30 32
3.263783 17.260460 57.986801 31 30 31
3.270169 17.419483 58.100277 32 31 32
3.283019 17.613665 58.328571 34 32 33
3.289482 17.774323 58.443390 34 32 33
3.302484 17.971058 58.674393 33 31 31
3.309023 18.133377 58.790577 32 30 30
3.322180 18.332714 59.024338 31 30 29
3.335442 18.533644 59.259964 31 29 28
3.335442 18.661388 59.259964 30 29 28
3.322180 18.714424 59.024338 29 28 27
3.302484 18.729952 58.674393 29 27 27
3.289482 18.782196 58.443390 28 27 27
3.283019 18.871033 58.328571 27 27 27
3.283019 18.996769 58.328571 26 26 26
3.289482 19.160149 58.443390 26 26 25
3.289482 19.286133 58.443390 26 26 25
3.295970 19.450405 58.558662 26 26 25
3.289482 19.538101 58.443390 26 26 25
3.289482 19.664085 58.443390 26 26 26
3.283019 19.751190 58.328571 27 27 27
3.283019 19.876926 58.328571 27 27 27
3.289482 20.042038 58.443390 27 27 27
3.289482 20.168022 58.443390 26 26 26
3.270169 20.174864 58.100277 25 25 25
3.263783 20.260460 57.986801 24 25 24
3.263783 20.385460 57.986801 23 24 23
3.270169 20.550598 58.100277 22 23 23
3.276582 20.716383 58.214199 22 24 23
3.289482 20.923927 58.443390 23 25 24
3.302484 21.133114 58.674393 23 25 24
3.348811 21.557827 59.497478 25 25 25
3.348811 21.686083 59.497478 26 26 26
3.348811 21.814339 59.497478 27 27 27
3.389567 22.209646 60.221588 27 27 27
3.389567 22.339464 60.221588 27 27 26
3.362287 22.288441 59.736904 28 28 27
3.309023 22.442287 58.790577 15 37 32
3.302484 22.524418 58.674393 9 40 36
3.295970 22.606224 58.558662 5 41 41
3.540932 5.888481 60.590290 252 251 252
3.533720 6.006834 60.466888 254 254 254
3.540932 6.149705 60.590290 254 254 254
3.540932 6.280317 60.590290 254 254 254
3.533720 6.397872 60.466888 254 254 254
3.526538 6.514950 60.343987 254 254 254
3.519385 6.631553 60.221588 254 254 254
3.519385 6.761370 60.221588 253 253 254
3.512260 6.877238 60.099682 253 253 253
3.505165 6.992637 59.978268 247 247 247
3.505165 7.121930 59.978268 243 243 243
3.498098 7.236604 59.857342 248 248 248
3.498098 7.365636 59.857342 254 254 254
3.498098 7.494668 59.857342 254 254 254
3.498098 7.623701 59.857342 254 254 254
3.498098 7.752733 59.857342 254 254 254
3.498098 7.881765 59.857342 254 254 254
3.498098 8.010798 59.857342 254 254 254
3.498098 8.139830 59.857342 254 254 254
3.498098 8.268862 59.857342 254 254 254
3.498098 8.397894 59.857342 254 254 254
3.498098 8.526926 59.857342 254 254 254
3.498098 8.655958 59.857342 254 253 252
3.498098 8.784991 59.857342 241 238 236
3.498098 8.914023 59.857342 227 224 220
3.498098 9.043056 59.857342 236 234 230
3.498098 9.172088 59.857342 232 231 226
3.491060 9.282405 59.736904 210 209 204
3.491060 9.411178 59.736904 220 220 217
3.491060 9.539950 59.736904 243 244 242
3.484050 9.649308 59.616951 251 252 251
3.484050 9.777822 59.616951 253 253 253
3.484050 9.906336 59.616951 254 254 254
3.484050 10.034850 59.616951 253 252 254
3.477067 10.142997 59.497478 250 247 252
3.470113 10.250710 59.378483 248 243 251
3.470113 10.378711 59.378483 250 245 252
3.449417 10.444047 59.024338 252 248 253
3.449417 10.571283 59.024338 244 240 247
3.456288 10.719831 59.141918 225 221 230
3.463187 10.868973 59.259964 214 211 222
3.470113 11.018711 59.378483 225 223 232
3.470113 11.146711 59.378483 236 237 243
3.470113 11.274711 59.378483 236 239 243
3.470113 11.402711 59.378483 237 241 245
3.463187 11.507695 59.259964 242 245 248
3.463187 11.635440 59.259964 233 236 241
3.463187 11.763185 59.259964 220 224 231
3.477067 11.938588 59.497478 228 232 238
3.477067 12.066845 59.497478 245 248 251
3.456288 12.122222 59.141918 249 252 254
3.449417 12.225359 59.024338 246 249 253
3.428966 12.279359 58.674393 248 251 254
3.422202 12.381371 58.558662 251 252 254
3.415466 12.482984 58.443390 250 250 253
3.408756 12.584195 58.328571 246 245 250
3.925467 14.636551 67.170235 245 244 248
3.916606 14.747981 67.018608 244 243 247
3.907785 14.858909 66.867661 238 237 242
3.881558 14.902361 66.418884 230 229 234
3.864269 14.978520 66.123032 224 222 229
3.838621 15.020698 65.684166 219 217 225
3.796623 14.996402 64.965523 211 209 217
3.731305 14.876033 63.847832 200 197 207
3.683772 14.822411 63.034485 191 188 200
3.637435 14.770137 62.241596 183 181 193
3.614701 14.811157 61.852589 171 169 182
3.607186 14.913421 61.723995 158 156 171
3.599703 15.015261 61.595940 148 146 161
3.584828 15.085445 61.341408 138 135 150
3.570075 15.155052 61.088974 126 122 137
3.562745 15.255350 60.963535 115 110 125
3.555444 15.355237 60.838612 103 98 111
3.540932 15.423175 60.590290 93 87 97
3.533720 15.522109 60.466888 84 78 86
3.519385 15.588956 60.221588 76 70 75
3.512260 15.686954 60.099682 69 62 66
3.505165 15.784556 59.978268 63 57 60
3.498098 15.881765 59.857342 60 54 56
3.477067 15.914540 59.497478 59 51 53
3.463187 15.978753 59.259964 57 49 51
3.442573 16.010626 58.907227 56 48 49
3.415466 16.010542 58.443390 53 46 46
3.408756 16.104824 58.328571 50 44 44
3.388783 16.135460 57.986801 49 42 42
3.388783 16.260460 57.986801 47 42 41
3.375597 16.321703 57.761173 46 41 41
3.375597 16.446217 57.761173 44 40 40
3.382177 16.603031 57.873768 42 39 40
3.382177 16.727789 57.873768 40 38 38
3.382177 16.852545 57.873768 38 36 37
3.388783 17.010460 57.986801 35 34 35
3.388783 17.135460 57.986801 32 32 32
3.388783 17.260460 57.986801 31 31 31
3.395414 17.419483 58.100277 32 31 32
3.415466 17.648338 58.443390 33 32 33
3.415466 17.774323 58.443390 33 32 32
3.428966 17.971058 58.674393 32 31 31
3.449417 18.205479 59.024338 31 30 29
3.449417 18.332714 59.024338 30 29 28
3.463187 18.533644 59.259964 30 29 28
3.463187 18.661388 59.259964 30 29 28
3.463187 18.789133 59.259964 29 28 27
3.449417 18.841661 59.024338 29 27 27
3.422202 18.819242 58.558662 28 26 27
3.408756 18.871033 58.328571 27 26 27
3.408756 18.996769 58.328571 26 26 26
3.408756 19.122505 58.328571 26 26 25
3.408756 19.248243 58.328571 26 26 25
3.408756 19.373980 58.328571 25 25 24
3.408756 19.499716 58.328571 25 25 24
3.408756 19.625452 58.328571 25 25 25
3.408756 19.751190 58.328571 26 26 26
3.408756 19.876926 58.328571 26 26 26
3.408756 20.002663 58.328571 26 26 26
3.402072 20.088932 58.214199 26 26 26
3.395414 20.174864 58.100277 25 25 25
3.388783 20.260460 57.986801 24 24 24
3.388783 20.385460 57.986801 23 24 23
3.395414 20.550598 58.100277 22 23 23
3.395414 20.675842 58.100277 23 24 23
3.408756 20.882820 58.328571 23 24 24
3.415466 21.049911 58.443390 23 24 24
3.463187 21.471767 59.259964 24 25 25
3.477067 21.686083 59.497478 25 25 25
3.477067 21.814339 59.497478 26 26 25
3.526538 22.254787 60.343987 26 26 26
3.540932 22.476236 60.590290 27 27 26
3.512260 22.423796 60.099682 27 27 26
3.428966 22.271454 58.674393 21 32 29
3.435756 22.442287 58.790577 16 35 32
3.428966 22.524418 58.674393 11 38 35
3.428966 22.650900 58.674393 7 40 39
3.686591 5.912614 60.838612 251 249 251
3.679052 6.031402 60.714195 254 254 254
3.679052 6.162281 60.714195 254 254 254
3.671544 6.280317 60.590290 254 254 254
3.664067 6.397872 60.466888 254 254 254
3.656619 6.514950 60.343987 254 254 254
3.649202 6.631553 60.221588 252 253 253
3.641815 6.747683 60.099682 250 250 252
3.634458 6.863344 59.978268 252 252 253
3.634458 6.992637 59.978268 250 250 251
3.627130 7.107572 59.857342 246 246 247
3.627130 7.236604 59.857342 248 248 249
3.627130 7.365636 59.857342 253 253 253
3.627130 7.494668 59.857342 254 254 254
3.627130 7.623701 59.857342 254 254 254
3.627130 7.752733 59.857342 254 254 254
3.627130 7.881765 59.857342 254 254 254
3.627130 8.010798 59.857342 254 254 254
3.627130 8.139830 59.857342 254 254 254
3.627130 8.268862 59.857342 254 254 254
3.627130 8.397894 59.857342 254 254 254
3.627130 8.526926 59.857342 254 254 254
3.627130 8.655958 59.857342 251 250 249
3.627130 8.784991 59.857342 240 236 235
3.627130 8.914023 59.857342 234 230 228
3.627130 9.043056 59.857342 242 239 237
3.627130 9.172088 59.857342 233 231 228
3.619832 9.282405 59.736904 214 212 209
3.619832 9.411178 59.736904 224 222 221
3.619832 9.539950 59.736904 242 242 241
3.612564 9.649308 59.616951 249 250 249
3.612564 9.777822 59.616951 253 253 253
3.612564 9.906336 59.616951 254 254 254
3.612564 10.034850 59.616951 253 252 254
3.605324 10.142997 59.497478 250 247 253
3.605324 10.271254 59.497478 248 244 252
3.598113 10.378711 59.378483 250 246 253
3.583778 10.464851 59.141918 251 249 253
3.583778 10.592341 59.141918 241 237 244
3.590931 10.741228 59.259964 218 214 226
3.590931 10.868973 59.259964 208 205 217
3.598113 11.018711 59.378483 223 221 230
3.598113 11.146711 59.378483 239 240 245
3.598113 11.274711 59.378483 242 244 248
3.598113 11.402711 59.378483 241 243 246
3.590931 11.507695 59.259964 238 241 245
3.590931 11.635440 59.259964 234 237 242
3.590931 11.763185 59.259964 233 236 240
3.605324 11.938588 59.497478 240 243 246
3.605324 12.066845 59.497478 249 251 253
3.583778 12.122222 59.141918 250 252 254
3.576653 12.225359 59.024338 249 252 254
3.548435 12.255139 58.558662 251 253 254
3.541450 12.356999 58.443390 253 254 254
3.527562 12.434031 58.214199 249 249 252
3.527562 12.559521 58.214199 241 240 244
4.042824 14.537877 66.717400 238 236 240
4.051929 14.714765 66.867661 241 239 243
4.042824 14.825518 66.717400 238 237 240
4.015751 14.869097 66.270630 228 227 231
3.989039 14.912096 65.829803 220 218 223
3.953971 14.921660 65.251083 215 212 218
3.885652 14.802064 64.123634 207 204 212
3.844138 14.780674 63.438553 196 193 203
3.795478 14.728598 62.635532 188 185 196
3.763717 14.739238 62.111385 181 179 191
3.748035 14.811157 61.852589 169 167 181
3.732483 14.882481 61.595940 156 154 169
3.724755 14.984173 61.468410 146 144 159
3.709395 15.054341 61.214931 135 131 147
3.701763 15.155052 61.088974 123 118 133
3.694161 15.255350 60.963535 111 106 120
3.686591 15.355237 60.838612 98 93 104
3.671544 15.423175 60.590290 87 81 89
3.664067 15.522109 60.466888 79 73 80
3.641815 15.557400 60.099682 74 67 71
3.634458 15.655264 59.978268 68 61 63
3.627130 15.752733 59.857342 63 56 58
3.605324 15.786283 59.497478 60 53 55
3.590931 15.851009 59.259964 58 51 53
3.555448 15.820861 58.674393 56 48 51
3.541450 15.884558 58.443390 56 46 49
3.520659 15.916547 58.100277 53 45 46
3.513783 16.010460 57.986801 52 44 44
3.513783 16.135460 57.986801 50 42 43
3.500110 16.197189 57.761173 48 41 41
3.486544 16.258440 57.537292 46 40 40
3.500110 16.446217 57.761173 44 39 40
3.506933 16.603031 57.873768 42 38 39
3.506933 16.727789 57.873768 39 37 37
3.506933 16.852545 57.873768 37 36 36
3.513783 17.010460 57.986801 34 34 34
3.513783 17.135460 57.986801 33 33 33
3.513783 17.260460 57.986801 32 33 33
3.520659 17.419483 58.100277 32 32 33
3.541450 17.648338 58.443390 32 32 32
3.548435 17.809380 58.558662 32 32 32
3.555448 17.971058 58.674393 31 31 31
3.576653 18.205479 59.024338 30 30 29
3.590931 18.405899 59.259964 30 29 28
3.598113 18.570711 59.378483 29 29 28
3.598113 18.698711 59.378483 29 29 28
3.605324 18.864439 59.497478 29 28 27
3.605324 18.992697 59.497478 28 27 28
3.548435 18.819242 58.558662 28 26 27
3.534492 18.871033 58.328571 27 25 26
3.527562 18.959520 58.214199 26 25 25
3.527562 19.085011 58.214199 25 25 24
3.527562 19.210501 58.214199 25 25 24
3.534492 19.373980 58.328571 24 25 24
3.534492 19.499716 58.328571 24 24 24
3.534492 19.625452 58.328571 25 25 24
3.527562 19.712461 58.214199 25 25 25
3.520659 19.799129 58.100277 25 25 25
3.520659 19.924376 58.100277 25 25 25
3.520659 20.049620 58.100277 25 25 25
3.513783 20.135460 57.986801 24 24 24
3.513783 20.260460 57.986801 24 24 24
3.513783 20.385460 57.986801 23 23 23
3.513783 20.510460 57.986801 22 23 23
3.513783 20.635460 57.986801 22 24 23
3.513783 20.760460 57.986801 23 24 23
3.534492 21.008556 58.328571 23 24 23
3.569557 21.343960 58.907227 23 24 24
3.590931 21.599512 59.259964 24 24 24
3.605324 21.814339 59.497478 25 25 25
3.701763 22.529537 61.088974 26 26 26
3.701763 22.661224 61.088974 27 27 26
3.671544 22.606848 60.590290 27 27 26
3.641815 22.553350 60.099682 27 28 26
3.732483 23.247625 61.595940 25 30 27
3.732483 23.380405 61.595940 23 31 28
3.562488 22.442287 58.790577 19 34 30
3.555448 22.524418 58.674393 14 36 32
3.555448 22.650900 58.674393 10 39 36
3.833450 5.936945 61.088974 251 247 250
3.833450 6.068633 61.088974 254 253 254
3.825578 6.187588 60.963535 254 254 254
3.809932 6.293160 60.714195 254 254 254
3.794413 6.397872 60.466888 254 254 254
3.786700 6.514950 60.343987 254 254 254
3.779020 6.631553 60.221588 252 252 253
3.771370 6.747683 60.099682 249 250 251
3.763751 6.863344 59.978268 251 252 252
3.763751 6.992637 59.978268 251 251 252
3.756163 7.107572 59.857342 244 245 247
3.756163 7.236604 59.857342 244 245 247
3.756163 7.365636 59.857342 250 251 251
3.756163 7.494668 59.857342 254 254 254
3.763751 7.639102 59.978268 254 254 254
3.763751 7.768395 59.978268 254 254 254
3.763751 7.897688 59.978268 254 254 254
3.763751 8.026980 59.978268 254 254 254
3.763751 8.156274 59.978268 254 254 254
3.756163 8.268862 59.857342 255 255 255
3.756163 8.397894 59.857342 254 254 254
3.756163 8.526926 59.857342 254 254 254
3.756163 8.655958 59.857342 248 247 247
3.756163 8.784991 59.857342 239 236 235
3.756163 8.914023 59.857342 241 237 237
3.756163 9.043056 59.857342 243 241 240
3.756163 9.172088 59.857342 227 225 224
3.748605 9.282405 59.736904 215 213 212
3.748605 9.411178 59.736904 227 226 225
3.748605 9.539950 59.736904 241 240 241
3.741078 9.649308 59.616951 248 247 248
3.741078 9.777822 59.616951 252 252 252
3.741078 9.906336 59.616951 254 254 254
3.741078 10.034850 59.616951 253 251 254
3.733580 10.142997 59.497478 250 246 253
3.733580 10.271254 59.497478 248 244 252
3.726113 10.378711 59.378483 250 247 253
3.718676 10.485740 59.259964 252 249 253
3.718676 10.613484 59.259964 239 236 243
3.718676 10.741228 59.259964 213 209 221
3.726113 10.890711 59.378483 201 198 211
3.733580 11.040792 59.497478 219 218 227
3.733580 11.169049 59.497478 241 242 246
3.726113 11.274711 59.378483 244 245 248
3.726113 11.402711 59.378483 234 236 241
3.726113 11.530711 59.378483 231 233 238
3.711268 11.612262 59.141918 239 240 244
3.711268 11.739752 59.141918 248 249 251
3.741078 11.962562 59.616951 252 252 253
3.741078 12.091075 59.616951 251 252 254
3.711268 12.122222 59.141918 247 250 253
3.703890 12.225359 59.024338 247 249 253
3.674668 12.255139 58.558662 251 252 254
3.660229 12.332722 58.328571 254 254 254
3.653052 12.434031 58.214199 250 249 251
3.653052 12.559521 58.214199 242 241 244
3.660229 12.709932 58.328571 240 238 242
4.177257 14.648779 66.567810 243 242 245
4.177257 14.792276 66.567810 240 239 241
4.149347 14.835981 66.123032 227 225 228
4.103649 14.813559 65.394806 215 212 216
4.032590 14.695575 64.262428 209 205 211
3.997976 14.706772 63.710819 203 199 207
3.963950 14.717777 63.168602 194 191 200
3.913985 14.666713 62.372356 186 183 194
3.889471 14.708467 61.981716 179 176 189
3.873299 14.780365 61.723995 168 166 180
3.865263 14.882481 61.595940 156 154 169
3.849291 14.953214 61.341408 145 141 157
3.841354 15.054341 61.214931 131 126 142
3.833450 15.155052 61.088974 119 114 129
3.817739 15.224089 60.838612 106 101 114
3.802156 15.292562 60.590290 93 87 97
3.802156 15.423175 60.590290 83 76 83
3.794413 15.522109 60.466888 77 70 75
3.771370 15.557400 60.099682 73 66 69
3.756163 15.623700 59.857342 68 61 63
3.733580 15.658027 59.497478 63 56 57
3.718676 15.723265 59.259964 61 54 55
3.667434 15.632589 58.443390 59 51 52
3.667434 15.758574 58.443390 57 48 50
3.645903 15.791303 58.100277 56 46 48
3.631689 15.854494 57.873768 54 45 46
3.624624 15.948162 57.761173 52 43 44
3.610575 16.010378 57.537292 51 42 43
3.610575 16.134409 57.537292 49 40 41
3.589705 16.164461 57.204704 46 39 40
3.610575 16.382471 57.537292 43 38 38
3.631689 16.603031 57.873768 41 37 37
3.631689 16.727789 57.873768 38 36 36
3.638783 16.885460 57.986801 36 35 35
3.638783 17.010460 57.986801 34 34 34
3.638783 17.135460 57.986801 34 34 34
3.638783 17.260460 57.986801 33 34 34
3.653052 17.453638 58.214199 33 33 33
3.667434 17.648338 58.443390 33 32 32
3.681930 17.844576 58.674393 32 32 32
3.703890 18.078241 59.024338 31 31 30
3.711268 18.241743 59.141918 30 30 29
3.726113 18.442711 59.378483 29 29 28
3.726113 18.570711 59.378483 29 29 28
3.726113 18.698711 59.378483 28 29 27
3.726113 18.826712 59.378483 28 28 27
3.718676 18.916878 59.259964 28 27 27
3.660229 18.745296 58.328571 27 26 26
3.645903 18.797173 58.100277 26 25 25
3.638783 18.885460 57.986801 25 24 24
3.638783 19.010460 57.986801 24 24 24
3.638783 19.135460 57.986801 24 24 23
3.645903 19.298151 58.100277 23 23 23
3.645903 19.423397 58.100277 23 23 23
3.645903 19.548641 58.100277 24 24 24
3.638783 19.635460 57.986801 24 24 24
3.638783 19.760460 57.986801 24 24 24
3.638783 19.885460 57.986801 24 24 24
3.631689 19.971453 57.873768 24 24 24
3.631689 20.096209 57.873768 24 24 24
3.631689 20.220966 57.873768 23 23 23
3.617586 20.266710 57.649014 22 23 23
3.610575 20.351463 57.537292 23 23 23
3.610575 20.475494 57.537292 23 24 24
3.617586 20.639524 57.649014 23 24 24
3.638783 20.885460 57.986801 23 24 24
3.681930 21.259596 58.674393 24 24 24
3.703890 21.513630 59.024338 24 24 24
3.849291 22.490404 61.341408 25 25 24
3.873299 22.763733 61.723995 25 25 24
3.865263 22.849285 61.595940 26 26 25
3.865263 22.982065 61.595940 27 27 26
3.865263 23.114845 61.595940 27 27 26
3.972402 23.892015 63.303288 26 29 27
3.681930 22.524418 58.674393 19 34 31
3.681930 22.650900 58.674393 16 35 33
3.973313 5.949186 61.214931 250 246 250
3.965137 6.068633 61.088974 253 251 254
3.965137 6.200320 61.088974 254 253 254
3.956995 6.319005 60.963535 254 254 254
3.924759 6.397872 60.466888 254 254 254
3.916782 6.514950 60.343987 254 254 254
3.908837 6.631553 60.221588 252 252 253
3.900924 6.747683 60.099682 251 251 252
3.893044 6.863344 59.978268 252 252 253
3.893044 6.992637 59.978268 251 251 253
3.885195 7.107572 59.857342 243 243 247
3.885195 7.236604 59.857342 238 239 243
3.885195 7.365636 59.857342 247 247 248
3.893044 7.509809 59.978268 254 254 254
3.893044 7.639102 59.978268 254 254 254
3.900924 7.784121 60.099682 254 254 254
3.900924 7.913675 60.099682 254 254 254
3.900924 8.043230 60.099682 254 254 254
3.893044 8.156274 59.978268 255 255 255
3.893044 8.285566 59.978268 254 254 254
3.885195 8.397894 59.857342 254 254 254
3.885195 8.526926 59.857342 252 253 253
3.885195 8.655958 59.857342 247 247 248
3.885195 8.784991 59.857342 243 242 242
3.885195 8.914023 59.857342 247 245 245
3.885195 9.043056 59.857342 242 241 241
3.885195 9.172088 59.857342 221 219 220
3.877378 9.282405 59.736904 216 213 214
3.877378 9.411178 59.736904 232 230 232
3.869592 9.520794 59.616951 244 243 245
3.861837 9.629971 59.497478 249 247 249
3.861837 9.758227 59.497478 252 251 252
3.861837 9.886484 59.497478 253 253 254
3.861837 10.014740 59.497478 252 250 254
3.861837 10.142997 59.497478 250 246 253
3.861837 10.271254 59.497478 249 245 253
3.861837 10.399510 59.497478 251 247 254
3.846421 10.485740 59.259964 252 249 254
3.846421 10.613484 59.259964 239 237 243
3.854113 10.762711 59.378483 209 207 217
3.854113 10.890711 59.378483 195 193 204
3.861837 11.040792 59.497478 216 216 224
3.861837 11.169049 59.497478 241 241 245
3.861837 11.297305 59.497478 238 240 242
3.861837 11.425562 59.497478 226 228 234
3.854113 11.530711 59.378483 230 232 237
3.838758 11.612262 59.141918 245 246 248
3.838758 11.739752 59.141918 253 254 254
3.869592 11.962562 59.616951 254 254 254
3.869592 12.091075 59.616951 252 252 254
3.838758 12.122222 59.141918 245 247 251
3.838758 12.249712 59.141918 242 244 248
3.800901 12.255139 58.558662 249 250 252
3.785966 12.332722 58.328571 253 253 253
3.778543 12.434031 58.214199 246 244 247
3.778543 12.559521 58.214199 236 234 239
3.778543 12.685011 58.214199 238 236 240
3.785966 12.835669 58.328571 245 243 246
4.291885 14.693442 66.123032 238 237 239
4.282348 14.803012 65.976097 221 219 222
4.198380 14.652190 64.682442 206 202 207
4.135314 14.569432 63.710819 199 195 202
4.108863 14.612699 63.303288 196 190 199
4.065520 14.593577 62.635532 190 185 195
4.039951 14.635965 62.241596 183 178 191
4.014701 14.677824 61.852589 176 171 186
4.006355 14.780365 61.723995 166 162 178
3.989765 14.851667 61.468410 153 148 166
3.981522 14.953214 61.341408 138 132 150
3.965137 15.023365 61.088974 124 117 135
3.956995 15.123933 60.963535 113 106 123
3.940811 15.192956 60.714195 101 94 108
3.932769 15.292562 60.590290 89 82 92
3.924759 15.391763 60.466888 80 73 80
3.916782 15.490560 60.343987 76 68 73
3.893044 15.525970 59.978268 73 65 68
3.885195 15.623700 59.857342 69 61 63
3.846421 15.595520 59.259964 65 57 58
3.793419 15.506605 58.443390 62 54 55
3.771148 15.540813 58.100277 60 51 52
3.763783 15.635460 57.986801 57 48 49
3.756446 15.729737 57.873768 56 46 47
3.734606 15.762317 57.537292 54 44 46
3.727382 15.855619 57.425999 53 43 44
3.713019 15.917833 57.204704 51 41 42
3.713019 16.041147 57.204704 49 40 41
3.691679 16.071562 56.875942 46 39 39
3.691679 16.194168 56.875942 43 38 38
3.734606 16.506502 57.537292 40 36 36
3.756446 16.727789 57.873768 37 35 35
3.763783 16.885460 57.986801 35 34 33
3.771148 17.043749 58.100277 34 34 33
3.771148 17.168993 58.100277 34 34 33
3.771148 17.294237 58.100277 34 34 33
3.793419 17.522354 58.443390 34 33 33
3.808412 17.718094 58.674393 33 32 32
3.838758 17.986763 59.141918 32 31 31
3.838758 18.114254 59.141918 31 31 30
3.861837 18.351414 59.497478 30 30 29
3.861837 18.479670 59.497478 29 29 28
3.861837 18.607927 59.497478 29 30 28
3.831126 18.587189 59.024338 28 29 27
3.831126 18.714424 59.024338 28 28 27
3.808412 18.729952 58.674393 27 27 27
3.771148 18.671928 58.100277 26 26 26
3.763783 18.760460 57.986801 25 25 25
3.763783 18.885460 57.986801 23 23 23
3.763783 19.010460 57.986801 23 23 23
3.763783 19.135460 57.986801 23 23 23
3.763783 19.260460 57.986801 22 22 22
3.763783 19.385460 57.986801 22 22 22
3.763783 19.510460 57.986801 23 23 23
3.763783 19.635460 57.986801 23 23 23
3.756446 19.721941 57.873768 23 23 23
3.741858 19.769623 57.649014 23 23 23
3.734606 19.855341 57.537292 23 23 23
3.734606 19.979370 57.537292 23 23 23
3.727382 20.064518 57.425999 22 22 22
3.705878 20.071838 57.094696 22 23 22
3.691679 20.117538 56.875942 23 23 23
3.691679 20.240145 56.875942 24 24 24
3.705878 20.441069 57.094696 24 24 24
3.741858 20.763798 57.649014 24 24 24
3.808412 21.259596 58.674393 24 24 24
3.831126 21.513630 59.024338 24 24 23
4.039951 23.088795 62.241596 26 26 25
4.056962 23.320749 62.503666 26 26 25
4.091415 23.654682 63.034485 26 27 26
4.126460 23.994337 63.574394 26 28 27
3.861837 22.840391 59.497478 24 31 29
3.831126 22.785995 59.024338 22 32 29
4.105271 6.081145 61.214931 253 250 252
4.096824 6.200320 61.088974 254 253 254
4.080034 6.306056 60.838612 254 254 254
4.055105 6.397872 60.466888 254 254 254
4.038654 6.501735 60.221588 254 254 254
4.038654 6.631553 60.221588 253 253 254
4.030479 6.747683 60.099682 252 252 253
4.022336 6.863344 59.978268 250 251 252
4.022336 6.992637 59.978268 251 251 252
4.014227 7.107572 59.857342 244 245 247
4.014227 7.236604 59.857342 237 237 241
4.022336 7.380516 59.978268 245 245 247
4.022336 7.509809 59.978268 253 253 253
4.030479 7.654566 60.099682 252 254 254
4.030479 7.784121 60.099682 253 254 254
4.030479 7.913675 60.099682 254 254 254
4.030479 8.043230 60.099682 254 254 254
4.030479 8.172785 60.099682 254 254 254
4.030479 8.302339 60.099682 254 254 254
4.022336 8.414860 59.978268 251 252 253
4.014227 8.526926 59.857342 246 250 250
4.014227 8.655958 59.857342 245 248 248
4.014227 8.784991 59.857342 248 249 249
4.014227 8.914023 59.857342 251 250 250
4.014227 9.043056 59.857342 242 240 242
4.006150 9.153633 59.736904 225 224 226
4.006150 9.282405 59.736904 226 224 226
3.998106 9.392280 59.616951 240 237 241
3.990093 9.501715 59.497478 248 245 249
3.990093 9.629971 59.497478 250 247 251
3.990093 9.758227 59.497478 252 250 253
3.990093 9.886484 59.497478 253 252 254
3.990093 10.014740 59.497478 252 250 254
3.990093 10.142997 59.497478 251 247 253
3.990093 10.271254 59.497478 251 246 253
3.990093 10.399510 59.497478 251 247 254
3.982113 10.506711 59.378483 252 248 254
3.982113 10.634711 59.378483 238 235 242
3.982113 10.762711 59.378483 205 204 214
3.990093 10.912536 59.497478 191 190 201
3.990093 11.040792 59.497478 216 216 223
3.990093 11.169049 59.497478 240 241 244
3.990093 11.297305 59.497478 233 236 239
3.990093 11.425562 59.497478 224 229 233
3.990093 11.553819 59.497478 236 239 243
3.966248 11.612262 59.141918 251 252 253
3.966248 11.739752 59.141918 254 254 254
3.998106 11.962562 59.616951 254 254 254
3.998106 12.091075 59.616951 253 253 254
3.998106 12.219589 59.616951 246 247 249
3.966248 12.249712 59.141918 240 241 244
3.919403 12.356999 58.443390 252 251 252
3.904033 12.434031 58.214199 237 235 239
3.904033 12.559521 58.214199 220 217 223
3.904033 12.685011 58.214199 225 223 227
3.911703 12.835669 58.328571 238 236 239
4.424570 14.660789 65.976097 231 229 232
4.414760 14.770189 65.829803 211 208 212
4.318995 14.588624 64.401825 197 193 199
4.245323 14.476237 63.303288 193 187 196
4.218340 14.519821 62.900936 191 185 196
4.174123 14.501794 62.241596 187 179 192
4.156694 14.574855 61.981716 179 172 187
4.148035 14.677824 61.852589 172 164 182
4.130823 14.749701 61.595940 163 155 174
4.113753 14.820982 61.341408 148 138 160
4.105271 14.922382 61.214931 130 120 142
4.096824 15.023365 61.088974 117 107 129
4.080034 15.092941 60.838612 107 97 116
4.063381 15.161950 60.590290 96 87 104
4.055105 15.261416 60.466888 86 78 90
4.046863 15.360478 60.343987 79 71 79
4.038654 15.459139 60.221588 75 66 72
4.014227 15.494668 59.857342 72 63 67
3.998106 15.560955 59.616951 69 60 63
3.966248 15.564453 59.141918 65 57 58
3.896393 15.415568 58.100277 62 54 55
3.888783 15.510460 57.986801 59 50 51
3.858637 15.514255 57.537292 57 48 49
3.851173 15.608038 57.425999 55 45 46
3.843739 15.701458 57.315140 53 43 45
3.828955 15.764145 57.094696 52 41 43
3.814285 15.826351 56.875942 50 40 42
3.799726 15.888083 56.658859 49 39 40
3.785279 15.949345 56.443428 46 38 39
3.785279 16.071018 56.443428 43 37 38
3.785279 16.192692 56.443428 40 36 36
3.881202 16.727789 57.873768 38 35 34
3.896393 16.918505 58.100277 36 34 33
3.904033 17.077168 58.214199 35 34 33
3.904033 17.202658 58.214199 35 34 33
3.911703 17.362192 58.328571 35 34 33
3.934895 17.591612 58.674393 34 33 33
3.966248 17.859274 59.141918 33 32 32
3.998106 18.131235 59.616951 32 31 30
4.006150 18.296490 59.736904 31 30 29
4.006150 18.425262 59.736904 30 30 29
4.006150 18.554035 59.736904 29 29 28
3.990093 18.607927 59.497478 29 29 28
3.934895 18.476988 58.674393 28 29 27
3.934895 18.603470 58.674393 28 28 27
3.927133 18.693008 58.558662 27 28 27
3.896393 18.671928 58.100277 27 27 27
3.896393 18.797173 58.100277 25 25 25
3.888783 18.885460 57.986801 24 24 24
3.888783 19.010460 57.986801 23 23 23
3.888783 19.135460 57.986801 23 23 23
3.888783 19.260460 57.986801 22 22 22
3.888783 19.385460 57.986801 22 22 22
3.888783 19.510460 57.986801 22 23 22
3.888783 19.635460 57.986801 22 23 22
3.881202 19.721941 57.873768 22 23 22
3.866129 19.769623 57.649014 22 23 22
3.858637 19.855341 57.537292 22 23 22
3.843739 19.902231 57.315140 22 22 21
3.828955 19.948761 57.094696 21 21 21
3.785279 19.842880 56.443428 22 22 22
3.778096 19.926670 56.336323 22 22 22
3.792489 20.124487 56.550938 23 23 23
3.792489 20.246391 56.550938 24 24 23
3.828955 20.564146 57.094696 24 24 24
3.934895 21.259596 58.674393 24 24 24
4.191698 23.186012 62.503666 26 26 25
4.191698 23.320749 62.503666 26 26 25
4.254395 23.806314 63.438553 26 27 26
4.281842 24.097538 63.847832 26 28 26
4.071691 23.307476 60.714195 26 29 27
4.228512 6.068633 61.088974 252 247 249
4.219829 6.187588 60.963535 253 252 253
4.193993 6.280317 60.590290 254 254 254
4.185452 6.397872 60.466888 254 254 254
4.168472 6.501735 60.221588 254 254 254
4.160034 6.618128 60.099682 254 254 254
4.160034 6.747683 60.099682 252 252 253
4.151629 6.863344 59.978268 248 249 251
4.151629 6.992637 59.978268 251 251 252
4.143260 7.107572 59.857342 247 248 249
4.143260 7.236604 59.857342 240 242 243
4.151629 7.380516 59.978268 245 246 248
4.160034 7.525011 60.099682 251 252 252
4.160034 7.654566 60.099682 250 251 252
4.160034 7.784121 60.099682 252 252 253
4.160034 7.913675 60.099682 254 254 254
4.168472 8.059545 60.221588 254 254 254
4.168472 8.189362 60.221588 254 254 254
4.168472 8.319180 60.221588 254 254 254
4.151629 8.414860 59.978268 250 251 251
4.143260 8.526926 59.857342 243 246 247
4.143260 8.655958 59.857342 245 248 249
4.143260 8.784991 59.857342 251 252 252
4.143260 8.914023 59.857342 248 248 249
4.134923 9.024860 59.736904 236 235 238
4.134923 9.153633 59.736904 231 230 234
4.126620 9.263766 59.616951 240 238 241
4.118350 9.373458 59.497478 248 245 249
4.118350 9.501715 59.497478 249 246 251
4.118350 9.629971 59.497478 249 245 251
4.118350 9.758227 59.497478 251 248 253
4.118350 9.886484 59.497478 253 250 254
4.118350 10.014740 59.497478 253 249 254
4.118350 10.142997 59.497478 252 246 254
4.118350 10.271254 59.497478 251 244 254
4.118350 10.399510 59.497478 249 243 253
4.110113 10.506711 59.378483 247 241 252
4.110113 10.634711 59.378483 234 229 240
4.110113 10.762711 59.378483 203 200 213
4.110113 10.890711 59.378483 190 189 201
4.118350 11.040792 59.497478 214 214 222
4.118350 11.169049 59.497478 238 240 243
4.118350 11.297305 59.497478 237 240 243
4.118350 11.425562 59.497478 233 238 241
4.118350 11.553819 59.497478 243 247 248
4.085600 11.589176 59.024338 253 254 254
4.085600 11.716413 59.024338 254 254 254
4.118350 11.938588 59.497478 254 254 254
4.118350 12.066845 59.497478 252 253 254
4.126620 12.219589 59.616951 247 248 250
4.037439 12.458459 58.328571 232 229 237
4.029523 12.559521 58.214199 209 205 214
4.029523 12.685011 58.214199 215 212 219
4.587180 14.583383 66.270630 232 229 234
4.587180 14.726240 66.270630 227 225 229
4.546586 14.737512 65.684166 208 205 211
4.448174 14.557047 64.262428 196 192 199
4.363178 14.414767 63.034485 192 187 196
4.317346 14.397805 62.372356 190 183 194
4.290306 14.441243 61.981716 185 177 190
4.281368 14.544491 61.852589 177 169 184
4.272467 14.647308 61.723995 169 159 177
4.254776 14.719162 61.468410 157 147 167
4.245985 14.820982 61.341408 140 128 151
4.228512 14.891678 61.088974 123 111 134
4.219829 14.992517 60.963535 111 99 120
4.202570 15.062077 60.714195 99 88 108
4.185452 15.131070 60.466888 91 80 96
4.176944 15.230397 60.343987 84 73 87
4.176944 15.360478 60.343987 79 68 78
4.168472 15.459139 60.221588 74 64 70
4.143260 15.494668 59.857342 71 61 64
4.126620 15.560955 59.616951 68 59 60
4.093739 15.564453 59.141918 65 56 57
4.021637 15.415568 58.100277 62 53 53
3.974964 15.360456 57.425999 59 49 50
3.967291 15.454354 57.315140 56 47 48
3.967291 15.577907 57.315140 54 44 46
3.944447 15.611047 56.985111 52 42 44
3.929363 15.673719 56.767193 51 40 43
3.914394 15.735915 56.550938 49 40 41
3.906952 15.827672 56.443428 48 39 40
3.892153 15.888931 56.229626 46 38 40
3.884795 15.979878 56.123333 44 38 38
3.870163 16.040218 55.911945 41 37 37
3.974964 16.598366 57.425999 39 36 36
4.045387 17.018415 58.443390 38 36 35
4.053366 17.178215 58.558662 36 35 34
4.053366 17.304449 58.558662 36 35 34
4.061377 17.465130 58.674393 35 34 34
4.101910 17.767176 59.259964 33 32 32
4.151629 18.111830 59.978268 32 31 31
4.193993 18.427256 60.590290 31 30 29
4.168472 18.444941 60.221588 30 29 28
4.168472 18.574757 60.221588 29 29 28
4.151629 18.629002 59.978268 28 28 27
4.134923 18.682808 59.736904 28 28 27
4.069419 18.513575 58.790577 28 28 27
4.061377 18.603470 58.674393 28 28 27
4.053366 18.693008 58.558662 27 27 27
4.021637 18.671928 58.100277 27 27 27
4.021637 18.797173 58.100277 25 25 25
4.013783 18.885460 57.986801 25 25 25
4.013783 19.010460 57.986801 24 24 24
4.013783 19.135460 57.986801 23 23 23
4.013783 19.260460 57.986801 23 23 22
4.013783 19.385460 57.986801 23 23 22
4.013783 19.510460 57.986801 23 23 22
4.013783 19.635460 57.986801 23 23 22
3.974964 19.816935 57.425999 22 23 21
3.967291 19.902231 57.315140 22 22 21
3.899538 19.683786 56.336323 21 22 21
3.870163 19.656036 55.911945 21 21 21
3.870163 19.776564 55.911945 22 22 22
3.899538 20.048113 56.336323 23 23 23
3.906952 20.207901 56.443428 24 24 23
3.921864 20.407167 56.658859 24 24 23
4.419477 23.822269 63.847832 26 26 25
4.419477 23.959904 63.847832 26 26 25
4.333449 6.162281 60.714195 252 250 251
4.315798 6.267527 60.466888 254 254 254
4.307026 6.384869 60.343987 254 254 254
4.298289 6.501735 60.221588 254 254 254
4.289588 6.618128 60.099682 254 254 254
4.280922 6.734051 59.978268 253 253 253
4.280922 6.863344 59.978268 251 250 252
4.280922 6.992637 59.978268 252 252 252
4.272292 7.107572 59.857342 251 251 251
4.272292 7.236604 59.857342 246 247 248
4.272292 7.365636 59.857342 248 249 250
4.280922 7.509809 59.978268 250 251 252
4.289588 7.654566 60.099682 249 251 251
4.289588 7.784121 60.099682 251 252 252
4.289588 7.913675 60.099682 254 254 254
4.289588 8.043230 60.099682 254 254 254
4.289588 8.172785 60.099682 254 254 254
4.280922 8.285566 59.978268 254 254 254
4.272292 8.397894 59.857342 251 252 252
4.272292 8.526926 59.857342 246 249 250
4.272292 8.655958 59.857342 249 250 251
4.272292 8.784991 59.857342 252 253 254
4.272292 8.914023 59.857342 245 245 247
4.263695 9.024860 59.736904 232 231 235
4.255134 9.135252 59.616951 233 231 236
4.255134 9.263766 59.616951 245 243 247
4.246606 9.373458 59.497478 251 248 252
4.246606 9.501715 59.497478 248 244 250
4.246606 9.629971 59.497478 246 241 249
4.246606 9.758227 59.497478 249 244 251
4.246606 9.886484 59.497478 252 248 253
4.246606 10.014740 59.497478 252 247 254
4.246606 10.142997 59.497478 251 244 253
4.246606 10.271254 59.497478 249 242 253
4.246606 10.399510 59.497478 245 238 250
4.238113 10.506711 59.378483 240 234 247
4.238113 10.634711 59.378483 228 222 235
4.238113 10.762711 59.378483 203 199 212
4.238113 10.890711 59.378483 191 190 201
4.238113 11.018711 59.378483 210 211 218
4.246606 11.169049 59.497478 234 236 240
4.246606 11.297305 59.497478 242 245 247
4.246606 11.425562 59.497478 244 247 249
4.229654 11.507695 59.259964 249 252 252
4.187859 11.520465 58.674393 253 254 254
4.187859 11.646948 58.674393 254 254 254
4.238113 11.914711 59.378483 253 254 254
4.238113 12.042711 59.378483 251 253 254
4.238113 12.170711 59.378483 251 252 253
4.163176 12.458459 58.328571 233 230 239
4.163176 12.584195 58.328571 209 206 217
4.163176 12.709932 58.328571 213 209 219
4.730037 14.583383 66.270630 230 228 234
4.730037 14.726240 66.270630 230 227 233
4.688179 14.737512 65.684166 214 210 218
4.576796 14.525606 64.123634 200 195 204
4.451800 14.263351 62.372356 194 188 198
4.423918 14.307631 61.981716 189 181 194
4.414701 14.411158 61.852589 182 174 189
4.405523 14.514253 61.723995 174 165 181
4.396383 14.616920 61.595940 163 152 171
4.378216 14.688751 61.341408 149 137 158
4.369189 14.790423 61.214931 132 119 142
4.360199 14.891678 61.088974 117 103 126
4.351246 14.992517 60.963535 103 88 111
4.333449 15.062077 60.714195 91 76 97
4.315798 15.131070 60.466888 84 71 88
4.307026 15.230397 60.343987 81 68 82
4.307026 15.360478 60.343987 76 65 75
4.307026 15.490560 60.343987 72 62 68
4.280922 15.525970 59.978268 69 58 62
4.263695 15.592264 59.736904 67 56 58
4.229654 15.595520 59.259964 64 53 54
4.146882 15.415568 58.100277 61 51 51
4.122678 15.450108 57.761173 58 48 49
4.090843 15.454354 57.315140 56 46 47
4.090843 15.577907 57.315140 54 43 45
4.067287 15.611047 56.985111 52 41 43
4.051733 15.673719 56.767193 50 40 42
4.036298 15.735915 56.550938 48 39 41
4.028625 15.827672 56.443428 47 39 41
4.020980 15.919081 56.336323 46 38 41
4.005778 15.979878 56.123333 44 38 40
3.990690 16.040218 55.911945 42 38 39
4.013365 16.252567 56.229626 40 38 38
4.179599 17.051983 58.558662 39 37 37
4.221229 17.349314 59.141918 38 36 35
4.187859 17.338648 58.674393 36 35 35
4.229654 17.639433 59.259964 35 34 34
4.289588 18.018938 60.099682 33 32 32
4.360199 18.447233 61.088974 32 31 30
4.387281 18.694317 61.468410 30 29 29
4.351246 18.672188 60.963535 29 28 27
4.351246 18.803604 60.963535 28 28 27
4.298289 18.704575 60.221588 27 27 26
4.272292 18.720474 59.857342 27 27 26
4.263695 18.811581 59.736904 27 27 27
4.196152 18.640308 58.790577 27 27 27
4.179599 18.693008 58.558662 27 27 27
4.163176 18.745296 58.328571 27 27 27
4.146882 18.797173 58.100277 26 26 26
4.146882 18.922419 58.100277 26 26 25
4.138783 19.010460 57.986801 25 25 24
4.138783 19.135460 57.986801 24 24 23
4.138783 19.260460 57.986801 23 24 22
4.138783 19.385460 57.986801 23 24 22
4.138783 19.510460 57.986801 23 24 22
4.138783 19.635460 57.986801 23 24 22
4.098755 19.816935 57.425999 23 23 22
4.090843 19.902231 57.315140 22 23 21
4.082961 19.987198 57.204704 21 22 21
3.990690 19.656036 55.911945 21 21 21
3.990690 19.776564 55.911945 22 22 22
4.013365 20.010143 56.229626 23 23 23
4.036298 20.246391 56.550938 23 23 23
4.455218 6.149705 60.590290 252 250 252
4.446144 6.267527 60.466888 254 254 254
4.437107 6.384869 60.343987 254 254 254
4.428107 6.501735 60.221588 254 254 254
4.419143 6.618128 60.099682 254 254 254
4.410215 6.734051 59.978268 254 254 254
4.410215 6.863344 59.978268 253 253 254
4.410215 6.992637 59.978268 253 253 254
4.401324 7.107572 59.857342 253 253 253
4.401324 7.236604 59.857342 250 251 251
4.401324 7.365636 59.857342 249 250 251
4.410215 7.509809 59.978268 251 252 252
4.410215 7.639102 59.978268 250 252 252
4.410215 7.768395 59.978268 252 253 253
4.410215 7.897688 59.978268 254 254 254
4.410215 8.026980 59.978268 254 254 254
4.410215 8.156274 59.978268 254 254 254
4.410215 8.285566 59.978268 252 254 253
4.401324 8.397894 59.857342 251 253 253
4.401324 8.526926 59.857342 251 253 253
4.401324 8.655958 59.857342 253 254 254
4.401324 8.784991 59.857342 254 254 254
4.401324 8.914023 59.857342 247 247 249
4.392468 9.024860 59.736904 236 235 240
4.383648 9.135252 59.616951 236 233 240
4.383648 9.263766 59.616951 246 243 248
4.383648 9.392280 59.616951 251 247 252
4.374863 9.501715 59.497478 248 242 249
4.374863 9.629971 59.497478 244 237 246
4.374863 9.758227 59.497478 247 240 248
4.374863 9.886484 59.497478 250 244 251
4.366113 9.994711 59.378483 250 243 251
4.366113 10.122711 59.378483 249 243 251
4.374863 10.271254 59.497478 248 243 251
4.374863 10.399510 59.497478 242 237 247
4.357399 10.485740 59.259964 233 228 240
4.357399 10.613484 59.259964 222 218 230
4.357399 10.741228 59.259964 204 201 212
4.357399 10.868973 59.259964 194 193 202
4.357399 10.996717 59.259964 210 210 217
4.357399 11.124462 59.259964 233 235 238
4.357399 11.252207 59.259964 245 248 249
4.357399 11.379951 59.259964 249 252 253
4.357399 11.507695 59.259964 252 254 254
4.314341 11.520465 58.674393 254 254 254
4.314341 11.646948 58.674393 254 254 254
4.340073 11.843649 59.024338 252 254 254
4.348719 11.994732 59.141918 252 254 254
4.348719 12.122222 59.141918 253 254 254
4.340073 12.225359 59.024338 253 254 254
4.314341 12.279359 58.674393 252 252 254
4.297356 12.356999 58.443390 249 248 253
4.288913 12.458459 58.328571 236 233 243
4.288913 12.584195 58.328571 218 214 227
4.288913 12.709932 58.328571 216 212 224
4.872894 14.583383 66.270630 227 223 234
4.872894 14.726240 66.270630 228 225 234
4.819109 14.704979 65.539169 214 211 221
4.704864 14.494301 63.985435 200 195 206
4.557529 14.174020 61.981716 191 186 197
4.548035 14.277823 61.852589 185 179 192
4.529163 14.351360 61.595940 177 170 185
4.529163 14.484140 61.595940 166 158 174
4.519786 14.586658 61.468410 154 144 162
4.510448 14.688751 61.341408 142 130 150
4.491886 14.759991 61.088974 129 115 137
4.482663 14.861099 60.963535 113 98 121
4.473477 14.961794 60.838612 97 81 103
4.455218 15.031338 60.590290 84 69 89
4.437107 15.100316 60.343987 80 66 83
4.437107 15.230397 60.343987 79 66 79
4.437107 15.360478 60.343987 75 63 73
4.446144 15.522109 60.466888 71 59 65
4.428107 15.588956 60.221588 68 56 59
4.401324 15.623700 59.857342 65 54 55
4.366113 15.626711 59.378483 63 51 52
4.288913 15.476140 58.328571 61 49 50
4.263783 15.510460 57.986801 58 47 48
4.247192 15.574621 57.761173 55 45 46
4.247192 15.699135 57.761173 54 43 45
4.238945 15.792923 57.649014 51 41 43
4.238945 15.917195 57.649014 49 40 42
4.182101 15.826351 56.875942 47 39 42
4.182101 15.948956 56.875942 46 39 41
4.158203 15.979725 56.550938 45 39 41
4.142423 16.040524 56.336323 44 39 41
4.142423 16.161964 56.336323 43 39 40
4.142423 16.283407 56.336323 42 39 39
4.222547 16.722158 57.425999 40 38 38
4.348719 17.349314 59.141918 39 37 36
4.222547 16.969740 57.425999 37 36 35
4.357399 17.639433 59.259964 35 34 34
4.491886 18.315546 61.088974 33 32 32
4.557529 18.716818 61.981716 31 30 30
4.557529 18.850430 61.981716 30 29 29
4.529163 18.865883 61.595940 29 28 27
4.491886 18.842295 61.088974 28 27 27
4.428107 18.704575 60.221588 27 27 26
4.482663 19.066439 60.963535 27 27 26
4.410215 18.887587 59.978268 27 27 27
4.305831 18.945475 58.558662 26 26 26
4.288913 18.996769 58.328571 26 26 25
4.263783 19.010460 57.986801 25 25 23
4.263783 19.135460 57.986801 24 25 23
4.206275 19.740570 57.204704 23 24 22
4.576490 6.267527 60.466888 254 254 254
4.557924 6.371918 60.221588 254 254 254
4.548697 6.488574 60.099682 254 253 254
4.548697 6.618128 60.099682 254 253 254
4.539508 6.734051 59.978268 254 252 254
4.539508 6.863344 59.978268 253 252 253
4.530356 6.978539 59.857342 253 252 253
4.530356 7.107572 59.857342 251 251 252
4.530356 7.236604 59.857342 247 247 248
4.530356 7.365636 59.857342 248 249 249
4.530356 7.494668 59.857342 252 252 253
4.530356 7.623701 59.857342 252 252 253
4.530356 7.752733 59.857342 253 253 253
4.530356 7.881765 59.857342 254 254 254
4.530356 8.010798 59.857342 254 254 254
4.530356 8.139830 59.857342 251 252 251
4.530356 8.268862 59.857342 248 251 250
4.530356 8.397894 59.857342 250 252 252
4.530356 8.526926 59.857342 253 254 254
4.530356 8.655958 59.857342 254 254 254
4.530356 8.784991 59.857342 254 254 254
4.530356 8.914023 59.857342 250 250 251
4.521241 9.024860 59.736904 240 239 244
4.521241 9.153633 59.736904 238 235 242
4.512162 9.263766 59.616951 245 240 248
4.512162 9.392280 59.616951 250 245 252
4.512162 9.520794 59.616951 249 243 250
4.503119 9.629971 59.497478 245 238 246
4.503119 9.758227 59.497478 246 238 247
4.503119 9.886484 59.497478 249 242 250
4.494113 9.994711 59.378483 249 242 250
4.494113 10.122711 59.378483 250 244 251
4.494113 10.250710 59.378483 249 245 250
4.494113 10.378711 59.378483 241 237 244
4.485143 10.485740 59.259964 231 227 236
4.476208 10.592341 59.141918 222 219 229
4.476208 10.719831 59.141918 208 207 215
4.476208 10.847322 59.141918 200 199 206
4.476208 10.974812 59.141918 215 215 220
4.476208 11.102302 59.141918 238 240 241
4.485143 11.252207 59.259964 250 251 251
4.485143 11.379951 59.259964 252 254 254
4.476208 11.484772 59.141918 254 254 254
4.440824 11.520465 58.674393 254 254 254
4.440824 11.646948 58.674393 254 254 254
4.467309 11.843649 59.024338 254 254 254
4.476208 11.994732 59.141918 254 254 254
4.467309 12.098123 59.024338 254 254 254
4.440824 12.152877 58.674393 252 252 253
4.432065 12.255139 58.558662 247 247 252
4.423340 12.356999 58.443390 244 242 252
4.423340 12.482984 58.443390 239 235 248
4.423340 12.608968 58.443390 226 222 235
4.423340 12.734952 58.443390 219 215 228
5.004580 14.550903 66.123032 222 218 231
4.993459 14.660789 65.976097 221 218 230
4.874310 14.449795 64.401825 210 207 219
4.832380 14.463130 63.847832 195 193 204
4.681368 14.144490 61.852589 186 183 194
4.661943 14.218580 61.595940 180 176 189
4.652291 14.321647 61.468410 172 166 180
4.652291 14.454152 61.468410 159 151 167
4.642679 14.556520 61.341408 146 136 154
4.642679 14.688751 61.341408 137 124 143
4.623573 14.759991 61.088974 126 113 133
4.614079 14.861099 60.963535 110 95 115
4.604624 14.961794 60.838612 94 78 98
4.585830 15.031338 60.590290 85 69 87
4.567188 15.100316 60.343987 82 66 82
4.567188 15.230397 60.343987 79 65 77
4.576490 15.391763 60.466888 75 61 71
4.585830 15.553786 60.590290 71 58 65
4.576490 15.652455 60.466888 68 55 59
4.530356 15.623700 59.857342 65 52 54
4.494113 15.626711 59.378483 63 50 51
4.414649 15.476140 58.328571 60 49 49
4.397371 15.540813 58.100277 58 47 48
4.388783 15.635460 57.986801 56 45 46
4.397371 15.791303 58.100277 54 43 45
