ply
format ascii 1.0
element vertex 1235
property float x
property float y
property float z
property uchar red
property uchar green
property uchar blue
end_header
-10.619151 2.073339 79.595825 36 30 31
-10.478686 2.215226 78.542969 37 30 30
-10.423535 2.371988 78.129585 37 30 30
-10.423535 2.540409 78.129585 37 29 29
-10.619151 2.759666 79.595825 36 29 29
-10.676397 2.947050 80.024910 36 29 29
-10.734263 3.136465 80.458649 36 29 28
-10.734263 3.309906 80.458649 35 28 28
-10.676397 3.464570 80.024910 34 28 28
-10.676397 3.637077 80.024910 33 27 27
-9.804316 6.191474 73.488220 36 28 28
-9.637332 6.241741 72.236603 35 28 28
-9.613940 6.381931 72.061264 34 28 28
-9.613940 6.537271 72.061264 35 27 29
-9.613940 6.692610 72.061264 35 27 29
-9.637332 6.864612 72.236603 36 27 29
-9.637332 7.020329 72.236603 36 28 29
-9.590662 7.141296 71.886787 36 28 28
-9.521499 7.243643 71.368370 36 28 28
-9.521499 7.397489 71.368370 36 28 29
-10.792761 13.616773 80.897118 28 22 24
-10.734263 13.716411 80.458649 28 22 24
-10.734263 13.889853 80.458649 28 22 24
-10.734263 14.063294 80.458649 28 22 23
-10.734263 14.236735 80.458649 29 23 25
-10.705253 14.371231 80.241196 30 24 26
-10.676397 14.505001 80.024910 31 24 26
-10.647697 14.638052 79.809792 31 25 25
-10.182374 15.479063 76.321960 30 27 24
-10.391849 -6.300385 79.171310 55 39 42
-10.309374 -6.081070 78.542969 53 39 41
-10.174787 -5.834581 77.517601 51 39 40
-10.148290 -5.652720 77.315735 52 39 41
-9.890719 -5.346814 75.353409 52 39 41
-7.352723 -3.854046 56.017437 52 39 42
-7.284006 -3.698401 55.493912 53 38 42
-9.645900 -4.739219 73.488220 52 38 41
-9.693889 -4.603593 73.853836 52 38 40
-9.693889 -3.807574 73.853836 47 34 38
-9.645900 -3.630308 73.488220 46 34 38
-9.645900 -3.471892 73.488220 48 34 39
-9.527979 -3.272969 72.589836 49 34 39
-9.345188 -3.056701 71.197220 49 35 39
-9.345188 -2.903224 71.197220 49 35 39
-9.574800 -2.817308 72.946541 49 35 39
-9.645900 -2.679813 73.488220 48 35 38
-7.626112 -0.991477 58.100277 43 34 34
-7.611217 -0.864540 57.986801 43 34 34
-7.611217 -0.739540 57.986801 43 33 33
-7.611217 -0.614540 57.986801 43 34 34
-7.596381 -0.488586 57.873768 42 34 34
-7.581602 -0.363122 57.761173 41 34 34
-7.566880 -0.238145 57.649014 41 33 34
-7.566880 -0.113873 57.649014 41 32 34
-7.566880 0.010399 57.649014 41 32 33
-7.523057 0.133891 57.315140 41 31 33
-7.523057 0.257443 57.315140 41 31 32
-9.481614 0.480184 72.236603 41 31 31
-9.718063 0.811360 74.038010 41 31 31
-9.693889 0.968546 73.853836 40 31 30
-9.992163 1.162450 76.126259 40 31 30
-9.992163 1.326553 76.126259 39 31 30
-10.475655 1.562783 79.809792 38 31 30
-10.503890 1.739503 80.024910 37 30 30
-10.475655 1.906870 79.809792 37 29 30
-10.364211 2.056797 78.960747 36 29 30
-10.255115 2.203567 78.129585 36 29 30
-10.228198 2.365762 77.924522 36 29 29
-10.228198 2.533741 77.924522 36 29 29
-10.391849 2.744948 79.171310 36 29 29
-10.447569 2.931248 79.595825 36 29 29
-10.503890 3.119556 80.024910 36 28 28
-10.503890 3.292063 80.024910 35 28 27
-10.503890 3.464570 80.024910 34 27 27
-10.503890 3.637077 80.024910 33 27 27
-9.669835 6.206837 73.670578 36 29 29
-9.481614 6.241741 72.236603 35 29 29
-9.458600 6.381931 72.061264 35 28 28
-9.435699 6.521442 71.886787 35 27 29
-9.435699 6.676405 71.886787 36 28 29
-9.435699 6.831369 71.886787 37 28 29
-9.435699 6.986333 71.886787 37 29 29
-9.435699 7.141296 71.886787 37 29 29
-9.367652 7.243643 71.368370 36 28 29
-9.367652 7.397489 71.368370 37 28 29
-10.705889 13.728998 81.563850 28 22 24
-10.676558 13.866727 81.340393 28 23 24
-10.618374 13.965547 80.897118 29 23 24
-10.560822 14.236735 80.458649 30 24 25
-10.560822 14.410177 80.458649 30 24 25
-10.532279 14.544204 80.241196 30 25 26
-10.475655 14.638052 79.809792 30 25 26
-10.095708 14.770351 76.915138 29 26 24
-10.017849 15.314539 76.321960 30 27 24
-10.060219 -6.537125 77.924522 58 40 44
-10.140061 -6.419694 78.542969 57 39 43
-10.086693 -6.217485 78.129585 54 39 42
-10.007685 -6.001683 77.517601 52 39 42
-9.955697 -5.804272 77.114914 52 40 41
-9.929905 -5.623431 76.915138 51 40 41
-9.654769 -5.306409 74.783989 52 40 42
-7.231968 -3.854046 56.017437 52 40 42
-7.191263 -3.712279 55.702145 53 40 43
-9.487484 -4.739219 73.488220 54 40 42
-9.511025 -4.592170 73.670578 53 39 41
-9.582358 -3.986611 74.223106 50 36 39
-9.487484 -3.788724 73.488220 49 35 39
-9.487484 -3.630308 73.488220 48 34 39
-9.487484 -3.471892 73.488220 48 35 40
-9.371500 -3.272969 72.589836 48 35 40
-9.213806 -3.064049 71.368370 48 36 40
-9.213806 -2.910203 71.368370 48 36 40
-9.303261 -2.783118 72.061264 48 35 39
-9.348642 -2.640596 72.412788 48 35 39
-9.303261 -2.472438 72.061264 48 35 38
-9.258317 -2.305905 71.713142 48 34 37
-9.213806 -2.140972 71.368370 48 34 37
-9.104379 -1.963526 70.520767 48 34 37
-8.872554 -1.320936 68.725098 45 34 36
-7.545164 -0.997332 58.443390 44 34 35
-7.500868 -0.866232 58.100277 44 34 35
-7.500868 -0.740987 58.100277 44 34 34
-7.500868 -0.615743 58.100277 43 34 34
-7.471624 -0.488586 57.873768 42 34 34
-7.442608 -0.362417 57.649014 42 33 34
-7.442608 -0.238145 57.649014 42 33 34
-7.442608 -0.113873 57.649014 42 32 34
-7.442608 0.010399 57.649014 42 32 34
-7.442608 0.134671 57.649014 42 32 33
-9.169721 0.319032 71.026894 41 32 32
-9.236008 0.475555 71.540344 42 31 31
-9.394469 0.640577 72.767754 42 31 31
-9.487484 0.805335 73.488220 42 32 30
-9.487484 0.963751 73.488220 41 32 31
-9.534685 1.127750 73.853836 40 32 31
-9.679150 1.306453 74.972832 40 32 31
-9.828060 1.490655 76.126259 38 31 31
-10.303611 1.734827 79.809792 37 30 30
-10.303611 1.906870 79.809792 37 29 30
-10.166959 2.051341 78.751305 36 29 30
-10.086693 2.203567 78.129585 36 29 30
-10.060219 2.365762 77.924522 35 29 29
-10.060219 2.533741 77.924522 36 29 29
-10.221182 2.744948 79.171310 37 28 29
-10.221182 2.915615 79.171310 37 28 29
-10.303611 3.111171 79.809792 36 28 28
-10.331384 3.292063 80.024910 35 27 27
-10.359306 3.473934 80.241196 34 27 27
-10.359306 3.646907 80.241196 34 26 27
-9.511025 6.206837 73.670578 37 29 29
-9.325896 6.241741 72.236603 36 28 28
-9.280734 6.366478 71.886787 35 27 27
-9.258317 6.505690 71.713142 35 27 28
-9.258317 6.660279 71.713142 36 28 29
-9.280734 6.831369 71.886787 37 28 29
-9.280734 6.986333 71.886787 37 29 29
-9.280734 7.141296 71.886787 37 29 29
-9.213806 7.243643 71.368370 36 28 30
-9.213806 7.397489 71.368370 36 28 30
-10.530065 13.728998 81.563850 28 23 24
-10.387381 14.410177 80.458649 30 26 26
-10.303611 14.466009 79.809792 30 26 26
-10.221182 14.520947 79.171310 30 26 26
-10.113307 14.536558 78.335732 29 26 26
-10.033883 14.589936 77.720528 29 27 25
-9.981624 14.680614 77.315735 29 27 24
-9.904246 14.732184 76.716385 29 27 24
-9.828060 15.275270 76.126259 30 27 25
-9.713772 -6.584136 76.518669 60 41 45
-9.764102 -6.452447 76.915138 59 40 45
-9.713772 -6.254239 76.518669 57 40 44
-9.713772 -6.089290 76.518669 55 39 43
-9.764102 -5.955038 76.915138 54 40 42
-9.764102 -5.789235 76.915138 53 40 42
-9.764102 -5.623431 76.915138 52 40 42
-9.493560 -5.306409 74.783989 52 40 42
-10.158877 -5.505780 80.024910 53 40 43
-10.186334 -5.347688 80.241196 54 41 44
-10.186334 -5.174715 80.241196 56 42 44
-9.688801 -4.263868 76.321960 52 37 40
-9.422359 -3.986611 74.223106 51 36 39
-9.375481 -3.807574 73.853836 51 36 39
-9.352217 -3.639317 73.670578 50 35 40
-9.352217 -3.480508 73.670578 50 35 40
-9.237606 -3.280992 72.767754 49 36 40
-9.081791 -3.071433 71.540344 49 36 40
-9.081791 -2.917216 71.540344 48 36 40
-9.125771 -2.776379 71.886787 48 36 40
-9.125771 -2.621415 71.886787 49 36 40
-9.103728 -2.460494 71.713142 49 36 39
-9.059960 -2.294819 71.368370 49 36 39
-8.952359 -2.115545 70.520767 49 36 39
-8.910031 -1.954242 70.187332 49 36 38
-8.805943 -1.781880 69.367386 49 35 37
-8.684201 -1.609780 68.408394 47 35 37
-8.724406 -1.320936 68.725098 46 35 36
-8.724406 -1.172788 68.725098 46 35 35
-8.785416 -1.031805 69.205696 45 35 35
-8.785416 -0.882621 69.205696 44 35 34
-8.764984 -0.731731 69.044746 43 34 34
-7.375623 -0.490498 58.100277 43 34 34
-7.318336 -0.362417 57.649014 42 33 34
-7.304154 -0.237683 57.537292 42 33 34
-9.038234 -0.140634 71.197220 43 33 34
-9.016611 0.012812 71.026894 43 33 34
-8.973675 0.165132 70.688675 43 33 33
-9.016611 0.319032 71.026894 42 32 32
-9.038234 0.473274 71.197220 42 31 31
-9.103728 0.631293 71.713142 42 31 31
-9.237606 0.797440 72.767754 42 32 30
-9.283112 0.959004 73.126213 41 32 31
-9.352217 1.124951 73.670578 40 32 31
-9.422359 1.293389 74.223106 40 32 31
-9.614652 1.483050 75.737862 39 32 31
-9.918272 1.698304 78.129585 38 30 31
-10.077389 1.896672 79.383003 37 29 30
-10.050515 2.062281 79.171310 36 29 30
-9.918272 2.203567 78.129585 35 29 30
-9.892240 2.365762 77.924522 36 29 29
-9.892240 2.533741 77.924522 37 29 29
-10.077389 2.752287 79.383003 37 28 30
-10.077389 2.923410 79.383003 37 28 29
-10.131568 3.111171 79.809792 37 28 29
-10.186334 3.300961 80.241196 36 27 28
-10.241693 3.492814 80.677292 35 27 28
-9.398861 6.078193 74.038010 36 28 28
-9.352217 6.206837 73.670578 37 28 28
-9.147921 6.226591 72.061264 36 28 27
-9.103728 6.351100 71.713142 35 27 27
-9.059960 6.474412 71.368370 35 27 28
-9.059960 6.628258 71.368370 36 28 28
-9.125771 6.831369 71.886787 36 28 29
-9.125771 6.986333 71.886787 36 28 29
-9.103728 7.124047 71.713142 36 28 29
-9.059960 7.243643 71.368370 36 28 30
-9.059960 7.397489 71.368370 36 28 30
-10.241693 13.579770 80.677292 29 23 25
-10.050515 14.350282 79.171310 30 27 27
-9.918272 14.329883 78.129585 30 27 27
-9.840583 14.384740 77.517601 29 27 26
-9.814957 14.513947 77.315735 28 27 25
-9.738872 14.566810 76.716385 28 28 24
-9.688801 14.656441 76.321960 28 28 25
-9.688801 14.820965 76.321960 29 28 26
-9.663958 15.275270 76.126259 30 27 26
-9.379603 -6.629480 75.162636 60 43 46
-9.475558 -6.533617 75.931564 59 42 45
-9.475558 -6.369935 75.931564 58 41 45
-9.427337 -6.174668 75.545143 57 41 44
-9.427337 -6.011818 75.545143 56 40 43
-9.524276 -5.909112 76.321960 55 39 43
-9.524276 -5.744587 76.321960 55 40 43
-9.598299 -5.623431 76.915138 54 40 43
-9.959525 -5.663023 79.809792 53 40 42
-10.013360 -5.520661 80.241196 53 40 43
-10.013360 -5.347688 80.241196 54 41 44
-10.013360 -5.174715 80.241196 55 42 44
-9.932824 -4.789932 79.595825 54 40 42
-9.853573 -4.581501 78.960747 53 39 41
-9.524276 -4.263868 76.321960 52 38 39
-9.285572 -3.996603 74.409126 51 37 39
-9.239261 -3.817069 74.038010 51 37 39
-9.216277 -3.648370 73.853836 50 36 40
-9.216277 -3.489166 73.853836 50 36 40
-9.103055 -3.289053 72.946541 50 36 40
-8.927574 -3.071433 71.540344 49 36 40
-8.927574 -2.917216 71.540344 49 36 40
-8.927574 -2.762999 71.540344 49 36 40
-8.949139 -2.615083 71.713142 50 36 40
-8.949139 -2.460494 71.713142 51 36 39
-8.927574 -2.300348 71.540344 51 37 39
-8.884756 -2.135838 71.197220 51 37 39
-8.800341 -1.963526 70.520767 51 37 38
-8.616147 -1.773592 69.044746 50 36 37
-8.636231 -1.180990 69.205696 46 35 35
-8.800341 -1.051412 70.520767 46 35 34
-8.800341 -0.899393 70.520767 45 35 34
-8.779487 -0.745603 70.353653 44 34 33
-8.676682 -0.586990 69.529839 43 34 33
-8.676682 -0.437107 69.529839 43 33 33
-8.863501 -0.293408 71.026894 43 33 34
-8.884756 -0.140634 71.197220 43 33 34
-8.863501 0.012812 71.026894 43 33 34
-8.842347 0.165526 70.857384 43 33 33
-8.821294 0.317513 70.688675 43 32 32
-8.863501 0.472142 71.026894 42 31 31
-8.884756 0.626752 71.197220 41 31 30
-8.949139 0.785883 71.713142 41 31 30
-9.058541 0.951969 72.589836 40 31 30
-9.148008 1.119396 73.306770 40 32 31
-9.239261 1.290163 74.038010 39 32 31
-9.308903 1.460692 74.596085 38 31 31
-9.475558 1.650525 75.931564 37 30 31
-9.879849 1.891615 79.171310 37 29 31
-9.879849 2.062281 79.171310 36 29 31
-9.775577 2.209381 78.335732 36 29 30
-9.724260 2.365762 77.924522 36 29 30
-9.724260 2.533741 77.924522 37 29 30
-9.906265 2.752287 79.383003 37 29 30
-9.906265 2.923410 79.383003 37 29 30
-10.067780 3.144988 80.677292 37 28 30
-10.122796 3.337037 81.118149 37 27 29
-9.239261 6.078193 74.038010 36 27 27
-9.193408 6.206837 73.670578 37 28 27
-8.970807 6.211514 71.886787 36 27 27
-8.906114 6.320566 71.368370 35 27 27
-8.863501 6.443434 71.026894 35 27 27
-8.906114 6.628258 71.368370 35 28 28
-8.992581 6.847950 72.061264 35 28 29
-8.992581 7.003290 72.061264 36 28 29
-8.906114 7.089797 71.368370 36 28 29
-8.906114 7.243643 71.368370 36 28 29
-8.906114 7.397489 71.368370 35 28 29
-10.067780 13.579770 80.677292 30 24 26
-10.095214 13.791160 80.897118 30 24 26
-9.749851 14.161462 78.129585 30 27 27
-9.673481 14.217638 77.517601 30 27 27
-9.648290 14.347280 77.315735 29 27 25
-9.648290 14.513947 77.315735 28 27 25
-9.573497 14.566810 76.716385 28 28 25
-9.499855 14.618860 76.126259 29 29 26
-9.499855 14.782963 76.126259 30 29 27
-9.524276 14.985490 76.321960 31 29 28
-9.475558 15.236203 75.931564 31 27 27
-9.171142 -6.918500 74.783989 59 43 46
-9.171142 -6.757291 74.783989 60 44 46
-9.217578 -6.629480 75.162636 60 44 46
-9.240973 -6.483870 75.353409 60 43 46
-9.264487 -6.337518 75.545143 59 42 45
-9.240973 -6.158996 75.353409 58 41 45
-9.240973 -5.996560 75.353409 57 40 44
-9.240973 -5.834123 75.353409 56 39 44
-9.240973 -5.671687 75.353409 56 40 44
-9.383875 -5.594445 76.518669 55 40 43
-9.787482 -5.663023 79.809792 54 39 43
-9.840387 -5.520661 80.241196 54 40 42
-9.840387 -5.347688 80.241196 54 41 42
-9.840387 -5.174715 80.241196 53 41 42
-9.761242 -4.961514 79.595825 53 41 42
-9.683360 -4.751714 78.960747 53 40 42
-9.481624 -4.486053 77.315735 53 39 41
-9.359752 -4.263868 76.321960 52 38 39
-9.148099 -4.006645 74.596085 51 37 39
-9.125172 -3.836202 74.409126 51 37 39
-9.079659 -3.657468 74.038010 50 36 38
-9.079659 -3.497867 74.038010 50 36 38
-8.945807 -3.289053 72.946541 50 36 38
-8.815844 -3.086306 71.886787 49 36 38
-8.773357 -2.917216 71.540344 49 36 39
-8.794549 -2.769673 71.713142 49 35 39
-8.794549 -2.615083 71.713142 50 36 39
-8.815844 -2.466452 71.886787 51 36 39
-8.773357 -2.300348 71.540344 51 37 39
-8.773357 -2.146132 71.540344 51 37 39
-8.731279 -1.982361 71.197220 51 37 38
-8.668913 -1.815820 70.688675 50 36 37
-8.467310 -1.624755 69.044746 48 35 36
-8.648321 -1.355450 70.520767 46 36 35
-8.689602 -1.209175 70.857384 46 36 35
-8.710391 -1.058958 71.026894 46 35 35
-8.710391 -0.905848 71.026894 45 35 35
-8.648321 -0.747374 70.520767 44 34 33
-8.627828 -0.593944 70.353653 43 33 32
-8.627828 -0.442286 70.353653 44 33 33
-8.689602 -0.292708 70.857384 44 32 33
-8.710391 -0.140298 71.026894 44 33 33
-8.689602 0.012782 70.857384 43 33 33
-8.668913 0.165132 70.688675 42 32 32
-8.627828 0.316008 70.353653 42 31 31
-8.627828 0.467667 70.353653 41 31 30
-8.668913 0.622275 70.688675 40 30 30
-8.710391 0.778362 71.026894 39 30 29
-8.794549 0.940472 71.713142 39 30 29
-8.989984 1.119396 73.306770 38 30 29
-9.102359 1.293389 74.223106 38 31 29
-9.125172 1.457031 74.409126 37 30 30
-9.311875 1.650525 75.931564 37 29 30
-9.709183 1.891615 79.171310 36 29 31
-9.709183 2.062281 79.171310 36 28 31
-9.606710 2.209381 78.335732 36 28 30
-9.556282 2.365762 77.924522 37 28 30
-9.556282 2.533741 77.924522 37 29 31
-9.556282 2.701720 77.924522 38 30 31
-9.813864 2.947050 80.024910 38 29 31
-7.153131 2.776730 58.328571 36 26 27
-9.079659 6.078193 74.038010 36 27 27
-9.034599 6.206837 73.670578 36 27 27
-8.815844 6.211514 71.886787 36 27 27
-8.710391 6.290324 71.026894 36 27 27
-8.710391 6.443434 71.026894 36 27 28
-8.752268 7.089797 71.368370 35 28 30
-8.752268 7.243643 71.368370 35 28 30
-9.432496 10.791077 76.915138 36 25 25
-9.893867 13.579770 80.677292 30 25 27
-9.893867 13.753683 80.677292 30 25 27
-9.893867 13.927596 80.677292 30 25 27
-9.531265 13.919779 77.720528 30 26 27
-9.506379 14.050536 77.517601 29 27 27
-9.481624 14.180614 77.315735 29 27 26
-9.481624 14.347280 77.315735 28 27 26
-9.456996 14.476248 77.114914 28 27 25
-9.383875 14.529266 76.518669 28 28 25
-9.335752 14.618860 76.126259 30 29 27
-9.311875 14.745154 75.931564 32 30 29
-9.335752 14.947065 76.126259 32 30 29
-9.311875 15.072520 75.931564 32 29 29
-9.264487 15.158666 75.545143 31 27 27
-8.987295 -7.061921 74.596085 58 43 46
-8.987295 -6.901117 74.596085 58 44 46
-9.009933 -6.757291 74.783989 59 45 46
-9.032685 -6.612739 74.972832 60 45 46
-9.055552 -6.467454 75.162636 60 44 46
-9.078536 -6.321433 75.353409 59 43 45
-9.055552 -6.143404 75.162636 58 41 45
-9.009933 -5.951246 74.783989 57 40 44
-9.009933 -5.790037 74.783989 57 39 44
-9.009933 -5.628828 74.783989 57 39 44
-9.124855 -5.537358 75.737862 56 39 44
-9.589661 -5.647840 79.595825 55 39 43
-9.667415 -5.520661 80.241196 55 40 42
-9.667415 -5.347688 80.241196 54 41 41
-9.641356 -5.160767 80.024910 53 41 41
-9.564019 -4.948247 79.383003 53 41 41
-9.513147 -4.751714 78.960747 53 40 41
-9.388303 -4.521377 77.924522 52 39 40
-9.314957 -4.319387 77.315735 52 38 40
-9.218926 -4.109909 76.518669 51 38 39
-9.009933 -3.855528 74.783989 50 37 38
-8.987295 -3.685036 74.596085 50 36 37
-8.942358 -3.506611 74.223106 50 35 36
-8.853820 -3.313477 73.488220 49 35 36
-8.724252 -3.108889 72.412788 49 35 36
-8.660880 -2.931343 71.886787 49 35 37
-8.660880 -2.776379 71.886787 49 35 37
-8.660880 -2.621415 71.886787 50 35 38
-8.660880 -2.466452 71.886787 51 36 38
-8.660880 -2.311488 71.886787 51 36 38
-8.619141 -2.146132 71.540344 51 37 38
-8.619141 -1.991915 71.540344 50 37 37
-8.598421 -1.833280 71.368370 49 36 36
-8.598421 -1.679434 71.368370 48 36 36
-8.598421 -1.525588 71.368370 47 36 36
-8.557281 -1.365178 71.026894 47 36 36
-8.557281 -1.212068 71.026894 47 36 36
-8.577802 -1.061498 71.197220 46 35 36
-8.577802 -0.908020 71.197220 46 35 36
-8.516532 -0.749154 70.688675 45 34 34
-8.496303 -0.595355 70.520767 44 33 33
-8.496303 -0.443336 70.520767 45 33 32
-8.536858 -0.292708 70.857384 45 32 32
-8.536858 -0.139963 70.857384 44 33 32
-8.536858 0.012782 70.857384 42 32 31
-8.496303 0.164740 70.520767 41 31 31
-8.476169 0.316008 70.353653 40 30 31
-8.476169 0.467667 70.353653 40 30 30
-8.476169 0.619326 70.353653 39 30 29
-8.516532 0.774656 70.688675 38 30 29
-8.639959 0.940472 71.713142 37 29 29
-9.615439 1.734827 79.809792 37 29 30
-9.538516 1.891615 79.171310 36 29 31
-9.538516 2.062281 79.171310 36 29 31
-9.462813 2.215226 78.542969 37 29 31
-9.388303 2.365762 77.924522 37 29 31
-9.339277 2.520510 77.517601 38 29 32
-9.339277 2.687612 77.517601 38 29 32
-7.027394 2.650993 58.328571 38 27 28
-6.986217 2.760460 57.986801 37 27 28
-6.986217 2.885460 57.986801 37 27 27
-8.920058 6.078193 74.038010 37 27 28
-8.875790 6.206837 73.670578 37 27 28
-8.681901 6.226591 72.061264 37 28 28
-8.598421 6.320566 71.368370 37 28 28
-8.598421 6.474412 71.368370 36 29 29
-8.598421 7.089797 71.368370 35 28 30
-8.619141 7.261097 71.540344 35 28 30
-9.746440 13.442386 80.897118 31 25 28
-9.746440 13.616773 80.897118 30 25 28
-9.746440 13.791160 80.897118 30 25 28
-9.719954 13.927596 80.677292 30 26 27
-9.693613 14.063294 80.458649 30 25 27
-5.769263 8.473154 47.885876 29 25 27
-5.769263 8.576380 47.885876 29 26 26
-5.732281 8.623967 47.578915 28 26 26
-5.695770 8.670948 47.275864 28 26 26
-9.266693 14.272942 76.915138 28 26 25
-9.266693 14.438745 76.915138 28 26 25
-9.195227 14.491917 76.321960 29 27 25
-9.171650 14.618860 76.126259 30 28 27
-9.148192 14.745154 75.931564 32 29 28
-9.148192 14.908837 75.931564 32 29 28
-9.101637 14.995815 75.545143 32 28 28
-9.078536 15.120192 75.353409 31 27 27
-6.456576 11.908584 53.590691 30 24 25
-6.468252 12.045851 53.687599 29 24 24
-8.826490 -7.222725 74.596085 58 45 48
-8.826490 -7.061921 74.596085 57 43 46
-8.826490 -6.901117 74.596085 57 44 46
-8.826490 -6.740313 74.596085 58 45 45
-8.871069 -6.612739 74.972832 59 45 45
-8.893527 -6.467454 75.162636 60 44 46
-8.916100 -6.321433 75.353409 59 43 45
-8.871069 -6.127890 74.972832 58 42 44
-8.826490 -5.936293 74.596085 57 40 43
-8.782358 -5.746611 74.223106 56 39 43
-8.738665 -5.558817 73.853836 56 38 43
-8.738665 -5.399613 73.853836 56 38 43
-8.738665 -5.240409 73.853836 55 39 43
-9.494442 -5.520661 80.241196 55 39 42
-9.494442 -5.347688 80.241196 54 40 41
-9.494442 -5.174715 80.241196 52 41 40
-9.468850 -4.988260 80.024910 52 41 41
-9.418078 -4.789932 79.595825 52 40 41
-9.342935 -4.581501 78.960747 51 39 40
-9.318152 -4.399588 78.751305 51 39 40
-9.342935 -4.241076 78.960747 51 38 40
-9.293501 -4.049324 78.542969 51 37 39
-9.007547 -3.760627 76.126259 50 36 38
-8.848723 -3.533110 74.783989 50 35 36
-8.738665 -3.329962 73.853836 50 35 35
-8.568154 -3.108889 72.412788 49 34 36
-8.505917 -2.931343 71.886787 50 34 36
-8.505917 -2.776379 71.886787 50 34 36
-8.505917 -2.621415 71.886787 50 35 36
-8.505917 -2.466452 71.886787 51 35 36
-8.505917 -2.311488 71.886787 50 36 36
-8.485371 -2.151315 71.713142 50 36 36
-8.464924 -1.991915 71.540344 49 37 36
-8.464924 -1.837698 71.540344 49 37 36
-8.444575 -1.679434 71.368370 48 37 36
-8.444575 -1.525588 71.368370 48 37 37
-8.424325 -1.368452 71.197220 48 37 37
-8.424325 -1.214975 71.197220 47 36 37
-8.444575 -1.064049 71.368370 47 35 37
-8.444575 -0.910203 71.368370 46 34 36
-8.404171 -0.752738 71.026894 46 34 35
-8.384113 -0.598197 70.857384 46 33 34
-8.384113 -0.445452 70.857384 46 33 33
-8.424325 -0.294112 71.197220 45 33 32
-8.424325 -0.140634 71.197220 44 33 32
-8.384113 0.012782 70.857384 42 33 32
-8.364151 0.165132 70.688675 41 32 31
-8.324511 0.316008 70.353653 40 31 31
-8.344283 0.468778 70.520767 39 31 31
-8.324511 0.619326 70.353653 38 30 30
-8.384113 0.776505 70.857384 37 30 30
-9.468850 1.739503 80.024910 36 30 31
-9.367849 1.891615 79.171310 36 30 31
-9.367849 2.062281 79.171310 37 30 32
-9.367849 2.232948 79.171310 37 29 32
-9.293501 2.384538 78.542969 37 29 31
-9.293501 2.553850 78.542969 38 29 32
-9.172175 2.687612 77.517601 39 29 32
-6.888124 2.645795 58.214199 39 28 29
-6.861217 2.760460 57.986801 38 28 29
-6.861217 2.885460 57.986801 38 28 28
-8.871069 5.831706 74.972832 38 29 29
-8.782358 5.933389 74.223106 38 29 29
-8.760457 6.078193 74.038010 38 29 29
-8.738665 6.222277 73.853836 38 29 29
-8.568154 6.256965 72.412788 38 29 29
-8.464924 6.335796 71.540344 38 30 30
-8.464924 6.490013 71.540344 37 30 30
-8.464924 7.106881 71.540344 35 28 30
-8.464924 7.261097 71.540344 35 29 30
-9.546041 13.405857 80.677292 31 25 28
-9.572053 13.616773 80.897118 31 25 28
-5.675191 8.383450 47.963234 29 25 27
-5.656914 8.459510 47.808765 29 25 26
-5.638753 8.535081 47.655285 28 25 25
-5.593859 8.569037 47.275864 28 25 25
-9.007547 14.290655 76.126259 28 26 25
-8.961590 14.381009 75.737862 30 27 26
-8.984509 14.581471 75.931564 31 28 26
-8.938787 14.670115 75.545143 32 28 27
-8.938787 14.832966 75.545143 32 28 27
-8.938787 14.995815 75.545143 32 27 27
-8.916100 15.120192 75.353409 31 27 27
-6.364028 11.951731 53.784859 30 23 24
-6.352520 12.045851 53.687599 29 23 23
-6.352520 12.161583 53.687599 29 23 23
-8.665687 -7.383529 74.596085 60 47 50
-8.665687 -7.222725 74.596085 58 45 48
-8.665687 -7.061921 74.596085 57 43 47
-8.665687 -6.901117 74.596085 56 43 46
-8.665687 -6.740313 74.596085 56 43 45
-8.709453 -6.612739 74.972832 57 44 44
-8.709453 -6.451123 74.972832 58 43 45
-8.731503 -6.305429 75.162636 57 42 43
-8.709453 -6.127890 74.972832 56 40 42
-8.579461 -5.877225 73.853836 55 39 41
-8.515909 -5.675665 73.306770 55 38 42
-8.350952 -5.410761 71.886787 55 37 43
-8.330781 -5.243103 71.713142 55 38 43
-8.270847 -5.051905 71.197220 55 38 43
-8.330781 -4.933924 71.713142 54 39 42
-9.321468 -5.347688 80.241196 53 40 41
-9.372128 -5.202838 80.677292 53 40 41
-9.346730 -5.015297 80.458649 52 40 41
-9.321468 -4.828769 80.241196 51 40 41
-9.271353 -4.630765 79.809792 51 40 41
-9.271353 -4.458722 79.809792 51 39 41
-9.271353 -4.286679 79.809792 51 38 40
-9.221774 -4.092632 79.383003 52 37 39
-9.197183 -3.911052 79.171310 51 36 38
-8.843445 -3.596524 76.126259 51 36 37
-8.579461 -3.329962 73.853836 51 35 36
-8.391590 -3.101325 72.236603 51 35 35
-8.350952 -2.931343 71.886787 50 35 35
-8.350952 -2.776379 71.886787 50 34 36
-8.350952 -2.621415 71.886787 50 34 35
-8.330781 -2.460494 71.713142 50 35 35
-8.310707 -2.300348 71.540344 50 35 35
-8.310707 -2.146132 71.540344 49 36 35
-8.290730 -1.987126 71.368370 49 37 35
-8.290730 -1.833280 71.368370 48 38 36
-8.290730 -1.679434 71.368370 48 38 37
-8.290730 -1.525588 71.368370 48 38 37
-8.270847 -1.368452 71.197220 48 37 37
-8.270847 -1.214975 71.197220 47 36 37
-8.290730 -1.064049 71.368370 47 35 37
-8.290730 -0.910203 71.368370 47 34 36
-8.270847 -0.754543 71.197220 47 34 35
-8.251060 -0.599628 71.026894 47 33 34
-8.270847 -0.447589 71.197220 47 33 34
-8.290730 -0.294819 71.368370 46 34 34
-8.290730 -0.140972 71.368370 45 34 34
-8.270847 0.012843 71.197220 43 34 34
-8.231368 0.165526 70.857384 42 33 33
-8.231368 0.318271 70.857384 41 32 32
-8.231368 0.471015 70.857384 40 32 32
-8.231368 0.623760 70.857384 39 31 31
-8.251060 0.778362 71.026894 38 31 31
-9.271353 1.906870 79.809792 36 30 31
-9.271353 2.078912 79.809792 37 30 32
-6.789258 2.656212 58.443390 39 28 28
-6.749400 2.765862 58.100277 39 28 28
-6.736217 2.885460 57.986801 38 28 28
-6.736217 3.010460 57.986801 37 28 27
-6.671070 3.105136 57.425999 37 28 27
-5.644752 2.732169 48.591232 36 28 27
-5.635529 2.832280 48.511833 36 28 28
-8.731503 5.684444 75.162636 38 30 30
-8.622358 5.773389 74.223106 39 31 30
-8.622358 5.933389 74.223106 39 30 30
-8.622358 6.093389 74.223106 39 30 30
-8.600856 6.237794 74.038010 39 30 30
-8.453293 6.287636 72.767754 39 30 30
-8.310707 6.335796 71.540344 38 30 30
-8.290730 6.474412 71.368370 38 30 31
-9.372128 13.753683 80.677292 31 26 28
-5.553854 8.253390 47.808765 30 26 28
-5.562812 8.369928 47.885876 29 25 27
-5.553854 8.459510 47.808765 28 25 25
-5.536025 8.535081 47.655285 28 25 25
-5.491948 8.569037 47.275864 27 25 25
-8.753663 14.632882 75.353409 32 28 27
-8.775937 14.832966 75.545143 32 27 27
-8.775937 14.995815 75.545143 32 27 27
-8.753663 15.120192 75.353409 31 26 27
-6.248086 12.067673 53.784859 29 24 23
-6.225530 12.139631 53.590691 28 24 23
-6.191999 12.189148 53.302052 28 24 23
-8.483567 -7.525425 74.409126 62 49 50
-8.483567 -7.365024 74.409126 61 48 50
-8.504883 -7.222725 74.596085 59 45 48
-8.504883 -7.061921 74.596085 57 43 46
-8.504883 -6.901117 74.596085 56 41 44
-8.504883 -6.740313 74.596085 55 41 42
-8.504883 -6.579509 74.596085 55 42 43
-8.547836 -6.451123 74.972832 56 42 43
-8.547836 -6.289506 74.972832 55 41 42
-8.504883 -6.097097 74.596085 54 40 41
-8.378572 -5.848130 73.488220 54 39 41
-8.195989 -5.565725 71.886787 54 38 42
-8.156490 -5.384686 71.540344 54 38 43
-8.136883 -5.217896 71.368370 54 38 43
-8.040245 -5.003906 70.520767 54 39 43
-8.040245 -4.851887 70.520767 54 40 42
-8.907745 -5.206959 78.129585 53 41 42
-9.198215 -5.202838 80.677292 53 41 42
-9.173288 -5.015297 80.458649 52 41 42
-9.148496 -4.828769 80.241196 51 40 42
-9.123837 -4.643247 80.024910 51 40 41
-9.099310 -4.458722 79.809792 52 39 41
-9.148496 -4.309850 80.241196 52 38 41
-9.123837 -4.125727 80.024910 53 38 40
-9.123837 -3.953220 80.024910 53 37 39
-8.954877 -3.710700 78.542969 52 36 38
-8.399364 -3.321699 73.670578 52 36 37
-8.215882 -3.093797 72.061264 52 36 36
-8.176191 -2.924262 71.713142 51 35 35
-8.176191 -2.769673 71.713142 51 35 35
-8.156490 -2.608782 71.540344 50 34 35
-8.136883 -2.448665 71.368370 50 34 34
-8.136883 -2.294819 71.368370 49 35 35
-8.136883 -2.140972 71.368370 49 36 36
-8.136883 -1.987126 71.368370 49 37 36
-8.136883 -1.833280 71.368370 50 38 37
-8.136883 -1.679434 71.368370 50 39 38
-8.136883 -1.525588 71.368370 49 39 38
-8.117371 -1.368452 71.197220 48 38 37
-8.117371 -1.214975 71.197220 48 36 37
-8.136883 -1.064049 71.368370 47 35 36
-8.136883 -0.910203 71.368370 47 34 35
-8.136883 -0.756357 71.368370 47 33 35
-8.117371 -0.601066 71.197220 47 33 34
-8.136883 -0.448665 71.368370 47 34 34
-8.136883 -0.294819 71.368370 47 34 34
-8.136883 -0.140972 71.368370 46 35 35
-8.136883 0.012874 71.368370 45 35 35
-8.117371 0.166320 71.197220 43 34 34
-8.097951 0.319032 71.026894 42 34 34
-8.097951 0.472142 71.026894 41 33 33
-8.097951 0.625252 71.026894 40 33 32
-6.676417 2.661451 58.558662 38 27 27
-6.637144 2.771285 58.214199 38 28 28
-6.624156 2.891107 58.100277 38 28 28
-6.585493 2.998746 57.761173 37 28 28
-6.547279 3.105136 57.425999 37 28 28
-6.534640 3.222694 57.315140 36 28 28
-5.530953 2.832280 48.511833 37 28 29
-8.679342 5.429117 76.126259 37 28 29
-8.591227 5.536435 75.353409 38 29 30
-8.569477 5.684444 75.162636 38 31 30
-8.483567 5.787858 74.409126 39 31 30
-8.462358 5.933389 74.223106 39 31 30
-8.462358 6.093389 74.223106 39 31 30
-8.441256 6.237794 74.038010 39 31 30
-8.296430 6.287636 72.767754 39 31 30
-5.450795 8.253390 47.808765 30 26 27
-5.459586 8.369928 47.885876 29 25 26
-5.450795 8.459510 47.808765 29 25 25
-5.433296 8.535081 47.655285 28 25 25
-5.390037 8.569037 47.275864 27 25 25
-8.591227 14.795319 75.353409 32 27 27
-8.613088 14.995815 75.545143 32 27 27
-8.591227 15.120192 75.353409 31 26 27
-6.210905 12.105240 54.475674 29 24 24
-6.143273 12.089575 53.882473 28 24 23
-6.132144 12.183615 53.784859 28 24 23
-6.098997 12.233073 53.494129 28 24 23
-8.323166 -7.685826 74.409126 60 47 47
-8.323166 -7.525425 74.409126 63 49 49
-8.323166 -7.365024 74.409126 63 48 50
-8.323166 -7.204623 74.409126 60 45 47
-8.302359 -7.026611 74.223106 57 42 44
-8.302359 -6.866611 74.223106 55 40 42
-8.302359 -6.706611 74.223106 54 40 41
-8.344079 -6.579509 74.596085 55 41 41
-8.344079 -6.418705 74.596085 55 41 41
-8.344079 -6.257901 74.596085 54 40 41
-8.302359 -6.066611 74.223106 53 40 41
-8.199861 -5.833690 73.306770 53 39 41
-8.060542 -5.579234 72.061264 53 39 42
-8.002274 -5.384686 71.540344 53 39 42
-7.983037 -5.217896 71.368370 53 39 43
-7.963893 -5.051905 71.197220 53 39 43
-7.983037 -4.910203 71.368370 53 40 42
-8.179664 -4.873509 73.126213 53 41 43
-8.739325 -5.038538 78.129585 53 41 43
-8.951330 -4.988260 80.024910 52 41 43
-8.927267 -4.802808 79.809792 52 40 42
-8.927267 -4.630765 79.809792 52 40 41
-8.927267 -4.458722 79.809792 52 39 41
-8.975523 -4.309850 80.241196 52 38 41
-8.927267 -4.114636 79.809792 53 38 41
-8.927267 -3.942593 79.809792 53 38 40
-8.323166 -3.515400 74.409126 53 37 39
-8.240554 -3.321699 73.670578 53 37 38
-8.060542 -3.093797 72.061264 53 37 37
-8.021603 -2.924262 71.713142 52 36 36
-8.021603 -2.769673 71.713142 51 35 35
-8.002274 -2.608782 71.540344 50 35 35
-7.983037 -2.448665 71.368370 50 35 34
-7.983037 -2.294819 71.368370 50 35 35
-7.983037 -2.140972 71.368370 50 36 37
-7.983037 -1.987126 71.368370 51 38 38
-7.983037 -1.833280 71.368370 51 39 38
-7.983037 -1.679434 71.368370 50 39 38
-7.983037 -1.525588 71.368370 50 39 38
-7.963893 -1.368452 71.197220 49 38 37
-7.963893 -1.214975 71.197220 48 36 36
-7.983037 -1.064049 71.368370 47 35 36
-7.983037 -0.910203 71.368370 47 34 35
-7.983037 -0.756357 71.368370 47 33 34
-7.983037 -0.602511 71.368370 47 33 34
-7.983037 -0.448665 71.368370 47 34 34
-7.983037 -0.294819 71.368370 48 35 35
-7.983037 -0.140972 71.368370 47 35 35
-7.983037 0.012874 71.368370 46 35 35
-7.963893 0.166320 71.197220 45 35 34
-7.944840 0.319032 71.026894 43 34 34
-7.963893 0.473274 71.197220 42 34 33
-7.963893 0.626752 71.197220 41 33 32
-6.576126 2.671991 58.790577 40 28 28
-6.537290 2.782196 58.443390 39 28 28
-6.498911 2.891107 58.100277 38 29 29
-6.460979 2.998746 57.761173 37 29 29
-6.435937 3.111154 57.537292 36 28 28
-6.411088 3.222694 57.315140 36 28 28
-6.411088 3.346246 57.315140 37 28 29
-8.515240 5.429117 76.126259 37 28 28
-8.428790 5.536435 75.353409 38 29 29
-8.407452 5.684444 75.162636 38 31 30
-8.323166 5.787858 74.409126 39 31 31
-8.302359 5.933389 74.223106 39 32 31
-8.302359 6.093389 74.223106 39 32 31
-8.179664 6.160974 73.126213 39 32 31
-5.347735 8.253390 47.808765 31 26 26
-5.347735 8.356450 47.808765 30 26 26
-5.347735 8.459510 47.808765 30 26 26
-5.330567 8.535081 47.655285 29 25 26
-5.288126 8.569037 47.275864 28 25 26
-5.262985 8.629724 47.051098 27 25 25
-5.262985 8.832576 47.051098 29 26 25
-5.262985 8.934002 47.051098 29 27 25
-8.515240 16.423988 76.126259 31 25 25
-6.093474 12.105240 54.475674 28 24 23
-6.049077 12.133616 54.078766 28 24 23
-6.027121 12.205727 53.882473 27 24 23
-5.983682 12.233073 53.494129 27 24 23
-8.142359 -7.826612 74.223106 57 44 44
-8.142359 -7.666611 74.223106 60 46 46
-8.142359 -7.506611 74.223106 62 47 48
-8.142359 -7.346611 74.223106 62 46 48
-8.142359 -7.186611 74.223106 60 44 46
-8.142359 -7.026611 74.223106 58 42 44
-8.142359 -6.866611 74.223106 56 40 42
-8.142359 -6.706611 74.223106 55 40 40
-8.142359 -6.546611 74.223106 54 40 40
-8.101850 -6.354837 73.853836 53 40 40
-8.101850 -6.195633 73.853836 53 40 40
-8.101850 -6.036429 73.853836 52 40 41
-8.041836 -5.833690 73.306770 52 39 42
-7.963187 -5.620158 72.589836 53 40 42
-7.905202 -5.423894 72.061264 53 40 43
-7.905202 -5.268555 72.061264 53 40 43
-7.848056 -5.076252 71.540344 53 40 43
-7.867013 -4.933924 71.713142 52 40 43
-8.022028 -4.873509 73.126213 53 41 43
-8.415874 -4.947402 76.716385 53 41 43
-8.503769 -4.831970 77.517601 53 41 43
-8.503769 -4.664868 77.517601 52 40 42
-8.503769 -4.497766 77.517601 52 39 42
-8.548408 -4.353398 77.924522 52 39 42
-8.548408 -4.185419 77.924522 52 38 41
-8.548408 -4.017440 77.924522 53 38 40
-8.437677 -3.799597 76.915138 53 38 39
-8.162766 -3.515400 74.409126 53 38 38
-8.081745 -3.321699 73.670578 53 38 38
-7.943764 -3.108889 72.412788 52 37 37
-7.886061 -2.931343 71.886787 51 37 36
-7.886061 -2.776379 71.886787 50 36 35
-7.867013 -2.615083 71.713142 50 35 35
-7.848056 -2.454565 71.540344 50 35 35
-7.829191 -2.294819 71.368370 51 36 36
-7.829191 -2.140972 71.368370 52 37 37
-7.848056 -1.991915 71.540344 52 38 39
-7.848056 -1.837698 71.540344 52 39 39
-7.829191 -1.679434 71.368370 51 39 38
-7.829191 -1.525588 71.368370 50 38 37
-7.829191 -1.371742 71.368370 49 37 36
-7.829191 -1.217896 71.368370 48 36 35
-7.829191 -1.064049 71.368370 47 35 35
-7.829191 -0.910203 71.368370 46 33 34
-7.829191 -0.756357 71.368370 46 33 34
-7.829191 -0.602511 71.368370 46 33 34
-7.829191 -0.448665 71.368370 46 33 34
-7.829191 -0.294819 71.368370 47 34 35
-7.829191 -0.140972 71.368370 47 35 35
-7.810416 0.012843 71.197220 47 35 35
-7.810416 0.166320 71.197220 46 35 34
-7.791730 0.319032 71.026894 44 35 34
-7.791730 0.472142 71.026894 43 34 33
-6.500885 2.693324 59.259964 40 29 28
-6.423952 2.787683 58.558662 40 29 29
-6.361217 2.885460 57.986801 38 29 29
-6.336466 2.998746 57.761173 37 29 29
-6.311906 3.111154 57.537292 35 28 29
-6.287536 3.222694 57.315140 35 28 28
-6.287536 3.346246 57.315140 36 27 29
-8.329779 5.415231 75.931564 37 27 27
-8.203888 5.494598 74.783989 37 29 28
-8.162766 5.627457 74.409126 38 31 30
-8.122053 5.758991 74.038010 38 32 31
-8.022028 5.845703 73.126213 38 32 31
-8.022028 6.003339 73.126213 38 33 32
-7.924437 6.086023 72.236603 38 32 31
-5.194487 7.970264 47.351265 32 27 26
-5.202785 8.085233 47.426903 32 27 27
-5.244675 8.253390 47.808765 31 27 26
-5.244675 8.356450 47.808765 31 27 26
-5.244675 8.459510 47.808765 30 26 26
-5.236243 8.548803 47.731899 29 25 26
-5.202785 8.596415 47.426903 28 24 26
-5.177970 8.657163 47.200703 28 25 25
-5.169751 8.745008 47.125782 28 25 25
-5.186215 8.874770 47.275864 28 25 24
-5.186215 8.976681 47.275864 29 26 24
-5.169751 9.049770 47.125782 30 26 25
-8.394184 16.013803 76.518669 30 25 25
-8.351137 16.095783 76.126259 30 25 25
-8.329779 16.218300 75.931564 30 25 24
-5.932502 12.017041 54.078766 29 24 23
-5.868366 12.002442 53.494129 28 24 23
-7.962452 -7.807094 74.038010 56 43 44
-7.982358 -7.666611 74.223106 58 44 44
-7.962452 -7.487892 74.038010 59 44 46
-7.962452 -7.328290 74.038010 60 44 46
-7.962452 -7.168690 74.038010 59 43 45
-7.962452 -7.009089 74.038010 57 41 43
-7.962452 -6.849488 74.038010 56 40 41
-7.982358 -6.706611 74.223106 55 40 40
-7.982358 -6.546611 74.223106 54 40 40
-7.922936 -6.339068 73.670578 53 41 40
-7.922936 -6.180259 73.670578 53 41 40
-7.922936 -6.021451 73.670578 52 40 41
-7.903325 -5.848130 73.488220 52 39 42
-7.864392 -5.661686 73.126213 52 40 42
-7.845070 -5.490527 72.946541 53 40 43
-7.845070 -5.333279 72.946541 53 40 43
-7.825841 -5.163344 72.767754 53 40 43
-7.864392 -5.031144 73.126213 52 40 43
-7.982358 -4.946611 74.223106 52 40 42
-8.250500 -4.947402 76.716385 52 40 42
-8.271874 -4.794416 76.915138 52 40 42
-8.271874 -4.628613 76.915138 52 40 42
-8.250500 -4.451278 76.716385 52 39 42
-8.250500 -4.285903 76.716385 52 38 42
-8.271874 -4.131204 76.915138 53 38 41
-8.271874 -3.965400 76.915138 53 39 40
-8.062988 -3.703648 74.972832 54 39 39
-8.002364 -3.515400 74.409126 54 39 38
-7.962452 -3.338266 74.038010 53 39 38
-7.845070 -3.131805 72.946541 52 38 37
-7.768719 -2.945607 72.236603 51 37 36
-7.749863 -2.783118 72.061264 50 37 36
-7.731098 -2.621415 71.886787 49 36 36
-7.712424 -2.460494 71.713142 50 36 36
-7.712424 -2.305905 71.713142 51 37 37
-7.712424 -2.151315 71.713142 52 38 38
-7.712424 -1.996726 71.713142 52 38 39
-7.712424 -1.842137 71.713142 52 38 39
-7.693840 -1.683481 71.540344 51 38 39
-7.675344 -1.525588 71.368370 49 38 37
-7.675344 -1.371742 71.368370 48 37 36
-7.675344 -1.217896 71.368370 47 36 35
-7.675344 -1.064049 71.368370 46 35 34
-7.675344 -0.910203 71.368370 45 33 34
-7.675344 -0.756357 71.368370 45 32 33
-7.675344 -0.602511 71.368370 45 32 34
-7.675344 -0.448665 71.368370 45 33 34
-7.675344 -0.294819 71.368370 46 34 35
-7.675344 -0.140972 71.368370 47 35 35
-7.656939 0.012843 71.197220 47 35 35
-7.638620 0.165922 71.026894 46 35 34
-7.620390 0.318271 70.857384 45 34 33
-7.638620 0.472142 71.026894 44 33 32
-7.638620 0.625252 71.026894 43 33 32
-6.437386 2.462410 59.857342 39 29 28
-6.385887 2.570711 59.378483 39 29 29
-6.360445 2.687959 59.141918 40 30 29
-6.297719 2.787683 58.558662 39 30 29
-6.236217 2.885460 57.986801 38 30 29
-6.199890 2.992923 57.649014 36 29 29
-6.175906 3.105136 57.425999 35 29 28
-6.152107 3.216485 57.204704 34 28 28
-6.152107 3.339799 57.204704 35 27 28
-7.982358 5.133389 74.223106 36 26 26
-7.903325 5.240979 73.488220 36 27 27
-7.883811 5.386063 73.306770 37 29 28
-7.883811 5.544087 73.306770 37 31 30
-7.864392 5.688067 73.126213 38 32 31
-7.864392 5.845703 73.126213 38 32 31
-7.864392 6.003339 73.126213 37 32 31
-7.768719 6.086023 72.236603 37 32 31
-5.092413 7.970264 47.351265 32 26 25
-5.116897 8.111147 47.578915 31 27 26
-5.141616 8.253390 47.808765 31 27 26
-5.149909 8.369928 47.885876 31 27 26
-5.149909 8.473154 47.885876 31 26 26
-5.149909 8.576380 47.885876 30 25 26
-5.133349 8.651697 47.731899 29 25 25
-5.100548 8.698651 47.426903 28 25 25
-5.076221 8.758912 47.200703 29 25 24
-5.084305 8.874770 47.275864 29 25 24
-5.084305 8.976681 47.275864 29 25 24
-5.068164 9.049770 47.125782 29 25 24
-8.250500 15.889808 76.716385 30 25 25
-8.250500 16.055182 76.716385 29 24 25
-8.229236 16.178751 76.518669 29 24 24
-8.187035 16.259886 76.126259 30 24 24
-8.166096 16.381983 75.931564 30 24 24
-5.826539 12.038970 54.177448 29 24 24
-5.826539 12.155758 54.177448 28 24 24
-7.783441 -7.946877 73.853836 55 42 43
-7.783441 -7.787673 73.853836 56 42 43
-7.802851 -7.647492 74.038010 57 42 43
-7.802851 -7.487892 74.038010 57 42 43
-7.802851 -7.328290 74.038010 58 42 44
-7.783441 -7.150857 73.853836 57 42 43
-7.783441 -6.991653 73.853836 56 41 42
-7.783441 -6.832449 73.853836 55 41 41
-7.783441 -6.673245 73.853836 54 40 39
-7.783441 -6.514041 73.853836 53 40 39
-7.764127 -6.339068 73.670578 54 41 41
-7.764127 -6.180259 73.670578 54 42 42
-7.764127 -6.021451 73.670578 53 40 41
-7.783441 -5.877225 73.853836 52 39 42
-7.764127 -5.703833 73.670578 52 39 42
-7.764127 -5.545023 73.670578 53 39 43
-7.764127 -5.386215 73.670578 53 40 43
-7.764127 -5.227406 73.670578 53 40 43
-7.822359 -5.106611 74.223106 52 40 42
-7.961688 -5.034719 75.545143 52 39 42
-8.085125 -4.947402 76.716385 51 39 41
-8.127126 -4.806869 77.114914 51 39 41
-8.106071 -4.628613 76.915138 52 39 42
-8.085125 -4.451278 76.716385 53 39 42
-8.085125 -4.285903 76.716385 53 39 42
-8.002413 -4.078375 75.931564 54 39 41
-8.002413 -3.914692 75.931564 54 39 40
-7.901372 -3.703648 74.972832 54 39 39
-7.841963 -3.515400 74.409126 54 39 38
-7.822359 -3.346611 74.223106 54 39 38
-7.725786 -3.147270 73.306770 53 39 38
-7.631569 -2.952791 72.412788 51 38 37
-7.613001 -2.789889 72.236603 50 37 36
-7.594523 -2.627778 72.061264 49 36 36
-7.576134 -2.466452 71.886787 50 36 36
-7.576134 -2.311488 71.886787 50 37 37
-7.594523 -2.161759 72.061264 51 38 38
-7.594523 -2.006419 72.061264 52 38 39
-7.557834 -1.842137 71.713142 51 38 39
-7.557834 -1.687547 71.713142 50 38 38
-7.521499 -1.525588 71.368370 49 38 37
-7.521499 -1.371742 71.368370 47 37 36
-7.521499 -1.217896 71.368370 47 36 35
-7.521499 -1.064049 71.368370 46 35 34
-7.521499 -0.910203 71.368370 45 33 33
-7.521499 -0.756357 71.368370 45 33 34
-7.521499 -0.602511 71.368370 44 32 34
-7.521499 -0.448665 71.368370 45 33 34
-7.521499 -0.294819 71.368370 45 34 34
-7.521499 -0.140972 71.368370 46 35 35
-7.485510 0.012812 71.026894 47 35 35
-7.467645 0.165526 70.857384 46 35 33
-7.449865 0.317513 70.688675 45 34 32
-7.432169 0.468778 70.520767 44 33 32
-7.414558 0.619326 70.353653 43 32 31
-7.327736 0.761957 69.529839 42 32 31
-6.283019 2.452521 59.616951 40 29 29
-6.245396 2.565580 59.259964 40 30 29
-6.183682 2.666710 58.674393 40 30 29
-6.159338 2.782196 58.443390 39 30 29
-6.099305 2.879835 57.873768 38 30 29
-6.063844 2.987123 57.537292 36 29 28
-6.040431 3.099142 57.315140 35 29 27
-6.028792 3.216485 57.204704 34 28 27
-6.028792 3.339799 57.204704 34 27 28
-7.822359 4.973389 74.223106 37 26 27
-7.744909 5.082563 73.488220 36 26 27
-7.687821 5.202348 72.946541 37 27 28
-7.687821 5.359596 72.946541 37 28 29
-7.687821 5.516844 72.946541 38 30 30
-7.613001 5.618870 72.236603 38 32 31
-7.613001 5.774588 72.236603 38 32 32
-7.613001 5.930305 72.236603 38 32 32
-5.971266 8.681976 56.658859 35 28 27
-7.744909 13.003355 73.488220 30 26 26
-7.744909 13.161771 73.488220 30 26 26
-5.006310 8.712568 47.502789 29 25 25
-4.998312 8.800887 47.426903 29 26 24
-4.998312 8.903124 47.426903 30 26 25
-5.006310 9.019769 47.502789 30 25 25
-8.106071 15.930973 76.915138 30 24 24
-8.106071 16.096775 76.915138 30 25 24
-8.085125 16.220556 76.716385 29 24 24
-8.043556 16.301685 76.321960 29 23 23
-8.022932 16.423988 76.126259 30 23 23
-5.720189 11.826975 54.276493 31 24 24
-5.720189 11.943977 54.276493 30 24 24
-5.720189 12.060979 54.276493 30 24 24
-5.730666 12.200285 54.375900 29 24 24
-5.720189 12.294983 54.276493 29 24 24
-7.624237 -8.106081 73.853836 56 41 43
-7.605319 -7.927158 73.670578 56 42 43
-7.605319 -7.768349 73.670578 56 42 42
-7.605319 -7.609540 73.670578 56 41 42
-7.605319 -7.450731 73.670578 56 41 42
-7.605319 -7.291922 73.670578 56 41 42
-7.605319 -7.133113 73.670578 56 41 42
-7.586493 -6.957041 73.488220 56 41 41
-7.567761 -6.781838 73.306770 55 41 41
-7.605319 -6.656686 73.670578 54 40 40
-7.567761 -6.465789 73.306770 53 40 39
-7.586493 -6.323378 73.488220 54 41 41
-7.586493 -6.164962 73.488220 54 41 42
-7.624237 -6.036429 73.853836 53 40 41
-7.624237 -5.877225 73.853836 53 39 42
-7.624237 -5.718021 73.853836 52 39 42
-7.643250 -5.572680 74.038010 53 39 42
-7.662358 -5.426611 74.223106 52 39 42
-7.662358 -5.266611 74.223106 52 39 42
-7.739756 -5.158193 74.972832 51 39 42
-7.899339 -5.099599 76.518669 51 39 41
-7.919750 -4.947402 76.716385 51 39 41
-7.960892 -4.806869 77.114914 52 39 41
-7.919750 -4.616652 76.716385 52 39 41
-7.919750 -4.451278 76.716385 53 40 41
-7.838730 -4.242058 75.931564 54 40 41
-7.779044 -4.047321 75.353409 54 39 41
-7.739756 -3.865264 74.972832 54 39 40
-7.681562 -3.675801 74.409126 54 39 39
-7.662358 -3.506611 74.223106 54 39 39
-7.662358 -3.346611 74.223106 54 39 38
-7.567761 -3.147270 73.306770 53 39 38
-7.457283 -2.945607 72.236603 51 38 38
-7.475471 -2.796694 72.412788 50 37 37
-7.439183 -2.627778 72.061264 49 36 36
-7.439183 -2.472438 72.061264 49 36 36
-7.439183 -2.317098 72.061264 50 37 37
-7.439183 -2.161759 72.061264 51 37 38
-7.439183 -2.006419 72.061264 51 38 39
-7.403245 -1.842137 71.713142 51 38 39
-7.403245 -1.687547 71.713142 50 38 38
-7.367652 -1.525588 71.368370 48 37 38
-7.367652 -1.371742 71.368370 47 37 36
-7.367652 -1.217896 71.368370 46 36 35
-7.367652 -1.064049 71.368370 45 35 35
-7.367652 -0.910203 71.368370 45 33 34
-7.367652 -0.756357 71.368370 44 32 33
-7.367652 -0.602511 71.368370 44 32 33
-7.367652 -0.448665 71.368370 44 33 34
-7.367652 -0.294819 71.368370 45 34 34
-7.367652 -0.140972 71.368370 46 35 34
-7.332400 0.012812 71.026894 46 35 34
-7.297484 0.165132 70.688675 46 34 34
-7.280150 0.316759 70.520767 45 34 33
-7.262899 0.467667 70.353653 44 33 32
-7.177853 0.612074 69.529839 43 32 32
-7.127775 0.756641 69.044746 42 32 31
-7.111238 0.903377 68.884552 41 32 31
-7.078391 1.047010 68.566376 41 32 32
-7.045847 1.483576 68.251129 42 32 32
-6.918608 1.601254 67.018608 42 31 33
-7.245729 1.828264 70.187332 41 31 33
-6.179321 2.462410 59.857342 40 29 30
-6.081237 2.550308 58.907227 40 30 30
-6.021500 2.650993 58.328571 40 30 29
-5.986217 2.760460 57.986801 39 30 29
-5.962925 2.874233 57.761173 38 30 28
-5.928324 2.981345 57.425999 36 29 27
-5.905478 3.093170 57.204704 35 29 27
-5.837987 3.179725 56.550938 34 28 27
-5.860312 3.314255 56.767193 34 27 27
-7.662358 4.973389 74.223106 36 27 28
-7.567761 5.070014 73.306770 37 27 28
-7.530573 5.202348 72.946541 37 28 28
-7.530573 5.359596 72.946541 38 29 29
-7.530573 5.516844 72.946541 38 30 30
-7.421170 5.591660 71.886787 39 31 31
-7.403245 5.732743 71.713142 39 32 32
-7.385406 5.873146 71.540344 39 32 32
-8.086922 9.977191 78.335732 36 28 28
-7.919750 9.936319 76.716385 36 28 27
-7.605319 9.700634 73.670578 36 27 26
-7.586493 9.835038 73.488220 36 28 26
-7.439183 9.799406 72.061264 36 28 26
-7.838730 10.489400 75.931564 36 28 26
-7.838730 10.653083 75.931564 37 28 26
-7.919750 10.928567 76.716385 37 28 26
-7.759350 11.193305 75.162636 35 28 27
-7.662358 11.213388 74.223106 35 28 27
-7.530573 11.177777 72.946541 35 27 27
-7.586493 13.161771 73.488220 29 26 25
-7.981623 15.847280 77.315735 30 25 24
-7.981623 16.013947 77.315735 30 25 24
-7.960892 16.138586 77.114914 30 24 24
-7.919750 16.220556 76.716385 29 24 24
-7.879032 16.301685 76.321960 29 23 24
-7.858829 16.423988 76.126259 30 23 24
-7.858829 16.588091 76.126259 30 24 24
-5.613450 11.965853 54.375900 30 24 24
-5.613450 12.083069 54.375900 30 24 25
-7.465033 -8.265285 73.853836 56 40 43
-7.446509 -8.085966 73.670578 56 40 43
-7.409737 -7.888011 73.306770 56 40 42
-7.409737 -7.729987 73.306770 56 41 41
-7.428078 -7.590704 73.488220 56 41 41
-7.428078 -7.432289 73.488220 56 41 42
-7.428078 -7.273872 73.488220 56 42 42
-7.428078 -7.115457 73.488220 55 42 42
-7.409737 -6.939863 73.306770 55 42 41
-7.391486 -6.765134 73.126213 55 42 41
-7.409737 -6.623814 73.306770 54 41 40
-7.409737 -6.465789 73.306770 53 40 40
-7.428078 -6.323378 73.488220 53 40 40
-7.428078 -6.164962 73.488220 53 39 41
-7.465033 -6.036429 73.853836 52 38 40
-7.483649 -5.891881 74.038010 52 38 41
-7.483649 -5.732281 74.038010 52 38 41
-7.502358 -5.586611 74.223106 52 38 41
-7.502358 -5.426611 74.223106 52 38 41
-7.502358 -5.266611 74.223106 51 37 41
-7.578140 -5.158193 74.972832 51 37 41
-7.734390 -5.099599 76.518669 51 38 40
-7.734390 -4.934651 76.518669 52 38 40
-7.754375 -4.782027 76.716385 52 39 40
-7.734390 -4.604754 76.518669 53 40 41
-7.616608 -4.372194 75.353409 54 40 41
-7.597325 -4.199100 75.162636 55 40 40
-7.578140 -4.026880 74.972832 55 39 40
-7.521161 -3.836202 74.409126 55 39 40
-7.502358 -3.666611 74.223106 55 38 40
-7.502358 -3.506611 74.223106 55 38 39
-7.502358 -3.346611 74.223106 54 38 39
-7.283843 -2.938457 72.061264 52 38 38
-7.301565 -2.789889 72.236603 50 38 38
-7.301565 -2.634172 72.236603 49 37 37
-7.283843 -2.472438 72.061264 49 36 36
-7.283843 -2.317098 72.061264 50 37 37
-7.283843 -2.161759 72.061264 51 37 38
-7.283843 -2.006419 72.061264 51 37 39
-7.248655 -1.842137 71.713142 51 37 39
-7.248655 -1.687547 71.713142 50 37 38
-7.213806 -1.525588 71.368370 48 37 37
-7.213806 -1.371742 71.368370 47 36 36
-7.196507 -1.214975 71.197220 46 36 35
-7.196507 -1.061498 71.197220 45 34 35
-7.213806 -0.910203 71.368370 44 33 35
-7.213806 -0.756357 71.368370 44 32 34
-7.213806 -0.602511 71.368370 43 32 33
-7.213806 -0.448665 71.368370 44 33 34
-7.213806 -0.294819 71.368370 45 34 34
