ply
format ascii 1.0
element vertex 1186
property float x
property float y
property float z
property uchar red
property uchar green
property uchar blue
end_header
-4.211716 22.609011 67.629250 25 21 16
-3.975375 -13.814353 66.123032 130 80 78
-3.966541 -13.641433 65.976097 134 87 84
-3.957746 -13.469278 65.829803 141 96 91
-3.948990 -13.297886 65.684166 149 106 100
-3.871895 -12.899446 64.401825 158 117 110
-3.871895 -12.760617 64.401825 164 124 116
-3.846861 -12.540182 63.985435 166 126 118
-3.846861 -12.402251 63.985435 171 131 123
-3.846861 -12.264320 63.985435 175 136 128
-3.846861 -12.126390 63.985435 178 139 131
-3.846861 -11.988458 63.985435 181 140 133
-3.846861 -11.850527 63.985435 184 141 135
-3.846861 -11.712596 63.985435 188 143 137
-3.846861 -11.574665 63.985435 192 145 139
-3.846861 -11.436734 63.985435 196 147 141
-3.846861 -11.298803 63.985435 195 143 138
-3.846861 -11.160872 63.985435 189 135 131
-3.830351 -10.975632 63.710819 179 122 120
-3.813982 -10.791975 63.438553 168 109 109
-3.805849 -10.632504 63.303288 161 100 101
-3.805849 -10.496044 63.303288 159 95 99
-3.789689 -10.315594 63.034485 164 97 102
-3.765703 -10.115284 62.635532 174 103 110
-3.742020 -9.917494 62.241596 183 108 115
-3.742020 -9.783322 62.241596 187 108 113
-3.734191 -9.628963 62.111385 188 104 107
-3.718632 -9.455509 61.852589 184 96 97
-3.718632 -9.322176 61.852589 174 83 81
-3.718632 -9.188843 61.852589 168 74 70
-3.718632 -9.055510 61.852589 170 75 69
-3.710901 -8.903626 61.723995 176 80 72
-3.687900 -8.716208 61.341408 182 85 76
-3.665181 -8.531097 60.963535 188 90 80
-3.665181 -8.399681 60.963535 194 95 82
-3.627934 -8.184237 60.343987 198 98 85
-3.605946 -8.005342 59.978268 201 100 86
-3.605946 -7.876050 59.978268 205 103 87
-3.605946 -7.746757 59.978268 210 108 89
-3.613246 -7.632884 60.099682 215 113 90
-3.613246 -7.503329 60.099682 218 115 88
-3.613246 -7.373775 60.099682 220 115 84
-3.613246 -7.244220 60.099682 220 113 79
-3.620575 -7.129097 60.221588 219 110 73
-3.620575 -6.999279 60.221588 219 108 67
-3.627934 -6.883424 60.343987 219 106 64
-3.627934 -6.753343 60.343987 220 103 62
-3.642741 -6.650295 60.590290 219 101 59
-3.642741 -6.519683 60.590290 217 96 56
-3.627934 -6.363099 60.343987 217 94 54
-3.620575 -6.220374 60.221588 220 96 55
-3.613246 -6.078228 60.099682 222 97 57
-3.598676 -5.924686 59.857342 222 96 57
-3.598676 -5.795654 59.857342 223 95 56
-3.598676 -5.666622 59.857342 225 96 57
-3.584224 -5.515350 59.616951 225 96 57
-3.548595 -5.333289 59.024338 224 94 56
-3.513668 -5.154812 58.443390 223 92 54
-3.513668 -5.028828 58.443390 223 92 53
-3.513668 -4.902843 58.443390 222 92 52
-3.534541 -4.805237 58.790577 222 92 50
-3.534541 -4.678504 58.790577 222 92 49
-3.527556 -4.542776 58.674393 222 93 48
-3.520598 -4.407583 58.558662 223 94 48
-3.493040 -4.247837 58.100277 224 94 49
-3.486217 -4.114540 57.986801 225 96 50
-3.486217 -3.989540 57.986801 227 98 52
-3.486217 -3.864540 57.986801 229 100 54
-3.486217 -3.739540 57.986801 231 102 56
-3.520598 -3.650187 58.558662 233 103 58
-3.548595 -3.551977 59.024338 233 103 60
-3.562761 -3.438412 59.259964 233 103 62
-3.555664 -3.304073 59.141918 233 102 63
-3.548595 -3.170267 59.024338 232 101 64
-3.548595 -3.043031 59.024338 230 99 64
-3.548595 -2.915794 59.024338 229 98 62
-3.541554 -2.783025 58.907227 229 97 63
-3.499889 -2.624793 58.214199 231 98 66
-3.486217 -2.489540 57.986801 234 100 68
-3.459193 -2.346210 57.537292 235 101 72
-3.419432 -2.196637 56.875942 236 102 77
-3.412894 -2.070066 56.767193 231 99 76
-3.406380 -1.943978 56.658859 216 88 67
-3.399892 -1.818371 56.550938 205 80 62
-3.393428 -1.693241 56.443428 213 93 78
-3.393428 -1.571568 56.443428 233 122 109
-3.386989 -1.447143 56.336323 235 129 117
-3.386989 -1.325701 56.336323 211 104 95
-3.386989 -1.204259 56.336323 204 99 92
-3.393428 -1.084876 56.443428 229 128 123
-3.393428 -0.963203 56.443428 250 151 147
-3.399892 -0.843132 56.550938 254 159 154
-3.399892 -0.721228 56.550938 254 163 156
-3.406380 -0.600467 56.658859 254 169 160
-3.419432 -0.480162 56.875942 254 178 168
-3.419432 -0.357557 56.875942 254 182 172
-3.432583 -0.235855 57.094696 254 176 166
-3.445837 -0.113213 57.315140 254 173 164
-3.445837 0.010339 57.315140 254 172 163
-3.445837 0.133891 57.315140 254 165 155
-3.439197 0.256947 57.204704 254 161 148
-3.439197 0.380261 57.204704 254 161 147
-3.432583 0.502607 57.094696 254 161 146
-3.432583 0.625684 57.094696 254 161 145
-3.425995 0.747323 56.985111 254 161 143
-3.425995 0.870164 56.985111 254 157 138
-3.412894 0.989207 56.767193 254 151 130
-3.412894 1.111578 56.767193 252 145 123
-3.412894 1.233949 56.767193 245 136 113
-3.419432 1.358919 56.875942 241 136 113
-3.432583 1.487222 57.094696 248 148 126
-3.432583 1.610299 57.094696 254 159 138
-3.432583 1.733376 57.094696 254 172 152
-3.439197 1.860030 57.204704 254 188 170
-3.439197 1.983344 57.204704 254 191 177
-3.445837 2.110725 57.315140 253 173 163
-3.452502 2.238599 57.425999 250 153 146
-3.452502 2.362390 57.425999 246 145 140
-3.452502 2.486181 57.425999 244 144 140
-3.452502 2.609972 57.425999 248 157 152
-3.452502 2.733763 57.425999 252 179 173
-3.445837 2.852038 57.315140 252 174 168
-3.445837 2.975590 57.315140 241 136 129
-3.445837 3.099142 57.315140 234 115 110
-3.445837 3.222694 57.315140 245 136 131
-3.452502 3.352719 57.425999 253 151 147
-3.452502 3.476510 57.425999 249 135 132
-3.445837 3.593350 57.315140 246 125 119
-3.445837 3.716902 57.315140 250 138 129
-3.445837 3.840455 57.315140 254 158 145
-3.445837 3.964007 57.315140 252 169 152
-3.445837 4.087559 57.315140 240 153 131
-3.452502 4.219256 57.425999 229 125 102
-3.452502 4.343047 57.425999 235 132 109
-3.452502 4.466838 57.425999 249 157 135
-3.459193 4.599526 57.537292 254 167 146
-3.459193 4.723557 57.537292 254 170 148
-3.465909 4.857001 57.649014 253 171 149
-3.465909 4.981273 57.649014 252 169 148
-3.465909 5.105545 57.649014 252 164 145
-3.465909 5.229816 57.649014 249 155 140
-3.465909 5.354088 57.649014 247 154 144
-3.465909 5.478360 57.649014 250 169 163
-3.472652 5.613532 57.761173 246 172 168
-3.472652 5.738046 57.761173 227 143 139
-3.472652 5.862559 57.761173 216 121 114
-3.472652 5.987073 57.761173 231 135 125
-3.472652 6.111587 57.761173 246 152 139
-3.472652 6.236100 57.761173 243 150 135
-3.479422 6.373013 57.873768 227 135 118
-3.479422 6.497769 57.873768 217 129 111
-3.486217 6.635460 57.986801 227 149 130
-3.486217 6.760460 57.986801 244 183 162
-3.486217 6.885460 57.986801 249 194 170
-3.486217 7.010460 57.986801 238 171 145
-3.486217 7.135460 57.986801 225 146 118
-3.493040 7.274668 58.100277 221 139 110
-3.499889 7.414423 58.214199 221 141 112
-3.513668 7.569597 58.443390 219 141 113
-3.520598 7.710760 58.558662 215 139 112
-3.527556 7.852481 58.674393 210 137 110
-3.577041 8.090893 59.497478 202 132 107
-3.605946 8.285566 59.978268 190 124 100
-3.627934 8.466169 60.343987 172 110 89
-3.635323 8.613759 60.466888 148 93 75
-3.635323 8.744104 60.466888 128 80 67
-3.635323 8.874451 60.466888 116 74 65
-3.620575 8.968266 60.221588 104 66 61
-3.620575 9.098084 60.221588 89 55 53
-3.635323 9.265490 60.466888 78 46 46
-3.703202 9.571277 61.595940 74 44 45
-3.710901 9.724232 61.723995 73 44 47
-3.710901 9.857287 61.723995 71 44 47
-3.710901 9.990344 61.723995 71 44 47
-3.718632 10.144490 61.852589 71 45 48
-3.718632 10.277823 61.852589 71 45 47
-3.718632 10.411158 61.852589 67 42 43
-3.726395 10.566504 61.981716 61 36 36
-3.742020 10.744980 62.241596 56 33 33
-3.742020 10.879152 62.241596 55 32 32
-3.742020 11.013324 62.241596 55 32 32
-3.726395 11.100951 61.981716 55 32 32
-3.718632 11.211157 61.852589 55 32 32
-3.710901 11.320906 61.723995 55 31 31
-3.703202 11.430198 61.595940 53 30 30
-3.695535 11.539039 61.468410 53 30 30
-3.695535 11.671543 61.468410 54 29 30
-3.703202 11.828538 61.595940 54 29 29
-3.726395 12.036233 61.981716 53 28 29
-3.742020 12.220871 62.241596 51 27 28
-3.749881 12.380999 62.372356 49 26 28
-3.757776 12.541801 62.503666 48 26 27
-3.742020 12.623386 62.241596 46 25 26
-3.726395 12.704291 61.981716 44 24 25
-3.726395 12.837903 61.981716 43 24 24
-3.726395 12.971515 61.981716 43 25 24
-3.718632 13.077824 61.852589 44 26 25
-3.710901 13.183691 61.723995 46 28 26
-3.703202 13.289119 61.595940 46 29 27
-3.703202 13.421899 61.595940 46 28 28
-3.687900 13.498669 61.341408 46 28 28
-3.687900 13.630899 61.341408 47 27 27
-3.680295 13.734754 61.214931 47 26 26
-3.680295 13.866713 61.214931 47 26 26
-3.680295 13.998672 61.214931 46 27 26
-3.680295 14.130630 61.214931 46 27 26
-3.687900 14.292057 61.341408 47 29 28
-3.687900 14.424288 61.341408 48 32 30
-3.695535 14.586658 61.468410 47 32 30
-3.703202 14.749701 61.595940 46 32 29
-3.703202 14.882481 61.595940 45 31 29
-3.703202 15.015261 61.595940 45 30 29
-3.703202 15.148041 61.595940 45 30 29
-3.703202 15.280821 61.595940 46 30 29
-3.591435 16.107355 59.736904 46 32 29
-3.584224 16.203526 59.616951 44 31 28
-3.584224 16.332039 59.616951 41 29 27
-3.584224 16.460552 59.616951 40 28 25
-3.569887 16.522711 59.378483 39 27 24
-3.569887 16.650711 59.378483 38 26 22
-3.577041 16.812336 59.497478 38 26 22
-3.584224 16.974609 59.616951 38 26 22
-3.577041 17.068850 59.497478 37 26 22
-3.555664 17.094334 59.141918 37 26 23
-3.555664 17.221823 59.141918 37 26 24
-3.613246 17.630274 60.099682 38 27 25
-3.613246 17.759829 60.099682 37 27 25
-3.591435 17.781399 59.736904 37 27 25
-3.562761 17.767176 59.259964 36 26 24
-3.548595 17.823769 59.024338 34 25 23
-3.527556 17.844576 58.674393 33 24 23
-3.486217 17.760460 57.986801 32 23 22
-3.459193 17.746813 57.537292 32 23 21
-3.459193 17.870844 57.537292 32 23 20
-3.459193 17.994875 57.537292 32 23 20
-3.672723 19.237356 61.088974 32 22 20
-3.734191 20.362669 62.111385 28 20 16
-3.726395 20.453770 61.981716 27 20 16
-3.957746 21.865534 65.829803 25 20 16
-4.093907 22.764576 68.094589 24 20 16
-3.824319 -13.783654 65.976097 131 81 79
-3.815839 -13.611185 65.829803 137 88 85
-3.807397 -13.439479 65.684166 143 98 94
-3.807397 -13.297886 65.684166 151 108 103
-3.765740 -13.012351 64.965523 160 118 113
-3.733066 -12.760617 64.401825 165 124 118
-3.733066 -12.621789 64.401825 167 126 120
-3.724986 -12.455940 64.262428 171 130 124
-3.716940 -12.290809 64.123634 175 135 128
-3.716940 -12.152580 64.123634 178 138 131
-3.724986 -12.040356 64.262428 181 140 134
-3.724986 -11.901828 64.262428 185 142 136
-3.716940 -11.737893 64.123634 189 143 138
-3.708930 -11.574665 63.985435 192 143 138
-3.708930 -11.436734 63.985435 194 143 138
-3.708930 -11.298803 63.985435 196 143 139
-3.700953 -11.136870 63.847832 194 138 135
-3.693012 -10.975632 63.710819 182 123 122
-3.677229 -10.791975 63.438553 165 104 105
-3.669389 -10.632504 63.303288 155 93 95
-3.669389 -10.496044 63.303288 154 89 93
-3.653808 -10.315594 63.034485 159 91 96
-3.630682 -10.115284 62.635532 169 97 103
-3.607848 -9.917494 62.241596 178 102 107
-3.607848 -9.783322 62.241596 184 103 106
-3.600300 -9.628963 62.111385 187 102 103
-3.592784 -9.475249 61.981716 185 96 96
-3.585299 -9.322176 61.852589 175 83 82
-3.585299 -9.188843 61.852589 167 74 70
-3.585299 -9.055510 61.852589 169 74 68
-3.577845 -8.903626 61.723995 175 78 71
-3.555668 -8.716208 61.341408 181 83 75
-3.533765 -8.531097 60.963535 187 88 78
-3.533765 -8.399681 60.963535 192 94 81
-3.497852 -8.184237 60.343987 196 97 83
-3.476653 -8.005342 59.978268 198 98 84
-3.476653 -7.876050 59.978268 200 99 83
-3.483691 -7.762438 60.099682 203 101 83
-3.483691 -7.632884 60.099682 206 104 83
-3.490757 -7.518549 60.221588 212 108 85
-3.490757 -7.388731 60.221588 217 112 86
-3.490757 -7.258914 60.221588 219 112 82
-3.490757 -7.129097 60.221588 218 109 75
-3.497852 -7.013505 60.343987 218 107 69
-3.497852 -6.883424 60.343987 218 104 65
-3.504976 -6.767097 60.466888 219 102 63
-3.512129 -6.650295 60.590290 219 99 60
-3.512129 -6.519683 60.590290 217 95 58
-3.497852 -6.363099 60.343987 218 93 57
-3.483691 -6.207782 60.099682 220 93 57
-3.469644 -6.053719 59.857342 222 93 58
-3.469644 -5.924686 59.857342 221 92 57
-3.469644 -5.795654 59.857342 221 91 56
-3.469644 -5.666622 59.857342 222 92 56
-3.448784 -5.504298 59.497478 222 92 56
-3.421359 -5.333289 59.024338 221 90 54
-3.387684 -5.154812 58.443390 221 89 53
-3.394366 -5.038747 58.558662 222 89 52
-3.394366 -4.912514 58.558662 222 90 51
-3.414570 -4.814771 58.907227 223 90 50
-3.421359 -4.697106 59.024338 223 91 50
-3.414570 -4.560802 58.907227 223 92 49
-3.401074 -4.416294 58.674393 224 93 50
-3.374399 -4.256166 58.214199 224 94 50
-3.367795 -4.122592 58.100277 225 95 51
-3.361217 -3.989540 57.986801 226 96 53
-3.361217 -3.864540 57.986801 227 97 54
-3.374399 -3.754205 58.214199 228 98 55
-3.421359 -3.679214 59.024338 230 99 57
-3.435017 -3.566157 59.259964 231 99 59
-3.441887 -3.445289 59.378483 231 99 60
-3.435017 -3.310668 59.259964 231 99 61
-3.428174 -3.176583 59.141918 231 99 62
-3.421359 -3.043031 59.024338 230 97 63
-3.414570 -2.910009 58.907227 229 95 61
-3.401074 -2.772025 58.674393 228 94 60
-3.367795 -2.619657 58.100277 229 94 61
-3.348139 -2.479853 57.761173 230 94 62
-3.322284 -2.337152 57.315140 230 95 65
-3.290523 -2.192437 56.767193 229 95 67
-3.277987 -2.062180 56.550938 224 92 65
-3.271755 -1.936587 56.443428 210 82 56
-3.271755 -1.814914 56.443428 200 75 51
-3.271755 -1.693241 56.443428 210 92 70
-3.271755 -1.571568 56.443428 232 123 103
-3.265547 -1.447143 56.336323 232 126 107
-3.265547 -1.325701 56.336323 211 105 88
-3.265547 -1.204259 56.336323 210 106 91
-3.265547 -1.082817 56.336323 233 133 121
-3.271755 -0.963203 56.443428 251 153 143
-3.277987 -0.843132 56.550938 254 162 152
-3.277987 -0.721228 56.550938 254 166 155
-3.284243 -0.600467 56.658859 254 167 157
-3.296826 -0.480162 56.875942 254 168 158
-3.296826 -0.357557 56.875942 254 166 157
-3.309506 -0.235855 57.094696 254 162 154
-3.315883 -0.112995 57.204704 254 168 160
-3.315883 0.010319 57.204704 254 177 169
-3.315883 0.133633 57.204704 254 176 166
-3.315883 0.256947 57.204704 254 164 153
-3.315883 0.380261 57.204704 254 156 143
-3.303154 0.501642 56.985111 254 159 144
-3.303154 0.624483 56.985111 254 168 152
-3.303154 0.747323 56.985111 254 178 162
-3.290523 0.866836 56.767193 254 174 157
-3.290523 0.989207 56.767193 254 156 139
-3.290523 1.111578 56.767193 251 141 124
-3.290523 1.233949 56.767193 246 138 119
-3.290523 1.356320 56.767193 244 144 125
-3.309506 1.487222 57.094696 249 155 135
-3.309506 1.610299 57.094696 253 157 137
-3.309506 1.733376 57.094696 252 161 140
-3.315883 1.860030 57.204704 254 184 165
-3.315883 1.983344 57.204704 253 191 174
-3.322284 2.110725 57.315140 251 169 154
-3.328711 2.238599 57.425999 248 151 140
-3.328711 2.362390 57.425999 244 142 134
-3.328711 2.486181 57.425999 243 148 141
-3.328711 2.609972 57.425999 250 172 165
-3.328711 2.733763 57.425999 254 186 179
-3.322284 2.852038 57.315140 253 172 164
-3.322284 2.975590 57.315140 244 137 128
-3.322284 3.099142 57.315140 238 117 108
-3.328711 3.228927 57.425999 246 132 124
-3.328711 3.352719 57.425999 253 145 137
-3.328711 3.476510 57.425999 249 132 125
-3.328711 3.600301 57.425999 246 120 112
-3.322284 3.716902 57.315140 247 125 115
-3.322284 3.840455 57.315140 248 140 127
-3.322284 3.964007 57.315140 246 152 137
-3.328711 4.095465 57.425999 236 140 124
-3.328711 4.219256 57.425999 230 126 110
-3.328711 4.343047 57.425999 241 150 136
-3.328711 4.466838 57.425999 252 181 166
-3.335161 4.599526 57.537292 254 186 169
-3.335161 4.723557 57.537292 253 178 158
-3.335161 4.847588 57.537292 248 165 142
-3.341638 4.981273 57.649014 247 160 136
-3.341638 5.105545 57.649014 251 167 144
-3.341638 5.229816 57.649014 251 165 145
-3.341638 5.354088 57.649014 249 160 144
-3.348139 5.489018 57.761173 250 170 158
-3.348139 5.613532 57.761173 245 168 160
-3.354666 5.749231 57.873768 225 136 129
-3.354666 5.873987 57.873768 217 117 109
-3.354666 5.998744 57.873768 234 133 123
-3.348139 6.111587 57.761173 248 148 134
-3.354666 6.248256 57.873768 241 142 124
-3.361217 6.385460 57.986801 224 126 105
-3.361217 6.510460 57.986801 217 128 104
-3.361217 6.635460 57.986801 231 163 138
-3.361217 6.760460 57.986801 246 194 167
-3.361217 6.885460 57.986801 245 184 155
-3.361217 7.010460 57.986801 234 157 127
-3.361217 7.135460 57.986801 228 146 116
-3.361217 7.260460 57.986801 228 146 116
-3.374399 7.414423 58.214199 225 145 116
-3.381028 7.554726 58.328571 221 142 114
-3.387684 7.695581 58.443390 217 141 114
-3.394366 7.836993 58.558662 212 138 112
-3.407809 7.994763 58.790577 205 133 108
-3.476653 8.285566 59.978268 193 125 102
-3.497852 8.466169 60.343987 176 111 93
-3.504976 8.613759 60.466888 156 96 81
-3.504976 8.744104 60.466888 141 87 76
-3.497852 8.856414 60.343987 132 83 77
-3.483691 8.950112 60.099682 120 77 73
-3.483691 9.079667 60.099682 103 65 63
-3.490757 9.227901 60.221588 88 53 53
-3.555668 9.531726 61.341408 79 48 48
-3.570422 9.704057 61.595940 75 46 47
-3.570422 9.836837 61.595940 72 44 46
-3.570422 9.969617 61.595940 72 45 47
-3.570422 10.102397 61.595940 72 45 47
-3.577845 10.256456 61.723995 72 45 47
-3.577845 10.389512 61.723995 67 41 43
-3.585299 10.544491 61.852589 62 37 38
-3.592784 10.700116 61.981716 58 34 35
-3.607848 10.879152 62.241596 57 34 35
-3.600300 10.990283 62.111385 57 34 35
-3.592784 11.100951 61.981716 58 35 35
-3.585299 11.211157 61.852589 58 34 35
-3.577845 11.320906 61.723995 57 32 33
-3.555668 11.382966 61.341408 56 31 32
-3.555668 11.515197 61.341408 55 31 32
-3.548337 11.623413 61.214931 55 31 32
-3.555668 11.779660 61.341408 56 31 32
-3.570422 11.961318 61.595940 54 30 31
-3.600300 12.195304 62.111385 52 28 29
-3.607848 12.355042 62.241596 50 27 28
-3.607848 12.489215 62.241596 47 26 26
-3.592784 12.570680 61.981716 45 25 25
-3.585299 12.677824 61.852589 43 24 24
-3.592784 12.837903 61.981716 41 24 23
-3.592784 12.971515 61.981716 42 25 23
-3.585299 13.077824 61.852589 45 28 26
-3.577845 13.183691 61.723995 48 30 29
-3.570422 13.289119 61.595940 48 30 30
-3.570422 13.421899 61.595940 46 28 28
-3.555668 13.498669 61.341408 46 26 27
-3.555668 13.630899 61.341408 47 27 27
-3.555668 13.763131 61.341408 48 27 27
-3.548337 13.866713 61.214931 48 27 27
-3.548337 13.998672 61.214931 47 27 26
-3.555668 14.159825 61.341408 46 28 27
-3.555668 14.292057 61.341408 50 31 30
-3.563030 14.454152 61.468410 53 35 34
-3.563030 14.586658 61.468410 52 36 33
-3.570422 14.749701 61.595940 49 34 31
-3.577845 14.913421 61.723995 48 32 30
-3.577845 15.046477 61.723995 49 32 30
-3.577845 15.179533 61.723995 49 32 30
-3.585299 15.344491 61.852589 49 32 30
-3.533765 15.912435 60.963535 49 32 31
-3.504976 15.913148 60.466888 49 33 31
-3.476653 15.913850 59.978268 49 33 31
-3.469644 16.010798 59.857342 48 33 30
-3.441887 16.010712 59.378483 46 32 29
-3.441887 16.138710 59.378483 43 30 27
-3.448784 16.299309 59.497478 41 29 26
-3.448784 16.427567 59.497478 39 27 25
-3.441887 16.522711 59.378483 38 26 24
-3.441887 16.650711 59.378483 37 26 23
-3.441887 16.778711 59.378483 37 26 22
-3.448784 16.940592 59.497478 37 25 22
-3.441887 17.034712 59.378483 36 25 21
-3.428174 17.094334 59.141918 36 25 22
-3.428174 17.221823 59.141918 36 25 22
-3.483691 17.630274 60.099682 36 26 23
-3.490757 17.795853 60.221588 36 26 24
-3.469644 17.817249 59.857342 35 26 24
-3.448784 17.838388 59.497478 34 25 23
-3.435017 17.894920 59.259964 32 25 22
-3.401074 17.844576 58.674393 31 24 22
-3.361217 17.760460 57.986801 30 23 21
-3.361217 17.885460 57.986801 30 22 20
-3.335161 17.870844 57.537292 30 22 20
-3.541036 19.105669 61.088974 30 22 19
-3.541036 19.237356 61.088974 31 22 19
-3.600300 20.362669 62.111385 27 20 16
-3.592784 20.453770 61.981716 26 20 16
-3.841391 22.011953 66.270630 25 20 16
-3.965307 22.869482 68.408394 23 19 16
-3.673932 -13.753092 65.829803 135 84 83
-3.665804 -13.581072 65.684166 141 91 89
-3.665804 -13.439479 65.684166 147 100 96
-3.649655 -13.239305 65.394806 153 108 104
-3.625697 -13.012351 64.965523 160 116 113
-3.609898 -12.816219 64.682442 164 121 117
-3.602051 -12.649227 64.541832 167 124 119
-3.594237 -12.482960 64.401825 169 128 123
-3.586457 -12.317412 64.262428 172 131 125
-3.578711 -12.152580 64.123634 175 134 128
-3.586457 -12.040356 64.262428 178 136 130
-3.586457 -11.901828 64.262428 182 137 132
-3.578711 -11.737893 64.123634 185 137 132
-3.578711 -11.599665 64.123634 187 136 132
-3.570999 -11.436734 63.985435 189 136 133
-3.563319 -11.274505 63.847832 192 137 135
-3.563319 -11.136870 63.847832 190 132 132
-3.548059 -10.952129 63.574394 178 118 119
-3.540477 -10.791975 63.438553 162 100 101
-3.532928 -10.632504 63.303288 153 89 91
-3.532928 -10.496044 63.303288 153 87 90
-3.517926 -10.315594 63.034485 158 88 92
-3.495661 -10.115284 62.635532 165 91 95
-3.473676 -9.917494 62.241596 172 95 98
-3.473676 -9.783322 62.241596 182 99 101
-3.466409 -9.628963 62.111385 189 102 102
-3.459172 -9.475249 61.981716 187 97 96
-3.451965 -9.322176 61.852589 176 83 81
-3.451965 -9.188843 61.852589 166 71 67
-3.451965 -9.055510 61.852589 167 70 65
-3.444789 -8.903626 61.723995 173 76 69
-3.423437 -8.716208 61.341408 179 81 72
-3.402348 -8.531097 60.963535 184 86 74
-3.402348 -8.399681 60.963535 188 90 77
-3.367771 -8.184237 60.343987 192 92 79
-3.347360 -8.005342 59.978268 194 94 79
-3.347360 -7.876050 59.978268 196 95 79
-3.354136 -7.762438 60.099682 197 94 78
-3.360940 -7.648366 60.221588 198 94 76
-3.360940 -7.518549 60.221588 203 98 77
-3.360940 -7.388731 60.221588 210 103 79
-3.360940 -7.258914 60.221588 213 105 77
-3.360940 -7.129097 60.221588 215 105 72
-3.367771 -7.013505 60.343987 215 103 68
-3.367771 -6.883424 60.343987 216 102 65
-3.374630 -6.767097 60.466888 217 100 62
-3.374630 -6.636751 60.466888 217 97 60
-3.374630 -6.506404 60.466888 217 94 58
-3.354136 -6.337337 60.099682 217 93 58
-3.340612 -6.182751 59.857342 218 91 58
-3.340612 -6.053719 59.857342 219 90 58
-3.333890 -5.912766 59.736904 219 89 57
-3.333890 -5.783993 59.736904 218 88 56
-3.327195 -5.643865 59.616951 218 89 55
-3.320528 -5.504298 59.497478 218 89 55
-3.300684 -5.343914 59.141918 218 88 53
-3.268133 -5.164979 58.558662 219 87 52
-3.268133 -5.038747 58.558662 220 88 52
-3.268133 -4.912514 58.558662 221 89 52
-3.294122 -4.824343 59.024338 222 90 51
-3.300684 -4.706463 59.141918 224 91 51
-3.294122 -4.569870 59.024338 224 92 51
-3.294122 -4.442633 59.024338 225 93 51
-3.261699 -4.272923 58.443390 225 93 52
-3.242551 -4.122592 58.100277 225 94 53
-3.242551 -3.997347 58.100277 226 95 54
-3.248909 -3.879695 58.214199 226 95 54
-3.274592 -3.783882 58.674393 227 95 55
-3.307272 -3.693901 59.259964 229 97 57
-3.320528 -3.580450 59.497478 230 97 58
-3.320528 -3.452193 59.497478 230 96 60
-3.320528 -3.323937 59.497478 230 95 60
-3.300684 -3.176583 59.141918 229 94 61
-3.287586 -3.036993 58.907227 228 92 60
-3.274592 -2.898507 58.674393 227 90 59
-3.255291 -2.755687 58.328571 226 89 58
-3.229909 -2.609443 57.873768 226 89 58
-3.204919 -2.465463 57.425999 225 88 58
-3.180314 -2.323694 56.985111 223 88 57
-3.162106 -2.188253 56.658859 221 87 57
-3.156083 -2.062180 56.550938 215 84 54
-3.150082 -1.936587 56.443428 203 76 46
-3.144105 -1.811470 56.336323 199 77 48
-3.150082 -1.693241 56.443428 216 104 76
-3.150082 -1.571568 56.443428 233 132 104
-3.150082 -1.449895 56.443428 224 121 96
-3.144105 -1.325701 56.336323 209 102 79
-3.144105 -1.204259 56.336323 219 113 92
-3.150082 -1.084876 56.443428 239 136 118
-3.150082 -0.963203 56.443428 250 150 134
-3.156083 -0.843132 56.550938 254 160 147
-3.156083 -0.721228 56.550938 254 165 154
-3.162106 -0.600467 56.658859 253 160 150
-3.168152 -0.479244 56.767193 250 150 141
-3.174221 -0.357557 56.875942 250 147 139
-3.174221 -0.234951 56.875942 253 153 145
-3.174221 -0.112346 56.875942 254 165 157
-3.186430 0.010299 57.094696 254 179 171
-3.192569 0.133633 57.204704 254 181 171
-3.192569 0.256947 57.204704 254 165 153
-3.186430 0.379530 57.094696 254 151 137
-3.180314 0.501642 56.985111 253 150 135
-3.180314 0.624483 56.985111 253 169 153
-3.180314 0.747323 56.985111 254 191 176
-3.174221 0.868497 56.875942 254 188 174
-3.168152 0.989207 56.767193 253 161 147
-3.168152 1.111578 56.767193 250 141 127
-3.168152 1.233949 56.767193 250 148 134
-3.174221 1.358919 56.875942 253 168 153
-3.186430 1.487222 57.094696 253 179 162
-3.186430 1.610299 57.094696 250 165 146
-3.186430 1.733376 57.094696 246 148 127
-3.192569 1.860030 57.204704 249 171 150
-3.192569 1.983344 57.204704 253 191 170
-3.198732 2.110725 57.315140 253 176 158
-3.204919 2.238599 57.425999 251 166 150
-3.204919 2.362390 57.425999 245 154 144
-3.204919 2.486181 57.425999 240 145 136
-3.204919 2.609972 57.425999 245 154 145
-3.204919 2.733763 57.425999 250 157 148
-3.198732 2.852038 57.315140 251 146 136
-3.198732 2.975590 57.315140 247 131 120
-3.204919 3.105136 57.425999 245 123 111
-3.211131 3.235185 57.537292 249 131 120
-3.211131 3.359216 57.537292 253 140 128
-3.211131 3.483247 57.537292 252 132 120
-3.211131 3.607278 57.537292 248 121 109
-3.204919 3.724092 57.425999 243 116 104
-3.204919 3.847883 57.425999 241 119 106
-3.204919 3.971674 57.425999 239 124 112
-3.204919 4.095465 57.425999 227 114 105
-3.204919 4.219256 57.425999 225 116 108
-3.204919 4.343047 57.425999 241 160 153
-3.204919 4.466838 57.425999 253 199 191
-3.211131 4.599526 57.537292 254 197 185
-3.211131 4.723557 57.537292 250 175 158
-3.211131 4.847588 57.537292 242 154 131
-3.211131 4.971619 57.537292 242 156 129
-3.217366 5.105545 57.649014 250 175 147
-3.217366 5.229816 57.649014 253 175 150
-3.223625 5.364505 57.761173 250 163 140
-3.223625 5.489018 57.761173 247 158 140
-3.229909 5.624475 57.873768 241 150 136
-3.229909 5.749231 57.873768 230 132 121
-3.229909 5.873987 57.873768 229 126 114
-3.229909 5.998744 57.873768 240 136 123
-3.229909 6.123500 57.873768 247 143 126
-3.229909 6.248256 57.873768 239 135 114
-3.236217 6.385460 57.986801 222 121 96
-3.236217 6.510460 57.986801 218 130 101
-3.236217 6.635460 57.986801 234 174 142
-3.236217 6.760460 57.986801 245 198 165
-3.236217 6.885460 57.986801 235 172 137
-3.236217 7.010460 57.986801 226 145 111
-3.236217 7.135460 57.986801 230 146 113
-3.236217 7.260460 57.986801 232 150 118
-3.248909 7.414423 58.214199 228 147 117
-3.255291 7.554726 58.328571 223 144 115
-3.255291 7.680463 58.328571 219 141 114
-3.261699 7.821566 58.443390 214 138 113
-3.268133 7.963226 58.558662 207 133 110
-3.347360 8.285566 59.978268 196 124 104
-3.354136 8.431893 60.099682 179 112 94
-3.367771 8.596251 60.343987 163 99 85
-3.367771 8.726333 60.343987 152 92 83
-3.354136 8.820558 60.099682 146 91 86
-3.347360 8.932032 59.978268 137 87 84
-3.347360 9.061324 59.978268 121 77 75
-3.354136 9.209222 60.099682 103 65 64
-3.409348 9.492501 61.088974 88 54 54
-3.423437 9.663958 61.341408 78 47 48
-3.423437 9.796189 61.341408 73 45 46
-3.423437 9.928420 61.341408 73 46 47
-3.423437 10.060652 61.341408 73 46 49
-3.430525 10.213986 61.468410 73 46 49
-3.430525 10.346492 61.468410 68 42 44
-3.444789 10.522569 61.723995 64 38 40
-3.451965 10.677824 61.852589 62 38 40
-3.459172 10.833728 61.981716 61 37 39
-3.459172 10.967340 61.981716 61 36 39
-3.451965 11.077824 61.852589 61 36 38
-3.451965 11.211157 61.852589 60 35 37
-3.437642 11.297418 61.595940 59 33 36
-3.423437 11.382966 61.341408 58 32 34
-3.423437 11.515197 61.341408 57 31 34
-3.416378 11.623413 61.214931 57 31 34
-3.423437 11.779660 61.341408 57 32 34
-3.430525 11.936554 61.468410 56 31 33
-3.451965 12.144490 61.852589 53 29 30
-3.459172 12.303456 61.981716 50 28 29
-3.459172 12.437068 61.981716 48 27 27
-3.451965 12.544491 61.852589 46 26 26
-3.451965 12.677824 61.852589 44 26 25
-3.451965 12.811157 61.852589 42 26 24
-3.451965 12.944490 61.852589 43 27 25
-3.451965 13.077824 61.852589 46 30 28
-3.444789 13.183691 61.723995 50 33 32
-3.437642 13.289119 61.595940 50 32 32
-3.430525 13.394111 61.468410 46 27 27
-3.423437 13.498669 61.341408 45 25 25
-3.423437 13.630899 61.341408 49 27 28
-3.423437 13.763131 61.341408 52 30 31
-3.423437 13.895363 61.341408 51 29 31
-3.423437 14.027594 61.341408 50 28 30
-3.423437 14.159825 61.341408 51 29 30
-3.430525 14.321647 61.468410 54 34 34
-3.437642 14.484140 61.595940 57 39 37
-3.437642 14.616920 61.595940 56 38 35
-3.444789 14.780365 61.723995 53 34 32
-3.444789 14.913421 61.723995 52 33 31
-3.451965 15.077824 61.852589 52 34 32
-3.451965 15.211157 61.852589 53 34 32
-3.473676 15.440997 62.241596 53 33 32
-3.402348 15.781017 60.963535 52 32 33
-3.374630 15.782802 60.466888 51 33 33
-3.347360 15.784556 59.978268 50 34 33
-3.340612 15.881765 59.857342 49 34 32
-3.340612 16.010798 59.857342 48 33 30
-3.313887 16.010712 59.378483 45 32 29
-3.313887 16.138710 59.378483 43 30 27
-3.320528 16.299309 59.497478 40 28 25
-3.320528 16.427567 59.497478 39 27 24
-3.300684 16.456882 59.141918 38 26 24
-3.300684 16.584373 59.141918 38 26 23
-3.313887 16.778711 59.378483 38 26 23
-3.313887 16.906712 59.378483 37 25 22
-3.313887 17.034712 59.378483 35 24 20
-3.313887 17.162710 59.378483 35 24 20
-3.313887 17.290710 59.378483 34 24 21
-3.360940 17.666035 60.221588 34 25 22
-3.367771 17.832024 60.343987 34 25 23
-3.354136 17.889383 60.099682 33 25 23
-3.340612 17.946281 59.857342 32 25 22
-3.320528 17.966644 59.497478 30 23 21
-3.300684 17.986763 59.141918 29 22 20
-3.255291 17.865139 58.328571 29 21 19
-3.255291 17.990875 58.328571 29 21 19
-3.430525 19.091833 61.468410 29 20 18
-3.430525 19.224339 61.468410 29 20 18
-3.430525 19.356844 61.468410 29 21 19
-3.782976 22.368391 67.783661 26 19 17
-3.817842 22.722017 68.408394 25 19 17
-3.516431 -13.692372 65.539169 142 89 91
-3.508686 -13.521243 65.394806 146 95 95
-3.508686 -13.380275 65.394806 150 100 100
-3.493297 -13.181238 65.107986 154 105 105
-3.478042 -12.983940 64.823669 160 112 111
-3.470465 -12.816219 64.682442 163 118 115
-3.462920 -12.649227 64.541832 166 120 117
-3.447929 -12.455940 64.262428 167 123 119
-3.440482 -12.290809 64.123634 169 126 120
-3.440482 -12.152580 64.123634 171 128 122
-3.440482 -12.014351 64.123634 174 130 125
-3.440482 -11.876122 64.123634 176 130 127
-3.440482 -11.737893 64.123634 178 129 126
-3.433068 -11.574665 63.985435 180 128 126
-3.425685 -11.412139 63.847832 183 127 127
-3.425685 -11.274505 63.847832 185 126 127
-3.425685 -11.136870 63.847832 182 121 123
-3.411014 -10.952129 63.574394 172 109 112
-3.403725 -10.791975 63.438553 160 96 99
-3.396468 -10.632504 63.303288 155 89 92
-3.396468 -10.496044 63.303288 156 88 91
-3.382045 -10.315594 63.034485 159 88 91
-3.353565 -10.093988 62.503666 163 89 91
-3.339504 -9.917494 62.241596 170 92 94
-3.339504 -9.783322 62.241596 182 99 99
-3.332517 -9.628963 62.111385 190 102 101
-3.325560 -9.475249 61.981716 187 96 94
-3.318632 -9.322176 61.852589 175 81 78
-3.318632 -9.188843 61.852589 166 69 66
-3.318632 -9.055510 61.852589 166 68 64
-3.311733 -8.903626 61.723995 172 74 68
-3.291205 -8.716208 61.341408 178 79 71
-3.277661 -8.548652 61.088974 182 83 73
-3.270931 -8.399681 60.963535 186 87 75
-3.244284 -8.200906 60.466888 190 90 77
-3.218067 -8.005342 59.978268 193 93 78
-3.218067 -7.876050 59.978268 195 92 77
-3.224582 -7.762438 60.099682 195 91 75
-3.231122 -7.648366 60.221588 195 90 73
-3.237690 -7.533830 60.343987 198 91 72
-3.237690 -7.403749 60.343987 202 93 71
-3.231122 -7.258914 60.221588 206 96 70
-3.237690 -7.143587 60.343987 210 98 68
-3.237690 -7.013505 60.343987 213 99 66
-3.237690 -6.883424 60.343987 214 98 64
-3.237690 -6.753343 60.343987 216 97 62
-3.244284 -6.636751 60.466888 216 95 60
-3.237690 -6.493180 60.343987 216 93 58
-3.218067 -6.324534 59.978268 217 91 58
-3.211579 -6.182751 59.857342 217 90 58
-3.198681 -6.029407 59.616951 217 89 58
-3.198681 -5.900893 59.616951 217 88 58
-3.198681 -5.772378 59.616951 217 88 57
-3.192271 -5.632554 59.497478 215 87 55
-3.185887 -5.493289 59.378483 215 87 54
-3.173194 -5.343914 59.141918 216 87 54
-3.148109 -5.175187 58.674393 217 87 53
-3.148109 -5.048705 58.674393 218 88 53
-3.148109 -4.922223 58.674393 220 89 53
-3.166885 -4.824343 59.024338 222 90 53
-3.179528 -4.715858 59.259964 223 91 53
-3.179528 -4.588113 59.259964 225 92 53
-3.179528 -4.460368 59.259964 226 93 53
-3.135715 -4.272923 58.443390 226 93 53
-3.123418 -4.130675 58.214199 226 94 54
-3.123418 -4.005185 58.214199 226 95 55
-3.129555 -3.887317 58.328571 226 94 55
-3.160602 -3.798898 58.907227 227 94 56
-3.185887 -3.701289 59.378483 228 95 58
-3.192271 -3.580450 59.497478 229 94 59
-3.192271 -3.452193 59.497478 229 93 60
-3.192271 -3.323937 59.497478 228 92 61
-3.160602 -3.163977 58.907227 228 90 60
-3.148109 -3.024989 58.674393 227 89 59
-3.129555 -2.881423 58.328571 225 87 59
-3.111217 -2.739540 57.986801 224 85 58
-3.081128 -2.589254 57.425999 222 84 56
-3.057473 -2.446535 56.985111 220 83 54
-3.045781 -2.314808 56.767193 216 82 52
-3.034178 -2.184085 56.550938 212 80 49
-3.028409 -2.058259 56.443428 205 76 44
-3.022663 -1.932912 56.336323 197 71 39
-3.022663 -1.811470 56.336323 205 89 56
-3.022663 -1.690028 56.336323 227 127 93
-3.028409 -1.571568 56.443428 228 134 102
-3.028409 -1.449895 56.443428 208 105 77
-3.028409 -1.328222 56.443428 208 105 78
-3.028409 -1.206549 56.443428 230 133 107
-3.028409 -1.084876 56.443428 243 143 119
-3.028409 -0.963203 56.443428 247 144 124
-3.034178 -0.843132 56.550938 252 156 138
-3.034178 -0.721228 56.550938 254 164 149
-3.039968 -0.600467 56.658859 252 158 147
-3.045781 -0.479244 56.767193 247 143 134
-3.045781 -0.356873 56.767193 246 137 129
-3.045781 -0.234502 56.767193 250 147 140
-3.045781 -0.112131 56.767193 254 162 154
-3.051616 0.010260 56.875942 254 176 167
-3.057473 0.133120 56.985111 254 177 166
-3.063353 0.256453 57.094696 254 163 150
-3.057473 0.378801 56.985111 254 148 134
-3.057473 0.501642 56.985111 252 145 129
-3.057473 0.624483 56.985111 253 160 145
-3.057473 0.747323 56.985111 254 178 164
-3.051616 0.868497 56.875942 254 177 163
-3.051616 0.991102 56.875942 253 160 148
-3.051616 1.113708 56.875942 251 145 134
-3.051616 1.236313 56.875942 252 149 137
-3.051616 1.358919 56.875942 254 170 156
-3.057473 1.484367 56.985111 254 182 165
-3.057473 1.607208 56.985111 249 163 144
-3.063353 1.733376 57.094696 243 139 117
-3.069255 1.860030 57.204704 247 154 130
-3.069255 1.983344 57.204704 252 177 152
-3.075180 2.110725 57.315140 252 170 148
-3.081128 2.238599 57.425999 250 164 145
-3.081128 2.362390 57.425999 239 149 135
-3.081128 2.486181 57.425999 231 131 120
-3.081128 2.609972 57.425999 237 133 123
-3.081128 2.733763 57.425999 245 140 130
-3.081128 2.857554 57.425999 249 141 129
-3.081128 2.981345 57.425999 248 133 120
-3.081128 3.105136 57.425999 247 129 115
-3.087100 3.235185 57.537292 251 140 125
-3.087100 3.359216 57.537292 254 151 136
-3.093094 3.490010 57.649014 254 151 135
-3.087100 3.607278 57.537292 251 143 128
-3.081128 3.724092 57.425999 245 127 114
-3.081128 3.847883 57.425999 240 114 103
-3.081128 3.971674 57.425999 234 107 99
-3.087100 4.103402 57.537292 220 94 91
-3.081128 4.219256 57.425999 214 98 98
-3.081128 4.343047 57.425999 232 146 147
-3.081128 4.466838 57.425999 250 191 190
-3.087100 4.599526 57.537292 253 188 180
-3.087100 4.723557 57.537292 245 158 142
-3.087100 4.847588 57.537292 235 139 115
-3.087100 4.971619 57.537292 238 153 125
-3.093094 5.105545 57.649014 249 181 149
-3.093094 5.229816 57.649014 253 180 149
-3.099112 5.364505 57.761173 247 160 130
-3.099112 5.489018 57.761173 239 144 118
-3.105153 5.624475 57.873768 235 136 115
-3.105153 5.749231 57.873768 233 132 114
-3.105153 5.873987 57.873768 236 132 116
-3.105153 5.998744 57.873768 241 136 118
-3.105153 6.123500 57.873768 242 138 117
-3.111217 6.260460 57.986801 236 132 107
-3.111217 6.385460 57.986801 222 121 90
-3.111217 6.510460 57.986801 220 133 98
-3.111217 6.635460 57.986801 236 179 140
-3.111217 6.760460 57.986801 244 198 158
-3.111217 6.885460 57.986801 230 164 124
-3.111217 7.010460 57.986801 219 137 98
-3.111217 7.135460 57.986801 225 141 105
-3.111217 7.260460 57.986801 230 147 114
-3.117306 7.399913 58.100277 228 146 115
-3.123418 7.539913 58.214199 224 144 115
-3.129555 7.680463 58.328571 220 141 115
-3.135715 7.821566 58.443390 214 136 112
-3.141900 7.963226 58.558662 206 131 109
-3.205117 8.252224 59.736904 196 123 104
-3.218067 8.414860 59.978268 182 113 97
-3.224582 8.561448 60.099682 169 102 90
-3.224582 8.691003 60.099682 160 97 89
-3.218067 8.802738 59.978268 156 97 93
-3.211579 8.914023 59.857342 149 96 94
-3.211579 9.043056 59.857342 137 89 87
-3.211579 9.172088 59.857342 118 77 75
-3.250905 9.415011 60.590290 98 62 60
-3.277661 9.624188 61.088974 82 50 49
-3.284419 9.775990 61.214931 74 45 45
-3.284419 9.907949 61.214931 74 46 47
-3.291205 10.060652 61.341408 75 48 50
-3.291205 10.192883 61.341408 74 47 50
-3.298019 10.346492 61.468410 70 43 47
-3.298019 10.478997 61.468410 66 40 43
-3.318632 10.677824 61.852589 65 40 43
-3.318632 10.811157 61.852589 65 40 43
-3.318632 10.944490 61.852589 64 39 43
-3.318632 11.077824 61.852589 63 38 41
-3.318632 11.211157 61.852589 62 36 40
-3.304862 11.297418 61.595940 60 35 38
-3.291205 11.382966 61.341408 59 34 37
-3.291205 11.515197 61.341408 58 33 36
-3.284419 11.623413 61.214931 57 33 36
-3.291205 11.779660 61.341408 57 33 35
-3.298019 11.936554 61.468410 55 32 34
-3.318632 12.144490 61.852589 52 31 32
-3.318632 12.277823 61.852589 50 30 30
-3.318632 12.411158 61.852589 49 29 29
-3.318632 12.544491 61.852589 47 28 28
-3.311733 12.651466 61.723995 45 28 27
-3.311733 12.784523 61.723995 44 27 26
-3.318632 12.944490 61.852589 44 27 26
-3.311733 13.050635 61.723995 47 30 29
-3.298019 13.129101 61.468410 50 32 32
-3.298019 13.261605 61.468410 50 31 31
-3.284419 13.338878 61.214931 46 26 27
-3.291205 13.498669 61.341408 47 25 26
-3.291205 13.630899 61.341408 54 32 33
-3.291205 13.763131 61.341408 62 38 39
-3.291205 13.895363 61.341408 61 37 39
-3.291205 14.027594 61.341408 60 35 37
-3.298019 14.189142 61.468410 62 37 39
-3.304862 14.351360 61.595940 63 40 40
-3.304862 14.484140 61.595940 62 40 40
-3.311733 14.647308 61.723995 60 39 37
-3.311733 14.780365 61.723995 58 36 34
-3.318632 14.944490 61.852589 56 36 33
-3.318632 15.077824 61.852589 57 36 34
-3.325560 15.242913 61.981716 56 36 34
-3.339504 15.440997 62.241596 55 35 34
-3.360640 15.673746 62.635532 55 33 34
-3.382045 15.909460 63.034485 54 32 34
-3.360640 15.943788 62.635532 52 32 34
-3.284419 15.714135 61.214931 52 32 34
-3.264228 15.748679 60.838612 52 32 35
-3.244284 15.782802 60.466888 52 33 35
-3.218067 15.784556 59.978268 51 34 34
-3.211579 15.881765 59.857342 50 34 33
-3.211579 16.010798 59.857342 48 34 32
-3.185887 16.010712 59.378483 46 33 30
-3.185887 16.138710 59.378483 43 31 28
-3.192271 16.299309 59.497478 41 29 26
-3.192271 16.427567 59.497478 39 27 24
-3.173194 16.456882 59.141918 38 26 23
-3.173194 16.584373 59.141918 38 26 23
-3.185887 16.778711 59.378483 38 26 23
-3.185887 16.906712 59.378483 37 25 22
-3.185887 17.034712 59.378483 35 24 20
-3.179528 17.128454 59.259964 34 24 20
-3.185887 17.290710 59.378483 33 24 20
-3.237690 17.701942 60.343987 33 24 21
-3.237690 17.832024 60.343987 32 24 22
-3.231122 17.925671 60.221588 31 24 21
-3.211579 17.946281 59.857342 30 24 21
-3.211579 18.075314 59.857342 28 22 20
-3.192271 18.094900 59.497478 28 21 18
-3.160602 18.042372 58.907227 27 20 17
-3.160602 18.169355 58.907227 27 19 17
-3.304862 19.131443 61.595940 27 19 17
-3.311733 19.304274 61.723995 28 19 18
-3.304862 19.397003 61.595940 28 20 18
-3.338304 -13.403154 64.823669 151 96 100
-3.331031 -13.234520 64.682442 152 99 101
-3.323790 -13.066619 64.541832 154 102 104
-3.323790 -12.927488 64.541832 160 108 108
-3.302253 -12.705496 64.123634 165 114 113
-3.302253 -12.567266 64.123634 164 115 113
-3.295136 -12.402251 63.985435 163 115 112
-3.295136 -12.264320 63.985435 165 118 113
-3.295136 -12.126390 63.985435 167 120 116
-3.295136 -11.988458 63.985435 169 122 119
-3.295136 -11.850527 63.985435 171 122 120
-3.295136 -11.712596 63.985435 172 120 120
-3.295136 -11.574665 63.985435 173 118 119
-3.288050 -11.412139 63.847832 174 116 119
-3.288050 -11.274505 63.847832 174 113 117
-3.280994 -11.112971 63.710819 172 109 113
-3.273969 -10.952129 63.574394 167 102 106
-3.266973 -10.791975 63.438553 161 95 99
-3.260007 -10.632504 63.303288 159 92 95
-3.253071 -10.473712 63.168602 161 92 94
-3.246164 -10.315594 63.034485 164 93 94
-3.218828 -10.093988 62.503666 168 94 94
-3.205332 -9.917494 62.241596 176 97 98
-3.198626 -9.762855 62.111385 186 102 103
-3.198626 -9.628963 62.111385 191 102 101
-3.191949 -9.475249 61.981716 185 93 91
-3.185299 -9.322176 61.852589 173 79 77
-3.185299 -9.188843 61.852589 167 71 67
-3.185299 -9.055510 61.852589 168 70 66
-3.178676 -8.903626 61.723995 173 74 68
-3.158974 -8.716208 61.341408 177 78 70
-3.145974 -8.548652 61.088974 181 83 73
-3.145974 -8.416965 61.088974 186 87 75
-3.113938 -8.200906 60.466888 190 91 78
-3.088774 -8.005342 59.978268 195 95 80
-3.088774 -7.876050 59.978268 197 95 80
-3.095027 -7.762438 60.099682 197 92 78
-3.107609 -7.663912 60.343987 197 90 74
-3.107609 -7.533830 60.343987 198 88 71
-3.107609 -7.403749 60.343987 200 88 67
-3.107609 -7.273668 60.343987 203 90 66
-3.107609 -7.143587 60.343987 207 92 65
-3.107609 -7.013505 60.343987 210 93 63
-3.107609 -6.883424 60.343987 212 93 62
-3.107609 -6.753343 60.343987 214 93 61
-3.107609 -6.623261 60.343987 215 93 60
-3.101305 -6.480009 60.221588 216 92 58
-3.088774 -6.324534 59.978268 216 91 58
-3.076345 -6.170311 59.736904 216 89 59
-3.064015 -6.017323 59.497478 216 89 59
-3.057887 -5.877289 59.378483 216 88 59
-3.051783 -5.737813 59.259964 216 88 59
-3.051783 -5.610069 59.259964 214 87 57
-3.039649 -5.460526 59.024338 214 87 56
-3.045704 -5.343914 59.141918 214 87 56
-3.039649 -5.206053 59.024338 216 89 55
-3.039649 -5.078816 59.024338 218 90 55
-3.039649 -4.951580 59.024338 219 91 55
-3.045704 -4.833953 59.141918 221 91 55
-3.051783 -4.715858 59.259964 223 92 55
-3.051783 -4.588113 59.259964 225 93 55
-3.051783 -4.460368 59.259964 226 94 55
-3.009731 -4.272923 58.443390 226 94 55
-3.003818 -4.138791 58.328571 226 93 55
-3.003818 -4.013054 58.328571 226 93 56
-3.009731 -3.894969 58.443390 226 93 57
-3.039649 -3.806450 59.024338 227 93 58
-3.057887 -3.701289 59.378483 228 93 59
-3.064015 -3.580450 59.497478 228 92 61
-3.064015 -3.452193 59.497478 227 90 61
-3.057887 -3.317289 59.378483 226 89 61
-3.021627 -3.151471 58.674393 226 87 61
-3.003818 -3.007160 58.328571 226 86 61
-2.986217 -2.864540 57.986801 225 84 60
-2.957337 -2.713046 57.425999 223 83 59
-2.934632 -2.569375 56.985111 219 81 56
-2.923410 -2.437179 56.767193 215 79 53
-2.912273 -2.305990 56.550938 211 78 49
-2.906736 -2.179933 56.443428 206 76 45
-2.901221 -2.054354 56.336323 199 71 40
-2.901221 -1.932912 56.336323 197 73 42
-2.901221 -1.811470 56.336323 215 105 73
-2.901221 -1.690028 56.336323 234 141 108
-2.901221 -1.568585 56.336323 217 121 88
-2.901221 -1.447143 56.336323 193 87 58
-2.906736 -1.328222 56.443428 209 117 88
-2.906736 -1.206549 56.443428 237 160 131
-2.906736 -1.084876 56.443428 242 153 126
-2.912273 -0.965037 56.550938 243 141 116
-2.912273 -0.843132 56.550938 251 151 131
-2.912273 -0.721228 56.550938 254 161 144
-2.917831 -0.600467 56.658859 253 158 145
-2.917831 -0.478329 56.658859 250 147 136
-2.917831 -0.356192 56.658859 248 140 131
-2.917831 -0.234054 56.658859 251 148 139
-2.917831 -0.111917 56.658859 254 163 153
-2.923410 0.010240 56.767193 254 173 162
-2.929010 0.132865 56.875942 254 169 156
-2.929010 0.255470 56.875942 254 157 142
-2.929010 0.378076 56.875942 254 148 131
-2.929010 0.500681 56.875942 254 146 128
-2.929010 0.623286 56.875942 254 150 132
-2.929010 0.745892 56.875942 254 154 137
-2.929010 0.868497 56.875942 254 158 141
-2.929010 0.991102 56.875942 254 161 145
-2.929010 1.113708 56.875942 254 157 141
-2.923410 1.233949 56.767193 253 150 135
-2.923410 1.356320 56.767193 254 160 144
-2.934632 1.484367 56.985111 254 168 151
-2.934632 1.607208 56.985111 252 156 136
-2.934632 1.730049 56.985111 250 141 118
-2.945941 1.860030 57.204704 249 142 118
-2.945941 1.983344 57.204704 248 147 123
-2.951628 2.110725 57.315140 246 143 121
-2.951628 2.234277 57.315140 240 138 119
-2.957337 2.362390 57.425999 232 130 115
-2.957337 2.486181 57.425999 233 131 119
-2.957337 2.609972 57.425999 243 149 138
-2.957337 2.733763 57.425999 250 170 158
-2.957337 2.857554 57.425999 251 175 162
-2.957337 2.981345 57.425999 250 157 143
-2.963068 3.111154 57.537292 249 143 128
-2.963068 3.235185 57.537292 252 152 136
-2.968822 3.365739 57.649014 254 169 153
-2.968822 3.490010 57.649014 254 183 166
-2.968822 3.614282 57.649014 254 184 168
-2.963068 3.731309 57.537292 249 157 142
-2.963068 3.855340 57.537292 241 123 111
-2.963068 3.979371 57.537292 234 104 97
-2.963068 4.103402 57.537292 219 88 87
-2.963068 4.227433 57.537292 205 81 84
-2.957337 4.343047 57.425999 218 115 118
-2.957337 4.466838 57.425999 243 163 162
-2.957337 4.590630 57.425999 250 168 160
-2.963068 4.723557 57.537292 239 140 124
-2.963068 4.847588 57.537292 231 129 106
-2.963068 4.971619 57.537292 239 156 126
-2.963068 5.095650 57.537292 251 184 151
-2.968822 5.229816 57.649014 252 178 144
-2.968822 5.354088 57.649014 244 155 121
-2.974598 5.489018 57.761173 237 139 109
-2.980397 5.624475 57.873768 236 136 109
-2.980397 5.749231 57.873768 238 137 113
-2.980397 5.873987 57.873768 240 137 116
-2.980397 5.998744 57.873768 241 137 116
-2.980397 6.123500 57.873768 240 136 114
-2.986217 6.260460 57.986801 233 131 104
-2.986217 6.385460 57.986801 222 123 89
-2.986217 6.510460 57.986801 225 139 99
-2.986217 6.635460 57.986801 241 183 140
-2.986217 6.760460 57.986801 245 196 152
-2.986217 6.885460 57.986801 228 160 116
-2.986217 7.010460 57.986801 217 134 93
-2.986217 7.135460 57.986801 222 138 100
-2.986217 7.260460 57.986801 228 144 110
-2.992061 7.399913 58.100277 228 145 113
-2.997928 7.539913 58.214199 225 144 115
-3.003818 7.680463 58.328571 221 142 115
-3.009731 7.821566 58.443390 215 137 112
-3.015667 7.963226 58.558662 208 130 108
-3.070167 8.235654 59.616951 198 123 104
-3.082547 8.397894 59.857342 187 114 99
-3.088774 8.544152 59.978268 175 105 93
-3.088774 8.673446 59.978268 166 100 93
-3.082547 8.784991 59.857342 164 101 97
-3.082547 8.914023 59.857342 160 102 100
-3.082547 9.043056 59.857342 149 98 95
-3.082547 9.172088 59.857342 132 87 84
-3.107609 9.376739 60.343987 109 71 68
-3.120293 9.545624 60.590290 88 55 53
-3.139514 9.735843 60.963535 76 46 46
-3.145974 9.887563 61.088974 74 46 47
-3.152461 10.039908 61.214931 77 49 51
-3.152461 10.171867 61.214931 76 49 52
-3.158974 10.325114 61.341408 72 46 50
-3.165514 10.478997 61.468410 69 44 48
-3.178676 10.655624 61.723995 69 44 47
-3.185299 10.811157 61.852589 68 43 47
-3.185299 10.944490 61.852589 66 42 47
-3.185299 11.077824 61.852589 65 41 45
-3.185299 11.211157 61.852589 63 39 44
-3.172082 11.297418 61.595940 61 37 41
-3.158974 11.382966 61.341408 59 35 39
-3.145974 11.467810 61.088974 58 34 38
-3.145974 11.599497 61.088974 57 33 36
-3.152461 11.755372 61.214931 56 32 34
-3.165514 11.936554 61.468410 54 32 33
-3.185299 12.144490 61.852589 52 31 32
-3.185299 12.277823 61.852589 50 30 31
-3.185299 12.411158 61.852589 49 30 30
-3.178676 12.518411 61.723995 47 29 28
-3.172082 12.625218 61.595940 45 29 28
-3.172082 12.757998 61.595940 44 28 27
-3.172082 12.890779 61.595940 44 28 27
-3.172082 13.023559 61.595940 46 28 28
-3.152461 13.074960 61.214931 48 29 29
-3.152461 13.206919 61.214931 48 27 28
-3.145974 13.311431 61.088974 47 26 26
-3.152461 13.470836 61.214931 50 28 28
-3.152461 13.602795 61.214931 60 37 38
-3.158974 13.763131 61.341408 70 45 46
-3.158974 13.895363 61.341408 71 45 47
-3.158974 14.027594 61.341408 73 46 48
-3.172082 14.218580 61.595940 81 55 56
-3.172082 14.351360 61.595940 79 53 54
-3.178676 14.514253 61.723995 70 45 45
-3.185299 14.677824 61.852589 65 41 38
-3.185299 14.811157 61.852589 63 40 37
-3.185299 14.944490 61.852589 62 39 36
-3.191949 15.109302 61.981716 61 39 36
-3.198626 15.274802 62.111385 60 38 36
-3.218828 15.506012 62.503666 58 36 35
-3.232438 15.706882 62.767956 56 34 35
-3.225619 15.808766 62.635532 54 32 34
-3.178676 15.711758 61.723995 52 31 34
-3.158974 15.746602 61.341408 51 31 34
-3.133081 15.748679 60.838612 51 32 35
