ply
format ascii 1.0
element vertex 1233
property float x
property float y
property float z
property uchar red
property uchar green
property uchar blue
end_header
20.027435 -1.733609 73.670578 37 27 25
20.027435 -1.574800 73.670578 35 26 24
19.977863 -1.412486 73.488220 33 25 23
19.879450 -1.247893 73.126213 31 24 22
19.637608 -1.076994 72.236603 31 23 21
19.637608 -0.921276 72.236603 30 23 21
21.813667 -0.850391 80.241196 30 23 21
19.589943 -0.453021 72.061264 29 23 21
19.589943 -0.297681 72.061264 28 23 20
18.554153 0.159438 68.251129 31 24 23
18.596905 0.307271 68.408394 32 23 22
18.596905 0.454736 68.408394 33 22 20
18.639854 0.603592 68.566376 33 21 16
18.683001 0.753138 68.725098 32 17 11
18.726349 0.903377 68.884552 34 17 10
18.726349 1.051869 68.884552 63 44 32
18.726349 1.200361 68.884552 138 122 99
18.769899 1.351990 69.044746 220 209 183
18.813652 1.504325 69.205696 242 234 210
18.813652 1.653509 69.205696 182 171 148
18.857609 1.806905 69.367386 84 69 51
18.857609 1.956438 69.367386 35 21 8
18.857609 2.105971 69.367386 42 28 17
18.857609 2.255503 69.367386 52 37 30
18.857609 2.405036 69.367386 55 38 36
18.813652 2.548614 69.205696 58 38 38
18.769899 2.691524 69.044746 65 42 44
18.769899 2.840362 69.044746 79 55 57
18.683001 2.975360 68.725098 92 67 69
18.639854 3.116294 68.566376 95 71 71
18.596905 3.256579 68.408394 89 66 65
18.554153 3.396219 68.251129 82 62 59
18.554153 3.543346 68.251129 77 60 55
18.554153 3.690472 68.251129 70 57 52
18.511599 3.828797 68.094589 62 51 47
18.469236 3.966489 67.938766 52 43 40
18.427071 4.103551 67.783661 45 38 35
18.385096 4.239990 67.629250 41 35 33
18.219090 4.346175 67.018608 38 33 31
18.219090 4.490644 67.018608 35 30 29
18.178055 4.624674 66.867661 31 27 26
18.219090 4.779583 67.018608 29 24 23
18.260309 4.935194 67.170235 28 24 23
18.427071 5.126382 67.783661 28 23 22
18.596905 5.321095 68.408394 27 23 21
18.683001 5.493878 68.725098 26 22 20
18.813652 5.681481 69.205696 25 21 20
19.355051 5.998455 71.197220 25 21 20
19.355051 6.151932 71.197220 24 21 19
19.355051 6.305409 71.197220 25 22 19
19.448330 6.490013 71.540344 26 23 19
19.448330 6.644230 71.540344 27 23 19
19.401579 6.782104 71.368370 27 23 19
17.975628 7.138876 66.123032 27 23 19
17.895912 7.249125 65.829803 27 22 19
17.777658 7.342193 65.394806 27 21 19
17.777658 7.483162 65.394806 28 21 19
17.777658 7.624131 65.394806 29 22 21
17.777658 7.765100 65.394806 31 24 24
17.777658 7.906069 65.394806 34 27 27
17.777658 8.047038 65.394806 35 28 28
17.777658 8.188007 65.394806 35 27 28
17.777658 8.328977 65.394806 34 26 27
17.738586 8.451331 65.251083 33 27 27
17.738586 8.591990 65.251083 33 27 27
17.699686 8.713499 65.107986 34 28 28
17.622395 8.815187 64.823669 35 29 28
17.622395 8.954925 64.823669 37 30 29
17.622395 9.094663 64.823669 39 31 30
17.622395 9.234401 64.823669 42 32 30
17.622395 9.374139 64.823669 44 34 32
17.622395 9.513877 64.823669 46 35 33
17.622395 9.653615 64.823669 46 36 33
17.622395 9.793352 64.823669 46 35 33
17.622395 9.933090 64.823669 45 35 32
17.622395 10.072828 64.823669 45 34 32
17.699686 10.257359 65.107986 44 34 31
17.699686 10.397709 65.107986 45 33 30
17.622395 10.492043 64.823669 46 33 31
17.622395 10.631781 64.823669 48 34 32
17.584002 10.748051 64.682442 51 36 35
17.545774 10.863816 64.541832 55 38 38
17.545774 11.002947 64.541832 59 41 42
17.507715 11.117908 64.401825 64 44 45
17.432087 11.208111 64.123634 67 46 48
17.394518 11.321887 63.985435 68 46 47
17.319864 11.410634 63.710819 66 45 46
17.282776 11.523245 63.574394 64 44 44
17.282776 11.660290 63.574394 63 44 44
17.245848 11.772127 63.438553 64 46 46
17.245848 11.908879 63.438553 66 49 49
17.245848 12.045631 63.438553 68 51 52
17.245848 12.182384 63.438553 67 51 51
17.245848 12.319136 63.438553 66 48 49
17.245848 12.455888 63.438553 65 46 45
17.245848 12.592640 63.438553 64 44 42
17.245848 12.729392 63.438553 68 47 44
17.245848 12.866144 63.438553 81 58 55
17.209076 12.975172 63.303288 99 76 72
17.209076 13.111632 63.303288 108 85 80
17.209076 13.248093 63.303288 101 79 74
17.172461 13.356075 63.168602 87 67 61
17.136002 13.463600 63.034485 78 60 54
17.099697 13.570668 62.900936 74 59 53
17.099697 13.706262 62.900936 73 59 55
17.063545 13.812591 62.767956 76 64 61
17.063545 13.947897 62.767956 84 73 72
17.063545 14.083204 62.767956 86 75 76
17.063545 14.218511 62.767956 76 65 68
17.136002 14.414767 63.034485 68 56 61
17.136002 14.550649 63.034485 68 57 61
17.172461 14.717777 63.168602 71 61 65
17.209076 14.885619 63.303288 73 64 67
17.172461 14.990118 63.168602 72 64 65
17.136002 15.094173 63.034485 69 61 60
17.063545 15.165656 62.767956 68 61 57
17.027546 15.268682 62.635532 82 75 69
16.991697 15.371275 62.503666 119 112 103
16.920454 15.440997 62.241596 164 155 144
16.920454 15.575169 62.241596 177 167 155
16.920454 15.709341 62.241596 150 140 128
21.295959 -12.216347 77.720528 17 15 11
21.521315 -12.176309 78.542969 18 16 12
21.693485 -12.103052 79.171310 18 16 12
21.521315 -11.837684 78.542969 19 16 13
21.635790 -11.730437 78.960747 19 16 14
21.464529 -11.468719 78.335732 19 16 14
21.408043 -11.270117 78.129585 19 15 14
21.351854 -11.072557 77.924522 19 15 13
21.240356 -10.847636 77.517601 19 14 13
21.185043 -10.652720 77.315735 19 14 12
21.020819 -10.404766 76.716385 19 15 12
20.966640 -10.213001 76.518669 20 16 14
20.966640 -10.048053 76.518669 21 18 15
20.912743 -9.857698 76.321960 22 19 16
20.912743 -9.693173 76.321960 23 20 17
20.859119 -9.504217 76.126259 22 19 17
20.543072 -9.198597 74.972832 23 19 17
20.439840 -8.991570 74.596085 23 19 17
20.337641 -8.786612 74.223106 24 20 17
20.186245 -8.562393 73.670578 24 20 17
19.793325 -8.240011 72.236603 24 20 17
19.649895 -8.025711 71.713142 24 20 17
19.649895 -7.871122 71.713142 25 20 17
19.649895 -7.716533 71.713142 25 20 17
19.555424 -7.525588 71.368370 25 21 18
19.555424 -7.371742 71.368370 26 22 19
19.697474 -7.270326 71.886787 27 22 20
19.987854 -7.220257 72.946541 27 22 20
20.136278 -7.115457 73.488220 28 23 21
20.388613 -7.044222 74.409126 29 24 22
20.647352 -6.971179 75.353409 29 24 22
20.647352 -6.808743 75.353409 29 23 22
20.699890 -6.663218 75.545143 29 23 22
20.805771 -6.533617 75.931564 29 23 22
20.912743 -6.402685 76.321960 29 24 21
20.859119 -6.222166 76.126259 30 23 21
20.859119 -6.058063 76.126259 30 24 20
20.859119 -5.893960 76.126259 30 24 20
20.859119 -5.729858 76.126259 29 24 19
20.805771 -5.551520 75.931564 28 23 18
20.699890 -5.360419 75.545143 28 23 18
20.699890 -5.197569 75.545143 28 22 18
20.699890 -5.034719 75.545143 29 22 18
20.752695 -4.884297 75.737862 30 21 19
20.752695 -4.721032 75.737862 30 21 20
20.595079 -4.523151 75.162636 30 21 20
20.543072 -4.350112 74.972832 30 21 20
20.491327 -4.177946 74.783989 30 21 19
20.439840 -4.006645 74.596085 29 21 19
20.439840 -3.845840 74.596085 30 21 19
20.543072 -3.703648 74.972832 30 21 19
20.647352 -3.560011 75.353409 31 22 19
20.805771 -3.423643 75.931564 32 22 20
20.805771 -3.259960 75.931564 32 23 20
20.859119 -3.104217 76.126259 32 23 21
20.595079 -2.254796 75.162636 36 26 22
20.337641 -2.066611 74.223106 37 27 22
20.337641 -1.906611 74.223106 36 27 23
20.186245 -1.733609 73.670578 35 26 23
20.136278 -1.570902 73.488220 34 25 23
20.086559 -1.408999 73.306770 32 25 23
19.890114 -1.238740 72.589836 31 24 22
19.793325 -1.076994 72.236603 30 23 21
19.555424 -0.910203 71.368370 30 24 21
19.555424 -0.756357 71.368370 30 24 22
19.555424 -0.602511 71.368370 30 24 22
19.555424 -0.448665 71.368370 30 24 21
19.745283 -0.297681 72.061264 27 22 20
18.787661 0.160174 68.566376 31 24 24
18.744370 0.307271 68.408394 33 23 24
18.787661 0.455786 68.566376 34 21 23
18.787661 0.603592 68.566376 35 20 18
18.831150 0.753138 68.725098 35 15 11
18.874842 0.903377 68.884552 40 19 12
18.874842 1.051869 68.884552 85 65 50
18.874842 1.200361 68.884552 172 155 132
18.918736 1.351990 69.044746 237 227 200
18.918736 1.500827 69.044746 245 239 212
18.962835 1.653509 69.205696 186 177 151
18.962835 1.802693 69.205696 88 73 53
19.007141 1.956438 69.367386 35 19 7
19.007141 2.105971 69.367386 40 26 15
19.007141 2.255503 69.367386 54 39 31
19.007141 2.405036 69.367386 59 42 38
18.962835 2.548614 69.205696 61 41 40
18.918736 2.691524 69.044746 66 45 46
18.918736 2.840362 69.044746 79 56 58
18.831150 2.975360 68.725098 91 68 69
18.787661 3.116294 68.566376 94 71 70
18.701279 3.249093 68.251129 89 68 66
18.701279 3.396219 68.251129 81 62 59
18.701279 3.543346 68.251129 73 57 52
18.701279 3.690472 68.251129 63 50 45
18.701279 3.837599 68.251129 56 46 42
18.573189 3.957433 67.783661 52 43 40
18.573189 4.103551 67.783661 46 40 36
18.488766 4.230353 67.475548 41 36 33
18.363560 4.346175 67.018608 38 34 32
18.363560 4.490644 67.018608 36 31 30
18.363560 4.635114 67.018608 32 27 27
18.488766 4.812171 67.475548 28 24 23
18.573189 4.980264 67.783661 28 23 22
18.701279 5.161736 68.251129 27 24 22
18.831150 5.345730 68.725098 26 23 21
18.874842 5.506625 68.884552 25 22 20
19.277386 5.775724 70.353653 25 22 19
19.555424 6.012874 71.368370 24 21 19
19.555424 6.166720 71.368370 24 21 19
19.555424 6.320566 71.368370 25 21 19
19.602547 6.490013 71.540344 26 22 19
19.602547 6.644230 71.540344 27 23 19
19.602547 6.798447 71.540344 27 24 19
17.800999 6.873863 64.965523 27 23 19
17.997913 7.091495 65.684166 27 22 19
17.918627 7.201223 65.394806 27 21 19
17.840036 7.309990 65.107986 28 20 18
17.800999 7.434038 64.965523 28 21 19
17.879246 7.607375 65.251083 30 23 21
17.879246 7.748034 65.251083 32 25 25
17.918627 7.906069 65.394806 35 28 28
17.918627 8.047038 65.394806 38 29 29
17.918627 8.188007 65.394806 37 29 29
17.918627 8.328977 65.394806 35 27 27
17.918627 8.469946 65.394806 33 26 26
17.918627 8.610915 65.394806 33 26 26
17.918627 8.751884 65.394806 34 27 26
17.918627 8.892854 65.394806 35 28 27
17.879246 9.013968 65.251083 36 29 28
17.840036 9.134551 65.107986 38 30 28
17.762133 9.234401 64.823669 40 30 28
17.762133 9.374139 64.823669 41 31 29
17.762133 9.513877 64.823669 43 32 29
17.723434 9.632583 64.682442 43 33 30
17.762133 9.793352 64.823669 44 34 31
17.723434 9.911449 64.682442 44 34 31
17.684906 10.029034 64.541832 43 34 31
17.723434 10.190317 64.682442 43 33 31
17.723434 10.329750 64.682442 43 33 30
17.684906 10.446424 64.541832 43 32 29
17.646544 10.562593 64.401825 46 33 31
17.646544 10.701422 64.401825 49 35 33
17.646544 10.840250 64.401825 53 37 36
17.608347 10.955315 64.262428 57 40 40
17.570316 11.069882 64.123634 62 43 44
17.532450 11.183956 63.985435 65 45 46
17.532450 11.321887 63.985435 66 45 47
17.457203 11.410634 63.710819 64 44 45
17.419821 11.523245 63.574394 62 43 43
17.382599 11.635375 63.438553 62 43 43
17.382599 11.772127 63.438553 64 45 46
17.382599 11.908879 63.438553 66 49 50
17.382599 12.045631 63.438553 69 52 53
17.382599 12.182384 63.438553 70 52 54
17.382599 12.319136 63.438553 68 49 51
17.382599 12.455888 63.438553 66 46 46
17.382599 12.592640 63.438553 64 43 43
17.419821 12.756650 63.574394 67 45 44
17.419821 12.893695 63.574394 77 55 53
17.345537 12.975172 63.303288 92 70 67
17.345537 13.111632 63.303288 103 80 76
17.308632 13.219905 63.168602 99 78 73
17.271883 13.327719 63.034485 88 68 62
17.235289 13.435075 62.900936 79 60 54
17.198851 13.541978 62.767956 74 58 52
17.162567 13.648429 62.635532 72 57 52
17.162567 13.783450 62.635532 74 62 58
17.162567 13.918471 62.635532 83 72 69
17.162567 14.053493 62.635532 88 76 75
17.198851 14.218511 62.767956 82 71 71
17.198851 14.353817 62.767956 76 65 67
17.271883 14.550649 63.034485 73 62 65
17.308632 14.717777 63.168602 72 61 63
17.308632 14.853948 63.168602 71 61 62
17.308632 14.990118 63.168602 70 61 61
17.271883 15.094173 63.034485 68 60 60
17.198851 15.165656 62.767956 67 60 58
17.162567 15.268682 62.635532 74 67 62
17.126434 15.371275 62.503666 97 90 83
17.054626 15.440997 62.241596 136 128 119
17.054626 15.575169 62.241596 161 153 142
21.131590 -11.862486 76.518669 18 15 12
21.576466 -11.943801 78.129585 18 15 13
21.576466 -11.775380 78.129585 18 15 13
21.633394 -11.637585 78.335732 18 15 14
21.576466 -11.438539 78.129585 19 16 15
21.519835 -11.240537 77.924522 18 15 14
21.463499 -11.043572 77.720528 19 14 13
21.351709 -10.819386 77.315735 19 15 13
21.351709 -10.652720 77.315735 18 15 12
21.186193 -10.404766 76.716385 19 16 12
21.131590 -10.213001 76.518669 20 17 14
21.023222 -9.996525 76.126259 21 18 15
20.969454 -9.807275 75.931564 22 19 16
20.969454 -9.643592 75.931564 23 19 17
20.915960 -9.455726 75.737862 23 19 17
20.652536 -9.175427 74.783989 23 19 17
20.497643 -8.946611 74.223106 23 19 17
20.345055 -8.721202 73.670578 23 20 17
20.294695 -8.541200 73.488220 24 20 17
19.949043 -8.240011 72.236603 24 20 17
19.756763 -8.006372 71.540344 24 20 17
19.709270 -7.833280 71.368370 25 20 17
19.709270 -7.679434 71.368370 25 20 17
19.614967 -7.489580 71.026894 26 21 17
19.429045 -7.266930 70.353653 27 22 19
19.429045 -7.115272 70.353653 27 22 20
19.949043 -7.149987 72.236603 28 22 20
20.194721 -7.080405 73.126213 28 22 21
20.862740 -7.151767 75.545143 28 22 21
20.969454 -7.024666 75.931564 28 22 21
20.969454 -6.860983 75.931564 28 22 21
20.969454 -6.697300 75.931564 28 22 21
21.077267 -6.567210 76.321960 28 23 21
21.131590 -6.419187 76.518669 28 23 20
21.077267 -6.238161 76.321960 29 23 20
21.023222 -6.058063 76.126259 29 24 20
21.023222 -5.893960 76.126259 28 24 20
20.969454 -5.715203 75.931564 28 23 19
20.809788 -5.509250 75.353409 27 23 18
20.757105 -5.333277 75.162636 26 22 17
20.757105 -5.171252 75.162636 26 22 17
20.757105 -5.009227 75.162636 27 21 17
20.757105 -4.847201 75.162636 28 21 17
20.757105 -4.685176 75.162636 28 20 18
20.704689 -4.511729 74.972832 28 20 19
20.652536 -4.339155 74.783989 28 20 19
20.549015 -4.157004 74.409126 27 20 19
20.549015 -3.996603 74.409126 28 20 18
20.600645 -3.845840 74.596085 28 20 18
20.704689 -3.703648 74.972832 29 21 19
20.969454 -3.587326 75.931564 30 22 20
21.023222 -3.432422 76.126259 31 22 20
21.023222 -3.268319 76.126259 31 22 20
21.296251 -3.144531 77.114914 31 22 20
20.497643 -2.066611 74.223106 35 25 20
20.497643 -1.906611 74.223106 35 25 21
20.345055 -1.733609 73.670578 34 25 22
20.244585 -1.567024 73.306770 32 24 22
20.145102 -1.402075 72.946541 31 24 22
19.949043 -1.232712 72.236603 30 24 22
19.949043 -1.076994 72.236603 30 24 22
19.709270 -0.910203 71.368370 31 24 22
19.662006 -0.754543 71.197220 31 24 22
19.614967 -0.599628 71.026894 31 24 22
19.662006 -0.447589 71.197220 30 24 22
19.709270 -0.294819 71.368370 28 23 21
18.935465 0.160174 68.566376 30 23 26
18.935465 0.307980 68.566376 32 23 26
18.935465 0.455786 68.566376 34 22 25
18.935465 0.603592 68.566376 35 20 20
18.979298 0.753138 68.725098 34 15 11
19.023333 0.903377 68.884552 43 20 14
19.023333 1.051869 68.884552 100 77 64
19.023333 1.200361 68.884552 194 176 154
19.067574 1.351990 69.044746 247 238 212
19.067574 1.500827 69.044746 247 241 212
19.112020 1.653509 69.205696 198 188 156
19.112020 1.802693 69.205696 106 90 65
19.156675 1.956438 69.367386 45 27 12
19.156675 2.105971 69.367386 42 25 14
19.156675 2.255503 69.367386 57 42 31
19.112020 2.399430 69.205696 63 47 40
19.112020 2.548614 69.205696 62 45 42
19.067574 2.691524 69.044746 67 48 47
19.023333 2.833771 68.884552 77 57 58
18.979298 2.975360 68.725098 86 65 66
18.935465 3.116294 68.566376 87 67 66
18.848406 3.249093 68.251129 83 65 62
18.848406 3.396219 68.251129 77 61 57
18.848406 3.543346 68.251129 68 54 50
18.848406 3.690472 68.251129 58 46 41
18.848406 3.837599 68.251129 53 43 39
18.676666 3.948418 67.629250 51 43 39
18.634220 4.084899 67.475548 47 41 38
18.549902 4.211212 67.170235 42 37 35
18.549902 4.356008 67.170235 39 35 33
18.508028 4.490644 67.018608 36 32 31
18.676666 4.677347 67.629250 31 27 27
18.762144 4.845207 67.938766 28 25 23
18.848406 5.014610 68.251129 27 24 22
18.979298 5.197582 68.725098 26 24 21
19.023333 5.358133 68.884552 25 23 20
19.112020 5.532297 69.205696 24 22 19
19.521563 5.803227 70.688675 24 21 19
19.614967 5.984104 71.026894 24 21 19
19.709270 6.166720 71.368370 24 21 19
19.709270 6.320566 71.368370 25 22 19
19.756763 6.490013 71.540344 26 22 19
19.756763 6.644230 71.540344 27 23 20
19.756763 6.798447 71.540344 27 24 20
19.521563 6.869894 70.688675 28 24 20
17.481997 6.425065 63.303288 27 23 20
17.670382 6.632232 63.985435 27 23 20
17.941044 6.873863 64.965523 27 22 20
18.059597 7.060255 65.394806 27 22 20
17.941044 7.153951 64.965523 28 21 19
17.901871 7.278069 64.823669 28 20 19
17.901871 7.417807 64.823669 29 21 20
17.901871 7.557545 64.823669 31 22 22
18.019905 7.748034 65.251083 33 24 24
18.059597 7.906069 65.394806 36 27 28
18.059597 8.047038 65.394806 39 30 30
18.099463 8.206082 65.539169 38 30 29
18.059597 8.328977 65.394806 36 28 26
18.099463 8.488644 65.539169 34 26 25
18.099463 8.629924 65.539169 33 26 25
18.139505 8.790609 65.684166 34 26 25
18.099463 8.912484 65.539169 35 27 26
18.099463 9.053765 65.539169 36 28 26
18.019905 9.154628 65.251083 38 29 27
17.980387 9.274902 65.107986 39 29 28
17.901871 9.374139 64.823669 40 30 28
17.862869 9.493149 64.682442 41 31 29
17.862869 9.632583 64.682442 42 32 30
17.862869 9.772017 64.682442 42 32 30
17.824036 9.889903 64.541832 42 33 30
17.824036 10.029034 64.541832 42 34 32
17.824036 10.168164 64.541832 42 34 32
17.824036 10.307295 64.541832 42 33 30
17.785372 10.423764 64.401825 41 32 30
17.746876 10.539730 64.262428 43 32 30
17.746876 10.678259 64.262428 47 34 33
17.746876 10.816787 64.262428 51 36 36
17.708546 10.931653 64.123634 55 38 39
17.708546 11.069882 64.123634 60 41 42
17.670382 11.183956 63.985435 63 43 44
17.632380 11.297539 63.847832 65 45 46
17.556866 11.386200 63.574394 64 44 45
17.519352 11.498623 63.438553 62 42 44
17.481997 11.610566 63.303288 62 43 45
17.519352 11.772127 63.438553 64 46 48
17.519352 11.908879 63.438553 66 49 50
17.519352 12.045631 63.438553 69 52 54
17.556866 12.208470 63.574394 71 53 55
17.556866 12.345515 63.574394 69 50 52
17.556866 12.482560 63.574394 65 45 47
17.556866 12.619605 63.574394 63 43 44
17.556866 12.756650 63.574394 66 44 44
17.556866 12.893695 63.574394 73 51 50
17.519352 13.002896 63.438553 85 64 61
17.481997 13.111632 63.303288 96 74 71
17.444801 13.219905 63.168602 96 75 71
17.444801 13.356075 63.168602 88 68 63
17.370882 13.435075 62.900936 79 61 55
17.297588 13.513408 62.635532 74 58 52
17.297588 13.648429 62.635532 71 56 51
17.297588 13.783450 62.635532 72 58 54
17.297588 13.918471 62.635532 77 64 62
17.297588 14.053493 62.635532 82 69 67
17.334158 14.218511 62.767956 82 70 69
17.407764 14.414767 63.034485 82 70 70
17.444801 14.581608 63.168602 79 68 68
17.444801 14.717777 63.168602 75 63 63
17.481997 14.885619 63.303288 70 60 60
17.444801 14.990118 63.168602 68 58 59
17.407764 15.094173 63.034485 67 58 58
17.370882 15.197787 62.900936 67 59 58
17.297588 15.268682 62.635532 70 63 60
17.261171 15.371275 62.503666 84 76 71
17.188799 15.440997 62.241596 108 100 94
17.188799 15.575169 62.241596 130 122 115
20.813745 -11.593563 74.783989 17 15 11
21.296537 -11.697537 76.518669 18 15 12
21.462484 -11.622454 77.114914 18 15 13
21.631039 -11.546190 77.720528 18 15 14
21.631039 -11.378651 77.720528 19 15 14
21.631039 -11.211111 77.720528 19 15 14
21.574560 -11.014738 77.517601 19 15 14
21.518377 -10.819386 77.315735 19 16 14
21.406883 -10.597525 76.915138 19 16 13
21.351568 -10.404766 76.716385 19 16 13
21.241791 -10.186747 76.321960 20 17 14
21.133137 -9.970958 75.931564 21 18 15
21.079226 -9.782256 75.737862 22 19 17
21.025589 -9.594516 75.545143 23 20 18
20.919130 -9.383910 75.162636 24 20 18
20.709415 -9.129435 74.409126 24 20 18
20.606127 -8.924300 74.038010 24 20 18
20.453110 -8.699615 73.488220 24 20 17
20.352356 -8.499125 73.126213 24 20 17
20.104761 -8.240011 72.236603 25 20 17
19.959074 -8.025711 71.713142 25 20 17
19.863117 -7.833280 71.368370 26 20 17
19.863117 -7.679434 71.368370 26 20 17
19.720900 -7.471705 70.857384 27 21 17
19.351421 -7.181837 69.529839 27 21 19
19.351421 -7.031954 69.529839 28 21 19
20.104761 -7.149987 72.236603 28 21 20
21.462484 -7.466609 77.114914 28 21 20
21.462484 -7.300375 77.114914 28 21 20
21.462484 -7.134141 77.114914 28 21 20
21.351568 -6.931898 76.716385 28 21 20
21.351568 -6.766523 76.716385 27 22 20
21.631039 -6.687551 77.720528 28 22 20
21.574560 -6.502988 77.517601 28 22 19
21.351568 -6.270399 76.716385 28 23 19
21.241791 -6.073637 76.321960 28 23 19
21.133137 -5.878886 75.931564 28 23 19
20.972225 -5.671687 75.353409 27 23 19
20.919130 -5.495303 75.162636 26 22 18
20.813745 -5.306409 74.783989 26 22 17
20.761448 -5.132273 74.596085 25 21 16
20.709415 -4.959009 74.409126 26 21 16
20.709415 -4.798608 74.409126 26 20 17
20.813745 -4.661573 74.783989 26 20 17
20.813745 -4.500364 74.783989 26 20 18
20.709415 -4.317405 74.409126 26 19 18
20.709415 -4.157004 74.409126 26 19 18
20.709415 -3.996603 74.409126 26 20 18
20.866304 -3.865264 74.972832 28 21 19
21.241791 -3.770294 76.321960 29 22 20
22.034819 -3.740386 79.171310 31 22 21
22.034819 -3.569719 79.171310 31 23 21
21.462484 -3.310765 77.114914 31 23 20
22.515141 -3.298759 80.897118 31 22 19
20.972225 -2.098083 75.353409 33 23 19
20.657642 -1.906611 74.223106 34 24 20
20.606127 -1.742256 74.038010 33 24 20
20.453110 -1.570902 73.488220 31 23 20
20.302351 -1.402075 72.946541 30 23 20
20.104761 -1.232712 72.236603 30 23 21
20.104761 -1.076994 72.236603 30 24 22
19.863117 -0.910203 71.368370 31 24 22
19.815483 -0.754543 71.197220 31 24 22
19.768078 -0.599628 71.026894 31 25 22
19.768078 -0.446518 71.026894 30 25 22
19.127445 0.012397 68.725098 28 24 24
19.083271 0.160174 68.566376 28 24 26
19.083271 0.307980 68.566376 29 24 26
19.083271 0.455786 68.566376 31 23 25
19.127445 0.604990 68.725098 32 20 20
19.127445 0.753138 68.725098 32 15 11
19.171825 0.903377 68.884552 45 25 17
19.171825 1.051869 68.884552 109 87 74
19.171825 1.200361 68.884552 203 186 166
19.216412 1.351990 69.044746 250 241 217
19.216412 1.500827 69.044746 251 244 215
19.261204 1.653509 69.205696 220 210 177
19.261204 1.802693 69.205696 146 128 99
19.306208 1.956438 69.367386 71 50 30
19.306208 2.105971 69.367386 47 29 14
19.306208 2.255503 69.367386 58 43 30
19.261204 2.399430 69.205696 65 50 41
19.261204 2.548614 69.205696 65 49 45
19.216412 2.691524 69.044746 68 52 51
19.171825 2.833771 68.884552 75 59 59
19.127445 2.975360 68.725098 80 63 64
19.083271 3.116294 68.566376 80 63 63
18.995533 3.249093 68.251129 77 61 60
18.995533 3.396219 68.251129 73 59 55
18.995533 3.543346 68.251129 66 53 49
18.995533 3.690472 68.251129 57 45 41
18.995533 3.837599 68.251129 53 43 40
18.822453 3.948418 67.629250 52 44 41
18.737089 4.075636 67.322548 48 41 39
18.694698 4.211212 67.170235 43 38 36
18.737089 4.365885 67.322548 39 35 33
18.779675 4.521263 67.475548 35 31 30
18.908596 4.698754 67.938766 31 28 26
18.995533 4.867484 68.251129 28 26 23
19.083271 5.037773 68.566376 27 25 21
19.127445 5.197582 68.725098 25 24 20
19.216412 5.370594 69.044746 24 22 19
19.261204 5.532297 69.205696 23 21 18
19.534412 5.762070 70.187332 23 21 18
19.720900 5.969822 70.857384 24 21 19
19.768078 6.137214 71.026894 25 21 19
19.815483 6.305409 71.197220 25 22 19
19.863117 6.474412 71.368370 26 23 20
19.863117 6.628258 71.368370 27 23 21
19.863117 6.782104 71.368370 28 24 21
19.863117 6.935951 71.368370 28 24 21
17.770014 6.480334 63.847832 27 23 21
17.770014 6.617969 63.847832 26 22 20
17.808311 6.770163 63.985435 27 22 20
18.002302 6.983345 64.682442 27 22 20
18.002302 7.122779 64.682442 28 21 19
18.002302 7.262212 64.682442 28 20 19
18.002302 7.401646 64.682442 29 21 20
18.041609 7.557545 64.823669 30 22 21
18.160564 7.748034 65.251083 33 24 24
18.200565 7.906069 65.394806 36 27 27
18.240744 8.064802 65.539169 38 29 30
18.240744 8.206082 65.539169 38 30 29
18.200565 8.328977 65.394806 35 28 26
18.240744 8.488644 65.539169 33 26 24
18.240744 8.629924 65.539169 33 26 24
18.281099 8.790609 65.684166 33 26 24
18.281099 8.932202 65.684166 35 27 25
18.240744 9.053765 65.539169 36 28 26
18.240744 9.195045 65.539169 37 28 27
18.160564 9.295287 65.251083 39 29 28
18.041609 9.374139 64.823669 40 29 28
18.002302 9.493149 64.682442 40 30 29
18.002302 9.632583 64.682442 40 31 29
18.002302 9.772017 64.682442 41 32 30
17.963167 9.889903 64.541832 41 33 31
17.963167 10.029034 64.541832 42 35 32
17.963167 10.168164 64.541832 42 35 32
17.963167 10.307295 64.541832 42 34 32
17.885405 10.401202 64.262428 41 32 31
17.885405 10.539730 64.262428 42 31 30
17.885405 10.678259 64.262428 44 33 32
17.885405 10.816787 64.262428 48 35 35
17.846775 10.931653 64.123634 53 37 38
17.808311 11.046024 63.985435 58 40 41
17.808311 11.183956 63.985435 62 43 45
17.770014 11.297539 63.847832 65 44 47
17.656103 11.361871 63.438553 65 44 47
17.656103 11.498623 63.438553 63 43 46
17.656103 11.635375 63.438553 62 43 46
17.656103 11.772127 63.438553 63 45 48
17.656103 11.908879 63.438553 64 47 50
17.693911 12.071425 63.574394 67 50 52
17.731882 12.234669 63.710819 69 51 54
17.731882 12.372007 63.710819 68 49 52
17.731882 12.509347 63.710819 65 45 47
17.770014 12.673882 63.847832 62 43 43
17.770014 12.811517 63.847832 63 43 43
17.731882 12.921364 63.710819 68 47 47
17.693911 13.030740 63.574394 77 57 56
17.656103 13.139648 63.438553 86 66 65
17.656103 13.276401 63.438553 89 70 68
17.618458 13.384553 63.303288 85 66 63
17.543644 13.463600 63.034485 78 61 57
17.506475 13.570668 62.900936 73 57 53
17.469465 13.677284 62.767956 70 54 51
17.432610 13.783450 62.635532 69 54 52
17.432610 13.918471 62.635532 71 57 55
17.432610 14.053493 62.635532 74 60 59
17.506475 14.248634 62.900936 77 63 63
17.543644 14.414767 63.034485 80 66 66
17.580971 14.581608 63.168602 81 68 67
17.618458 14.749159 63.303288 77 65 65
17.618458 14.885619 63.303288 72 61 60
17.618458 15.022079 63.303288 68 57 58
17.580971 15.126288 63.168602 65 55 56
17.543644 15.230054 63.034485 65 56 56
17.506475 15.333381 62.900936 68 59 59
17.432610 15.403704 62.635532 77 68 67
17.359364 15.473435 62.372356 90 81 79
21.406315 -11.667467 76.321960 17 14 12
21.516943 -11.562389 76.716385 18 15 13
21.685043 -11.486053 77.315735 18 15 13
21.741663 -11.348942 77.517601 19 16 13
21.741663 -11.181840 77.517601 19 16 14
21.685043 -10.986053 77.315735 19 16 14
21.572685 -10.763328 76.915138 19 16 14
21.516943 -10.570141 76.716385 19 17 14
21.461487 -10.377950 76.518669 20 17 15
21.351427 -10.160627 76.126259 21 18 15
21.242491 -9.945521 75.737862 22 18 16
21.081156 -9.707961 75.162636 23 19 17
21.081156 -9.545936 75.162636 24 20 18
20.922253 -9.313177 74.596085 24 20 18
20.817642 -9.106611 74.223106 25 21 19
20.662672 -8.880012 73.670578 24 21 18
20.560635 -8.678135 73.306770 24 20 18
20.509993 -8.499125 73.126213 25 20 18
20.260479 -8.240011 72.236603 25 20 17
20.162365 -8.045144 71.886787 26 20 17
20.113663 -7.871122 71.713142 26 20 17
20.016964 -7.679434 71.368370 27 20 17
19.873644 -7.471705 70.857384 28 20 18
19.501303 -7.181837 69.529839 28 21 19
19.455740 -7.015524 69.367386 28 21 20
21.913307 -7.733275 78.129585 29 21 20
22.566549 -7.790365 80.458649 29 21 20
22.205484 -7.495052 79.171310 28 21 20
21.741663 -7.171396 77.517601 28 21 20
21.741663 -7.004294 77.517601 28 21 20
21.741663 -6.837192 77.517601 27 21 19
22.029251 -6.589007 78.542969 28 22 19
21.741663 -6.335886 77.517601 28 22 18
21.516943 -6.105025 76.716385 28 23 18
21.188438 -5.848969 75.545143 28 23 18
21.134661 -5.671687 75.353409 27 22 18
20.974955 -5.467618 74.783989 26 22 18
20.922253 -5.293077 74.596085 25 22 17
20.869816 -5.119410 74.409126 25 21 16
20.817642 -4.946611 74.223106 25 20 16
20.714071 -4.762797 73.853836 25 20 16
20.817642 -4.626611 74.223106 25 20 17
20.817642 -4.466611 74.223106 25 20 17
20.817642 -4.306612 74.223106 25 19 18
20.869816 -4.157004 74.409126 25 19 18
22.876530 -3.853419 81.563850 30 22 21
22.689528 -3.647533 80.897118 31 23 21
22.689528 -3.473146 80.897118 31 23 20
22.876530 -3.325947 81.563850 31 23 19
22.939550 -3.158800 81.788544 32 23 19
21.855791 -2.169671 77.924522 31 22 18
21.134661 -1.935646 75.353409 32 23 19
20.869816 -1.750989 74.409126 31 23 19
20.817642 -1.586611 74.223106 30 22 18
20.560635 -1.408999 73.306770 29 22 18
20.359552 -1.238740 72.589836 29 22 20
20.260479 -1.076994 72.236603 29 23 21
20.211302 -0.919040 72.061264 30 24 22
20.113663 -0.760011 71.713142 31 24 22
19.921188 -0.599628 71.026894 31 25 22
19.275595 0.012397 68.725098 27 25 24
19.275595 0.160545 68.725098 27 25 27
19.275595 0.308693 68.725098 27 24 27
19.231077 0.455786 68.566376 29 24 27
19.275595 0.604990 68.725098 30 21 22
19.275595 0.753138 68.725098 30 16 13
19.275595 0.901286 68.725098 50 32 24
19.320316 1.051869 68.884552 122 101 87
19.320316 1.200361 68.884552 211 196 178
19.365248 1.351990 69.044746 252 245 222
19.365248 1.500827 69.044746 253 248 220
19.410389 1.653509 69.205696 241 233 201
19.455740 1.806905 69.367386 192 178 146
19.455740 1.956438 69.367386 112 93 68
19.455740 2.105971 69.367386 61 42 24
19.455740 2.255503 69.367386 57 41 27
19.455740 2.405036 69.367386 64 51 40
19.410389 2.548614 69.205696 66 53 49
19.410389 2.697798 69.205696 69 56 56
19.365248 2.840362 69.044746 75 62 62
19.275595 2.975360 68.725098 77 64 65
19.275595 3.123508 68.725098 76 63 64
19.186766 3.256579 68.408394 74 61 61
19.186766 3.404045 68.408394 71 59 57
19.186766 3.551510 68.408394 65 54 51
19.186766 3.698976 68.408394 59 47 44
19.142658 3.837599 68.251129 54 45 42
18.968239 3.948418 67.629250 52 44 41
18.882215 4.075636 67.322548 47 40 38
18.839495 4.211212 67.170235 42 37 35
18.925129 4.375808 67.475548 38 33 32
19.011545 4.541907 67.783661 34 30 29
19.142658 4.720357 68.251129 30 27 25
19.231077 4.889966 68.566376 28 25 22
19.275595 5.049434 68.725098 27 25 21
19.275595 5.197582 68.725098 25 24 19
19.320316 5.358133 68.884552 24 22 18
19.365248 5.519431 69.044746 22 21 17
19.501303 5.708092 69.529839 23 21 18
19.685713 5.913370 70.187332 24 21 19
19.685713 6.064670 70.187332 25 21 19
19.779232 6.245500 70.520767 26 22 20
19.921188 6.443434 71.026894 26 23 20
19.921188 6.596544 71.026894 27 23 21
19.921188 6.749654 71.026894 28 24 22
17.754919 6.425065 63.303288 27 23 21
17.567631 6.492311 62.635532 27 22 21
17.754919 6.697986 63.303288 27 22 21
17.946243 6.908093 63.985435 28 22 20
18.023932 7.076527 64.262428 28 21 19
18.102297 7.246425 64.541832 28 20 19
18.141735 7.401646 64.682442 29 20 20
18.181347 7.557545 64.823669 30 21 22
18.301224 7.748034 65.251083 32 23 24
18.341534 7.906069 65.394806 34 26 26
18.382023 8.064802 65.539169 35 28 28
18.382023 8.206082 65.539169 35 29 27
18.341534 8.328977 65.394806 34 27 26
18.341534 8.469946 65.394806 33 26 25
18.382023 8.629924 65.539169 33 26 23
18.382023 8.771204 65.539169 33 26 24
18.422691 8.932202 65.684166 34 27 24
18.422691 9.073795 65.684166 35 27 25
18.382023 9.195045 65.539169 36 27 26
18.341534 9.315761 65.394806 38 28 27
18.181347 9.374139 64.823669 39 29 27
18.181347 9.513877 64.823669 39 29 28
18.141735 9.632583 64.682442 40 31 29
18.141735 9.772017 64.682442 41 32 30
18.141735 9.911449 64.682442 41 33 31
18.102297 10.029034 64.541832 42 35 32
18.102297 10.168164 64.541832 42 35 32
18.102297 10.307295 64.541832 42 34 32
18.023932 10.401202 64.262428 41 32 31
17.985004 10.516967 64.123634 40 30 30
17.985004 10.655195 64.123634 43 31 31
18.023932 10.816787 64.262428 48 33 34
18.023932 10.955315 64.262428 53 36 38
17.985004 11.069882 64.123634 57 39 41
17.946243 11.183956 63.985435 61 41 44
17.907648 11.297539 63.847832 64 44 47
17.869221 11.410634 63.710819 65 45 48
17.792856 11.498623 63.438553 64 44 48
17.792856 11.635375 63.438553 62 43 47
17.830956 11.797335 63.574394 62 44 48
17.869221 11.959991 63.710819 63 45 48
17.907648 12.123345 63.847832 64 47 50
17.907648 12.260980 63.847832 65 47 50
17.907648 12.398614 63.847832 65 47 49
17.907648 12.536248 63.847832 63 45 46
17.946243 12.701197 63.985435 62 42 43
17.946243 12.839128 63.985435 61 41 42
17.907648 12.949152 63.847832 64 44 45
17.869221 13.058702 63.710819 70 50 51
17.830956 13.167785 63.574394 76 58 58
17.792856 13.276401 63.438553 80 62 62
17.792856 13.413153 63.438553 79 61 60
17.754919 13.521014 63.303288 74 57 55
17.679525 13.599481 63.034485 70 53 51
17.679525 13.735362 63.034485 67 51 49
17.604771 13.812591 62.767956 66 50 49
17.604771 13.947897 62.767956 66 51 50
17.604771 14.083204 62.767956 68 53 53
17.679525 14.278887 63.034485 70 56 56
17.679525 14.414767 63.034485 74 59 59
17.717142 14.581608 63.168602 78 64 64
17.754919 14.749159 63.303288 78 65 64
17.754919 14.885619 63.303288 74 62 61
17.754919 15.022079 63.303288 69 57 58
17.717142 15.126288 63.168602 65 53 55
17.717142 15.262459 63.168602 63 52 54
17.679525 15.365935 63.034485 65 55 57
17.642069 15.468973 62.900936 72 62 64
21.794952 -11.788687 77.114914 18 15 12
21.794952 -11.622454 77.114914 18 16 13
21.851709 -11.486053 77.315735 18 16 13
21.851709 -11.319386 77.315735 19 16 13
21.851709 -11.152720 77.315735 19 16 14
21.738489 -10.929131 76.915138 19 16 14
21.738489 -10.763328 76.915138 19 16 14
21.570839 -10.515796 76.321960 19 17 14
21.570839 -10.351272 76.321960 20 17 15
21.460503 -10.134641 75.931564 21 18 16
21.297098 -9.895037 75.353409 22 18 17
21.189537 -9.683446 74.972832 23 19 18
21.083057 -9.473981 74.596085 24 20 19
21.030216 -9.289836 74.409126 25 21 19
20.977642 -9.106611 74.223106 25 21 19
20.769941 -8.858031 73.488220 24 21 18
20.718658 -8.678135 73.306770 24 20 18
20.667627 -8.499125 73.126213 25 20 17
20.465992 -8.260109 72.412788 25 19 17
20.416197 -8.084293 72.236603 26 19 18
20.317327 -7.890181 71.886787 26 19 18
20.268253 -7.716533 71.713142 27 20 18
20.026388 -7.471705 70.857384 28 20 19
19.651186 -7.181837 69.529839 29 21 19
19.651186 -7.031954 69.529839 29 21 20
23.115858 -8.095440 81.788544 29 21 20
23.438705 -8.029734 82.930847 29 21 20
22.739990 -7.616923 80.458649 29 21 20
22.376150 -7.324386 79.171310 28 21 20
21.966116 -7.022630 77.720528 28 21 20
21.966116 -6.855091 77.720528 27 21 19
22.198563 -6.589007 78.542969 28 22 18
21.966116 -6.352473 77.720528 28 22 18
21.851709 -6.152720 77.315735 28 22 17
21.515530 -5.893960 76.126259 27 22 17
21.297098 -5.671687 75.353409 27 22 17
21.083057 -5.453881 74.596085 26 22 17
21.030216 -5.279811 74.409126 25 21 17
20.977642 -5.106611 74.223106 25 21 17
20.769941 -4.897635 73.488220 24 20 17
20.616846 -4.704286 72.946541 24 20 17
20.873276 -4.603593 73.853836 25 20 17
20.977642 -4.466611 74.223106 24 20 18
20.977642 -4.306612 74.223106 25 19 18
23.179714 -3.697913 82.014481 31 22 20
23.115858 -3.511417 81.788544 31 23 20
23.179714 -3.344322 82.014481 31 23 20
23.115858 -3.158800 81.788544 31 23 19
22.617403 -2.400659 80.024910 31 22 17
22.139992 -2.181120 78.335732 30 22 18
21.966116 -1.996452 77.720528 30 22 18
21.682318 -1.805283 76.716385 30 21 18
21.083057 -1.594584 74.596085 28 21 18
20.977642 -1.426611 74.223106 28 21 18
20.873276 -1.260310 73.853836 28 22 18
20.516031 -1.082260 72.589836 29 22 19
20.873276 -0.941902 73.853836 29 23 20
21.851709 -0.819387 77.315735 30 23 21
21.515530 -0.642678 76.126259 30 24 21
19.423742 0.012397 68.725098 26 25 24
19.423742 0.160545 68.725098 25 25 25
19.423742 0.308693 68.725098 25 25 25
19.378883 0.455786 68.566376 27 25 25
19.423742 0.604990 68.725098 28 23 21
19.423742 0.753138 68.725098 30 21 15
19.423742 0.901286 68.725098 60 46 36
19.423742 1.049434 68.725098 139 122 108
19.468809 1.200361 68.884552 222 209 194
19.468809 1.348853 68.884552 253 249 231
19.514086 1.500827 69.044746 254 251 227
19.559572 1.653509 69.205696 251 244 218
19.559572 1.802693 69.205696 226 216 190
19.605272 1.956438 69.367386 156 140 117
19.605272 2.105971 69.367386 79 60 42
19.605272 2.255503 69.367386 55 39 26
19.605272 2.405036 69.367386 63 50 41
19.605272 2.554569 69.367386 67 56 53
19.559572 2.697798 69.205696 71 60 61
19.514086 2.840362 69.044746 75 64 65
19.468809 2.982263 68.884552 76 66 67
19.423742 3.123508 68.725098 74 63 65
19.378883 3.264100 68.566376 73 63 64
19.334232 3.404045 68.408394 73 63 63
19.334232 3.551510 68.408394 69 59 58
19.334232 3.698976 68.408394 61 51 50
19.334232 3.846441 68.408394 55 46 45
19.114025 3.948418 67.629250 50 43 41
19.070583 4.084899 67.475548 45 39 37
19.027340 4.220761 67.322548 40 35 33
19.070583 4.375808 67.475548 36 31 30
19.157663 4.541907 67.783661 32 28 27
19.289785 4.720357 68.251129 30 26 24
19.378883 4.889966 68.566376 28 25 22
19.423742 5.049434 68.725098 27 24 20
19.423742 5.197582 68.725098 26 24 19
19.423742 5.345730 68.725098 25 23 18
19.468809 5.506625 68.884552 24 22 17
19.514086 5.668269 69.044746 24 22 18
19.559572 5.830666 69.205696 25 22 19
19.559572 5.979850 69.205696 26 22 19
19.605272 6.143354 69.367386 26 22 20
19.790228 6.352253 70.021797 27 23 21
19.837013 6.518571 70.187332 27 24 22
20.074299 6.749654 71.026894 28 24 22
17.702652 6.357290 62.635532 28 23 23
17.702652 6.492311 62.635532 28 22 23
17.702652 6.627332 62.635532 29 22 23
17.815407 6.805426 63.034485 28 22 22
18.123232 7.061243 64.123634 28 22 21
18.123232 7.199472 64.123634 29 21 21
18.321085 7.417807 64.823669 30 21 22
18.441883 7.607375 65.251083 31 22 23
18.441883 7.748034 65.251083 32 24 25
18.482504 7.906069 65.394806 33 26 27
18.523304 8.064802 65.539169 34 28 27
18.523304 8.206082 65.539169 34 28 27
18.441883 8.310672 65.251083 33 27 26
18.441883 8.451331 65.251083 33 26 25
18.523304 8.629924 65.539169 33 26 24
18.564285 8.790609 65.684166 33 26 23
18.564285 8.932202 65.684166 34 26 24
18.564285 9.073795 65.684166 35 26 24
18.523304 9.195045 65.539169 36 27 25
18.482504 9.315761 65.394806 37 27 26
18.321085 9.374139 64.823669 38 28 26
18.241428 9.472512 64.541832 38 29 27
18.241428 9.611642 64.541832 39 30 29
18.281170 9.772017 64.682442 40 31 30
18.241428 9.889903 64.541832 41 33 31
18.241428 10.029034 64.541832 41 34 32
18.241428 10.168164 64.541832 41 34 32
18.201859 10.284936 64.401825 41 34 32
18.162460 10.401202 64.262428 41 32 30
18.123232 10.516967 64.123634 40 29 29
18.123232 10.655195 64.123634 43 30 30
18.123232 10.793425 64.123634 48 33 34
18.123232 10.931653 64.123634 54 37 39
18.123232 11.069882 64.123634 59 40 43
18.123232 11.208111 64.123634 61 42 46
18.084173 11.321887 63.985435 63 43 48
18.045282 11.435173 63.847832 65 46 50
18.006559 11.547973 63.710819 65 46 50
18.006559 11.685312 63.710819 62 44 49
18.045282 11.848076 63.847832 61 43 47
18.084173 12.011542 63.985435 61 43 47
18.084173 12.149473 63.985435 61 44 48
18.084173 12.287404 63.985435 62 44 48
18.084173 12.425335 63.985435 63 44 47
18.084173 12.563266 63.985435 62 44 46
18.084173 12.701197 63.985435 61 42 43
18.084173 12.839128 63.985435 60 41 42
18.084173 12.977059 63.985435 60 42 44
18.045282 13.086786 63.847832 63 45 47
17.968002 13.167785 63.574394 67 49 51
17.968002 13.304830 63.574394 70 53 54
17.929607 13.413153 63.438553 71 54 55
17.891378 13.521014 63.303288 70 52 53
17.853312 13.628416 63.168602 67 50 49
17.815407 13.735362 63.034485 64 48 47
17.815407 13.871243 63.034485 62 46 46
17.740078 13.947897 62.767956 62 47 46
17.740078 14.083204 62.767956 63 48 48
17.777662 14.248634 62.900936 64 50 50
17.815407 14.414767 63.034485 68 53 53
17.853312 14.581608 63.168602 73 58 58
17.891378 14.749159 63.303288 76 61 62
17.891378 14.885619 63.303288 75 61 61
17.891378 15.022079 63.303288 70 57 58
17.891378 15.158541 63.303288 65 52 54
17.853312 15.262459 63.168602 62 49 52
17.815407 15.365935 63.034485 63 51 54
17.777662 15.468973 62.900936 68 57 60
22.018377 -11.652720 77.315735 18 16 12
22.018377 -11.486053 77.315735 18 16 13
22.018377 -11.319386 77.315735 19 17 13
22.018377 -11.152720 77.315735 19 17 14
21.904291 -10.929131 76.915138 19 16 14
21.735365 -10.680320 76.321960 20 17 15
21.735365 -10.515796 76.321960 19 16 14
21.735365 -10.351272 76.321960 20 17 15
21.569021 -10.108788 75.737862 21 17 16
21.351152 -9.845062 74.972832 21 18 17
21.243860 -9.634786 74.596085 23 19 18
21.190619 -9.450237 74.409126 24 20 19
21.137642 -9.266611 74.223106 25 21 19
21.032478 -9.061305 73.853836 25 21 19
20.928358 -8.858031 73.488220 24 21 18
20.876682 -8.678135 73.306770 24 20 18
20.928358 -8.541200 73.488220 25 20 17
20.825262 -8.341489 73.126213 25 20 17
20.622089 -8.104011 72.412788 26 19 18
20.571915 -7.928576 72.236603 26 20 18
20.571915 -7.772858 72.236603 27 20 18
20.179132 -7.471705 70.857384 28 20 19
19.617300 -7.115184 68.884552 29 21 20
19.617300 -6.966692 68.884552 29 21 20
23.817060 -8.277872 83.631668 29 21 20
23.884340 -8.120464 83.867912 29 21 20
23.617477 -7.850962 82.930847 29 21 20
22.667711 -7.363658 79.595825 28 22 20
22.367874 -7.096943 78.542969 28 21 20
22.308857 -6.402756 78.335732 27 21 17
22.075867 -6.168785 77.517601 27 21 17
21.791384 -5.924342 76.518669 27 21 16
21.459534 -5.671687 75.353409 27 21 17
21.243860 -5.453881 74.596085 26 21 17
21.190619 -5.279811 74.409126 26 21 17
21.032478 -5.081205 73.853836 25 21 18
20.825262 -4.873509 73.126213 25 20 18
20.774096 -4.704286 72.946541 25 20 18
23.952002 -5.242619 84.105499 25 21 18
23.952002 -5.061316 84.105499 25 21 19
24.088480 -4.907819 84.584732 26 20 19
24.088480 -4.725483 84.584732 26 20 19
24.088480 -4.543147 84.584732 27 20 19
24.088480 -4.360811 84.584732 29 20 19
23.884340 -4.143064 83.867912 30 21 20
23.617477 -3.918001 82.930847 31 21 20
23.356510 -3.697913 82.014481 32 22 21
23.292168 -3.511417 81.788544 31 23 20
23.356510 -3.344322 82.014481 31 23 20
23.292168 -3.158800 81.788544 31 23 19
23.228178 -2.974298 81.563850 31 23 19
23.164539 -2.790807 81.340393 31 23 19
22.789909 -2.400659 80.024910 30 22 18
22.789909 -2.228152 80.024910 29 22 17
22.308857 -2.012255 78.335732 29 21 17
21.847692 -1.805283 76.716385 28 20 17
21.243860 -1.594584 74.596085 28 20 17
21.137642 -1.426611 74.223106 27 21 17
21.137642 -1.266611 74.223106 28 21 18
21.243860 -1.112172 74.596085 28 22 18
21.791384 -0.975888 76.518669 28 22 18
21.961185 -0.817259 77.114914 29 23 20
21.679632 -0.642678 76.126259 29 23 20
19.571890 0.012397 68.725098 25 24 23
19.571890 0.160545 68.725098 24 24 24
19.571890 0.308693 68.725098 24 24 23
19.526690 0.455786 68.566376 25 25 22
19.571890 0.604990 68.725098 26 24 18
19.526690 0.751398 68.566376 32 26 18
19.571890 0.901286 68.725098 75 65 55
19.571890 1.049434 68.725098 163 150 139
19.571890 1.197582 68.725098 233 225 214
19.617300 1.348853 68.884552 254 251 239
19.617300 1.497344 68.884552 254 250 232
19.662922 1.649664 69.044746 254 247 227
19.708757 1.802693 69.205696 242 234 217
19.708757 1.951878 69.205696 180 166 149
19.708757 2.101062 69.205696 87 69 55
19.754805 2.255503 69.367386 50 35 26
19.754805 2.405036 69.367386 62 50 45
19.754805 2.554569 69.367386 70 59 58
19.708757 2.697798 69.205696 73 63 64
19.708757 2.846982 69.205696 75 66 68
19.617300 2.982263 68.884552 75 66 67
19.571890 3.123508 68.725098 72 63 65
19.526690 3.264100 68.566376 74 66 67
19.526690 3.411906 68.566376 80 71 73
19.526690 3.559712 68.566376 76 67 68
19.526690 3.707518 68.566376 64 55 56
19.481697 3.846441 68.408394 53 45 45
19.303782 3.957433 67.783661 46 40 39
19.216038 4.084899 67.475548 42 36 35
19.216038 4.230353 67.475548 38 32 32
19.216038 4.375808 67.475548 34 30 29
19.303782 4.541907 67.783661 31 27 26
19.436913 4.720357 68.251129 30 26 24
19.526690 4.889966 68.566376 29 24 22
19.571890 5.049434 68.725098 28 24 20
19.571890 5.197582 68.725098 26 23 18
19.571890 5.345730 68.725098 26 23 17
19.571890 5.493878 68.725098 26 23 17
19.571890 5.642026 68.725098 26 23 17
19.571890 5.790174 68.725098 26 23 18
19.571890 5.938323 68.725098 26 23 19
19.617300 6.100593 68.884552 27 23 20
19.662922 6.263618 69.044746 28 23 21
19.754805 6.442420 69.367386 28 24 21
19.988314 6.669871 70.187332 28 24 22
18.222105 6.356369 63.985435 28 24 23
17.837673 6.357290 62.635532 28 23 23
17.837673 6.492311 62.635532 29 22 23
17.800119 6.613380 62.503666 29 22 23
17.800119 6.748117 62.503666 30 22 23
18.182917 7.030872 63.847832 30 22 23
18.261461 7.199472 64.123634 30 22 22
18.501219 7.434038 64.965523 30 22 23
18.582542 7.607375 65.251083 31 23 24
18.623472 7.765100 65.394806 32 25 26
18.664585 7.923522 65.539169 34 26 27
18.664585 8.064802 65.539169 34 28 28
18.664585 8.206082 65.539169 33 28 28
18.623472 8.328977 65.394806 33 27 26
18.623472 8.469946 65.394806 32 26 25
18.664585 8.629924 65.539169 32 25 24
18.705877 8.790609 65.684166 33 25 24
18.705877 8.932202 65.684166 34 26 24
18.705877 9.073795 65.684166 35 26 24
18.623472 9.174791 65.394806 35 26 25
18.501219 9.254607 64.965523 36 26 25
18.380558 9.333382 64.541832 37 27 25
18.340687 9.451964 64.401825 38 28 27
18.340687 9.590793 64.401825 39 29 28
18.340687 9.729621 64.401825 39 30 30
18.340687 9.868450 64.401825 40 32 31
18.340687 10.007278 64.401825 41 33 31
18.340687 10.146108 64.401825 41 33 31
18.300989 10.262674 64.262428 41 33 31
18.261461 10.378737 64.123634 41 32 30
18.222105 10.494301 63.985435 40 29 28
18.222105 10.632232 63.985435 43 30 29
18.261461 10.793425 64.123634 49 33 34
18.261461 10.931653 64.123634 56 39 40
18.261461 11.069882 64.123634 62 44 46
18.261461 11.208111 64.123634 64 45 50
18.222105 11.321887 63.985435 65 46 51
18.222105 11.459818 63.985435 65 47 52
18.182917 11.572807 63.847832 64 46 51
18.182917 11.710442 63.847832 62 44 49
18.222105 11.873610 63.985435 60 42 47
18.222105 12.011542 63.985435 59 42 47
18.261461 12.175714 64.123634 60 41 46
18.261461 12.313943 64.123634 60 42 46
18.222105 12.425335 63.985435 61 42 45
18.222105 12.563266 63.985435 61 42 45
18.222105 12.701197 63.985435 61 42 44
18.222105 12.839128 63.985435 60 41 43
18.222105 12.977059 63.985435 59 40 42
18.222105 13.114990 63.985435 59 41 43
18.143898 13.196042 63.710819 60 42 45
18.105047 13.304830 63.574394 62 45 48
18.105047 13.441875 63.574394 65 48 51
18.066360 13.549905 63.438553 67 49 51
17.989483 13.628416 63.168602 65 48 48
17.951288 13.735362 63.034485 62 46 46
17.951288 13.871243 63.034485 60 45 45
17.875383 13.947897 62.767956 59 45 45
17.875383 14.083204 62.767956 60 46 45
17.875383 14.218511 62.767956 61 47 47
17.913256 14.384228 62.900936 63 49 49
17.951288 14.550649 63.034485 67 52 53
17.989483 14.717777 63.168602 71 57 57
18.027840 14.885619 63.303288 72 58 59
18.027840 15.022079 63.303288 70 56 57
17.989483 15.126288 63.168602 65 52 54
17.989483 15.262459 63.168602 62 49 52
17.951288 15.365935 63.034485 62 50 53
22.242968 -11.683145 77.517601 18 16 13
22.127420 -11.456220 77.114914 18 16 13
22.127420 -11.289986 77.114914 19 17 14
22.070095 -11.094934 76.915138 19 17 14
21.956331 -10.872795 76.518669 20 16 14
21.899889 -10.680320 76.321960 20 16 14
21.843735 -10.488832 76.126259 20 16 14
21.843735 -10.160627 76.126259 21 17 15
21.404665 -9.795589 74.596085 22 18 16
21.351019 -9.610638 74.409126 23 19 17
21.297642 -9.426611 74.223106 24 20 18
21.191683 -9.220509 73.853836 25 20 19
21.086773 -9.016447 73.488220 25 21 18
21.086773 -8.858031 73.488220 24 21 18
21.034708 -8.678135 73.306770 24 20 17
21.086773 -8.541200 73.488220 24 20 17
20.982899 -8.341489 73.126213 25 20 17
20.982899 -8.183853 73.126213 26 19 18
20.931343 -8.006497 72.946541 26 19 18
20.931343 -7.849249 72.946541 26 19 19
20.331877 -7.471705 70.857384 27 19 19
19.811760 -7.131732 69.044746 28 20 20
19.811760 -6.982894 69.044746 28 20 20
24.270817 -8.372207 84.584732 28 20 20
24.270817 -8.189871 84.584732 28 21 20
23.929934 -7.895069 83.396751 29 22 20
23.929934 -7.715293 83.396751 28 22 20
22.839294 -7.192077 79.595825 28 22 20
22.301195 -6.184933 77.720528 27 21 16
21.956331 -5.924342 76.518669 27 21 16
21.621971 -5.671687 75.353409 27 21 17
21.512770 -5.481426 74.972832 27 21 17
21.351019 -5.279811 74.409126 26 20 18
21.244530 -5.093877 74.038010 26 21 18
21.191683 -4.922001 73.853836 26 20 18
24.909523 -5.598376 86.810646 26 21 19
24.836901 -5.395465 86.557556 26 22 20
24.409904 -5.119325 85.069466 27 22 20
24.270817 -4.907819 84.584732 27 22 20
24.270817 -4.725483 84.584732 27 21 20
24.270817 -4.543147 84.584732 28 21 19
24.065132 -4.323854 83.867912 29 21 19
23.862904 -4.108248 83.163147 30 21 19
23.796247 -3.918001 82.930847 31 21 19
23.468475 -3.687726 81.788544 31 22 20
23.468475 -3.511417 81.788544 31 22 20
23.468475 -3.335109 81.788544 31 23 20
23.339882 -3.141492 81.340393 31 23 19
23.276112 -2.958045 81.118149 31 22 19
22.962418 -2.400659 80.024910 29 22 18
