ply
format ascii 1.0
element vertex 1193
property float x
property float y
property float z
property uchar red
property uchar green
property uchar blue
end_header
-2.364624 -8.403584 73.670578 195 196 199
-2.364624 -8.244776 73.670578 137 140 148
-2.358771 -8.065951 73.488220 108 114 125
-2.352947 -7.888011 73.306770 110 117 130
-2.352947 -7.729987 73.306770 121 127 140
-2.358771 -7.273872 73.488220 166 170 178
-2.358771 -7.115457 73.488220 174 178 184
-3.025217 -4.249665 94.251564 85 59 62
-2.923139 -3.909953 91.071297 85 59 60
-2.836141 -3.603109 88.360840 85 58 59
-2.778260 -3.342987 86.557556 79 54 54
-2.684347 -3.049703 83.631668 74 49 49
-2.603670 -2.783182 81.118149 71 46 44
-2.568580 -2.573166 80.024910 68 43 41
-2.541182 -2.375052 79.171310 65 41 39
-2.514362 -2.181120 78.335732 64 39 37
-2.494616 -1.996452 77.720528 62 38 37
-2.481623 -1.819387 77.315735 61 37 36
-2.475178 -1.648427 77.114914 60 36 36
-2.468765 -1.478354 76.915138 61 38 38
-2.468765 -1.312551 76.915138 61 40 39
-2.456040 -1.140836 76.518669 62 43 42
-2.443444 -0.970883 76.126259 62 46 44
-2.412515 -0.796568 75.162636 61 47 44
-2.400361 -0.631346 74.783989 59 47 45
-2.400361 -0.470137 74.783989 55 44 43
-2.400361 -0.308928 74.783989 47 38 38
-2.394330 -0.147348 74.596085 38 30 30
-2.388329 0.013422 74.409126 33 25 25
-2.382358 0.173389 74.223106 32 24 25
-2.376417 0.332557 74.038010 33 25 25
-2.370506 0.490934 73.853836 35 27 27
-2.364624 0.648525 73.670578 38 28 29
-2.358771 0.805335 73.488220 43 32 34
-2.352947 0.961372 73.306770 45 35 36
-2.341384 1.113896 72.946541 38 29 30
-2.329935 1.264928 72.589836 33 23 23
-2.318597 1.414490 72.236603 33 23 23
-2.318597 1.570208 72.236603 34 25 24
-2.312969 1.721737 72.061264 34 25 25
-2.312969 1.877076 72.061264 34 25 25
-2.364624 3.507086 73.670578 31 24 21
-2.358771 3.656821 73.488220 31 23 20
-2.347151 3.796442 73.126213 31 23 20
-2.324252 3.915501 72.412788 30 23 21
-2.324252 4.071599 72.412788 30 23 21
-2.382358 4.333389 74.223106 29 22 21
-2.382358 4.493389 74.223106 29 22 21
-2.382358 4.653389 74.223106 28 21 21
-2.364624 4.777557 73.670578 27 21 20
-2.307369 4.816841 71.886787 27 20 19
-2.263523 4.877329 70.520767 26 20 19
-2.263523 5.029348 70.520767 26 19 18
-2.400361 8.396361 74.783989 28 22 19
-2.400361 8.557570 74.783989 29 23 20
-2.394330 8.696873 74.596085 30 23 22
-2.412515 8.924951 75.162636 30 24 23
-2.394330 9.018481 74.596085 31 24 24
-2.382358 9.133389 74.223106 32 25 24
-2.252821 10.149776 70.187332 33 24 25
-2.221313 10.157005 69.205696 33 25 25
-2.221313 10.306190 69.205696 33 26 25
-2.211005 10.406857 68.884552 33 26 24
-2.175670 10.386657 67.783661 33 26 23
-2.136644 10.343846 66.567810 34 26 22
-2.131864 10.463882 66.418884 35 25 22
-2.131864 10.607059 66.418884 36 26 22
-2.151114 10.847303 67.018608 39 27 23
-2.155980 11.016642 67.170235 41 29 25
-2.151114 11.136243 67.018608 44 30 28
-2.146269 11.255305 66.867661 45 32 31
-2.146269 11.399449 66.867661 46 33 34
-2.151114 11.569652 67.018608 46 33 35
-2.155980 11.740623 67.170235 45 32 34
-2.170714 11.966641 67.629250 43 30 33
-2.175670 12.140081 67.783661 43 29 32
-2.175670 12.286200 67.783661 44 29 32
-2.170714 12.403998 67.629250 46 30 32
-2.141446 12.380574 66.717400 48 32 32
-2.127106 12.440526 66.270630 50 33 33
-2.127106 12.583383 66.270630 53 35 35
-2.127106 12.726240 66.270630 55 36 36
-2.127106 12.869097 66.270630 56 37 37
-2.127106 13.011954 66.270630 57 39 39
-2.127106 13.154811 66.270630 57 40 40
-2.127106 13.297668 66.270630 55 38 39
-2.127106 13.440526 66.270630 52 37 37
-2.127106 13.583383 66.270630 52 36 37
-2.127106 13.726240 66.270630 55 37 38
-2.127106 13.869097 66.270630 58 39 40
-2.122368 13.980747 66.123032 61 40 42
-2.122368 14.123286 66.123032 64 42 44
-2.117652 14.234123 65.976097 68 44 46
-2.103628 14.281137 65.539169 72 47 51
-2.094381 14.359023 65.251083 76 50 55
-2.076129 14.373323 64.682442 77 53 58
-2.071616 14.481208 64.541832 77 53 59
-2.071616 14.620338 64.541832 75 51 58
-2.071616 14.759468 64.541832 73 49 56
-2.071616 14.898599 64.541832 74 50 57
-2.062648 14.972631 64.262428 76 53 59
-2.053757 15.046024 63.985435 78 55 61
-2.049340 15.151302 63.847832 80 58 63
-2.044943 15.256127 63.710819 86 63 69
-2.040564 15.360504 63.574394 94 72 78
-2.044943 15.530806 63.710819 107 85 92
-2.044943 15.668145 63.710819 120 99 107
-2.040564 15.771639 63.574394 122 102 112
-2.036204 15.874691 63.438553 109 90 101
-2.027539 15.943310 63.168602 93 76 87
-2.023234 16.045341 63.034485 90 74 85
-2.010429 16.078810 62.635532 101 86 97
-2.006196 16.179695 62.503666 120 106 116
-1.993605 16.212040 62.111385 140 126 134
-1.993605 16.345932 62.111385 143 128 136
-1.993605 16.479824 62.111385 129 112 120
-1.993605 16.613714 62.111385 114 96 103
-1.989443 16.712643 61.981716 104 85 92
-1.985299 16.811157 61.852589 97 79 83
-1.985299 16.944490 61.852589 95 77 79
-1.985299 17.077824 61.852589 98 81 82
-1.985299 17.211157 61.852589 112 96 95
-2.152405 -14.553618 71.886787 101 103 112
-2.152405 -14.398655 71.886787 109 110 120
-2.152405 -14.243691 71.886787 126 125 136
-2.152405 -14.088728 71.886787 140 138 150
-2.157629 -13.967584 72.061264 154 149 162
-2.157629 -13.812244 72.061264 164 157 170
-2.162879 -13.690133 72.236603 163 154 167
-2.168154 -13.567426 72.412788 158 149 159
-2.173456 -13.444118 72.589836 149 140 149
-2.184136 -13.352935 72.946541 135 127 134
-2.184136 -13.195686 72.946541 134 127 132
-2.189516 -13.070553 73.126213 158 152 156
-2.189516 -12.912917 73.126213 185 180 185
-2.189516 -12.755282 73.126213 190 187 191
-2.189516 -12.597647 73.126213 177 175 178
-2.189516 -12.440011 73.126213 163 162 166
-2.189516 -12.282375 73.126213 155 156 160
-2.189516 -12.124741 73.126213 154 156 161
-2.184136 -11.937701 72.946541 160 163 167
-2.184136 -11.780454 72.946541 165 167 171
-2.178783 -11.594717 72.767754 159 160 164
-2.173456 -11.409889 72.589836 154 155 158
-2.168154 -11.225963 72.412788 167 167 170
-2.162879 -11.042931 72.236603 188 186 189
-2.162879 -10.887213 72.236603 196 193 196
-2.157629 -10.705448 72.061264 190 187 191
-2.157629 -10.550108 72.061264 190 187 193
-2.152405 -10.369599 71.886787 204 202 208
-2.147206 -10.189962 71.713142 215 214 220
-2.142032 -10.011191 71.540344 208 209 216
-2.142032 -9.856975 71.540344 193 195 205
-2.142032 -9.702758 71.540344 182 183 194
-2.136883 -9.525588 71.368370 166 166 176
-2.142032 -9.394324 71.540344 160 159 167
-2.142032 -9.240108 71.540344 181 178 182
-2.147206 -9.107837 71.713142 199 195 193
-2.147206 -8.953248 71.713142 207 201 195
-2.157629 -8.841371 72.061264 224 218 210
-2.168154 -8.728401 72.412788 243 241 234
-2.189516 -8.656760 73.126213 248 248 243
-2.200355 -8.541200 73.488220 229 229 229
-2.205815 -8.403584 73.670578 177 178 182
-2.200355 -8.224368 73.488220 119 122 132
-2.194922 -8.046036 73.306770 101 106 118
-2.194922 -7.888011 73.306770 119 126 138
-2.194922 -7.729987 73.306770 152 159 171
-2.200355 -7.590704 73.488220 182 189 199
-2.200355 -7.432289 73.488220 197 203 212
-2.200355 -7.273872 73.488220 210 214 221
-2.200355 -7.115457 73.488220 223 225 229
-2.200355 -6.957041 73.488220 230 230 233
-2.777948 -4.183264 92.778885 83 58 62
-2.701956 -3.874300 90.240860 89 64 66
-2.677540 -3.646520 89.425430 90 66 67
-2.591672 -3.342987 86.557556 84 59 60
-2.504066 -3.049703 83.631668 75 51 51
-2.428807 -2.783182 81.118149 70 45 45
-2.396074 -2.573166 80.024910 67 42 42
-2.376854 -2.381402 79.383003 64 40 39
-2.364211 -2.198523 78.960747 63 39 38
-2.333185 -2.001692 77.924522 62 38 37
-2.314957 -1.819387 77.315735 61 37 37
-2.308944 -1.648427 77.114914 60 37 36
-2.302962 -1.478354 76.915138 60 38 38
-2.291091 -1.305785 76.518669 61 40 39
-2.291091 -1.140836 76.518669 61 43 41
-2.279342 -0.970883 76.126259 61 45 43
-2.244807 -0.794557 74.972832 61 47 44
-2.239152 -0.631346 74.783989 60 49 46
-2.239152 -0.470137 74.783989 58 48 47
-2.239152 -0.308928 74.783989 50 41 41
-2.233526 -0.147348 74.596085 39 30 32
-2.233526 0.013456 74.596085 33 25 26
-2.227928 0.173823 74.409126 31 24 25
-2.222358 0.333389 74.223106 32 24 24
-2.216816 0.492158 74.038010 34 25 25
-2.211302 0.650138 73.853836 36 26 26
-2.211302 0.809342 73.853836 39 28 29
-2.200355 0.963751 73.488220 40 29 30
-2.194922 1.119396 73.306770 38 27 27
-2.184136 1.271144 72.946541 35 24 24
-2.173456 1.421407 72.589836 34 24 23
-2.168154 1.574038 72.412788 34 24 24
-2.162879 1.725926 72.236603 33 24 24
-2.205815 3.665895 73.670578 31 24 21
-2.194922 3.805816 73.306770 31 23 20
-2.184136 3.944362 72.946541 30 23 21
-2.184136 4.101611 72.946541 30 22 22
-2.222358 4.333389 74.223106 30 22 22
-2.222358 4.493389 74.223106 29 22 22
-2.222358 4.653389 74.223106 29 22 21
-2.205815 4.777557 73.670578 28 22 20
-2.152405 4.816841 71.886787 28 21 20
-2.116532 4.888942 70.688675 27 21 19
-2.116532 5.041323 70.688675 27 20 19
-2.250489 7.466722 75.162636 29 20 20
-2.239152 7.590316 74.783989 29 20 19
-2.239152 7.751525 74.783989 29 20 19
-2.239152 7.912734 74.783989 29 20 19
-2.244807 8.417564 74.972832 28 22 20
-2.250489 8.600900 75.162636 29 23 21
-2.267713 8.829988 75.737862 30 23 23
-2.279342 9.039373 76.126259 31 24 23
-2.256202 9.110040 75.353409 31 25 24
-2.244807 9.225645 74.972832 32 26 24
-2.222358 9.293388 74.223106 33 26 24
-2.101521 10.149776 70.187332 33 25 25
-2.072129 10.157005 69.205696 33 25 25
-2.072129 10.306190 69.205696 34 26 25
-2.067310 10.431059 69.044746 34 27 25
-2.029551 10.386657 67.783661 34 26 24
-1.993147 10.343846 66.567810 34 26 23
-1.988688 10.463882 66.418884 35 26 23
-1.988688 10.607059 66.418884 36 25 22
-2.011184 10.871845 67.170235 37 26 22
-2.011184 11.016642 67.170235 39 27 23
-2.011184 11.161438 67.170235 42 29 26
-2.006644 11.280712 67.018608 43 31 29
-2.006644 11.425181 67.018608 44 32 32
-2.011184 11.595827 67.170235 44 32 33
-2.015745 11.767246 67.322548 43 31 33
-2.029551 11.993962 67.783661 42 30 32
-2.038861 12.195769 68.094589 42 28 32
-2.038861 12.342559 68.094589 44 29 31
-2.024928 12.403998 67.629250 45 30 31
-1.997625 12.380574 66.717400 48 32 32
-1.984249 12.440526 66.270630 51 33 33
-1.984249 12.583383 66.270630 54 36 36
-1.984249 12.726240 66.270630 57 38 38
-1.984249 12.869097 66.270630 59 40 40
-1.984249 13.011954 66.270630 61 43 43
-1.979829 13.125513 66.123032 61 44 44
-1.979829 13.268052 66.123032 57 41 41
-1.979829 13.410591 66.123032 52 37 37
-1.979829 13.553130 66.123032 52 36 36
-1.979829 13.695669 66.123032 53 36 37
-1.984249 13.869097 66.270630 56 37 38
-1.979829 13.980747 66.123032 58 38 39
-1.979829 14.123286 66.123032 61 39 41
-1.975430 14.234123 65.976097 63 40 42
-1.966689 14.312734 65.684166 66 41 44
-1.962347 14.422419 65.539169 68 42 46
-1.953722 14.499682 65.251083 69 44 49
-1.940924 14.544444 64.823669 70 45 51
-1.953722 14.781001 65.251083 69 45 51
-1.958025 14.954528 65.394806 69 45 52
-1.940924 14.963658 64.823669 73 49 55
-1.932486 15.037729 64.541832 77 54 60
-1.915826 15.046024 63.985435 79 57 62
-1.915826 15.183956 63.985435 82 60 63
-1.911706 15.288937 63.847832 86 64 68
-1.907604 15.393467 63.710819 93 72 77
-1.907604 15.530806 63.710819 107 86 92
-1.907604 15.668145 63.710819 120 101 107
-1.903519 15.771639 63.574394 120 101 108
-1.899452 15.874691 63.438553 106 88 96
-1.891369 15.943310 63.168602 89 73 82
-1.887353 16.045341 63.034485 85 71 79
-1.875408 16.078810 62.635532 98 84 92
-1.871460 16.179695 62.503666 123 110 116
-1.859714 16.212040 62.111385 149 137 143
-1.859714 16.345932 62.111385 152 138 143
-1.859714 16.479824 62.111385 132 116 122
-1.855832 16.579031 61.981716 113 96 101
-1.855832 16.712643 61.981716 101 83 87
-1.851965 16.811157 61.852589 96 77 80
-1.851965 16.944490 61.852589 96 79 79
-1.851965 17.077824 61.852589 102 86 85
-1.851965 17.211157 61.852589 116 100 98
-1.851965 17.344490 61.852589 136 122 119
-1.997442 -14.553618 71.886787 100 100 111
-1.997442 -14.398655 71.886787 115 114 125
-1.997442 -14.243691 71.886787 134 132 144
-1.997442 -14.088728 71.886787 146 142 155
-2.002290 -13.967584 72.061264 158 151 164
-2.007161 -13.845850 72.236603 168 159 171
-2.012057 -13.723523 72.412788 167 157 168
-2.026888 -13.667431 72.946541 161 152 161
-2.026888 -13.510183 72.946541 155 145 152
-2.031880 -13.385824 73.126213 141 132 137
-2.031880 -13.228189 73.126213 131 124 127
-2.036897 -13.102826 73.306770 141 136 139
-2.036897 -12.944801 73.306770 164 161 164
-2.031880 -12.755282 73.126213 177 176 177
-2.031880 -12.597647 73.126213 173 173 175
-2.031880 -12.440011 73.126213 164 165 168
-2.026888 -12.252198 72.946541 155 158 161
-2.026888 -12.094950 72.946541 152 154 158
-2.026888 -11.937701 72.946541 157 158 162
-2.021920 -11.751579 72.767754 160 160 164
-2.016976 -11.566368 72.589836 151 151 153
-2.012057 -11.382060 72.412788 146 145 147
-2.012057 -11.225963 72.412788 163 161 163
-2.007161 -11.042931 72.236603 194 191 193
-2.007161 -10.887213 72.236603 214 211 213
-2.002290 -10.705448 72.061264 218 215 218
-2.002290 -10.550108 72.061264 221 219 223
-1.997442 -10.369599 71.886787 232 230 234
-1.992617 -10.189962 71.713142 235 235 238
-1.987815 -10.011191 71.540344 218 219 225
-1.987815 -9.856975 71.540344 195 198 206
-1.987815 -9.702758 71.540344 184 187 196
-1.983037 -9.525588 71.368370 179 180 189
-1.983037 -9.371741 71.368370 186 186 192
-1.983037 -9.217896 71.368370 209 208 211
-1.987815 -9.085891 71.540344 223 220 220
-1.987815 -8.931674 71.540344 225 219 217
-1.992617 -8.798658 71.713142 228 222 219
-2.002290 -8.686030 72.061264 230 225 223
-2.012057 -8.572304 72.412788 220 219 217
-2.031880 -8.499125 73.126213 186 186 187
-2.036897 -8.362085 73.306770 132 133 139
-2.036897 -8.204061 73.306770 95 98 108
-2.036897 -8.046036 73.306770 97 103 112
-2.036897 -7.888011 73.306770 132 139 148
-2.036897 -7.729987 73.306770 184 190 199
-2.041939 -7.590704 73.488220 222 228 234
-2.041939 -7.432289 73.488220 236 240 244
-2.041939 -7.273872 73.488220 240 244 247
-2.041939 -7.115457 73.488220 237 241 244
-2.041939 -6.957041 73.488220 227 231 234
-2.041939 -6.798625 73.488220 220 224 228
-2.586029 -4.196378 93.069725 89 67 72
-2.515071 -3.886111 90.515984 96 74 78
-2.515071 -3.690989 90.515984 97 75 78
-2.419189 -3.362594 87.065224 86 64 67
-2.323784 -3.049703 83.631668 74 51 53
-2.247802 -2.775598 80.897118 69 45 46
-2.211644 -2.559369 79.595825 66 42 42
-2.199849 -2.375052 79.171310 63 39 39
-2.199849 -2.204386 79.171310 61 38 38
-2.165206 -2.001692 77.924522 61 38 38
-2.148290 -1.819387 77.315735 60 38 37
-2.131637 -1.639908 76.716385 59 37 37
-2.126143 -1.470733 76.518669 59 38 38
-2.126143 -1.305785 76.518669 59 40 39
-2.115239 -1.134986 76.126259 60 43 40
-2.115239 -0.970883 76.126259 60 45 42
-2.083190 -0.794557 74.972832 60 47 44
-2.077943 -0.631346 74.783989 60 49 47
-2.077943 -0.470137 74.783989 60 50 48
-2.077943 -0.308928 74.783989 53 44 44
-2.077943 -0.147719 74.783989 40 32 33
-2.072722 0.013456 74.596085 32 25 25
-2.067527 0.173823 74.409126 31 24 24
-2.062358 0.333389 74.223106 32 23 24
-2.057215 0.492158 74.038010 33 24 24
-2.057215 0.651759 74.038010 35 25 24
-2.057215 0.811360 74.038010 37 26 26
-2.052098 0.968546 73.853836 38 26 27
-2.041939 1.122167 73.488220 37 25 25
-2.031880 1.274275 73.126213 35 24 24
-2.026888 1.428392 72.946541 34 24 23
-2.026888 1.585640 72.946541 33 24 24
-2.041939 3.656821 73.488220 31 24 21
-2.036897 3.805816 73.306770 31 23 20
-2.036897 3.963841 73.306770 31 23 21
-2.062358 4.173388 74.223106 30 22 22
-2.062358 4.333389 74.223106 30 22 22
-2.062358 4.493389 74.223106 30 22 22
-2.057215 4.641784 74.038010 29 22 22
-2.047006 4.777557 73.670578 29 22 21
-2.007161 4.840281 72.236603 28 21 20
-1.973549 4.912333 71.026894 28 21 20
-1.964151 5.041323 70.688675 27 20 19
-1.905181 5.037773 68.566376 26 19 19
-2.356981 6.781015 84.826408 25 19 19
-2.088464 6.818622 75.162636 28 20 19
-2.083190 6.963019 74.972832 29 20 19
-2.083190 7.124635 74.972832 29 20 19
-2.088464 7.304698 75.162636 29 20 19
-2.093765 7.485674 75.353409 29 20 19
-2.088464 7.628748 75.162636 29 20 19
-2.083190 7.771100 74.972832 29 21 19
-2.083190 7.932716 74.972832 29 21 20
-2.148290 8.680614 77.315735 28 22 20
-2.126143 8.756071 76.518669 29 22 21
-2.126143 8.921020 76.518669 30 23 23
-2.115239 9.039373 76.126259 31 23 23
-2.104447 9.156519 75.737862 31 24 23
-2.115239 9.367579 76.126259 32 25 23
-1.973549 9.964965 71.026894 31 23 24
-1.950221 9.998476 70.187332 32 24 25
-1.950221 10.149776 70.187332 33 25 25
-1.950221 10.301077 70.187332 34 25 25
-1.909591 10.530915 68.725098 35 26 25
-1.853805 10.367091 66.717400 35 26 24
-1.849649 10.487344 66.567810 36 26 23
-1.857980 10.678728 66.867661 36 25 23
-1.870620 10.896498 67.322548 36 25 22
-1.870620 11.041622 67.322548 37 26 23
-1.866388 11.161438 67.170235 40 28 26
-1.866388 11.306234 67.170235 41 30 28
-1.866388 11.451031 67.170235 41 31 30
-1.870620 11.622121 67.322548 42 31 32
-1.870620 11.767246 67.322548 42 31 32
-1.883432 11.993962 67.783661 41 29 31
-1.883432 12.140081 67.783661 41 28 31
-1.883432 12.286200 67.783661 43 29 31
-1.879142 12.403998 67.629250 45 30 31
-1.849649 12.352815 66.567810 48 32 32
-1.841391 12.440526 66.270630 51 34 34
-1.841391 12.583383 66.270630 55 37 37
-1.841391 12.726240 66.270630 58 39 39
-1.837290 12.840435 66.123032 61 42 42
-1.833207 12.954123 65.976097 63 45 45
-1.833207 13.096346 65.976097 64 46 47
-1.833207 13.238567 65.976097 59 43 43
-1.833207 13.380790 65.976097 54 38 38
-1.833207 13.523012 65.976097 53 36 36
-1.837290 13.695669 66.123032 53 36 36
-1.837290 13.838208 66.123032 54 36 37
-1.837290 13.980747 66.123032 56 36 38
-1.833207 14.091901 65.976097 58 36 38
-1.825096 14.171141 65.684166 59 36 39
-1.821067 14.281137 65.539169 60 36 40
-1.817056 14.390651 65.394806 61 37 40
-1.817056 14.531620 65.394806 62 38 41
-1.817056 14.672589 65.394806 63 39 43
-1.817056 14.813559 65.394806 63 39 45
-1.817056 14.954528 65.394806 65 41 47
-1.817056 15.095496 65.394806 71 47 53
-1.801186 15.103396 64.823669 77 54 58
-1.781735 15.078522 64.123634 80 58 61
-1.777895 15.183956 63.985435 83 61 63
-1.777895 15.321887 63.985435 85 64 66
-1.770265 15.393467 63.710819 92 71 74
-1.770265 15.530806 63.710819 106 85 89
-1.770265 15.668145 63.710819 118 98 102
-1.770265 15.805484 63.710819 116 97 102
-1.762699 15.874691 63.438553 102 85 90
-1.758941 15.977304 63.303288 88 72 78
-1.751472 16.045341 63.034485 84 69 76
-1.744066 16.112803 62.767956 96 82 87
-1.736723 16.179695 62.503666 123 110 115
-1.725823 16.212040 62.111385 152 140 143
-1.725823 16.345932 62.111385 155 141 144
-1.725823 16.479824 62.111385 132 116 120
-1.722220 16.579031 61.981716 111 94 97
-1.722220 16.712643 61.981716 99 82 83
-1.718632 16.811157 61.852589 96 78 78
-1.718632 16.944490 61.852589 98 80 80
-1.718632 17.077824 61.852589 103 88 85
-1.718632 17.211157 61.852589 115 101 98
-1.718632 17.344490 61.852589 134 122 119
-1.846950 -14.588943 72.061264 99 98 110
-1.842478 -14.398655 71.886787 120 118 130
-1.846950 -14.278263 72.061264 142 138 152
-1.846950 -14.122924 72.061264 151 145 159
-1.846950 -13.967584 72.061264 160 152 165
-1.851444 -13.845850 72.236603 170 160 172
-1.869640 -13.824679 72.946541 173 162 172
-1.869640 -13.667431 72.946541 170 160 167
-1.874245 -13.543460 73.126213 161 151 156
-1.874245 -13.385824 73.126213 142 133 137
-1.874245 -13.228189 73.126213 125 118 120
-1.878873 -13.102826 73.306770 127 123 123
-1.878873 -12.944801 73.306770 142 141 141
-1.874245 -12.755282 73.126213 153 154 153
-1.874245 -12.597647 73.126213 155 158 158
-1.874245 -12.440011 73.126213 157 161 162
-1.869640 -12.252198 72.946541 157 161 163
-1.869640 -12.094950 72.946541 153 156 159
-1.869640 -11.937701 72.946541 151 151 155
-1.865057 -11.751579 72.767754 147 146 149
-1.860497 -11.566368 72.589836 140 137 140
-1.860497 -11.409889 72.589836 140 137 138
-1.855959 -11.225963 72.412788 156 152 153
-1.855959 -11.069864 72.412788 184 179 180
-1.851444 -10.887213 72.236603 213 209 210
-1.851444 -10.731495 72.236603 232 230 231
-1.846950 -10.550108 72.061264 237 236 238
-1.842478 -10.369599 71.886787 236 235 237
-1.842478 -10.214636 71.886787 224 226 228
-1.838027 -10.035374 71.713142 202 205 209
-1.833598 -9.856975 71.540344 190 194 200
-1.833598 -9.702758 71.540344 200 203 209
-1.829191 -9.525588 71.368370 215 217 222
-1.829191 -9.371741 71.368370 219 219 223
-1.829191 -9.217896 71.368370 214 214 216
-1.829191 -9.064050 71.368370 219 217 217
-1.829191 -8.910203 71.368370 230 226 225
-1.833598 -8.777456 71.540344 217 211 209
-1.838027 -8.644069 71.713142 180 174 174
-1.846950 -8.530690 72.061264 150 146 148
-1.855959 -8.416206 72.412788 121 119 122
-1.869640 -8.320994 72.946541 89 88 95
-1.869640 -8.163746 72.946541 74 77 85
-1.869640 -8.006497 72.946541 90 94 102
-1.874245 -7.868583 73.126213 136 140 148
-1.874245 -7.710947 73.126213 194 198 205
-1.883523 -7.590704 73.488220 237 239 243
-1.883523 -7.432289 73.488220 251 252 254
-1.888197 -7.291922 73.670578 242 245 247
-1.888197 -7.133113 73.670578 206 214 219
-1.883523 -6.957041 73.488220 164 174 183
-1.874245 -6.765134 73.126213 159 168 179
-1.874245 -6.607499 73.126213 173 180 193
-2.377948 -3.983264 92.778885 108 89 93
-2.377948 -3.783264 92.778885 104 84 88
-2.319949 -3.495867 90.515984 88 68 70
-2.149558 -3.058318 83.867912 74 52 54
-2.073415 -2.775598 80.897118 69 47 48
-2.029182 -2.545719 79.171310 66 44 44
-2.029182 -2.375052 79.171310 63 40 40
-2.002482 -2.175380 78.129585 60 38 39
-1.986797 -1.991239 77.517601 60 38 39
-1.966262 -1.805283 76.716385 59 37 38
-1.951137 -1.627294 76.126259 58 37 37
-1.946147 -1.459449 75.931564 57 37 37
-1.946147 -1.295766 75.931564 57 39 37
-1.946147 -1.132083 75.931564 58 41 39
-1.946147 -0.968400 75.931564 59 44 41
-1.921574 -0.794557 74.972832 59 47 43
-1.916734 -0.631346 74.783989 59 49 46
-1.916734 -0.470137 74.783989 59 50 48
-1.916734 -0.308928 74.783989 54 46 45
-1.916734 -0.147719 74.783989 42 34 34
-1.916734 0.013490 74.783989 32 26 26
-1.911918 0.174260 74.596085 31 24 24
-1.907126 0.334224 74.409126 32 23 24
-1.902358 0.493389 74.223106 33 24 24
-1.897614 0.651759 74.038010 35 25 23
-1.897614 0.811360 74.038010 36 25 24
-1.897614 0.970961 74.038010 36 25 25
-1.888197 1.124951 73.670578 36 25 24
-1.878873 1.277421 73.306770 35 24 23
-1.874245 1.431910 73.126213 34 24 23
-1.897614 3.843779 74.038010 30 23 20
-1.907126 4.344249 74.409126 30 22 22
-1.902358 4.493389 74.223106 30 22 22
-1.902358 4.653389 74.223106 29 22 22
-1.892894 4.789442 73.853836 29 22 22
-1.869640 4.887851 72.946541 29 21 21
-1.829191 4.935951 71.368370 28 21 20
-1.757375 4.889966 68.566376 28 20 19
-1.388583 3.980576 54.177448 27 19 19
-2.161771 6.378851 84.344437 26 19 20
-2.090504 6.344383 81.563850 26 19 20
-2.090504 6.520207 81.563850 26 20 19
-2.073415 6.641295 80.897118 26 20 19
-1.931328 6.835927 75.353409 28 20 19
-1.926439 6.980647 75.162636 29 20 19
-1.926439 7.142672 75.162636 30 20 19
-1.931328 7.323237 75.353409 29 20 19
-1.931328 7.485674 75.353409 29 20 19
-1.931328 7.648110 75.353409 29 21 19
-1.931328 7.810547 75.353409 29 21 19
-1.971356 8.967242 76.915138 30 22 22
-1.966262 9.109446 76.716385 31 23 23
-1.966262 9.274820 76.716385 31 24 23
-1.773761 10.007822 69.205696 33 25 25
-1.713836 10.390440 66.867661 36 26 24
-1.713836 10.534584 66.867661 36 25 23
-1.717705 10.702834 67.018608 36 26 23
-1.733356 10.946140 67.629250 37 26 23
-1.733356 11.091926 67.629250 37 26 23
-1.725495 11.186748 67.322548 39 28 25
-1.721591 11.306234 67.170235 40 29 28
-1.725495 11.476996 67.322548 40 31 30
-1.725495 11.622121 67.322548 41 32 31
-1.729417 11.793990 67.475548 41 31 32
-1.733356 11.966641 67.629250 41 30 31
-1.737314 12.140081 67.783661 40 28 30
-1.737314 12.286200 67.783661 42 28 29
-1.721591 12.319809 67.170235 45 30 30
-1.702334 12.325180 66.418884 48 32 32
-1.698534 12.440526 66.270630 51 34 34
-1.694751 12.555357 66.123032 54 36 36
-1.694751 12.697896 66.123032 58 39 39
-1.690985 12.811901 65.976097 60 42 42
-1.683503 12.896804 65.684166 63 45 45
-1.683503 13.038397 65.684166 64 46 47
-1.683503 13.179990 65.684166 60 43 44
-1.683503 13.321583 65.684166 55 38 40
-1.683503 13.463176 65.684166 53 36 38
-1.687236 13.634934 65.829803 52 35 36
-1.690985 13.807457 65.976097 53 35 36
-1.690985 13.949678 65.976097 54 35 36
-1.687236 14.060656 65.829803 55 35 36
-1.679787 14.139857 65.539169 55 35 36
-1.679787 14.281137 65.539169 56 34 36
-1.676087 14.390651 65.394806 56 34 36
-1.676087 14.531620 65.394806 57 34 36
-1.679787 14.704979 65.539169 57 35 38
-1.687236 14.912096 65.829803 59 37 40
-1.687236 15.054004 65.829803 62 39 43
-1.676087 15.095496 65.394806 67 45 49
-1.672403 15.202979 65.251083 73 51 54
-1.643506 15.078522 64.123634 77 54 57
-1.643506 15.216750 64.123634 81 58 60
-1.639964 15.321887 63.985435 84 62 64
-1.636437 15.426571 63.847832 90 69 71
-1.632926 15.530806 63.710819 102 82 84
-1.632926 15.668145 63.710819 113 94 96
-1.632926 15.805484 63.710819 112 94 96
-1.625947 15.874691 63.438553 100 83 87
-1.622481 15.977304 63.303288 87 72 77
-1.619028 16.079479 63.168602 83 69 74
-1.612168 16.146940 62.900936 94 80 84
-1.605366 16.213831 62.635532 120 106 109
-1.591932 16.212040 62.111385 147 132 135
-1.591932 16.345932 62.111385 150 134 137
-1.591932 16.479824 62.111385 128 111 113
-1.591932 16.613714 62.111385 109 92 93
-1.588608 16.712643 61.981716 99 82 81
-1.585299 16.811157 61.852589 96 79 78
-1.585299 16.944490 61.852589 97 81 79
-1.585299 17.077824 61.852589 101 87 84
-1.585299 17.211157 61.852589 112 100 97
-1.585299 17.344490 61.852589 133 123 120
-1.691610 -14.588943 72.061264 99 95 108
-1.691610 -14.433603 72.061264 121 118 130
-1.691610 -14.278263 72.061264 145 140 154
-1.691610 -14.122924 72.061264 154 146 160
-1.695726 -14.001568 72.236603 157 148 162
-1.699862 -13.879621 72.412788 164 153 166
-1.712391 -13.824679 72.946541 171 160 170
-1.712391 -13.667431 72.946541 172 161 169
-1.712391 -13.510183 72.946541 161 152 157
-1.716609 -13.385824 73.126213 140 133 135
-1.716609 -13.228189 73.126213 122 117 118
-1.720848 -13.102826 73.306770 120 118 117
-1.720848 -12.944801 73.306770 129 130 128
-1.716609 -12.755282 73.126213 136 140 138
-1.716609 -12.597647 73.126213 141 147 145
-1.716609 -12.440011 73.126213 149 154 155
-1.712391 -12.252198 72.946541 155 160 162
-1.712391 -12.094950 72.946541 154 157 160
-1.712391 -11.937701 72.946541 147 148 152
-1.712391 -11.780454 72.946541 140 138 141
-1.704018 -11.566368 72.589836 139 135 137
-1.704018 -11.409889 72.589836 145 140 142
-1.704018 -11.253409 72.589836 151 146 147
-1.704018 -11.096931 72.589836 162 157 158
-1.699862 -10.913767 72.412788 186 183 183
-1.695726 -10.731495 72.236603 213 210 211
-1.695726 -10.575777 72.236603 226 225 227
-1.691610 -10.394769 72.061264 222 223 225
-1.687514 -10.214636 71.886787 197 199 201
-1.687514 -10.059672 71.886787 170 174 177
-1.683438 -9.880784 71.713142 181 185 188
-1.679382 -9.702758 71.540344 215 219 221
-1.679382 -9.548541 71.540344 230 232 235
-1.675345 -9.371741 71.368370 214 215 218
-1.675345 -9.217896 71.368370 191 190 194
-1.675345 -9.064050 71.368370 195 192 196
-1.675345 -8.910203 71.368370 211 208 209
-1.675345 -8.756357 71.368370 182 177 178
-1.679382 -8.623240 71.540344 121 115 117
-1.687514 -8.510036 71.886787 91 85 87
-1.695726 -8.395729 72.236603 90 88 90
-1.704018 -8.280305 72.589836 87 87 91
-1.708194 -8.143737 72.767754 79 81 85
-1.708194 -7.986874 72.767754 83 86 91
-1.712391 -7.849249 72.946541 115 118 123
-1.716609 -7.710947 73.126213 170 173 178
-1.716609 -7.553312 73.126213 224 226 230
-1.725107 -7.432289 73.488220 239 243 244
-1.725107 -7.273872 73.488220 212 219 220
-1.725107 -7.115457 73.488220 159 171 175
-1.720848 -6.939863 73.306770 122 137 145
-1.712391 -6.748512 72.946541 144 155 166
-1.712391 -6.591264 72.946541 188 194 206
-1.683438 -5.706871 71.713142 207 197 209
-2.191646 -4.008316 93.362396 123 109 112
-2.184775 -3.795124 93.069725 109 93 95
-2.131325 -3.506558 90.792793 87 70 72
-1.968767 -3.058318 83.867912 73 54 55
-1.893868 -2.768056 80.677292 70 49 49
-1.843765 -2.525515 78.542969 67 46 46
-1.834062 -2.343801 78.129585 63 41 42
-1.819695 -2.158341 77.517601 60 39 39
-1.814957 -1.986053 77.315735 59 38 39
-1.787034 -1.791396 76.126259 57 37 38
-1.773393 -1.614872 75.545143 57 36 37
-1.768892 -1.448336 75.353409 56 36 36
-1.768892 -1.285900 75.353409 56 38 36
-1.782464 -1.132083 75.931564 57 40 38
-1.768892 -0.961027 75.353409 58 43 40
-1.759958 -0.794557 74.972832 58 45 42
-1.755525 -0.631346 74.783989 58 47 44
-1.755525 -0.470137 74.783989 58 49 47
-1.755525 -0.308928 74.783989 55 46 45
-1.755525 -0.147719 74.783989 43 37 36
-1.755525 0.013490 74.783989 32 26 26
-1.755525 0.174699 74.783989 30 23 23
-1.751114 0.335064 74.596085 32 23 23
-1.746725 0.494625 74.409126 33 24 23
-1.742358 0.653389 74.223106 34 24 23
-1.738013 0.811360 74.038010 35 25 24
-1.738013 0.970961 74.038010 35 24 24
-1.733690 1.127750 73.853836 35 24 24
-1.725107 1.280583 73.488220 35 24 24
-1.725107 1.438999 73.488220 34 23 24
-1.742358 4.493389 74.223106 30 21 21
-1.742358 4.653389 74.223106 30 21 21
-1.742358 4.813389 74.223106 29 21 21
-1.742358 4.973389 74.223106 29 21 20
-1.695726 4.995999 72.236603 28 20 19
-1.271794 3.863787 54.177448 28 20 19
-1.249002 3.909239 53.206528 28 20 19
-1.235715 3.981127 52.640499 28 20 19
-1.883631 6.241501 80.241196 27 20 19
-1.899028 6.466908 80.897118 27 20 19
-1.883631 6.587447 80.241196 27 20 19
-1.805553 6.645998 76.915138 28 19 18
-1.796246 6.776690 76.518669 28 19 18
-1.787034 6.906040 76.126259 29 20 18
-1.768892 6.998364 75.353409 30 20 19
-1.768892 7.160800 75.353409 30 20 19
-1.768892 7.323237 75.353409 29 20 19
-1.773393 7.504721 75.545143 29 20 18
-1.773393 7.667571 75.545143 29 21 19
-1.773393 7.830421 75.545143 29 22 19
-1.576795 10.437456 67.170235 36 25 23
-1.573236 10.558365 67.018608 37 25 23
-1.576795 10.727049 67.170235 37 26 23
-1.587570 10.946140 67.629250 37 26 24
-1.587570 11.091926 67.629250 38 27 24
-1.587570 11.237712 67.629250 38 28 26
-1.580370 11.331872 67.322548 39 29 28
-1.587570 11.529284 67.629250 40 31 30
-1.583962 11.648535 67.475548 41 32 32
-1.583962 11.793990 67.475548 41 32 32
-1.587570 11.966641 67.629250 40 30 31
-1.591195 12.140081 67.783661 40 29 29
-1.591195 12.286200 67.783661 41 28 28
-1.576795 12.319809 67.170235 44 30 30
-1.555677 12.297668 66.270630 47 32 32
-1.552212 12.412818 66.123032 50 33 33
-1.552212 12.555357 66.123032 53 35 35
-1.548763 12.669679 65.976097 56 38 38
-1.541910 12.755211 65.684166 58 40 40
-1.541910 12.896804 65.684166 61 43 43
-1.538506 13.009615 65.539169 62 44 46
-1.538506 13.150895 65.539169 59 42 44
-1.535118 13.262897 65.394806 55 38 40
-1.538506 13.433455 65.539169 53 36 37
-1.541910 13.604769 65.684166 51 34 35
-1.545329 13.776841 65.829803 52 33 34
-1.545329 13.918748 65.829803 52 33 34
-1.538506 13.998577 65.539169 53 34 35
-1.535118 14.108712 65.394806 54 34 35
-1.535118 14.249681 65.394806 54 35 35
-1.535118 14.390651 65.394806 54 35 35
-1.535118 14.531620 65.394806 54 35 35
-1.538506 14.704979 65.539169 55 35 36
-1.541910 14.879105 65.684166 57 36 38
-1.541910 15.020698 65.684166 60 38 41
-1.535118 15.095496 65.394806 63 42 44
-1.531744 15.202979 65.251083 67 46 47
-1.508535 15.111159 64.262428 71 49 50
-1.505277 15.216750 64.123634 75 53 53
-1.502033 15.321887 63.985435 81 59 59
-1.498803 15.426571 63.847832 88 67 67
-1.498803 15.564205 63.847832 98 78 79
-1.498803 15.701839 63.847832 107 89 89
-1.495587 15.805484 63.710819 108 91 92
-1.489195 15.874691 63.438553 99 83 85
-1.486020 15.977304 63.303288 88 74 76
-1.482858 16.079479 63.168602 85 70 74
-1.476575 16.146940 62.900936 94 79 83
-1.470345 16.213831 62.635532 115 99 103
-1.458040 16.212040 62.111385 136 119 123
-1.458040 16.345932 62.111385 138 121 124
-1.458040 16.479824 62.111385 123 104 107
-1.458040 16.613714 62.111385 108 90 91
-1.454997 16.712643 61.981716 99 82 82
-1.451965 16.811157 61.852589 95 79 78
-1.451965 16.944490 61.852589 94 80 77
-1.451965 17.077824 61.852589 97 85 81
-1.451965 17.211157 61.852589 109 99 95
-1.451965 17.344490 61.852589 132 124 122
-1.543764 -14.816206 72.412788 101 97 109
-1.540008 -14.624439 72.236603 101 97 109
-1.536270 -14.433603 72.061264 117 113 126
-1.540008 -14.313004 72.236603 137 133 147
-1.540008 -14.157286 72.236603 147 140 155
-1.543764 -14.035718 72.412788 149 140 156
-1.543764 -13.879621 72.412788 152 142 156
-1.555143 -13.824679 72.946541 157 147 158
-1.555143 -13.667431 72.946541 157 149 157
-1.555143 -13.510183 72.946541 150 142 148
-1.555143 -13.352935 72.946541 135 130 133
-1.555143 -13.195686 72.946541 122 120 121
-1.558974 -13.070553 73.126213 119 119 118
-1.558974 -12.912917 73.126213 124 127 125
-1.558974 -12.755282 73.126213 132 137 134
-1.555143 -12.566694 72.946541 137 144 142
-1.555143 -12.409446 72.946541 143 149 150
-1.555143 -12.252198 72.946541 149 154 157
-1.555143 -12.094950 72.946541 151 155 158
-1.555143 -11.937701 72.946541 148 148 152
-1.555143 -11.780454 72.946541 145 144 147
-1.547539 -11.566368 72.589836 155 151 154
-1.555143 -11.465957 72.946541 163 158 159
-1.547539 -11.253409 72.589836 152 147 147
-1.551332 -11.124128 72.767754 140 136 136
-1.547539 -10.940452 72.589836 151 147 147
-1.543764 -10.757669 72.412788 175 173 173
-1.540008 -10.575777 72.236603 200 199 200
-1.536270 -10.394769 72.061264 205 205 208
-1.536270 -10.239429 72.061264 170 172 175
-1.532550 -10.059672 71.886787 139 142 145
-1.532550 -9.904708 71.886787 170 173 175
-1.528849 -9.726194 71.713142 216 219 221
-1.528849 -9.571605 71.713142 215 217 221
-1.525165 -9.394324 71.540344 184 186 191
-1.521498 -9.217896 71.368370 164 164 169
-1.521498 -9.064050 71.368370 166 163 169
-1.521498 -8.910203 71.368370 170 165 170
-1.521498 -8.756357 71.368370 138 132 135
-1.525165 -8.623240 71.540344 92 85 88
-1.532550 -8.510036 71.886787 90 84 86
-1.540008 -8.395729 72.236603 125 121 122
-1.547539 -8.280305 72.589836 142 140 142
-1.551332 -8.143737 72.767754 128 126 128
-1.551332 -7.986874 72.767754 101 100 103
-1.555143 -7.849249 72.946541 89 88 93
-1.558974 -7.710947 73.126213 124 124 129
-1.562823 -7.571962 73.306770 185 187 192
-1.566692 -7.432289 73.488220 201 206 210
-1.566692 -7.273872 73.488220 163 174 177
-1.562823 -7.097888 73.306770 130 144 149
-1.558974 -6.922770 73.126213 144 159 166
-1.551332 -6.731972 72.767754 191 203 210
-1.540008 -6.527116 72.236603 225 232 237
-1.532550 -6.340544 71.886787 212 213 224
-1.521498 -6.140973 71.368370 165 164 183
-1.521498 -5.987126 71.368370 157 153 173
-1.521498 -5.833280 71.368370 196 187 204
-1.521498 -5.679434 71.368370 209 196 211
-1.521498 -5.525588 71.368370 186 171 183
-1.996667 -4.020961 93.656914 136 123 125
-1.935607 -3.702277 90.792793 108 94 95
-1.724641 -3.124372 80.897118 83 68 68
-1.719955 -2.941969 80.677292 71 54 54
-1.706047 -2.745673 80.024910 68 50 49
-1.665640 -2.512223 78.129585 65 46 46
-1.652594 -2.325443 77.517601 62 41 42
-1.648290 -2.152720 77.315735 59 39 40
-1.639750 -1.975763 76.915138 57 37 39
-1.610543 -1.777721 75.545143 56 36 38
-1.602388 -1.606695 75.162636 56 36 37
-1.598342 -1.441022 74.972832 56 36 36
-1.598342 -1.279405 74.972832 56 37 36
-1.606455 -1.123463 75.353409 56 38 37
-1.602388 -0.958594 75.162636 57 41 39
-1.598342 -0.794557 74.972832 57 43 40
-1.598342 -0.632941 74.972832 57 45 42
-1.594316 -0.470137 74.783989 57 47 44
-1.594316 -0.308928 74.783989 54 46 44
-1.594316 -0.147719 74.783989 44 38 36
-1.594316 0.013490 74.783989 33 27 25
-1.598342 0.175140 74.972832 29 22 22
-1.594316 0.335908 74.783989 31 23 23
-1.590310 0.495868 74.596085 33 23 23
-1.586324 0.655026 74.409126 34 24 24
-1.582358 0.813389 74.223106 35 24 24
-1.582358 0.973389 74.223106 35 24 24
-1.574486 1.127750 73.853836 35 24 24
-1.574486 1.286954 73.853836 34 24 24
-1.644009 4.502222 77.114914 30 21 20
-1.631297 4.632360 76.518669 30 20 20
-1.594316 4.688553 74.783989 29 20 20
-1.631297 4.962256 76.518669 29 20 20
-1.150806 3.849737 53.980442 28 20 19
-1.122240 3.867651 52.640499 28 20 19
-1.122240 4.094602 52.640499 28 20 19
-1.696899 6.362883 79.595825 28 20 18
-1.648290 6.347280 77.315735 27 20 18
-1.648290 6.513947 77.315735 28 19 18
-1.631297 6.611741 76.518669 28 19 18
-1.631297 6.776690 76.518669 29 19 18
-1.622932 6.906040 76.126259 29 19 18
-1.606455 6.998364 75.353409 29 19 19
-1.606455 7.160800 75.353409 29 20 19
-1.606455 7.323237 75.353409 29 20 18
-1.614651 7.523866 75.737862 29 20 18
-1.614651 7.687131 75.737862 28 21 18
-1.614651 7.850397 75.737862 28 21 18
-1.438508 10.484899 67.475548 36 25 22
-1.431998 10.582253 67.170235 37 25 22
-1.438508 10.775808 67.475548 38 26 23
-1.441784 10.946140 67.629250 38 26 24
-1.441784 11.091926 67.629250 38 27 25
-1.441784 11.237712 67.629250 38 28 26
-1.441784 11.383497 67.629250 38 29 28
-1.445076 11.555606 67.783661 39 31 30
-1.445076 11.701725 67.783661 40 31 32
-1.441784 11.820855 67.629250 41 31 32
-1.445076 11.993962 67.783661 41 31 31
-1.445076 12.140081 67.783661 41 30 30
-1.445076 12.286200 67.783661 42 29 30
-1.431998 12.319809 67.170235 44 30 30
-1.412820 12.297668 66.270630 47 32 32
-1.412820 12.440526 66.270630 49 33 33
-1.409673 12.555357 66.123032 52 34 34
-1.406541 12.669679 65.976097 54 36 36
-1.400317 12.755211 65.684166 56 38 38
-1.397226 12.868335 65.539169 59 41 41
-1.391084 12.952430 65.251083 61 43 44
-1.391084 13.093089 65.251083 59 41 43
-1.391084 13.233748 65.251083 55 37 40
-1.394148 13.403867 65.394806 52 35 37
-1.397226 13.574737 65.539169 50 32 34
-1.400317 13.746362 65.684166 50 32 33
-1.400317 13.887955 65.684166 51 32 33
-1.394148 13.967743 65.394806 53 33 34
-1.391084 14.077704 65.251083 53 34 35
-1.394148 14.249681 65.394806 53 35 35
-1.394148 14.390651 65.394806 53 36 35
-1.394148 14.531620 65.394806 53 37 36
-1.394148 14.672589 65.394806 54 37 36
-1.397226 14.846259 65.539169 56 37 38
-1.394148 14.954528 65.394806 58 38 39
-1.391084 15.062320 65.251083 60 39 40
-1.381972 15.103396 64.823669 62 41 42
-1.370007 15.111159 64.262428 65 43 43
-1.367048 15.216750 64.123634 69 47 46
-1.364102 15.321887 63.985435 75 54 52
-1.361169 15.426571 63.847832 83 63 62
-1.358248 15.530806 63.710819 93 74 72
-1.358248 15.668145 63.710819 103 85 83
-1.358248 15.805484 63.710819 105 89 88
-1.352443 15.874691 63.438553 98 83 83
-1.346688 15.943310 63.168602 89 75 76
-1.343829 16.045341 63.034485 87 73 76
-1.335324 16.078810 62.635532 95 79 83
-1.332512 16.179695 62.503666 111 93 99
-1.324149 16.212040 62.111385 125 107 113
-1.324149 16.345932 62.111385 127 109 115
-1.324149 16.479824 62.111385 117 99 104
-1.324149 16.613714 62.111385 106 89 92
-1.321385 16.712643 61.981716 99 82 84
-1.318632 16.811157 61.852589 94 79 79
-1.318632 16.944490 61.852589 91 78 77
-1.318632 17.077824 61.852589 93 82 80
-1.318632 17.211157 61.852589 105 97 94
-1.318632 17.344490 61.852589 131 126 123
-1.318632 17.477823 61.852589 161 158 157
-1.391060 -14.852431 72.589836 100 96 106
-1.387667 -14.660109 72.412788 105 101 113
-1.384290 -14.468721 72.236603 111 108 122
-1.384290 -14.313004 72.236603 123 120 135
-1.387667 -14.191816 72.412788 133 128 145
-1.391060 -14.070036 72.589836 137 130 147
-1.394469 -13.947659 72.767754 139 131 147
-1.397895 -13.824679 72.946541 138 130 143
-1.397895 -13.667431 72.946541 135 129 138
-1.397895 -13.510183 72.946541 132 127 133
-1.397895 -13.352935 72.946541 127 124 127
-1.397895 -13.195686 72.946541 121 121 123
-1.397895 -13.038439 72.946541 119 122 122
-1.397895 -12.881190 72.946541 124 129 127
-1.397895 -12.723943 72.946541 132 138 137
-1.397895 -12.566694 72.946541 137 144 143
-1.391060 -12.348764 72.589836 140 147 148
-1.391060 -12.192285 72.589836 144 149 152
-1.387667 -12.006450 72.412788 146 150 154
-1.387667 -11.850352 72.412788 147 148 152
-1.387667 -11.694255 72.412788 156 154 158
-1.387667 -11.538157 72.412788 178 175 178
-1.387667 -11.382060 72.412788 189 184 186
-1.391060 -11.253409 72.589836 168 164 164
-1.394469 -11.124128 72.767754 145 142 141
-1.391060 -10.940452 72.589836 143 141 141
-1.387667 -10.757669 72.412788 155 153 155
-1.387667 -10.601572 72.412788 174 173 176
-1.384290 -10.420060 72.236603 179 179 182
-1.380931 -10.239429 72.061264 152 153 155
-1.377587 -10.059672 71.886787 136 137 140
-1.377587 -9.904708 71.886787 169 170 175
-1.377587 -9.749744 71.886787 201 203 209
-1.374259 -9.571605 71.713142 187 189 195
-1.374259 -9.417016 71.713142 156 158 165
-1.370948 -9.240108 71.540344 138 138 146
-1.367652 -9.064050 71.368370 131 129 137
-1.367652 -8.910203 71.368370 129 124 132
-1.367652 -8.756357 71.368370 118 112 119
-1.370948 -8.623240 71.540344 113 108 112
-1.380931 -8.530690 72.061264 144 139 142
-1.387667 -8.416206 72.412788 191 186 190
-1.394469 -8.300599 72.767754 210 206 211
-1.401338 -8.183853 73.126213 194 191 196
-1.401338 -8.026218 73.126213 149 146 151
-1.401338 -7.868583 73.126213 103 99 104
-1.404798 -7.729987 73.306770 103 100 106
-1.404798 -7.571962 73.306770 144 142 149
-1.408276 -7.432289 73.488220 162 164 170
-1.404798 -7.255912 73.306770 148 156 160
-1.404798 -7.097888 73.306770 155 163 169
-1.397895 -6.905760 72.946541 196 202 209
-1.387667 -6.699133 72.412788 234 240 244
-1.377587 -6.495507 71.886787 242 247 250
-1.367652 -6.294818 71.368370 216 218 228
-1.367652 -6.140973 71.368370 175 173 193
-1.367652 -5.987126 71.368370 173 167 188
-1.367652 -5.833280 71.368370 198 188 205
-1.367652 -5.679434 71.368370 180 164 182
-1.367652 -5.525588 71.368370 139 119 136
-1.367652 -5.371742 71.368370 128 105 119
-1.367652 -4.910203 71.368370 175 145 153
-1.367652 -4.756357 71.368370 201 170 181
-1.415282 -3.807574 73.853836 86 72 83
-1.415282 -3.648370 73.853836 111 99 108
-1.440363 -3.064923 75.162636 98 84 83
-1.440363 -2.902898 75.162636 78 63 61
-1.489380 -2.834148 77.720528 71 55 53
-1.489380 -2.666609 77.720528 68 51 49
-1.481623 -2.486053 77.315735 64 46 46
-1.481623 -2.319387 77.315735 60 42 43
-1.473947 -2.141566 76.915138 58 39 40
-1.466349 -1.965579 76.518669 56 37 39
-1.447693 -1.777721 75.545143 56 36 38
-1.436726 -1.602638 74.972832 55 35 37
-1.433107 -1.437392 74.783989 55 35 37
-1.433107 -1.276183 74.783989 55 36 37
-1.436726 -1.117789 74.972832 56 38 37
-1.436726 -0.956173 74.972832 57 39 38
-1.436726 -0.794557 74.972832 57 42 39
-1.436726 -0.632941 74.972832 57 44 41
-1.433107 -0.470137 74.783989 57 46 42
-1.433107 -0.308928 74.783989 54 45 42
-1.433107 -0.147719 74.783989 45 39 36
-1.436726 0.013524 74.972832 33 28 26
-1.436726 0.175140 74.972832 29 22 22
-1.436726 0.336756 74.972832 30 23 24
-1.436726 0.498372 74.972832 32 23 24
-1.433107 0.658326 74.783989 33 24 24
-1.429506 0.817476 74.596085 34 25 25
-1.422358 0.973389 74.223106 35 25 25
-1.422358 1.133389 74.223106 34 24 24
-1.429506 1.299888 74.596085 33 23 24
-1.477775 4.502222 77.114914 30 21 20
-1.477775 4.668456 77.114914 29 20 20
-1.477775 4.834690 77.114914 29 20 19
-1.688259 5.713221 88.098640 28 19 19
-1.678299 6.057096 87.578888 28 19 18
-1.593679 5.930968 83.163147 29 20 18
-1.034442 3.966101 53.980442 28 20 17
-1.481623 6.013947 77.315735 28 20 18
-1.481623 6.180613 77.315735 28 20 18
-1.481623 6.347280 77.315735 27 19 18
-1.477775 6.497027 77.114914 27 19 18
-1.466349 6.611741 76.518669 28 18 18
-1.458829 6.741937 76.126259 29 18 18
-1.455098 6.888377 75.931564 29 18 19
-1.444019 6.998364 75.353409 29 19 19
-1.440363 7.142672 75.162636 29 19 19
-1.440363 7.304698 75.162636 29 19 18
-1.455098 7.543108 75.931564 28 20 17
-1.455098 7.706791 75.931564 28 20 17
-1.455098 7.870474 75.931564 29 21 18
-1.295999 10.508782 67.629250 36 25 22
-1.293053 10.630353 67.475548 37 25 22
-1.295999 10.800354 67.629250 37 25 23
-1.295999 10.946140 67.629250 38 26 24
-1.295999 11.091926 67.629250 38 26 25
-1.295999 11.237712 67.629250 37 27 26
-1.298957 11.409488 67.783661 38 29 28
-1.301930 11.582049 67.938766 39 30 30
-1.301930 11.728502 67.938766 41 31 32
-1.298957 11.847843 67.783661 42 31 32
-1.298957 11.993962 67.783661 42 31 32
-1.301930 12.167862 67.938766 43 31 31
-1.298957 12.286200 67.783661 43 30 31
-1.287202 12.319809 67.170235 44 31 31
-1.272804 12.325180 66.418884 46 31 31
-1.269963 12.440526 66.270630 48 32 32
-1.267134 12.555357 66.123032 49 33 32
-1.267134 12.697896 66.123032 52 34 33
-1.255946 12.727054 65.539169 54 36 35
-1.250425 12.811770 65.251083 57 38 39
-1.250425 12.952430 65.251083 59 41 42
-1.250425 13.093089 65.251083 58 40 41
-1.250425 13.233748 65.251083 55 37 39
-1.250425 13.374408 65.251083 52 34 36
-1.255946 13.574737 65.539169 49 32 33
-1.255946 13.716017 65.539169 50 31 32
-1.253179 13.826775 65.394806 51 32 33
-1.247683 13.906482 65.107986 53 33 35
-1.247683 14.046832 65.107986 54 35 35
-1.247683 14.187183 65.107986 54 36 36
-1.250425 14.359023 65.251083 54 37 37
-1.250425 14.499682 65.251083 54 38 37
-1.244953 14.576270 64.965523 55 39 38
-1.244953 14.716314 64.965523 56 39 38
-1.244953 14.856358 64.965523 57 38 38
-1.242234 14.963658 64.823669 57 38 38
-1.236833 15.037729 64.541832 59 39 38
-1.228819 15.078522 64.123634 60 39 38
-1.228819 15.216750 64.123634 63 41 40
-1.226171 15.321887 63.985435 68 47 45
-1.220909 15.393467 63.710819 76 56 54
-1.220909 15.530806 63.710819 88 69 66
-1.220909 15.668145 63.710819 100 83 79
-1.218294 15.771639 63.574394 102 87 84
-1.213099 15.840843 63.303288 95 81 80
-1.210518 15.943310 63.168602 89 75 76
-1.207948 16.045341 63.034485 90 75 77
-1.200302 16.078810 62.635532 96 81 85
-1.197775 16.179695 62.503666 108 91 96
-1.192753 16.246029 62.241596 117 100 107
-1.192753 16.380199 62.241596 119 102 109
-1.192753 16.514372 62.241596 113 96 104
-1.190258 16.613714 62.111385 105 88 94
-1.190258 16.747606 62.111385 97 82 86
-1.185299 16.811157 61.852589 91 78 79
-1.185299 16.944490 61.852589 88 76 76
-1.185299 17.077824 61.852589 90 81 79
-1.185299 17.211157 61.852589 103 96 94
-1.185299 17.344490 61.852589 130 126 124
-1.185299 17.477823 61.852589 161 159 159
-1.237606 -14.888835 72.767754 102 98 108
-1.240647 -14.768168 72.946541 113 110 123
-1.234580 -14.539474 72.589836 113 110 126
-1.234580 -14.382994 72.589836 113 111 128
-1.237606 -14.261384 72.767754 118 114 133
-1.240647 -14.139175 72.946541 123 119 136
-1.243703 -14.016366 73.126213 129 124 140
-1.246774 -13.892949 73.306770 130 125 138
-1.243703 -13.701095 73.126213 127 124 133
-1.243703 -13.543460 73.126213 126 124 130
-1.240647 -13.352935 72.946541 123 123 128
-1.240647 -13.195686 72.946541 118 121 124
-1.240647 -13.038439 72.946541 118 123 125
-1.237606 -12.849619 72.767754 124 131 132
-1.234580 -12.661722 72.589836 132 139 141
-1.234580 -12.505243 72.589836 138 145 147
-1.228573 -12.288672 72.236603 143 150 153
-1.225591 -12.103506 72.061264 148 153 158
-1.225591 -11.948166 72.061264 149 151 158
-1.225591 -11.792827 72.061264 146 146 152
-1.225591 -11.637486 72.061264 154 153 157
-1.225591 -11.482147 72.061264 181 178 181
-1.225591 -11.326807 72.061264 198 194 196
-1.228573 -11.198648 72.236603 190 187 187
-1.228573 -11.042931 72.236603 179 177 177
-1.228573 -10.887213 72.236603 174 172 173
-1.228573 -10.731495 72.236603 163 161 165
-1.228573 -10.575777 72.236603 156 155 160
-1.228573 -10.420060 72.236603 151 150 157
-1.225591 -10.239429 72.061264 147 146 153
-1.225591 -10.084088 72.061264 161 160 167
-1.222623 -9.904708 71.886787 185 184 193
-1.222623 -9.749744 71.886787 187 188 198
-1.222623 -9.594781 71.886787 163 164 174
-1.219670 -9.417016 71.713142 134 135 145
-1.216731 -9.240108 71.540344 113 113 124
-1.213806 -9.064050 71.368370 105 104 114
-1.213806 -8.910203 71.368370 117 114 123
-1.213806 -8.756357 71.368370 137 133 140
-1.216731 -8.623240 71.540344 166 163 165
-1.228573 -8.551447 72.236603 207 206 206
-1.237606 -8.457462 72.767754 238 236 238
-1.243703 -8.341489 73.126213 246 244 247
-1.243703 -8.183853 73.126213 236 234 237
-1.243703 -8.026218 73.126213 199 197 200
-1.243703 -7.868583 73.126213 148 143 148
-1.246774 -7.729987 73.306770 125 121 127
-1.246774 -7.571962 73.306770 136 134 140
-1.246774 -7.413937 73.306770 152 153 158
-1.246774 -7.255912 73.306770 171 175 179
-1.246774 -7.097888 73.306770 203 206 210
-1.240647 -6.905760 72.946541 233 233 238
-1.228573 -6.682833 72.236603 239 237 243
-1.216731 -6.464204 71.540344 228 228 237
-1.213806 -6.294818 71.368370 215 215 230
-1.213806 -6.140973 71.368370 197 193 215
