ply
format ascii 1.0
element vertex 1236
property float x
property float y
property float z
property uchar red
property uchar green
property uchar blue
end_header
15.481368 -9.055510 61.852589 51 36 34
15.481368 -8.922176 61.852589 49 34 32
15.481368 -8.788843 61.852589 45 30 28
15.481368 -8.655509 61.852589 42 26 26
15.449183 -8.504458 61.723995 42 26 25
15.481368 -8.388843 61.852589 43 26 26
15.481368 -8.255509 61.852589 44 26 26
15.385210 -8.071728 61.468410 45 26 27
15.321766 -7.906484 61.214931 46 27 28
15.290240 -7.758528 61.088974 47 28 29
15.290240 -7.626841 61.088974 49 28 31
15.290240 -7.495153 61.088974 49 29 31
15.258843 -7.348346 60.963535 50 30 31
15.258843 -7.216929 60.963535 50 30 31
15.290240 -7.100091 61.088974 49 29 30
15.290240 -6.968404 61.088974 48 28 30
15.290240 -6.836717 61.088974 47 28 29
15.290240 -6.705030 61.088974 46 27 28
15.321766 -6.586896 61.214931 46 26 28
15.449183 -6.508616 61.723995 46 27 28
15.449183 -6.375560 61.723995 46 27 28
15.417130 -6.229553 61.595940 46 28 29
15.546144 -6.147792 62.111385 46 28 29
15.513688 -6.001346 61.981716 46 29 29
15.449183 -5.843336 61.723995 46 29 29
15.449183 -5.710279 61.723995 46 30 29
15.385210 -5.554130 61.468410 47 30 30
15.321766 -5.399267 61.214931 48 31 31
15.227575 -5.234927 60.838612 49 31 31
15.196435 -5.093343 60.714195 50 32 32
15.227575 -4.972632 60.838612 52 33 33
15.290240 -4.861409 61.088974 54 34 34
15.290240 -4.729721 61.088974 55 36 35
15.290240 -4.598034 61.088974 57 38 38
15.290240 -4.466347 61.088974 58 39 40
15.385210 -4.361583 61.468410 57 39 39
15.385210 -4.229078 61.468410 54 36 36
15.385210 -4.096572 61.468410 50 32 33
15.385210 -3.964067 61.468410 47 30 30
15.417130 -3.839511 61.595940 45 28 28
15.417130 -3.706731 61.595940 44 28 27
15.321766 -3.551844 61.214931 43 28 27
15.258843 -3.405841 60.963535 42 28 27
15.196435 -3.261032 60.714195 41 28 27
15.165421 -3.123764 60.590290 41 28 27
15.134535 -2.987056 60.466888 41 28 27
15.103774 -2.850904 60.343987 41 28 27
15.042624 -2.709807 60.099682 41 28 27
15.042624 -2.580252 60.099682 40 28 27
15.073137 -2.455668 60.221588 41 28 28
15.073137 -2.325851 60.221588 41 28 28
15.134535 -2.204979 60.466888 42 28 27
15.290240 -2.095976 61.088974 43 27 27
15.321766 -1.968339 61.214931 43 26 26
15.321766 -1.836380 61.214931 44 26 26
15.321766 -1.704422 61.214931 45 25 26
15.290240 -1.569227 61.088974 46 25 27
15.290240 -1.437540 61.088974 49 28 30
15.290240 -1.305853 61.088974 54 33 34
15.290240 -1.174166 61.088974 58 39 39
15.290240 -1.042478 61.088974 62 44 43
15.321766 -0.912669 61.214931 62 44 44
15.321766 -0.780710 61.214931 57 41 40
15.321766 -0.648752 61.214931 52 37 35
15.290240 -0.515729 61.088974 49 34 33
15.290240 -0.384042 61.088974 48 33 32
15.321766 -0.252875 61.214931 48 33 32
15.385210 -0.121417 61.468410 48 33 31
15.449183 0.011134 61.723995 48 33 32
15.481368 0.144491 61.852589 47 33 32
15.546144 0.278986 62.111385 47 32 32
15.513688 0.412016 61.981716 47 32 32
15.417130 0.542231 61.595940 46 31 31
15.385210 0.673614 61.468410 46 31 30
15.353423 0.804453 61.341408 44 30 30
15.353423 0.936685 61.341408 43 29 29
15.321766 1.066712 61.214931 42 28 28
15.258843 1.193748 60.963535 41 27 27
15.258843 1.325165 60.963535 41 26 26
15.196435 1.450625 60.714195 41 27 26
15.134535 1.575062 60.466888 41 27 26
15.103774 1.701942 60.343987 42 28 26
15.073137 1.828307 60.221588 42 29 26
15.073137 1.958125 60.221588 42 29 26
15.042624 2.083715 60.099682 42 29 26
15.012236 2.208799 59.978268 41 29 25
15.012236 2.338092 59.978268 41 29 25
15.042624 2.472379 60.099682 41 29 25
15.073137 2.607212 60.221588 41 29 27
15.073137 2.737029 60.221588 42 29 28
15.042624 2.861043 60.099682 44 29 28
15.073137 2.996664 60.221588 45 29 29
15.134535 3.139217 60.466888 46 30 30
15.165421 3.276236 60.590290 47 31 30
15.227575 3.420810 60.838612 47 32 30
15.290240 3.566575 61.088974 47 32 30
15.290240 3.698262 61.088974 45 32 30
15.165421 3.798685 60.590290 43 31 29
15.103774 3.913324 60.343987 41 30 28
15.073137 4.035204 60.221588 37 29 26
15.073137 4.165021 60.221588 36 27 25
15.103774 4.303568 60.343987 35 26 25
15.073137 4.424656 60.221588 35 26 25
15.073137 4.554473 60.221588 36 27 25
15.073137 4.684291 60.221588 38 29 27
15.103774 5.084056 60.343987 42 32 31
15.103774 5.214137 60.343987 41 31 31
15.073137 5.333378 60.221588 39 29 29
15.103774 5.474300 60.343987 37 28 27
15.103774 5.604381 60.343987 36 27 26
15.134535 5.746141 60.466888 36 27 26
15.196435 5.900522 60.714195 36 27 26
15.196435 6.031402 60.714195 35 26 26
15.103774 6.124706 60.343987 34 25 26
15.042624 6.229465 60.099682 34 24 25
15.042624 6.359019 60.099682 34 24 25
15.073137 6.501735 60.221588 35 24 24
15.134535 6.658565 60.466888 36 25 24
15.134535 6.788911 60.466888 38 26 25
15.134535 6.919258 60.466888 40 26 25
15.134535 7.049604 60.466888 41 26 25
15.103774 7.165357 60.343987 41 26 25
15.073137 7.280640 60.221588 40 25 23
15.073137 7.410457 60.221588 43 29 28
15.073137 7.540275 60.221588 53 39 38
15.073137 7.670092 60.221588 58 45 44
15.042624 7.784121 60.099682 51 40 40
15.042624 7.913675 60.099682 41 31 32
15.042624 8.043230 60.099682 35 26 27
15.042624 8.172785 60.099682 34 24 25
15.103774 8.336088 60.343987 34 23 24
15.103774 8.466169 60.343987 34 23 23
15.073137 8.578815 60.221588 35 22 23
15.042624 8.691003 60.099682 36 22 23
15.012236 8.802738 59.978268 36 23 24
14.981969 8.914023 59.857342 38 25 26
14.981969 9.043056 59.857342 39 27 27
14.981969 9.172088 59.857342 40 29 28
14.981969 9.301120 59.857342 41 30 30
14.981969 9.430152 59.857342 40 30 29
14.981969 9.559184 59.857342 39 29 28
14.981969 9.688216 59.857342 37 27 26
14.981969 9.817249 59.857342 35 25 25
14.981969 9.946281 59.857342 33 23 23
14.981969 10.075314 59.857342 32 23 22
14.951824 10.183814 59.736904 32 24 23
14.951824 10.312587 59.736904 33 25 23
14.951824 10.441360 59.736904 34 26 24
15.012236 10.612840 59.978268 33 26 24
15.012236 10.742132 59.978268 33 26 24
14.951824 10.827677 59.736904 33 26 24
14.951824 10.956450 59.736904 33 27 25
15.134535 11.220683 60.466888 33 27 26
15.134535 11.351029 60.466888 33 26 26
14.981969 11.365636 59.857342 32 26 26
14.981969 11.494668 59.857342 31 25 25
14.951824 11.600313 59.736904 30 25 25
14.921801 11.705533 59.616951 29 24 24
14.685883 11.646948 58.674393 29 23 24
14.513783 11.635460 57.986801 28 23 23
14.485491 11.737535 57.873768 28 22 22
14.513783 11.885460 57.986801 27 22 21
14.832448 12.274162 59.259964 27 21 21
14.832448 12.401907 59.259964 27 22 21
14.832448 12.529652 59.259964 27 22 21
14.802901 12.632182 59.141918 28 23 23
14.773473 12.734305 59.024338 29 25 24
14.773473 12.861542 59.024338 29 25 24
14.832448 13.040629 59.259964 29 24 24
14.981969 13.301120 59.857342 29 24 23
14.981969 13.430152 59.857342 29 23 23
14.921801 13.504730 59.616951 29 24 23
14.891897 13.605923 59.497478 29 24 23
14.832448 13.679352 59.259964 29 23 22
14.832448 13.807096 59.259964 28 22 21
14.832448 13.934841 59.259964 27 21 20
14.832448 14.062586 59.259964 25 20 19
14.832448 14.190331 59.259964 24 20 19
14.832448 14.318075 59.259964 24 19 19
14.802901 14.417043 59.141918 26 19 21
14.802901 14.544533 59.141918 29 21 23
14.773473 14.642854 59.024338 31 22 25
14.773473 14.770090 59.024338 33 24 27
15.233855 -11.956594 60.343987 29 21 22
15.202954 -11.802525 60.221588 29 21 21
15.172179 -11.649078 60.099682 29 21 21
15.111001 -11.473074 59.857342 29 21 19
15.111001 -11.344042 59.857342 30 21 18
15.141528 -11.237666 59.978268 30 21 18
15.141528 -11.108373 59.978268 31 22 19
15.172179 -11.001305 60.099682 32 23 19
15.264881 -10.938176 60.466888 33 23 19
15.485654 -10.964142 61.341408 33 23 19
15.485654 -10.831910 61.341408 33 24 20
15.517715 -10.721831 61.468410 34 24 21
15.614701 -10.655509 61.852589 34 24 21
15.680035 -10.566202 62.111385 34 23 21
15.680035 -10.432311 62.111385 34 24 21
15.680035 -10.298420 62.111385 35 24 20
15.680035 -10.164528 62.111385 37 24 21
15.680035 -10.030637 62.111385 39 25 23
15.647300 -9.876084 61.981716 41 26 25
15.614701 -9.722177 61.852589 43 27 26
15.647300 -9.608861 61.981716 46 28 27
15.680035 -9.495072 62.111385 48 30 29
15.647300 -9.341638 61.981716 50 32 31
15.647300 -9.208026 61.981716 52 35 34
15.614701 -9.055510 61.852589 53 36 35
15.647300 -8.940803 61.981716 51 35 34
15.647300 -8.807191 61.981716 47 31 30
15.614701 -8.655509 61.852589 44 27 28
15.614701 -8.522176 61.852589 43 27 27
15.614701 -8.388843 61.852589 44 27 27
15.614701 -8.255509 61.852589 44 27 27
15.549910 -8.088474 61.595940 45 27 27
15.453725 -7.906484 61.214931 46 27 27
15.453725 -7.774525 61.214931 46 27 28
15.421927 -7.626841 61.088974 48 27 30
15.421927 -7.495153 61.088974 48 28 30
15.421927 -7.363466 61.088974 48 29 30
15.421927 -7.231779 61.088974 48 29 30
15.421927 -7.100091 61.088974 48 29 30
15.421927 -6.968404 61.088974 48 28 29
15.421927 -6.836717 61.088974 47 27 29
15.421927 -6.705030 61.088974 46 27 28
15.453725 -6.586896 61.214931 45 27 28
15.549910 -6.495113 61.595940 45 27 28
15.549910 -6.362333 61.595940 46 28 29
15.582238 -6.242504 61.723995 46 29 29
15.845786 -6.212779 62.767956 46 29 29
15.779067 -6.051883 62.503666 47 29 30
15.647300 -5.867734 61.981716 46 29 29
15.647300 -5.734122 61.981716 47 30 29
15.582238 -5.577224 61.723995 47 30 30
15.485654 -5.410423 61.341408 47 30 30
15.358723 -5.234927 60.838612 48 30 30
15.358723 -5.103780 60.838612 49 31 31
15.390260 -4.982843 60.963535 50 31 31
15.453725 -4.871432 61.214931 51 32 32
15.453725 -4.739473 61.214931 52 34 34
15.421927 -4.598034 61.088974 54 37 36
15.421927 -4.466347 61.088974 55 38 38
15.485654 -4.352571 61.341408 54 37 37
15.517715 -4.229078 61.468410 51 35 35
15.517715 -4.096572 61.468410 48 32 32
15.517715 -3.964067 61.468410 45 30 30
15.517715 -3.831562 61.468410 43 29 28
15.517715 -3.699057 61.468410 42 28 27
15.453725 -3.551844 61.214931 41 29 28
15.390260 -3.405841 60.963535 41 28 28
15.296034 -3.254377 60.590290 40 28 28
15.264881 -3.117402 60.466888 40 28 28
15.233855 -2.980985 60.343987 40 27 27
15.172179 -2.839361 60.099682 40 27 26
15.141528 -2.704332 59.978268 39 27 27
15.141528 -2.575039 59.978268 39 27 26
15.172179 -2.450697 60.099682 39 27 26
15.202954 -2.325851 60.221588 40 28 26
15.296034 -2.209479 60.590290 41 28 26
15.421927 -2.095976 61.088974 42 27 26
15.453725 -1.968339 61.214931 42 26 25
15.453725 -1.836380 61.214931 43 26 25
15.453725 -1.704422 61.214931 44 26 26
15.421927 -1.569227 61.088974 46 26 27
15.421927 -1.437540 61.088974 48 28 29
15.421927 -1.305853 61.088974 52 31 32
15.421927 -1.174166 61.088974 56 36 37
15.453725 -1.044628 61.214931 60 41 41
15.453725 -0.912669 61.214931 60 42 41
15.453725 -0.780710 61.214931 56 39 38
15.453725 -0.648752 61.214931 52 36 35
15.453725 -0.516793 61.214931 50 34 33
15.453725 -0.384834 61.214931 49 33 32
15.517715 -0.253922 61.468410 49 33 32
15.614701 -0.122176 61.852589 49 33 32
15.614701 0.011157 61.852589 49 33 32
15.647300 0.144792 61.981716 49 33 32
15.779067 0.280748 62.503666 48 33 33
15.779067 0.415485 62.503666 48 32 32
15.614701 0.544491 61.852589 47 32 31
15.549910 0.675011 61.595940 46 31 31
15.549910 0.807791 61.595940 45 30 30
15.549910 0.940571 61.595940 43 29 30
15.549910 1.073352 61.595940 42 28 29
15.517715 1.203635 61.468410 41 27 27
15.485654 1.333379 61.341408 40 27 26
15.453725 1.462589 61.214931 41 28 26
15.390260 1.587999 60.963535 41 28 26
15.390260 1.719416 60.963535 41 28 26
15.296034 1.839501 60.590290 41 29 26
15.264881 1.966101 60.466888 41 29 26
15.202954 2.087942 60.221588 41 29 26
15.202954 2.217760 60.221588 40 29 25
15.202954 2.347577 60.221588 39 28 24
15.264881 2.487486 60.466888 39 28 24
15.264881 2.617832 60.466888 40 28 25
15.264881 2.748178 60.466888 40 28 26
15.233855 2.872674 60.343987 42 27 27
15.233855 3.002755 60.343987 44 28 28
15.264881 3.139217 60.466888 45 29 29
15.296034 3.276236 60.590290 46 30 29
15.358723 3.420810 60.838612 46 31 29
15.390260 3.559252 60.963535 46 32 29
15.390260 3.690668 60.963535 46 33 30
15.264881 3.790948 60.466888 45 33 30
15.202954 3.905386 60.221588 42 32 28
15.172179 4.027035 60.099682 37 29 25
15.172179 4.156590 60.099682 35 28 24
15.172179 4.286145 60.099682 33 26 23
15.202954 4.424656 60.221588 33 26 23
15.202954 4.554473 60.221588 34 27 24
15.141528 4.665365 59.978268 36 28 26
15.141528 4.794658 59.978268 38 29 28
15.233855 5.084056 60.343987 40 31 31
15.202954 5.203561 60.221588 40 30 31
15.172179 5.322582 60.099682 39 29 29
15.202954 5.463196 60.221588 37 28 27
15.202954 5.593013 60.221588 35 27 26
15.264881 5.746141 60.466888 35 26 26
15.327314 5.900522 60.714195 35 26 26
15.327314 6.031402 60.714195 34 25 26
15.202954 6.112283 60.221588 33 24 25
15.172179 6.229465 60.099682 33 24 25
15.172179 6.359019 60.099682 33 23 24
15.172179 6.488574 60.099682 34 23 24
15.233855 6.645031 60.343987 35 24 24
15.233855 6.775113 60.343987 36 25 24
15.233855 6.905194 60.343987 38 26 25
15.233855 7.035275 60.343987 40 26 25
15.202954 7.150823 60.221588 40 26 24
15.202954 7.280640 60.221588 39 26 23
15.202954 7.410457 60.221588 42 29 26
15.233855 7.555601 60.343987 50 36 34
15.233855 7.685682 60.343987 53 41 40
15.202954 7.799910 60.221588 49 38 37
15.172179 7.913675 60.099682 42 32 32
15.172179 8.043230 60.099682 37 28 28
15.172179 8.172785 60.099682 35 26 27
15.233855 8.336088 60.343987 35 25 26
15.264881 8.483413 60.466888 35 24 25
15.233855 8.596251 60.343987 35 24 24
15.202954 8.708632 60.221588 36 24 24
15.172179 8.820558 60.099682 37 25 25
15.111001 8.914023 59.857342 38 26 26
15.111001 9.043056 59.857342 38 28 27
15.111001 9.172088 59.857342 39 29 28
15.111001 9.301120 59.857342 39 30 28
15.111001 9.430152 59.857342 39 29 28
15.111001 9.559184 59.857342 38 28 27
15.111001 9.688216 59.857342 36 26 26
15.111001 9.817249 59.857342 34 24 24
15.111001 9.946281 59.857342 32 23 23
15.111001 10.075314 59.857342 31 23 22
15.111001 10.204346 59.857342 30 23 22
15.080597 10.312587 59.736904 31 24 23
15.111001 10.462410 59.857342 32 25 24
15.141528 10.612840 59.978268 32 26 24
15.141528 10.742132 59.978268 32 26 24
15.111001 10.849507 59.857342 32 26 25
15.111001 10.978539 59.857342 32 26 24
15.327314 11.266576 60.714195 32 25 25
15.327314 11.397455 60.714195 32 25 25
15.111001 11.365636 59.857342 32 25 25
15.111001 11.494668 59.857342 31 25 25
15.233855 11.718203 60.343987 31 24 24
15.111001 11.752733 59.857342 30 24 24
14.812365 11.646948 58.674393 29 23 24
14.638783 11.635460 57.986801 28 23 22
14.497209 11.646723 57.425999 28 22 21
14.497209 11.770514 57.425999 27 22 21
14.960193 12.274162 59.259964 27 22 22
14.960193 12.401907 59.259964 27 22 22
14.930391 12.504692 59.141918 28 22 23
14.783149 12.760070 58.558662 29 24 25
14.841697 12.937338 58.790577 28 24 24
15.080597 13.274357 59.736904 28 23 23
15.080597 13.403130 59.736904 29 23 23
15.020154 13.477666 59.497478 29 24 23
15.020154 13.605923 59.497478 29 24 22
14.960193 13.679352 59.259964 29 23 22
14.960193 13.807096 59.259964 28 22 21
14.960193 13.934841 59.259964 26 21 20
14.960193 14.062586 59.259964 25 20 19
14.960193 14.190331 59.259964 25 19 19
14.960193 14.318075 59.259964 24 19 20
14.960193 14.445819 59.259964 26 20 21
14.960193 14.573564 59.259964 28 21 23
14.930391 14.672023 59.141918 30 22 25
14.930391 14.799513 59.141918 32 24 27
15.395227 -11.850600 60.466888 29 21 20
15.332772 -11.672707 60.221588 29 21 20
15.240033 -11.473074 59.857342 29 21 19
15.240033 -11.344042 59.857342 30 21 18
15.270822 -11.237666 59.978268 30 22 18
15.270822 -11.108373 59.978268 30 22 18
15.395227 -11.068522 60.466888 31 23 18
15.426646 -10.960499 60.590290 32 23 18
15.585684 -10.941535 61.214931 33 24 19
15.617886 -10.831910 61.341408 33 24 20
15.650221 -10.721831 61.468410 33 23 20
15.813926 -10.700093 62.111385 33 23 20
15.880371 -10.610598 62.372356 33 23 20
15.880371 -10.476144 62.372356 34 23 20
15.847079 -10.320009 62.241596 35 23 20
15.847079 -10.185838 62.241596 36 23 21
15.880371 -10.072783 62.372356 38 24 23
15.813926 -9.896746 62.111385 40 25 24
15.813926 -9.762855 62.111385 43 26 26
15.880371 -9.669421 62.372356 45 27 28
15.880371 -9.534967 62.372356 48 29 30
15.847079 -9.380806 62.241596 50 31 32
15.780911 -9.208026 61.981716 52 34 34
15.780911 -9.074414 61.981716 53 35 35
15.780911 -8.940803 61.981716 52 35 35
15.780911 -8.807191 61.981716 49 32 33
15.780911 -8.673579 61.981716 46 29 30
15.780911 -8.539968 61.981716 45 28 29
15.780911 -8.406356 61.981716 46 28 29
15.780911 -8.272744 61.981716 46 28 28
15.715295 -8.105290 61.723995 46 28 28
15.585684 -7.906484 61.214931 45 28 28
15.585684 -7.774525 61.214931 46 27 28
15.553615 -7.626841 61.088974 47 27 29
15.553615 -7.495153 61.088974 47 28 29
15.553615 -7.363466 61.088974 47 29 29
15.553615 -7.231779 61.088974 47 29 29
15.553615 -7.100091 61.088974 47 29 29
15.489870 -6.939846 60.838612 47 28 29
15.489870 -6.808698 60.838612 47 27 28
15.489870 -6.677550 60.838612 46 27 28
15.521677 -6.559845 60.963535 46 27 28
15.521677 -6.428428 60.963535 45 28 28
15.521677 -6.297011 60.963535 46 28 30
15.650221 -6.216655 61.468410 47 29 30
16.014950 -6.225942 62.900936 47 30 30
15.981092 -6.077473 62.767956 47 30 30
15.780911 -5.867734 61.981716 47 30 29
15.780911 -5.734122 61.981716 46 29 29
15.748034 -5.588843 61.852589 46 29 29
15.650221 -5.421624 61.468410 47 29 29
15.521677 -5.245677 60.963535 47 29 29
15.521677 -5.114260 60.963535 47 30 30
15.553615 -4.993096 61.088974 47 30 30
15.585684 -4.871432 61.214931 48 31 30
15.585684 -4.739473 61.214931 49 33 32
15.585684 -4.607514 61.214931 50 35 34
15.585684 -4.475556 61.214931 50 36 36
15.617886 -4.352571 61.341408 49 36 36
15.617886 -4.220340 61.341408 47 35 35
15.617886 -4.088109 61.341408 45 33 32
15.617886 -3.955877 61.341408 43 31 30
15.650221 -3.831562 61.468410 42 29 28
15.650221 -3.699057 61.468410 41 28 27
15.585684 -3.551844 61.214931 40 28 28
15.426646 -3.384989 60.590290 40 28 28
15.395227 -3.247749 60.466888 40 28 28
15.363936 -3.111066 60.343987 40 28 28
15.332772 -2.974938 60.221588 40 27 27
15.270822 -2.833625 59.978268 39 27 26
15.240033 -2.698880 59.857342 38 27 26
15.240033 -2.569848 59.857342 37 26 26
15.270822 -2.445746 59.978268 38 27 25
15.395227 -2.335325 60.466888 39 27 26
15.521677 -2.223089 60.963535 40 27 26
15.585684 -2.100298 61.214931 41 27 26
15.585684 -1.968339 61.214931 42 27 26
15.585684 -1.836380 61.214931 43 26 26
15.553615 -1.700915 61.088974 44 25 26
15.553615 -1.569227 61.088974 46 26 27
15.585684 -1.440504 61.214931 47 27 28
15.585684 -1.308545 61.214931 50 29 30
15.585684 -1.176587 61.214931 52 33 33
15.585684 -1.044628 61.214931 54 36 36
15.585684 -0.912669 61.214931 54 37 36
15.585684 -0.780710 61.214931 53 36 35
15.585684 -0.648752 61.214931 51 34 34
15.585684 -0.516793 61.214931 50 33 33
15.585684 -0.384834 61.214931 49 33 32
15.682690 -0.254449 61.595940 50 33 32
15.748034 -0.122176 61.852589 50 33 32
15.748034 0.011157 61.852589 50 33 33
15.748034 0.144491 61.852589 50 33 33
16.048952 0.283133 63.034485 50 33 33
16.048952 0.419014 63.034485 49 33 34
15.748034 0.544491 61.852589 48 33 33
15.682690 0.675011 61.595940 47 32 32
15.682690 0.807791 61.595940 46 31 31
15.682690 0.940571 61.595940 44 30 30
15.715295 1.075583 61.723995 43 29 30
15.682690 1.206132 61.595940 41 28 28
15.650221 1.336140 61.468410 40 28 27
15.617886 1.465611 61.341408 41 28 27
15.617886 1.597842 61.341408 41 29 27
15.585684 1.726506 61.214931 41 30 26
15.553615 1.854641 61.088974 41 30 27
15.426646 1.970113 60.590290 41 30 27
15.395227 2.096447 60.466888 41 30 26
15.363936 2.222267 60.343987 40 29 25
15.395227 2.357139 60.466888 39 28 24
15.395227 2.487486 60.466888 38 28 24
15.426646 2.623174 60.590290 38 27 24
15.426646 2.753787 60.590290 39 27 25
15.363936 2.872674 60.343987 41 26 26
15.363936 3.002755 60.343987 43 27 27
15.363936 3.132836 60.343987 44 27 28
15.395227 3.269563 60.466888 45 28 28
15.426646 3.406848 60.590290 45 29 28
15.489870 3.551958 60.838612 45 31 28
15.458194 3.675574 60.714195 46 33 30
15.395227 3.790948 60.466888 48 37 34
15.332772 3.905386 60.221588 44 35 31
15.301734 4.027035 60.099682 36 29 25
15.270822 4.148193 59.978268 34 27 24
15.270822 4.277486 59.978268 33 26 23
15.301734 4.415699 60.099682 32 25 23
15.270822 4.536072 59.978268 34 27 24
15.270822 4.665365 59.978268 36 28 26
15.270822 4.794658 59.978268 37 28 28
15.270822 4.923951 59.978268 38 29 29
15.301734 5.063473 60.099682 38 30 29
15.301734 5.193027 60.099682 38 30 29
15.270822 5.311829 59.978268 38 29 28
15.301734 5.452137 60.099682 37 28 27
15.332772 5.593013 60.221588 35 27 26
15.395227 5.746141 60.466888 35 27 26
15.458194 5.900522 60.714195 34 26 26
15.458194 6.031402 60.714195 33 25 25
15.301734 6.099910 60.099682 33 24 25
15.301734 6.229465 60.099682 32 23 24
15.301734 6.359019 60.099682 32 22 23
15.301734 6.488574 60.099682 33 22 23
15.332772 6.631553 60.221588 33 23 23
15.363936 6.775113 60.343987 35 24 23
15.363936 6.905194 60.343987 37 25 24
15.363936 7.035275 60.343987 38 26 24
15.332772 7.150823 60.221588 39 26 23
15.332772 7.280640 60.221588 38 26 23
15.332772 7.410457 60.221588 40 28 24
15.363936 7.555601 60.343987 43 32 29
15.363936 7.685682 60.343987 45 35 33
15.332772 7.799910 60.221588 43 34 32
15.301734 7.913675 60.099682 39 30 30
15.301734 8.043230 60.099682 37 28 29
15.332772 8.189362 60.221588 36 27 28
15.363936 8.336088 60.343987 35 26 26
15.426646 8.500726 60.590290 35 25 25
15.426646 8.631338 60.590290 35 25 25
15.363936 8.726333 60.343987 36 26 25
15.301734 8.820558 60.099682 37 26 25
15.301734 8.950112 60.099682 37 27 26
15.240033 9.043056 59.857342 37 28 27
15.240033 9.172088 59.857342 37 29 27
15.240033 9.301120 59.857342 37 28 27
15.240033 9.430152 59.857342 36 28 27
15.240033 9.559184 59.857342 35 26 26
15.240033 9.688216 59.857342 34 25 25
15.240033 9.817249 59.857342 32 24 24
15.240033 9.946281 59.857342 30 22 23
15.240033 10.075314 59.857342 30 22 22
15.240033 10.204346 59.857342 29 22 22
15.240033 10.333378 59.857342 29 23 23
15.301734 10.893432 60.099682 31 24 24
15.521677 11.181428 60.963535 31 24 24
15.521677 11.312845 60.963535 31 24 25
15.521677 11.444262 60.963535 31 24 25
15.521677 11.575679 60.963535 31 24 25
15.650221 11.804049 61.468410 30 24 24
15.650221 11.936554 61.468410 30 23 24
15.363936 11.848284 60.343987 29 23 24
15.057881 11.739752 59.141918 29 23 23
14.763783 11.635460 57.986801 28 23 21
14.480951 11.535164 56.875942 28 22 21
14.480951 11.657769 56.875942 27 22 21
15.087937 12.274162 59.259964 28 22 22
15.087937 12.401907 59.259964 28 22 22
14.909382 12.886303 58.558662 29 24 24
15.209370 13.274357 59.736904 28 24 24
15.209370 13.403130 59.736904 28 23 23
15.178828 13.504730 59.616951 28 23 23
15.148410 13.605923 59.497478 28 23 22
15.057881 13.652102 59.141918 28 23 21
15.057881 13.779593 59.141918 27 22 21
15.087937 13.934841 59.259964 26 20 20
15.087937 14.062586 59.259964 25 20 20
15.118114 14.218711 59.378483 25 19 19
15.118114 14.346711 59.378483 24 19 20
15.118114 14.474710 59.378483 25 20 21
15.087937 14.573564 59.259964 27 21 23
15.118114 14.730711 59.378483 29 22 24
15.494018 -11.696432 60.343987 28 20 19
15.462589 -11.542890 60.221588 29 20 19
15.400114 -11.366959 59.978268 29 21 18
15.400114 -11.237666 59.978268 30 21 17
15.431289 -11.130859 60.099682 30 21 17
15.557259 -11.091111 60.590290 31 22 17
15.621017 -11.005419 60.838612 32 23 18
15.717643 -10.941535 61.214931 34 24 19
15.750117 -10.831910 61.341408 34 24 20
15.750117 -10.699678 61.341408 34 24 20
15.947817 -10.700093 62.111385 34 24 21
16.048540 -10.632936 62.503666 34 23 20
16.048540 -10.498199 62.503666 34 23 20
16.048540 -10.363462 62.503666 35 22 21
16.184834 -10.315594 63.034485 36 23 22
16.184834 -10.179712 63.034485 37 23 23
15.981251 -9.917494 62.241596 40 24 25
15.981251 -9.783322 62.241596 42 25 26
16.082397 -9.710220 62.635532 44 26 28
16.082397 -9.575199 62.635532 47 28 29
16.014826 -9.400514 62.372356 49 30 31
15.914523 -9.208026 61.981716 51 32 32
15.914523 -9.074414 61.981716 52 34 34
15.914523 -8.940803 61.981716 52 35 34
15.914523 -8.807191 61.981716 50 32 33
15.914523 -8.673579 61.981716 48 31 31
15.914523 -8.539968 61.981716 47 30 31
16.014826 -8.459337 62.372356 46 30 31
16.014826 -8.324883 62.372356 46 29 30
15.848351 -8.105290 61.723995 46 29 29
15.685302 -7.890215 61.088974 45 28 29
15.685302 -7.758528 61.088974 45 28 28
15.685302 -7.626841 61.088974 45 28 28
15.685302 -7.495153 61.088974 46 28 28
15.685302 -7.363466 61.088974 46 28 28
15.557259 -7.172744 60.590290 46 28 28
15.557259 -7.042132 60.590290 46 28 29
15.621017 -6.939846 60.838612 46 28 29
15.525574 -6.767097 60.466888 46 27 28
15.525574 -6.636751 60.466888 46 27 28
15.525574 -6.506404 60.466888 46 27 28
15.557259 -6.389071 60.590290 46 28 28
15.557259 -6.258458 60.590290 46 29 29
15.557259 -6.127846 60.590290 47 29 30
15.881368 -6.122176 61.852589 47 30 30
15.914523 -6.001346 61.981716 47 30 30
15.881368 -5.855509 61.852589 47 30 30
15.881368 -5.722176 61.852589 46 30 29
15.848351 -5.577224 61.723995 46 29 29
15.815470 -5.432872 61.595940 45 28 28
15.685302 -5.256470 61.088974 45 29 29
15.685302 -5.124783 61.088974 45 29 29
15.685302 -4.993096 61.088974 45 29 29
15.750117 -4.881497 61.341408 45 31 29
15.750117 -4.749266 61.341408 46 32 31
15.750117 -4.617034 61.341408 46 33 33
15.750117 -4.484803 61.341408 46 35 35
15.782726 -4.361583 61.468410 46 35 35
15.782726 -4.229078 61.468410 44 34 34
15.782726 -4.096572 61.468410 42 32 32
15.750117 -3.955877 61.341408 41 31 30
15.750117 -3.823646 61.341408 40 29 28
15.750117 -3.691414 61.341408 40 28 27
15.717643 -3.551844 61.214931 40 28 27
15.557259 -3.384989 60.590290 40 28 28
15.525574 -3.247749 60.466888 40 28 28
15.462589 -3.104756 60.221588 40 28 28
15.431289 -2.968916 60.099682 39 27 27
15.369066 -2.827912 59.857342 39 27 27
15.338142 -2.693450 59.736904 38 27 26
15.338142 -2.564677 59.736904 37 26 25
15.369066 -2.440816 59.857342 37 27 26
15.653093 -2.354506 60.963535 38 27 26
15.717643 -2.232257 61.214931 39 28 26
15.750117 -2.104637 61.341408 41 28 27
15.750117 -1.972406 61.341408 42 27 26
15.717643 -1.836380 61.214931 43 26 26
15.717643 -1.704422 61.214931 44 26 26
15.717643 -1.572463 61.214931 45 25 26
15.717643 -1.440504 61.214931 46 26 27
15.750117 -1.311249 61.341408 47 27 28
15.717643 -1.176587 61.214931 49 29 30
15.717643 -1.044628 61.214931 50 31 31
15.717643 -0.912669 61.214931 50 32 32
15.685302 -0.779104 61.088974 50 33 33
15.685302 -0.647417 61.088974 50 32 32
15.685302 -0.515729 61.088974 50 32 32
15.717643 -0.384834 61.214931 49 32 32
15.750117 -0.253398 61.341408 50 33 32
15.815470 -0.121669 61.595940 50 33 32
15.750117 0.011065 61.341408 50 33 33
15.848351 0.144190 61.723995 50 33 33
16.082397 0.281341 62.635532 50 33 34
16.082397 0.416362 62.635532 50 33 34
15.881368 0.544491 61.852589 49 33 34
15.815470 0.675011 61.595940 48 33 33
15.815470 0.807791 61.595940 47 32 32
15.848351 0.942527 61.723995 45 31 31
15.848351 1.075583 61.723995 44 30 30
15.848351 1.208639 61.723995 42 29 29
15.815470 1.338912 61.595940 41 29 28
15.782726 1.468645 61.468410 41 29 28
15.782726 1.601150 61.468410 42 30 27
15.750117 1.730073 61.341408 42 31 27
15.717643 1.858465 61.214931 42 31 27
15.685302 1.986328 61.088974 42 31 28
15.557259 2.100725 60.590290 41 30 27
15.525574 2.226793 60.466888 39 29 26
15.525574 2.357139 60.466888 38 29 25
15.557259 2.492562 60.590290 38 28 24
15.557259 2.623174 60.590290 38 27 24
15.557259 2.753787 60.590290 39 27 24
15.525574 2.878524 60.466888 40 26 25
15.494018 3.002755 60.343987 42 26 26
15.462589 3.126482 60.221588 43 26 27
15.494018 3.262918 60.343987 44 27 28
15.525574 3.399909 60.466888 44 28 28
15.557259 3.537460 60.590290 45 30 29
15.557259 3.668072 60.590290 45 32 30
15.525574 3.790948 60.466888 48 37 34
15.462589 3.905386 60.221588 45 36 33
15.431289 4.027035 60.099682 38 30 27
15.369066 4.139830 59.857342 35 27 25
15.369066 4.268862 59.857342 34 27 25
15.400114 4.406779 59.978268 34 26 25
15.400114 4.536072 59.978268 34 27 26
15.369066 4.655959 59.857342 36 28 27
15.369066 4.784991 59.857342 37 28 28
15.400114 4.923951 59.978268 37 29 28
15.400114 5.053243 59.978268 37 29 28
15.400114 5.182536 59.978268 37 29 28
15.400114 5.311829 59.978268 37 29 27
15.400114 5.441122 59.978268 36 29 26
15.494018 5.604381 60.343987 36 28 26
15.589073 5.769643 60.714195 34 27 25
15.621017 5.912614 60.838612 33 26 25
15.589073 6.031402 60.714195 32 25 25
15.431289 6.099910 60.099682 32 24 24
15.431289 6.229465 60.099682 32 23 24
15.431289 6.359019 60.099682 31 22 23
15.431289 6.488574 60.099682 32 22 22
15.462589 6.631553 60.221588 32 23 23
15.494018 6.775113 60.343987 34 24 23
15.494018 6.905194 60.343987 36 25 23
15.494018 7.035275 60.343987 37 27 22
15.462589 7.150823 60.221588 37 27 22
15.462589 7.280640 60.221588 37 26 22
15.462589 7.410457 60.221588 37 27 23
15.494018 7.555601 60.343987 38 28 25
15.494018 7.685682 60.343987 38 29 28
15.431289 7.784121 60.099682 38 29 28
15.431289 7.913675 60.099682 36 28 28
15.431289 8.043230 60.099682 35 27 27
15.462589 8.189362 60.221588 35 26 27
15.525574 8.353066 60.466888 34 26 26
15.621017 8.535564 60.838612 35 26 25
15.621017 8.666712 60.838612 35 26 25
15.589073 8.779868 60.714195 36 26 25
15.494018 8.856414 60.343987 36 27 25
15.462589 8.968266 60.221588 35 27 26
15.462589 9.098084 60.221588 35 28 26
15.462589 9.227901 60.221588 35 28 26
15.431289 9.338777 60.099682 34 28 26
15.431289 9.468331 60.099682 34 27 26
15.431289 9.597885 60.099682 33 26 25
15.400114 9.707788 59.978268 31 24 24
15.369066 9.817249 59.857342 30 23 23
15.369066 9.946281 59.857342 29 22 22
15.400114 10.095668 59.978268 28 22 22
15.369066 10.204346 59.857342 28 22 22
15.369066 10.333378 59.857342 28 22 22
15.621017 11.027368 60.838612 29 23 24
15.815470 11.297418 61.595940 29 23 24
15.685302 11.336123 61.088974 29 23 24
15.685302 11.467810 61.088974 29 22 24
15.685302 11.599497 61.088974 29 22 23
16.048540 12.002853 62.503666 29 22 23
16.048540 12.137590 62.503666 29 22 23
15.621017 11.945400 60.838612 29 23 23
15.307343 11.834047 59.616951 29 22 22
14.976536 11.704039 58.328571 28 22 21
14.888783 11.760460 57.986801 28 22 21
14.947170 11.932070 58.214199 27 21 21
15.276667 12.323358 59.497478 27 21 21
15.276667 12.451614 59.497478 28 22 23
15.276667 13.092896 59.497478 29 25 25
15.338142 13.274357 59.736904 28 24 24
15.338142 13.403130 59.736904 28 23 23
15.307343 13.504730 59.616951 28 23 23
15.276667 13.605923 59.497478 28 23 22
15.155182 13.624961 59.024338 28 23 21
15.155182 13.752198 59.024338 27 22 20
15.185371 13.907083 59.141918 26 20 19
15.215682 14.062586 59.259964 25 20 19
15.215682 14.190331 59.259964 25 19 19
15.215682 14.318075 59.259964 25 20 20
15.246113 14.474710 59.378483 26 21 21
15.246113 14.602711 59.378483 28 21 22
15.849602 -11.865247 61.214931 29 20 20
15.624099 -11.566351 60.343987 29 20 20
15.592407 -11.413072 60.221588 30 20 19
15.592407 -11.283255 60.221588 30 21 19
15.655920 -11.198869 60.466888 31 22 19
15.687871 -11.091111 60.590290 32 22 19
15.816989 -11.050709 61.088974 33 23 19
15.849602 -10.941535 61.214931 35 24 20
15.849602 -10.809576 61.214931 36 25 22
15.882348 -10.699678 61.341408 36 25 22
16.014702 -10.655509 61.852589 35 25 22
16.115423 -10.588353 62.241596 35 24 22
16.115423 -10.454182 62.241596 35 24 21
16.115423 -10.320009 62.241596 35 23 22
16.355440 -10.337542 63.168602 36 22 23
16.355440 -10.201371 63.168602 38 23 24
16.149279 -9.938329 62.372356 39 24 25
16.149279 -9.803875 62.372356 41 25 26
16.251705 -9.730749 62.767956 43 26 27
16.251705 -9.595443 62.767956 45 27 28
16.149279 -9.400514 62.372356 47 29 29
16.048136 -9.208026 61.981716 49 31 30
16.048136 -9.074414 61.981716 50 32 31
16.048136 -8.940803 61.981716 51 33 32
16.048136 -8.807191 61.981716 50 32 32
16.048136 -8.673579 61.981716 48 32 32
16.048136 -8.539968 61.981716 48 31 32
16.149279 -8.459337 62.372356 47 31 31
16.149279 -8.324883 62.372356 47 31 31
15.948250 -8.088474 61.595940 46 30 30
15.687871 -7.825805 60.590290 45 29 29
15.687871 -7.695193 60.590290 45 29 29
15.915231 -7.674212 61.468410 44 28 28
15.915231 -7.541707 61.468410 45 28 27
15.687871 -7.303356 60.590290 45 28 28
15.592407 -7.129097 60.221588 45 29 29
15.592407 -6.999279 60.221588 45 28 29
15.655920 -6.897443 60.466888 45 28 29
15.655920 -6.767097 60.466888 46 27 28
15.687871 -6.650295 60.590290 46 27 28
15.687871 -6.519683 60.590290 46 27 28
15.719953 -6.402136 60.714195 46 28 28
15.687871 -6.258458 60.590290 46 29 29
15.687871 -6.127846 60.590290 46 29 30
15.915231 -6.084150 61.468410 47 30 30
16.014702 -5.988843 61.852589 46 30 29
16.014702 -5.855509 61.852589 46 30 29
15.981407 -5.710279 61.723995 45 30 29
15.948250 -5.565652 61.595940 45 29 28
15.948250 -5.432872 61.595940 45 28 28
15.816989 -5.256470 61.088974 44 28 28
15.816989 -5.124783 61.088974 44 28 28
15.816989 -4.993096 61.088974 44 29 28
15.915231 -4.891603 61.468410 43 30 28
15.915231 -4.759099 61.468410 43 31 30
15.915231 -4.626593 61.468410 43 32 32
15.915231 -4.494088 61.468410 43 33 33
15.948250 -4.370632 61.595940 42 33 33
15.915231 -4.229078 61.468410 41 32 32
15.915231 -4.096572 61.468410 40 31 30
15.882348 -3.955877 61.341408 38 29 29
15.882348 -3.823646 61.341408 38 28 27
15.849602 -3.683803 61.214931 38 27 26
15.849602 -3.551844 61.214931 38 27 27
15.655920 -3.378095 60.466888 39 27 28
15.592407 -3.234573 60.221588 39 27 28
15.560843 -3.098471 60.099682 39 27 28
15.498098 -2.956945 59.857342 39 27 27
15.466915 -2.822222 59.736904 39 27 27
15.404923 -2.682654 59.497478 38 27 26
15.404923 -2.554398 59.497478 38 26 25
15.466915 -2.435905 59.736904 38 27 26
15.849602 -2.364216 61.214931 39 27 26
15.882348 -2.236869 61.341408 40 28 27
15.882348 -2.104637 61.341408 42 28 28
15.882348 -1.972406 61.341408 43 27 28
15.882348 -1.840175 61.341408 44 27 27
15.849602 -1.704422 61.214931 44 26 27
15.849602 -1.572463 61.214931 44 25 26
15.882348 -1.443480 61.341408 45 25 26
15.882348 -1.311249 61.341408 46 26 27
15.882348 -1.179018 61.341408 47 27 28
15.849602 -1.044628 61.214931 47 28 29
15.849602 -0.912669 61.214931 46 29 29
15.816989 -0.779104 61.088974 46 30 30
15.784511 -0.646087 60.963535 47 30 30
15.784511 -0.514670 60.963535 48 31 31
15.816989 -0.384042 61.088974 48 32 31
15.882348 -0.253398 61.341408 49 32 31
15.882348 -0.121166 61.341408 50 32 32
15.882348 0.011065 61.341408 50 33 33
15.882348 0.143296 61.341408 50 33 33
16.149279 0.280159 62.372356 50 33 34
16.149279 0.414612 62.372356 50 33 34
16.014702 0.544491 61.852589 50 33 34
15.981407 0.676415 61.723995 49 33 34
15.948250 0.807791 61.595940 49 33 34
15.981407 0.942527 61.723995 48 32 32
16.014702 1.077824 61.852589 46 31 31
16.014702 1.211157 61.852589 44 30 30
15.981407 1.341695 61.723995 43 30 29
15.948250 1.471692 61.595940 44 30 29
15.948250 1.604472 61.595940 43 31 29
15.948250 1.737252 61.595940 43 32 29
15.882348 1.862305 61.341408 43 32 29
15.849602 1.990424 61.214931 42 32 29
15.784511 2.113666 60.963535 41 31 28
15.687871 2.231338 60.590290 40 30 27
15.687871 2.361950 60.590290 39 29 26
15.687871 2.492562 60.590290 38 28 25
15.687871 2.623174 60.590290 37 27 25
15.687871 2.753787 60.590290 38 27 24
15.655920 2.878524 60.466888 39 26 24
15.592407 2.996664 60.221588 40 26 25
15.592407 3.126482 60.221588 41 25 26
15.592407 3.256299 60.221588 42 26 27
15.624099 3.392999 60.343987 44 27 28
15.655920 3.530256 60.466888 44 30 28
15.655920 3.660602 60.466888 44 32 29
15.655920 3.790948 60.466888 46 34 32
15.592407 3.905386 60.221588 44 34 31
15.560843 4.027035 60.099682 40 31 28
15.498098 4.139830 59.857342 37 29 27
15.498098 4.268862 59.857342 36 27 27
15.529408 4.406779 59.978268 35 27 27
15.529408 4.536072 59.978268 35 27 27
15.498098 4.655959 59.857342 36 27 27
15.498098 4.784991 59.857342 36 28 27
15.529408 4.923951 59.978268 36 28 27
15.529408 5.053243 59.978268 36 28 27
15.529408 5.182536 59.978268 36 29 27
15.529408 5.311829 59.978268 36 29 27
15.529408 5.441122 59.978268 35 29 26
15.655920 5.615795 60.466888 34 29 26
15.784511 5.793338 60.963535 34 28 25
15.752165 5.912614 60.838612 33 27 25
15.719953 6.031402 60.714195 32 26 25
15.560843 6.099910 60.099682 32 24 24
15.560843 6.229465 60.099682 32 23 24
15.560843 6.359019 60.099682 32 23 23
15.560843 6.488574 60.099682 32 23 22
15.560843 6.618128 60.099682 33 23 23
15.592407 6.761370 60.221588 34 24 23
15.592407 6.891188 60.221588 35 25 23
15.592407 7.021005 60.221588 36 27 23
15.592407 7.150823 60.221588 36 27 22
15.560843 7.265902 60.099682 36 26 22
15.560843 7.395456 60.099682 36 26 23
15.592407 7.540275 60.221588 35 26 23
15.592407 7.670092 60.221588 35 26 25
15.560843 7.784121 60.099682 34 26 26
15.529408 7.897688 59.978268 34 26 27
15.560843 8.043230 60.099682 34 26 27
15.592407 8.189362 60.221588 33 26 26
15.655920 8.353066 60.466888 33 25 25
15.784511 8.553091 60.963535 34 26 25
15.816989 8.702377 61.088974 35 26 25
15.816989 8.834064 61.088974 34 27 25
15.719953 8.910748 60.714195 34 27 25
15.719953 9.041627 60.714195 33 27 25
15.784511 9.210176 60.963535 33 27 25
15.719953 9.303386 60.714195 33 27 25
15.624099 9.376739 60.343987 32 27 25
15.624099 9.506820 60.343987 31 26 25
15.592407 9.617353 60.221588 30 25 24
15.592407 9.747171 60.221588 29 23 23
15.529408 9.837082 59.978268 28 22 22
15.529408 9.966374 59.978268 28 21 22
15.529408 10.095668 59.978268 27 21 22
15.529408 10.224960 59.978268 27 21 21
15.498098 10.333378 59.857342 27 21 21
15.498098 10.462410 59.857342 27 21 21
15.687871 10.721133 60.590290 27 21 21
15.948250 11.031857 61.595940 28 22 23
15.752165 11.027368 60.838612 28 22 24
15.948250 11.297418 61.595940 28 22 24
15.849602 11.359496 61.214931 28 22 23
15.849602 11.491454 61.214931 27 21 22
15.849602 11.623413 61.214931 27 21 22
16.531305 12.260980 63.847832 27 21 21
16.390312 12.292869 63.303288 28 22 22
15.915231 12.069059 61.468410 28 22 23
15.752165 12.076548 60.838612 28 22 22
15.435857 11.962562 59.616951 28 21 21
15.374113 12.042711 59.378483 27 21 21
15.435857 12.219589 59.616951 27 21 22
15.466915 12.372949 59.736904 27 21 22
15.466915 12.501721 59.736904 28 22 23
15.435857 12.605131 59.616951 29 24 24
15.404923 12.964641 59.497478 29 26 25
15.404923 13.092896 59.497478 29 25 25
15.466915 13.274357 59.736904 28 24 24
15.466915 13.403130 59.736904 27 23 23
15.466915 13.531902 59.736904 27 23 22
15.374113 13.578711 59.378483 27 23 22
15.221894 13.571001 58.790577 27 22 21
15.191812 13.670663 58.674393 27 21 20
15.282419 13.879435 59.024338 27 21 20
15.312861 14.034573 59.141918 26 20 19
15.343427 14.190331 59.259964 25 20 19
15.343427 14.318075 59.259964 26 21 20
15.374113 14.474710 59.378483 27 21 20
15.404923 14.631975 59.497478 28 21 21
15.981560 -11.733288 61.214931 30 21 21
15.850832 -11.506431 60.714195 30 21 20
15.786266 -11.329215 60.466888 31 21 20
15.850832 -11.244672 60.714195 32 22 19
15.915927 -11.159434 60.963535 33 22 20
15.981560 -11.073494 61.214931 33 23 20
16.014580 -10.964142 61.341408 35 24 22
16.014580 -10.831910 61.341408 37 26 24
16.014580 -10.699678 61.341408 37 26 24
16.148035 -10.655509 61.852589 36 26 24
16.181747 -10.544143 61.981716 35 25 23
16.181747 -10.410531 61.981716 34 25 23
16.181747 -10.276919 61.981716 35 24 23
16.526773 -10.359583 63.303288 36 23 24
16.526773 -10.223123 63.303288 37 23 24
16.283733 -9.938329 62.372356 39 24 25
16.283733 -9.803875 62.372356 40 24 26
16.387012 -9.730749 62.767956 42 25 26
16.387012 -9.595443 62.767956 44 26 27
16.318014 -9.420304 62.503666 45 28 28
16.215599 -9.227290 62.111385 47 29 29
16.181747 -9.074414 61.981716 48 31 30
16.249594 -8.978291 62.241596 48 31 31
16.249594 -8.844118 62.241596 48 32 31
16.181747 -8.673579 61.981716 48 33 32
16.181747 -8.539968 61.981716 48 33 32
16.215599 -8.423943 62.111385 48 33 32
16.215599 -8.290051 62.111385 47 32 31
15.948676 -8.021902 61.088974 46 31 31
15.786266 -7.809866 60.466888 45 30 30
15.786266 -7.679521 60.466888 44 29 29
16.114464 -7.706122 61.723995 44 29 28
16.114464 -7.573066 61.723995 44 28 28
15.754180 -7.273668 60.343987 44 28 29
15.722224 -7.129097 60.221588 45 28 29
15.722224 -6.999279 60.221588 45 28 29
15.722224 -6.869462 60.221588 45 28 29
15.818483 -6.780907 60.590290 46 27 29
15.883313 -6.677550 60.838612 46 27 28
15.915927 -6.559845 60.963535 46 27 27
15.981560 -6.454937 61.214931 46 28 28
15.948676 -6.309968 61.088974 46 29 29
15.981560 -6.191020 61.214931 46 29 29
15.981560 -6.059061 61.214931 46 30 30
16.114464 -5.976392 61.723995 46 30 29
16.114464 -5.843336 61.723995 45 30 29
16.081030 -5.698432 61.595940 45 29 29
16.081030 -5.565652 61.595940 44 29 28
16.047737 -5.421624 61.468410 44 28 28
15.948676 -5.256470 61.088974 44 28 27
15.948676 -5.124783 61.088974 43 28 27
15.948676 -4.993096 61.088974 43 28 27
16.081030 -4.901752 61.595940 42 29 27
16.081030 -4.768972 61.595940 42 30 29
16.081030 -4.636192 61.595940 41 30 30
16.081030 -4.503412 61.595940 41 31 31
16.081030 -4.370632 61.595940 40 31 31
16.081030 -4.237852 61.595940 39 30 30
16.047737 -4.096572 61.468410 38 29 29
16.014580 -3.955877 61.341408 37 28 27
15.981560 -3.815762 61.214931 36 27 26
15.981560 -3.683803 61.214931 36 26 25
15.818483 -3.515601 60.590290 36 26 26
15.722224 -3.364391 60.221588 37 26 26
15.658700 -3.221504 59.978268 38 27 26
15.627131 -3.085977 59.857342 38 27 26
15.595688 -2.950995 59.736904 38 27 26
15.533179 -2.810911 59.497478 38 27 26
15.471171 -2.671945 59.259964 38 27 25
15.471171 -2.544201 59.259964 38 26 25
15.533179 -2.426141 59.497478 39 27 26
15.981560 -2.364216 61.214931 40 27 26
16.014580 -2.236869 61.341408 41 27 27
16.014580 -2.104637 61.341408 43 27 28
16.014580 -1.972406 61.341408 44 27 28
16.014580 -1.840175 61.341408 44 27 28
15.981560 -1.704422 61.214931 44 26 27
15.981560 -1.572463 61.214931 44 26 26
16.014580 -1.443480 61.341408 44 25 25
16.014580 -1.311249 61.341408 45 26 26
16.014580 -1.179018 61.341408 45 26 26
15.981560 -1.044628 61.214931 44 27 27
15.948676 -0.910791 61.088974 44 28 27
15.915927 -0.777504 60.963535 45 28 28
15.818483 -0.642132 60.590290 46 29 28
15.818483 -0.511519 60.590290 46 30 29
15.915927 -0.383254 60.963535 47 30 30
15.948676 -0.252355 61.088974 48 30 30
16.014580 -0.121166 61.341408 49 31 31
16.014580 0.011065 61.341408 49 31 31
16.014580 0.143296 61.341408 50 32 32
16.215599 0.278986 62.111385 50 32 33
16.215599 0.412878 62.111385 50 32 33
16.148035 0.544491 61.852589 50 32 34
16.114464 0.676415 61.723995 49 33 34
16.114464 0.809471 61.723995 49 33 34
16.148035 0.944491 61.852589 49 33 33
16.181747 1.080074 61.981716 47 32 32
16.148035 1.211157 61.852589 45 32 30
16.148035 1.344491 61.852589 45 31 30
16.148035 1.477824 61.852589 45 31 29
16.148035 1.611157 61.852589 44 31 29
16.148035 1.744491 61.852589 44 32 29
16.081030 1.870032 61.595940 44 32 29
16.014580 1.994536 61.341408 43 32 29
15.981560 2.122382 61.214931 42 31 29
15.915927 2.245083 60.963535 41 31 29
15.818483 2.361950 60.590290 40 30 28
15.818483 2.492562 60.590290 38 29 26
15.818483 2.623174 60.590290 37 28 25
15.818483 2.753787 60.590290 37 27 25
15.786266 2.878524 60.466888 38 26 24
15.754180 3.002755 60.343987 39 26 25
15.722224 3.126482 60.221588 39 25 26
15.722224 3.256299 60.221588 41 26 26
15.722224 3.386117 60.221588 42 27 27
15.754180 3.523080 60.343987 43 29 28
15.786266 3.660602 60.466888 44 31 28
15.786266 3.790948 60.466888 44 32 29
15.754180 3.913324 60.343987 43 32 29
15.690398 4.027035 60.099682 40 30 28
15.627131 4.139830 59.857342 38 29 27
15.627131 4.268862 59.857342 36 27 27
15.658700 4.406779 59.978268 35 27 27
15.658700 4.536072 59.978268 35 27 27
15.658700 4.665365 59.978268 35 27 27
15.690398 4.804363 60.099682 34 27 26
15.690398 4.933918 60.099682 34 27 26
15.722224 5.073743 60.221588 33 27 26
15.690398 5.193027 60.099682 34 28 26
15.658700 5.311829 59.978268 34 28 26
15.915927 5.530504 60.963535 33 28 26
16.047737 5.708810 61.468410 33 28 26
15.981560 5.817228 61.214931 33 28 25
15.915927 5.924755 60.963535 33 27 25
15.850832 6.031402 60.714195 32 26 25
15.690398 6.099910 60.099682 32 24 25
15.690398 6.229465 60.099682 32 24 24
15.690398 6.359019 60.099682 32 23 23
15.658700 6.475466 59.978268 33 24 23
15.658700 6.604759 59.978268 34 24 23
15.690398 6.747683 60.099682 34 25 24
15.690398 6.877238 60.099682 35 26 23
15.690398 7.006793 60.099682 36 26 23
15.658700 7.121930 59.978268 36 26 22
15.627131 7.236604 59.857342 35 26 23
15.627131 7.365636 59.857342 35 26 24
15.722224 7.540275 60.221588 34 26 25
15.722224 7.670092 60.221588 33 25 25
15.658700 7.768395 59.978268 33 25 25
15.658700 7.897688 59.978268 32 24 26
15.658700 8.026980 59.978268 32 25 26
15.722224 8.189362 60.221588 32 25 26
15.818483 8.370113 60.590290 33 25 25
16.014580 8.606107 61.341408 33 26 25
16.047737 8.756430 61.468410 33 26 25
16.014580 8.870569 61.341408 33 26 25
15.981560 8.984238 61.214931 32 26 25
15.981560 9.116197 61.214931 32 26 25
16.014580 9.267263 61.341408 32 26 25
15.948676 9.360814 61.088974 31 26 25
15.915927 9.473009 60.963535 31 26 25
15.915927 9.604426 60.963535 30 25 24
15.754180 9.636901 60.343987 29 24 23
15.722224 9.747171 60.221588 28 23 22
15.690398 9.856995 60.099682 28 22 22
15.658700 9.966374 59.978268 27 21 22
15.658700 10.095668 59.978268 27 21 21
15.658700 10.224960 59.978268 27 21 21
15.627131 10.333378 59.857342 27 21 21
15.627131 10.462410 59.857342 27 22 21
15.627131 10.591442 59.857342 27 22 21
15.818483 10.851746 60.590290 27 21 22
15.883313 11.027368 60.838612 27 21 22
16.081030 11.297418 61.595940 27 21 22
16.081030 11.430198 61.595940 26 21 22
16.081030 11.562978 61.595940 25 20 21
17.110500 12.444493 65.539169 25 20 21
16.960737 12.475614 64.965523 26 21 21
16.668940 12.398614 63.847832 27 21 21
16.215599 12.195304 62.111385 27 21 22
16.047737 12.201564 61.468410 27 21 22
15.948676 12.257933 61.088974 28 21 22
15.883313 12.338843 60.838612 28 21 22
15.754180 12.368608 60.343987 28 21 22
15.722224 12.473338 60.221588 28 21 22
15.658700 12.552234 59.978268 28 22 23
15.658700 12.681526 59.978268 28 23 23
15.658700 12.810819 59.978268 29 25 24
15.627131 12.914023 59.857342 29 25 24
15.595688 13.016811 59.736904 29 25 24
15.595688 13.145584 59.736904 28 25 23
15.627131 13.301120 59.857342 27 24 22
15.595688 13.403130 59.736904 26 23 22
15.595688 13.531902 59.736904 26 22 21
15.502113 13.578711 59.378483 26 22 21
15.288080 13.517467 58.558662 26 21 20
15.257985 13.616841 58.443390 26 21 19
15.318294 13.797145 58.674393 27 21 20
15.440351 14.034573 59.141918 26 20 19
15.471171 14.190331 59.259964 27 21 19
15.502113 14.346711 59.378483 28 22 20
15.533179 14.503718 59.497478 28 22 20
16.180241 -11.781873 61.468410 30 21 22
16.113520 -11.601329 61.214931 30 21 21
15.981711 -11.375551 60.714195 31 21 20
16.080364 -11.314083 61.088974 31 21 20
16.113520 -11.205453 61.214931 32 21 20
16.146811 -11.096373 61.341408 33 22 21
16.180241 -10.986842 61.468410 35 24 23
16.180241 -10.854337 61.468410 36 26 25
16.180241 -10.721831 61.468410 36 26 26
16.281368 -10.655509 61.852589 36 26 26
16.281368 -10.522176 61.852589 35 26 25
16.281368 -10.388843 61.852589 35 26 25
16.281368 -10.255509 61.852589 35 24 25
16.698839 -10.381719 63.438553 36 23 25
16.698839 -10.244967 63.438553 37 23 25
16.487461 -9.980263 62.635532 38 24 25
16.487461 -9.845242 62.635532 39 24 25
16.592478 -9.772069 63.034485 40 25 26
16.627781 -9.656691 63.168602 42 26 26
16.522318 -9.460136 62.767956 44 27 27
16.349491 -9.227290 62.111385 45 28 28
16.349491 -9.093399 62.111385 47 30 29
16.452751 -9.016094 62.503666 47 31 30
16.452751 -8.881357 62.503666 48 32 31
16.349491 -8.691725 62.111385 48 33 31
16.281368 -8.522176 61.852589 48 34 32
16.281368 -8.388843 61.852589 48 34 32
16.281368 -8.255509 61.852589 48 34 32
15.949095 -7.956418 60.590290 46 33 31
15.852042 -7.778183 60.221588 45 32 30
15.852042 -7.648366 60.221588 44 30 29
16.315359 -7.738297 61.981716 44 29 29
16.315359 -7.604686 61.981716 43 29 29
15.884261 -7.273668 60.343987 43 29 29
15.852042 -7.129097 60.221588 44 28 29
15.852042 -6.999279 60.221588 44 28 29
15.884261 -6.883424 60.343987 45 28 29
16.113520 -6.850813 61.214931 45 27 28
16.146811 -6.732737 61.341408 46 27 28
16.213810 -6.627893 61.595940 46 27 27
16.213810 -6.495113 61.595940 46 28 28
16.180241 -6.349161 61.468410 46 29 28
16.113520 -6.191020 61.214931 47 30 29
