ply
format ascii 1.0
element vertex 1201
property float x
property float y
property float z
property uchar red
property uchar green
property uchar blue
end_header
1.928866 -6.902631 68.251129 51 34 34
1.924442 -6.740010 68.094589 52 36 37
1.915654 -6.563116 67.783661 53 39 39
1.902623 -6.373343 67.322548 54 40 40
1.898318 -6.214128 67.170235 55 41 41
1.898318 -6.069332 67.170235 53 38 39
1.898318 -5.924535 67.170235 49 32 34
1.898318 -5.779739 67.170235 48 30 32
1.898318 -5.634943 67.170235 50 31 33
1.894033 -5.477753 67.018608 51 31 33
1.894033 -5.333283 67.018608 51 30 33
1.894033 -5.188814 67.018608 52 30 34
1.894033 -5.044344 67.018608 54 32 36
1.898318 -4.910961 67.170235 57 34 37
1.906947 -4.787828 67.475548 58 35 38
1.911291 -4.652949 67.629250 59 36 37
1.911291 -4.507163 67.629250 58 36 36
1.911291 -4.361377 67.629250 57 35 35
1.911291 -4.215591 67.629250 57 34 34
1.920038 -4.088431 67.938766 58 34 35
1.928866 -3.960102 68.251129 58 34 35
1.942261 -3.839455 68.725098 58 34 35
1.946767 -3.699871 68.884552 59 33 35
1.946767 -3.551379 68.884552 61 33 35
1.942261 -3.395010 68.725098 63 34 34
1.933310 -3.231900 68.408394 66 35 36
1.933310 -3.084435 68.408394 70 38 39
1.928866 -2.930217 68.251129 74 41 42
1.933310 -2.789504 68.408394 77 44 45
1.928866 -2.635964 68.251129 77 43 46
1.924442 -2.483130 68.094589 74 40 43
1.924442 -2.336341 68.094589 72 39 42
1.920038 -2.184541 67.938766 72 39 44
1.920038 -2.038088 67.938766 71 38 44
1.915654 -1.887316 67.783661 70 38 43
1.898318 -1.725440 67.170235 70 37 43
1.894033 -1.577076 67.018608 71 36 43
1.872894 -1.416617 66.270630 75 34 43
1.860436 -1.265287 65.829803 82 33 45
1.844081 -1.113504 65.251083 91 31 46
1.832001 -0.966473 64.823669 99 29 46
1.812217 -0.817807 64.123634 100 21 38
1.804423 -0.676655 63.847832 101 17 31
1.800551 -0.537864 63.710819 138 48 60
1.796695 -0.399667 63.574394 184 95 102
1.796695 -0.262622 63.574394 193 103 108
1.792856 -0.125309 63.438553 190 97 101
1.789033 0.011419 63.303288 205 113 116
1.785227 0.147565 63.168602 234 156 157
1.781437 0.283133 63.034485 247 175 173
1.773904 0.417242 62.767956 226 137 133
1.773904 0.552549 62.767956 198 95 90
1.781437 0.690776 63.034485 190 84 79
1.781437 0.826657 63.034485 186 80 73
1.781437 0.962538 63.034485 198 105 97
1.781437 1.098419 63.034485 234 175 163
1.777662 1.231685 62.900936 253 216 197
1.770162 1.361509 62.635532 249 189 163
1.770162 1.496531 62.635532 238 141 108
1.773904 1.635001 62.767956 234 123 86
1.777662 1.774058 62.900936 244 136 99
1.781437 1.913706 63.034485 252 151 117
1.781437 2.049587 63.034485 253 155 125
1.781437 2.185468 63.034485 253 153 128
1.777662 2.316431 62.900936 252 151 131
1.773904 2.446840 62.767956 250 146 129
1.762724 2.565873 62.372356 247 143 129
1.759029 2.694666 62.241596 247 142 132
1.759029 2.828837 62.241596 247 142 135
1.759029 2.963009 62.241596 249 146 142
1.759029 3.097181 62.241596 251 162 160
1.759029 3.231353 62.241596 253 173 170
1.762724 3.372596 62.372356 250 154 147
1.762724 3.507049 62.372356 248 128 114
1.762724 3.641503 62.372356 249 132 109
1.766435 3.783906 62.503666 253 154 124
1.766435 3.918643 62.503666 246 152 116
1.770162 4.061931 62.635532 232 121 84
1.770162 4.196952 62.635532 232 109 73
1.777662 4.350329 62.900936 243 119 86
1.777662 4.485923 62.900936 249 126 96
1.770162 4.602016 62.635532 250 129 101
1.762724 4.717134 62.372356 251 131 105
1.759029 4.841416 62.241596 248 129 103
1.755349 4.965179 62.111385 248 129 104
1.748035 5.077824 61.852589 248 131 108
1.744401 5.200323 61.723995 244 126 106
1.740781 5.322314 61.595940 244 122 106
1.740781 5.455094 61.595940 250 126 113
1.740781 5.587874 61.595940 254 132 123
1.744401 5.732548 61.723995 254 138 131
1.748035 5.877824 61.852589 252 133 127
1.751684 6.023706 61.981716 249 118 112
1.751684 6.157318 61.981716 250 116 107
1.748035 6.277824 61.852589 252 119 108
1.748035 6.411157 61.852589 252 118 106
1.751684 6.558153 61.981716 252 117 104
1.755349 6.705765 62.111385 250 114 100
1.762724 6.868394 62.372356 245 107 91
1.766435 7.017591 62.503666 243 104 84
1.762724 7.137301 62.372356 245 109 85
1.759029 7.256510 62.241596 249 123 96
1.751684 7.359824 61.981716 249 128 97
1.751684 7.493435 61.981716 241 111 80
1.751684 7.627047 61.981716 235 97 66
1.751684 7.760659 61.981716 236 99 71
1.755349 7.910786 62.111385 243 107 81
1.759029 8.061542 62.241596 249 113 90
1.762724 8.212932 62.372356 253 116 94
1.777662 8.418126 62.900936 253 118 96
1.789033 8.608434 63.303288 254 120 96
1.792856 8.763580 63.438553 254 121 92
1.800551 8.938531 63.710819 253 122 91
1.804423 9.095388 63.847832 253 132 97
1.808312 9.252921 63.985435 248 131 93
1.808312 9.390852 63.985435 236 110 70
1.808312 9.528784 63.985435 231 100 58
1.808312 9.666715 63.985435 236 105 63
1.812217 9.825822 64.123634 240 112 68
1.816140 9.985618 64.262428 241 115 72
1.820079 10.146108 64.401825 242 118 76
1.824036 10.307295 64.541832 245 121 81
1.840037 10.538060 65.107986 245 124 83
1.848142 10.725452 65.394806 241 124 81
1.860436 10.938704 65.829803 238 125 80
1.868723 11.129968 66.123032 237 127 79
1.868723 11.272507 66.123032 231 123 76
1.868723 11.415046 66.123032 223 114 69
1.864570 11.531901 65.976097 221 114 74
1.864570 11.674123 65.976097 231 139 106
1.864570 11.816345 65.976097 245 173 146
1.864570 11.958568 65.976097 245 167 145
1.864570 12.100790 65.976097 229 121 102
1.860436 12.215866 65.829803 216 87 69
1.856320 12.330433 65.684166 217 85 66
1.852222 12.444493 65.539169 222 92 69
1.844081 12.530452 65.251083 222 95 69
1.832001 12.588113 64.823669 222 99 68
1.840037 12.783674 65.107986 224 106 71
1.844081 12.952430 65.251083 225 111 75
1.852222 13.150895 65.539169 223 113 78
1.852222 13.292175 65.539169 225 117 83
1.848142 13.403867 65.394806 233 127 96
1.844081 13.515067 65.251083 240 135 106
1.832001 13.566278 64.823669 246 141 113
1.828010 13.676156 64.682442 251 146 120
1.832001 13.845755 64.823669 252 147 123
1.836010 14.016095 64.965523 251 145 123
1.852222 14.281137 65.539169 249 140 120
1.856320 14.454327 65.684166 248 135 117
1.836010 14.716314 64.965523 252 134 116
1.832001 14.823920 64.823669 251 131 113
1.832001 14.963658 64.823669 249 127 108
1.832001 15.103396 64.823669 247 123 105
1.828010 15.209925 64.682442 246 122 103
1.824036 15.315990 64.541832 244 120 101
1.812217 15.354980 64.123634 242 117 99
1.812217 15.493208 64.123634 238 113 97
1.812217 15.631437 64.123634 233 109 93
1.812217 15.769667 64.123634 229 104 89
1.808312 15.873610 63.985435 229 106 92
1.808312 16.011541 63.985435 236 114 101
1.808312 16.149473 63.985435 240 119 107
1.808312 16.287403 63.985435 238 120 108
1.808312 16.425335 63.985435 234 117 106
1.804423 16.527647 63.847832 233 117 106
1.804423 16.665281 63.847832 236 121 110
1.808312 16.839128 63.985435 240 125 114
1.808312 16.977058 63.985435 239 124 113
1.808312 17.114990 63.985435 237 123 110
1.808312 17.252922 63.985435 237 123 107
1.808312 17.390852 63.985435 237 121 105
1.812217 17.566643 64.123634 237 120 104
1.820079 17.781683 64.401825 239 121 106
1.824036 17.959469 64.541832 241 122 106
1.828010 18.138029 64.682442 244 123 108
1.828010 18.277462 64.682442 247 125 111
1.828010 18.416897 64.682442 248 125 112
1.824036 18.515989 64.541832 242 118 105
1.824036 18.655121 64.541832 228 104 91
1.824036 18.794250 64.541832 218 93 79
1.820079 18.892311 64.401825 216 93 77
1.816140 18.989946 64.262428 220 97 80
1.808312 19.046024 63.985435 222 100 82
1.963167 -17.518793 64.541832 117 106 115
1.963167 -17.379662 64.541832 141 130 140
1.963167 -17.240532 64.541832 156 145 155
1.963167 -17.101400 64.541832 142 131 141
1.958908 -16.925476 64.401825 121 110 121
1.958908 -16.786648 64.401825 108 99 111
1.963167 -16.684010 64.541832 99 91 104
1.963167 -16.544880 64.541832 86 79 93
1.967444 -16.441492 64.682442 70 64 79
1.971739 -16.337652 64.823669 59 53 68
1.971739 -16.197914 64.823669 62 56 71
1.971739 -16.058176 64.823669 95 90 102
1.971739 -15.918438 64.823669 160 155 164
1.971739 -15.778700 64.823669 213 208 214
1.976054 -15.673182 64.965523 201 193 199
1.984740 -15.601417 65.251083 145 136 141
1.984740 -15.460757 65.251083 112 102 106
1.984740 -15.320098 65.251083 110 100 103
1.984740 -15.179439 65.251083 122 112 117
1.984740 -15.038779 65.251083 153 141 147
1.980387 -14.865449 65.107986 194 185 189
1.984740 -14.757461 65.251083 221 214 218
1.989112 -14.648996 65.394806 208 201 206
1.989112 -14.508028 65.394806 160 153 160
1.984740 -14.335483 65.251083 117 109 117
1.984740 -14.194823 65.251083 106 97 105
1.984740 -14.054164 65.251083 112 102 111
1.984740 -13.913505 65.251083 109 99 108
1.984740 -13.772845 65.251083 97 87 94
1.984740 -13.632186 65.251083 88 78 81
1.989112 -13.521243 65.394806 87 77 78
1.989112 -13.380275 65.394806 91 82 82
1.984740 -13.210208 65.251083 101 92 92
1.980387 -13.040887 65.107986 128 120 121
1.971739 -12.844202 64.823669 166 159 160
1.971739 -12.704464 64.823669 176 170 172
1.971739 -12.564726 64.823669 150 146 148
1.976054 -12.452176 64.965523 118 114 116
1.976054 -12.312133 64.965523 94 91 92
1.971739 -12.145512 64.823669 82 79 80
1.971739 -12.005774 64.823669 113 109 111
1.963167 -11.814445 64.541832 178 174 177
1.963167 -11.675314 64.541832 216 211 214
1.958908 -11.511160 64.401825 190 183 188
1.958908 -11.372331 64.401825 140 128 135
1.963167 -11.257923 64.541832 111 95 103
1.967444 -11.143017 64.682442 105 86 95
1.971739 -11.027608 64.823669 104 83 92
1.984740 -10.959659 65.251083 100 76 84
1.993502 -10.866765 65.539169 95 70 77
1.997913 -10.749213 65.684166 91 65 70
2.011262 -10.678495 66.123032 86 60 64
2.015751 -10.559474 66.270630 83 57 62
2.015751 -10.416617 66.270630 83 56 62
2.015751 -10.273760 66.270630 83 56 62
2.015751 -10.130903 66.270630 81 54 62
2.015751 -9.988046 66.270630 82 54 64
2.015751 -9.845189 66.270630 86 58 68
2.015751 -9.702332 66.270630 95 67 77
2.015751 -9.559474 66.270630 108 80 90
2.015751 -9.416617 66.270630 125 97 106
2.011262 -9.253106 66.123032 139 112 119
2.011262 -9.110567 66.123032 142 115 122
2.011262 -8.968028 66.123032 128 101 107
2.015751 -8.845189 66.270630 100 73 79
2.015751 -8.702332 66.270630 78 52 58
2.015751 -8.559474 66.270630 73 48 54
2.015751 -8.416617 66.270630 75 51 56
2.015751 -8.273760 66.270630 78 54 58
2.015751 -8.130903 66.270630 80 56 59
2.015751 -7.988046 66.270630 89 63 64
2.024791 -7.880369 66.567810 108 82 80
2.029341 -7.754257 66.717400 126 100 96
2.038503 -7.644796 67.018608 131 105 98
2.043115 -7.517295 67.170235 126 101 93
2.052402 -7.406010 67.475548 107 83 77
2.066491 -7.310400 67.938766 74 52 47
2.075992 -7.196884 68.251129 52 32 29
2.080776 -7.066001 68.408394 47 30 28
2.080776 -6.918536 68.408394 49 33 32
2.071231 -6.740010 68.094589 51 34 36
2.061773 -6.563116 67.783661 52 37 38
2.047747 -6.373343 67.322548 54 39 40
2.043115 -6.214128 67.170235 56 40 42
2.043115 -6.069332 67.170235 55 38 41
2.043115 -5.924535 67.170235 52 33 37
2.043115 -5.779739 67.170235 50 30 35
2.038503 -5.622222 67.018608 52 31 36
2.033911 -5.465415 66.867661 53 31 37
2.033911 -5.321271 66.867661 53 31 36
2.033911 -5.177127 66.867661 54 31 36
2.033911 -5.032983 66.867661 56 33 37
2.033911 -4.888839 66.867661 58 35 38
2.043115 -4.766164 67.170235 60 36 38
2.047747 -4.631847 67.322548 61 37 37
2.047747 -4.486722 67.322548 60 36 37
2.038503 -4.321997 67.018608 59 36 36
2.033911 -4.168118 66.867661 59 36 36
2.043115 -4.042182 67.170235 59 35 35
2.061773 -3.932978 67.783661 59 35 36
2.071231 -3.804231 68.094589 59 35 36
2.080776 -3.674296 68.408394 60 34 35
2.090409 -3.543159 68.725098 61 33 34
2.085581 -3.387170 68.566376 63 33 34
2.075992 -3.224470 68.251129 66 35 36
2.075992 -3.077344 68.251129 70 38 39
2.075992 -2.930217 68.251129 75 42 43
2.075992 -2.783091 68.251129 79 46 48
2.071231 -2.629919 68.094589 79 45 47
2.071231 -2.483130 68.094589 74 40 43
2.066491 -2.330994 67.938766 73 39 43
2.061773 -2.179554 67.783661 74 40 45
2.061773 -2.033435 67.783661 72 39 45
2.057077 -1.883017 67.629250 71 38 44
2.057077 -1.737231 67.629250 71 37 43
2.002343 -1.265287 65.829803 85 35 47
1.984740 -1.113504 65.251083 93 34 48
1.971739 -0.966473 64.823669 100 31 46
1.950446 -0.817807 64.123634 100 21 35
1.942057 -0.676655 63.847832 101 17 28
1.937890 -0.537864 63.710819 137 47 54
1.933740 -0.399667 63.574394 183 90 92
1.933740 -0.262622 63.574394 197 102 101
1.929608 -0.125309 63.438553 197 101 96
1.929608 0.011443 63.438553 207 110 103
1.925494 0.147879 63.303288 227 133 123
1.921397 0.283735 63.168602 237 144 132
1.921397 0.419905 63.168602 221 123 109
1.921397 0.556075 63.168602 199 98 83
1.921397 0.692246 63.168602 194 91 76
1.921397 0.828416 63.168602 196 93 80
1.925494 0.966643 63.303288 212 124 112
1.925494 1.103103 63.303288 240 185 171
1.921397 1.236927 63.168602 253 208 189
1.913256 1.367279 62.900936 245 171 146
1.913256 1.502872 62.900936 234 130 99
1.913256 1.638465 62.900936 233 120 85
1.917318 1.777825 63.034485 242 133 96
1.917318 1.913706 63.034485 250 146 111
1.917318 2.049587 63.034485 253 152 121
1.913256 2.180838 62.900936 254 152 125
1.909211 2.311534 62.767956 254 150 126
1.905183 2.441678 62.635532 252 146 125
1.893201 2.560494 62.241596 251 143 125
1.893201 2.694666 62.241596 250 143 127
1.893201 2.828837 62.241596 250 144 130
1.893201 2.963009 62.241596 250 144 132
1.893201 3.097181 62.241596 250 146 135
1.893201 3.231353 62.241596 249 144 133
1.897178 3.372596 62.372356 246 131 118
1.897178 3.507049 62.372356 245 123 105
1.901172 3.649169 62.503666 249 142 118
1.901172 3.783906 62.503666 253 174 142
1.901172 3.918643 62.503666 245 165 129
1.905183 4.061931 62.635532 228 121 82
1.913256 4.214736 62.900936 228 102 64
1.917318 4.359566 63.034485 241 113 77
1.917318 4.495447 63.034485 248 121 88
1.913256 4.621516 62.900936 250 124 93
1.897178 4.717134 62.372356 250 124 95
1.893201 4.841416 62.241596 249 123 94
1.889240 4.965179 62.111385 249 126 99
1.881368 5.077824 61.852589 251 134 108
1.881368 5.211157 61.852589 251 134 111
1.877457 5.333379 61.723995 252 128 108
1.877457 5.466435 61.723995 253 123 107
1.877457 5.599492 61.723995 253 122 108
1.881368 5.744491 61.852589 252 122 110
1.881368 5.877824 61.852589 251 119 107
1.885296 6.023706 61.981716 249 113 101
1.885296 6.157318 61.981716 250 112 99
1.885296 6.290930 61.981716 251 115 99
1.885296 6.424541 61.981716 251 115 99
1.889240 6.571873 62.111385 252 114 98
1.893201 6.719823 62.241596 251 113 96
1.897178 6.868394 62.372356 249 111 93
1.901172 7.017591 62.503666 249 110 91
1.897178 7.137301 62.372356 249 110 90
1.893201 7.256510 62.241596 250 111 89
1.889240 7.375221 62.111385 248 110 86
1.889240 7.509112 62.111385 243 105 81
1.889240 7.643003 62.111385 239 101 78
1.889240 7.776894 62.111385 240 104 83
1.893201 7.927370 62.241596 245 110 91
1.893201 8.061542 62.241596 250 115 96
1.901172 8.230222 62.503666 252 117 99
1.913256 8.418126 62.900936 253 120 99
1.929608 8.626828 63.438553 254 122 99
1.933740 8.782346 63.574394 254 123 94
1.937890 8.938531 63.710819 252 124 92
1.942057 9.095388 63.847832 253 139 103
1.946243 9.252921 63.985435 250 143 104
1.946243 9.390852 63.985435 238 119 78
1.946243 9.528784 63.985435 230 101 58
1.946243 9.666715 63.985435 233 104 61
1.946243 9.804646 63.985435 239 113 69
1.954668 9.985618 64.262428 240 117 75
1.954668 10.124146 64.262428 241 119 80
1.958908 10.284936 64.401825 243 122 85
1.967444 10.469184 64.682442 243 122 87
1.984740 10.701880 65.251083 241 123 86
1.997913 10.914503 65.684166 239 123 83
2.006793 11.105234 65.976097 238 123 81
2.011262 11.272507 66.123032 238 123 79
2.006793 11.389679 65.976097 234 119 75
2.006793 11.531901 65.976097 227 112 71
2.006793 11.674123 65.976097 226 116 80
2.006793 11.816345 65.976097 237 142 112
2.011262 11.985202 66.123032 246 161 136
2.011262 12.127741 66.123032 238 140 117
2.002343 12.215866 65.829803 222 102 80
2.002343 12.357773 65.829803 216 87 65
1.997913 12.472025 65.684166 217 91 65
1.989112 12.558052 65.394806 217 94 65
1.984740 12.671111 65.251083 219 99 66
1.984740 12.811770 65.251083 227 112 75
1.993502 13.009615 65.539169 234 122 85
1.993502 13.150895 65.539169 228 118 82
1.993502 13.292175 65.539169 224 115 81
1.989112 13.403867 65.394806 233 124 95
1.984740 13.515067 65.251083 241 134 106
1.971739 13.566278 64.823669 245 139 114
1.967444 13.676156 64.682442 251 146 122
1.967444 13.815589 64.682442 252 147 123
1.971739 13.985493 64.823669 249 143 121
1.971739 14.125230 64.823669 248 139 118
1.971739 14.264968 64.823669 249 138 118
1.971739 14.404706 64.823669 251 139 119
1.971739 14.544444 64.823669 253 140 120
1.971739 14.684182 64.823669 253 140 119
1.967444 14.791624 64.682442 253 137 115
1.967444 14.931058 64.682442 250 131 110
1.971739 15.103396 64.823669 247 126 105
1.971739 15.243134 64.823669 246 123 103
1.963167 15.315990 64.541832 245 122 103
1.950446 15.354980 64.123634 243 120 102
1.950446 15.493208 64.123634 237 114 97
1.950446 15.631437 64.123634 230 108 92
1.950446 15.769667 64.123634 226 104 89
1.946243 15.873610 63.985435 229 108 94
1.946243 16.011541 63.985435 234 115 100
1.946243 16.149473 63.985435 237 119 105
1.946243 16.287403 63.985435 236 121 107
1.942057 16.390011 63.847832 235 121 107
1.937890 16.492180 63.710819 237 124 111
1.937890 16.629519 63.710819 240 129 116
1.942057 16.802916 63.847832 241 130 117
1.946243 16.977058 63.985435 237 125 112
1.946243 17.114990 63.985435 233 121 108
1.946243 17.252922 63.985435 234 122 107
1.946243 17.390852 63.985435 237 123 109
1.946243 17.528784 63.985435 241 125 112
1.950446 17.704872 64.123634 243 126 113
1.954668 17.881721 64.262428 245 126 114
1.958908 18.059340 64.401825 248 128 116
1.963167 18.237730 64.541832 250 130 118
1.963167 18.376860 64.541832 248 127 114
1.967444 18.556330 64.682442 240 116 104
1.967444 18.695763 64.682442 229 104 91
1.967444 18.835197 64.682442 222 96 82
1.963167 18.933382 64.541832 223 98 82
1.954668 18.989946 64.262428 226 102 84
1.950446 19.087160 64.123634 226 103 83
1.946243 19.183956 63.985435 224 103 83
2.106877 -17.556959 64.682442 133 121 130
2.106877 -17.417526 64.682442 147 135 145
2.106877 -17.278093 64.682442 153 140 151
2.102297 -17.101400 64.541832 136 123 133
2.102297 -16.962271 64.541832 115 104 114
2.097737 -16.786648 64.401825 104 95 105
2.102297 -16.684010 64.541832 98 90 102
2.102297 -16.544880 64.541832 90 83 96
2.111477 -16.477390 64.823669 78 72 86
2.116098 -16.373402 64.965523 67 61 77
2.116098 -16.233358 64.965523 70 64 80
2.111477 -16.058176 64.823669 102 97 112
2.111477 -15.918438 64.823669 164 158 171
2.111477 -15.778700 64.823669 212 205 216
2.111477 -15.638962 64.823669 202 194 202
2.125399 -15.601417 65.251083 154 144 151
2.125399 -15.460757 65.251083 133 122 127
2.125399 -15.320098 65.251083 147 135 139
2.125399 -15.179439 65.251083 168 157 160
2.125399 -15.038779 65.251083 189 178 180
2.125399 -14.898120 65.251083 202 192 194
2.130081 -14.789966 65.394806 200 191 194
2.130081 -14.648996 65.394806 186 180 182
2.139506 -14.572223 65.684166 166 161 164
2.139506 -14.430630 65.684166 150 145 147
2.139506 -14.289037 65.684166 146 140 143
2.139506 -14.147444 65.684166 148 140 145
2.139506 -14.005851 65.684166 139 129 133
2.134783 -13.833652 65.539169 117 106 109
2.139506 -13.722665 65.684166 99 87 88
2.134783 -13.551092 65.539169 97 85 84
2.134783 -13.409811 65.539169 111 100 98
2.130081 -13.239305 65.394806 127 117 116
2.125399 -13.069549 65.251083 143 135 135
2.116098 -12.872308 64.965523 156 149 150
2.111477 -12.704464 64.823669 137 132 133
2.111477 -12.564726 64.823669 110 107 107
2.116098 -12.452176 64.965523 95 93 93
2.116098 -12.312133 64.965523 90 89 88
2.116098 -12.172089 64.965523 107 106 105
2.111477 -12.005774 64.823669 157 155 155
2.106877 -11.840184 64.682442 213 211 213
2.102297 -11.675314 64.541832 232 227 232
2.097737 -11.511160 64.401825 195 185 193
2.097737 -11.372331 64.401825 132 118 128
2.102297 -11.257923 64.541832 89 71 82
2.106877 -11.143017 64.682442 80 59 69
2.111477 -11.027608 64.823669 89 66 74
2.125399 -10.959659 65.251083 99 74 80
2.130081 -10.842830 65.394806 102 77 80
2.139506 -10.749213 65.684166 98 73 73
2.153801 -10.678495 66.123032 93 68 66
2.158609 -10.559474 66.270630 91 66 64
2.158609 -10.416617 66.270630 89 63 64
2.158609 -10.273760 66.270630 85 59 63
2.163438 -10.153567 66.418884 82 55 62
2.158609 -9.988046 66.270630 84 57 67
2.158609 -9.845189 66.270630 90 63 75
2.158609 -9.702332 66.270630 98 71 84
2.158609 -9.559474 66.270630 108 82 93
2.158609 -9.416617 66.270630 122 97 107
2.158609 -9.273760 66.270630 138 112 121
2.158609 -9.130903 66.270630 148 122 129
2.158609 -8.988046 66.270630 144 119 125
2.158609 -8.845189 66.270630 123 98 103
2.158609 -8.702332 66.270630 98 74 78
2.158609 -8.559474 66.270630 86 63 66
2.158609 -8.416617 66.270630 86 63 65
2.158609 -8.273760 66.270630 86 64 64
2.158609 -8.130903 66.270630 83 62 61
2.158609 -7.988046 66.270630 91 69 67
2.163438 -7.862740 66.418884 122 99 94
2.168288 -7.736871 66.567810 154 129 123
2.178056 -7.627578 66.867661 164 139 131
2.187911 -7.517295 67.170235 163 138 130
2.192872 -7.389216 67.322548 142 118 111
2.212944 -7.310400 67.938766 95 73 68
2.223119 -7.196884 68.251129 59 39 36
2.223119 -7.049757 68.251129 49 30 30
2.223119 -6.902631 68.251129 48 31 32
2.218020 -6.740010 68.094589 49 33 35
2.207892 -6.563116 67.783661 51 35 37
2.192872 -6.373343 67.322548 53 37 39
2.182972 -6.200100 67.018608 55 38 41
2.182972 -6.055631 67.018608 56 37 41
2.182972 -5.911161 67.018608 55 34 40
2.182972 -5.766692 67.018608 54 32 40
2.178056 -5.609560 66.867661 55 32 41
2.178056 -5.465415 66.867661 56 33 41
2.173161 -5.309314 66.717400 55 32 40
2.173161 -5.165493 66.717400 56 33 39
2.173161 -5.021673 66.717400 57 33 38
2.178056 -4.888839 66.867661 58 34 38
2.178056 -4.744695 66.867661 59 35 37
2.187911 -4.621368 67.170235 60 35 37
2.182972 -4.466466 67.018608 61 36 37
2.178056 -4.312263 66.867661 61 37 37
2.173161 -4.158752 66.717400 61 37 37
2.178056 -4.023974 66.867661 60 36 37
2.187911 -3.897386 67.170235 60 36 36
2.197856 -3.769647 67.475548 59 35 36
2.218020 -3.657442 68.094589 60 33 35
2.228241 -3.526831 68.408394 60 33 34
2.228241 -3.379365 68.408394 62 33 34
2.223119 -3.224470 68.251129 66 34 35
2.218020 -3.070286 68.094589 69 37 38
2.218020 -2.923497 68.094589 74 40 42
2.218020 -2.776708 68.094589 77 44 45
2.218020 -2.629919 68.094589 76 42 45
2.218020 -2.483130 68.094589 72 38 41
2.207892 -2.325672 67.783661 72 39 43
2.207892 -2.179554 67.783661 74 41 47
2.202863 -2.028803 67.629250 72 39 45
2.202863 -1.883017 67.629250 71 37 43
2.202863 -1.737231 67.629250 71 37 44
2.120738 -1.111063 65.107986 94 35 49
2.111477 -0.966473 64.823669 100 30 44
2.088675 -0.817807 64.123634 98 19 31
2.079692 -0.676655 63.847832 102 16 25
2.070785 -0.536712 63.574394 137 45 48
2.070785 -0.399667 63.574394 181 83 81
2.070785 -0.262622 63.574394 198 98 91
2.066360 -0.125309 63.438553 203 101 89
2.066360 0.011443 63.438553 208 104 88
2.066360 0.148195 63.438553 217 112 93
2.061954 0.284340 63.303288 222 118 96
2.061954 0.420801 63.303288 213 111 86
2.061954 0.557261 63.303288 205 103 78
2.066360 0.695204 63.438553 208 107 84
2.066360 0.831956 63.438553 216 115 96
2.066360 0.968708 63.438553 228 137 121
2.066360 1.105460 63.438553 245 175 160
2.061954 1.239564 63.303288 252 189 171
2.057567 1.373097 63.168602 244 158 136
2.053199 1.506063 63.034485 235 127 99
2.053199 1.641944 63.034485 235 122 90
2.057567 1.781607 63.168602 239 128 95
2.057567 1.917778 63.168602 247 139 106
2.048849 2.045245 62.900936 253 147 117
2.048849 2.180838 62.900936 254 150 121
2.044517 2.311534 62.767956 254 148 122
2.040204 2.441678 62.635532 253 145 120
2.031632 2.565873 62.372356 251 143 119
2.027372 2.694666 62.241596 251 144 120
2.027372 2.828837 62.241596 251 146 123
2.027372 2.963009 62.241596 252 145 123
2.027372 3.097181 62.241596 250 139 120
2.027372 3.231353 62.241596 248 132 114
2.031632 3.372596 62.372356 245 125 106
2.035909 3.514433 62.503666 246 125 104
2.035909 3.649169 62.503666 250 148 123
2.035909 3.783906 62.503666 254 174 144
2.040204 3.926910 62.635532 248 162 127
2.044517 4.070519 62.767956 236 122 84
2.053199 4.223685 63.034485 234 104 66
2.057567 4.368842 63.168602 242 111 74
2.057567 4.505012 63.168602 247 118 82
2.053199 4.631328 63.034485 250 120 86
2.035909 4.727064 62.503666 250 120 88
2.031632 4.851587 62.372356 250 121 89
2.023131 4.965179 62.111385 251 125 94
2.018907 5.088425 61.981716 253 131 102
2.014701 5.211157 61.852589 253 130 104
2.014701 5.344491 61.852589 253 124 102
2.014701 5.477824 61.852589 253 120 101
2.014701 5.611157 61.852589 252 117 99
2.014701 5.744491 61.852589 250 114 97
2.014701 5.877824 61.852589 250 112 96
2.018907 6.023706 61.981716 250 112 95
2.023131 6.170200 62.111385 251 113 94
2.023131 6.304091 62.111385 251 114 94
2.023131 6.437982 62.111385 251 114 94
2.027372 6.585651 62.241596 251 114 93
2.031632 6.733940 62.372356 252 116 94
2.035909 6.882854 62.503666 252 120 99
2.035909 7.017591 62.503666 253 122 102
2.035909 7.152328 62.503666 253 119 101
2.031632 7.271755 62.372356 252 115 98
2.027372 7.390682 62.241596 249 110 94
2.027372 7.524854 62.241596 246 108 91
2.027372 7.659026 62.241596 240 105 89
2.027372 7.793198 62.241596 239 105 91
2.031632 7.944024 62.372356 243 110 97
2.031632 8.078478 62.372356 246 114 101
2.040204 8.247585 62.635532 248 118 102
2.053199 8.435999 63.034485 252 122 103
2.066360 8.626828 63.438553 254 125 102
2.070785 8.782346 63.574394 252 123 95
2.079692 8.957754 63.847832 249 124 91
2.084174 9.114990 63.985435 251 142 105
2.084174 9.252921 63.985435 252 150 111
2.084174 9.390852 63.985435 241 126 85
2.084174 9.528784 63.985435 229 102 59
2.084174 9.666715 63.985435 230 103 59
2.084174 9.804646 63.985435 235 112 68
2.093196 9.985618 64.262428 237 117 75
2.093196 10.124146 64.262428 238 120 82
2.093196 10.262674 64.262428 239 121 87
2.097737 10.423764 64.401825 238 121 88
2.111477 10.631781 64.823669 239 127 94
2.125399 10.842540 65.251083 241 137 103
2.139506 11.056096 65.684166 238 134 95
2.149015 11.247457 65.976097 234 122 79
2.149015 11.389679 65.976097 235 117 72
2.149015 11.531901 65.976097 234 114 70
2.149015 11.674123 65.976097 230 109 69
2.149015 11.816345 65.976097 234 121 84
2.153801 11.985202 66.123032 241 141 109
2.153801 12.127741 66.123032 238 136 106
2.149015 12.243012 65.976097 224 109 80
2.144250 12.357773 65.829803 214 92 63
2.144250 12.499680 65.829803 211 91 61
2.139506 12.613618 65.684166 211 93 61
2.130081 12.699020 65.394806 216 102 66
2.130081 12.839990 65.394806 231 123 86
2.134783 13.009615 65.539169 240 138 102
2.134783 13.150895 65.539169 230 124 89
2.134783 13.292175 65.539169 222 110 78
2.130081 13.403867 65.394806 230 120 93
2.111477 13.426540 64.823669 240 130 107
2.106877 13.536722 64.682442 243 136 114
2.097737 13.616823 64.401825 247 141 120
2.097737 13.755651 64.401825 248 141 121
2.097737 13.894481 64.401825 245 139 118
2.102297 14.063816 64.541832 246 138 118
2.102297 14.202947 64.541832 249 142 121
2.106877 14.373323 64.682442 252 144 123
2.106877 14.512757 64.682442 253 144 122
2.106877 14.652190 64.682442 254 144 122
2.111477 14.823920 64.823669 253 142 119
2.111477 14.963658 64.823669 250 135 112
2.116098 15.136445 64.965523 245 126 105
2.111477 15.243134 64.823669 244 123 103
2.106877 15.349359 64.682442 245 125 106
2.097737 15.421596 64.401825 243 124 105
2.088675 15.493208 64.123634 234 114 96
2.088675 15.631437 64.123634 225 104 88
2.088675 15.769667 64.123634 225 105 88
2.084174 15.873610 63.985435 231 112 95
2.084174 16.011541 63.985435 233 117 100
2.084174 16.149473 63.985435 235 120 103
2.079692 16.252377 63.847832 236 123 106
2.075229 16.354839 63.710819 237 125 108
2.075229 16.492180 63.710819 240 130 113
2.070785 16.593908 63.574394 244 135 118
2.075229 16.766857 63.710819 242 133 117
2.075229 16.904196 63.710819 234 125 110
2.075229 17.041534 63.710819 228 118 104
2.075229 17.178875 63.710819 231 120 106
2.084174 17.390852 63.985435 238 125 113
2.084174 17.528784 63.985435 245 131 120
2.084174 17.666714 63.985435 248 132 122
2.088675 17.843100 64.123634 249 131 122
2.093196 18.020250 64.262428 251 131 123
2.097737 18.198168 64.401825 251 131 123
2.102297 18.376860 64.541832 246 124 116
2.106877 18.556330 64.682442 237 113 103
2.106877 18.695763 64.682442 229 103 92
2.106877 18.835197 64.682442 225 99 85
2.102297 18.933382 64.541832 227 102 86
2.097737 19.031139 64.401825 230 105 87
2.088675 19.087160 64.123634 227 104 85
2.088675 19.225389 64.123634 225 103 84
2.246311 -17.556959 64.682442 144 131 141
2.251215 -17.455555 64.823669 145 130 141
2.251215 -17.315817 64.823669 139 125 136
2.246311 -17.138659 64.682442 124 110 120
2.241427 -16.962271 64.541832 109 96 106
2.241427 -16.823141 64.541832 102 91 101
2.241427 -16.684010 64.541832 101 92 103
2.251215 -16.617128 64.823669 97 90 103
2.251215 -16.477390 64.823669 88 81 96
2.256141 -16.373402 64.965523 76 70 87
2.256141 -16.233358 64.965523 79 73 91
2.256141 -16.093313 64.965523 109 103 122
2.251215 -15.918438 64.823669 161 154 172
2.251215 -15.778700 64.823669 201 193 209
2.256141 -15.673182 64.965523 198 189 202
2.266058 -15.601417 65.251083 166 155 166
2.266058 -15.460757 65.251083 155 144 151
2.266058 -15.320098 65.251083 172 161 165
2.266058 -15.179439 65.251083 194 182 184
2.266058 -15.038779 65.251083 202 191 191
2.266058 -14.898120 65.251083 186 177 177
2.271050 -14.789966 65.394806 165 159 158
2.281099 -14.713816 65.684166 161 157 156
2.286157 -14.604533 65.829803 168 165 165
2.286157 -14.462626 65.829803 172 170 171
2.286157 -14.320720 65.829803 176 173 175
2.286157 -14.178813 65.829803 181 175 178
2.286157 -14.036906 65.829803 173 164 168
2.286157 -13.894999 65.829803 150 138 142
2.286157 -13.753092 65.829803 130 117 120
2.286157 -13.611185 65.829803 136 123 124
2.281099 -13.439479 65.684166 159 148 147
2.276063 -13.268531 65.539169 163 155 153
2.271050 -13.098336 65.394806 151 144 144
2.266058 -12.928889 65.251083 142 138 138
2.261089 -12.760185 65.107986 123 121 121
2.261089 -12.619835 65.107986 107 107 105
2.261089 -12.479484 65.107986 100 101 98
2.266058 -12.366252 65.251083 109 110 106
2.261089 -12.198782 65.107986 152 152 149
2.256141 -12.032045 64.965523 204 204 203
2.251215 -11.866036 64.823669 235 233 233
2.246311 -11.700750 64.682442 223 218 222
2.241427 -11.536183 64.541832 174 163 173
2.241427 -11.397054 64.541832 120 105 119
2.246311 -11.282450 64.682442 95 77 91
2.251215 -11.167346 64.823669 104 83 96
2.256141 -11.051739 64.965523 126 102 111
2.266058 -10.959659 65.251083 142 119 123
2.271050 -10.842830 65.394806 149 126 126
2.281099 -10.749213 65.684166 146 124 121
2.291237 -10.654766 65.976097 143 122 118
2.301466 -10.559474 66.270630 142 123 119
2.301466 -10.416617 66.270630 133 112 110
2.301466 -10.273760 66.270630 108 86 86
2.306614 -10.153567 66.418884 85 61 65
2.306614 -10.010390 66.418884 81 56 64
2.301466 -9.845189 66.270630 88 64 75
2.301466 -9.702332 66.270630 94 69 82
2.301466 -9.559474 66.270630 98 74 87
2.301466 -9.416617 66.270630 107 83 94
2.301466 -9.273760 66.270630 120 96 106
2.301466 -9.130903 66.270630 135 111 118
2.301466 -8.988046 66.270630 145 120 126
2.301466 -8.845189 66.270630 136 112 116
2.301466 -8.702332 66.270630 113 90 93
2.301466 -8.559474 66.270630 99 76 77
2.301466 -8.416617 66.270630 103 82 81
2.301466 -8.273760 66.270630 110 91 89
2.301466 -8.130903 66.270630 102 82 80
2.301466 -7.988046 66.270630 99 78 75
2.306614 -7.862740 66.418884 131 109 105
2.311786 -7.736871 66.567810 172 148 143
2.322200 -7.627578 66.867661 185 161 154
2.332707 -7.517295 67.170235 183 158 152
2.332707 -7.372499 67.170235 162 137 132
2.359397 -7.310400 67.938766 115 93 89
2.370245 -7.196884 68.251129 74 53 51
2.370245 -7.049757 68.251129 54 35 34
2.370245 -6.902631 68.251129 49 32 32
2.359397 -6.724587 67.938766 49 33 35
2.348648 -6.548165 67.629250 50 34 37
2.332707 -6.358924 67.170235 53 35 40
2.327442 -6.200100 67.018608 56 37 42
2.327442 -6.055631 67.018608 57 36 43
2.327442 -5.911161 67.018608 58 34 44
2.327442 -5.766692 67.018608 60 35 47
2.322200 -5.609560 66.867661 65 39 51
2.322200 -5.465415 66.867661 66 41 53
2.316981 -5.309314 66.717400 63 38 49
2.316981 -5.165493 66.717400 59 34 44
2.316981 -5.021673 66.717400 56 32 39
2.316981 -4.877853 66.717400 56 32 37
2.322200 -4.744695 66.867661 57 33 36
2.322200 -4.600551 66.867661 58 34 36
2.322200 -4.456407 66.867661 59 35 37
2.311786 -4.292925 66.567810 60 36 38
2.311786 -4.149427 66.567810 61 37 38
2.316981 -4.014932 66.717400 60 36 37
2.322200 -3.879830 66.867661 60 36 37
2.327442 -3.744119 67.018608 59 34 36
2.343311 -3.624192 67.475548 59 32 35
2.364809 -3.510653 68.094589 61 32 34
2.370245 -3.371597 68.251129 63 32 34
2.364809 -3.217075 68.094589 65 34 36
2.359397 -3.063260 67.938766 69 36 39
2.359397 -2.916807 67.938766 72 39 41
2.359397 -2.770354 67.938766 74 40 42
2.359397 -2.623900 67.938766 72 38 42
2.359397 -2.477448 67.938766 70 36 39
2.354011 -2.325672 67.783661 71 38 42
2.348648 -2.174589 67.629250 72 39 44
2.348648 -2.028803 67.629250 69 36 42
2.343311 -1.878738 67.475548 68 35 41
2.348648 -1.737231 67.629250 70 37 43
2.261089 -1.111063 65.107986 95 35 49
2.251215 -0.966473 64.823669 98 27 41
2.226904 -0.817807 64.123634 98 17 28
2.217326 -0.676655 63.847832 104 15 22
2.207830 -0.536712 63.574394 141 43 46
2.207830 -0.399667 63.574394 184 81 77
2.207830 -0.262622 63.574394 200 94 84
2.207830 -0.125577 63.574394 205 97 81
2.203112 0.011443 63.438553 208 98 76
2.203112 0.148195 63.438553 210 101 72
2.203112 0.284948 63.438553 210 102 70
2.203112 0.421700 63.438553 206 102 66
2.203112 0.558452 63.438553 214 113 78
2.207830 0.696693 63.574394 227 129 98
2.207830 0.833738 63.574394 234 136 110
2.207830 0.970783 63.574394 239 145 124
2.207830 1.107828 63.574394 247 164 147
2.203112 1.242213 63.438553 252 174 157
2.198415 1.376024 63.303288 248 156 137
2.198415 1.512485 63.303288 241 133 109
2.198415 1.648946 63.303288 238 125 98
2.198415 1.785406 63.303288 239 128 99
2.193738 1.917778 63.168602 246 138 108
2.193738 2.053948 63.168602 253 146 118
2.184442 2.180838 62.900936 254 148 121
2.179824 2.311534 62.767956 254 148 122
2.175225 2.441678 62.635532 254 145 119
2.170645 2.571275 62.503666 252 143 116
2.166085 2.700327 62.372356 252 145 116
2.166085 2.834780 62.372356 253 148 119
2.161544 2.963009 62.241596 253 147 119
2.161544 3.097181 62.241596 252 142 116
2.166085 3.238142 62.372356 250 135 111
2.170645 3.379696 62.503666 248 129 107
2.170645 3.514433 62.503666 249 130 109
2.175225 3.656868 62.635532 252 146 123
2.175225 3.791889 62.635532 254 162 135
2.175225 3.926910 62.635532 252 151 121
2.184442 4.079143 62.900936 245 124 91
2.193738 4.232671 63.168602 242 110 76
2.193738 4.368842 63.168602 246 113 79
2.198415 4.514617 63.303288 251 119 85
2.193738 4.641182 63.168602 252 121 88
2.184442 4.757109 62.900936 251 121 89
2.170645 4.861801 62.503666 251 122 90
2.166085 4.986041 62.372356 252 124 93
2.157022 5.099070 62.111385 252 125 95
2.152519 5.222036 61.981716 251 123 96
2.152519 5.355648 61.981716 252 123 99
2.148035 5.477824 61.852589 253 123 103
2.148035 5.611157 61.852589 252 121 103
2.148035 5.744491 61.852589 252 119 102
2.152519 5.890095 61.981716 252 117 101
2.157022 6.036308 62.111385 252 118 100
2.161544 6.183135 62.241596 253 118 98
2.161544 6.317307 62.241596 253 119 96
2.161544 6.451479 62.241596 253 119 94
2.166085 6.599486 62.372356 253 119 93
2.175225 6.762353 62.635532 253 122 95
2.175225 6.897375 62.635532 254 130 103
2.175225 7.032395 62.635532 254 134 110
2.170645 7.152328 62.503666 254 131 109
2.170645 7.287064 62.503666 254 124 106
2.161544 7.390682 62.241596 252 117 102
2.161544 7.524854 62.241596 248 113 101
2.166085 7.675117 62.372356 242 109 99
2.166085 7.809570 62.372356 240 107 100
2.170645 7.960748 62.503666 242 112 105
2.175225 8.112564 62.635532 247 118 109
2.184442 8.282533 62.900936 250 123 111
2.189080 8.435999 63.034485 252 127 110
2.207830 8.645301 63.574394 254 129 108
2.207830 8.782346 63.574394 252 125 98
2.217326 8.957754 63.847832 248 125 92
2.222105 9.114990 63.985435 251 140 104
2.222105 9.252921 63.985435 252 152 111
2.222105 9.390852 63.985435 244 131 88
2.222105 9.528784 63.985435 231 106 61
2.222105 9.666715 63.985435 230 105 60
2.222105 9.804646 63.985435 233 112 67
2.226904 9.964050 64.123634 234 117 75
2.226904 10.102280 64.123634 236 121 82
2.231724 10.262674 64.262428 234 119 86
2.231724 10.401202 64.262428 231 116 85
2.241427 10.585555 64.541832 238 136 104
2.246311 10.748051 64.682442 246 169 134
2.266058 10.983199 65.251083 242 164 125
2.286157 11.222518 65.829803 232 129 86
2.286157 11.364425 65.829803 233 113 67
2.281099 11.480875 65.684166 239 116 69
2.281099 11.622468 65.684166 237 114 69
2.291237 11.816345 65.976097 235 114 71
2.296340 11.985202 66.123032 235 119 79
2.296340 12.127741 66.123032 231 117 80
2.291237 12.243012 65.976097 223 107 73
2.291237 12.385235 65.976097 216 100 66
2.286157 12.499680 65.829803 210 96 63
2.281099 12.613618 65.684166 208 94 60
2.276063 12.727054 65.539169 216 108 73
2.276063 12.868335 65.539169 236 141 106
2.276063 13.009615 65.539169 244 157 122
2.276063 13.150895 65.539169 230 128 97
2.271050 13.262897 65.394806 217 105 76
2.261089 13.345078 65.107986 224 112 88
2.246311 13.397288 64.682442 233 122 102
2.236565 13.477995 64.401825 237 128 110
2.231724 13.587350 64.262428 242 134 116
2.226904 13.696232 64.123634 245 138 119
2.226904 13.834461 64.123634 247 141 122
2.236565 14.033309 64.401825 249 146 126
2.236565 14.172137 64.401825 251 152 131
2.241427 14.342077 64.541832 253 151 130
2.241427 14.481208 64.541832 253 147 126
2.246311 14.652190 64.682442 253 147 126
2.251215 14.823920 64.823669 253 147 126
2.256141 14.996402 64.965523 249 138 117
2.261089 15.169640 65.107986 244 128 108
2.256141 15.276489 64.965523 244 125 107
2.251215 15.382873 64.823669 247 129 111
2.236565 15.421596 64.401825 243 126 109
2.226904 15.493208 64.123634 231 113 96
2.226904 15.631437 64.123634 221 103 86
2.226904 15.769667 64.123634 226 109 91
2.222105 15.873610 63.985435 233 117 98
2.222105 16.011541 63.985435 236 121 102
2.222105 16.149473 63.985435 237 124 104
2.212568 16.217501 63.710819 239 127 107
2.212568 16.354839 63.710819 240 130 109
2.207830 16.456863 63.574394 244 135 114
2.207830 16.593908 63.574394 246 138 118
2.207830 16.730953 63.574394 242 134 115
2.212568 16.904196 63.710819 232 125 107
2.212568 17.041534 63.710819 227 119 103
2.212568 17.178875 63.710819 231 122 106
2.217326 17.353453 63.847832 240 129 116
2.217326 17.491087 63.847832 248 138 127
2.222105 17.666714 63.985435 251 140 131
2.222105 17.804646 63.985435 251 136 129
2.226904 17.981329 64.123634 251 132 127
2.231724 18.158777 64.262428 249 128 124
2.236565 18.336996 64.401825 243 120 115
2.251215 18.596846 64.823669 234 109 103
2.251215 18.736584 64.823669 227 102 94
2.246311 18.835197 64.682442 226 100 90
2.241427 18.933382 64.541832 228 103 89
2.236565 19.031139 64.401825 230 106 90
2.226904 19.087160 64.123634 229 104 88
2.226904 19.225389 64.123634 227 104 87
2.226904 19.363619 64.123634 227 105 88
2.390953 -17.595293 64.823669 144 130 139
2.396185 -17.493752 64.965523 134 119 129
2.401440 -17.391764 65.107986 121 106 116
2.396185 -17.213665 64.965523 111 97 106
2.390953 -17.036343 64.823669 105 91 100
2.385744 -16.859793 64.682442 104 92 102
2.390953 -16.756866 64.823669 107 97 107
2.390953 -16.617128 64.823669 106 99 110
2.401440 -16.549660 65.107986 97 90 105
2.406718 -16.445374 65.251083 85 78 95
2.406718 -16.304714 65.251083 88 82 101
2.401440 -16.128607 65.107986 116 110 130
2.396185 -15.953270 64.965523 155 149 169
2.396185 -15.813227 64.965523 182 175 193
2.401440 -15.707554 65.107986 187 179 195
2.406718 -15.601417 65.251083 176 167 178
2.406718 -15.460757 65.251083 164 153 161
2.406718 -15.320098 65.251083 169 158 162
2.406718 -15.179439 65.251083 188 178 179
2.406718 -15.038779 65.251083 192 183 182
2.406718 -14.898120 65.251083 169 162 160
2.412019 -14.789966 65.394806 146 141 139
2.422692 -14.713816 65.684166 146 144 142
2.428063 -14.604533 65.829803 158 157 157
2.428063 -14.462626 65.829803 167 167 167
2.428063 -14.320720 65.829803 176 174 177
2.428063 -14.178813 65.829803 190 186 189
2.428063 -14.036906 65.829803 198 190 194
2.428063 -13.894999 65.829803 190 180 184
2.428063 -13.753092 65.829803 182 171 174
2.433459 -13.641433 65.976097 195 185 185
2.428063 -13.469278 65.829803 214 205 204
2.422692 -13.297886 65.684166 203 195 195
2.417344 -13.127251 65.539169 171 165 165
2.412019 -12.957367 65.394806 151 148 147
2.406718 -12.788230 65.251083 138 140 138
2.406718 -12.647571 65.251083 132 134 131
2.406718 -12.506911 65.251083 124 127 122
2.406718 -12.366252 65.251083 138 142 136
2.406718 -12.225593 65.251083 191 195 190
2.401440 -12.058431 65.107986 230 231 230
2.396185 -11.892001 64.965523 225 224 226
2.390953 -11.726298 64.823669 189 185 191
2.385744 -11.561317 64.682442 144 135 148
2.385744 -11.421884 64.682442 128 116 131
2.385744 -11.282450 64.682442 148 134 147
2.390953 -11.167346 64.823669 179 163 172
2.390953 -11.027608 64.823669 199 182 188
2.401440 -10.935624 65.107986 210 193 196
2.412019 -10.842830 65.394806 216 200 199
2.422692 -10.749213 65.684166 217 202 198
2.428063 -10.631141 65.829803 218 207 201
2.444323 -10.559474 66.270630 219 212 206
2.444323 -10.416617 66.270630 203 193 189
2.444323 -10.273760 66.270630 150 134 132
2.449791 -10.153567 66.418884 90 70 73
2.449791 -10.010390 66.418884 71 49 56
2.449791 -9.867213 66.418884 81 58 70
2.449791 -9.724037 66.418884 90 66 80
2.449791 -9.580860 66.418884 92 68 83
2.449791 -9.437683 66.418884 94 71 84
2.444323 -9.273760 66.270630 102 78 89
2.444323 -9.130903 66.270630 117 93 101
2.444323 -8.988046 66.270630 133 109 114
2.444323 -8.845189 66.270630 132 109 112
2.444323 -8.702332 66.270630 112 90 90
2.444323 -8.559474 66.270630 100 78 77
2.444323 -8.416617 66.270630 117 97 95
2.444323 -8.273760 66.270630 139 121 118
2.444323 -8.130903 66.270630 125 108 104
2.444323 -7.988046 66.270630 103 84 81
2.449791 -7.862740 66.418884 121 101 98
2.449791 -7.719563 66.418884 156 135 131
2.466344 -7.627578 66.867661 167 144 139
2.477504 -7.517295 67.170235 164 139 135
2.477504 -7.372499 67.170235 153 128 125
2.505851 -7.310400 67.938766 127 104 102
2.517372 -7.196884 68.251129 93 71 70
2.517372 -7.049757 68.251129 65 47 45
2.511598 -6.886799 68.094589 54 37 37
2.500129 -6.709234 67.783661 52 35 38
2.488765 -6.533283 67.475548 53 36 39
2.471911 -6.344570 67.018608 54 36 41
2.471911 -6.200100 67.018608 56 36 43
2.471911 -6.055631 67.018608 58 34 44
2.471911 -5.911161 67.018608 61 35 47
2.466344 -5.753704 66.867661 70 41 57
2.466344 -5.609560 66.867661 85 56 72
2.460801 -5.453134 66.717400 92 63 79
2.460801 -5.309314 66.717400 81 54 69
2.460801 -5.165493 66.717400 64 39 51
2.460801 -5.021673 66.717400 56 30 41
2.460801 -4.877853 66.717400 55 29 37
2.460801 -4.734033 66.717400 55 31 36
2.466344 -4.600551 66.867661 57 33 36
2.460801 -4.446392 66.717400 59 34 37
2.449791 -4.283321 66.418884 60 36 38
2.449791 -4.140144 66.418884 60 36 39
2.455284 -4.005929 66.567810 60 36 39
2.460801 -3.871111 66.717400 60 36 38
2.460801 -3.727291 66.717400 59 34 37
2.471911 -3.599649 67.018608 59 33 36
2.494434 -3.486662 67.629250 61 32 36
2.505851 -3.356166 67.938766 63 32 36
2.505851 -3.209713 67.938766 66 34 37
2.500129 -3.056266 67.783661 70 37 40
2.500129 -2.910147 67.783661 72 38 41
2.500129 -2.764029 67.783661 72 39 41
2.500129 -2.617910 67.783661 71 38 40
2.500129 -2.471791 67.783661 69 36 39
2.494434 -2.320375 67.629250 69 36 39
2.494434 -2.174589 67.629250 68 36 40
2.494434 -2.028803 67.629250 66 34 39
2.488765 -1.878738 67.475548 66 34 40
2.488765 -1.733283 67.475548 68 36 41
2.406718 -1.113504 65.251083 94 34 46
2.390953 -0.966473 64.823669 97 25 38
2.370252 -0.819577 64.262428 98 15 26
2.354960 -0.676655 63.847832 106 14 21
2.344875 -0.536712 63.574394 144 43 45
2.344875 -0.399667 63.574394 187 80 76
2.344875 -0.262622 63.574394 200 89 79
2.344875 -0.125577 63.574394 204 91 74
2.344875 0.011468 63.574394 208 94 70
2.344875 0.148513 63.574394 210 97 65
2.344875 0.285558 63.574394 207 96 58
2.344875 0.422603 63.574394 205 98 56
2.344875 0.559648 63.574394 222 122 81
2.349907 0.698188 63.710819 240 147 109
2.349907 0.835527 63.710819 244 153 121
2.349907 0.972866 63.710819 247 159 134
2.349907 1.110205 63.710819 250 167 147
2.344875 1.244873 63.574394 252 167 151
2.339865 1.378965 63.438553 249 153 135
2.334876 1.512485 63.303288 244 136 116
2.334876 1.648946 63.303288 240 129 106
2.334876 1.785406 63.303288 241 131 106
2.334876 1.921867 63.303288 248 142 115
2.329908 2.053948 63.168602 254 148 122
2.329908 2.190118 63.168602 254 149 123
2.320035 2.316431 62.900936 254 148 122
2.315130 2.446840 62.767956 254 146 120
2.305382 2.571275 62.503666 254 144 117
2.305382 2.706012 62.503666 254 146 115
2.305382 2.840748 62.503666 254 148 116
2.300539 2.969234 62.372356 254 146 116
2.300539 3.103688 62.372356 253 142 113
2.300539 3.238142 62.372356 251 137 111
2.305382 3.379696 62.503666 250 134 110
2.310246 3.521847 62.635532 252 135 114
2.310246 3.656868 62.635532 253 143 122
2.310246 3.791889 62.635532 254 150 127
2.310246 3.926910 62.635532 253 142 117
2.320035 4.079143 62.900936 250 125 98
2.329908 4.232671 63.168602 248 115 87
2.334876 4.378157 63.303288 249 116 88
2.334876 4.514617 63.303288 252 121 92
2.334876 4.651078 63.303288 253 122 94
2.329908 4.777352 63.168602 252 122 94
2.320035 4.892702 62.900936 252 123 96
2.310246 5.007079 62.635532 252 124 98
2.300539 5.120495 62.372356 251 124 98
2.300539 5.254949 62.372356 250 127 103
2.300539 5.389402 62.372356 252 133 111
2.290914 5.500744 62.111385 254 136 117
2.290914 5.634635 62.111385 254 133 118
2.290914 5.768526 62.111385 254 130 116
2.290914 5.902417 62.111385 254 129 116
2.300539 6.061671 62.372356 254 128 114
2.300539 6.196125 62.372356 254 125 107
2.305382 6.343906 62.503666 254 123 102
2.305382 6.478643 62.503666 254 125 98
2.305382 6.613380 62.503666 254 125 96
2.310246 6.762353 62.635532 254 127 97
2.310246 6.897375 62.635532 254 133 102
2.310246 7.032395 62.635532 255 137 108
2.305382 7.152328 62.503666 254 135 109
2.305382 7.287064 62.503666 254 128 109
2.300539 7.406209 62.372356 252 121 107
2.300539 7.540663 62.372356 248 116 106
2.305382 7.691275 62.503666 242 111 104
2.305382 7.826012 62.503666 238 109 105
2.315130 7.994409 62.767956 243 118 115
2.320035 8.146939 62.900936 250 132 126
2.324961 8.300117 63.034485 252 136 125
2.329908 8.453948 63.168602 252 132 116
2.344875 8.645301 63.574394 253 131 108
2.344875 8.782346 63.574394 250 127 98
2.354960 8.957754 63.847832 247 125 91
2.360036 9.114990 63.985435 250 140 102
2.360036 9.252921 63.985435 253 153 112
2.360036 9.390852 63.985435 246 137 93
2.360036 9.528784 63.985435 234 113 67
2.360036 9.666715 63.985435 229 107 61
2.360036 9.804646 63.985435 232 113 67
2.365133 9.964050 64.123634 234 119 75
2.365133 10.102280 64.123634 235 123 81
2.365133 10.240509 64.123634 231 120 82
2.365133 10.378737 64.123634 228 117 80
2.370252 10.539730 64.262428 237 140 103
2.375394 10.701422 64.401825 249 182 142
2.390953 10.911257 64.823669 249 185 141
2.417344 11.172970 65.539169 240 146 100
2.422692 11.339282 65.684166 240 122 73
2.417344 11.455531 65.539169 244 121 71
2.417344 11.596811 65.539169 241 119 70
2.428063 11.790145 65.829803 235 114 67
2.438879 11.985202 66.123032 231 112 68
2.438879 12.127741 66.123032 226 111 69
2.433459 12.243012 65.976097 221 110 69
2.433459 12.385235 65.976097 217 109 70
2.433459 12.527456 65.976097 211 104 67
2.422692 12.613618 65.684166 206 98 63
2.417344 12.727054 65.539169 216 112 79
2.417344 12.868335 65.539169 239 148 117
2.412019 12.980959 65.394806 245 160 131
2.417344 13.150895 65.539169 231 129 104
2.412019 13.262897 65.394806 220 105 82
2.396185 13.315876 64.965523 221 108 89
2.385744 13.397288 64.682442 226 115 98
2.370252 13.448821 64.262428 230 121 104
2.360036 13.528784 63.985435 237 130 112
2.360036 13.666715 63.985435 245 139 120
2.360036 13.804646 63.985435 250 145 126
2.365133 13.972690 64.123634 253 155 137
2.370252 14.141462 64.262428 254 163 145
