ply
format ascii 1.0
element vertex 1239
property float x
property float y
property float z
property uchar red
property uchar green
property uchar blue
end_header
4.546586 3.834857 65.684166 42 34 34
4.457824 4.176476 64.401825 42 33 32
4.448174 4.305964 64.262428 42 33 32
4.419477 4.415818 63.847832 42 33 33
4.409993 4.543681 63.710819 41 33 33
4.391147 4.661016 63.438553 41 33 33
4.381784 4.787539 63.303288 40 32 33
4.326435 4.861801 62.503666 40 32 32
4.317346 4.986041 62.372356 40 32 31
4.317346 5.120495 62.372356 39 32 32
4.335563 5.277121 62.635532 40 32 32
4.344728 5.423584 62.767956 40 33 32
4.353933 5.570668 62.900936 40 33 32
4.335563 5.682185 62.635532 40 32 31
4.381784 6.015683 63.303288 39 31 31
4.290306 6.023706 61.981716 39 31 32
4.211182 6.043761 60.838612 40 32 34
4.211182 6.174909 60.838612 41 33 34
4.566792 8.260790 65.976097 38 32 31
4.448174 8.184752 64.262428 37 31 30
4.419477 8.269582 63.847832 37 31 30
4.381784 8.335513 63.303288 36 30 29
4.335563 8.382607 62.635532 35 30 28
4.263603 8.376256 61.595940 34 30 27
4.151629 8.285566 59.978268 33 29 27
4.143260 8.397894 59.857342 32 28 26
4.607750 9.482860 66.567810 32 27 26
4.628506 9.669720 66.867661 31 27 25
4.587180 9.726240 66.270630 30 26 24
4.587180 9.869097 66.270630 29 26 22
4.607750 10.056850 66.567810 29 26 22
4.607750 10.200349 66.567810 28 25 22
4.576963 10.274734 66.123032 27 25 21
4.566792 10.394123 65.976097 27 24 21
4.536549 10.466568 65.539169 26 24 21
4.536549 10.607849 65.539169 26 23 23
4.536549 10.749129 65.539169 26 23 24
4.536549 10.890409 65.539169 26 24 24
4.506703 10.959113 65.107986 27 24 24
4.506703 11.099463 65.107986 27 23 24
4.487023 11.190732 64.823669 27 23 24
4.516608 11.405177 65.251083 26 23 24
4.516608 11.545836 65.251083 26 22 23
4.638954 12.003059 67.018608 26 22 23
4.618105 12.092934 66.717400 26 22 23
4.587180 12.154811 66.270630 26 22 22
4.576963 12.270280 66.123032 25 21 20
4.536549 12.303213 65.539169 25 21 19
4.487023 12.308637 64.823669 24 21 20
4.467515 12.394251 64.541832 24 21 21
4.467515 12.533381 64.541832 24 22 21
3.049046 8.648895 44.049320 24 22 21
4.429001 12.701197 63.985435 23 22 21
4.429001 12.839128 63.985435 23 21 20
4.419477 12.949152 63.847832 22 21 20
4.419477 13.086786 63.847832 22 20 19
4.419477 13.224421 63.847832 21 19 19
4.335563 13.648429 62.635532 18 17 14
4.299282 13.668108 62.111385 17 16 14
4.396383 -16.586399 61.595940 21 20 15
4.396383 -16.453619 61.595940 21 20 15
4.461172 -16.561357 62.503666 20 19 15
4.596652 -16.925476 64.401825 20 19 14
4.566932 -16.678114 63.985435 20 19 14
4.527899 -16.398813 63.438553 20 18 15
4.518244 -16.227386 63.303288 21 18 15
4.499059 -16.022600 63.034485 21 18 16
4.451800 -15.719841 62.372356 22 18 17
4.442467 -15.552714 62.241596 23 19 18
4.451800 -15.450933 62.372356 24 20 19
4.499059 -15.479075 63.034485 24 21 20
4.518244 -15.408624 63.303288 24 21 20
4.557111 -15.403537 63.847832 24 21 20
4.566932 -15.298803 63.985435 23 21 20
4.566932 -13.505699 63.985435 28 24 24
4.508631 -13.197116 63.168602 27 24 23
4.451800 -12.896312 62.372356 25 23 22
4.414701 -12.655509 61.852589 24 22 22
4.414701 -12.522176 61.852589 23 22 21
4.414701 -12.388843 61.852589 24 22 20
4.433173 -12.306787 62.111385 24 22 21
4.414701 -11.855510 61.852589 27 25 23
4.396383 -11.673536 61.595940 28 26 24
4.387281 -11.516862 61.468410 29 28 24
4.387281 -11.384357 61.468410 31 28 25
4.387281 -11.251852 61.468410 32 29 26
4.369189 -11.073494 61.214931 33 29 27
4.369189 -10.941535 61.214931 34 29 27
7.016744 -17.359751 98.308746 35 29 27
7.016744 -17.147829 98.308746 36 29 28
6.970581 -16.824488 97.661980 37 30 30
6.970581 -16.613962 97.661980 38 30 31
6.947727 -16.349655 97.341774 39 30 31
6.947727 -16.139818 97.341774 40 30 31
6.947727 -15.929982 97.341774 40 31 30
6.902464 -15.617735 96.707626 41 31 31
4.378216 -9.774059 61.341408 41 31 31
4.360199 -9.602149 61.088974 41 31 31
4.315798 -9.374022 60.466888 41 31 32
4.315798 -9.243675 60.466888 41 32 34
4.396383 -9.283495 61.595940 42 33 35
4.451800 -8.728245 62.372356 40 35 36
4.805117 -9.275838 67.322548 40 35 36
4.805117 -9.130713 67.322548 40 34 36
4.882619 -9.130517 68.408394 41 34 36
4.871395 -8.962401 68.251129 42 34 36
4.860222 -8.795056 68.094589 44 34 36
4.838029 -8.608777 67.783661 46 35 37
4.772650 -8.348298 66.867661 49 37 39
4.698574 -8.076818 65.829803 51 41 42
4.616681 -7.796611 64.682442 54 44 45
4.576796 -7.591025 64.123634 56 48 48
4.547332 -7.404817 63.710819 58 51 51
4.527899 -7.236420 63.438553 60 55 54
4.489527 -7.039501 62.900936 65 62 60
4.470583 -6.874777 62.635532 79 76 74
4.461172 -6.725567 62.503666 91 89 87
4.461172 -6.590831 62.503666 89 88 87
4.461172 -6.456094 62.503666 75 75 75
4.470583 -6.334693 62.635532 64 65 66
4.470583 -6.199672 62.635532 62 65 67
4.480035 -6.077473 62.767956 67 70 74
4.499059 -5.967398 63.034485 72 74 80
4.499059 -5.831517 63.034485 79 80 87
4.499059 -5.695636 63.034485 95 97 103
4.499059 -5.559755 63.034485 117 120 124
4.508631 -5.435414 63.168602 131 137 139
4.508631 -5.299243 63.168602 129 142 139
4.499059 -5.152112 63.034485 122 141 137
4.470583 -4.984482 62.635532 124 149 145
4.461172 -4.839252 62.503666 126 155 154
4.433173 -4.674989 62.111385 121 152 154
4.423918 -4.531617 61.981716 114 145 151
4.414701 -4.388843 61.852589 112 140 149
4.414701 -4.255509 61.852589 145 167 176
4.423918 -4.130782 61.981716 205 219 223
4.423918 -3.997170 61.981716 235 242 244
4.423918 -3.863559 61.981716 221 229 233
4.423918 -3.729947 61.981716 197 212 218
4.423918 -3.596335 61.981716 197 215 222
4.423918 -3.462723 61.981716 216 236 240
4.433173 -3.336076 62.111385 216 239 242
4.442467 -3.208898 62.241596 201 226 231
5.805634 -4.018204 81.340393 213 234 237
5.821584 -3.325947 81.563850 237 252 254
4.566932 -2.471217 63.985435 233 251 254
4.547332 -2.323272 63.710819 233 252 254
4.547332 -2.185932 63.710819 232 252 253
4.527899 -2.039839 63.438553 228 250 252
4.527899 -1.903087 63.438553 230 251 252
4.527899 -1.766334 63.438553 235 252 254
4.527899 -1.629582 63.438553 242 254 254
4.508631 -1.486478 63.168602 235 246 249
4.499059 -1.347441 63.034485 203 221 233
4.470583 -1.203891 62.635532 187 208 223
4.470583 -1.068870 62.635532 204 222 235
6.232520 -1.301896 87.321304 201 219 232
6.196072 -1.107148 86.810646 156 173 189
6.071795 -0.901560 85.069466 115 130 145
6.020047 -0.712058 84.344437 120 134 145
6.020047 -0.530240 84.344437 145 155 163
6.054448 -0.350413 84.826408 158 168 170
6.071795 -0.168036 85.069466 154 162 162
6.071795 0.015345 85.069466 130 136 134
6.037199 0.197594 84.584732 107 112 110
6.020047 0.378851 84.344437 103 107 107
6.037199 0.562266 84.584732 105 105 110
6.037199 0.744603 84.584732 96 94 102
6.106791 1.306500 85.559776 99 93 102
5.364700 1.309761 75.162636 82 74 82
5.364700 1.471786 75.162636 68 59 65
5.364700 1.633811 75.162636 65 56 61
5.405757 1.809580 75.737862 66 58 61
5.364700 1.957862 75.162636 64 57 60
6.106791 2.413128 85.559776 61 54 57
6.106791 2.597566 85.559776 58 52 55
5.696389 2.595042 79.809792 56 50 53
5.547269 2.694648 77.720528 55 48 51
5.489784 2.832527 76.915138 54 47 50
5.419582 2.959988 75.931564 53 46 49
5.219351 3.165900 73.126213 50 44 47
4.783423 3.045949 67.018608 49 42 45
4.730037 3.154811 66.270630 47 40 42
4.688179 3.268486 65.684166 45 39 40
4.657268 3.387594 65.251083 44 38 39
4.657268 3.528254 65.251083 43 36 37
4.677829 3.685112 65.539169 42 35 35
4.688179 3.834857 65.684166 42 34 34
4.596652 4.176476 64.401825 43 33 32
4.586703 4.305964 64.262428 43 33 32
4.557111 4.415818 63.847832 43 34 32
4.527899 4.524264 63.438553 42 34 33
4.518244 4.651078 63.303288 42 34 33
4.461172 4.727064 62.503666 41 33 33
4.451800 4.851587 62.372356 41 33 33
4.442467 4.975588 62.241596 40 32 32
4.442467 5.109760 62.241596 40 32 32
4.461172 5.266012 62.503666 39 32 32
4.461172 5.400748 62.503666 39 32 32
4.461172 5.535485 62.503666 39 32 32
4.414701 5.611157 61.852589 39 32 32
4.414701 5.744491 61.852589 39 32 32
4.414701 5.877824 61.852589 38 32 32
4.405523 5.998660 61.723995 39 32 33
4.324605 6.019093 60.590290 40 32 34
4.324605 6.149705 60.590290 40 33 34
4.751248 8.334878 66.567810 38 32 31
4.698574 8.384380 65.829803 36 31 30
4.586703 8.323280 64.262428 36 30 29
4.557111 8.407216 63.847832 36 30 29
4.470583 8.382607 62.635532 35 30 28
4.396383 8.376256 61.595940 34 30 28
4.280922 8.285566 59.978268 34 29 27
4.272292 8.397894 59.857342 33 29 27
4.751248 9.482860 66.567810 32 28 26
4.740619 9.604822 66.418884 32 28 25
4.709015 9.683012 65.976097 31 27 24
4.709015 9.825234 65.976097 30 26 23
4.730037 10.011954 66.270630 29 26 23
4.730037 10.154811 66.270630 28 26 22
4.719502 10.274734 66.123032 28 25 22
4.709015 10.394123 65.976097 27 24 22
4.677829 10.466568 65.539169 26 24 22
4.677829 10.607849 65.539169 26 24 23
4.677829 10.749129 65.539169 26 24 24
4.688179 10.914503 65.684166 26 24 25
4.647054 10.959113 65.107986 26 24 25
4.647054 11.099463 65.107986 26 23 24
4.626761 11.190732 64.823669 26 23 24
4.657268 11.405177 65.251083 26 22 23
4.657268 11.545836 65.251083 26 22 23
4.882619 12.251971 68.408394 26 21 23
4.794246 12.175013 67.170235 26 22 22
4.761925 12.236753 66.717400 26 22 21
4.730037 12.297668 66.270630 25 22 20
4.709015 12.385235 65.976097 25 22 19
4.626761 12.308637 64.823669 25 22 20
4.606645 12.394251 64.541832 24 22 21
3.139343 8.541267 43.984062 24 22 21
3.125452 8.597870 43.789444 24 22 21
3.125452 8.692265 43.789444 23 22 21
4.557111 12.811517 63.847832 23 21 20
4.566932 12.977059 63.985435 22 21 20
4.586703 13.171765 64.262428 21 20 19
4.433173 13.668108 62.111385 17 17 14
4.501148 -16.483803 61.214931 20 19 14
4.501148 -16.351845 61.214931 20 19 14
4.567064 -16.457415 62.111385 20 19 14
4.664651 -16.672318 63.438553 20 18 14
4.605605 -16.326254 62.635532 20 18 14
4.605605 -16.191233 62.635532 20 18 15
4.605605 -16.056211 62.635532 20 18 15
4.595909 -15.887672 62.503666 21 19 16
4.576639 -15.686886 62.241596 22 19 17
4.576639 -15.552714 62.241596 23 20 18
4.576639 -15.418542 62.241596 24 21 19
4.595909 -15.348725 62.503666 24 22 20
4.634940 -15.343194 63.034485 24 22 21
4.654705 -15.272163 63.303288 23 22 21
4.684671 -15.233143 63.710819 23 21 21
4.704864 -15.160872 63.985435 22 21 21
4.704864 -13.505699 63.985435 28 24 24
4.644801 -13.197116 63.168602 27 24 24
4.576639 -12.869276 62.241596 26 23 23
4.548035 -12.655509 61.852589 24 23 22
4.548035 -12.522176 61.852589 24 22 21
4.548035 -12.388843 61.852589 24 21 20
4.576639 -12.332588 62.241596 24 21 19
4.586254 -12.224043 62.372356 24 21 18
4.567064 -12.039005 62.111385 24 22 19
4.548035 -11.855510 61.852589 26 24 20
4.548035 -11.722177 61.852589 28 26 22
4.529163 -11.540756 61.595940 29 28 23
4.519786 -11.384357 61.468410 30 28 24
4.519786 -11.251852 61.468410 31 28 25
4.519786 -11.119347 61.468410 32 28 26
4.529163 -11.009636 61.595940 33 28 27
7.276855 -17.475481 98.964142 34 29 27
7.276855 -17.262148 98.964142 35 29 28
7.228664 -16.935909 98.308746 36 29 29
7.228664 -16.723988 98.308746 37 29 30
7.276855 -16.622149 98.964142 38 29 30
7.276855 -16.408815 98.964142 39 30 30
7.204807 -16.035130 97.984299 40 30 30
7.110934 -15.617735 96.707626 42 31 31
4.519786 -9.794295 61.468410 42 31 31
4.501148 -9.621947 61.214931 41 32 31
4.491886 -9.470462 61.088974 41 32 32
4.501148 -9.358030 61.214931 42 33 33
4.605605 -9.440178 62.635532 42 33 35
4.605605 -9.170136 62.635532 41 34 36
4.576639 -8.978291 62.241596 41 35 36
4.605605 -8.765073 62.635532 40 35 36
4.950242 -9.275838 67.322548 40 35 36
4.797927 -8.849769 65.251083 41 34 36
4.950242 -8.985588 67.322548 41 34 37
5.007010 -8.941845 68.094589 43 34 37
4.984148 -8.754896 67.783661 45 34 37
4.916794 -8.492443 66.867661 47 36 38
4.862041 -8.255333 66.123032 49 38 40
4.797927 -8.005812 65.251083 52 42 42
4.735481 -7.762786 64.401825 55 46 45
4.704864 -7.574665 63.985435 58 49 48
4.674640 -7.388960 63.574394 60 53 51
4.654705 -7.220991 63.303288 63 58 54
4.634940 -7.054447 63.034485 70 66 62
4.625120 -6.903908 62.900936 83 80 76
4.615342 -6.754005 62.767956 90 89 85
4.615342 -6.618699 62.767956 82 84 80
4.625120 -6.497128 62.900936 67 70 67
4.634940 -6.375041 63.034485 59 65 63
4.644801 -6.252435 63.168602 63 70 71
4.664651 -6.142403 63.438553 72 79 83
4.674640 -6.018511 63.574394 77 83 89
4.674640 -5.881466 63.574394 85 91 98
4.674640 -5.744421 63.574394 106 112 118
4.654705 -5.583464 63.303288 130 138 140
4.664651 -5.458642 63.438553 142 153 150
4.664651 -5.321890 63.438553 138 153 147
4.664651 -5.185138 63.438553 132 154 145
4.625120 -5.005603 62.900936 140 168 159
4.595909 -4.839252 62.503666 144 175 170
4.576639 -4.684789 62.241596 139 172 172
4.557529 -4.531617 61.981716 131 163 168
4.548035 -4.388843 61.852589 131 159 168
4.548035 -4.255509 61.852589 168 189 197
4.557529 -4.130782 61.981716 223 233 237
4.557529 -3.997170 61.981716 248 250 251
4.567064 -3.871641 62.111385 245 247 249
4.557529 -3.729947 61.981716 235 241 245
4.557529 -3.596335 61.981716 229 240 244
4.557529 -3.462723 61.981716 229 245 248
5.980977 -4.368889 81.340393 222 245 247
5.980977 -4.193547 81.340393 213 239 242
4.644801 -2.439669 63.168602 244 254 254
4.644801 -2.303499 63.168602 244 254 254
4.674640 -2.181252 63.574394 242 252 253
4.664651 -2.039839 63.438553 236 249 251
4.664651 -1.903087 63.438553 237 250 252
4.674640 -1.770117 63.574394 245 253 254
4.674640 -1.633072 63.574394 249 254 254
4.674640 -1.496027 63.574394 238 249 252
4.664651 -1.356078 63.438553 220 238 246
6.497192 -1.698347 88.360840 221 237 246
6.516587 -1.512372 88.624603 224 237 245
6.477913 -1.313485 88.098640 197 214 228
6.439695 -1.116946 87.578888 160 179 195
6.383206 -0.920013 86.810646 131 148 163
6.291230 -0.722319 85.559776 123 137 150
6.255177 -0.534798 85.069466 140 151 160
6.291230 -0.353442 85.559776 164 173 177
6.309412 -0.169493 85.807060 167 174 174
6.291230 0.015434 85.559776 136 142 140
6.273151 0.199297 85.313911 106 111 108
6.237305 0.381016 84.826408 103 107 106
6.237305 0.563873 84.826408 108 110 113
6.237305 0.746730 84.826408 95 95 101
6.291230 1.306500 85.559776 98 93 104
5.526726 1.309761 75.162636 84 77 86
5.526726 1.471786 75.162636 71 63 69
5.512769 1.629686 74.972832 68 60 64
5.526726 1.795837 75.162636 68 60 63
5.498883 1.947999 74.783989 65 57 60
5.485067 2.103908 74.596085 61 54 57
5.626435 2.323081 76.518669 59 52 55
5.655587 2.500921 76.915138 57 49 53
5.626435 2.652978 76.518669 55 47 51
5.526726 2.767988 75.162636 53 46 49
5.444032 2.886173 74.038010 52 46 48
5.444032 3.045774 74.038010 51 45 47
4.916794 3.183233 66.867661 46 40 42
4.851237 3.283012 65.976097 45 39 40
4.797927 3.387594 65.251083 44 38 39
4.797927 3.528254 65.251083 44 36 38
4.797927 3.668913 65.251083 44 35 35
4.819109 3.826392 65.539169 44 35 34
4.735481 4.176476 64.401825 44 34 33
4.725231 4.305964 64.262428 44 34 33
4.684671 4.406342 63.710819 44 35 33
4.654705 4.514617 63.303288 43 35 33
4.615342 4.611745 62.767956 42 35 34
4.586254 4.717134 62.372356 41 34 34
4.576639 4.841416 62.241596 41 34 34
4.567064 4.965179 62.111385 41 33 33
4.576639 5.109760 62.241596 40 33 32
4.595909 5.266012 62.503666 39 33 32
4.595909 5.400748 62.503666 39 32 32
4.576639 5.512276 62.241596 38 32 32
4.529163 5.587874 61.595940 39 32 32
4.482663 5.661921 60.963535 39 32 32
4.482663 5.793338 60.963535 39 32 33
4.464328 5.900522 60.714195 38 32 33
4.455218 6.019093 60.590290 39 32 33
4.419143 6.099910 60.099682 39 32 33
4.419143 6.229465 60.099682 39 33 33
7.019475 10.512397 95.463799 41 33 34
6.737829 10.288135 91.633461 41 33 34
6.497192 10.111177 88.360840 40 33 34
4.894746 8.478375 66.567810 36 31 30
4.819109 8.488644 65.539169 35 30 29
4.808495 8.610915 65.394806 35 29 28
4.776929 8.694432 64.965523 35 29 28
4.654705 8.608434 63.303288 34 29 28
4.557529 8.562328 61.981716 34 29 28
4.894746 9.339362 66.567810 34 29 27
4.894746 9.482860 66.567810 33 29 27
4.883796 9.604822 66.418884 32 28 26
4.840480 9.661542 65.829803 31 27 24
4.840480 9.803449 65.829803 30 27 24
4.862041 9.989655 66.123032 30 26 23
4.862041 10.132195 66.123032 29 26 23
4.862041 10.274734 66.123032 28 26 22
4.851237 10.394123 65.976097 27 25 22
4.829772 10.489724 65.684166 27 25 23
4.819109 10.607849 65.539169 26 25 23
4.787405 10.959113 65.107986 26 24 25
4.787405 11.099463 65.107986 26 23 24
4.776929 11.215219 64.965523 26 23 23
4.776929 11.355264 64.965523 25 22 22
5.222623 12.567836 71.026894 26 21 22
5.222623 12.720946 71.026894 26 21 22
5.076876 12.514780 69.044746 26 22 22
5.030085 12.546902 68.408394 26 23 21
4.905745 12.380574 66.717400 25 22 20
4.872894 12.440526 66.270630 25 22 19
4.766499 12.308637 64.823669 25 23 20
3.238956 8.458984 44.049320 24 23 20
3.224604 8.516035 43.854126 24 23 20
3.205663 8.559994 43.596539 23 23 20
3.205663 8.653973 43.596539 22 22 20
3.229374 8.812656 43.918999 22 21 20
4.704864 12.977059 63.985435 21 20 19
4.725231 13.171765 64.262428 21 19 18
4.633107 -16.483803 61.214931 19 18 14
4.633107 -16.351845 61.214931 19 18 14
4.700955 -16.457415 62.111385 19 18 15
4.740626 -16.461275 62.635532 19 18 15
4.720707 -16.257656 62.372356 19 18 15
4.720707 -16.123203 62.372356 19 18 15
4.720707 -15.988749 62.372356 20 19 16
4.710811 -15.821057 62.241596 21 19 17
4.700955 -15.654068 62.111385 22 20 17
4.691141 -15.487776 61.981716 22 21 19
4.700955 -15.386286 62.111385 23 22 20
4.710811 -15.284370 62.241596 23 22 21
4.730646 -15.213988 62.503666 23 22 21
4.760713 -15.175095 62.900936 23 22 21
4.811685 -15.200523 63.574394 22 22 21
4.832380 -15.128268 63.847832 22 21 21
4.842794 -15.022941 63.985435 23 20 21
4.842794 -13.505699 63.985435 29 25 24
4.780972 -13.197116 63.168602 28 24 24
4.710811 -12.869276 62.241596 27 24 23
4.681368 -12.655509 61.852589 25 23 22
4.681368 -12.522176 61.852589 25 22 21
4.681368 -12.388843 61.852589 25 22 19
4.720707 -12.358497 62.372356 24 22 19
4.720707 -12.224043 62.372356 24 22 19
4.710811 -12.064244 62.241596 25 22 19
4.691141 -11.880260 61.981716 26 24 20
4.681368 -11.722177 61.852589 28 26 22
4.681368 -11.588842 61.852589 29 28 23
4.681368 -11.455509 61.852589 29 28 23
4.681368 -11.322176 61.852589 30 28 24
4.681368 -11.188843 61.852589 31 28 25
4.720707 -11.148413 62.372356 31 28 26
7.565847 -17.652002 99.963776 32 28 27
7.721844 -17.796030 102.024887 34 28 28
7.565847 -17.221025 99.963776 35 29 28
7.748471 -16.974636 102.376694 38 30 29
7.465304 -16.141676 98.635353 39 31 29
4.691141 -10.009696 61.981716 41 31 30
4.671636 -9.835020 61.723995 41 32 30
4.652291 -9.661790 61.468410 41 32 31
4.652291 -9.529284 61.468410 42 33 32
4.710811 -9.514978 62.241596 42 33 33
4.791165 -9.540820 63.303288 42 33 35
4.791165 -9.404360 63.303288 42 34 35
4.730646 -9.150830 62.503666 41 34 35
4.710811 -8.978291 62.241596 40 34 35
4.720707 -8.862699 62.372356 40 35 35
4.740626 -8.765073 62.635532 40 35 35
4.853254 -8.835085 64.123634 41 35 36
4.853254 -8.696856 64.123634 41 35 36
4.938586 -8.709109 65.251083 42 35 37
5.015751 -8.702332 66.270630 44 35 38
5.015751 -8.559474 66.270630 45 36 39
5.004580 -8.397872 66.123032 47 37 39
4.938586 -8.146471 65.251083 50 39 40
4.874310 -7.901615 64.401825 53 43 42
4.842794 -7.712596 63.985435 56 46 45
4.822010 -7.542156 63.710819 58 49 47
4.801403 -7.373172 63.438553 60 53 49
4.791165 -7.220991 63.303288 64 59 53
4.770821 -7.054447 63.034485 74 71 64
4.770821 -6.918566 63.034485 85 84 77
4.760713 -6.768315 62.900936 85 87 80
4.770821 -6.646804 63.034485 73 77 72
4.780972 -6.524776 63.168602 60 67 63
4.791165 -6.402227 63.303288 57 66 64
4.801403 -6.279155 63.438553 66 77 78
4.822010 -6.168765 63.710819 77 89 93
4.842794 -6.057424 63.985435 82 93 100
4.842794 -5.919493 63.985435 91 102 109
4.842794 -5.781561 63.985435 114 125 131
4.853254 -5.655820 64.123634 135 148 149
4.832380 -5.493859 63.847832 144 161 156
4.822010 -5.344731 63.710819 146 166 157
4.811685 -5.196241 63.574394 151 176 163
4.791165 -5.037621 63.303288 162 191 180
4.760713 -4.870009 62.900936 163 194 187
4.730646 -4.704515 62.503666 156 188 187
4.710811 -4.550618 62.241596 150 182 187
4.691141 -4.398005 61.981716 157 185 193
4.691141 -4.264394 61.981716 196 214 220
4.700955 -4.139424 62.111385 237 244 246
4.710811 -4.013930 62.241596 252 254 254
4.700955 -3.871641 62.111385 252 254 254
4.700955 -3.737750 62.111385 249 254 254
4.700955 -3.603859 62.111385 243 253 253
4.730646 -2.548725 62.503666 244 251 253
4.730646 -2.413989 62.503666 250 254 254
4.750648 -2.288889 62.767956 250 254 254
4.780972 -2.167329 63.168602 249 254 254
4.791165 -2.035489 63.303288 247 252 253
4.801403 -1.903087 63.438553 246 252 253
4.822010 -1.773915 63.710819 245 251 253
4.822010 -1.636576 63.710819 244 251 253
4.822010 -1.499237 63.710819 240 252 253
6.687669 -1.888823 88.360840 234 249 253
6.727715 -1.708517 88.889946 234 249 253
6.727715 -1.516900 88.889946 224 238 245
6.707632 -1.321327 88.624603 189 207 223
6.667824 -1.123574 88.098640 165 185 203
6.608990 -0.925425 87.321304 152 170 186
6.551186 -0.730742 86.557556 136 151 166
6.494383 -0.539435 85.807060 143 156 166
6.570341 -0.358610 86.810646 171 182 187
6.570341 -0.171475 86.810646 176 185 186
6.532141 0.015568 86.305939 140 147 145
6.494383 0.200449 85.807060 104 110 108
6.457059 0.383205 85.313911 103 107 106
6.438558 0.565488 85.069466 109 111 114
6.457059 0.751021 85.313911 94 94 100
5.674386 1.306453 74.972832 85 79 88
5.674386 1.468069 74.972832 75 68 75
5.660092 1.625581 74.783989 72 65 69
5.660092 1.786790 74.783989 70 62 66
5.631721 1.938234 74.409126 65 57 60
5.617641 2.093389 74.223106 61 52 56
5.617641 2.253389 74.223106 59 50 54
5.732287 2.462641 75.737862 57 48 53
5.732287 2.625907 75.737862 54 45 49
5.660092 2.754044 74.783989 52 43 47
5.575823 2.871850 73.670578 51 43 46
5.534622 3.008265 73.126213 51 43 46
5.534622 3.165900 73.126213 49 43 45
4.960390 3.685112 65.539169 44 36 36
4.863759 4.305964 64.262428 44 35 33
4.822010 4.406342 63.710819 44 36 33
4.750648 4.476439 62.767956 43 36 34
4.720707 4.582680 62.372356 42 36 35
4.681368 4.677824 61.852589 42 35 35
4.691141 4.821201 61.981716 42 35 35
4.700955 4.965179 62.111385 40 35 34
4.720707 5.120495 62.372356 40 34 33
4.730646 5.266012 62.503666 39 33 32
4.710811 5.378104 62.241596 38 33 32
4.691141 5.489260 61.981716 39 32 33
4.661943 5.587874 61.595940 39 32 33
4.652291 5.708810 61.468410 39 32 32
4.671636 5.865604 61.723995 39 32 33
4.623573 5.936945 61.088974 38 32 33
4.595208 6.031402 60.714195 39 32 33
4.548697 6.099910 60.099682 39 32 33
4.548697 6.229465 60.099682 38 32 33
7.225263 10.100821 95.463799 38 32 33
7.343322 10.475018 97.023666 39 32 33
7.225263 10.512397 95.463799 40 33 34
6.935360 10.288135 91.633461 40 33 34
6.687669 10.111177 88.360840 40 33 33
5.083838 8.555103 67.170235 36 30 30
4.982387 8.526287 65.829803 34 29 29
4.960390 8.629924 65.539169 34 29 28
4.960390 8.771204 65.539169 34 29 28
4.960390 8.912484 65.539169 34 29 29
4.960390 9.053765 65.539169 34 29 29
5.015751 9.297668 66.270630 34 29 28
5.026972 9.461645 66.418884 33 29 27
5.015751 9.583383 66.270630 32 29 26
4.982387 9.661542 65.829803 31 28 25
4.949464 9.738668 65.394806 30 27 24
4.982387 9.945355 65.829803 29 27 23
4.982387 10.087263 65.829803 29 27 23
5.004580 10.274734 66.123032 28 27 23
4.982387 10.371077 65.829803 28 26 23
4.971364 10.489724 65.684166 27 26 24
4.971364 10.631317 65.684166 27 25 24
4.949464 10.725452 65.394806 27 25 24
4.927756 10.959113 65.107986 26 24 24
4.927756 11.099463 65.107986 25 23 23
4.927756 11.239815 65.107986 25 22 22
4.993459 12.527456 65.976097 25 23 19
3.348818 8.496804 44.246262 24 23 20
3.319138 8.516035 43.854126 23 23 20
3.299643 8.559994 43.596539 23 23 20
3.299643 8.653973 43.596539 22 22 19
3.314243 8.786660 43.789444 22 21 19
4.842794 12.977059 63.985435 21 20 18
4.842794 13.114990 63.985435 21 19 17
4.842794 13.252921 63.985435 20 19 16
4.832380 13.362055 63.847832 20 19 16
4.765065 -16.615763 61.214931 19 18 14
4.745496 -16.416107 60.963535 19 18 14
4.745496 -16.284691 60.963535 19 18 15
4.814702 -16.388844 61.852589 19 18 16
4.834846 -16.323524 62.111385 19 18 16
4.834846 -16.189632 62.111385 19 18 16
4.834846 -16.055742 62.111385 19 18 16
4.834846 -15.921850 62.111385 20 19 16
4.834846 -15.787959 62.111385 20 19 17
4.824753 -15.621387 61.981716 21 20 18
4.814702 -15.455509 61.852589 22 21 19
4.814702 -15.322176 61.852589 23 22 21
4.824753 -15.220552 61.981716 23 22 21
4.844983 -15.150198 62.241596 23 22 21
4.865382 -15.079251 62.503666 23 22 21
4.927626 -15.135703 63.303288 22 22 21
4.948730 -15.063478 63.574394 22 21 21
4.980725 -15.022941 63.985435 22 21 21
4.917142 -13.197116 63.168602 29 24 22
4.844983 -12.869276 62.241596 28 24 22
4.814702 -12.655509 61.852589 27 23 22
4.814702 -12.522176 61.852589 26 23 20
4.855161 -12.492950 62.372356 26 23 19
4.875647 -12.410643 62.635532 25 23 19
4.875647 -12.275621 62.635532 26 23 19
4.855161 -12.089589 62.372356 26 24 20
4.844983 -11.930073 62.241596 27 25 21
4.844983 -11.795900 62.241596 28 26 22
4.844983 -11.661729 62.241596 28 27 22
4.896307 -11.649671 62.900936 29 27 23
4.896307 -11.514077 62.900936 29 27 23
4.865382 -11.306620 62.503666 29 27 24
4.896307 -11.242891 62.900936 30 27 25
8.024502 -18.203627 103.087646 30 27 26
8.080618 -18.107149 103.808540 32 27 27
4.844983 -10.185838 62.241596 39 30 29
4.824753 -10.009696 61.981716 40 31 30
4.824753 -9.876084 61.981716 41 32 31
4.814702 -9.722177 61.852589 41 32 31
4.824753 -9.608861 61.981716 41 33 32
4.927626 -9.677280 63.303288 41 33 33
4.938155 -9.561206 63.438553 41 33 34
4.927626 -9.404360 63.303288 41 33 35
4.885955 -9.189524 62.767956 41 33 35
4.865382 -9.016094 62.503666 40 34 35
4.885955 -8.918910 62.767956 40 34 35
4.906702 -8.820901 63.034485 41 35 35
4.906702 -8.685020 63.034485 41 35 36
4.970014 -8.659451 63.847832 42 36 37
4.991483 -8.558627 64.123634 43 37 38
4.991483 -8.420399 64.123634 45 37 38
5.002287 -8.300097 64.262428 46 38 39
5.013138 -8.179273 64.401825 48 39 40
5.002287 -8.023040 64.262428 51 41 41
4.980725 -7.850527 63.985435 53 43 42
4.959349 -7.679495 63.710819 56 46 44
4.948730 -7.526005 63.574394 58 48 45
4.927626 -7.357451 63.303288 58 50 46
4.917142 -7.205626 63.168602 64 58 52
4.906702 -7.054447 63.034485 78 74 68
4.896307 -6.903908 62.900936 87 85 80
4.906702 -6.782685 63.034485 80 82 77
4.906702 -6.646804 63.034485 66 70 66
4.917142 -6.524776 63.168602 56 64 62
4.927626 -6.402227 63.303288 58 69 68
4.948730 -6.292601 63.574394 71 84 86
4.980725 -6.195354 63.985435 84 98 103
4.991483 -6.070507 64.123634 88 103 110
4.991483 -5.932278 64.123634 96 111 119
4.991483 -5.794049 64.123634 116 132 138
5.910631 -6.697300 75.931564 134 152 154
6.034091 -6.670090 77.517601 145 166 162
6.049887 -6.520012 77.720528 155 178 170
4.970014 -5.218590 63.847832 166 193 181
4.948730 -5.059196 63.574394 174 203 193
4.938155 -4.911633 63.438553 169 199 193
6.297157 -6.088950 80.897118 159 190 189
6.349057 -5.963309 81.563850 159 189 195
6.366547 -5.803429 81.788544 180 205 214
6.491732 -5.737765 83.396751 216 232 238
6.473548 -5.542422 83.163147 244 250 252
6.437484 -5.333272 82.699837 252 254 254
4.844983 -3.879758 62.241596 249 254 254
4.844983 -3.745586 62.241596 241 252 252
4.865382 -2.683462 62.503666 230 244 248
4.844983 -2.538039 62.241596 242 248 250
4.844983 -2.403867 62.241596 251 254 254
4.844983 -2.269695 62.241596 251 254 254
4.885955 -2.153583 62.767956 251 254 254
4.896307 -2.022552 62.900936 253 254 254
4.927626 -1.899029 63.303288 247 251 252
4.948730 -1.770117 63.574394 234 245 248
4.948730 -1.633072 63.574394 234 246 249
4.959349 -1.499237 63.710819 243 251 253
6.878145 -1.888823 88.360840 239 251 254
6.940110 -1.713647 89.156883 229 246 253
6.940110 -1.521455 89.156883 209 228 241
6.919331 -1.325283 88.889946 180 201 221
6.878145 -1.126918 88.360840 168 188 210
6.837446 -0.930901 87.837997 162 181 202
6.797225 -0.737190 87.321304 149 166 185
6.757475 -0.545744 86.810646 156 169 185
6.817276 -0.361783 87.578888 184 194 206
6.817276 -0.172993 87.578888 186 193 201
6.797225 0.015751 87.321304 144 150 155
6.797225 0.203987 87.321304 108 111 116
6.737774 0.388791 86.557556 105 106 112
6.679355 0.570392 85.807060 105 105 112
6.679355 0.755363 85.807060 88 87 96
5.836001 1.306453 74.972832 90 85 92
5.821301 1.464371 74.783989 82 76 81
5.806675 1.621496 74.596085 76 69 72
5.792122 1.777833 74.409126 70 63 66
5.777642 1.933389 74.223106 65 57 60
5.734632 2.077805 73.670578 61 53 56
5.734632 2.236614 73.670578 58 50 53
5.850776 2.443938 75.162636 56 47 51
5.895553 2.625907 75.737862 54 44 48
5.821301 2.754044 74.783989 52 43 46
5.024036 2.515990 64.541832 51 43 45
4.970014 2.626571 63.847832 50 43 44
5.024036 2.794251 64.541832 49 43 44
5.045975 4.343571 64.823669 45 36 34
4.970014 4.415818 63.847832 44 36 35
4.885955 4.476439 62.767956 43 36 35
4.814702 4.544490 61.852589 43 36 35
4.814702 4.677824 61.852589 42 36 35
4.814702 4.811157 61.852589 42 35 35
4.865382 5.266012 62.503666 39 33 32
4.855161 5.389402 62.372356 39 33 33
4.824753 5.489260 61.981716 39 33 33
4.824753 5.622871 61.981716 39 32 33
4.784796 5.708810 61.468410 39 32 33
4.814702 5.877824 61.852589 39 32 33
4.804692 5.998660 61.723995 38 32 33
4.755260 6.068633 61.088974 38 32 33
4.697269 6.124706 60.343987 38 32 32
4.678252 6.229465 60.099682 38 32 32
7.431050 10.100821 95.463799 38 32 32
7.552473 10.475018 97.023666 38 32 32
5.399665 8.685410 69.367386 37 31 31
5.158608 8.440526 66.270630 36 30 30
5.101670 8.488644 65.539169 34 29 29
5.090433 8.610915 65.394806 34 28 28
5.090433 8.751884 65.394806 34 29 29
5.101670 8.912484 65.539169 35 29 30
5.101670 9.053765 65.539169 35 30 30
5.112957 9.215388 65.684166 35 30 29
5.135682 9.398568 65.976097 33 29 28
5.135682 9.540790 65.976097 32 29 27
5.090433 9.597699 65.394806 31 28 25
5.079246 9.717265 65.251083 30 27 24
5.079246 9.857924 65.251083 29 27 24
5.124294 10.087263 65.829803 29 27 24
5.124294 10.229170 65.829803 28 27 24
5.124294 10.371077 65.829803 29 27 24
5.112957 10.489724 65.684166 28 26 24
5.101670 10.607849 65.539169 28 26 24
5.045975 10.631781 64.823669 27 25 24
5.068107 10.959113 65.107986 26 24 22
5.068107 11.099463 65.107986 25 23 22
5.057017 11.215219 64.965523 24 22 21
5.748897 12.908844 73.853836 23 21 20
5.763234 14.058243 74.038010 24 23 18
3.454494 8.522205 44.378540 24 23 19
3.428867 8.553940 44.049320 23 23 19
3.413673 8.610569 43.854126 23 23 19
3.413673 8.705104 43.854126 22 22 19
3.418723 8.812656 43.918999 22 21 18
4.980725 12.977059 63.985435 21 20 17
4.980725 13.114990 63.985435 20 19 16
4.970014 13.224421 63.847832 20 19 16
4.948730 13.304830 63.574394 20 19 16
4.807807 -16.572155 60.099682 18 17 14
4.827351 -16.509439 60.343987 18 18 15
4.866920 -16.513617 60.838612 18 18 15
4.866920 -16.382469 60.838612 19 18 16
4.876913 -16.284691 60.963535 19 18 17
4.897024 -16.219885 61.214931 19 18 17
4.958364 -16.289446 61.981716 19 18 17
4.958364 -16.155834 61.981716 19 18 17
4.958364 -16.022223 61.981716 19 18 16
4.968738 -15.921850 62.111385 19 18 16
4.958364 -15.754999 61.981716 19 19 16
4.948035 -15.588842 61.852589 20 20 18
4.948035 -15.455509 61.852589 21 21 19
4.937747 -15.290321 61.723995 21 22 20
4.948035 -15.188843 61.852589 21 22 21
4.958364 -15.086941 61.981716 21 22 21
4.958364 -14.953329 61.981716 21 22 21
5.010668 -14.976044 62.635532 21 22 21
5.064086 -14.999242 63.303288 21 22 21
5.085774 -14.926434 63.574394 22 22 20
5.140815 -13.425637 64.262428 29 24 21
5.000119 -12.923462 62.503666 28 24 21
4.979155 -12.735104 62.241596 28 24 21
4.989615 -12.627404 62.372356 27 24 20
5.053312 -12.652435 63.168602 26 23 19
5.096688 -12.623701 63.710819 26 23 19
5.096688 -12.486362 63.710819 26 24 19
5.074907 -12.296249 63.438553 26 24 20
5.021261 -12.030961 62.767956 27 25 21
5.021261 -11.895655 62.767956 27 26 22
5.042583 -11.810286 63.034485 28 26 22
5.074907 -11.749241 63.438553 28 27 23
5.074907 -11.612489 63.438553 28 27 24
5.042583 -11.402642 63.034485 28 27 24
5.064086 -11.314807 63.303288 28 26 24
8.246724 -18.203627 103.087646 29 26 25
4.958364 -10.143308 61.981716 37 30 29
4.958364 -10.009696 61.981716 38 31 30
4.958364 -9.876084 61.981716 39 31 30
4.958364 -9.742473 61.981716 40 32 31
4.968738 -9.628963 62.111385 40 32 32
5.064086 -9.677280 63.303288 41 32 33
5.085774 -9.581680 63.574394 41 32 34
5.074907 -9.424454 63.438553 40 33 35
5.053312 -9.248179 63.168602 40 33 35
5.042583 -9.092664 63.034485 40 33 35
5.042583 -8.956782 63.034485 40 34 35
5.042583 -8.820901 63.034485 41 34 36
5.042583 -8.685020 63.034485 42 35 37
5.096688 -8.640868 63.710819 43 37 39
5.096688 -8.503529 63.710819 44 38 40
5.096688 -8.366190 63.710819 45 39 40
5.010668 -8.089968 62.635532 47 39 40
5.010668 -7.954946 62.635532 49 40 41
5.042583 -7.869734 63.034485 52 42 42
5.074907 -7.783429 63.438553 53 43 43
5.074907 -7.646677 63.438553 55 45 44
5.064086 -7.493912 63.303288 56 47 44
5.064086 -7.357451 63.303288 57 48 45
5.042583 -7.190328 63.034485 65 58 55
5.021261 -7.024619 62.767956 81 77 74
5.021261 -6.889312 62.767956 86 85 82
5.031899 -6.768315 62.900936 74 76 74
5.042583 -6.646804 63.034485 60 66 65
5.053312 -6.524776 63.168602 56 65 66
5.064086 -6.402227 63.303288 62 74 76
5.085774 -6.292601 63.574394 76 90 95
5.129712 -6.208735 64.123634 88 104 111
5.129712 -6.070507 64.123634 90 107 116
5.140815 -5.945118 64.262428 96 114 123
5.908101 -6.673245 73.853836 111 131 138
6.074314 -6.697300 75.931564 129 149 153
6.217426 -6.687551 77.720528 143 165 165
6.217426 -6.520012 77.720528 155 180 174
6.250149 -6.385907 78.129585 164 191 183
6.401770 -6.368314 80.024910 169 197 191
6.471544 -6.263337 80.897118 162 191 188
6.489226 -6.105586 81.118149 151 179 181
6.560930 -5.996255 82.014481 154 181 189
6.652820 -5.900965 83.163147 181 205 214
6.690300 -5.753928 83.631668 218 235 241
6.671507 -5.557990 83.396751 244 251 253
6.615757 -5.333272 82.699837 252 254 254
6.597380 -5.140679 82.470116 244 251 251
6.419072 -3.617958 80.241196 243 250 252
4.979155 -2.672211 62.241596 237 246 249
4.968738 -2.532729 62.111385 245 250 251
4.968738 -2.398838 62.111385 252 254 254
4.958364 -2.260218 61.981716 252 254 254
4.979155 -2.135523 62.241596 252 254 254
4.989615 -2.005556 62.372356 254 254 254
5.010668 -1.878997 62.635532 244 249 248
5.064086 -1.762568 63.303288 225 238 239
5.074907 -1.629582 63.438553 227 242 243
5.085774 -1.496027 63.574394 244 251 252
7.026795 -1.877647 87.837997 242 250 253
7.132302 -1.713647 89.156883 219 236 246
7.132302 -1.521455 89.156883 191 212 230
7.110948 -1.325283 88.889946 167 187 211
7.068621 -1.126918 88.360840 156 176 203
7.047646 -0.933663 88.098640 154 172 199
7.026795 -0.741552 87.837997 156 171 197
7.006067 -0.550574 87.578888 172 183 207
7.047646 -0.363930 88.098640 197 206 225
7.047646 -0.174019 88.098640 193 198 214
7.068621 0.015939 88.360840 147 149 163
7.047646 0.205803 88.098640 114 114 127
7.006067 0.393379 87.578888 110 108 121
6.985461 0.580457 87.321304 99 97 109
6.985461 0.768693 87.321304 80 77 90
6.985461 0.956928 87.321304 75 72 84
5.982511 1.464371 74.783989 84 80 83
5.952523 1.617432 74.409126 77 71 73
5.937642 1.773389 74.223106 70 64 64
5.922834 1.928567 74.038010 64 58 58
5.821217 2.052342 72.767754 60 53 54
5.778727 2.193079 72.236603 58 49 51
5.997618 2.437766 74.972832 56 45 49
6.089889 2.639373 76.126259 54 44 47
5.997618 2.760999 74.972832 53 43 45
5.107649 2.488936 63.847832 51 42 44
5.085774 2.615322 63.574394 49 42 43
5.107649 2.764205 63.847832 48 41 42
5.118657 4.425335 63.985435 44 37 36
5.021261 4.476439 62.767956 44 37 36
4.948035 4.544490 61.852589 44 37 36
4.937747 4.668098 61.723995 42 36 36
4.937747 4.801155 61.723995 41 36 35
5.010668 5.277121 62.635532 38 34 33
5.000119 5.400748 62.503666 39 33 33
4.958364 5.489260 61.981716 39 33 33
4.958364 5.622871 61.981716 39 32 33
4.948035 6.011157 61.852589 38 31 33
4.897024 6.081145 61.214931 38 31 32
4.847054 6.149705 60.590290 38 32 32
4.807807 6.229465 60.099682 37 32 31
4.807807 6.359019 60.099682 38 32 31
5.549198 8.535877 69.367386 38 31 31
5.397856 8.448535 67.475548 37 31 31
5.301466 8.440526 66.270630 36 30 30
5.231402 8.469946 65.394806 35 29 29
5.231402 8.610915 65.394806 35 29 29
5.242950 8.771204 65.539169 35 29 30
5.242950 8.912484 65.539169 35 30 30
5.231402 9.033823 65.394806 35 30 30
5.231402 9.174791 65.394806 35 30 30
5.254550 9.356981 65.684166 34 30 29
5.254550 9.498574 65.684166 32 29 27
5.219905 9.576606 65.251083 31 28 26
5.185713 9.653615 64.823669 30 27 25
5.185713 9.793352 64.823669 30 27 25
5.266201 10.087263 65.829803 29 27 25
5.266201 10.229170 65.829803 29 27 25
5.266201 10.371077 65.829803 29 27 25
5.266201 10.512983 65.829803 29 26 25
5.242950 10.607849 65.539169 28 26 24
5.185713 10.631781 64.823669 28 25 24
5.231402 10.866422 65.394806 27 25 23
5.185713 10.911257 64.823669 26 24 22
5.197061 11.075176 64.965523 25 23 21
5.185713 11.190732 64.823669 24 22 20
5.185713 11.330470 64.823669 24 21 20
5.849893 12.939300 73.126213 24 21 19
5.908101 13.227252 73.853836 24 21 19
6.028062 13.983136 75.353409 24 23 18
5.982511 14.038679 74.783989 24 23 18
5.922834 14.058243 74.038010 24 23 18
5.922834 14.217844 74.038010 23 23 18
5.908101 14.341681 73.853836 23 23 18
3.518602 8.636083 43.984062 23 23 18
3.518602 8.730897 43.984062 22 22 18
3.529059 8.851940 44.114773 22 21 17
5.107649 12.949152 63.847832 21 20 17
5.107649 13.086786 63.847832 20 19 16
5.085774 13.167785 63.574394 20 19 16
5.053312 13.219905 63.168602 20 19 16
5.053312 13.356075 63.168602 20 20 16
4.917453 -16.505331 59.857342 18 18 15
4.927387 -16.409384 59.978268 18 18 16
4.947377 -16.346134 60.221588 19 18 16
4.967529 -16.282372 60.466888 19 18 17
5.018635 -16.318199 61.088974 20 19 18
5.039373 -16.253397 61.341408 20 19 18
5.081368 -16.255510 61.852589 19 18 17
5.081368 -16.122175 61.852589 19 18 17
5.081368 -15.988843 61.852589 19 18 17
5.081368 -15.855510 61.852589 18 18 16
5.081368 -15.722177 61.852589 18 19 16
5.081368 -15.588842 61.852589 19 19 17
5.070804 -15.423377 61.723995 20 20 18
5.060284 -15.258598 61.595940 20 21 19
5.060284 -15.125818 61.595940 20 22 20
5.081368 -15.055510 61.852589 20 22 20
5.081368 -14.922176 61.852589 21 22 20
5.081368 -14.788843 61.852589 21 22 20
5.178464 -14.935551 63.034485 21 22 20
5.200547 -14.862782 63.303288 22 22 20
5.518228 -14.467522 67.170235 28 25 21
5.468737 -14.194270 66.567810 28 25 21
5.444323 -13.988046 66.270630 28 25 21
5.360564 -13.632186 65.251083 28 25 21
5.234027 -13.173057 63.710819 28 25 21
5.134856 -12.788725 62.503666 28 25 21
5.234027 -12.898378 63.710819 28 24 21
5.267941 -12.843724 64.123634 27 24 20
5.267941 -12.705496 64.123634 27 25 20
5.256588 -12.540182 63.985435 27 25 20
5.234027 -12.349023 63.710819 26 25 20
5.211659 -12.159497 63.438553 27 25 21
5.189482 -11.971584 63.168602 27 26 22
5.222819 -11.911445 63.574394 28 26 23
5.222819 -11.774400 63.574394 28 26 24
5.211659 -11.612489 63.438553 28 26 24
5.211659 -11.475737 63.438553 28 26 24
5.211659 -11.338984 63.438553 28 26 24
8.468946 -18.203627 103.087646 29 26 24
5.091976 -10.276919 61.981716 34 29 28
5.091976 -10.143308 61.981716 35 30 29
5.091976 -10.009696 61.981716 36 31 29
5.091976 -9.876084 61.981716 37 31 30
5.091976 -9.742473 61.981716 38 31 30
5.102629 -9.628963 62.111385 38 31 31
5.211659 -9.697958 63.438553 38 31 32
5.234027 -9.602242 63.710819 39 32 33
5.234027 -9.464903 63.710819 39 32 34
5.211659 -9.287702 63.438553 39 33 35
5.211659 -9.150949 63.438553 39 33 35
5.178464 -8.956782 63.034485 39 33 36
5.167493 -8.802213 62.900936 40 34 36
5.167493 -8.666619 62.900936 42 36 38
5.222819 -8.622365 63.574394 44 37 40
5.222819 -8.485320 63.574394 45 39 42
5.145689 -8.224989 62.635532 46 40 42
5.124069 -8.055976 62.372356 48 41 42
5.102629 -7.888378 62.111385 50 41 42
5.145689 -7.819925 62.635532 51 42 42
5.178464 -7.733852 63.034485 53 43 43
5.200547 -7.630372 63.303288 54 45 44
5.200547 -7.493912 63.303288 54 46 45
5.189482 -7.341797 63.168602 55 48 47
5.156568 -7.159925 62.767956 65 59 59
5.145689 -7.009799 62.635532 81 78 78
5.145689 -6.874777 62.635532 83 83 84
5.145689 -6.739757 62.635532 70 73 75
5.167493 -6.632721 62.900936 61 67 70
5.178464 -6.510922 63.034485 61 70 75
5.189482 -6.388606 63.168602 68 80 86
5.211659 -6.279155 63.438553 81 95 102
5.222819 -6.155556 63.574394 89 105 114
5.267941 -6.070507 64.123634 88 106 117
6.022362 -6.781838 73.306770 93 112 122
6.097641 -6.706611 74.223106 106 126 136
6.190499 -6.646306 75.353409 123 143 150
6.335212 -6.635440 77.114914 139 160 164
6.384965 -6.520012 77.720528 149 172 172
6.574276 -6.540821 80.024910 155 180 177
6.627872 -6.420230 80.677292 162 187 186
6.645931 -6.263337 80.897118 156 183 184
6.664089 -6.105586 81.118149 144 171 176
6.719164 -5.979737 81.788544 149 174 184
6.737726 -5.819460 82.014481 176 200 209
6.851283 -5.737765 83.396751 213 231 237
6.851283 -5.557990 83.396751 240 249 251
6.794030 -5.333272 82.699837 249 254 254
6.794030 -5.154999 82.699837 239 248 248
8.410541 -5.278085 102.376694 228 246 249
5.102629 -2.666620 62.111385 248 252 253
5.102629 -2.532729 62.111385 251 253 253
5.081368 -2.388843 61.852589 252 254 254
5.081368 -2.255509 61.852589 251 254 254
5.091976 -2.126606 61.981716 252 254 254
5.102629 -1.997164 62.111385 254 254 254
5.124069 -1.871102 62.372356 243 247 247
5.200547 -1.762568 63.303288 223 237 236
5.211659 -1.629582 63.438553 227 241 241
6.929138 -1.984786 84.344437 245 251 251
7.090281 -1.844897 86.305939 238 246 250
7.259097 -1.698347 88.360840 206 223 234
7.302565 -1.516900 88.889946 175 195 214
7.302565 -1.325283 88.889946 151 171 196
7.280766 -1.130282 88.624603 136 156 184
7.259097 -0.936442 88.360840 140 159 188
7.259097 -0.745966 88.360840 162 177 207
7.259097 -0.555490 88.360840 181 193 221
7.259097 -0.365013 88.360840 199 206 232
7.280766 -0.175058 88.624603 190 193 215
7.280766 0.015986 88.624603 147 147 168
7.259097 0.206415 88.360840 124 121 141
7.237557 0.395714 88.098640 119 113 132
7.194857 0.582170 87.578888 95 89 106
7.173696 0.768693 87.321304 74 67 83
7.237557 0.965446 88.098640 78 71 85
6.253992 1.490655 76.126259 82 76 78
6.128283 1.621496 74.596085 75 69 70
6.082436 1.768966 74.038010 69 63 63
6.052250 1.918996 73.670578 64 57 57
5.920041 2.032416 72.061264 60 52 53
5.863117 2.166720 71.368370 58 48 51
5.863117 2.320566 71.368370 56 45 49
5.245283 2.488936 63.847832 51 42 43
5.245283 2.626571 63.847832 49 41 41
5.256588 4.425335 63.985435 46 38 38
5.156568 4.476439 62.767956 45 38 38
5.081368 4.544490 61.852589 44 38 38
5.018635 4.620073 61.088974 43 37 36
5.018635 4.751760 61.088974 41 36 35
5.189482 5.322033 63.168602 39 34 33
5.134856 5.400748 62.503666 38 33 33
5.102629 5.500744 62.111385 38 33 33
5.102629 5.634635 62.111385 38 33 33
5.113326 6.048963 62.241596 38 32 33
5.049807 6.106326 61.468410 38 31 32
5.018635 6.200320 61.088974 38 31 31
4.937362 6.229465 60.099682 37 31 31
4.937362 6.359019 60.099682 37 31 30
5.698730 8.535877 69.367386 37 30 30
5.518228 8.410307 67.170235 37 30 30
5.444323 8.440526 66.270630 36 30 30
5.372372 8.469946 65.394806 35 29 29
5.372372 8.610915 65.394806 35 29 29
5.384231 8.771204 65.539169 36 29 30
5.384231 8.912484 65.539169 36 30 30
5.372372 9.033823 65.394806 36 30 30
5.372372 9.174791 65.394806 35 30 30
5.384231 9.336326 65.539169 34 30 30
5.384231 9.477606 65.539169 33 29 28
5.337104 9.534695 64.965523 31 28 27
5.313849 9.632583 64.682442 31 28 26
5.313849 9.772017 64.682442 30 27 26
5.408108 10.087263 65.829803 30 27 26
5.408108 10.229170 65.829803 30 27 25
5.408108 10.371077 65.829803 30 27 25
5.408108 10.512983 65.829803 29 26 25
5.396143 10.631317 65.684166 29 26 24
5.360564 10.701880 65.251083 28 25 24
5.360564 10.842540 65.251083 27 25 23
5.325451 10.911257 64.823669 26 24 22
5.325451 11.050995 64.823669 26 23 21
5.302297 11.142077 64.541832 25 22 20
5.279344 11.232371 64.262428 25 22 20
5.279344 11.370899 64.262428 25 22 19
5.905706 12.874952 71.886787 25 22 19
5.992768 13.222004 72.946541 24 22 19
6.128283 13.681798 74.596085 24 23 18
6.097641 13.773389 74.223106 24 23 18
6.082436 13.898643 74.038010 24 23 18
6.052250 13.988475 73.670578 23 23 18
6.067305 14.182476 73.853836 23 23 18
6.082436 14.377445 74.038010 23 23 18
3.645825 8.713536 44.378540 22 23 18
3.634958 8.782944 44.246262 21 22 18
3.640383 8.891575 44.312302 21 20 17
5.256588 12.977059 63.985435 21 20 17
5.245283 13.086786 63.847832 20 19 16
5.200547 13.111632 63.303288 20 19 16
5.189482 13.219905 63.168602 20 19 16
5.189482 13.356075 63.168602 21 20 17
5.245283 14.050227 63.847832 20 19 16
5.178464 14.007124 63.034485 20 18 16
5.046485 -16.505331 59.857342 19 18 15
5.066916 -16.442600 60.099682 18 18 15
5.077194 -16.346134 60.221588 19 18 16
5.097875 -16.282372 60.466888 19 18 16
5.160942 -16.351845 61.214931 19 19 17
5.171605 -16.253397 61.341408 19 19 18
5.193064 -16.188059 61.595940 19 18 17
5.203860 -16.088657 61.723995 18 18 17
5.193064 -15.922499 61.595940 18 18 17
5.214701 -15.855510 61.852589 18 18 16
5.214701 -15.722177 61.852589 17 19 16
5.214701 -15.588842 61.852589 18 19 16
5.203860 -15.423377 61.723995 19 20 17
5.182312 -15.227007 61.468410 19 21 18
5.139747 -14.970523 60.963535 19 21 19
5.139747 -14.839106 60.963535 20 22 19
5.182312 -14.829492 61.468410 20 22 20
5.182312 -14.696986 61.468410 21 22 20
5.182312 -14.564482 61.468410 21 22 20
5.314345 -14.799670 63.034485 22 22 20
5.727818 -14.779507 67.938766 27 24 20
5.650241 -14.434863 67.018608 27 25 20
5.587180 -14.130903 66.270630 27 25 20
5.562348 -13.925877 65.976097 28 25 20
5.501224 -13.632186 65.251083 28 25 20
5.417871 -13.287109 64.262428 28 25 21
5.406170 -13.120183 64.123634 28 25 21
5.441428 -13.066619 64.541832 28 24 20
5.501224 -13.069549 65.251083 27 24 20
5.441428 -12.788358 64.541832 27 25 20
5.406170 -12.567266 64.123634 26 25 21
5.382917 -12.375580 63.847832 27 25 21
5.359864 -12.185534 63.574394 27 25 21
5.359864 -12.048490 63.574394 27 26 22
5.371366 -11.937005 63.710819 27 26 23
5.382917 -11.825042 63.847832 28 25 24
5.371366 -11.662328 63.710819 28 25 24
5.348412 -11.475737 63.438553 28 25 24
8.371427 -17.747974 99.295128 28 25 24
8.631229 -18.078085 102.376694 28 25 24
8.751946 -18.107149 103.808540 28 25 24
5.214701 -10.255509 61.852589 33 29 28
5.214701 -10.122176 61.852589 35 30 29
5.214701 -9.988843 61.852589 36 31 30
5.214701 -9.855510 61.852589 36 32 30
5.214701 -9.722177 61.852589 35 31 30
5.236520 -9.628963 62.111385 35 30 30
5.348412 -9.697958 63.438553 36 30 31
5.359864 -9.581680 63.574394 37 31 32
5.359864 -9.444635 63.574394 38 31 33
5.348412 -9.287702 63.438553 38 32 34
5.303086 -8.802213 62.900936 39 35 37
5.303086 -8.666619 62.900936 41 36 39
5.348412 -8.603941 63.438553 44 38 41
5.348412 -8.467189 63.438553 46 40 43
5.269593 -8.207673 62.503666 47 41 44
5.236520 -8.022269 62.111385 48 42 44
5.225588 -7.871909 61.981716 50 42 44
5.236520 -7.754487 62.111385 51 43 43
5.280710 -7.684904 62.635532 52 44 44
5.325653 -7.614137 63.168602 53 46 46
5.325653 -7.477967 63.168602 53 46 47
5.325653 -7.341797 63.168602 53 47 49
5.280710 -7.144820 62.635532 62 59 62
5.269593 -6.995041 62.503666 77 76 80
5.269593 -6.860304 62.503666 78 80 86
5.269593 -6.725567 62.503666 69 73 80
5.291874 -6.618699 62.767956 64 71 79
5.303086 -6.497128 62.900936 67 76 86
5.314345 -6.375041 63.034485 74 86 96
5.325653 -6.252435 63.168602 84 97 109
5.359864 -6.155556 63.574394 87 102 115
5.406170 -6.070507 64.123634 86 103 117
6.304929 -6.918500 74.783989 94 111 125
6.304929 -6.757291 74.783989 105 123 137
6.352936 -6.646306 75.353409 117 135 147
6.451177 -6.584136 76.518669 133 152 159
6.518377 -6.486053 77.315735 144 165 168
6.657065 -6.453842 78.960747 154 176 178
6.783351 -6.402831 80.458649 168 190 192
6.801785 -6.246316 80.677292 161 184 189
6.838953 -6.105586 81.118149 143 167 176
6.914521 -5.996255 82.014481 151 174 186
6.914521 -5.819460 82.014481 181 203 214
7.050864 -5.753928 83.631668 212 231 238
7.050864 -5.573647 83.631668 232 246 248
6.972302 -5.333272 82.699837 243 251 251
6.972302 -5.154999 82.699837 238 246 247
8.782655 -6.268928 104.172783 217 233 233
8.661096 -5.517801 102.730942 224 241 244
8.631229 -5.278085 102.376694 230 245 248
8.661096 -5.074894 102.730942 243 250 251
6.273325 -3.354999 74.409126 254 254 254
5.258523 -2.677825 62.372356 254 254 254
5.236520 -2.532729 62.111385 253 254 254
