ply
format ascii 1.0
element vertex 1189
property float x
property float y
property float z
property uchar red
property uchar green
property uchar blue
end_header
7.647340 -15.558745 72.236603 117 87 98
7.647340 -15.403028 72.236603 124 96 107
7.647340 -15.247311 72.236603 125 99 111
7.647340 -15.091593 72.236603 123 98 110
7.628778 -14.899623 72.061264 119 95 106
7.610307 -14.708582 71.886787 118 94 105
7.610307 -14.553618 71.886787 124 100 110
7.591924 -14.363875 71.713142 132 110 118
7.591924 -14.209287 71.713142 137 116 124
7.573630 -14.020830 71.540344 139 119 126
7.573630 -13.866613 71.540344 138 120 126
7.573630 -13.712397 71.540344 136 120 125
7.573630 -13.558180 71.540344 135 120 125
7.573630 -13.403963 71.540344 134 120 125
7.573630 -13.249746 71.540344 134 121 126
7.573630 -13.095529 71.540344 135 122 128
7.573630 -12.941312 71.540344 136 124 130
7.573630 -12.787095 71.540344 137 125 131
7.555425 -12.602510 71.368370 137 126 132
7.555425 -12.448665 71.368370 135 126 133
7.537306 -12.265335 71.197220 136 127 135
7.519274 -12.082882 71.026894 136 129 137
7.519274 -11.929771 71.026894 139 132 141
7.501328 -11.748555 70.857384 143 135 144
7.501328 -11.595810 70.857384 145 136 146
7.501328 -11.443066 70.857384 145 135 145
7.501328 -11.290321 70.857384 143 132 142
7.519274 -11.164222 71.026894 142 131 138
7.537306 -11.037517 71.197220 140 129 136
7.555425 -10.910203 71.368370 139 127 134
7.610307 -10.834491 71.886787 139 127 134
7.665992 -10.757669 72.412788 141 129 134
7.684735 -10.627493 72.589836 143 129 135
7.684735 -10.471013 72.589836 146 130 135
7.665992 -10.289377 72.412788 149 130 135
7.610307 -10.059672 71.886787 149 127 134
7.591924 -9.880784 71.713142 147 122 131
7.573630 -9.702758 71.540344 141 114 126
7.573630 -9.548541 71.540344 129 101 116
7.555425 -9.371741 71.368370 113 87 103
7.555425 -9.217896 71.368370 101 77 95
7.537306 -9.042313 71.197220 95 73 91
7.501328 -8.846407 70.857384 96 75 93
7.465693 -8.652362 70.520767 101 81 98
7.430394 -8.460153 70.187332 107 89 104
7.395427 -8.269752 69.857040 115 98 111
7.360788 -8.081135 69.529839 120 104 115
7.326472 -7.894276 69.205696 124 108 119
7.309434 -7.727080 69.044746 128 111 123
7.292475 -7.560660 68.884552 133 115 129
7.275594 -7.395010 68.725098 137 119 133
7.275594 -7.246862 68.725098 140 121 136
7.275594 -7.098714 68.725098 143 123 137
7.275594 -6.950566 68.725098 145 125 137
7.275594 -6.802418 68.725098 145 126 136
7.275594 -6.654270 68.725098 141 122 132
7.292475 -6.521217 68.884552 133 115 124
7.292475 -6.372725 68.884552 132 113 122
7.275594 -6.209826 68.725098 139 118 129
7.275594 -6.061677 68.725098 145 123 135
7.275594 -5.913529 68.725098 146 122 135
7.258791 -5.752066 68.566376 145 119 134
7.242066 -5.591347 68.408394 143 115 131
7.225418 -5.431367 68.251129 141 111 127
7.225418 -5.284240 68.251129 140 109 125
7.208846 -5.125331 68.094589 142 111 126
7.110988 -4.910961 67.170235 143 114 128
7.063049 -4.734033 66.717400 145 118 131
7.031446 -4.569674 66.418884 147 123 134
7.015751 -4.416617 66.270630 148 127 137
7.015751 -4.273760 66.270630 152 133 142
6.938315 -4.085308 65.539169 156 139 148
6.938315 -3.944028 65.539169 160 145 154
6.953665 -3.811161 65.684166 164 148 159
7.015751 -3.702332 66.270630 166 149 162
7.047212 -3.575436 66.567810 170 150 164
7.063049 -3.439651 66.717400 173 150 166
7.078957 -3.303253 66.867661 182 155 174
7.078957 -3.159109 66.867661 187 159 180
7.078957 -3.014965 66.867661 180 152 175
7.078957 -2.870821 66.867661 168 139 163
7.094936 -2.732832 67.018608 146 118 142
7.094936 -2.588362 67.018608 121 95 119
7.094936 -2.443893 67.018608 124 103 125
7.078957 -2.294245 66.867661 148 131 151
7.078957 -2.150100 66.867661 160 146 164
7.063049 -2.001448 66.717400 159 147 164
7.063049 -1.857628 66.717400 156 145 161
7.063049 -1.713808 66.717400 153 142 157
7.078957 -1.573524 66.867661 151 141 155
7.078957 -1.429380 66.867661 150 139 153
7.078957 -1.285235 66.867661 149 138 150
7.078957 -1.141091 66.867661 148 137 148
7.015751 -0.988046 66.270630 148 136 147
7.015751 -0.845189 66.270630 147 137 146
7.000126 -0.700767 66.123032 147 137 147
6.984571 -0.556988 65.976097 148 138 148
6.923032 -0.411111 65.394806 149 138 149
6.892668 -0.268957 65.107986 149 138 149
6.877585 -0.128325 64.965523 148 136 149
6.877585 0.011719 64.965523 151 137 150
6.862569 0.151431 64.823669 154 137 151
6.847618 0.290535 64.682442 157 137 151
6.788459 0.426254 64.123634 159 136 150
6.788459 0.564483 64.123634 159 133 148
6.788459 0.702712 64.123634 156 129 144
6.773829 0.839128 63.985435 153 125 139
6.759262 0.974958 63.847832 145 117 130
6.730314 1.107828 63.574394 128 101 113
6.715933 1.242213 63.438553 121 95 104
6.701613 1.376024 63.303288 133 108 115
6.701613 1.512485 63.303288 148 123 130
6.687355 1.645437 63.168602 159 132 138
6.687355 1.781607 63.168602 164 136 141
6.673156 1.913706 63.034485 167 138 142
6.644940 2.040921 62.767956 172 141 145
6.630921 2.171636 62.635532 174 144 147
6.644940 2.311534 62.767956 160 132 134
6.673156 2.457230 63.034485 123 97 99
6.687355 2.598629 63.168602 84 60 63
6.701613 2.740630 63.303288 68 47 50
6.715933 2.883238 63.438553 68 49 52
6.715933 3.019990 63.438553 65 48 51
6.715933 3.156743 63.438553 59 44 45
6.759262 3.314743 63.847832 54 41 41
6.773829 3.459818 63.985435 49 37 37
6.832732 3.629034 64.541832 45 33 33
6.832732 3.768164 64.541832 42 30 30
6.832732 3.907295 64.541832 40 29 30
6.817910 4.037647 64.401825 40 30 32
6.773829 4.149473 63.985435 41 31 33
6.687355 4.232671 63.168602 42 31 34
6.630921 4.331974 62.635532 43 31 34
6.575432 4.429614 62.111385 44 32 34
6.534421 4.535043 61.723995 45 34 34
6.467195 4.620073 61.088974 46 35 35
6.375369 4.684291 60.221588 47 35 36
6.336808 4.784991 59.857342 47 36 37
6.324058 4.904136 59.736904 47 36 37
6.298711 5.012736 59.497478 46 35 36
6.273566 5.120470 59.259964 44 34 35
6.273566 5.248215 59.259964 42 33 34
6.261069 5.365250 59.141918 40 32 32
6.223875 5.460110 58.790577 38 30 30
6.174964 5.542938 58.328571 35 28 27
6.150796 5.646488 58.100277 32 26 25
6.126816 5.749231 57.873768 30 24 24
6.114896 5.862559 57.761173 27 22 23
6.103023 5.975448 57.649014 25 21 21
6.103023 6.099720 57.649014 24 20 21
6.079413 6.199914 57.425999 23 20 20
6.079413 6.323705 57.425999 22 21 21
6.032738 6.397995 56.985111 22 22 21
6.021181 6.508344 56.875942 22 22 20
6.021181 6.630949 56.875942 21 21 20
7.727847 -16.179867 71.540344 131 91 110
7.727847 -16.025650 71.540344 133 93 110
7.746514 -15.909769 71.713142 128 90 105
7.765270 -15.793328 71.886787 118 83 95
7.765270 -15.638365 71.886787 115 82 92
7.784118 -15.520982 72.061264 120 89 100
7.784118 -15.365642 72.061264 125 96 107
7.784118 -15.210302 72.061264 123 96 107
7.765270 -15.018510 71.886787 119 94 106
7.765270 -14.863546 71.886787 118 94 105
7.746514 -14.673055 71.713142 119 96 107
7.727847 -14.483480 71.540344 125 102 112
7.727847 -14.329264 71.540344 132 110 119
7.727847 -14.175047 71.540344 137 116 124
7.727847 -14.020830 71.540344 138 118 126
7.709271 -13.833281 71.368370 138 120 126
7.709271 -13.679434 71.368370 137 121 126
7.709271 -13.525588 71.368370 136 121 126
7.709271 -13.371741 71.368370 135 121 126
7.709271 -13.217896 71.368370 134 122 126
7.709271 -13.064050 71.368370 135 123 127
7.709271 -12.910203 71.368370 135 124 128
7.709271 -12.756357 71.368370 135 125 129
7.709271 -12.602510 71.368370 135 126 131
7.690784 -12.418812 71.197220 136 128 134
7.672384 -12.235991 71.026894 136 129 137
7.672384 -12.082882 71.026894 138 132 139
7.654073 -11.901299 70.857384 141 134 142
7.635849 -11.720582 70.688675 143 135 144
7.617712 -11.540724 70.520767 145 136 145
7.617712 -11.388704 70.520767 145 134 143
7.654073 -11.290321 70.857384 142 131 139
7.654073 -11.137576 70.857384 141 130 137
7.672384 -11.011111 71.026894 140 129 135
7.690784 -10.884040 71.197220 139 127 134
7.746514 -10.808320 71.713142 140 127 134
7.803058 -10.731495 72.236603 141 129 134
7.822089 -10.601572 72.412788 144 130 135
7.822089 -10.445475 72.412788 147 130 136
7.803058 -10.264342 72.236603 148 129 137
7.746514 -10.035374 71.713142 148 125 135
7.727847 -9.856975 71.540344 145 120 133
7.727847 -9.702758 71.540344 137 110 126
7.709271 -9.525588 71.368370 122 94 113
7.709271 -9.371741 71.368370 105 80 100
7.690784 -9.195790 71.197220 95 71 91
7.654073 -8.999151 70.857384 92 71 90
7.617712 -8.804381 70.520767 96 76 94
7.581694 -8.611453 70.187332 102 83 100
7.528302 -8.400574 69.693054 110 93 106
7.493123 -8.211786 69.367386 118 101 114
7.458271 -8.024755 69.044746 124 107 118
7.423742 -7.839455 68.725098 127 111 121
7.389532 -7.655863 68.408394 130 114 125
7.389532 -7.508398 68.408394 134 118 130
7.406597 -7.377932 68.566376 138 122 135
7.423742 -7.246862 68.725098 140 123 137
7.423742 -7.098714 68.725098 142 124 137
7.423742 -6.950566 68.725098 143 125 137
7.423742 -6.802418 68.725098 145 127 137
7.423742 -6.654270 68.725098 144 126 136
7.423742 -6.506122 68.725098 140 121 130
7.423742 -6.357974 68.725098 135 115 125
7.423742 -6.209826 68.725098 140 116 128
7.423742 -6.061677 68.725098 147 122 134
7.423742 -5.913529 68.725098 149 122 136
7.389532 -5.738812 68.408394 147 118 133
7.372544 -5.578493 68.251129 143 113 128
7.372544 -5.431367 68.251129 140 108 124
7.355635 -5.272120 68.094589 139 107 122
7.338802 -5.113603 67.938766 141 109 123
7.255784 -4.910961 67.170235 144 113 127
7.190710 -4.723418 66.567810 146 119 132
7.174623 -4.569674 66.418884 148 125 136
7.158608 -4.416617 66.270630 150 129 140
7.158608 -4.273760 66.270630 154 134 146
7.095258 -4.094347 65.684166 159 141 152
7.095258 -3.952753 65.684166 164 147 159
7.110991 -3.819611 65.829803 168 150 164
7.158608 -3.702332 66.270630 170 151 166
7.190710 -3.575436 66.567810 171 151 167
7.190710 -3.431938 66.567810 174 151 169
7.206869 -3.295830 66.717400 180 155 174
7.206869 -3.152010 66.717400 182 156 176
7.223101 -3.014965 66.867661 173 146 169
7.223101 -2.870821 66.867661 160 135 159
7.223101 -2.726677 66.867661 146 122 145
7.223101 -2.582533 66.867661 134 112 136
7.223101 -2.438389 66.867661 138 119 142
7.223101 -2.294245 66.867661 151 134 156
7.206869 -2.145269 66.717400 159 145 164
7.190710 -1.996961 66.567810 160 147 165
7.190710 -1.853463 66.567810 156 145 161
7.190710 -1.709965 66.567810 151 140 155
7.206869 -1.569988 66.717400 149 139 153
7.223101 -1.429380 66.867661 148 138 150
7.223101 -1.285235 66.867661 148 137 147
7.223101 -1.141091 66.867661 148 137 146
7.158608 -0.988046 66.270630 148 137 146
7.142665 -0.843306 66.123032 147 136 146
7.110991 -0.697660 65.829803 147 137 146
7.110991 -0.555753 65.829803 148 137 147
7.002307 -0.407521 64.823669 148 137 148
6.987051 -0.267199 64.682442 146 135 147
6.971862 -0.127488 64.541832 145 134 146
6.971862 0.011642 64.541832 149 136 149
6.987051 0.151101 64.682442 153 137 151
6.971862 0.289903 64.541832 155 136 151
6.926688 0.426254 64.123634 156 135 150
6.911760 0.563266 63.985435 156 133 149
6.911760 0.701197 63.985435 155 129 145
6.911760 0.839128 63.985435 153 127 142
6.896896 0.974958 63.847832 146 120 134
6.867359 1.107828 63.574394 130 104 116
6.838074 1.239564 63.303288 120 96 107
6.823525 1.373097 63.168602 131 107 117
6.823525 1.509267 63.168602 147 124 131
6.809038 1.641944 63.034485 157 133 139
6.809038 1.777825 63.034485 162 135 141
6.765942 1.901594 62.635532 165 136 141
6.751698 2.032327 62.503666 169 140 144
6.751698 2.167064 62.503666 171 143 146
6.751698 2.301801 62.503666 161 134 137
6.765942 2.441678 62.635532 130 105 108
6.765942 2.576699 62.635532 91 68 71
6.780247 2.717453 62.767956 70 49 53
6.780247 2.852760 62.767956 66 47 50
6.780247 2.988066 62.767956 63 46 49
6.780247 3.123373 62.767956 59 44 45
6.780247 3.258680 62.767956 54 41 41
6.882096 3.444969 63.710819 50 37 37
6.911760 3.597749 63.985435 46 34 34
6.911760 3.735680 63.985435 42 31 31
6.896896 3.865281 63.847832 39 29 29
6.867359 3.985772 63.574394 39 29 30
6.823525 4.096501 63.168602 40 29 32
6.765942 4.196952 62.635532 41 30 33
6.709323 4.295723 62.111385 43 31 33
6.681368 4.411157 61.852589 44 33 34
6.639869 4.516264 61.468410 46 34 36
6.585332 4.610586 60.963535 47 35 37
6.505186 4.684291 60.221588 48 36 37
6.452830 4.775363 59.736904 48 36 38
6.426967 4.884480 59.497478 48 36 38
6.401310 4.992725 59.259964 48 36 38
6.388559 5.110270 59.141918 46 35 37
6.401310 5.248215 59.259964 43 34 34
6.388559 5.365250 59.141918 40 32 32
6.350607 5.460110 58.790577 37 30 30
6.300701 5.542938 58.328571 35 27 27
6.276041 5.646488 58.100277 32 25 25
6.251573 5.749231 57.873768 29 24 24
6.227294 5.851176 57.649014 27 22 23
6.227294 5.975448 57.649014 25 21 21
6.227294 6.099720 57.649014 24 21 21
6.203204 6.199914 57.425999 23 21 21
6.143786 6.263133 56.875942 22 21 21
6.132040 6.373528 56.767193 22 21 21
7.882064 -16.025650 71.540344 132 94 109
7.901103 -15.909769 71.713142 128 90 104
7.901103 -15.755180 71.713142 120 85 97
7.920234 -15.638365 71.886787 119 85 96
7.920234 -15.483400 71.886787 123 91 103
7.939458 -15.365642 72.061264 125 95 106
7.920234 -15.173473 71.886787 121 93 105
7.920234 -15.018510 71.886787 117 91 103
7.901103 -14.827643 71.713142 118 93 105
7.882064 -14.637697 71.540344 120 97 109
7.882064 -14.483480 71.540344 125 103 114
7.863117 -14.294819 71.368370 132 110 120
7.863117 -14.140972 71.368370 136 115 125
7.863117 -13.987126 71.368370 138 118 127
7.863117 -13.833281 71.368370 139 120 128
7.863117 -13.679434 71.368370 139 122 129
7.844261 -13.493153 71.197220 138 122 129
7.863117 -13.371741 71.368370 137 122 128
7.863117 -13.217896 71.368370 135 122 127
7.863117 -13.064050 71.368370 134 122 126
7.863117 -12.910203 71.368370 133 122 126
7.863117 -12.756357 71.368370 133 124 127
7.844261 -12.572289 71.197220 135 127 130
7.844261 -12.418812 71.197220 137 130 135
7.825494 -12.235991 71.026894 138 132 138
7.806818 -12.054044 70.857384 141 134 141
7.788230 -11.872963 70.688675 143 137 144
7.751319 -11.665034 70.353653 144 137 144
7.751319 -11.513375 70.353653 145 137 144
7.769731 -11.388704 70.520767 145 134 142
7.769731 -11.236686 70.520767 143 131 138
7.806818 -11.137576 70.857384 141 130 136
7.806818 -10.984832 70.857384 140 129 135
7.844261 -10.884040 71.197220 141 129 135
7.901103 -10.808320 71.713142 142 129 135
7.939458 -10.705448 72.061264 143 130 136
7.958775 -10.575777 72.236603 146 131 138
7.958775 -10.420060 72.236603 148 131 139
7.939458 -10.239429 72.061264 147 127 137
7.901103 -10.035374 71.713142 144 121 134
7.863117 -9.833281 71.368370 139 114 130
7.863117 -9.679434 71.368370 131 105 123
7.863117 -9.525588 71.368370 118 92 111
7.844261 -9.349267 71.197220 103 78 98
7.806818 -9.151896 70.857384 94 71 91
7.769731 -8.956400 70.520767 92 72 90
7.732995 -8.762753 70.187332 96 77 93
7.660554 -8.530784 69.529839 104 86 100
7.624841 -8.341828 69.205696 115 97 110
7.589458 -8.154628 68.884552 124 107 118
7.571890 -7.987603 68.725098 128 111 122
7.536997 -7.803329 68.408394 129 113 123
7.485255 -7.603305 67.938766 132 116 126
7.485255 -7.456852 67.938766 135 119 131
7.519670 -7.344010 68.251129 139 122 135
7.536997 -7.213467 68.408394 140 124 137
7.554403 -7.082320 68.566376 142 125 138
7.554403 -6.934514 68.566376 144 127 139
7.554403 -6.786708 68.566376 147 129 140
7.571890 -6.654270 68.725098 149 130 141
7.571890 -6.506122 68.725098 145 125 135
7.571890 -6.357974 68.725098 137 115 126
7.571890 -6.209826 68.725098 139 114 125
7.571890 -6.061677 68.725098 147 119 132
7.554403 -5.899872 68.566376 151 121 135
7.536997 -5.738812 68.408394 148 116 132
7.519670 -5.578493 68.251129 143 110 126
7.502423 -5.418910 68.094589 139 106 122
7.502423 -5.272120 68.094589 138 105 120
7.468166 -5.101928 67.783661 139 107 121
7.383875 -4.899875 67.018608 143 113 127
7.317800 -4.712852 66.418884 147 120 133
7.301466 -4.559474 66.270630 150 126 138
7.301466 -4.416617 66.270630 153 131 143
7.301466 -4.273760 66.270630 156 137 149
7.269015 -4.112544 65.976097 161 143 156
7.252897 -3.961518 65.829803 167 149 163
7.269015 -3.828099 65.976097 172 153 168
7.301466 -3.702332 66.270630 173 153 169
7.334208 -3.575436 66.567810 173 151 169
7.334208 -3.431938 66.567810 174 152 170
7.334208 -3.288441 66.567810 177 153 172
7.350689 -3.152010 66.717400 175 151 171
7.350689 -3.008190 66.717400 165 142 163
7.350689 -2.864370 66.717400 156 134 156
7.350689 -2.720550 66.717400 151 130 152
7.350689 -2.576729 66.717400 147 128 150
7.350689 -2.432909 66.717400 149 131 153
7.350689 -2.289089 66.717400 154 138 159
7.334208 -2.140459 66.567810 158 143 163
7.317800 -1.992493 66.418884 159 146 165
7.317800 -1.849317 66.418884 157 145 162
7.317800 -1.706140 66.418884 152 141 156
7.317800 -1.562963 66.418884 150 139 152
7.334208 -1.422970 66.567810 149 138 150
7.350689 -1.282347 66.717400 148 138 147
7.350689 -1.138527 66.717400 149 138 147
7.285204 -0.985845 66.123032 149 138 147
7.252897 -0.839567 65.829803 148 137 146
7.236851 -0.696116 65.684166 147 136 147
7.220876 -0.553299 65.539169 147 136 147
7.126485 -0.406633 64.682442 147 135 148
7.095568 -0.266040 64.401825 146 134 148
7.095568 -0.127212 64.401825 146 134 148
7.095568 0.011617 64.401825 149 136 150
7.110993 0.150773 64.541832 151 136 151
7.110993 0.289903 64.541832 152 135 151
7.049691 0.425335 63.985435 153 134 150
7.049691 0.563266 63.985435 153 132 149
7.049691 0.701197 63.985435 153 129 145
7.034531 0.837324 63.847832 151 127 142
7.019435 0.972866 63.710819 148 124 137
6.989437 1.105460 63.438553 137 114 126
6.959695 1.236927 63.168602 127 105 115
6.944919 1.370181 63.034485 132 111 119
6.930205 1.502872 62.900936 146 124 131
6.915553 1.635001 62.767956 156 133 139
6.900963 1.766573 62.635532 160 135 141
6.886435 1.897591 62.503666 162 136 140
6.871968 2.028058 62.372356 166 140 143
6.871968 2.162512 62.372356 169 143 146
6.871968 2.296965 62.372356 163 137 140
6.871968 2.431419 62.372356 138 113 117
6.871968 2.565873 62.372356 99 76 80
6.886435 2.706012 62.503666 73 52 56
6.900963 2.846741 62.635532 66 46 50
6.900963 2.981763 62.635532 63 45 48
6.900963 3.116784 62.635532 59 43 45
6.900963 3.251805 62.635532 54 41 41
6.915553 3.393986 62.767956 50 38 37
6.974535 3.559393 63.303288 47 35 34
6.974535 3.695854 63.303288 43 32 32
6.915553 3.799906 62.767956 40 30 31
6.886435 3.918643 62.503666 39 29 30
6.857561 4.036385 62.241596 40 29 32
6.828928 4.153143 61.981716 41 30 33
6.814702 4.277824 61.852589 43 31 34
6.772374 4.383759 61.468410 45 33 35
6.744447 4.497640 61.214931 47 34 37
6.675626 4.582358 60.590290 48 35 38
6.621572 4.674809 60.099682 49 36 39
6.568387 4.765774 59.616951 49 36 39
6.529055 4.864981 59.259964 48 36 39
6.516049 4.982780 59.141918 48 37 39
6.516049 5.110270 59.141918 46 35 37
6.516049 5.237760 59.141918 43 33 34
6.503095 5.354583 59.024338 40 31 32
6.503095 5.481820 59.024338 37 29 30
6.439088 5.553849 58.443390 34 27 27
6.401285 5.646488 58.100277 32 25 26
6.376329 5.749231 57.873768 30 24 24
6.351566 5.851176 57.649014 28 23 23
6.351566 5.975448 57.649014 26 22 22
6.351566 6.099720 57.649014 24 22 21
6.314781 6.187945 57.315140 23 22 21
6.254410 6.251158 56.767193 23 21 21
8.036281 -16.025650 71.540344 130 93 107
8.036281 -15.871432 71.540344 127 90 104
8.055693 -15.755180 71.713142 123 88 100
8.055693 -15.600591 71.713142 123 89 100
8.075197 -15.483400 71.886787 124 92 104
8.075197 -15.328437 71.886787 124 94 105
8.075197 -15.173473 71.886787 120 93 104
8.055693 -14.982233 71.713142 118 92 103
8.036281 -14.791915 71.540344 117 93 104
8.036281 -14.637697 71.540344 119 96 108
8.016963 -14.448665 71.368370 125 103 114
8.016963 -14.294819 71.368370 132 110 122
8.016963 -14.140972 71.368370 136 115 126
8.016963 -13.987126 71.368370 137 117 128
7.997738 -13.800107 71.197220 138 119 129
7.997738 -13.646629 71.197220 139 121 130
7.997738 -13.493153 71.197220 139 122 130
7.997738 -13.339675 71.197220 138 122 129
8.016963 -13.217896 71.368370 136 122 128
7.997738 -13.032721 71.197220 133 121 126
7.997738 -12.879244 71.197220 131 121 124
7.997738 -12.725766 71.197220 131 123 126
7.997738 -12.572289 71.197220 135 128 130
7.978604 -12.389102 71.026894 138 132 135
7.978604 -12.235991 71.026894 140 135 139
7.959562 -12.054044 70.857384 144 138 144
7.921750 -11.844761 70.520767 147 141 146
7.902978 -11.665034 70.353653 145 138 145
7.902978 -11.513375 70.353653 145 136 143
7.921750 -11.388704 70.520767 144 133 141
7.940611 -11.263439 70.688675 143 130 138
7.959562 -11.137576 70.857384 141 129 135
7.978604 -11.011111 71.026894 141 129 135
7.997738 -10.884040 71.197220 143 129 135
8.036281 -10.782276 71.540344 144 130 136
8.055693 -10.653730 71.713142 146 131 138
8.094798 -10.550108 72.061264 148 132 140
8.094798 -10.394769 72.061264 148 131 140
8.055693 -10.189962 71.713142 144 124 135
8.036281 -10.011191 71.540344 139 116 130
8.016963 -9.833281 71.368370 134 109 125
7.997738 -9.656222 71.197220 126 100 118
7.978604 -9.480011 71.026894 115 89 108
7.959562 -9.304641 70.857384 103 80 99
7.921750 -9.108419 70.520767 95 74 93
7.884295 -8.914053 70.187332 93 73 90
7.810437 -8.680666 69.529839 97 78 93
7.774025 -8.491013 69.205696 109 91 104
7.737950 -8.303120 68.884552 123 105 116
7.720038 -8.135751 68.725098 130 112 123
7.702209 -7.969156 68.566376 132 114 124
7.631709 -7.749759 67.938766 132 115 125
7.614285 -7.585947 67.783661 133 117 127
7.614285 -7.439828 67.783661 136 119 131
7.631709 -7.310400 67.938766 139 122 134
7.666797 -7.196884 68.251129 141 125 137
7.666797 -7.049757 68.251129 143 127 139
7.684462 -6.918536 68.408394 145 128 140
7.684462 -6.771070 68.408394 148 130 142
7.702209 -6.638902 68.566376 152 131 143
7.720038 -6.506122 68.725098 150 127 138
7.720038 -6.357974 68.725098 140 115 126
7.702209 -6.195484 68.566376 137 109 121
7.702209 -6.047678 68.566376 145 114 127
7.702209 -5.899872 68.566376 152 118 132
7.684462 -5.738812 68.408394 149 116 129
7.666797 -5.578493 68.251129 144 111 125
7.649212 -5.418910 68.094589 141 107 121
7.649212 -5.272120 68.094589 139 105 120
7.614285 -5.101928 67.783661 140 107 122
7.528345 -4.899875 67.018608 144 114 127
7.460977 -4.712852 66.418884 148 121 134
7.444323 -4.559474 66.270630 152 127 140
7.444323 -4.416617 66.270630 155 133 145
7.444323 -4.273760 66.270630 159 139 151
7.411237 -4.112544 65.976097 165 147 159
7.411237 -3.970321 65.976097 171 153 166
7.444323 -3.845189 66.270630 174 155 169
7.460977 -3.710614 66.418884 174 153 169
7.460977 -3.567437 66.418884 172 152 169
7.477705 -3.431938 66.567810 173 152 170
7.477705 -3.288441 66.567810 171 149 168
7.477705 -3.144943 66.567810 163 142 162
7.477705 -3.001445 66.567810 155 135 155
7.477705 -2.857947 66.567810 154 136 155
7.477705 -2.714450 66.567810 154 138 157
7.477705 -2.570952 66.567810 153 138 157
7.477705 -2.427454 66.567810 153 139 158
7.460977 -2.278847 66.418884 155 141 160
7.444323 -2.130903 66.270630 157 143 161
7.444323 -1.988046 66.270630 159 144 163
7.444323 -1.845189 66.270630 158 145 162
7.444323 -1.702332 66.270630 154 141 157
7.444323 -1.559474 66.270630 150 138 152
7.444323 -1.416617 66.270630 149 138 150
7.477705 -1.279472 66.567810 149 138 149
7.477705 -1.135974 66.567810 150 139 148
7.427743 -0.985845 66.123032 150 139 149
7.378444 -0.837709 65.684166 149 137 148
7.345940 -0.693050 65.394806 147 136 147
7.345940 -0.552080 65.394806 146 135 147
7.265919 -0.406633 64.682442 145 134 148
7.218737 -0.265464 64.262428 147 135 149
7.218737 -0.126936 64.262428 147 135 151
7.218737 0.011592 64.262428 147 135 150
7.234396 0.150446 64.401825 148 134 150
7.234396 0.289274 64.401825 150 134 151
7.187622 0.425335 63.985435 151 133 150
7.187622 0.563266 63.985435 151 132 149
7.172165 0.699689 63.847832 151 130 145
7.156774 0.835527 63.710819 149 128 141
7.156774 0.972866 63.710819 148 127 139
7.126189 1.105460 63.438553 142 122 132
7.080800 1.234300 63.034485 134 114 122
7.050860 1.364388 62.767956 136 116 124
7.021172 1.493380 62.503666 147 127 134
7.021172 1.628117 62.503666 155 134 141
7.021172 1.762854 62.503666 157 135 141
7.006422 1.893604 62.372356 157 134 139
6.991733 2.023806 62.241596 160 136 139
6.991733 2.157978 62.241596 165 140 143
6.991733 2.292150 62.241596 165 141 143
7.006422 2.431419 62.372356 144 121 123
7.006422 2.565873 62.372356 103 80 84
7.006422 2.700327 62.372356 73 52 55
7.021172 2.840748 62.503666 64 45 48
7.021172 2.975485 62.503666 61 44 46
7.021172 3.110222 62.503666 57 42 44
7.021172 3.244959 62.503666 53 40 40
7.035985 3.386826 62.635532 50 37 37
7.050860 3.529293 62.767956 46 35 34
7.050860 3.664599 62.767956 42 32 32
7.021172 3.783906 62.503666 40 31 31
6.977106 3.894049 62.111385 39 29 30
6.948035 4.011157 61.852589 40 29 32
6.948035 4.144491 61.852589 41 30 33
6.919205 4.260074 61.595940 43 31 35
6.876405 4.365681 61.214931 46 33 36
6.848166 4.479169 60.963535 48 34 38
6.792376 4.573025 60.466888 48 35 39
6.737488 4.665365 59.978268 49 36 39
6.696901 4.765774 59.616951 49 36 39
6.643539 4.855290 59.141918 48 36 39
6.630332 4.972874 59.024338 46 35 37
6.630332 5.100110 59.024338 44 34 35
6.630332 5.227347 59.024338 41 32 33
6.630332 5.354583 59.024338 39 30 31
6.630332 5.481820 59.024338 36 29 29
6.565072 5.553849 58.443390 33 27 27
6.526530 5.646488 58.100277 31 26 26
6.501085 5.749231 57.873768 30 25 25
6.463288 5.839836 57.537292 28 24 24
6.463288 5.963867 57.537292 26 23 22
6.463288 6.087898 57.537292 25 23 22
6.425928 6.176022 57.204704 24 22 21
8.190498 -15.871432 71.540344 126 91 103
8.190498 -15.717216 71.540344 125 90 102
8.210281 -15.600591 71.713142 125 91 103
8.210281 -15.446001 71.713142 125 93 105
8.230162 -15.328437 71.886787 124 93 105
8.210281 -15.136823 71.713142 121 93 105
8.190498 -14.946132 71.540344 119 93 104
8.190498 -14.791915 71.540344 116 92 104
8.170809 -14.602510 71.368370 117 94 106
8.170809 -14.448665 71.368370 124 102 114
8.170809 -14.294819 71.368370 133 111 124
8.170809 -14.140972 71.368370 137 115 127
8.151215 -13.953584 71.197220 135 115 126
8.151215 -13.800107 71.197220 135 116 126
8.131715 -13.613982 71.026894 138 120 128
8.131715 -13.460872 71.026894 140 123 131
8.131715 -13.307762 71.026894 139 124 131
8.131715 -13.154652 71.026894 136 123 129
8.131715 -13.001542 71.026894 133 121 126
8.131715 -12.848432 71.026894 130 122 125
8.131715 -12.695322 71.026894 131 123 126
8.131715 -12.542212 71.026894 134 127 130
8.131715 -12.389102 71.026894 138 132 135
8.112307 -12.206789 70.857384 141 136 139
8.092992 -12.025344 70.688675 146 140 145
8.054637 -11.816693 70.353653 147 141 146
8.054637 -11.665034 70.353653 145 137 144
8.054637 -11.513375 70.353653 144 135 142
8.073769 -11.388704 70.520767 143 132 140
8.092992 -11.263439 70.688675 142 129 138
8.112307 -11.137576 70.857384 141 128 136
8.131715 -11.011111 71.026894 142 129 136
8.151215 -10.884040 71.197220 144 129 137
8.170809 -10.756357 71.368370 145 130 138
8.190498 -10.628059 71.540344 147 131 140
8.210281 -10.499142 71.713142 148 131 141
8.210281 -10.344552 71.713142 147 127 139
8.190498 -10.165408 71.540344 141 120 133
8.170809 -9.987126 71.368370 135 112 127
8.151215 -9.809699 71.197220 129 104 121
8.131715 -9.633121 71.026894 121 96 114
8.092992 -9.434868 70.688675 112 88 106
8.073769 -9.260438 70.520767 104 81 99
8.035595 -9.065353 70.187332 97 76 93
7.960320 -8.830549 69.529839 95 75 91
7.923209 -8.640197 69.205696 103 84 97
7.886442 -8.451612 68.884552 118 99 111
7.868186 -8.283899 68.725098 130 111 122
7.850015 -8.116962 68.566376 133 114 125
7.831928 -7.950794 68.408394 134 115 125
7.778162 -7.749759 67.938766 134 116 126
7.725129 -7.551465 67.475548 135 117 127
7.725129 -7.406010 67.475548 137 119 129
7.760403 -7.293709 67.783661 139 122 132
7.778162 -7.163946 67.938766 142 125 135
7.796001 -7.033588 68.094589 144 126 137
7.813923 -6.902631 68.251129 147 128 139
7.813923 -6.755505 68.251129 150 129 141
7.831928 -6.623605 68.408394 153 130 141
7.831928 -6.476140 68.408394 152 126 137
7.831928 -6.328674 68.408394 141 112 123
7.850015 -6.195484 68.566376 134 102 113
7.850015 -6.047678 68.566376 142 107 119
7.831928 -5.886278 68.408394 151 115 127
7.813923 -5.725620 68.251129 150 113 127
7.796001 -5.565699 68.094589 146 109 123
7.796001 -5.418910 68.094589 144 108 122
7.760403 -5.248047 67.783661 142 108 122
7.725129 -5.078738 67.475548 143 110 124
7.655533 -4.888839 66.867661 146 115 129
7.587180 -4.702332 66.270630 150 122 135
7.587180 -4.559474 66.270630 154 129 141
7.587180 -4.416617 66.270630 156 133 146
7.587180 -4.273760 66.270630 159 138 150
7.570282 -4.121703 66.123032 167 147 160
7.570282 -3.979164 66.123032 174 155 168
7.587180 -3.845189 66.270630 175 155 170
7.604154 -3.710614 66.418884 172 152 168
7.604154 -3.567437 66.418884 171 151 168
7.604154 -3.424261 66.418884 170 150 168
7.621203 -3.288441 66.567810 163 143 162
7.621203 -3.144943 66.567810 149 131 149
7.621203 -3.001445 66.567810 145 129 146
7.604154 -2.851554 66.418884 153 138 155
7.604154 -2.708377 66.418884 157 143 159
7.604154 -2.565200 66.418884 156 144 159
7.604154 -2.422024 66.418884 155 143 159
7.587180 -2.273760 66.270630 155 143 160
7.587180 -2.130903 66.270630 156 143 161
7.587180 -1.988046 66.270630 157 144 161
7.587180 -1.845189 66.270630 157 144 161
7.587180 -1.702332 66.270630 154 141 157
7.587180 -1.559474 66.270630 151 138 152
7.587180 -1.416617 66.270630 150 137 150
7.604154 -1.276610 66.418884 150 137 149
7.587180 -1.130903 66.270630 151 138 150
7.570282 -0.985845 66.123032 151 139 150
7.520037 -0.837709 65.684166 150 137 149
7.486909 -0.693050 65.394806 147 134 147
7.486909 -0.552080 65.394806 145 132 145
7.405352 -0.406633 64.682442 144 131 147
7.357265 -0.265464 64.262428 145 133 150
7.357265 -0.126936 64.262428 147 134 151
7.357265 0.011592 64.262428 145 133 150
7.373225 0.150446 64.401825 145 132 149
7.373225 0.289274 64.401825 147 133 151
7.325553 0.425335 63.985435 150 135 151
7.309799 0.562055 63.847832 151 134 150
7.294113 0.698188 63.710819 151 133 146
7.294113 0.835527 63.710819 149 131 143
7.278494 0.970783 63.574394 149 131 141
7.247456 1.103103 63.303288 144 127 135
7.201391 1.231685 62.900936 137 121 128
7.155909 1.358643 62.503666 139 123 130
7.140875 1.490243 62.372356 147 130 137
7.125905 1.621290 62.241596 153 135 141
7.125905 1.755462 62.241596 155 135 141
7.125905 1.889634 62.241596 153 134 138
7.125905 2.023806 62.241596 153 133 135
7.125905 2.157978 62.241596 159 137 137
7.125905 2.292150 62.241596 165 142 141
7.125905 2.426322 62.241596 148 125 124
7.125905 2.560494 62.241596 103 81 82
7.140875 2.700327 62.372356 70 50 50
7.140875 2.834780 62.372356 61 43 44
7.155909 2.975485 62.503666 58 43 43
7.155909 3.110222 62.503666 55 41 41
7.155909 3.244959 62.503666 51 39 39
7.171006 3.386826 62.635532 48 36 36
7.171006 3.521847 62.635532 44 34 34
7.155909 3.649169 62.503666 41 32 32
7.110997 3.760158 62.111385 39 30 31
7.081368 3.877824 61.852589 38 29 30
7.066646 4.002818 61.723995 39 29 31
7.051985 4.127294 61.595940 41 29 33
7.022844 4.242470 61.341408 44 31 35
6.993944 4.356699 61.088974 47 33 37
6.951036 4.460850 60.714195 48 34 38
6.922722 4.573025 60.466888 48 35 39
6.852937 4.655959 59.857342 48 35 39
6.811737 4.756223 59.497478 47 35 39
6.757568 4.845637 59.024338 45 34 37
6.717503 4.943390 58.674393 43 33 35
6.717503 5.069872 58.674393 41 32 33
6.744160 5.216975 58.907227 39 30 31
6.757568 5.354583 59.024338 37 29 29
6.757568 5.481820 59.024338 35 27 27
6.691056 5.553849 58.443390 33 26 26
6.651774 5.646488 58.100277 31 25 25
6.612951 5.738046 57.761173 30 25 24
6.587319 5.839836 57.537292 29 24 23
6.587319 5.963867 57.537292 27 24 22
6.587319 6.087898 57.537292 25 24 22
6.549242 6.176022 57.204704 24 23 21
8.324656 -15.833281 71.368370 126 93 105
8.344715 -15.717216 71.540344 126 92 104
8.344715 -15.562999 71.540344 126 93 105
8.344715 -15.408782 71.540344 126 95 107
8.344715 -15.254565 71.540344 125 95 107
8.344715 -15.100348 71.540344 123 95 107
8.324656 -14.910203 71.368370 121 94 106
8.324656 -14.756357 71.368370 117 93 105
8.324656 -14.602510 71.368370 117 95 106
8.324656 -14.448665 71.368370 124 102 114
8.304692 -14.260538 71.197220 133 111 124
8.304692 -14.107061 71.197220 135 114 127
8.284824 -13.920202 71.026894 133 112 124
8.284824 -13.767092 71.026894 132 112 124
8.265052 -13.581491 70.857384 137 118 128
8.265052 -13.428746 70.857384 141 124 133
8.265052 -13.276001 70.857384 141 126 134
8.265052 -13.123257 70.857384 137 124 130
8.265052 -12.970512 70.857384 133 122 127
8.245373 -12.787249 70.688675 132 123 127
8.245373 -12.634868 70.688675 133 125 128
8.284824 -12.542212 71.026894 135 127 131
8.284824 -12.389102 71.026894 138 131 134
8.265052 -12.206789 70.857384 142 135 138
8.245373 -12.025344 70.688675 145 139 142
8.206295 -11.816693 70.353653 145 138 143
8.206295 -11.665034 70.353653 143 135 141
8.206295 -11.513375 70.353653 142 132 139
8.225788 -11.388704 70.520767 141 131 139
8.245373 -11.263439 70.688675 141 129 138
8.284824 -11.164222 71.026894 141 128 137
8.304692 -11.037517 71.197220 142 129 138
8.324656 -10.910203 71.368370 144 129 139
8.324656 -10.756357 71.368370 146 130 140
8.324656 -10.602510 71.368370 146 130 141
8.344715 -10.473843 71.540344 146 129 140
8.344715 -10.319625 71.540344 143 123 136
8.324656 -10.140972 71.368370 136 115 129
8.304692 -9.963177 71.197220 129 106 122
8.265052 -9.762875 70.857384 122 97 115
8.245373 -9.587249 70.688675 115 90 109
8.225788 -9.412457 70.520767 110 86 104
8.186895 -9.216654 70.187332 104 82 99
8.129241 -9.001513 69.693054 100 80 95
8.072393 -8.789381 69.205696 102 83 96
8.053620 -8.620104 69.044746 112 93 105
8.016335 -8.432048 68.725098 126 107 118
8.016335 -8.283899 68.725098 133 114 124
7.997821 -8.116962 68.566376 134 115 124
7.979393 -7.950794 68.408394 134 114 123
7.924615 -7.749759 67.938766 136 116 125
7.888512 -7.568666 67.629250 137 117 127
7.888512 -7.422881 67.629250 136 117 127
7.906522 -7.293709 67.783661 138 120 130
7.924615 -7.163946 67.938766 142 123 134
7.942791 -7.033588 68.094589 144 125 136
7.942791 -6.886799 68.094589 147 126 136
7.961050 -6.755505 68.251129 150 127 137
7.961050 -6.608378 68.251129 153 127 137
7.961050 -6.461252 68.251129 152 122 133
7.979393 -6.328674 68.408394 138 105 115
7.979393 -6.181209 68.408394 126 90 100
7.979393 -6.033743 68.408394 134 97 107
7.961050 -5.872746 68.251129 147 108 120
7.961050 -5.725620 68.251129 148 109 122
7.924615 -5.552962 67.938766 146 108 120
7.906522 -5.394166 67.783661 145 108 121
7.888512 -5.236092 67.629250 145 109 123
7.817284 -5.044344 67.018608 147 112 126
7.782150 -4.877853 66.717400 149 118 131
7.730037 -4.702332 66.270630 152 124 136
7.730037 -4.559474 66.270630 155 130 142
7.730037 -4.416617 66.270630 156 133 145
7.730037 -4.273760 66.270630 157 135 147
7.730037 -4.130903 66.270630 164 143 156
7.730037 -3.988046 66.270630 172 151 164
7.730037 -3.845189 66.270630 172 152 166
7.747330 -3.710614 66.418884 170 151 166
7.747330 -3.567437 66.418884 169 149 166
7.747330 -3.424261 66.418884 166 148 165
7.747330 -3.281084 66.418884 158 141 158
7.747330 -3.137907 66.418884 147 131 147
7.747330 -2.994730 66.418884 146 132 147
7.747330 -2.851554 66.418884 155 142 156
7.730037 -2.702332 66.270630 159 147 161
7.730037 -2.559474 66.270630 158 148 161
7.730037 -2.416617 66.270630 156 146 159
7.730037 -2.273760 66.270630 153 143 157
7.730037 -2.130903 66.270630 154 143 158
7.712821 -1.983618 66.123032 155 143 159
7.712821 -1.841079 66.123032 155 142 158
7.712821 -1.698540 66.123032 154 140 156
7.712821 -1.556001 66.123032 152 138 152
7.730037 -1.416617 66.270630 151 137 150
7.730037 -1.273760 66.270630 151 136 149
7.730037 -1.130903 66.270630 150 136 149
7.712821 -0.985845 66.123032 150 136 149
7.678618 -0.839567 65.829803 149 135 149
7.644717 -0.694580 65.539169 146 132 146
7.627878 -0.552080 65.394806 143 130 145
7.561259 -0.407521 64.823669 143 130 145
7.512053 -0.266040 64.401825 143 130 147
7.512053 -0.127212 64.401825 145 131 149
7.512053 0.011617 64.401825 145 131 149
7.512053 0.150446 64.401825 145 131 149
7.512053 0.289274 64.401825 148 133 151
7.463484 0.425335 63.985435 150 135 151
7.431452 0.560849 63.710819 151 135 150
7.431452 0.698188 63.710819 151 135 147
7.415539 0.833738 63.574394 150 134 144
7.399693 0.968708 63.438553 149 133 141
7.352562 1.098419 63.034485 145 130 137
7.290646 1.223906 62.503666 141 126 133
7.260077 1.352947 62.241596 142 128 135
7.260077 1.487118 62.241596 147 132 140
7.244888 1.617898 62.111385 150 135 142
7.244888 1.751790 62.111385 152 135 140
7.260077 1.889634 62.241596 152 134 138
7.244888 2.019572 62.111385 152 133 133
7.244888 2.153463 62.111385 157 136 134
7.244888 2.287354 62.111385 165 143 139
7.260077 2.426322 62.241596 148 126 121
7.260077 2.560494 62.241596 102 81 77
7.260077 2.694666 62.241596 68 48 46
7.275329 2.834780 62.372356 58 41 40
7.290646 2.975485 62.503666 56 41 40
7.290646 3.110222 62.503666 53 40 40
7.290646 3.244959 62.503666 49 37 38
7.290646 3.379696 62.503666 46 35 36
7.290646 3.514433 62.503666 42 33 33
7.260077 3.633869 62.241596 40 32 31
7.214701 3.744491 61.852589 39 30 30
7.184765 3.861733 61.595940 39 29 30
7.169889 3.986243 61.468410 40 29 31
7.155076 4.110239 61.341408 42 30 33
7.110999 4.216336 60.963535 45 32 35
7.096427 4.338843 60.838612 47 34 37
7.053069 4.442679 60.466888 47 34 38
7.024456 4.554473 60.221588 47 34 37
6.981969 4.655959 59.857342 46 34 37
6.926113 4.746711 59.378483 45 33 37
6.843986 4.816908 58.674393 43 32 35
6.830486 4.933640 58.558662 41 30 33
6.817040 5.049912 58.443390 39 29 31
6.843986 5.196355 58.674393 37 28 29
6.871144 5.343959 58.907227 36 27 27
6.871144 5.470943 58.907227 34 26 26
6.817040 5.553849 58.443390 33 25 25
6.763783 5.635460 57.986801 32 25 24
6.737464 5.738046 57.761173 30 24 23
6.711350 5.839836 57.537292 29 24 23
6.711350 5.963867 57.537292 28 25 22
6.711350 6.087898 57.537292 26 24 22
6.685438 6.187945 57.315140 24 23 21
6.621523 6.251158 56.767193 24 23 21
8.478501 -15.679434 71.368370 126 95 105
8.478501 -15.525588 71.368370 126 96 106
8.478501 -15.371741 71.368370 126 97 108
8.478501 -15.217896 71.368370 127 98 109
8.478501 -15.064050 71.368370 126 98 109
8.478501 -14.910203 71.368370 123 98 108
8.478501 -14.756357 71.368370 120 96 106
8.478501 -14.602510 71.368370 118 95 106
8.458169 -14.414016 71.197220 123 101 112
8.437935 -14.226422 71.026894 130 109 120
8.437935 -14.073312 71.026894 133 112 123
8.437935 -13.920202 71.026894 132 111 122
8.417796 -13.734235 70.857384 132 112 123
8.417796 -13.581491 70.857384 137 118 129
8.417796 -13.428746 70.857384 141 124 134
8.397754 -13.244391 70.688675 140 126 134
8.397754 -13.092010 70.688675 137 125 131
8.397754 -12.939630 70.688675 134 124 129
8.397754 -12.787249 70.688675 133 125 128
8.397754 -12.634868 70.688675 134 126 129
8.437935 -12.542212 71.026894 136 128 131
8.437935 -12.389102 71.026894 139 131 134
8.417796 -12.206789 70.857384 142 134 137
8.397754 -12.025344 70.688675 142 136 138
8.357954 -11.816693 70.353653 143 135 139
8.357954 -11.665034 70.353653 142 133 139
8.377807 -11.540724 70.520767 141 131 138
8.397754 -11.415820 70.688675 140 128 137
8.437935 -11.317331 71.026894 141 128 137
8.458169 -11.190994 71.197220 141 128 137
8.458169 -11.037517 71.197220 142 129 139
8.478501 -10.910203 71.368370 144 129 140
8.478501 -10.756357 71.368370 146 130 142
8.478501 -10.602510 71.368370 146 129 142
8.478501 -10.448665 71.368370 144 125 138
8.478501 -10.294819 71.368370 138 117 131
8.478501 -10.140972 71.368370 131 108 124
8.437935 -9.939341 71.026894 123 99 116
8.397754 -9.739630 70.688675 115 91 109
8.377807 -9.564476 70.520767 110 86 105
8.338196 -9.367954 70.187332 108 85 103
8.279475 -9.151748 69.693054 107 84 102
8.240787 -8.959450 69.367386 107 86 101
8.202457 -8.768941 69.044746 111 92 104
8.183426 -8.600103 68.884552 119 100 111
8.164483 -8.432048 68.725098 128 109 119
8.145627 -8.264768 68.566376 134 114 122
8.145627 -8.116962 68.566376 133 113 121
8.126859 -7.950794 68.408394 135 114 122
8.071068 -7.749759 67.938766 138 118 125
8.052641 -7.585947 67.783661 137 117 125
8.052641 -7.439828 67.783661 133 113 122
8.052641 -7.293709 67.783661 136 116 126
8.071068 -7.163946 67.938766 142 122 132
8.089580 -7.033588 68.094589 145 124 133
8.089580 -6.886799 68.094589 148 124 133
8.089580 -6.740010 68.094589 151 124 133
8.108176 -6.608378 68.251129 154 124 133
8.108176 -6.461252 68.251129 152 118 128
8.108176 -6.314126 68.251129 135 98 108
8.108176 -6.166999 68.251129 118 80 90
8.108176 -6.019873 68.251129 124 84 94
8.089580 -5.859276 68.094589 139 98 108
8.071068 -5.699415 67.938766 145 104 115
8.052641 -5.540284 67.783661 146 106 118
8.034298 -5.381878 67.629250 146 108 120
7.979766 -5.200553 67.170235 147 111 122
7.943821 -5.032983 66.867661 148 115 126
7.908199 -4.866916 66.567810 151 120 131
7.872894 -4.702332 66.270630 154 126 137
7.872894 -4.559474 66.270630 157 131 141
7.872894 -4.416617 66.270630 157 132 144
7.872894 -4.273760 66.270630 157 133 145
7.872894 -4.130903 66.270630 162 140 153
7.872894 -3.988046 66.270630 169 147 161
7.872894 -3.845189 66.270630 170 149 163
7.872894 -3.702332 66.270630 168 149 163
7.890507 -3.567437 66.418884 166 147 162
7.890507 -3.424261 66.418884 163 145 162
7.890507 -3.281084 66.418884 160 143 158
7.890507 -3.137907 66.418884 154 140 154
7.872894 -2.988046 66.270630 154 141 155
7.872894 -2.845189 66.270630 158 146 159
7.872894 -2.702332 66.270630 160 149 162
7.872894 -2.559474 66.270630 160 151 163
7.872894 -2.416617 66.270630 156 147 159
7.855360 -2.268696 66.123032 151 142 154
7.855360 -2.126157 66.123032 152 142 155
7.837903 -1.979210 65.976097 154 142 156
7.837903 -1.836988 65.976097 155 141 155
7.837903 -1.694766 65.976097 155 140 154
7.837903 -1.552543 65.976097 153 138 152
7.837903 -1.410321 65.976097 152 136 149
7.872894 -1.273760 66.270630 151 134 148
7.872894 -1.130903 66.270630 151 133 147
7.855360 -0.985845 66.123032 149 133 147
7.820525 -0.839567 65.829803 148 133 147
7.820525 -0.697660 65.829803 146 131 145
7.803223 -0.554523 65.684166 144 131 145
7.768847 -0.411111 65.394806 143 130 145
7.700997 -0.267783 64.823669 142 129 146
7.684219 -0.127766 64.682442 143 129 147
7.684219 0.011668 64.682442 145 130 148
7.667514 0.150773 64.541832 147 131 149
7.650882 0.289274 64.401825 149 133 150
7.601415 0.425335 63.985435 150 135 150
7.568791 0.560849 63.710819 151 135 148
7.552584 0.696693 63.574394 151 135 146
7.536446 0.831956 63.438553 150 134 144
7.520377 0.966643 63.303288 148 134 142
7.441048 1.091467 62.635532 145 132 139
7.409783 1.221335 62.372356 143 130 137
7.394248 1.352947 62.241596 144 132 139
7.378779 1.484007 62.111385 147 135 142
7.363375 1.614521 61.981716 149 136 142
7.378779 1.751790 62.111385 150 135 140
7.378779 1.885681 62.111385 151 136 137
7.378779 2.019572 62.111385 154 136 133
7.378779 2.153463 62.111385 162 143 134
7.378779 2.287354 62.111385 170 150 138
7.378779 2.421246 62.111385 147 126 115
7.394248 2.560494 62.241596 97 77 67
7.394248 2.694666 62.241596 65 46 39
7.409783 2.834780 62.372356 57 40 36
7.425383 2.975485 62.503666 55 40 38
7.425383 3.110222 62.503666 51 38 38
7.425383 3.244959 62.503666 48 36 37
7.425383 3.379696 62.503666 44 34 35
7.394248 3.499697 62.241596 42 32 33
7.363375 3.618696 61.981716 40 31 31
7.317545 3.728953 61.595940 39 30 30
7.287307 3.845776 61.341408 39 29 31
7.257318 3.961637 61.088974 40 29 31
7.242416 4.084919 60.963535 42 30 33
7.212795 4.199091 60.714195 44 32 34
7.183415 4.312333 60.466888 46 33 35
7.168814 4.433650 60.343987 46 33 35
7.139791 4.545254 60.099682 45 33 35
7.096694 4.646591 59.736904 44 32 35
7.040033 4.737236 59.259964 42 31 34
6.956719 4.807407 58.558662 40 30 33
6.943025 4.923928 58.443390 38 29 31
6.929384 5.039991 58.328571 36 27 29
6.929384 5.165728 58.328571 35 26 28
6.970468 5.322837 58.674393 34 25 26
6.970468 5.449319 58.674393 33 25 25
6.929384 5.542938 58.328571 33 25 24
6.888783 5.635460 57.986801 32 24 23
6.835381 5.715805 57.537292 31 24 23
6.835381 5.839836 57.537292 30 24 22
6.835381 5.963867 57.537292 29 25 22
6.835381 6.087898 57.537292 27 25 22
6.808990 6.187945 57.315140 26 25 23
6.743894 6.251158 56.767193 26 25 23
8.611647 -15.641833 71.197220 126 97 106
8.611647 -15.488357 71.197220 127 98 108
8.611647 -15.334879 71.197220 127 99 110
8.611647 -15.181402 71.197220 128 100 111
8.611647 -15.027925 71.197220 129 101 112
8.611647 -14.874447 71.197220 127 101 110
8.611647 -14.720970 71.197220 122 97 107
8.611647 -14.567492 71.197220 118 96 104
8.591044 -14.379533 71.026894 120 100 109
8.570541 -14.192469 70.857384 128 108 117
8.570541 -14.039724 70.857384 132 112 122
8.570541 -13.886980 70.857384 132 112 122
8.570541 -13.734235 70.857384 133 114 124
8.570541 -13.581491 70.857384 136 119 129
8.550135 -13.396772 70.688675 139 123 133
8.550135 -13.244391 70.688675 139 125 134
8.550135 -13.092010 70.688675 138 125 134
8.529826 -12.908895 70.520767 136 124 132
8.529826 -12.756875 70.520767 134 125 131
8.550135 -12.634868 70.688675 135 126 131
8.570541 -12.512279 70.857384 138 128 133
8.570541 -12.359533 70.857384 142 132 137
8.550135 -12.177725 70.688675 142 134 137
8.550135 -12.025344 70.688675 142 133 138
8.529826 -11.844761 70.520767 141 132 138
8.529826 -11.692742 70.520767 140 131 137
8.550135 -11.568201 70.688675 140 129 137
8.570541 -11.443066 70.857384 140 128 136
8.591044 -11.317331 71.026894 140 128 136
8.611647 -11.190994 71.197220 141 127 137
8.632348 -11.064050 71.368370 142 128 139
8.632348 -10.910203 71.368370 144 128 140
8.632348 -10.756357 71.368370 145 128 141
8.632348 -10.602510 71.368370 145 126 141
8.632348 -10.448665 71.368370 141 121 136
8.632348 -10.294819 71.368370 134 112 128
8.591044 -10.092451 71.026894 126 103 120
8.570541 -9.915620 70.857384 117 94 113
8.529826 -9.716496 70.520767 110 86 107
8.489495 -9.519255 70.187332 109 85 105
8.429710 -9.301983 69.693054 108 85 104
8.390319 -9.108982 69.367386 110 88 105
8.370762 -8.938565 69.205696 114 93 108
8.331918 -8.748595 68.884552 118 98 110
8.312631 -8.580195 68.725098 122 102 111
8.312631 -8.432048 68.725098 126 106 114
8.293433 -8.264768 68.566376 131 110 117
8.293433 -8.116962 68.566376 134 113 120
8.274324 -7.950794 68.408394 137 116 123
8.217521 -7.749759 67.938766 139 119 126
8.217521 -7.603305 67.938766 135 115 123
8.198759 -7.439828 67.783661 129 109 119
8.217521 -7.310400 67.938766 133 112 122
8.217521 -7.163946 67.938766 141 119 129
8.217521 -7.017493 67.938766 146 122 132
8.236368 -6.886799 68.094589 149 122 132
8.236368 -6.740010 68.094589 152 121 132
8.236368 -6.593221 68.094589 156 121 131
8.236368 -6.446433 68.094589 153 115 125
8.236368 -6.299644 68.094589 135 94 104
8.236368 -6.152854 68.094589 116 74 83
8.236368 -6.006065 68.094589 116 74 84
8.217521 -5.845869 67.938766 130 88 98
8.198759 -5.686403 67.783661 140 99 109
8.161492 -5.515101 67.475548 146 105 116
8.124562 -5.345350 67.170235 149 110 120
8.087965 -5.177127 66.867661 149 112 122
8.051697 -5.010414 66.567810 149 115 125
8.015752 -4.845189 66.270630 152 121 130
8.015752 -4.702332 66.270630 157 128 137
8.015752 -4.559474 66.270630 160 132 142
8.015752 -4.416617 66.270630 159 133 143
8.015752 -4.273760 66.270630 159 134 146
8.015752 -4.130903 66.270630 165 140 153
8.015752 -3.988046 66.270630 171 147 160
8.015752 -3.845189 66.270630 170 147 161
8.015752 -3.702332 66.270630 166 144 158
8.015752 -3.559474 66.270630 163 143 158
8.015752 -3.416617 66.270630 161 144 158
8.015752 -3.273760 66.270630 161 144 159
8.015752 -3.130903 66.270630 159 145 159
8.015752 -2.988046 66.270630 159 146 160
8.015752 -2.845189 66.270630 159 147 161
7.997899 -2.696313 66.123032 160 150 163
7.997899 -2.553774 66.123032 160 151 163
7.997899 -2.411235 66.123032 155 146 158
7.980126 -2.263654 65.976097 151 142 154
7.962431 -2.116729 65.829803 151 141 154
7.962431 -1.974822 65.829803 154 141 154
7.962431 -1.832915 65.829803 155 141 154
7.944816 -1.687267 65.684166 155 140 154
7.944816 -1.545674 65.684166 153 138 151
7.962431 -1.407194 65.829803 152 135 148
7.980126 -1.268099 65.976097 151 133 147
7.997899 -1.128384 66.123032 151 132 146
7.980126 -0.983654 65.976097 149 132 145
7.962431 -0.839567 65.829803 148 132 145
7.962431 -0.697660 65.829803 147 131 145
7.962431 -0.555753 65.829803 146 131 144
7.944816 -0.412930 65.684166 144 130 145
7.909816 -0.270142 65.394806 144 129 146
7.840735 -0.128045 64.823669 145 129 146
