ply
format ascii 1.0
element vertex 1238
property float x
property float y
property float z
property uchar red
property uchar green
property uchar blue
end_header
7.860337 -10.586332 63.847832 113 59 62
7.826674 -10.403950 63.574394 114 60 64
7.760205 -10.179712 63.034485 115 60 65
7.711090 -9.980263 62.635532 116 60 66
7.793298 -9.950202 63.303288 116 60 67
7.843469 -9.876920 63.710819 115 59 68
7.843469 -9.739580 63.710819 116 59 69
7.826674 -9.581680 63.574394 116 59 69
7.809950 -9.424454 63.438553 115 59 69
7.760205 -9.228544 63.034485 115 58 68
7.711090 -9.035115 62.635532 115 57 68
7.711090 -8.900094 62.635532 114 56 67
7.694856 -8.746620 62.503666 114 56 65
7.662592 -8.575775 62.241596 114 55 64
7.662592 -8.441603 62.241596 114 55 65
7.630599 -8.272744 61.981716 114 54 65
7.614701 -8.122176 61.852589 115 55 65
7.598870 -7.972234 61.723995 115 55 66
7.614701 -7.855509 61.852589 116 56 67
7.630599 -7.738297 61.981716 117 57 68
7.662592 -7.636571 62.241596 119 58 69
7.662592 -7.502399 62.241596 121 59 71
7.646562 -7.352813 62.111385 123 60 73
7.630599 -7.203851 61.981716 125 61 74
7.646562 -7.085031 62.111385 127 62 74
7.694856 -6.995041 62.503666 127 62 74
7.694856 -6.860304 62.503666 126 61 72
7.678690 -6.711438 62.372356 125 59 70
7.630599 -6.535792 61.981716 124 60 70
7.630599 -6.402181 61.981716 126 62 72
7.630599 -6.268569 61.981716 128 64 73
7.583105 -6.096773 61.595940 129 65 73
7.583105 -5.963993 61.595940 128 65 73
7.598870 -5.843336 61.723995 129 66 73
7.598870 -5.710279 61.723995 130 67 74
7.583105 -5.565652 61.595940 130 68 74
7.567405 -5.421624 61.468410 130 68 75
7.567405 -5.289119 61.468410 128 66 73
7.614701 -5.188843 61.852589 126 65 72
7.630599 -5.066064 61.981716 125 64 72
7.662592 -4.953133 62.241596 124 64 72
7.678690 -4.829085 62.372356 123 64 72
7.711090 -4.714440 62.635532 123 64 71
7.743764 -4.598823 62.900936 122 64 69
7.760205 -4.472706 63.034485 122 64 67
7.793298 -4.355319 63.303288 122 64 65
7.809950 -4.227873 63.438553 121 65 64
7.809950 -4.091121 63.438553 121 64 64
7.809950 -3.954369 63.438553 122 64 66
7.809950 -3.817616 63.438553 123 65 68
7.809950 -3.680864 63.438553 123 64 70
7.776716 -3.529031 63.168602 123 64 71
7.743764 -3.378484 62.900936 122 63 72
7.711090 -3.229208 62.635532 122 62 72
7.711090 -3.094187 62.635532 121 61 71
7.727393 -2.965422 62.767956 120 60 70
7.694856 -2.818199 62.503666 119 59 70
7.711090 -2.689123 62.635532 119 58 69
7.694856 -2.548725 62.503666 118 57 68
7.694856 -2.413989 62.503666 118 57 68
7.678690 -2.274463 62.372356 120 57 68
7.678690 -2.140009 62.372356 121 58 69
7.678690 -2.005556 62.372356 123 59 69
7.678690 -1.871102 62.372356 124 61 70
7.694856 -1.740304 62.503666 125 64 71
7.711090 -1.608955 62.635532 125 65 71
7.711090 -1.473934 62.635532 122 65 69
7.727393 -1.341743 62.767956 121 63 68
7.760205 -1.211560 63.034485 121 63 67
7.776716 -1.077967 63.168602 122 64 68
7.793298 -0.943805 63.303288 123 64 69
7.809950 -0.809070 63.438553 124 63 70
7.826674 -0.673757 63.574394 122 62 69
7.826674 -0.536712 63.574394 119 59 67
7.809950 -0.398813 63.438553 115 55 64
7.809950 -0.262061 63.438553 113 54 63
7.826674 -0.125577 63.574394 115 55 65
7.843469 0.011492 63.710819 116 57 67
7.843469 0.148831 63.710819 117 57 69
7.860337 0.286786 63.847832 118 58 71
7.843469 0.423510 63.710819 120 58 72
7.809950 0.558452 63.438553 121 59 72
7.809950 0.695204 63.438553 122 60 73
7.809950 0.831956 63.438553 123 60 73
7.877277 2.908094 63.985435 112 54 64
7.877277 3.046025 63.985435 112 54 64
7.877277 3.183956 63.985435 112 54 64
7.894291 3.329062 64.123634 111 53 63
7.980473 4.762785 64.823669 110 48 62
7.963086 4.891842 64.682442 108 47 60
7.963086 5.031276 64.682442 106 46 59
7.980473 5.181999 64.823669 104 46 57
7.997936 5.333382 64.965523 102 46 57
7.997936 5.473425 64.965523 101 47 57
7.980473 5.601213 64.823669 100 48 58
7.997936 5.753513 64.965523 99 48 59
8.033092 5.919463 65.251083 98 48 58
8.050786 6.073470 65.394806 97 48 58
8.158608 6.297668 66.270630 96 48 57
8.176861 6.454934 66.418884 95 47 56
8.158608 6.583383 66.270630 94 46 56
8.122348 6.696345 65.976097 94 46 55
8.068558 6.793279 65.539169 95 46 54
8.033092 6.904078 65.251083 95 46 54
7.980473 6.998593 64.823669 96 46 54
7.963086 7.122779 64.682442 96 46 53
7.945776 7.246425 64.541832 96 46 53
7.945776 7.385555 64.541832 96 47 53
7.928539 7.508363 64.401825 98 47 53
7.928539 7.647192 64.401825 100 48 54
7.928539 7.786021 64.401825 102 49 55
7.928539 7.924849 64.401825 104 50 56
7.928539 8.063678 64.401825 105 50 57
7.997936 8.274301 64.965523 105 51 56
8.033092 8.451331 65.251083 103 51 55
8.050786 8.610915 65.394806 101 50 53
8.068558 8.771204 65.539169 98 48 51
8.086409 8.932202 65.684166 95 46 49
8.122348 9.114123 65.976097 91 44 47
8.140438 9.276961 66.123032 89 42 46
8.158608 9.440526 66.270630 88 42 46
8.158608 9.583383 66.270630 87 42 46
8.158608 9.726240 66.270630 86 41 48
8.176861 9.891175 66.418884 86 42 49
8.195194 10.056850 66.567810 86 43 51
8.195194 10.200349 66.567810 86 45 52
8.176861 10.320705 66.418884 86 45 52
8.158608 10.440526 66.270630 86 45 52
8.104339 10.512983 65.829803 85 45 51
8.050786 10.584483 65.394806 85 44 50
8.033092 10.701880 65.251083 84 43 49
8.033092 10.842540 65.251083 83 42 48
7.980473 10.911257 64.823669 82 41 47
7.980473 11.050995 64.823669 82 40 48
8.033092 11.264518 65.251083 82 41 49
8.033092 11.405177 65.251083 82 41 49
8.033092 11.545836 65.251083 82 41 49
8.033092 11.686496 65.251083 81 41 49
8.033092 11.827155 65.251083 80 41 48
8.033092 11.967814 65.251083 79 41 47
8.086409 12.188840 65.684166 80 42 48
8.086409 12.330433 65.684166 81 42 47
8.033092 12.389792 65.251083 81 42 46
7.997936 12.475614 64.965523 81 42 46
7.963086 12.560687 64.682442 80 42 45
7.894291 12.590401 64.123634 79 42 45
7.826674 12.619605 63.574394 76 42 44
7.776716 12.675224 63.168602 74 41 44
7.727393 12.730139 62.767956 75 41 44
7.796764 -13.540135 62.241596 105 53 60
7.780453 -13.377917 62.111385 105 54 62
7.748034 -13.188843 61.852589 106 54 62
7.668158 -12.920917 61.214931 105 54 62
7.528455 -12.555961 60.099682 105 53 61
7.483011 -12.351398 59.736904 105 53 60
7.438113 -12.149289 59.378483 104 51 58
7.438113 -12.021289 59.378483 103 50 56
7.483011 -11.965079 59.736904 105 51 58
7.498098 -11.860170 59.857342 107 53 60
7.498098 -11.731138 59.857342 107 54 61
7.589911 -11.744172 60.590290 106 54 60
7.636667 -11.685102 60.963535 107 54 60
7.668158 -11.601329 61.214931 108 55 61
7.980808 -11.937005 63.710819 109 55 62
7.997971 -11.825042 63.847832 110 55 61
8.015208 -11.712596 63.985435 111 54 61
8.015208 -11.574665 63.985435 111 53 60
8.015208 -11.436734 63.985435 110 53 60
8.015208 -11.298803 63.985435 110 53 59
8.015208 -11.160872 63.985435 111 54 59
8.015208 -11.022941 63.985435 111 55 59
7.997971 -10.861601 63.847832 112 57 60
7.997971 -10.723967 63.847832 112 58 61
7.963719 -10.540995 63.574394 113 59 62
7.929758 -10.359583 63.303288 115 60 64
7.846111 -10.115284 62.635532 116 61 65
7.829593 -9.959251 62.503666 117 61 67
7.829593 -9.824514 62.503666 117 61 68
7.946702 -9.834710 63.438553 117 61 69
7.963719 -9.718725 63.574394 117 61 70
7.929758 -9.540820 63.303288 117 60 70
7.879357 -9.344585 62.900936 117 59 70
7.829593 -9.150830 62.503666 117 58 69
7.829593 -9.016094 62.503666 117 57 68
7.796764 -8.844118 62.241596 116 56 67
7.796764 -8.709947 62.241596 116 56 66
7.780453 -8.557834 62.111385 116 55 65
7.764210 -8.406356 61.981716 116 55 65
7.748034 -8.255509 61.852589 116 55 65
7.731926 -8.105290 61.723995 116 56 65
7.731926 -7.972234 61.723995 116 56 66
7.748034 -7.855509 61.852589 117 57 67
7.764210 -7.738297 61.981716 118 58 68
7.780453 -7.620595 62.111385 119 60 70
7.780453 -7.486704 62.111385 121 61 72
7.764210 -7.337462 61.981716 123 61 74
7.764210 -7.203851 61.981716 125 62 75
7.764210 -7.070239 61.981716 126 63 75
7.813144 -6.980346 62.372356 127 63 73
7.813144 -6.845892 62.372356 124 61 70
7.796764 -6.697368 62.241596 121 58 67
7.764210 -6.535792 61.981716 122 59 67
7.748034 -6.388843 61.852589 126 62 71
7.748034 -6.255509 61.852589 127 64 72
7.715885 -6.096773 61.595940 128 65 72
7.715885 -5.963993 61.595940 129 66 72
7.715885 -5.831213 61.595940 129 66 73
7.715885 -5.698432 61.595940 130 67 74
7.715885 -5.565652 61.595940 130 68 75
7.684001 -5.410423 61.341408 130 68 74
7.684001 -5.278191 61.341408 128 67 73
7.731926 -5.178055 61.723995 126 65 72
7.748034 -5.055510 61.852589 125 65 72
7.764210 -4.932452 61.981716 125 66 72
7.796764 -4.818961 62.241596 126 66 72
7.813144 -4.694632 62.372356 126 66 72
7.829593 -4.569778 62.503666 126 66 70
7.829593 -4.435041 62.503666 126 67 70
7.896086 -4.336825 63.034485 126 67 69
7.929758 -4.218858 63.303288 125 66 67
7.929758 -4.082398 63.303288 124 65 66
7.929758 -3.945937 63.303288 125 65 68
7.929758 -3.809477 63.303288 126 66 70
7.912887 -3.665201 63.168602 126 65 72
7.879357 -3.514077 62.900936 126 65 73
7.829593 -3.357146 62.503666 125 64 74
7.813144 -3.215640 62.372356 124 63 73
7.813144 -3.081186 62.372356 123 61 72
7.829593 -2.952936 62.503666 121 60 71
7.829593 -2.818199 62.503666 120 59 70
7.846111 -2.689123 62.635532 119 59 69
7.829593 -2.548725 62.503666 118 59 68
7.813144 -2.408917 62.372356 119 60 68
7.813144 -2.274463 62.372356 121 60 70
7.813144 -2.140009 62.372356 122 61 71
7.813144 -2.005556 62.372356 124 61 72
7.829593 -1.875041 62.503666 125 62 72
7.846111 -1.743976 62.635532 124 64 71
7.879357 -1.615772 62.900936 124 64 70
7.879357 -1.480179 62.900936 123 64 69
7.896086 -1.347441 63.034485 123 63 69
7.896086 -1.211560 63.034485 123 63 69
7.912887 -1.077967 63.168602 124 63 69
7.929758 -0.943805 63.303288 125 64 70
7.946702 -0.809070 63.438553 126 63 71
7.946702 -0.672317 63.438553 123 61 70
7.946702 -0.535565 63.438553 121 59 68
7.946702 -0.398813 63.438553 117 56 66
7.946702 -0.262061 63.438553 116 55 64
7.946702 -0.125309 63.438553 116 56 65
7.963719 0.011468 63.574394 117 57 67
7.980808 0.148831 63.710819 118 58 70
7.980808 0.286171 63.710819 119 58 72
7.946702 0.421700 63.438553 120 58 72
7.946702 0.558452 63.438553 120 58 72
7.912887 0.692246 63.168602 120 58 72
7.946702 0.831956 63.438553 120 58 71
8.015208 0.977059 63.985435 120 57 69
8.049906 2.643626 64.262428 112 55 64
8.032519 2.776146 64.123634 111 54 63
8.015208 2.908094 63.985435 111 53 63
8.015208 3.046025 63.985435 110 52 63
8.015208 3.183956 63.985435 110 52 63
8.032519 3.329062 64.123634 109 51 63
8.032519 3.467290 64.123634 109 51 62
8.049906 3.613323 64.262428 107 49 61
8.067368 3.759990 64.401825 106 48 59
8.102520 3.915807 64.682442 105 47 59
8.120211 4.064095 64.823669 105 47 59
8.137980 4.633163 64.965523 111 48 63
8.102520 4.752409 64.682442 109 47 61
8.084906 4.881207 64.541832 108 46 59
8.084906 5.020338 64.541832 107 46 58
8.102520 5.170709 64.682442 105 45 56
8.120211 5.321737 64.823669 104 46 55
8.102520 5.449576 64.682442 103 47 55
8.120211 5.601213 64.823669 102 48 57
8.191754 5.791532 65.394806 102 49 57
8.191754 5.932501 65.394806 101 49 57
8.191754 6.073470 65.394806 100 48 57
8.173751 6.200781 65.251083 98 48 56
8.264570 6.411901 65.976097 97 47 56
8.264570 6.554123 65.976097 97 47 56
8.209838 6.651999 65.539169 97 47 55
8.137980 6.733819 64.965523 96 47 55
8.084906 6.829034 64.541832 96 47 55
8.067368 6.953049 64.401825 97 47 54
8.067368 7.091877 64.401825 97 47 54
8.049906 7.215055 64.262428 97 47 53
8.067368 7.369534 64.401825 98 47 53
8.049906 7.492111 64.262428 99 48 54
8.049906 7.630640 64.262428 102 49 55
8.049906 7.769168 64.262428 104 50 56
8.067368 7.924849 64.401825 106 51 57
8.067368 8.063678 64.401825 107 52 58
8.137980 8.274301 64.965523 106 52 58
8.155826 8.432797 65.107986 105 51 56
8.191754 8.610915 65.394806 103 51 54
8.209838 8.771204 65.539169 100 49 52
8.228002 8.932202 65.684166 97 46 50
8.246245 9.093915 65.829803 94 44 48
8.264570 9.256346 65.976097 92 43 47
8.282977 9.419500 66.123032 90 42 47
8.301466 9.583383 66.270630 89 41 47
8.301466 9.726240 66.270630 89 42 48
8.301466 9.869097 66.270630 89 43 49
8.320037 10.034352 66.418884 89 44 51
8.338692 10.200349 66.567810 89 45 52
8.338692 10.343846 66.567810 89 45 52
8.301466 10.440526 66.270630 88 45 52
8.246245 10.512983 65.829803 86 45 51
8.191754 10.584483 65.394806 85 44 50
8.173751 10.701880 65.251083 84 42 48
8.173751 10.842540 65.251083 83 41 48
8.173751 10.983199 65.251083 83 41 47
8.209838 11.172970 65.539169 83 40 48
8.209838 11.314251 65.539169 83 40 49
8.173751 11.405177 65.251083 83 40 50
8.173751 11.545836 65.251083 82 40 49
8.173751 11.686496 65.251083 81 40 48
8.209838 11.879372 65.539169 79 40 47
8.209838 12.020652 65.539169 79 39 47
8.228002 12.188840 65.684166 80 42 48
8.209838 12.303213 65.539169 81 43 49
8.173751 12.389792 65.251083 80 42 46
8.137980 12.475614 64.965523 79 41 45
8.102520 12.560687 64.682442 79 42 45
8.032519 12.590401 64.123634 79 42 44
8.015208 12.701197 63.985435 77 42 44
7.963719 12.756650 63.574394 76 42 44
7.897822 -13.349989 61.981716 106 54 63
7.881368 -13.188843 61.852589 107 55 63
7.816233 -12.947613 61.341408 106 55 63
7.689139 -12.607001 60.343987 106 55 63
7.627131 -12.376300 59.857342 106 54 62
7.551011 -12.125039 59.259964 105 52 59
7.551011 -11.997294 59.259964 104 51 58
7.596499 -11.941053 59.616951 105 52 59
7.611784 -11.836307 59.736904 107 53 61
7.627131 -11.731138 59.857342 107 54 62
7.752165 -11.792304 60.838612 107 55 62
7.768084 -11.685102 60.963535 107 55 62
7.768084 -11.553685 60.963535 108 55 62
8.083454 -11.885993 63.438553 109 55 62
8.118147 -11.799666 63.710819 110 54 62
8.135606 -11.687407 63.847832 111 54 62
8.153139 -11.574665 63.985435 112 54 61
8.153139 -11.436734 63.985435 112 54 61
8.153139 -11.298803 63.985435 113 54 60
8.135606 -11.136870 63.847832 113 54 60
8.118147 -10.975632 63.710819 113 55 61
8.100763 -10.815084 63.574394 113 57 62
8.100763 -10.678040 63.574394 114 58 63
8.066218 -10.496044 63.303288 114 60 64
7.981132 -10.250305 62.635532 115 61 66
7.964330 -10.093988 62.503666 117 62 67
7.947598 -9.938329 62.372356 117 62 68
7.947598 -9.803875 62.372356 117 62 69
8.066218 -9.813741 63.303288 118 62 70
8.066218 -9.677280 63.303288 118 62 71
8.014951 -9.480179 62.900936 118 62 71
7.981132 -9.305158 62.635532 118 60 71
7.947598 -9.131606 62.372356 118 59 70
7.947598 -8.997152 62.372356 118 58 68
7.930936 -8.844118 62.241596 118 57 67
7.930936 -8.709947 62.241596 118 56 65
7.914344 -8.557834 62.111385 117 56 65
7.897822 -8.406356 61.981716 117 56 64
7.881368 -8.255509 61.852589 117 56 64
7.848665 -8.088474 61.595940 117 56 64
7.848665 -7.955694 61.595940 117 57 65
7.881368 -7.855509 61.852589 118 58 66
7.897822 -7.738297 61.981716 119 60 68
7.914344 -7.620595 62.111385 120 61 70
7.914344 -7.486704 62.111385 122 63 72
7.897822 -7.337462 61.981716 124 63 74
7.897822 -7.203851 61.981716 126 64 75
7.897822 -7.070239 61.981716 126 65 73
7.930936 -6.965712 62.241596 125 64 72
7.930936 -6.831540 62.241596 123 62 69
7.914344 -6.683357 62.111385 121 59 66
7.881368 -6.522176 61.852589 122 61 67
7.881368 -6.388843 61.852589 125 64 71
7.881368 -6.255509 61.852589 126 64 71
7.848665 -6.096773 61.595940 127 64 72
7.848665 -5.963993 61.595940 128 65 72
7.848665 -5.831213 61.595940 129 66 73
7.848665 -5.698432 61.595940 129 66 74
7.848665 -5.565652 61.595940 130 67 75
7.816233 -5.410423 61.341408 129 67 75
7.816233 -5.278191 61.341408 127 67 73
7.832416 -5.156614 61.468410 126 66 72
7.864983 -5.044999 61.723995 126 67 73
7.881368 -4.922176 61.852589 128 69 74
7.914344 -4.808880 62.111385 129 69 74
7.930936 -4.684789 62.241596 129 69 73
7.930936 -4.550618 62.241596 130 69 73
7.947598 -4.425724 62.372356 131 69 74
7.964330 -4.300304 62.503666 131 70 74
7.998005 -4.183181 62.767956 129 68 71
8.049057 -4.073712 63.168602 127 66 69
8.031967 -3.929182 63.034485 126 65 70
8.031967 -3.793300 63.034485 127 66 72
8.014951 -3.649671 62.900936 127 66 73
7.964330 -3.491883 62.503666 127 65 74
7.930936 -3.343070 62.241596 127 65 75
7.897822 -3.195500 61.981716 126 63 75
7.897822 -3.061888 61.981716 124 62 74
7.897822 -2.928277 61.981716 122 61 73
7.930936 -2.806383 62.241596 119 60 70
7.930936 -2.672211 62.241596 119 59 69
7.947598 -2.543371 62.372356 118 60 68
7.947598 -2.408917 62.372356 119 61 69
7.930936 -2.269695 62.241596 122 62 71
7.947598 -2.140009 62.372356 124 64 73
7.947598 -2.005556 62.372356 125 64 74
7.964330 -1.875041 62.503666 124 63 73
8.014951 -1.751366 62.900936 124 63 71
8.031967 -1.619203 63.034485 123 63 70
8.031967 -1.483322 63.034485 123 63 69
8.049057 -1.350307 63.168602 124 63 69
8.049057 -1.214137 63.168602 124 62 70
8.049057 -1.077967 63.168602 125 62 70
8.066218 -0.943805 63.303288 126 63 71
8.066218 -0.807344 63.303288 126 62 71
8.066218 -0.670884 63.303288 125 61 71
8.066218 -0.534423 63.303288 123 59 69
8.049057 -0.397116 63.168602 121 57 67
8.049057 -0.260946 63.168602 119 56 66
8.049057 -0.124776 63.168602 118 57 66
8.066218 0.011419 63.303288 118 58 68
8.083454 0.148195 63.438553 119 59 70
8.083454 0.284948 63.438553 119 59 72
8.031967 0.419014 63.034485 119 59 73
7.981132 0.551383 62.635532 119 58 73
7.981132 0.686404 62.635532 118 58 72
8.014951 0.824906 62.900936 117 56 69
8.100763 0.970783 63.574394 116 56 67
8.153139 1.114990 63.985435 116 56 66
8.153139 1.252921 63.985435 116 56 65
8.206197 2.510532 64.401825 111 55 64
8.170749 2.637917 64.123634 111 55 63
8.170749 2.776146 64.123634 111 54 62
8.153139 2.908094 63.985435 110 52 62
8.153139 3.046025 63.985435 110 51 62
8.153139 3.183956 63.985435 109 51 62
8.170749 3.329062 64.123634 109 50 62
8.170749 3.467290 64.123634 108 50 62
8.170749 3.605519 64.123634 107 48 62
8.188435 3.751852 64.262428 106 47 60
8.206197 3.898819 64.401825 105 46 60
8.224036 4.046425 64.541832 104 46 60
8.241954 4.194674 64.682442 106 46 61
8.278024 4.353076 64.965523 108 48 62
8.278024 4.493119 64.965523 111 49 64
8.259949 4.623047 64.823669 112 48 63
8.224036 4.742077 64.541832 110 47 62
8.206197 4.870619 64.401825 109 46 60
8.206197 5.009448 64.401825 108 46 58
8.206197 5.148276 64.401825 107 45 56
8.224036 5.298599 64.541832 106 46 55
8.224036 5.437729 64.541832 105 47 55
8.259949 5.601213 64.823669 105 48 57
8.406793 6.127457 65.976097 103 49 57
8.224036 6.133381 64.541832 101 49 57
8.278024 6.313688 64.965523 100 48 57
8.278024 6.453732 64.965523 100 48 56
8.259949 6.579379 64.823669 99 48 56
8.206197 6.675392 64.401825 98 49 56
8.188435 6.799471 64.262428 98 49 55
8.170749 6.923014 64.123634 98 49 55
8.170749 7.061243 64.123634 98 48 54
8.188435 7.215055 64.262428 98 48 53
8.188435 7.353583 64.262428 99 47 53
8.188435 7.492111 64.262428 100 48 54
8.188435 7.630640 64.262428 102 49 56
8.188435 7.769168 64.262428 105 50 58
8.188435 7.907696 64.262428 107 52 59
8.206197 8.063678 64.401825 108 53 60
8.278024 8.274301 64.965523 107 52 59
8.278024 8.414345 64.965523 105 51 57
8.314410 8.591990 65.251083 103 50 56
8.332724 8.751884 65.394806 101 49 54
8.351118 8.912484 65.539169 99 47 52
8.369595 9.073795 65.684166 96 45 50
8.406793 9.256346 65.976097 94 43 49
8.425516 9.419500 66.123032 93 43 49
8.425516 9.562039 66.123032 92 42 49
8.425516 9.704577 66.123032 93 43 49
8.425516 9.847116 66.123032 93 43 50
8.444323 10.011954 66.270630 93 44 52
8.482190 10.200349 66.567810 92 45 52
8.482190 10.343846 66.567810 91 45 52
8.444323 10.440526 66.270630 89 45 52
8.388152 10.512983 65.829803 87 44 51
8.332724 10.584483 65.394806 85 43 50
8.332724 10.725452 65.394806 84 41 48
8.332724 10.866422 65.394806 83 41 48
8.332724 11.007391 65.394806 83 40 47
8.369595 11.197689 65.684166 83 40 48
8.369595 11.339282 65.684166 84 41 49
8.332724 11.430299 65.394806 83 40 49
8.332724 11.571267 65.394806 82 39 49
8.351118 11.738091 65.539169 81 39 48
8.388152 11.932052 65.829803 80 39 47
8.388152 12.073959 65.829803 79 39 47
8.388152 12.215866 65.829803 80 42 47
8.351118 12.303213 65.539169 81 43 48
8.332724 12.417083 65.394806 80 42 46
8.296177 12.502973 65.107986 79 41 44
8.259949 12.588113 64.823669 79 41 44
8.224036 12.672512 64.541832 79 42 45
8.170749 12.728629 64.123634 79 42 45
8.014701 -13.188843 61.852589 108 56 64
7.948464 -12.947613 61.341408 108 56 64
7.835146 -12.632677 60.466888 109 57 65
7.756163 -12.376300 59.857342 108 55 64
7.678756 -12.125039 59.259964 106 53 61
7.678756 -11.997294 59.259964 107 54 61
7.709532 -11.917123 59.497478 108 55 63
7.740557 -11.836307 59.736904 109 56 64
7.740557 -11.707534 59.736904 108 56 64
7.899500 -11.816519 60.963535 108 56 64
7.899500 -11.685102 60.963535 108 55 64
7.899500 -11.553685 60.963535 109 55 64
7.948464 -11.493067 61.341408 110 55 64
8.185226 -11.699244 63.168602 112 55 64
8.237808 -11.637355 63.574394 113 55 63
8.273240 -11.549773 63.847832 114 55 63
8.273240 -11.412139 63.847832 115 55 63
8.255486 -11.250310 63.710819 115 55 63
8.237808 -11.089174 63.574394 115 56 63
8.202680 -10.905425 63.303288 116 57 63
8.185226 -10.746052 63.168602 115 58 65
8.185226 -10.609882 63.168602 115 59 66
8.116154 -10.385326 62.635532 116 60 67
8.099067 -10.228725 62.503666 116 61 68
8.065108 -10.051665 62.241596 117 62 69
8.065108 -9.917494 62.241596 118 62 70
8.065108 -9.783322 62.241596 118 62 71
8.167849 -9.772069 63.034485 118 62 71
8.167849 -9.636188 63.034485 118 62 71
8.133312 -9.460136 62.767956 118 62 71
8.116154 -9.305158 62.635532 119 61 71
8.116154 -9.170136 62.635532 119 60 70
8.116154 -9.035115 62.635532 119 59 68
8.082052 -8.862699 62.372356 119 58 67
8.065108 -8.709947 62.241596 119 57 65
8.048236 -8.557834 62.111385 119 57 64
8.014701 -8.388843 61.852589 119 57 64
8.014701 -8.255509 61.852589 118 56 63
7.998039 -8.105290 61.723995 118 57 63
7.998039 -7.972234 61.723995 118 58 64
8.014701 -7.855509 61.852589 120 60 66
8.048236 -7.754487 62.111385 121 61 68
8.048236 -7.620595 62.111385 122 63 70
8.048236 -7.486704 62.111385 123 64 72
8.031433 -7.337462 61.981716 125 65 73
8.031433 -7.203851 61.981716 126 66 73
8.031433 -7.070239 61.981716 126 67 72
8.048236 -6.951139 62.111385 125 66 71
8.048236 -6.817248 62.111385 123 64 69
8.048236 -6.683357 62.111385 122 63 68
8.014701 -6.522176 61.852589 122 63 69
8.014701 -6.388843 61.852589 124 64 70
8.014701 -6.255509 61.852589 124 63 71
7.981445 -6.096773 61.595940 124 62 71
7.981445 -5.963993 61.595940 126 63 72
7.981445 -5.831213 61.595940 127 64 73
7.981445 -5.698432 61.595940 128 65 74
7.964921 -5.554130 61.468410 129 66 75
7.948464 -5.410423 61.341408 129 66 74
7.948464 -5.278191 61.341408 127 66 73
7.948464 -5.145960 61.341408 126 66 72
7.964921 -5.024109 61.468410 127 69 73
7.998039 -4.911943 61.723995 130 71 75
8.014701 -4.788843 61.852589 130 71 75
8.048236 -4.674989 62.111385 130 71 75
8.048236 -4.541097 62.111385 130 70 75
8.048236 -4.407206 62.111385 131 70 75
8.065108 -4.282274 62.241596 131 70 75
8.082052 -4.156816 62.372356 131 69 74
8.116154 -4.039334 62.635532 129 67 72
8.116154 -3.904313 62.635532 128 66 72
8.116154 -3.769292 62.635532 128 65 73
8.099067 -3.626620 62.503666 128 65 74
8.065108 -3.477242 62.241596 128 64 74
8.031433 -3.329112 61.981716 128 64 75
8.014701 -3.188843 61.852589 128 64 76
8.014701 -3.055509 61.852589 126 63 75
8.014701 -2.922176 61.852589 123 62 74
8.031433 -2.794665 61.981716 119 60 70
8.048236 -2.666620 62.111385 117 59 68
8.065108 -2.538039 62.241596 118 60 68
8.065108 -2.403867 62.241596 119 61 69
8.065108 -2.269695 62.241596 122 63 71
8.065108 -2.135523 62.241596 126 65 74
8.082052 -2.005556 62.372356 126 65 74
8.099067 -1.875041 62.503666 125 63 73
8.167849 -1.755084 63.034485 123 62 71
8.185226 -1.622648 63.168602 123 61 69
8.185226 -1.486478 63.168602 124 61 69
8.185226 -1.350307 63.168602 124 61 69
8.185226 -1.214137 63.168602 125 61 70
8.202680 -1.080266 63.303288 126 61 71
8.202680 -0.943805 63.303288 127 62 71
8.202680 -0.807344 63.303288 127 61 71
8.202680 -0.670884 63.303288 126 60 71
8.185226 -0.533286 63.168602 124 59 69
8.167849 -0.396273 63.034485 122 58 67
8.150544 -0.259840 62.900936 120 58 67
8.133312 -0.123984 62.767956 119 58 68
8.150544 0.011346 62.900936 119 59 69
8.167849 0.147252 63.034485 120 60 71
8.167849 0.283133 63.034485 121 60 73
8.116154 0.416362 62.635532 121 61 75
8.082052 0.549066 62.372356 121 61 75
8.082052 0.683520 62.372356 118 59 72
8.099067 0.819696 62.503666 115 56 68
8.150544 0.960499 62.900936 114 55 66
8.255486 1.110205 63.710819 114 55 65
8.255486 1.247544 63.710819 114 55 64
8.291070 1.390852 63.985435 114 56 64
8.345025 2.510532 64.401825 111 55 63
8.308978 2.637917 64.123634 110 54 62
8.308978 2.776146 64.123634 110 53 61
8.308978 2.914375 64.123634 110 51 61
8.291070 3.046025 63.985435 110 51 61
8.291070 3.183956 63.985435 109 50 62
8.291070 3.321887 63.985435 109 50 63
8.291070 3.459818 63.985435 109 49 63
8.291070 3.597749 63.985435 108 48 63
8.308978 3.743748 64.123634 107 47 62
8.326962 3.890380 64.262428 105 46 61
8.345025 4.037647 64.401825 105 46 62
8.363167 4.185555 64.541832 106 47 62
8.363167 4.324686 64.541832 109 48 63
8.381387 4.473541 64.682442 111 50 65
8.381387 4.612975 64.682442 113 50 65
8.345025 4.731791 64.401825 112 49 64
8.345025 4.870619 64.401825 111 48 63
8.326962 4.998605 64.262428 110 48 60
8.345025 5.148276 64.401825 109 47 58
8.326962 5.275661 64.262428 108 47 57
8.326962 5.414189 64.262428 107 48 57
8.363167 5.576860 64.541832 108 49 58
8.345025 6.120077 64.401825 104 50 57
8.345025 6.258905 64.401825 103 50 58
8.345025 6.397734 64.401825 103 50 58
8.326962 6.522414 64.262428 102 50 58
8.308978 6.646556 64.123634 101 51 57
8.291070 6.770163 63.985435 100 50 56
8.291070 6.908093 63.985435 99 50 55
8.291070 7.046025 63.985435 98 49 54
8.291070 7.183956 63.985435 98 47 53
8.308978 7.337701 64.123634 98 46 53
8.326962 7.492111 64.262428 100 47 54
8.326962 7.630640 64.262428 103 48 56
8.326962 7.769168 64.262428 106 51 59
8.326962 7.907696 64.262428 108 52 60
8.345025 8.063678 64.401825 109 53 61
8.399687 8.256235 64.823669 108 52 60
8.399687 8.395972 64.823669 104 49 58
8.418067 8.554388 64.965523 103 48 56
8.418067 8.694432 64.965523 102 48 56
8.492399 8.912484 65.539169 100 47 54
8.530059 9.093915 65.829803 98 45 52
8.549015 9.256346 65.976097 97 44 51
8.568055 9.419500 66.123032 96 44 51
8.568055 9.562039 66.123032 96 44 52
8.568055 9.704577 66.123032 96 44 52
8.587180 9.869097 66.270630 96 44 52
8.625688 10.056850 66.567810 95 44 53
8.625688 10.200349 66.567810 94 45 53
8.625688 10.343846 66.567810 92 45 52
8.587180 10.440526 66.270630 90 45 51
8.549015 10.536345 65.976097 88 44 50
8.473693 10.584483 65.394806 86 43 49
8.473693 10.725452 65.394806 85 41 48
8.473693 10.866422 65.394806 84 41 48
8.492399 11.031690 65.539169 83 41 48
8.530059 11.222518 65.829803 83 41 48
8.530059 11.364425 65.829803 83 41 49
8.492399 11.455531 65.539169 83 41 49
8.492399 11.596811 65.539169 82 40 49
8.530059 11.790145 65.829803 81 40 48
8.549015 11.958568 65.976097 81 40 47
8.549015 12.100790 65.976097 80 40 46
8.549015 12.243012 65.976097 80 41 46
8.530059 12.357773 65.829803 80 42 46
8.492399 12.444493 65.539169 79 41 45
8.473693 12.558052 65.394806 79 41 45
8.473693 12.699020 65.394806 79 42 45
8.399687 12.727850 64.823669 80 42 46
8.131095 -13.028367 61.723995 110 56 64
8.064034 -12.788958 61.214931 110 58 65
7.901124 -12.401302 59.978268 109 57 65
7.806500 -12.125039 59.259964 107 55 62
7.806500 -11.997294 59.259964 108 57 64
7.837789 -11.917123 59.497478 110 58 66
7.853528 -11.812539 59.616951 110 58 67
7.869329 -11.707534 59.736904 109 57 66
7.981748 -11.744172 60.590290 108 56 65
7.998071 -11.637310 60.714195 108 55 65
7.998071 -11.506431 60.714195 110 55 65
7.981748 -11.352336 60.590290 111 56 65
6.813687 -9.579520 51.723419 113 56 65
6.743201 -9.370077 51.188347 114 56 65
6.743201 -9.149387 51.188347 116 57 65
8.339140 -11.178347 63.303288 117 57 65
8.321397 -11.018393 63.168602 117 57 65
8.286137 -10.836111 62.900936 118 58 66
8.233804 -10.632936 62.503666 117 59 67
8.216506 -10.476144 62.372356 117 59 68
8.199280 -10.320009 62.241596 116 60 69
8.199280 -10.185838 62.241596 116 61 69
8.199280 -10.051665 62.241596 117 62 70
8.199280 -9.917494 62.241596 118 62 71
8.199280 -9.783322 62.241596 118 62 72
8.251174 -9.710220 62.635532 119 62 71
8.251174 -9.575199 62.635532 119 62 71
8.251174 -9.440178 62.635532 119 62 71
8.268619 -9.324830 62.767956 119 62 70
8.268619 -9.189524 62.767956 119 61 70
8.321397 -9.112010 63.168602 119 60 68
8.216506 -8.862699 62.372356 119 59 66
8.216506 -8.728245 62.372356 120 58 65
8.182127 -8.557834 62.111385 120 58 64
8.148035 -8.388843 61.852589 120 57 64
8.148035 -8.255509 61.852589 120 57 63
8.148035 -8.122176 61.852589 120 58 63
8.148035 -7.988843 61.852589 120 59 64
8.182127 -7.888378 62.111385 120 60 66
8.182127 -7.754487 62.111385 122 62 67
8.182127 -7.620595 62.111385 123 63 69
8.182127 -7.486704 62.111385 124 64 70
8.165045 -7.337462 61.981716 126 66 71
8.165045 -7.203851 61.981716 127 67 72
8.182127 -7.085031 62.111385 127 68 72
8.199280 -6.965712 62.241596 126 67 70
8.199280 -6.831540 62.241596 124 66 69
8.182127 -6.683357 62.111385 122 64 68
8.148035 -6.522176 61.852589 122 64 69
8.148035 -6.388843 61.852589 122 63 70
8.148035 -6.255509 61.852589 123 63 70
8.114225 -6.096773 61.595940 123 62 71
8.097425 -5.951645 61.468410 124 62 73
8.097425 -5.819140 61.468410 126 63 74
8.097425 -5.686635 61.468410 127 64 75
8.080695 -5.542654 61.341408 127 65 75
8.080695 -5.410423 61.341408 127 66 75
8.080695 -5.278191 61.341408 127 66 74
8.064034 -5.135350 61.214931 126 67 73
8.080695 -5.013728 61.341408 127 69 73
8.097425 -4.891603 61.468410 129 71 74
8.148035 -4.788843 61.852589 130 71 75
8.148035 -4.655509 61.852589 130 71 75
8.165045 -4.531617 61.981716 130 70 76
8.165045 -4.398005 61.981716 130 70 76
8.165045 -4.264394 61.981716 130 69 76
8.182127 -4.139424 62.111385 130 69 76
8.199280 -4.013930 62.241596 129 67 75
8.199280 -3.879758 62.241596 128 66 74
8.216506 -3.753455 62.372356 128 65 74
8.199280 -3.611414 62.241596 128 64 74
8.165045 -3.462723 61.981716 129 64 75
8.148035 -3.322176 61.852589 129 64 76
8.131095 -3.182213 61.723995 130 64 77
8.131095 -3.049157 61.723995 129 64 77
8.148035 -2.922176 61.852589 125 62 75
8.148035 -2.788843 61.852589 121 59 70
8.165045 -2.661053 61.981716 118 58 67
8.182127 -2.532729 62.111385 117 59 67
8.182127 -2.398838 62.111385 119 60 68
8.182127 -2.264947 62.111385 123 63 71
8.199280 -2.135523 62.241596 126 65 74
8.216506 -2.005556 62.372356 126 64 74
8.251174 -1.878997 62.635532 125 62 72
8.321397 -1.758818 63.168602 123 61 70
8.321397 -1.622648 63.168602 123 60 68
8.339140 -1.489647 63.303288 124 60 69
8.339140 -1.353187 63.303288 125 60 70
8.339140 -1.216726 63.303288 126 60 71
8.339140 -1.080266 63.303288 127 61 71
8.339140 -0.943805 63.303288 127 61 71
8.339140 -0.807344 63.303288 127 60 71
8.321397 -0.669456 63.168602 126 60 70
8.321397 -0.533286 63.168602 124 59 69
8.303730 -0.396273 63.034485 122 59 67
8.268619 -0.259291 62.767956 121 59 68
8.251174 -0.123723 62.635532 121 60 69
8.268619 0.011322 62.767956 121 61 71
8.268619 0.146629 62.767956 121 62 73
8.251174 0.281341 62.635532 122 62 75
8.216506 0.414612 62.372356 122 62 77
8.199280 0.547915 62.241596 122 62 76
8.199280 0.682087 62.241596 119 59 73
8.216506 0.817974 62.372356 116 57 68
8.233804 0.954433 62.503666 114 55 66
8.339140 1.103103 63.303288 113 54 64
8.374854 1.244873 63.574394 112 53 63
8.374854 1.381917 63.574394 112 54 63
8.374854 1.518963 63.574394 111 54 63
8.520821 2.382038 64.682442 112 55 63
8.465490 2.505098 64.262428 111 54 62
8.447206 2.637917 64.123634 110 53 61
8.447206 2.776146 64.123634 109 52 61
8.447206 2.914375 64.123634 109 51 60
8.429002 3.046025 63.985435 110 50 61
8.410874 3.177109 63.847832 110 50 63
8.410874 3.314743 63.847832 110 50 64
8.429002 3.459818 63.985435 110 49 65
8.429002 3.597749 63.985435 109 49 64
8.429002 3.735680 63.985435 108 48 64
8.447206 3.881977 64.123634 107 47 64
8.465490 4.028908 64.262428 107 47 63
8.465490 4.167436 64.262428 107 47 63
8.483854 4.315305 64.401825 109 49 64
8.483854 4.454134 64.401825 112 50 66
8.483854 4.592962 64.401825 114 52 67
8.465490 4.721549 64.262428 114 51 66
8.465490 4.860077 64.262428 114 51 65
8.447206 4.987809 64.123634 113 50 63
8.447206 5.126038 64.123634 112 49 61
8.447206 5.264266 64.123634 111 49 60
8.447206 5.402495 64.123634 111 49 60
8.447206 5.540725 64.123634 111 51 60
8.429002 5.942576 63.985435 108 52 59
8.429002 6.080507 63.985435 105 51 58
8.429002 6.218439 63.985435 105 51 58
8.429002 6.356369 63.985435 104 51 60
8.429002 6.494300 63.985435 104 52 60
8.429002 6.632232 63.985435 103 53 60
8.429002 6.770163 63.985435 102 52 58
8.429002 6.908093 63.985435 101 50 56
8.429002 7.046025 63.985435 100 48 54
8.429002 7.183956 63.985435 99 47 53
8.429002 7.321887 63.985435 98 46 53
8.465490 7.492111 64.262428 100 45 53
8.465490 7.630640 64.262428 103 48 56
8.465490 7.769168 64.262428 105 50 58
8.465490 7.907696 64.262428 108 51 60
8.465490 8.046224 64.262428 109 52 61
8.520821 8.238247 64.682442 108 51 61
8.520821 8.377681 64.682442 105 49 59
8.539425 8.535710 64.823669 104 49 58
8.558111 8.694432 64.965523 103 48 57
8.808686 10.246296 66.867661 96 44 54
8.788892 10.367091 66.717400 94 45 52
8.730037 10.440526 66.270630 91 45 51
8.691237 10.536345 65.976097 89 44 50
8.595729 10.561221 65.251083 87 43 48
8.595729 10.701880 65.251083 86 42 48
8.595729 10.842540 65.251083 85 41 47
8.633679 11.031690 65.539169 85 42 48
8.633679 11.172970 65.539169 85 42 48
8.633679 11.314251 65.539169 85 42 49
8.633679 11.455531 65.539169 84 42 49
8.633679 11.596811 65.539169 83 41 48
8.691237 11.816345 65.976097 82 40 47
8.730037 12.011954 66.270630 82 40 46
8.730037 12.154811 66.270630 81 41 46
8.691237 12.243012 65.976097 80 41 45
8.691237 12.385235 65.976097 80 42 45
8.652781 12.472025 65.684166 79 42 45
8.614662 12.558052 65.394806 79 43 45
8.595729 12.671111 65.251083 80 43 46
8.162333 -12.736437 60.963535 111 59 64
8.046674 -12.426406 60.099682 110 59 64
7.950113 -12.149289 59.378483 108 59 65
7.950113 -12.021289 59.378483 109 60 66
7.950113 -11.893289 59.378483 110 60 68
7.982041 -11.812539 59.616951 110 59 69
7.998102 -11.707534 59.736904 110 58 68
7.998102 -11.578762 59.736904 109 56 67
8.095839 -11.589908 60.466888 110 56 66
8.095839 -11.459561 60.466888 111 56 67
8.095839 -11.329215 60.466888 112 56 67
6.925186 -9.579520 51.723419 114 56 66
8.281368 -10.922176 61.852589 118 58 68
8.333452 -10.856697 62.241596 118 58 68
8.333452 -10.722526 62.241596 118 58 68
8.316018 -10.566202 62.111385 117 58 69
8.298656 -10.410531 61.981716 117 59 69
8.316018 -10.298420 62.111385 116 59 70
8.316018 -10.164528 62.111385 116 60 70
8.316018 -10.030637 62.111385 117 61 71
8.316018 -9.896746 62.111385 118 61 72
8.333452 -9.783322 62.241596 118 62 72
8.368541 -9.689778 62.503666 119 62 72
8.386195 -9.575199 62.635532 119 62 72
8.386195 -9.440178 62.635532 119 62 71
8.457567 -9.248179 63.168602 119 60 70
8.457567 -9.112010 63.168602 119 60 68
8.368541 -8.881357 62.503666 119 59 66
8.350960 -8.728245 62.372356 120 58 65
8.316018 -8.557834 62.111385 120 58 65
8.298656 -8.406356 61.981716 121 58 64
8.281368 -8.255509 61.852589 121 58 64
8.281368 -8.122176 61.852589 121 58 64
8.298656 -8.005521 61.981716 121 59 64
8.333452 -7.904915 62.241596 121 60 65
8.333452 -7.770743 62.241596 122 61 66
8.333452 -7.636571 62.241596 123 62 68
8.316018 -7.486704 62.111385 124 63 69
8.316018 -7.352813 62.111385 126 66 70
8.316018 -7.218922 62.111385 128 69 71
8.333452 -7.099884 62.241596 128 70 72
8.333452 -6.965712 62.241596 126 69 71
8.333452 -6.831540 62.241596 124 67 69
8.333452 -6.697368 62.241596 123 65 68
8.298656 -6.535792 61.981716 122 64 69
8.281368 -6.388843 61.852589 122 64 70
8.281368 -6.255509 61.852589 122 63 71
8.229931 -6.084150 61.468410 123 63 72
8.229931 -5.951645 61.468410 124 62 74
8.229931 -5.819140 61.468410 125 63 75
8.212927 -5.674885 61.341408 126 64 75
8.212927 -5.542654 61.341408 127 65 75
8.195993 -5.399267 61.214931 127 66 75
8.195993 -5.267308 61.214931 127 67 74
8.179129 -5.124783 61.088974 126 68 74
8.179129 -4.993096 61.088974 127 70 73
8.195993 -4.871432 61.214931 128 70 74
8.264151 -4.778887 61.723995 127 70 74
8.281368 -4.655509 61.852589 128 70 74
8.281368 -4.522176 61.852589 128 70 75
8.281368 -4.388843 61.852589 128 70 77
8.281368 -4.255509 61.852589 129 69 77
8.298656 -4.130782 61.981716 129 69 77
8.298656 -3.997170 61.981716 128 67 76
8.298656 -3.863559 61.981716 128 66 75
8.316018 -3.737750 62.111385 128 65 75
8.298656 -3.596335 61.981716 128 64 74
8.281368 -3.455509 61.852589 130 64 75
8.264151 -3.315269 61.723995 130 64 76
8.247005 -3.175611 61.595940 131 64 77
8.247005 -3.042831 61.595940 130 64 78
8.264151 -2.916101 61.723995 128 62 76
8.281368 -2.788843 61.852589 123 59 71
8.281368 -2.655509 61.852589 120 58 68
8.298656 -2.527442 61.981716 120 58 68
8.298656 -2.393830 61.981716 121 60 69
8.298656 -2.260218 61.981716 124 61 71
8.316018 -2.131056 62.111385 126 62 73
8.333452 -2.001351 62.241596 126 61 73
8.386195 -1.878997 62.635532 124 60 71
8.457567 -1.758818 63.168602 124 60 69
8.475600 -1.626108 63.303288 125 59 69
8.475600 -1.489647 63.303288 126 60 70
8.475600 -1.353187 63.303288 126 60 71
8.475600 -1.216726 63.303288 126 60 71
8.493711 -1.082574 63.438553 126 60 71
8.475600 -0.943805 63.303288 126 60 70
8.475600 -0.807344 63.303288 126 60 70
8.475600 -0.670884 63.303288 125 60 69
8.439610 -0.532154 63.034485 124 60 68
8.439610 -0.396273 63.034485 122 60 67
8.403925 -0.259291 62.767956 122 61 68
8.386195 -0.123723 62.635532 122 62 70
8.403925 0.011322 62.767956 122 63 72
8.386195 0.146320 62.635532 122 64 74
8.386195 0.281341 62.635532 123 64 76
8.350960 0.414612 62.372356 123 64 77
8.316018 0.546769 62.111385 123 63 77
8.316018 0.680660 62.111385 120 61 73
8.350960 0.817974 62.372356 118 59 69
8.368541 0.954433 62.503666 115 56 67
8.475600 1.103103 63.303288 112 54 64
8.475600 1.239564 63.303288 111 53 62
8.493711 1.378965 63.438553 111 53 63
8.493711 1.515717 63.438553 110 53 63
8.622683 2.371704 64.401825 110 54 63
8.604019 2.505098 64.262428 110 53 62
8.585436 2.637917 64.123634 109 52 61
8.566933 2.770163 63.985435 109 51 60
8.566933 2.908094 63.985435 109 50 61
8.530165 3.032952 63.710819 110 50 62
8.511899 3.163502 63.574394 111 50 63
8.511899 3.300547 63.574394 111 50 65
8.511899 3.437592 63.574394 111 50 65
8.530165 3.582308 63.710819 110 49 65
8.548509 3.727646 63.847832 110 49 65
8.566933 3.873611 63.985435 110 49 66
8.566933 4.011542 63.985435 109 49 65
8.566933 4.149473 63.985435 108 48 63
8.566933 4.287404 63.985435 108 49 63
8.585436 4.434893 64.123634 112 51 66
8.585436 4.573122 64.123634 115 53 67
8.585436 4.711351 64.123634 115 53 67
8.585436 4.849580 64.123634 116 53 67
8.585436 4.987809 64.123634 116 53 66
8.585436 5.126038 64.123634 115 52 64
8.566933 5.252921 63.985435 114 51 63
8.566933 5.390852 63.985435 114 52 63
8.548509 5.516893 63.847832 113 53 63
8.548509 5.654528 63.847832 112 54 62
8.566933 5.804646 63.985435 111 54 61
8.566933 5.942576 63.985435 109 53 60
8.548509 6.067431 63.847832 107 52 59
8.548509 6.205066 63.847832 105 50 58
8.548509 6.342700 63.847832 104 50 59
8.548509 6.480334 63.847832 104 52 61
8.548509 6.617969 63.847832 104 53 61
8.548509 6.755603 63.847832 103 53 59
8.548509 6.893238 63.847832 102 51 57
8.548509 7.030872 63.847832 101 49 55
8.566933 7.183956 63.985435 100 47 54
8.566933 7.321887 63.985435 99 46 53
8.585436 7.475930 64.123634 100 45 53
8.585436 7.614159 64.123634 102 47 55
8.585436 7.752388 64.123634 104 48 57
8.585436 7.890616 64.123634 106 50 58
8.585436 8.028846 64.123634 107 50 60
8.622683 8.202506 64.401825 106 50 60
8.622683 8.341335 64.401825 105 50 60
8.641427 8.498599 64.541832 104 49 59
8.932712 10.367091 66.717400 94 45 53
8.872894 10.440526 66.270630 92 45 51
8.833459 10.536345 65.976097 90 44 49
8.736388 10.561221 65.251083 89 43 48
8.736388 10.701880 65.251083 88 43 47
8.717230 10.818762 65.107986 87 43 48
8.736388 10.983199 65.251083 87 43 49
8.717230 11.099463 65.107986 87 43 49
8.774960 11.314251 65.539169 86 43 49
8.774960 11.455531 65.539169 85 43 48
8.774960 11.596811 65.539169 84 43 47
8.794374 11.764061 65.684166 83 41 46
8.872894 12.011954 66.270630 82 41 45
8.872894 12.154811 66.270630 81 41 45
8.833459 12.243012 65.976097 81 42 45
8.794374 12.330433 65.684166 80 43 45
8.755631 12.417083 65.394806 80 44 46
8.736388 12.530452 65.251083 80 44 46
8.209465 -12.476920 60.343987 111 61 64
8.143259 -12.247267 59.857342 111 62 66
8.078114 -12.021289 59.378483 110 62 68
8.126875 -11.965079 59.736904 110 62 69
8.126875 -11.836307 59.736904 111 60 70
8.110556 -11.684025 59.616951 110 59 70
8.110556 -11.555511 59.616951 111 58 69
8.192813 -11.542890 60.221588 111 57 69
8.226185 -11.459561 60.466888 113 57 69
8.226185 -11.329215 60.466888 113 57 68
8.226185 -11.198869 60.466888 114 57 68
8.379786 -10.876856 61.595940 118 59 70
8.414701 -10.788843 61.852589 118 59 70
8.414701 -10.655509 61.852589 118 59 70
8.414701 -10.522176 61.852589 117 58 70
8.414701 -10.388843 61.852589 116 58 69
8.414701 -10.255509 61.852589 115 59 70
8.414701 -10.122176 61.852589 115 59 70
8.432268 -10.009696 61.981716 116 60 71
8.432268 -9.876084 61.981716 117 60 72
8.449909 -9.762855 62.111385 118 61 72
8.467624 -9.649150 62.241596 118 61 72
8.485414 -9.534967 62.372356 118 61 72
8.503277 -9.420304 62.503666 118 61 71
8.593738 -9.384350 63.168602 118 59 70
8.539232 -9.189524 62.767956 118 58 70
8.539232 -9.054216 62.767956 118 58 68
8.503277 -8.881357 62.503666 118 58 67
8.485414 -8.728245 62.372356 119 58 66
8.467624 -8.575775 62.241596 120 58 65
8.449909 -8.423943 62.111385 122 58 65
8.432268 -8.272744 61.981716 122 58 65
8.449909 -8.156160 62.111385 122 58 65
8.485414 -8.055976 62.372356 121 58 65
8.503277 -7.938199 62.503666 121 59 65
8.503277 -7.803462 62.503666 122 60 66
8.485414 -7.652615 62.372356 123 61 67
8.467624 -7.502399 62.241596 124 62 67
8.467624 -7.368227 62.241596 125 65 68
8.467624 -7.234056 62.241596 127 69 71
8.467624 -7.099884 62.241596 128 71 72
8.467624 -6.965712 62.241596 126 69 71
8.467624 -6.831540 62.241596 124 68 70
8.467624 -6.697368 62.241596 123 66 69
8.432268 -6.535792 61.981716 122 65 70
8.414701 -6.388843 61.852589 121 64 71
8.397207 -6.242504 61.723995 122 64 71
8.345159 -6.071579 61.341408 123 63 72
8.327951 -5.927102 61.214931 124 63 75
8.327951 -5.795143 61.214931 125 64 76
8.327951 -5.663185 61.214931 126 65 76
8.310816 -5.519845 61.088974 126 66 76
8.293751 -5.377093 60.963535 126 67 75
8.293751 -5.245677 60.963535 126 68 74
8.242972 -5.082948 60.590290 126 70 74
8.242972 -4.952336 60.590290 126 70 74
8.310816 -4.861409 61.088974 126 70 74
8.362436 -4.759099 61.468410 125 69 73
8.397207 -4.645831 61.723995 125 69 73
8.397207 -4.512774 61.723995 126 69 74
8.397207 -4.379718 61.723995 127 69 75
8.414701 -4.255509 61.852589 127 68 76
8.414701 -4.122176 61.852589 127 68 76
8.432268 -3.997170 61.981716 127 66 76
8.432268 -3.863559 61.981716 127 65 75
8.432268 -3.729947 61.981716 127 64 74
8.432268 -3.596335 61.981716 128 64 74
8.414701 -3.455509 61.852589 129 64 74
8.379786 -3.308391 61.595940 130 64 75
8.362436 -3.169036 61.468410 131 64 76
8.362436 -3.036531 61.468410 130 64 77
8.379786 -2.910051 61.595940 128 62 75
8.397207 -2.783045 61.723995 125 60 72
8.414701 -2.655509 61.852589 123 58 70
8.414701 -2.522176 61.852589 122 58 69
8.414701 -2.388843 61.852589 123 59 70
8.432268 -2.260218 61.981716 124 60 72
8.432268 -2.126606 61.981716 125 60 72
8.467624 -2.001351 62.241596 125 59 72
8.521216 -1.878997 62.635532 125 59 71
8.612062 -1.762568 63.303288 126 59 70
8.612062 -1.626108 63.303288 127 60 71
8.612062 -1.489647 63.303288 127 61 71
8.612062 -1.353187 63.303288 128 61 72
8.612062 -1.216726 63.303288 127 61 72
8.612062 -1.080266 63.303288 126 61 70
8.612062 -0.943805 63.303288 125 60 69
8.612062 -0.807344 63.303288 125 60 68
8.612062 -0.670884 63.303288 124 60 67
8.575492 -0.532154 63.034485 123 60 67
8.575492 -0.396273 63.034485 122 60 67
8.521216 -0.258744 62.635532 122 60 67
8.521216 -0.123723 62.635532 123 62 70
8.521216 0.011298 62.635532 124 65 74
8.521216 0.146320 62.635532 124 65 75
8.521216 0.281341 62.635532 123 64 76
8.485414 0.414612 62.372356 125 65 78
8.449909 0.546769 62.111385 125 65 78
8.449909 0.680660 62.111385 123 62 75
8.485414 0.817974 62.372356 120 59 71
8.503277 0.954433 62.503666 116 56 67
8.593738 1.100756 63.168602 113 54 65
8.593738 1.236927 63.168602 111 53 63
8.612062 1.376024 63.303288 110 52 63
8.612062 1.512485 63.303288 110 52 63
8.975681 2.145234 65.976097 111 55 64
8.818901 2.247501 64.823669 111 55 64
8.742547 2.366570 64.262428 110 54 63
8.742547 2.505098 64.262428 109 52 62
8.704864 2.632232 63.985435 109 51 61
8.704864 2.770163 63.985435 109 50 61
8.667503 2.895612 63.710819 109 50 61
8.630463 3.019990 63.438553 110 50 62
8.575492 3.136636 63.034485 111 51 63
8.575492 3.272517 63.034485 112 51 65
8.575492 3.408398 63.034485 112 51 65
8.575492 3.544279 63.034485 112 50 65
8.575492 3.680160 63.034485 112 50 66
8.612062 3.832314 63.303288 113 51 66
8.648944 3.985772 63.574394 111 51 65
8.648944 4.122817 63.574394 108 49 62
8.667503 4.269003 63.710819 107 48 60
8.704864 4.425335 63.985435 111 50 63
8.704864 4.563266 63.985435 114 52 66
8.704864 4.701197 63.985435 115 54 67
8.704864 4.839128 63.985435 117 55 68
8.704864 4.977059 63.985435 119 55 67
8.704864 5.114990 63.985435 118 54 65
8.704864 5.252921 63.985435 116 53 64
8.704864 5.390852 63.985435 115 53 63
8.686143 5.516893 63.847832 113 53 63
8.686143 5.654528 63.847832 112 53 62
8.686143 5.792162 63.847832 111 54 61
8.686143 5.929797 63.847832 109 54 60
8.667503 6.054411 63.710819 107 52 59
8.667503 6.191750 63.710819 103 49 57
8.648944 6.315536 63.574394 102 48 57
8.648944 6.452581 63.574394 103 50 59
8.648944 6.589626 63.574394 105 53 61
8.648944 6.726671 63.574394 105 53 60
8.667503 6.878445 63.710819 104 51 58
8.648944 7.000761 63.574394 102 49 56
8.667503 7.153123 63.710819 101 47 55
8.686143 7.306141 63.847832 100 46 54
8.704864 7.459818 63.985435 101 46 54
8.704864 7.597749 63.985435 102 46 54
8.704864 7.735680 63.985435 103 47 56
8.704864 7.873611 63.985435 104 48 57
8.704864 8.011542 63.985435 105 48 58
8.704864 8.149473 63.985435 104 48 59
8.723664 8.305304 64.123634 103 48 58
8.761511 8.480164 64.401825 102 48 58
9.076531 10.367091 66.717400 94 45 53
9.015752 10.440526 66.270630 93 45 51
8.955780 10.512983 65.829803 92 44 50
8.857580 10.538060 65.107986 90 44 48
8.818901 10.631781 64.823669 89 44 48
8.818901 10.771519 64.823669 89 44 49
8.818901 10.911257 64.823669 89 44 50
8.818901 11.050995 64.823669 88 44 50
8.818901 11.190732 64.823669 87 44 50
8.799687 11.305785 64.682442 86 44 49
8.799687 11.445219 64.682442 85 43 48
8.877048 11.686496 65.251083 83 42 47
8.916240 11.879372 65.539169 83 42 46
8.916240 12.020652 65.539169 83 43 45
8.916240 12.161933 65.539169 82 43 45
8.896601 12.276114 65.394806 82 45 45
8.799687 12.281820 64.682442 82 45 46
8.305782 -12.296851 60.099682 111 62 66
8.272291 -12.118235 59.857342 110 62 68
8.272291 -11.989202 59.857342 110 62 70
8.272291 -11.860170 59.857342 110 61 70
8.272291 -11.731138 59.857342 111 60 70
8.272291 -11.602106 59.857342 111 59 70
8.322630 -11.542890 60.221588 112 59 70
8.373585 -11.482948 60.590290 114 59 70
8.425168 -11.422268 60.963535 115 59 70
8.494942 -11.119347 61.468410 116 59 71
8.494942 -10.986842 61.468410 117 60 72
8.512566 -10.876856 61.595940 118 60 72
8.530263 -10.766413 61.723995 118 60 71
8.530263 -10.633357 61.723995 118 59 70
8.512566 -10.478516 61.595940 117 58 70
8.512566 -10.345736 61.595940 115 58 69
8.512566 -10.212955 61.595940 115 58 69
8.512566 -10.080175 61.595940 115 59 69
8.530263 -9.968076 61.723995 116 59 70
8.530263 -9.835020 61.723995 117 60 71
8.548035 -9.722177 61.852589 117 60 72
8.548035 -9.588842 61.852589 117 60 72
8.601796 -9.514978 62.241596 116 59 70
8.619867 -9.131606 62.372356 117 57 69
8.619867 -8.997152 62.372356 117 57 68
8.619867 -8.862699 62.372356 117 57 67
8.619867 -8.728245 62.372356 118 58 66
8.601796 -8.575775 62.241596 120 58 66
8.601796 -8.441603 62.241596 122 58 66
8.583800 -8.290051 62.111385 122 58 65
8.619867 -8.190430 62.372356 122 58 66
8.656238 -8.089968 62.635532 122 58 66
8.674539 -7.971765 62.767956 122 59 66
8.674539 -7.836458 62.767956 122 59 66
