ply
format ascii 1.0
element vertex 1263
property float x
property float y
property float z
property uchar red
property uchar green
property uchar blue
end_header
3.986075 -2.508858 83.631668 70 44 48
3.963744 -2.315531 83.163147 71 44 50
3.963744 -2.136259 83.163147 72 45 50
3.986075 -1.968013 83.631668 72 46 50
3.997335 -1.792781 83.867912 71 47 49
4.008659 -1.616557 84.105499 71 47 49
4.020047 -1.439331 84.344437 70 47 50
4.020047 -1.257513 84.344437 71 48 50
4.020047 -1.075695 84.344437 72 49 50
4.020047 -0.893876 84.344437 73 50 50
4.020047 -0.712058 84.344437 75 50 50
4.020047 -0.530240 84.344437 76 49 50
4.031500 -0.349415 84.584732 76 48 50
4.020047 -0.166604 84.344437 77 48 50
4.020047 0.015214 84.344437 77 49 51
4.020047 0.197033 84.344437 78 49 52
4.020047 0.378851 84.344437 78 50 52
4.020047 0.560669 84.344437 78 50 53
4.020047 0.742487 84.344437 78 50 52
4.020047 0.924305 84.344437 77 50 52
4.020047 1.106123 84.344437 76 50 52
4.020047 1.287942 84.344437 75 50 53
4.031500 1.473947 84.584732 75 50 54
4.043019 1.661016 84.826408 74 49 54
4.054604 1.849156 85.069466 74 49 55
4.054604 2.032537 85.069466 74 48 55
4.077973 2.228690 85.559776 74 47 54
4.125530 3.001036 86.557556 81 51 58
4.125530 3.187625 86.557556 82 51 57
4.113537 3.364405 86.305939 83 51 56
4.089759 3.529929 85.807060 83 50 56
4.066255 3.693550 85.313911 83 50 56
4.077973 3.888633 85.559776 84 50 56
4.066255 4.061366 85.313911 84 50 57
4.066255 4.245275 85.313911 85 50 58
4.066255 4.429183 85.313911 86 51 58
4.066255 4.613091 85.313911 86 51 58
4.043019 4.769587 84.826408 86 51 58
4.020047 4.924305 84.344437 87 50 57
4.020047 5.106123 84.344437 89 51 57
4.031500 5.303007 84.584732 91 52 58
4.043019 5.501016 84.826408 93 54 60
4.020047 5.651578 84.344437 96 56 63
4.020047 5.833396 84.344437 98 56 66
4.008659 5.998174 84.105499 99 57 68
3.997335 6.162021 83.867912 101 57 70
3.986075 6.324945 83.631668 102 58 73
3.997335 6.523603 83.867912 105 60 76
4.020047 6.742487 84.344437 108 63 78
4.043019 6.963873 84.826408 109 65 79
4.054604 7.167208 85.069466 111 68 80
4.043019 7.329587 84.826408 111 70 80
4.066255 7.555619 85.313911 108 68 77
4.077973 7.761831 85.559776 107 68 74
4.125530 8.038938 86.557556 106 68 75
4.149726 8.273769 87.065224 106 69 76
4.161932 8.486340 87.321304 106 69 77
4.161932 8.674575 87.321304 106 69 78
4.161932 8.862810 87.321304 108 71 81
4.161932 9.051045 87.321304 110 74 84
4.149726 9.212186 87.065224 108 74 85
4.125530 9.345059 86.557556 105 73 84
4.054604 9.367781 85.069466 102 73 84
4.008659 9.442933 84.105499 99 72 83
3.952672 9.489820 82.930847 95 71 82
3.930713 9.614877 82.470116 88 67 76
3.887518 9.685042 81.563850 74 55 63
3.855740 9.780260 80.897118 59 42 48
3.845263 9.927596 80.677292 51 33 38
3.824477 10.046906 80.241196 48 30 34
3.803916 10.164934 79.809792 49 30 33
3.793718 10.309264 79.595825 50 32 34
3.793718 10.480845 79.595825 52 33 35
3.783574 10.623945 79.383003 54 35 35
3.793718 10.824009 79.595825 56 37 36
3.845263 11.144988 80.677292 57 38 38
3.866275 11.380753 81.118149 58 39 39
3.898228 11.651117 81.788544 59 39 39
3.908996 11.860098 82.014481 60 39 40
3.930713 12.103765 82.470116 61 39 40
3.898228 12.180042 81.788544 63 38 40
3.866275 12.255070 81.118149 64 38 40
3.814169 12.262414 80.024910 65 39 40
3.773484 12.302281 79.171310 67 39 40
3.743536 12.373957 78.542969 69 40 41
3.743536 12.543268 78.542969 71 42 43
3.743536 12.712581 78.542969 74 45 47
3.714059 12.780460 77.924522 77 48 50
3.704337 12.914543 77.720528 78 49 51
3.685043 13.013947 77.315735 77 47 49
3.665950 13.112320 76.915138 76 45 48
3.628350 13.141937 76.126259 75 44 46
3.600653 13.204467 75.545143 73 42 44
3.591514 13.333389 75.353409 73 41 42
3.573375 13.427666 74.972832 73 41 41
3.573375 13.589281 74.972832 74 42 41
3.564374 13.716261 74.783989 75 42 42
3.555419 13.842602 74.596085 76 42 42
3.555419 14.003406 74.596085 75 42 43
3.555419 14.164209 74.596085 74 42 43
3.546508 14.289111 74.409126 75 43 44
3.537642 14.413388 74.223106 75 43 45
3.555419 14.646622 74.596085 75 43 45
3.609838 15.034070 75.737862 74 43 45
3.637678 15.314539 76.321960 74 43 45
3.694665 15.721555 77.517601 73 43 45
3.694665 15.888657 77.517601 73 43 44
3.665950 15.930973 76.915138 73 43 44
3.619071 15.890935 75.931564 73 43 44
3.555419 15.772250 74.596085 73 44 45
3.555419 15.933054 74.596085 74 45 46
3.546508 16.053522 74.409126 74 46 47
3.485361 15.934373 73.126213 74 46 48
3.451358 15.935014 72.412788 74 46 48
3.401578 15.859028 71.368370 74 47 48
3.369183 15.860371 70.688675 74 47 47
3.353215 15.936861 70.353653 75 48 48
3.345288 16.050486 70.187332 75 48 48
3.345288 16.201786 70.187332 76 48 48
3.345288 16.353086 70.187332 76 47 47
3.321729 16.388159 69.693054 76 47 47
3.321729 16.538393 69.693054 75 47 47
3.321729 16.688627 69.693054 74 47 47
3.321729 16.838863 69.693054 71 46 46
3.321729 16.989098 69.693054 67 44 43
3.321729 17.139332 69.693054 62 40 40
3.321729 17.289566 69.693054 60 37 38
3.313950 17.398958 69.529839 59 35 37
3.306207 17.507839 69.367386 59 34 36
3.290829 17.575245 69.044746 60 34 36
3.283194 17.682959 68.884552 62 36 38
3.275594 17.790174 68.725098 65 38 40
3.275594 17.938322 68.725098 66 40 42
3.260499 18.003122 68.408394 66 40 42
3.245543 18.067329 68.094589 66 38 41
3.208745 18.007608 67.322548 65 37 40
3.201486 18.111664 67.170235 64 36 39
3.187064 18.174225 66.867661 64 35 39
3.179903 18.277203 66.717400 65 35 39
3.158609 18.297668 66.270630 66 36 40
3.144570 18.358568 65.976097 67 37 40
3.137598 18.459768 65.829803 67 38 40
3.144570 18.643013 65.976097 66 38 40
3.172773 18.953712 66.567810 65 38 39
3.223364 19.401720 67.629250 64 38 37
3.223364 19.547506 67.629250 63 37 36
3.223364 19.693293 67.629250 62 37 36
4.041138 -11.701215 81.118149 51 37 39
4.030127 -11.494945 80.897118 51 37 39
4.030127 -11.320558 80.897118 51 37 38
4.030127 -11.146171 80.897118 52 37 39
4.085792 -11.123327 82.014481 53 36 38
4.362999 -11.689217 87.578888 53 35 38
4.262411 -11.235287 85.559776 53 35 37
4.201866 -10.893876 84.344437 53 34 36
4.131443 -10.532527 82.930847 54 32 35
4.097110 -10.267714 82.241669 55 33 35
4.097110 -10.090428 82.241669 56 34 36
4.143016 -10.024215 83.163147 57 36 38
4.178126 -9.928374 83.867912 58 38 38
4.189962 -9.775197 84.105499 58 38 39
4.189962 -9.593894 84.105499 58 39 39
4.189962 -9.412591 84.105499 57 39 39
4.178126 -9.205211 83.867912 56 39 39
4.154654 -8.973721 83.396751 56 38 39
4.143016 -8.769313 83.163147 56 37 39
4.154654 -8.614170 83.396751 57 37 39
4.154654 -8.434395 83.396751 57 37 40
4.143016 -8.231497 83.163147 58 38 41
4.131443 -8.029734 82.930847 58 37 42
4.119935 -7.829093 82.699837 58 38 42
4.119935 -7.650820 82.699837 58 39 43
4.119935 -7.472548 82.699837 59 40 43
4.119935 -7.294274 82.699837 59 41 42
4.119935 -7.116002 82.699837 59 41 41
4.119935 -6.937728 82.699837 58 40 40
4.119935 -6.759456 82.699837 58 40 40
4.097110 -6.544722 82.241669 60 41 42
4.085792 -6.349847 82.014481 62 42 43
4.085792 -6.173051 82.014481 64 43 44
4.074536 -5.979737 81.788544 66 43 46
4.063343 -5.787485 81.563850 68 44 47
4.052210 -5.596286 81.340393 68 44 47
4.041138 -5.406133 81.118149 66 43 45
4.041138 -5.231269 81.118149 65 43 44
4.041138 -5.056406 81.118149 65 43 44
4.041138 -4.881542 81.118149 65 44 45
4.052210 -4.719574 81.340393 64 44 45
4.119935 -4.620180 82.699837 63 44 46
4.166357 -4.491956 83.631668 64 45 46
4.201866 -4.348422 84.344437 65 45 47
4.225876 -4.190413 84.826408 66 46 47
4.225876 -4.007556 84.826408 67 46 46
4.178126 -3.781482 83.867912 68 46 46
4.178126 -3.600691 83.867912 68 45 46
4.189962 -3.429588 84.105499 68 45 46
4.189962 -3.248285 84.105499 67 45 45
4.178126 -3.058318 83.867912 67 44 45
4.154654 -2.861361 83.396751 68 43 46
4.131443 -2.666605 82.930847 69 43 46
4.119935 -2.480904 82.699837 71 44 48
4.119935 -2.302631 82.699837 72 45 49
4.119935 -2.124358 82.699837 73 46 50
4.154654 -1.962485 83.396751 72 46 50
4.201866 -1.802967 84.344437 72 47 50
4.201866 -1.621149 84.344437 71 47 50
4.225876 -1.447556 84.826408 71 48 50
4.225876 -1.264699 84.826408 71 48 50
4.262411 -1.091195 85.559776 72 49 51
4.262411 -0.906757 85.559776 74 50 50
4.250163 -0.720243 85.313911 75 50 50
4.250163 -0.536335 85.313911 75 49 50
4.237985 -0.351417 85.069466 74 48 49
4.213837 -0.167078 84.584732 74 47 48
4.201866 0.015214 84.344437 76 49 50
4.201866 0.197033 84.344437 78 51 52
4.201866 0.378851 84.344437 78 51 53
4.201866 0.560669 84.344437 78 51 54
4.201866 0.742487 84.344437 78 51 53
4.189962 0.921687 84.105499 78 51 52
4.178126 1.099874 83.867912 77 50 52
4.166357 1.277058 83.631668 75 49 52
4.201866 1.469760 84.344437 74 49 53
4.213837 1.656283 84.584732 74 50 54
4.213837 1.838620 84.584732 74 50 54
4.237985 2.032537 85.069466 74 49 53
4.312119 3.001036 86.557556 80 50 55
4.287121 3.169146 86.055771 82 50 55
4.287121 3.354654 86.055771 83 50 55
4.237985 3.499586 85.069466 83 50 55
4.237985 3.682967 85.069466 84 49 56
4.237985 3.866348 85.069466 85 49 57
4.237985 4.049729 85.069466 85 50 59
4.225876 4.221015 84.826408 86 51 60
4.237985 4.416492 85.069466 87 52 61
4.225876 4.586730 84.826408 88 52 61
4.213837 4.755999 84.584732 88 52 61
4.201866 4.924305 84.344437 88 52 60
4.201866 5.106123 84.344437 89 51 59
4.213837 5.303007 84.584732 91 52 58
4.213837 5.485343 84.584732 94 54 61
4.201866 5.651578 84.344437 97 56 64
4.201866 5.833396 84.344437 99 57 65
4.178126 5.981230 83.867912 101 57 68
4.166357 6.144663 83.631668 102 58 71
4.166357 6.324945 83.631668 104 59 73
4.154654 6.486954 83.396751 106 61 76
4.178126 6.704394 83.867912 109 63 77
4.201866 6.924305 84.344437 110 65 79
4.213837 7.126369 84.584732 111 67 80
4.213837 7.308705 84.584732 111 68 79
4.225876 7.512444 84.826408 111 69 78
4.250163 7.739527 85.313911 110 69 77
4.274730 7.969235 85.807060 108 69 76
4.337409 8.273769 87.065224 107 69 75
4.337409 8.461453 87.065224 107 69 75
4.337409 8.649137 87.065224 106 69 75
4.337409 8.836820 87.065224 107 71 78
4.337409 9.024503 87.065224 109 73 82
4.312119 9.158471 86.557556 108 73 82
4.274730 9.264033 85.807060 104 72 81
4.225876 9.341016 84.826408 101 71 81
4.178126 9.416259 83.867912 98 71 81
4.119935 9.463386 82.699837 95 71 81
4.074536 9.535415 81.788544 88 66 75
4.052210 9.658508 81.340393 73 54 62
4.019176 9.753683 80.677292 59 40 48
4.008284 9.900692 80.458649 51 32 38
3.986676 10.019826 80.024910 48 30 35
3.965299 10.137682 79.595825 50 30 34
3.954697 10.281699 79.383003 51 32 34
3.954697 10.452822 79.383003 53 34 35
3.944151 10.595614 79.171310 55 36 36
3.954697 10.795068 79.383003 56 37 37
4.019176 11.144988 80.677292 58 39 38
4.052210 11.411933 81.340393 59 39 38
4.119935 11.780934 82.699837 60 40 39
4.119935 11.959208 82.699837 61 40 39
4.119935 12.137481 82.699837 62 39 40
4.108490 12.281543 82.470116 63 38 40
4.063343 12.322405 81.563850 64 38 40
4.019176 12.362379 80.677292 65 39 40
3.975959 12.401493 79.809792 67 40 40
3.954697 12.506298 79.383003 69 42 41
3.933661 12.609988 78.960747 70 43 43
3.923227 12.746301 78.751305 72 45 45
3.902524 12.847903 78.335732 75 45 47
3.882038 12.948440 77.924522 76 46 48
3.851710 13.013947 77.315735 76 45 47
3.831753 13.112320 76.915138 76 44 46
3.812002 13.209679 76.518669 75 44 45
3.782753 13.272009 75.931564 74 43 43
3.753951 13.333389 75.353409 73 42 42
3.753951 13.495826 75.353409 73 42 42
3.734992 13.589281 74.972832 74 42 42
3.716223 13.681798 74.596085 75 43 42
3.706909 13.807908 74.409126 75 43 42
3.706909 13.968309 74.409126 74 42 41
3.706909 14.128711 74.409126 72 41 41
3.697642 14.253388 74.223106 73 41 42
3.688421 14.377445 74.038010 73 42 43
3.688421 14.537046 74.038010 73 42 44
3.697642 14.733389 74.223106 73 43 44
3.706909 14.930716 74.409126 73 43 44
3.706909 15.091117 74.409126 72 42 44
3.734992 15.367060 74.972832 72 43 44
3.734992 15.528675 74.972832 73 43 44
3.716223 15.611445 74.596085 73 43 44
3.706909 15.732720 74.409126 73 44 44
3.670116 15.735373 73.670578 73 45 45
3.642997 15.776737 73.126213 73 45 46
3.581251 15.664299 71.886787 73 45 47
3.555425 15.705181 71.368370 73 46 48
3.546898 15.820996 71.197220 73 46 48
3.521564 15.860371 70.688675 74 46 47
3.488341 15.861688 70.021797 75 47 48
3.471964 15.937454 69.693054 75 47 48
3.471964 16.087688 69.693054 76 47 48
3.471964 16.237925 69.693054 76 46 47
3.455740 16.311579 69.367386 75 46 47
3.447685 16.422741 69.205696 74 46 46
3.455740 16.610643 69.367386 72 46 46
3.455740 16.760176 69.367386 70 46 44
3.455740 16.909710 69.367386 65 42 41
3.463833 17.099194 69.529839 59 37 37
3.463833 17.249077 69.529839 57 35 35
3.455740 17.358307 69.367386 57 34 35
3.447685 17.467030 69.205696 59 33 36
3.431686 17.534468 68.884552 61 34 36
3.423742 17.642027 68.725098 63 35 38
3.423742 17.790174 68.725098 66 37 40
3.415835 17.896894 68.566376 67 38 41
3.400130 17.961737 68.251129 67 39 42
3.369149 17.943863 67.629250 67 38 41
3.338728 17.926310 67.018608 66 37 40
3.323723 17.989563 66.717400 66 36 40
3.316271 18.092726 66.567810 66 36 40
3.301466 18.154812 66.270630 66 36 41
3.286793 18.216345 65.976097 68 37 41
3.265026 18.236988 65.539169 68 38 41
3.229381 18.177631 64.823669 68 39 41
3.229381 18.317369 64.823669 67 39 41
3.279505 18.743582 65.829803 66 39 39
3.376842 19.446016 67.783661 65 38 38
3.376842 19.592136 67.783661 64 38 37
4.204514 -11.843719 80.897118 51 36 38
4.193089 -11.637621 80.677292 51 36 38
4.181726 -11.432641 80.458649 51 36 38
4.148002 -11.168399 79.809792 51 36 38
4.136881 -10.966875 79.595825 52 36 38
4.136881 -10.795294 79.595825 52 36 38
4.136881 -10.623712 79.595825 53 35 38
4.193089 -10.594143 80.677292 53 34 36
4.204514 -10.448623 80.897118 54 32 35
4.204514 -10.274236 80.897118 54 31 35
4.204514 -10.099849 80.897118 55 32 36
4.216002 -9.952580 81.118149 57 35 38
4.274395 -9.913143 82.241669 59 37 39
4.322288 -9.844943 83.163147 59 39 40
4.346638 -9.720125 83.631668 59 40 41
4.358917 -9.566792 83.867912 58 40 41
4.358917 -9.386002 83.867912 57 40 40
4.358917 -9.205211 83.867912 57 39 40
4.322288 -8.948585 83.163147 56 38 40
4.310214 -8.744817 82.930847 57 37 40
4.310214 -8.566046 82.930847 57 38 40
4.322288 -8.410769 83.163147 58 37 41
4.322288 -8.231497 83.163147 59 37 41
4.310214 -8.029734 82.930847 59 37 42
4.298208 -7.829093 82.699837 59 38 43
4.298208 -7.650820 82.699837 60 40 43
4.298208 -7.472548 82.699837 60 41 44
4.298208 -7.294274 82.699837 61 42 44
4.298208 -7.116002 82.699837 61 42 43
4.298208 -6.937728 82.699837 61 42 42
4.298208 -6.759456 82.699837 61 42 43
4.298208 -6.581182 82.699837 62 43 43
4.274395 -6.367436 82.241669 63 43 44
4.274395 -6.190151 82.241669 64 43 45
4.262588 -5.996255 82.014481 66 44 47
4.262588 -5.819460 82.014481 68 45 48
4.239167 -5.611661 81.563850 68 44 47
4.239167 -5.435837 81.563850 67 43 46
4.227552 -5.245602 81.340393 67 43 45
4.227552 -5.070259 81.340393 68 45 46
4.227552 -4.894917 81.340393 68 45 47
4.250845 -4.745577 81.788544 67 46 47
4.346638 -4.672238 83.631668 66 46 48
4.358917 -4.504645 83.867912 66 46 48
4.371265 -4.336103 84.105499 67 46 47
4.383684 -4.166604 84.344437 67 46 47
4.383684 -3.984786 84.344437 67 46 46
4.358917 -3.781482 83.867912 68 46 46
4.334429 -3.580462 83.396751 68 45 46
4.334429 -3.400687 83.396751 68 45 46
4.334429 -3.220912 83.396751 68 45 45
4.334429 -3.041136 83.396751 68 44 46
4.274395 -2.821730 82.241669 69 44 46
4.262588 -2.637140 82.014481 70 44 47
4.250845 -2.453566 81.788544 72 45 48
4.250845 -2.277258 81.788544 73 46 50
4.262588 -2.106753 82.014481 74 47 52
4.310214 -1.951521 82.930847 73 47 51
4.408733 -1.813270 84.826408 72 47 51
4.408733 -1.630413 84.826408 72 47 51
4.446849 -1.460071 85.559776 71 48 51
4.459701 -1.279319 85.807060 71 48 50
4.498707 -1.103920 86.557556 72 49 50
4.459701 -0.909377 85.807060 74 50 50
4.459701 -0.724406 85.807060 74 49 50
4.459701 -0.539435 85.807060 74 49 49
4.446849 -0.353442 85.559776 73 48 48
4.421366 -0.168036 85.069466 73 47 48
4.383684 0.015214 84.344437 75 49 50
4.383684 0.197033 84.344437 77 51 52
4.371265 0.377778 84.105499 78 51 54
4.371265 0.559081 84.105499 78 51 55
4.358917 0.738292 83.867912 78 52 54
4.346638 0.916494 83.631668 78 51 53
4.334429 1.093695 83.396751 77 50 53
4.322288 1.269903 83.163147 75 49 53
4.346638 1.457339 83.631668 74 49 53
4.371265 1.646899 84.105499 74 50 53
4.371265 1.828202 84.105499 74 50 53
4.396173 2.020956 84.584732 74 50 53
4.459701 2.790045 85.807060 77 50 53
4.459701 2.975016 85.807060 79 49 53
4.459701 3.159987 85.807060 80 50 53
4.446849 3.335318 85.559776 81 50 54
4.421366 3.499586 85.069466 83 50 54
4.421366 3.682967 85.069466 84 49 55
4.408733 3.855301 84.826408 85 50 57
4.408733 4.038158 84.826408 86 50 59
4.408733 4.221015 84.826408 87 52 61
4.408733 4.403873 84.826408 88 53 62
4.408733 4.586730 84.826408 89 54 63
4.408733 4.769587 84.826408 90 54 63
4.396173 4.938334 84.584732 89 53 62
4.396173 5.120671 84.584732 90 52 61
4.408733 5.318159 84.826408 92 53 60
4.408733 5.501016 84.826408 94 54 62
4.383684 5.651578 84.344437 97 56 63
4.383684 5.833396 84.344437 99 57 65
4.358917 5.981230 83.867912 101 57 67
4.346638 6.144663 83.631668 103 58 71
4.322288 6.289511 83.163147 105 59 74
4.322288 6.468783 83.163147 108 61 76
4.334429 6.666729 83.396751 110 63 77
4.383684 6.924305 84.344437 111 65 79
4.383684 7.106123 84.344437 112 66 80
4.383684 7.287941 84.344437 112 68 80
4.383684 7.469760 84.344437 112 69 79
4.408733 7.695302 84.826408 112 70 79
4.446849 7.946270 85.559776 111 70 78
4.498707 8.225526 86.557556 109 69 76
4.511861 8.436712 86.810646 108 69 75
4.511861 8.623846 86.810646 106 68 74
4.511861 8.810981 86.810646 107 70 76
4.498707 8.971882 86.557556 109 72 80
4.459701 9.079062 85.807060 107 72 80
4.434071 9.210792 85.313911 103 70 79
4.383684 9.287942 84.344437 101 70 79
4.334429 9.363358 83.396751 98 70 80
4.262588 9.384960 82.014481 95 69 79
4.239167 9.509218 81.563850 87 64 73
4.216002 9.632119 81.118149 72 52 60
4.193089 9.753683 80.677292 59 39 47
4.181726 9.900692 80.458649 51 31 38
4.159183 10.019826 80.024910 49 30 35
4.125820 10.110576 79.383003 50 31 34
4.114818 10.254281 79.171310 52 32 35
4.103874 10.397222 78.960747 54 34 36
4.082160 10.511522 78.542969 56 37 37
4.114818 10.766281 79.171310 58 38 38
4.193089 11.144988 80.677292 59 40 39
4.227552 11.411933 81.340393 61 41 39
4.310214 11.813842 82.930847 61 41 39
4.310214 11.992613 82.930847 62 40 39
4.310214 12.171384 82.930847 62 39 39
4.298208 12.315753 82.699837 63 39 39
4.239167 12.322405 81.563850 64 39 40
4.193089 12.362379 80.677292 65 39 39
4.170424 12.468529 80.241196 67 41 40
4.148002 12.573536 79.809792 69 43 41
4.125820 12.677421 79.383003 70 44 42
4.114818 12.814281 79.171310 72 44 44
4.082160 12.881893 78.542969 73 44 45
4.071390 13.016769 78.335732 73 44 45
4.018377 13.013947 77.315735 74 44 45
4.007939 13.146378 77.114914 75 43 44
3.976950 13.209679 76.518669 75 44 45
3.956556 13.306040 76.126259 74 43 44
3.946436 13.435692 75.931564 74 43 44
3.916387 13.495826 75.353409 74 43 43
3.886793 13.555052 74.783989 75 43 43
3.867310 13.647508 74.409126 76 43 43
3.857642 13.773389 74.223106 76 43 43
3.857642 13.933389 74.223106 74 42 42
3.857642 14.093389 74.223106 73 41 41
3.848022 14.217844 74.038010 72 41 42
3.828925 14.306093 73.670578 72 41 43
3.810016 14.393471 73.306770 72 42 43
3.810016 14.551495 73.306770 72 42 43
3.810016 14.709519 73.306770 72 43 44
3.800632 14.830925 73.126213 72 43 44
3.800632 14.988561 73.126213 72 43 44
3.800632 15.146195 73.126213 73 44 45
3.800632 15.303831 73.126213 74 44 45
3.745283 15.236300 72.061264 73 45 45
3.709271 15.243643 71.368370 73 45 46
3.691523 15.323817 71.026894 72 45 46
3.691523 15.476927 71.026894 72 45 47
3.682713 15.592733 70.857384 72 45 47
3.673944 15.707989 70.688675 72 45 47
3.656532 15.785203 70.353653 73 45 47
3.622199 15.787219 69.693054 74 45 47
3.622199 15.937454 69.693054 74 45 47
3.613716 16.050013 69.529839 75 46 47
3.588504 16.086874 69.044746 75 46 47
3.588504 16.235710 69.044746 74 46 46
3.588504 16.384548 69.044746 72 45 46
3.588504 16.533384 69.044746 70 45 44
3.588504 16.682222 69.044746 67 44 42
3.596869 16.870293 69.205696 63 41 39
3.596869 17.019476 69.205696 57 36 36
3.596869 17.168661 69.205696 56 34 34
3.588504 17.277571 69.044746 56 33 34
3.580178 17.385975 68.884552 58 33 36
3.571890 17.493879 68.725098 61 34 36
3.571890 17.642027 68.725098 63 35 38
3.563641 17.749088 68.566376 66 36 40
3.555430 17.855658 68.408394 67 37 40
3.531022 17.879532 67.938766 68 38 41
3.491078 17.822071 67.170235 68 38 42
3.459768 17.805729 66.567810 68 38 42
3.444323 17.869097 66.270630 67 38 43
3.444323 18.011953 66.270630 67 38 43
3.429015 18.074123 65.976097 68 38 43
3.406306 18.095707 65.539169 68 38 43
3.369119 18.037893 64.823669 68 39 43
3.361779 18.138029 64.682442 68 39 43
3.361779 18.277462 64.682442 68 39 42
3.369119 18.457108 64.823669 67 39 41
3.522960 19.446016 67.783661 66 39 40
3.522960 19.592136 67.783661 66 39 38
4.367002 -11.811534 80.677292 51 35 38
4.343396 -11.574715 80.241196 51 35 38
4.320045 -11.340443 79.809792 50 35 38
4.308463 -11.138457 79.595825 51 35 38
4.296943 -10.937552 79.383003 51 35 37
4.296943 -10.766429 79.383003 52 35 38
4.285484 -10.567052 79.171310 53 34 37
4.308463 -10.452130 79.595825 53 34 37
4.367002 -10.420230 80.677292 54 33 36
4.367002 -10.246317 80.677292 54 32 36
4.367002 -10.072404 80.677292 55 33 37
4.378901 -9.925462 80.897118 57 35 39
4.402895 -9.804505 81.340393 59 37 40
4.501559 -9.844943 83.163147 59 39 41
4.514204 -9.692822 83.396751 59 40 42
4.539708 -9.566792 83.867912 59 40 42
4.552568 -9.412591 84.105499 58 40 41
4.539708 -9.205211 83.867912 57 40 41
4.501559 -8.948585 83.163147 57 39 41
4.488985 -8.744817 82.930847 57 38 40
4.488985 -8.566046 82.930847 57 37 40
4.501559 -8.410769 83.163147 58 37 41
4.501559 -8.231497 83.163147 59 37 41
4.488985 -8.029734 82.930847 60 38 42
4.476481 -7.829093 82.699837 60 39 44
4.476481 -7.650820 82.699837 61 40 45
4.476481 -7.472548 82.699837 62 41 45
4.476481 -7.294274 82.699837 62 42 45
4.488985 -7.135879 82.930847 63 43 45
4.501559 -6.976595 83.163147 63 43 45
4.501559 -6.797324 83.163147 63 43 44
4.501559 -6.618052 83.163147 63 43 45
4.488985 -6.420795 82.930847 63 43 45
4.488985 -6.242024 82.930847 64 44 46
4.476481 -6.046364 82.699837 66 44 47
4.464046 -5.851790 82.470116 68 44 47
4.439383 -5.642664 82.014481 69 44 48
4.439383 -5.465869 82.014481 69 44 48
4.439383 -5.289073 82.014481 70 45 47
4.427153 -5.098194 81.788544 71 46 48
4.427153 -4.921886 81.788544 70 47 48
4.488985 -4.811856 82.930847 69 48 49
4.526920 -4.672238 83.631668 69 48 49
4.539708 -4.504645 83.867912 68 48 48
4.552568 -4.336103 84.105499 68 48 47
4.552568 -4.154800 84.105499 68 47 46
4.539708 -3.962273 83.867912 68 46 46
4.539708 -3.781482 83.867912 68 46 45
4.501559 -3.570433 83.163147 68 45 45
4.501559 -3.391161 83.163147 69 45 46
4.501559 -3.211890 83.163147 69 45 46
4.488985 -3.024147 82.930847 69 45 46
4.427153 -2.806183 81.788544 70 45 47
4.402895 -2.615464 81.340393 72 46 48
4.390865 -2.433455 81.118149 73 46 49
4.402895 -2.264780 81.340393 75 47 51
4.402895 -2.089437 81.340393 75 47 52
4.427153 -1.924641 81.788544 74 47 52
4.658135 -1.839549 86.055771 73 47 52
4.644672 -1.649262 85.807060 72 47 52
4.671676 -1.472804 86.305939 71 48 51
4.698996 -1.294282 86.810646 71 48 51
4.726637 -1.113660 87.321304 73 50 51
4.726637 -0.925425 87.321304 74 50 50
4.685297 -0.730742 86.557556 74 49 50
4.685297 -0.544153 86.557556 73 49 50
4.685297 -0.357564 86.557556 72 48 49
4.604747 -0.168036 85.069466 73 48 49
4.565502 0.015214 84.344437 74 49 50
4.565502 0.197033 84.344437 76 50 52
4.539708 0.376710 83.867912 77 50 53
4.539708 0.557501 83.867912 78 51 54
4.514204 0.734145 83.396751 78 52 55
4.514204 0.913920 83.396751 78 52 55
4.488985 1.087585 82.930847 77 51 54
4.476481 1.262829 82.699837 76 50 54
4.501559 1.449175 83.163147 75 50 53
4.526920 1.637621 83.631668 74 50 53
4.552568 1.828202 84.105499 73 50 53
4.617979 2.774010 85.313911 76 50 52
4.617979 2.957918 85.313911 77 50 52
4.631287 3.150880 85.559776 78 50 52
4.617979 3.325734 85.313911 80 49 53
4.591590 3.489587 84.826408 82 49 54
4.591590 3.672444 84.826408 83 50 55
4.591590 3.855301 84.826408 85 50 57
4.591590 4.038158 84.826408 86 51 59
4.591590 4.221015 84.826408 88 53 62
4.591590 4.403873 84.826408 89 54 64
4.604747 4.599873 85.069466 90 55 65
4.617979 4.796999 85.313911 91 55 65
4.591590 4.952444 84.826408 91 54 64
4.591590 5.135301 84.826408 91 54 63
4.604747 5.333397 85.069466 92 53 63
4.591590 5.501016 84.826408 94 54 63
4.591590 5.683873 84.826408 97 55 64
4.565502 5.833396 84.344437 98 56 65
4.552568 5.998174 84.105499 100 56 65
4.539708 6.162021 83.867912 103 57 69
4.501559 6.289511 83.163147 107 60 74
4.501559 6.468783 83.163147 109 62 76
4.514204 6.666729 83.396751 111 63 78
4.552568 6.904690 84.105499 112 65 79
4.552568 7.085993 84.105499 113 67 80
4.565502 7.287941 84.344437 114 68 80
4.565502 7.469760 84.344437 114 69 80
4.565502 7.651578 84.344437 114 70 81
4.591590 7.878159 84.826408 113 70 80
4.631287 8.130708 85.559776 111 70 78
4.644672 8.339178 85.807060 109 69 77
4.644672 8.524149 85.807060 107 68 76
4.644672 8.709120 85.807060 107 69 77
4.644672 8.894091 85.807060 109 71 79
4.617979 9.026883 85.313911 106 70 79
4.591590 9.158158 84.826408 103 69 78
4.565502 9.287942 84.344437 101 69 78
4.501559 9.337131 83.163147 99 69 79
4.427153 9.359106 81.788544 95 69 78
4.402895 9.483166 81.340393 86 63 71
4.378901 9.605873 80.897118 71 51 58
4.355167 9.727251 80.458649 57 37 44
4.343396 9.873934 80.241196 49 30 35
4.320045 9.992891 79.809792 48 29 33
4.285484 10.083614 79.171310 49 31 34
4.251472 10.172898 78.542969 52 33 35
4.240255 10.314922 78.335732 55 35 37
4.229096 10.456199 78.129585 57 38 38
4.251472 10.680835 78.542969 59 39 40
4.355167 11.114784 80.458649 61 41 41
4.378901 11.349743 80.897118 62 42 41
4.464046 11.748210 82.470116 62 41 40
4.476481 11.959208 82.699837 62 40 40
4.488985 12.171384 82.930847 63 39 39
4.476481 12.315753 82.699837 64 39 39
4.439383 12.390485 82.014481 65 39 39
4.378901 12.396064 80.897118 66 40 40
4.367002 12.536292 80.677292 68 42 41
4.343396 12.641501 80.241196 69 44 42
4.320045 12.745579 79.809792 71 44 43
4.285484 12.814281 79.171310 71 44 43
4.285484 12.984948 79.171310 72 43 44
4.240255 13.016769 78.335732 72 43 44
4.185043 13.013947 77.315735 73 42 43
4.174173 13.146378 77.114914 74 43 44
4.152601 13.243813 76.716385 75 44 46
4.120658 13.306040 76.126259 76 44 46
4.110119 13.435692 75.931564 76 44 46
4.068498 13.461659 75.162636 76 44 46
4.027711 13.487106 74.409126 76 44 46
4.017642 13.613389 74.223106 77 44 46
4.007623 13.739041 74.038010 76 43 45
4.007623 13.898643 74.038010 75 43 43
3.997653 14.023273 73.853836 73 41 42
3.987734 14.147285 73.670578 72 41 42
3.958268 14.200383 73.126213 72 41 42
3.919650 14.217940 72.412788 72 42 43
3.910114 14.339065 72.236603 72 43 44
3.910114 14.494782 72.236603 73 43 44
3.900623 14.614941 72.061264 73 43 45
3.900623 14.770280 72.061264 73 44 45
3.881779 14.853516 71.713142 74 45 46
3.872426 14.971941 71.540344 74 45 46
3.853853 15.053610 71.197220 74 45 46
3.817237 15.062602 70.520767 73 45 47
3.754805 14.965784 69.367386 72 44 47
3.790228 15.257914 70.021797 72 45 47
3.799188 15.445285 70.187332 72 45 47
3.799188 15.596585 70.187332 72 45 47
3.772434 15.636985 69.693054 73 45 47
3.746053 15.676819 69.205696 73 44 47
3.737341 15.789199 69.044746 73 44 47
3.728670 15.901057 68.884552 73 45 47
3.720038 16.012398 68.725098 73 45 47
3.720038 16.160545 68.725098 73 45 46
3.720038 16.308693 68.725098 71 45 45
3.728670 16.495024 68.884552 69 44 44
3.728670 16.643517 68.884552 66 43 41
3.737341 16.831059 69.044746 61 39 38
3.737341 16.979897 69.044746 56 35 34
3.737341 17.128735 69.044746 55 33 33
3.728670 17.237484 68.884552 55 33 34
3.720038 17.345730 68.725098 58 33 35
3.720038 17.493879 68.725098 61 34 36
3.711447 17.601282 68.566376 63 35 38
3.702895 17.708193 68.408394 66 36 39
3.694383 17.814610 68.251129 67 37 40
3.669079 17.838711 67.783661 69 39 42
3.619497 17.741791 66.867661 70 40 43
3.587180 17.726240 66.270630 70 41 44
3.563318 17.750235 65.829803 69 41 45
3.563318 17.892141 65.829803 69 40 45
3.547586 17.954428 65.539169 69 40 45
3.516535 17.937321 64.965523 68 39 44
3.501213 17.998596 64.682442 68 39 43
3.493601 18.098598 64.541832 69 41 44
3.493601 18.237730 64.541832 69 41 44
3.508857 18.457108 64.823669 69 41 43
3.635875 19.270035 67.170235 68 40 42
3.635875 19.414831 67.170235 67 40 41
4.528609 -11.952966 80.458649 50 35 37
4.516369 -11.747688 80.241196 50 34 37
4.492088 -11.512486 79.809792 50 34 36
4.480045 -11.310039 79.595825 49 34 36
4.468066 -11.108675 79.383003 50 34 37
4.456151 -10.908385 79.171310 51 34 37
4.456151 -10.737719 79.171310 52 35 38
4.444300 -10.538948 78.960747 53 35 38
4.468066 -10.424183 79.383003 55 35 38
4.540915 -10.420230 80.677292 55 34 38
4.540915 -10.246317 80.677292 55 34 38
4.540915 -10.072404 80.677292 56 35 39
4.553288 -9.925462 80.897118 58 36 40
4.578238 -9.804505 81.340393 59 38 41
4.693979 -9.872597 83.396751 59 39 42
4.707202 -9.720125 83.631668 59 40 42
4.747320 -9.621149 84.344437 59 40 42
4.747320 -9.439331 84.344437 58 40 42
4.733871 -9.231288 84.105499 58 40 42
4.693979 -8.973721 83.396751 58 39 41
4.667756 -8.744817 82.930847 57 39 41
4.667756 -8.566046 82.930847 57 38 41
4.680831 -8.410769 83.163147 58 37 41
4.680831 -8.231497 83.163147 59 38 42
4.680831 -8.052225 83.163147 60 38 44
4.667756 -7.850962 82.930847 61 39 45
4.667756 -7.672192 82.930847 62 41 46
4.654754 -7.472548 82.699837 63 42 46
4.667756 -7.314650 82.930847 64 42 46
4.667756 -7.135879 82.930847 65 43 46
4.693979 -6.996192 83.396751 64 43 46
4.693979 -6.816417 83.396751 64 43 45
4.693979 -6.636642 83.396751 63 43 45
4.680831 -6.438780 83.163147 64 43 45
4.667756 -6.242024 82.930847 65 43 46
4.667756 -6.063253 82.930847 66 43 47
4.667756 -5.884482 82.930847 68 44 47
4.641824 -5.674013 82.470116 70 44 48
4.641824 -5.496235 82.470116 71 45 49
4.616179 -5.289073 82.014481 72 46 49
4.616179 -5.112278 82.014481 73 47 50
4.616179 -4.935482 82.014481 72 48 50
4.680831 -4.825335 83.163147 72 49 50
4.720499 -4.685437 83.867912 71 49 49
4.733871 -4.517406 84.105499 70 49 49
4.733871 -4.336103 84.105499 69 49 48
4.720499 -4.143064 83.867912 69 48 47
4.720499 -3.962273 83.867912 69 47 46
4.720499 -3.781482 83.867912 69 45 45
4.680831 -3.570433 83.163147 68 45 45
4.680831 -3.391161 83.163147 69 44 46
4.667756 -3.202918 82.930847 69 44 46
4.667756 -3.024147 82.930847 71 46 47
4.603462 -2.806183 81.788544 72 46 48
4.578238 -2.615464 81.340393 73 46 49
4.578238 -2.440122 81.340393 74 46 49
4.578238 -2.264780 81.340393 75 46 51
4.578238 -2.089437 81.340393 75 47 51
4.578238 -1.914095 81.340393 75 47 52
4.667756 -1.772750 82.930847 74 47 52
4.857723 -1.658850 86.305939 72 47 52
4.900459 -1.485761 87.065224 72 48 51
4.958625 -1.313485 88.098640 71 48 51
4.958625 -1.123574 88.098640 73 49 51
4.929370 -0.928155 87.578888 73 49 50
4.900459 -0.735028 87.065224 73 49 50
4.871885 -0.544153 86.557556 73 49 50
4.871885 -0.357564 86.557556 72 48 49
4.788128 -0.168036 85.069466 72 47 49
4.747320 0.015214 84.344437 73 47 49
4.733871 0.196474 84.105499 74 48 50
4.707202 0.375649 83.631668 75 49 51
4.693979 0.554369 83.396751 77 50 54
4.693979 0.734145 83.396751 78 51 55
4.680831 0.911360 83.163147 78 51 55
4.641824 1.081543 82.470116 77 51 54
4.641824 1.259321 82.470116 76 50 54
4.654754 1.441102 82.699837 75 50 53
4.707202 1.637621 83.631668 74 50 52
4.801887 2.774010 85.313911 75 50 52
4.801887 2.957918 85.313911 76 50 52
4.788128 3.132824 85.069466 77 50 52
4.774447 3.306730 84.826408 79 49 53
4.760845 3.479645 84.584732 81 50 54
4.760845 3.661981 84.584732 83 50 56
4.760845 3.844318 84.584732 85 51 58
4.760845 4.026654 84.584732 87 53 60
4.747320 4.197032 84.344437 89 55 63
4.747320 4.378851 84.344437 91 56 66
4.788128 4.599873 85.069466 92 56 66
4.801887 4.796999 85.313911 92 56 66
4.801887 4.980906 85.313911 92 55 65
4.815725 5.179699 85.559776 92 54 64
4.815725 5.364137 85.559776 92 53 63
4.801887 5.532630 85.313911 94 54 63
4.788128 5.700159 85.069466 98 55 65
4.774447 5.866730 84.826408 99 55 65
4.747320 6.015214 84.344437 99 54 65
4.733871 6.179477 84.105499 103 56 68
4.680831 6.289511 83.163147 108 60 73
4.680831 6.468783 83.163147 111 63 77
4.693979 6.666729 83.396751 112 64 78
4.707202 6.865790 83.631668 113 65 79
4.720499 7.065976 83.867912 113 67 80
4.720499 7.246767 83.867912 114 69 80
4.720499 7.427558 83.867912 115 70 81
4.747320 7.651578 84.344437 115 71 82
4.747320 7.833396 84.344437 115 71 82
4.760845 8.038050 84.584732 113 71 81
4.774447 8.243873 84.826408 110 69 80
4.788128 8.450875 85.069466 109 68 78
4.788128 8.634256 85.069466 108 69 79
4.788128 8.817637 85.069466 108 70 80
4.774447 8.975302 84.826408 107 70 79
4.747320 9.106124 84.344437 104 70 79
4.720499 9.235467 83.867912 102 71 80
4.654754 9.285112 82.699837 100 71 80
4.578238 9.307823 81.340393 96 70 78
4.565729 9.457255 81.118149 86 64 70
4.540915 9.579770 80.677292 71 51 56
4.516369 9.700961 80.241196 57 38 43
4.516369 9.873934 80.241196 48 29 34
4.492088 9.992891 79.809792 47 29 32
4.420785 10.003586 78.542969 49 31 33
4.409121 10.146056 78.335732 52 33 35
4.385975 10.260776 77.924522 55 35 37
4.374494 10.401454 77.720528 57 38 39
4.385975 10.596733 77.924522 59 39 41
4.432511 10.878927 78.751305 61 41 42
4.528609 11.288226 80.458649 63 42 42
4.590815 11.619108 81.563850 63 41 41
4.616179 11.860098 82.014481 63 40 40
4.654754 12.137481 82.699837 63 39 39
4.654754 12.315753 82.699837 64 39 40
4.641824 12.459321 82.470116 66 40 41
4.603462 12.532660 81.788544 67 42 42
4.553288 12.570451 80.897118 69 44 43
4.540915 12.710205 80.677292 71 45 44
4.516369 12.814474 80.241196 72 45 44
4.492088 12.917623 79.809792 72 44 44
4.456151 12.984948 79.171310 72 44 44
4.420785 13.051205 78.542969 71 43 43
4.374494 13.082083 77.720528 72 42 43
4.340407 13.146378 77.114914 74 43 45
4.317976 13.243813 76.716385 76 44 47
4.284760 13.306040 76.126259 76 45 48
4.262899 13.401417 75.737862 76 45 49
4.209211 13.393843 74.783989 76 45 49
4.177641 13.453388 74.223106 77 45 48
4.167223 13.579440 74.038010 77 44 48
4.146543 13.670857 73.670578 76 43 46
4.146543 13.829666 73.670578 75 42 45
4.146543 13.988475 73.670578 73 41 44
4.136279 14.112266 73.488220 72 41 43
4.075748 14.061843 72.412788 72 40 43
4.065831 14.183347 72.236603 72 41 43
4.036369 14.235158 71.713142 73 43 44
4.036369 14.389748 71.713142 73 43 45
4.036369 14.544337 71.713142 73 44 46
4.016963 14.628259 71.368370 73 44 46
4.007330 14.746655 71.197220 73 45 47
3.997743 14.864487 71.026894 73 45 47
3.969256 14.910583 70.520767 73 45 47
3.904338 14.816251 69.367386 73 45 47
3.886178 14.896175 69.044746 72 45 47
3.886178 15.045012 69.044746 72 45 48
3.886178 15.193850 69.044746 71 44 47
3.913482 15.450481 69.529839 72 44 47
3.895237 15.527636 69.205696 73 44 47
3.877162 15.604073 68.884552 73 43 47
3.868187 15.716101 68.725098 73 43 47
3.868187 15.864249 68.725098 73 44 48
3.868187 16.012398 68.725098 72 44 48
3.859253 16.123222 68.566376 72 44 47
3.868187 16.308693 68.725098 70 44 46
3.868187 16.456841 68.725098 68 43 45
3.877162 16.643517 68.884552 65 42 42
3.877162 16.792007 68.884552 59 37 38
3.877162 16.940500 68.884552 55 33 33
3.877162 17.088991 68.884552 54 32 33
3.868187 17.197582 68.725098 55 32 34
3.868187 17.345730 68.725098 58 33 34
3.859253 17.453476 68.566376 61 34 36
3.850361 17.560726 68.408394 64 35 38
3.841510 17.667484 68.251129 66 37 40
3.832699 17.773750 68.094589 68 38 41
3.789244 17.717360 67.322548 70 40 42
3.738382 17.622719 66.418884 71 41 44
3.705225 17.608328 65.829803 71 42 45
3.680742 17.632942 65.394806 71 42 45
3.680742 17.773911 65.394806 69 42 45
3.656579 17.797277 64.965523 68 41 45
3.640646 17.859161 64.682442 66 38 42
3.632732 17.959469 64.541832 67 38 42
3.624852 18.059340 64.401825 69 41 44
3.632732 18.237730 64.541832 70 42 45
3.648595 18.457108 64.823669 70 42 44
3.697028 18.843706 65.684166 69 41 43
3.772137 19.371006 67.018608 68 40 42
4.664131 -11.856571 79.809792 50 35 36
4.651627 -11.653202 79.595825 49 34 35
4.639189 -11.450921 79.383003 49 33 35
4.639189 -11.279799 79.383003 49 33 35
4.626818 -11.079052 79.171310 49 34 36
4.626818 -10.908385 79.171310 50 35 37
4.626818 -10.737719 79.171310 52 35 38
4.614512 -10.538948 78.960747 54 36 39
4.639189 -10.424183 79.383003 56 37 39
4.714828 -10.420230 80.677292 57 37 40
4.714828 -10.246317 80.677292 57 37 40
4.714828 -10.072404 80.677292 57 37 41
4.727675 -9.925462 80.897118 58 38 41
4.753580 -9.804505 81.340393 59 38 42
4.860103 -9.844943 83.163147 59 39 42
4.887484 -9.720125 83.631668 59 39 43
4.929138 -9.621149 84.344437 59 40 42
4.929138 -9.439331 84.344437 58 40 43
4.915174 -9.231288 84.105499 58 40 42
4.873755 -8.973721 83.396751 58 40 42
4.846527 -8.744817 82.930847 58 39 42
4.846527 -8.566046 82.930847 58 38 42
4.860103 -8.410769 83.163147 58 38 42
4.860103 -8.231497 83.163147 60 38 43
4.860103 -8.052225 83.163147 61 38 44
4.846527 -7.850962 82.930847 62 40 46
4.846527 -7.672192 82.930847 64 42 47
4.846527 -7.493421 82.930847 65 43 47
4.833027 -7.294274 82.699837 66 43 47
4.846527 -7.135879 82.930847 66 43 47
4.860103 -6.976595 83.163147 66 43 46
4.873755 -6.816417 83.396751 64 43 45
4.873755 -6.636642 83.396751 63 43 44
4.846527 -6.420795 82.930847 63 42 44
4.846527 -6.242024 82.930847 64 43 45
4.860103 -6.080237 83.163147 66 43 46
4.860103 -5.900965 83.163147 68 44 47
4.819602 -5.674013 82.470116 71 45 48
4.819602 -5.496235 82.470116 73 46 50
4.792974 -5.289073 82.014481 73 47 50
4.792974 -5.112278 82.014481 73 48 51
4.792974 -4.935482 82.014481 73 49 51
4.860103 -4.825335 83.163147 73 49 51
4.901290 -4.685437 83.867912 72 49 50
4.915174 -4.517406 84.105499 71 49 49
4.915174 -4.336103 84.105499 70 49 48
4.901290 -4.143064 83.867912 70 48 47
4.901290 -3.962273 83.867912 69 46 46
4.901290 -3.781482 83.867912 69 44 45
4.873755 -3.580462 83.396751 69 44 45
4.860103 -3.391161 83.163147 68 44 45
4.846527 -3.202918 82.930847 70 45 46
4.846527 -3.024147 82.930847 72 47 48
4.792974 -2.813935 82.014481 73 47 48
4.766639 -2.622650 81.563850 73 47 48
4.753580 -2.440122 81.340393 74 46 48
4.753580 -2.264780 81.340393 74 46 49
4.753580 -2.089437 81.340393 74 46 50
4.753580 -1.914095 81.340393 74 46 51
4.779770 -1.748332 81.788544 74 47 51
5.088143 -1.673444 87.065224 73 48 52
5.133304 -1.498948 87.837997 72 48 52
5.163859 -1.317394 88.360840 72 48 52
5.163859 -1.126918 88.360840 72 49 52
5.133304 -0.930901 87.837997 72 49 51
5.088143 -0.735028 87.065224 72 49 50
5.073265 -0.545744 86.810646 72 48 50
5.043769 -0.356525 86.305939 71 47 48
4.957304 -0.167556 84.826408 71 46 47
4.915174 0.015171 84.105499 70 45 47
4.887484 0.195368 83.631668 71 45 47
4.887484 0.375649 83.631668 74 47 50
4.873755 0.554369 83.396751 75 49 53
4.860103 0.732088 83.163147 77 51 54
4.860103 0.911360 83.163147 77 51 55
4.792974 1.075568 82.014481 77 51 54
4.792974 1.252363 82.014481 76 50 53
4.819602 1.437099 82.470116 75 49 52
4.957304 3.123873 84.826408 77 50 52
4.957304 3.306730 84.826408 79 50 53
4.929138 3.469760 84.344437 81 50 55
4.929138 3.651578 84.344437 83 51 57
4.929138 3.833396 84.344437 85 52 59
4.929138 4.015214 84.344437 88 54 61
4.929138 4.197032 84.344437 90 55 63
4.915174 4.366446 84.105499 92 56 66
4.985795 4.796999 85.313911 93 55 66
4.985795 4.980906 85.313911 93 54 65
5.000163 5.179699 85.559776 93 54 64
5.000163 5.364137 85.559776 93 54 65
5.000163 5.548575 85.559776 96 54 65
4.985795 5.716539 85.313911 99 55 66
4.971509 5.883540 85.069466 100 56 67
4.957304 6.049587 84.826408 102 56 67
4.929138 6.197032 84.344437 106 58 71
4.873755 6.307178 83.396751 110 61 74
4.860103 6.468783 83.163147 112 63 76
4.860103 6.648055 83.163147 113 64 77
4.887484 6.865790 83.631668 114 65 78
4.887484 7.046072 83.631668 114 67 79
4.887484 7.226354 83.631668 115 68 80
4.887484 7.406635 83.631668 115 70 82
4.887484 7.586917 83.631668 115 71 83
4.901290 7.789140 83.867912 114 71 83
4.915174 7.992508 84.105499 113 71 83
4.929138 8.197033 84.344437 110 69 82
4.929138 8.378851 84.344437 109 68 81
4.943182 8.585058 84.584732 108 69 82
4.943182 8.767394 84.584732 108 69 82
4.929138 8.924305 84.344437 107 70 82
4.929138 9.106124 84.344437 106 72 83
4.887484 9.209452 83.631668 105 74 84
4.819602 9.259321 82.470116 102 73 83
4.740592 9.282392 81.118149 96 71 79
4.740592 9.457255 81.118149 86 63 70
4.714828 9.579770 80.677292 72 52 57
4.689342 9.700961 80.241196 58 39 44
4.689342 9.873934 80.241196 49 31 34
4.664131 9.992891 79.809792 48 29 31
4.577986 9.977191 78.335732 49 30 32
4.553955 10.092796 77.924522 52 32 34
4.530174 10.207194 77.517601 54 34 37
4.518377 10.347280 77.315735 57 37 39
4.530174 10.541398 77.517601 60 39 41
4.553955 10.764712 77.924522 62 41 42
4.626818 11.107615 79.171310 64 41 42
4.714828 11.492814 80.677292 64 41 41
4.766639 11.794932 81.563850 65 40 40
4.792974 12.036894 82.014481 65 39 40
4.846527 12.350155 82.930847 66 40 41
4.846527 12.528926 82.930847 67 41 43
4.833027 12.672299 82.699837 70 43 44
4.779770 12.708968 81.788544 72 45 45
4.753580 12.814672 81.340393 73 46 46
4.714828 12.884118 80.677292 74 46 46
4.676702 12.952440 80.024910 73 45 45
4.651627 13.054572 79.595825 72 44 44
4.626818 13.155615 79.171310 72 43 44
4.542033 13.082083 77.720528 73 43 45
4.506640 13.146378 77.114914 74 43 46
4.471796 13.209679 76.518669 76 44 48
4.437485 13.272009 75.931564 76 45 49
4.403697 13.333389 75.353409 76 45 50
4.359439 13.360189 74.596085 76 45 50
4.326825 13.419839 74.038010 76 45 50
4.305351 13.512049 73.670578 76 44 49
4.294694 13.637018 73.488220 75 43 47
4.294694 13.795434 73.488220 74 42 46
4.294694 13.953850 73.488220 73 41 44
4.284091 14.077421 73.306770 72 40 43
4.221549 14.027629 72.236603 71 39 42
4.190958 14.080568 71.713142 73 41 44
4.190958 14.235158 71.713142 74 42 45
4.190958 14.389748 71.713142 73 43 45
4.180860 14.509291 71.540344 73 43 46
4.160807 14.593179 71.197220 73 45 47
4.150853 14.711377 71.026894 73 45 47
4.140947 14.829011 70.857384 73 45 48
4.121274 14.910583 70.520767 73 45 48
4.053871 14.816251 69.367386 73 45 48
4.044421 14.930899 69.205696 72 45 47
4.035016 15.045012 69.044746 71 44 47
4.044421 15.229267 69.205696 71 43 46
4.044421 15.378451 69.205696 71 42 46
4.044421 15.527636 69.205696 71 42 46
4.016335 15.567952 68.725098 72 41 46
4.016335 15.716101 68.725098 72 42 47
4.007059 15.827611 68.566376 72 43 48
4.007059 15.975417 68.566376 72 43 48
3.997826 16.086073 68.408394 71 43 48
3.997826 16.233538 68.408394 70 43 47
4.016335 16.456841 68.725098 67 42 45
4.016335 16.604990 68.725098 64 41 43
4.016335 16.753138 68.725098 61 38 40
4.016335 16.901285 68.725098 57 35 36
4.016335 17.049435 68.725098 57 34 35
4.016335 17.197582 68.725098 58 34 36
4.007059 17.305672 68.566376 60 34 36
3.997826 17.413261 68.408394 63 36 38
3.988636 17.520357 68.251129 65 37 39
3.979488 17.626963 68.094589 67 38 40
3.970381 17.733078 67.938766 68 39 41
3.907785 17.597647 66.867661 70 40 43
3.855681 17.505234 65.976097 70 41 44
3.813311 17.453529 65.251083 71 42 45
3.788333 17.478943 64.823669 70 42 45
3.788333 17.618681 64.823669 69 42 45
3.780080 17.719728 64.682442 68 41 44
3.771862 17.820337 64.541832 66 40 42
3.763680 17.920511 64.401825 66 39 42
3.763680 18.059340 64.401825 68 40 44
3.763680 18.198168 64.401825 69 41 44
3.780080 18.416897 64.682442 69 42 44
3.796623 18.637539 64.965523 69 41 43
4.823208 -11.824784 79.595825 51 35 36
4.810312 -11.622045 79.383003 49 34 35
4.797484 -11.420385 79.171310 48 33 34
4.797484 -11.249719 79.171310 48 33 34
4.797484 -11.079052 79.171310 49 34 35
4.797484 -10.908385 79.171310 50 35 36
4.797484 -10.737719 79.171310 52 36 38
4.784725 -10.538948 78.960747 55 37 39
4.797484 -10.396385 79.171310 57 38 40
4.888741 -10.420230 80.677292 57 38 41
4.888741 -10.246317 80.677292 57 38 41
4.902061 -10.099849 80.897118 58 38 41
4.902061 -9.925462 80.897118 58 38 40
4.915455 -9.777718 81.118149 58 38 41
5.011300 -9.790096 82.699837 58 38 41
5.053530 -9.692822 83.396751 58 39 42
5.096478 -9.593894 84.105499 58 39 42
5.096478 -9.412591 84.105499 58 40 43
5.082081 -9.205211 83.867912 58 40 43
5.039374 -8.948585 83.163147 59 40 43
5.025298 -8.744817 82.930847 59 40 43
5.025298 -8.566046 82.930847 59 39 43
5.039374 -8.410769 83.163147 59 38 43
5.053530 -8.254620 83.396751 60 37 43
5.053530 -8.074844 83.396751 61 38 43
5.025298 -7.850962 82.930847 63 40 45
5.011300 -7.650820 82.699837 66 43 48
5.011300 -7.472548 82.699837 68 45 49
4.969770 -7.233825 82.014481 68 45 48
4.969770 -7.057029 82.014481 68 44 47
5.011300 -6.937728 82.699837 67 44 46
5.025298 -6.778337 82.930847 65 43 45
5.011300 -6.581182 82.699837 64 43 44
4.997380 -6.385124 82.470116 64 42 43
4.997380 -6.207346 82.470116 65 42 44
5.011300 -6.046364 82.699837 66 43 45
4.997380 -5.851790 82.470116 69 44 47
4.983536 -5.658295 82.241669 71 45 49
4.969770 -5.465869 82.014481 73 46 50
4.969770 -5.289073 82.014481 74 47 51
4.969770 -5.112278 82.014481 74 48 51
4.969770 -4.935482 82.014481 74 48 51
5.039374 -4.825335 83.163147 74 49 51
5.067765 -4.672238 83.631668 73 49 51
5.082081 -4.504645 83.867912 72 49 50
5.082081 -4.323854 83.867912 71 49 49
5.067765 -4.131393 83.631668 70 47 47
5.067765 -3.951111 83.631668 69 45 45
5.053530 -3.760237 83.396751 69 44 45
5.053530 -3.580462 83.396751 69 44 45
5.039374 -3.391161 83.163147 70 44 46
5.025298 -3.202918 82.930847 71 46 48
5.025298 -3.024147 82.930847 73 48 49
4.997380 -2.829568 82.470116 73 48 48
4.956079 -2.629875 81.788544 72 46 47
4.942463 -2.446826 81.563850 72 45 46
4.928922 -2.264780 81.340393 73 45 47
4.928922 -2.089437 81.340393 74 46 49
4.928922 -1.914095 81.340393 74 46 50
4.956079 -1.748332 81.788544 74 47 51
5.291343 -1.678366 87.321304 74 48 52
5.322653 -1.498948 87.837997 72 48 52
5.354335 -1.317394 88.360840 71 48 52
5.354335 -1.126918 88.360840 71 48 52
5.322653 -0.930901 87.837997 71 49 51
5.260399 -0.732879 86.810646 72 49 51
5.229816 -0.542571 86.305939 72 48 51
5.184601 -0.353442 85.559776 71 48 49
5.140162 -0.167556 84.826408 71 46 48
5.096478 0.015171 84.105499 70 45 46
5.067765 0.195368 83.631668 71 44 47
5.067765 0.375649 83.631668 73 46 49
5.053530 0.554369 83.396751 75 49 52
5.039374 0.732088 83.163147 77 51 53
5.039374 0.911360 83.163147 78 51 54
4.969770 1.075568 82.014481 77 51 53
4.956079 1.248913 81.788544 77 50 52
4.969770 1.429159 82.014481 75 48 51
5.140162 3.123873 84.826408 77 51 52
5.110956 3.287942 84.344437 79 51 54
5.096478 3.459930 84.105499 81 51 55
5.096478 3.641234 84.105499 83 52 57
5.110956 3.833396 84.344437 86 53 59
5.110956 4.015214 84.344437 89 54 61
5.096478 4.185143 84.105499 91 56 63
5.199585 5.194669 85.807060 94 55 64
5.199585 5.379640 85.807060 95 55 65
5.199585 5.564611 85.807060 98 56 66
5.184601 5.733013 85.559776 100 57 67
5.184601 5.917451 85.559776 102 57 69
5.154890 6.066921 85.069466 105 59 70
5.110956 6.197032 84.344437 108 60 72
5.067765 6.324945 83.631668 111 62 74
5.025298 6.450714 82.930847 113 63 76
5.025298 6.629485 82.930847 114 65 77
5.067765 6.865790 83.631668 115 66 78
5.067765 7.046072 83.631668 115 66 79
5.039374 7.185870 83.163147 114 67 79
5.039374 7.365141 83.163147 114 69 81
5.053530 7.565605 83.396751 114 72 83
5.067765 7.767199 83.631668 114 73 84
5.067765 7.947480 83.631668 112 72 85
5.082081 8.150722 83.867912 110 70 84
5.110956 8.378851 84.344437 109 70 84
5.110956 8.560669 84.344437 108 70 84
5.110956 8.742487 84.344437 108 71 84
5.110956 8.924305 84.344437 108 72 85
5.096478 9.080327 84.105499 107 74 85
5.067765 9.209452 83.631668 107 76 86
4.983536 9.233671 82.241669 104 76 85
4.915455 9.282392 81.118149 96 72 80
4.902061 9.431486 80.897118 85 63 70
4.888741 9.579770 80.677292 72 52 57
4.862315 9.700961 80.241196 59 40 45
4.862315 9.873934 80.241196 49 32 34
4.823208 9.966101 79.595825 48 30 31
4.734360 9.950935 78.129585 49 30 32
4.697276 10.040092 77.517601 52 32 34
4.685043 10.180614 77.315735 55 34 36
4.685043 10.347280 77.315735 58 36 38
4.685043 10.513947 77.315735 61 38 40
4.685043 10.680614 77.315735 63 40 42
4.721933 10.932692 77.924522 65 41 43
4.797484 11.278281 79.171310 66 41 42
4.875492 11.635110 80.458649 67 41 42
4.942463 11.970757 81.563850 67 41 42
