ply
format ascii 1.0
element vertex 1141
property float x
property float y
property float z
property uchar red
property uchar green
property uchar blue
end_header
-9.965795 6.971515 53.825710 162 148 170
-9.965356 7.087233 53.823341 162 148 169
-9.964898 7.202927 53.820869 161 148 169
-9.964397 7.318579 53.818165 160 149 169
-9.963853 7.434186 53.815224 159 149 168
-9.963286 7.549765 53.812164 158 148 168
-9.962740 7.665345 53.809212 157 146 168
-9.962275 7.780976 53.806698 156 144 169
-9.961962 7.896717 53.805008 155 143 168
-9.961878 8.012635 53.804558 154 142 167
-9.962099 8.128800 53.805752 153 142 166
-9.962692 8.245278 53.808956 152 143 166
-9.963708 8.362125 53.814445 151 143 165
-9.965179 8.479383 53.822388 149 143 163
-9.967106 8.597067 53.832794 148 143 161
-9.969464 8.715175 53.845535 147 142 159
-9.972201 8.833672 53.860313 146 141 158
-9.975232 8.952497 53.876682 145 142 159
-9.978445 9.071557 53.894035 145 142 160
-9.981710 9.190742 53.911674 145 143 161
-9.984886 9.309918 53.928829 144 142 161
-9.987821 9.428941 53.944679 143 141 160
-9.990368 9.547662 53.958435 141 139 158
-9.992389 9.665933 53.969349 140 138 157
-9.993760 9.783615 53.976757 140 138 157
-10.646264 -12.907029 58.178318 169 158 186
-10.612607 -12.741208 57.994392 170 158 187
-10.580677 -12.578234 57.819908 170 157 186
-10.550593 -12.418185 57.655514 170 155 185
-10.522439 -12.261093 57.501659 169 153 183
-10.496265 -12.106948 57.358624 168 152 181
-10.472089 -11.955701 57.226509 168 150 179
-10.449894 -11.807261 57.105221 169 150 178
-10.429625 -11.661499 56.994457 169 149 177
-10.411197 -11.518250 56.893753 171 149 177
-10.394486 -11.377316 56.802441 173 151 178
-10.379351 -11.238482 56.719727 174 151 178
-10.365612 -11.101499 56.644646 173 150 177
-10.353080 -10.966117 56.576160 172 149 176
-10.341546 -10.832077 56.513134 171 147 175
-10.330795 -10.699120 56.454384 170 146 174
-10.320615 -10.567000 56.398754 170 145 173
-10.310792 -10.435481 56.345074 169 145 172
-10.301126 -10.304351 56.292252 169 144 171
-10.291429 -10.173418 56.239262 169 143 169
-10.281531 -10.042518 56.185173 169 142 168
-10.271284 -9.911513 56.129181 170 142 167
-10.260560 -9.780295 56.070572 171 142 166
-10.249248 -9.648777 56.008755 171 142 165
-10.237263 -9.516899 55.943260 171 142 165
-10.224536 -9.384623 55.873711 171 143 164
-10.211015 -9.251926 55.799824 170 143 164
-10.196667 -9.118811 55.721420 169 144 163
-10.181470 -8.985282 55.638374 169 145 163
-10.165419 -8.851368 55.550655 169 145 163
-10.148519 -8.717103 55.458302 170 145 163
-10.130788 -8.582533 55.361408 171 147 164
-10.112263 -8.447717 55.260178 172 147 165
-10.092991 -8.312721 55.154861 171 147 164
-10.073035 -8.177626 55.045811 170 146 165
-10.052477 -8.042518 54.933468 170 147 166
-10.031412 -7.907495 54.818356 171 147 167
-10.009952 -7.772661 54.701080 170 146 167
-9.988229 -7.638132 54.582371 168 144 166
-9.966388 -7.504026 54.463017 169 144 168
-9.944590 -7.370466 54.343899 171 145 170
-9.923010 -7.237579 54.225971 172 145 171
-9.901833 -7.105490 54.110245 173 145 172
-9.881250 -6.974319 53.997768 174 146 172
-9.861463 -6.844185 53.889637 174 146 173
-9.842669 -6.715195 53.786934 175 146 173
-9.825071 -6.587450 53.690769 175 146 174
-9.808864 -6.461034 53.602200 175 146 175
-9.794233 -6.336022 53.522255 175 147 176
-9.781362 -6.212471 53.451912 175 146 176
-9.770412 -6.090421 53.392078 174 146 175
-9.761535 -5.969896 53.343563 173 145 174
-9.754857 -5.850901 53.307076 172 145 173
-9.750484 -5.733418 53.283180 172 145 172
-9.748502 -5.617414 53.272343 174 146 173
-9.748960 -5.502836 53.274853 175 146 173
-9.751883 -5.389608 53.290821 175 146 173
-9.757259 -5.277640 53.320206 176 146 174
-9.765046 -5.166819 53.362751 177 146 175
-9.775163 -5.057021 53.418037 177 146 175
-9.787492 -4.948102 53.485413 177 147 176
-9.801881 -4.839911 53.564045 178 147 177
-9.818149 -4.732285 53.652939 179 148 177
-9.836072 -4.625056 53.750889 179 149 176
-9.855409 -4.518052 53.856556 180 149 176
-9.875893 -4.411104 53.968491 180 149 177
-9.897242 -4.304050 54.085155 180 149 178
-9.919165 -4.196737 54.204960 180 149 179
-9.941371 -4.089023 54.326309 179 149 179
-9.963578 -3.980786 54.447666 177 148 178
-9.985516 -3.871922 54.567547 175 148 178
-10.006933 -3.762345 54.684589 173 147 178
-10.027611 -3.651994 54.797581 173 146 178
-10.047354 -3.540827 54.905472 173 145 178
-10.066006 -3.428823 55.007397 173 144 178
-10.083438 -3.315978 55.102661 173 142 177
-10.099561 -3.202307 55.190765 174 141 175
-10.114309 -3.087837 55.271362 174 140 173
-10.127649 -2.972606 55.344257 174 141 173
-10.139565 -2.856660 55.409374 173 141 173
-10.150064 -2.740050 55.466751 173 141 172
-10.159166 -2.622832 55.516491 173 141 173
-10.166901 -2.505063 55.558758 173 141 174
-10.173307 -2.386800 55.593765 173 142 174
-10.178433 -2.268101 55.621780 174 142 175
-10.182332 -2.149022 55.643082 175 144 176
-10.185062 -2.029619 55.658005 176 146 177
-10.186690 -1.909944 55.666897 175 146 177
-10.187288 -1.790050 55.670166 175 146 176
-10.186937 -1.669986 55.668247 175 146 176
-10.185726 -1.549800 55.661629 175 147 176
-10.183755 -1.429536 55.650860 173 146 173
-10.181131 -1.309234 55.636520 171 145 170
-10.177967 -1.188930 55.619228 170 146 168
-10.174380 -1.068657 55.599628 168 145 167
-10.170492 -0.948441 55.578381 167 146 167
-10.166419 -0.828301 55.556126 166 146 166
-10.162274 -0.708251 55.533474 164 145 164
-10.158160 -0.588302 55.510990 163 145 164
-10.154166 -0.468454 55.489170 163 145 163
-10.150371 -0.348708 55.468426 162 144 164
-10.146831 -0.229057 55.449078 163 144 165
-10.143587 -0.109492 55.431355 163 144 166
-10.140657 0.009996 55.415348 163 144 166
-10.138046 0.129420 55.401077 164 143 166
-10.135737 0.248789 55.388458 164 143 167
-10.133698 0.368114 55.377319 164 143 167
-10.131885 0.487401 55.367401 164 143 168
-10.130239 0.606656 55.358410 165 143 169
-10.128701 0.725880 55.350006 166 144 170
-10.127205 0.845071 55.341835 165 143 169
-10.125685 0.964225 55.333523 165 143 169
-10.124078 1.083333 55.324745 165 145 170
-10.122325 1.202386 55.315163 167 146 171
-10.120378 1.321373 55.304523 168 147 171
-10.118193 1.440280 55.292583 168 148 171
-10.115743 1.559095 55.279194 169 148 172
-10.113002 1.677803 55.264214 170 148 172
-10.109963 1.796394 55.247612 170 148 173
-10.106626 1.914857 55.229370 170 148 173
-10.102991 2.033182 55.209511 169 148 174
-10.099074 2.151360 55.188110 169 147 175
-10.094892 2.269387 55.165253 168 147 175
-10.090460 2.387256 55.141033 168 147 175
-10.085798 2.504964 55.115559 168 147 175
-10.080926 2.622507 55.088932 169 147 174
-10.075856 2.739882 55.061226 169 147 173
-10.070599 2.857083 55.032497 169 148 173
-10.065159 2.974108 55.002769 169 149 173
-10.059537 3.090948 54.972050 170 150 174
-10.053727 3.207595 54.940300 171 151 174
-10.047714 3.324039 54.907444 169 150 173
-10.041484 3.440266 54.873394 168 150 173
-10.035015 3.556262 54.838047 167 151 173
-10.028290 3.672012 54.801292 167 150 174
-10.021284 3.787497 54.763008 167 150 174
-10.013987 3.902704 54.723129 167 150 174
-10.006386 4.017617 54.681595 167 149 172
-9.998482 4.132225 54.638401 167 148 172
-9.990286 4.246523 54.593613 167 148 172
-9.981823 4.360512 54.547367 168 148 172
-9.973133 4.474199 54.499882 168 148 172
-9.964272 4.587603 54.451458 169 148 172
-9.955309 4.700749 54.402477 169 147 172
-9.946328 4.813677 54.353401 170 147 172
-9.937426 4.926431 54.304749 170 147 172
-9.928699 5.039065 54.257065 170 147 172
-9.920260 5.151642 54.210949 171 146 171
-9.912210 5.264227 54.166958 171 146 171
-9.904650 5.376889 54.125641 171 147 171
-9.897666 5.489692 54.087479 169 145 170
-9.891334 5.602699 54.052872 166 143 168
-9.885706 5.715965 54.022118 165 142 167
-9.880816 5.829535 53.995403 162 140 165
-9.876676 5.943439 53.972775 159 139 165
-9.873271 6.057696 53.954166 159 139 165
-9.870566 6.172312 53.939388 159 139 166
-9.868505 6.287274 53.928123 158 140 166
-9.867013 6.402557 53.919968 158 139 165
-9.866005 6.518124 53.914459 159 141 165
-9.865387 6.633930 53.911083 160 143 167
-9.865064 6.749923 53.909313 160 144 167
-9.864942 6.866048 53.908653 160 145 167
-9.864942 6.982257 53.908653 161 146 167
-9.864994 7.098504 53.908939 161 148 167
-9.865049 7.214754 53.909237 161 148 167
-9.865080 7.330986 53.909405 160 148 167
-9.865081 7.447197 53.909409 159 148 167
-9.865068 7.563399 53.909344 158 148 167
-9.865083 7.679620 53.909424 157 146 168
-9.865179 7.795907 53.909946 156 144 168
-9.865425 7.912316 53.911293 155 143 167
-9.865896 8.028914 53.913868 154 142 166
-9.866664 8.145768 53.918064 153 142 166
-9.867795 8.262944 53.924244 152 143 165
-9.869342 8.380501 53.932697 150 143 164
-9.871335 8.498477 53.943588 149 143 163
-9.873782 8.616897 53.956963 148 142 161
-9.876661 8.735757 53.972694 147 142 159
-9.879925 8.855028 53.990528 146 141 159
-9.883492 8.974652 54.010017 145 142 160
-9.887257 9.094543 54.030598 146 143 161
-9.891099 9.214594 54.051590 146 144 163
-9.894876 9.334674 54.072231 145 143 162
-9.898444 9.454644 54.091732 143 141 160
-9.901658 9.574355 54.109295 141 140 158
-9.904382 9.693663 54.124176 139 139 157
-9.906495 9.812428 54.135723 139 138 157
-10.540128 -12.930677 58.284912 168 156 186
-10.507414 -12.765291 58.104012 168 156 186
-10.476361 -12.602683 57.932297 169 155 186
-10.447083 -12.442928 57.770390 169 154 185
-10.419660 -12.286060 57.618748 168 152 183
-10.394140 -12.132068 57.477631 168 150 181
-10.370542 -11.980902 57.347134 167 149 178
-10.348840 -11.832468 57.227131 167 148 176
-10.328980 -11.686636 57.117310 167 147 174
-10.310874 -11.543240 57.017185 169 148 174
-10.294400 -11.402083 56.926090 172 150 175
-10.279410 -11.262945 56.843197 172 150 176
-10.265731 -11.125586 56.767551 172 149 176
-10.253169 -10.989750 56.698090 171 148 175
-10.241522 -10.855183 56.633678 170 147 174
-10.230577 -10.721630 56.573162 170 145 174
-10.220127 -10.588850 56.515373 170 145 173
-10.209963 -10.456612 56.459164 170 144 173
-10.199890 -10.324709 56.403461 171 144 173
-10.189729 -10.192957 56.347275 171 143 172
-10.179319 -10.061203 56.289711 172 142 170
-10.168518 -9.929314 56.229984 173 142 169
-10.157207 -9.797192 56.167439 173 141 167
-10.145285 -9.664755 56.101505 173 141 166
-10.132674 -9.531957 56.031776 172 142 164
-10.119315 -9.398764 55.957901 171 142 164
-10.105165 -9.265163 55.879654 170 143 164
-10.090199 -9.131163 55.796898 170 144 164
-10.074404 -8.996777 55.709549 170 145 163
-10.057781 -8.862040 55.617626 169 144 162
-10.040344 -8.726990 55.521206 169 144 162
-10.022119 -8.591681 55.420422 172 146 164
-10.003147 -8.456176 55.315514 172 147 164
-9.983486 -8.320548 55.206795 171 146 163
-9.963206 -8.184880 55.094646 170 144 162
-9.942391 -8.049264 54.979546 170 144 163
-9.921144 -7.913798 54.862049 170 144 164
-9.899581 -7.778591 54.742813 169 144 164
-9.877838 -7.643759 54.622578 168 143 164
-9.856064 -7.509420 54.502171 168 143 165
-9.834421 -7.375700 54.382492 170 144 167
-9.813084 -7.242722 54.264500 171 145 168
-9.792235 -7.110607 54.149212 173 145 169
-9.772068 -6.979475 54.037689 174 146 170
-9.752773 -6.849437 53.930992 174 146 171
-9.734549 -6.720598 53.830215 175 146 172
-9.717586 -6.593050 53.736412 175 146 173
-9.702070 -6.466870 53.650612 174 146 174
-9.688185 -6.342128 53.573833 175 146 175
-9.676096 -6.218871 53.506981 175 146 175
-9.665960 -6.097135 53.450932 174 145 174
-9.657914 -5.976933 53.406441 173 144 174
-9.652080 -5.858266 53.374176 173 145 173
-9.648551 -5.741109 53.354664 173 146 173
-9.647403 -5.625425 53.348316 175 147 174
-9.648680 -5.511154 53.355377 176 148 175
-9.652398 -5.398217 53.375938 176 147 175
-9.658541 -5.286519 53.409908 177 146 176
-9.667062 -5.175947 53.457024 178 146 176
-9.677873 -5.066371 53.516808 179 147 177
-9.690857 -4.957649 53.588604 179 147 178
-9.705857 -4.849626 53.671558 179 148 178
-9.722691 -4.742138 53.764641 179 148 177
-9.741137 -4.635016 53.866642 179 148 177
-9.760948 -4.528089 53.976200 179 149 176
-9.781862 -4.421187 54.091850 179 149 176
-9.803597 -4.314148 54.212040 180 149 177
-9.825863 -4.206818 54.335163 180 149 177
-9.848372 -4.099058 54.459641 179 149 177
-9.870842 -3.990746 54.583889 177 148 177
-9.893006 -3.881778 54.706459 176 148 178
-9.914621 -3.772073 54.825981 175 147 179
-9.935466 -3.661569 54.941246 174 146 179
-9.955354 -3.550226 55.051224 174 146 179
-9.974132 -3.438027 55.155064 174 144 179
-9.991677 -3.324970 55.252087 174 143 178
-10.007906 -3.211072 55.341827 174 142 176
-10.022758 -3.096362 55.423958 174 140 173
-10.036206 -2.980881 55.498325 174 140 173
-10.048241 -2.864676 55.564869 174 140 172
-10.058872 -2.747801 55.623665 174 140 171
-10.068123 -2.630312 55.674816 174 140 172
-10.076028 -2.512267 55.718529 174 141 174
-10.082626 -2.393723 55.755020 173 141 174
-10.087967 -2.274738 55.784550 174 142 174
-10.092101 -2.155369 55.807411 177 146 178
-10.095084 -2.035668 55.823910 178 149 180
-10.096977 -1.915690 55.834377 177 149 178
-10.097849 -1.795485 55.839199 176 147 177
-10.097771 -1.675101 55.838760 175 148 176
-10.096826 -1.554586 55.833538 174 147 175
-10.095102 -1.433983 55.824009 172 145 172
-10.092701 -1.313333 55.810726 170 145 169
-10.089721 -1.192672 55.794250 170 145 168
-10.086274 -1.072032 55.775192 169 146 167
-10.082473 -0.951440 55.754169 167 146 166
-10.078429 -0.830920 55.731808 166 146 165
-10.074248 -0.710486 55.708687 166 148 166
-10.070030 -0.590150 55.685368 166 148 166
-10.065867 -0.469916 55.662342 164 146 164
-10.061836 -0.349787 55.640053 163 145 163
-10.057999 -0.229758 55.618828 163 144 164
-10.054401 -0.109823 55.598938 163 143 164
-10.051070 0.010026 55.580521 164 143 164
-10.048018 0.129799 55.563644 164 143 165
-10.045239 0.249507 55.548279 164 143 166
-10.042713 0.369157 55.534306 164 143 166
-10.040404 0.488758 55.521542 165 143 167
-10.038269 0.608314 55.509731 166 144 169
-10.036253 0.727829 55.498585 167 144 170
-10.034301 0.847300 55.487789 165 143 169
-10.032354 0.966725 55.477024 163 143 168
-10.030354 1.086098 55.465961 164 144 170
-10.028244 1.205411 55.454296 166 145 171
-10.025979 1.324652 55.441769 167 146 171
-10.023515 1.443811 55.428139 167 147 171
-10.020819 1.562875 55.413231 168 147 171
-10.017865 1.681831 55.396900 169 147 172
-10.014638 1.800668 55.379059 169 147 172
-10.011132 1.919375 55.359673 169 147 172
-10.007343 2.037940 55.338718 169 146 172
-10.003277 2.156355 55.316231 168 146 173
-9.998942 2.274612 55.292263 168 145 173
-9.994349 2.392704 55.266857 167 145 173
-9.989510 2.510624 55.240101 168 146 173
-9.984438 2.628368 55.212055 168 146 173
-9.979144 2.745930 55.182781 168 146 173
-9.973632 2.863303 55.152298 168 147 172
-9.967905 2.980480 55.120632 168 148 172
-9.961964 3.097455 55.087776 169 149 173
-9.955802 3.214216 55.053703 169 150 173
-9.949409 3.330753 55.018349 169 149 172
-9.942770 3.447052 54.981640 168 149 172
-9.935872 3.563101 54.943493 167 149 173
-9.928700 3.678883 54.903835 166 149 173
-9.921240 3.794384 54.862583 166 149 173
-9.913484 3.909590 54.819691 165 148 173
-9.905429 4.024491 54.775150 166 148 172
-9.897084 4.139077 54.729004 166 147 171
-9.888466 4.253348 54.681347 166 147 171
-9.879607 4.367306 54.632359 167 148 171
-9.870552 4.480964 54.582287 167 148 171
-9.861362 4.594344 54.531467 168 147 171
-9.852111 4.707475 54.480312 168 147 171
-9.842885 4.820398 54.429291 169 146 171
-9.833781 4.933162 54.378952 171 148 172
-9.824902 5.045825 54.329849 171 149 172
-9.816352 5.158448 54.282570 170 146 170
-9.808238 5.271103 54.237701 169 145 169
-9.800654 5.383855 54.195770 170 145 170
-9.793691 5.496775 54.157261 169 145 170
-9.787416 5.609922 54.122559 167 143 168
-9.781882 5.723355 54.091961 164 141 166
-9.777122 5.837117 54.065639 161 141 164
-9.773143 5.951241 54.043636 159 139 164
-9.769933 6.065748 54.025879 158 139 164
-9.767452 6.180640 54.012165 158 139 165
-9.765646 6.295907 54.002174 157 139 163
-9.764439 6.411525 53.995499 156 138 162
-9.763744 6.527458 53.991661 156 138 161
-9.763471 6.643659 53.990147 158 141 163
-9.763519 6.760077 53.990417 158 142 164
-9.763799 6.876659 53.991962 159 143 165
-9.764227 6.993354 53.994331 160 144 165
-9.764733 7.110116 53.997128 160 146 166
-9.765265 7.226910 54.000072 160 148 166
-9.765793 7.343713 54.002991 160 148 166
-9.766307 7.460518 54.005833 159 148 166
-9.766822 7.577336 54.008682 158 148 167
-9.767370 7.694192 54.011711 157 146 167
-9.768005 7.811131 54.015224 156 145 167
-9.768792 7.928208 54.019573 155 143 166
-9.769801 8.045486 54.025154 153 142 166
-9.771102 8.163033 54.032349 152 142 165
-9.772761 8.280915 54.041523 151 142 164
-9.774830 8.399188 54.052959 150 143 163
-9.777341 8.517896 54.066845 148 142 162
-9.780303 8.637061 54.083225 147 142 160
-9.783700 8.756687 54.102013 146 141 159
-9.787486 8.876746 54.122948 145 141 159
-9.791587 8.997186 54.145626 145 142 160
-9.795905 9.117925 54.169502 147 144 162
-9.800320 9.238857 54.193916 147 144 163
-9.804698 9.359860 54.218124 146 143 161
-9.808900 9.480798 54.241360 143 142 159
-9.812780 9.601521 54.262821 141 140 157
-9.816208 9.721889 54.281776 139 140 156
-9.819060 9.841761 54.297546 138 139 157
-10.469227 -13.124949 58.591278 167 157 185
-10.436086 -12.957497 58.405800 166 155 184
-10.404385 -12.792616 58.228390 166 154 184
-10.374266 -12.630426 58.059826 166 152 184
-10.345837 -12.471000 57.900723 167 151 184
-10.319178 -12.314372 57.751522 167 150 182
-10.294330 -12.160527 57.612465 167 148 180
-10.271310 -12.009418 57.483631 167 147 178
-10.250092 -11.860950 57.364880 167 147 175
-10.230618 -11.714993 57.255901 167 146 173
-10.212801 -11.571380 57.156181 170 149 174
-10.196517 -11.429917 57.065052 172 150 175
-10.181620 -11.290384 56.981678 172 151 176
-10.167937 -11.152544 56.905106 171 149 175
-10.155283 -11.016149 56.834282 170 148 174
-10.143455 -10.880945 56.768089 169 147 174
-10.132248 -10.746685 56.705364 170 145 173
-10.121457 -10.613132 56.644978 170 144 174
-10.110884 -10.480066 56.585804 170 143 174
-10.100342 -10.347286 56.526806 171 143 174
-10.089660 -10.214619 56.467022 172 142 173
-10.078684 -10.081916 56.405594 173 142 171
-10.067284 -9.949058 56.341789 173 141 170
-10.055347 -9.815952 56.274994 174 141 168
-10.042786 -9.682531 56.204689 174 141 167
-10.029530 -9.548752 56.130501 173 141 165
-10.015527 -9.414591 56.052135 171 141 164
-10.000745 -9.280045 55.969406 170 143 164
-9.985166 -9.145124 55.882217 171 145 164
-9.968784 -9.009856 55.790539 171 146 164
-9.951609 -8.874274 55.694412 171 146 164
-9.933661 -8.738427 55.593967 171 145 163
-9.914973 -8.602372 55.489384 173 147 164
-9.895595 -8.466176 55.380932 173 147 164
-9.875586 -8.329916 55.268948 171 146 163
-9.855024 -8.193681 55.153881 170 143 161
-9.834000 -8.057560 55.036213 170 142 161
-9.812620 -7.921661 54.916561 170 142 162
-9.791004 -7.786090 54.795589 169 142 162
-9.769294 -7.650966 54.674084 168 142 163
-9.747636 -7.516407 54.552879 168 143 163
-9.726196 -7.382536 54.432892 169 143 164
-9.705150 -7.249475 54.315102 170 144 166
-9.684676 -7.117344 54.200523 172 145 166
-9.664965 -6.986258 54.090202 173 145 167
-9.646203 -6.856322 53.985203 174 146 168
-9.628580 -6.727635 53.886578 174 146 169
-9.612283 -6.600283 53.795368 174 146 170
-9.597488 -6.474339 53.712574 174 146 172
-9.584370 -6.349861 53.639153 174 146 173
-9.573082 -6.226891 53.575981 175 146 174
-9.563773 -6.105456 53.523884 174 146 173
-9.556568 -5.985564 53.483559 173 145 173
-9.551579 -5.867207 53.455635 173 145 174
-9.548890 -5.750355 53.440590 174 147 174
-9.548569 -5.634966 53.438793 176 148 176
-9.550651 -5.520973 53.450443 178 150 177
-9.555144 -5.408296 53.475594 178 149 177
-9.562028 -5.296833 53.514114 177 147 177
-9.571247 -5.186471 53.565716 178 147 178
-9.582716 -5.077077 53.629898 179 146 179
-9.596310 -4.968507 53.705975 179 147 179
-9.611872 -4.860605 53.793068 179 147 179
-9.629216 -4.753207 53.890137 179 147 178
-9.648122 -4.646142 53.995941 179 148 177
-9.668344 -4.539239 54.109119 179 148 176
-9.689619 -4.432330 54.228184 179 148 176
-9.711669 -4.325253 54.351585 179 148 175
-9.734203 -4.217853 54.477699 179 148 175
-9.756939 -4.109995 54.604946 178 148 175
-9.779596 -4.001556 54.731743 178 148 176
-9.801914 -3.892435 54.856647 177 148 177
-9.823649 -3.782552 54.978287 177 147 178
-9.844591 -3.671848 55.095490 177 147 179
-9.864555 -3.560286 55.207218 176 147 180
-9.883395 -3.447850 55.312660 176 146 180
-9.900995 -3.334543 55.411156 176 145 179
-9.917274 -3.220381 55.502262 176 145 178
-9.932183 -3.105398 55.585705 176 144 177
-9.945696 -2.989636 55.661324 177 143 176
-9.957809 -2.873144 55.729118 176 142 173
-9.968538 -2.755977 55.789162 175 141 171
-9.977908 -2.638192 55.841602 174 140 171
-9.985956 -2.519847 55.886639 174 142 173
-9.992723 -2.401000 55.924511 174 142 173
-9.998255 -2.281708 55.955475 174 144 174
-10.002603 -2.162027 55.979801 176 147 177
-10.005817 -2.042009 55.997795 178 149 178
-10.007956 -1.921708 56.009762 176 149 177
-10.009076 -1.801171 56.016033 175 149 176
-10.009244 -1.680447 56.016975 175 148 176
-10.008534 -1.559583 56.013000 174 148 175
-10.007025 -1.438621 56.004551 173 146 172
-10.004804 -1.317602 55.992123 172 146 170
-10.001966 -1.196562 55.976238 171 145 169
-9.998612 -1.075535 55.957478 170 146 167
-9.994847 -0.954550 55.936401 168 146 165
-9.990774 -0.833630 55.913609 167 146 165
-9.986500 -0.712794 55.889683 170 151 169
-9.982120 -0.592055 55.865170 173 154 172
-9.977725 -0.471421 55.840576 169 151 168
-9.973397 -0.350895 55.816357 165 146 164
-9.969202 -0.230477 55.792881 164 144 163
-9.965195 -0.110162 55.770451 164 143 163
-9.961411 0.010056 55.749275 164 143 163
-9.957873 0.130187 55.729477 164 143 163
-9.954588 0.250238 55.711086 165 143 164
-9.951543 0.370219 55.694050 165 143 165
-9.948718 0.490138 55.678242 165 143 166
-9.946080 0.609999 55.663479 167 144 168
-9.943586 0.729808 55.649517 167 145 169
-9.941187 0.849564 55.636089 165 143 168
-9.938831 0.969267 55.622906 163 143 168
-9.936464 1.088912 55.609661 164 144 169
-9.934034 1.208492 55.596058 164 145 170
-9.931495 1.327999 55.581848 165 145 171
-9.928801 1.447422 55.566769 166 146 171
-9.925915 1.566750 55.550617 167 146 171
-9.922807 1.685970 55.533222 168 146 171
-9.919453 1.805071 55.514458 169 146 171
-9.915840 1.924040 55.494232 169 146 171
-9.911957 2.042867 55.472500 168 145 172
-9.907798 2.161539 55.449226 167 144 172
-9.903364 2.280048 55.424416 168 145 173
-9.898660 2.398385 55.398087 168 146 174
-9.893688 2.516540 55.370262 167 145 173
-9.888456 2.634506 55.340984 166 144 172
-9.882969 2.752274 55.310268 165 144 171
-9.877229 2.869837 55.278145 166 145 171
-9.871235 2.987184 55.244602 167 147 172
-9.864988 3.104307 55.209644 169 149 173
-9.858483 3.221195 55.173237 170 150 174
-9.851712 3.337836 55.135345 169 150 173
-9.844666 3.454216 55.095909 168 149 173
-9.837336 3.570324 55.054882 166 149 172
-9.829712 3.686145 55.012218 165 148 172
-9.821790 3.801667 54.967884 165 147 172
-9.813568 3.916877 54.921867 164 147 172
-9.805054 4.031769 54.874218 164 146 171
-9.796260 4.146338 54.825005 164 145 170
-9.787213 4.260584 54.774376 164 145 170
-9.777954 4.374516 54.722553 165 146 170
-9.768532 4.488151 54.669819 166 146 170
-9.759012 4.601511 54.616543 167 146 170
-9.749474 4.714633 54.563160 167 145 170
-9.740004 4.827560 54.510166 169 146 170
-9.730701 4.940342 54.458103 170 148 171
-9.721670 5.053041 54.407558 171 148 172
-9.713013 5.165721 54.359104 170 146 171
-9.704834 5.278453 54.313335 169 144 170
-9.697228 5.391306 54.270771 170 145 171
-9.690280 5.504349 54.231884 169 145 171
-9.684057 5.617644 54.197056 167 143 169
-9.678609 5.731249 54.166565 164 142 167
-9.673965 5.845208 54.140575 162 142 165
-9.670131 5.959554 54.119118 159 140 164
-9.667093 6.074308 54.102119 158 139 163
-9.664814 6.189474 54.089359 157 139 163
-9.663233 6.305041 54.080517 156 138 161
-9.662279 6.420986 54.075176 156 138 160
-9.661864 6.537274 54.072857 155 138 158
-9.661897 6.653859 54.073036 156 138 160
-9.662280 6.770690 54.075184 157 139 161
-9.662923 6.887716 54.078777 158 141 162
-9.663738 7.004883 54.083340 160 143 164
-9.664659 7.122147 54.088493 161 145 165
-9.665629 7.239470 54.093925 161 147 165
-9.666618 7.356832 54.099461 160 147 166
-9.667612 7.474220 54.105022 159 147 167
-9.668622 7.591645 54.110672 158 147 168
-9.669677 7.709131 54.116577 157 146 168
-9.670828 7.826719 54.123020 156 144 167
-9.672133 7.944463 54.130325 155 143 167
-9.673663 8.062425 54.138889 154 142 166
-9.675484 8.180668 54.149075 153 142 165
-9.677659 8.299262 54.161251 151 142 164
-9.680242 8.418261 54.175705 149 142 163
-9.683264 8.537710 54.192616 148 141 161
-9.686738 8.657636 54.212059 146 141 160
-9.690650 8.778042 54.233952 145 141 159
-9.694957 8.898906 54.258060 144 141 159
-9.699592 9.020179 54.284000 144 142 159
-9.704461 9.141783 54.311249 147 144 161
-9.709450 9.263619 54.339169 148 145 162
-9.714430 9.385569 54.367039 146 144 160
-9.719264 9.507494 54.394093 143 142 158
-9.723811 9.629252 54.419544 141 141 157
-9.727942 9.750704 54.442665 139 140 156
-9.731535 9.871707 54.462769 138 139 156
-9.734488 9.992142 54.479290 137 138 156
-10.365952 -13.154169 58.721725 167 156 185
-10.333976 -12.987399 58.540588 166 155 184
-10.303356 -12.823097 58.367130 165 153 183
-10.274228 -12.661382 58.202126 165 151 183
-10.246695 -12.502323 58.046150 166 151 184
-10.220830 -12.345953 57.899635 167 149 183
-10.196676 -12.192260 57.762802 167 148 181
-10.174241 -12.041191 57.635715 168 148 179
-10.153502 -11.892656 57.518227 169 148 177
-10.134398 -11.746525 57.410011 170 149 176
-10.116842 -11.602633 57.310555 172 151 176
-10.100713 -11.460790 57.219185 173 151 177
-10.085865 -11.320779 57.135075 172 151 176
-10.072132 -11.182368 57.057281 170 149 175
-10.059331 -11.045316 56.984764 168 147 174
-10.047265 -10.909374 56.916412 168 146 174
-10.035736 -10.774304 56.851101 168 145 173
-10.024549 -10.639879 56.787731 169 144 174
-10.013513 -10.505885 56.725208 169 143 174
-10.002450 -10.372133 56.662540 170 142 174
-9.991199 -10.238459 56.598808 171 141 174
-9.979620 -10.104726 56.533211 172 140 172
-9.967587 -9.970821 56.465042 173 140 170
-9.955001 -9.836666 56.393745 175 141 169
-9.941783 -9.702201 56.318867 175 141 168
-9.927871 -9.567389 56.240059 173 141 166
-9.913224 -9.432220 56.157089 172 141 164
-9.897819 -9.296694 56.069817 171 143 164
-9.881642 -9.160830 55.978180 171 145 165
-9.864697 -9.024657 55.882191 172 147 166
-9.847001 -8.888221 55.781944 174 149 166
-9.828580 -8.751572 55.677589 174 148 166
-9.809472 -8.614768 55.569347 174 148 165
-9.789732 -8.477884 55.457520 174 146 163
-9.769425 -8.341000 55.342487 172 145 162
-9.748635 -8.204204 55.224712 171 142 161
-9.727454 -8.067591 55.104725 171 141 160
-9.705994 -7.931267 54.983154 170 141 161
-9.684380 -7.795344 54.860714 169 142 162
-9.662750 -7.659936 54.738186 169 142 162
-9.641259 -7.525165 54.616440 169 142 162
-9.620069 -7.391150 54.496399 170 142 162
-9.599353 -7.258011 54.379051 171 143 163
-9.579292 -7.125865 54.265408 172 143 163
-9.560069 -6.994823 54.156513 172 144 164
-9.541868 -6.864984 54.053406 173 145 165
-9.524871 -6.736442 53.957119 173 145 166
-9.509257 -6.609277 53.868671 173 145 168
-9.495195 -6.483552 53.789009 174 146 170
-9.482847 -6.359320 53.719059 174 147 172
-9.472361 -6.236616 53.659657 175 147 173
-9.463872 -6.115458 53.611568 175 147 173
-9.457499 -5.995849 53.575462 175 147 173
-9.453337 -5.877771 53.551888 175 147 174
-9.451468 -5.761192 53.541298 176 149 176
-9.451945 -5.646060 53.544006 178 151 178
-9.454801 -5.532308 53.560177 179 152 179
-9.460032 -5.419847 53.589817 179 151 179
-9.467615 -5.308578 53.632774 177 148 179
-9.477490 -5.198380 53.688713 178 147 179
-9.489565 -5.089120 53.757114 178 146 179
-9.503715 -4.980654 53.837269 178 146 179
-9.519780 -4.872822 53.928280 178 146 178
-9.537574 -4.765462 54.029079 178 146 178
-9.556876 -4.658402 54.138424 178 146 177
-9.577444 -4.551472 54.254936 178 147 176
-9.599012 -4.444503 54.377117 178 147 175
-9.621306 -4.337335 54.503410 178 147 174
-9.644039 -4.229815 54.632191 178 147 173
-9.666932 -4.121807 54.761875 178 148 174
-9.689707 -4.013192 54.890892 179 149 176
-9.712110 -3.903870 55.017799 179 149 177
-9.733901 -3.793763 55.141243 179 148 178
-9.754874 -3.682816 55.260059 178 147 178
-9.774856 -3.570993 55.373245 177 147 180
-9.793700 -3.458282 55.480000 176 147 180
-9.811300 -3.344685 55.579700 176 146 179
-9.827582 -3.230226 55.671936 177 146 179
-9.842501 -3.114937 55.756447 178 146 178
-9.856035 -2.998863 55.833122 178 145 177
-9.868191 -2.882056 55.901978 178 145 175
-9.878981 -2.764570 55.963104 177 143 173
-9.888438 -2.646463 56.016678 176 143 171
-9.896599 -2.527795 56.062908 175 143 172
-9.903506 -2.408622 56.102036 175 143 173
-9.909202 -2.289000 56.134304 174 144 174
-9.913736 -2.168986 56.159988 174 146 174
-9.917155 -2.048630 56.179356 175 147 175
-9.919508 -1.927984 56.192684 173 146 174
-9.920848 -1.807095 56.200275 173 147 174
-9.921230 -1.686011 56.202442 175 148 175
-9.920720 -1.564777 56.199554 175 148 174
-9.919387 -1.443436 56.191998 173 146 172
-9.917309 -1.322028 56.180225 173 146 171
-9.914568 -1.200590 56.164700 172 145 170
-9.911261 -1.079158 56.145966 171 145 168
-9.907480 -0.957761 56.124550 168 145 165
-9.903330 -0.836425 56.101040 167 146 165
-9.898906 -0.715170 56.075977 175 154 173
-9.894309 -0.594013 56.049938 183 162 181
-9.889629 -0.472965 56.023426 178 158 176
-9.884953 -0.352031 55.996933 169 148 166
-9.880350 -0.231212 55.970863 165 143 163
-9.875887 -0.110508 55.945576 165 142 162
-9.871609 0.010087 55.921341 165 143 163
-9.867548 0.130581 55.898335 165 143 163
-9.863725 0.250982 55.876678 165 143 163
-9.860141 0.371298 55.856377 166 144 164
-9.856787 0.491538 55.837379 166 144 165
-9.853642 0.611710 55.819557 166 144 166
-9.850671 0.731817 55.802731 166 145 168
-9.847837 0.851864 55.786678 165 145 168
-9.845093 0.971850 55.771130 164 144 168
-9.842390 1.091774 55.755821 164 144 169
-9.839676 1.211631 55.740448 164 144 170
-9.836905 1.331414 55.724751 165 145 171
-9.834029 1.451113 55.708458 166 145 171
-9.831006 1.570719 55.691334 167 145 171
-9.827797 1.690218 55.673153 168 145 171
-9.824374 1.809600 55.653767 168 145 170
-9.820711 1.928852 55.633015 168 145 171
-9.816789 2.047959 55.610790 168 144 171
-9.812592 2.166911 55.587017 167 144 172
-9.808110 2.285693 55.561634 168 145 173
-9.803342 2.404296 55.534618 168 146 174
-9.798279 2.522706 55.505936 167 145 173
-9.792924 2.640914 55.475601 165 143 171
-9.787274 2.758909 55.443600 165 143 171
-9.781330 2.876678 55.409924 166 145 171
-9.775090 2.994212 55.374577 167 146 172
-9.768554 3.111499 55.337547 169 148 174
-9.761717 3.228527 55.298820 171 150 175
-9.754576 3.345283 55.258362 170 150 174
-9.747125 3.461755 55.216156 169 149 173
-9.739364 3.577932 55.172192 167 148 172
-9.731289 3.693799 55.126446 165 147 171
-9.722903 3.809348 55.078945 164 146 170
-9.714214 3.924569 55.029724 163 145 170
-9.705239 4.039459 54.978878 162 143 169
-9.695997 4.154016 54.926525 162 143 169
-9.686525 4.268245 54.872868 162 143 169
-9.676867 4.382159 54.818157 163 144 169
-9.667082 4.495778 54.762726 164 144 169
-9.657240 4.609130 54.706970 165 144 169
-9.647419 4.722253 54.651337 166 144 169
-9.637715 4.835194 54.596363 167 145 170
-9.628222 4.948007 54.542591 169 146 171
-9.619047 5.060755 54.490612 170 147 171
-9.610291 5.173505 54.441006 170 146 171
-9.602053 5.286326 54.394344 170 146 172
-9.594429 5.399292 54.351154 171 147 173
-9.587497 5.512469 54.311886 169 145 171
-9.581323 5.625922 54.276913 167 144 169
-9.575953 5.739706 54.246494 164 143 167
-9.571416 5.853868 54.220791 162 143 165
-9.567715 5.968441 54.199821 160 142 164
-9.564831 6.083443 54.183483 159 141 163
-9.562728 6.198881 54.171574 158 140 162
-9.561347 6.314745 54.163750 157 139 160
-9.560615 6.431011 54.159599 156 138 159
-9.560445 6.547645 54.158642 156 138 158
-9.560746 6.664603 54.160347 156 138 158
-9.561424 6.781835 54.164188 156 138 159
-9.562387 6.899289 54.169643 158 139 161
-9.563551 7.016915 54.176235 160 141 163
-9.564844 7.134665 54.183563 161 144 165
-9.566214 7.252505 54.191319 161 145 165
-9.567625 7.370410 54.199314 161 146 166
-9.569062 7.488370 54.207455 160 147 168
-9.570534 7.606393 54.215794 159 147 170
-9.572067 7.724502 54.224480 158 145 169
-9.573707 7.842734 54.233765 157 143 168
-9.575510 7.961143 54.243980 155 142 167
-9.577541 8.079788 54.255486 155 141 166
-9.579866 8.198735 54.268658 153 141 165
-9.582547 8.318048 54.283848 151 141 163
-9.585635 8.437783 54.301342 149 140 162
-9.589164 8.557987 54.321327 147 140 160
-9.593146 8.678688 54.343887 145 139 158
-9.597570 8.799892 54.368950 143 139 156
-9.602400 8.921580 54.396309 143 140 157
-9.607570 9.043707 54.425594 144 141 158
-9.612991 9.166201 54.456310 146 143 160
-9.618556 9.288963 54.487831 146 144 160
-9.624138 9.411880 54.519451 145 143 159
-9.629605 9.534819 54.550426 143 142 157
-9.634821 9.657640 54.579971 141 141 156
-9.639655 9.780199 54.607353 139 140 155
-9.643986 9.902361 54.631886 137 139 155
-9.647711 10.023999 54.652988 136 138 156
-10.264342 -13.186254 58.864952 167 156 186
-10.233603 -13.020252 58.688671 166 154 184
-10.204129 -12.856603 58.519638 166 152 183
-10.176045 -12.695418 58.358585 166 151 184
-10.149452 -12.536769 58.206074 167 151 184
-10.124417 -12.380681 58.062500 168 149 183
-10.100978 -12.227145 57.928078 168 149 182
-10.079142 -12.076109 57.802849 169 149 181
-10.058881 -11.927482 57.686657 171 150 179
-10.040138 -11.781136 57.579170 172 150 179
-10.022825 -11.636913 57.479881 173 152 179
-10.006825 -11.494627 57.388123 173 152 178
-9.991995 -11.354066 57.303074 172 151 177
-9.978174 -11.215006 57.223812 170 149 176
-9.965182 -11.077209 57.149307 168 147 174
-9.952837 -10.940443 57.078503 167 145 173
-9.940943 -10.804475 57.010296 167 144 174
-9.929317 -10.669087 56.943623 168 143 175
-9.917778 -10.534081 56.877445 169 143 175
-9.906159 -10.399274 56.810810 170 142 175
-9.894310 -10.264517 56.742859 171 141 174
-9.882098 -10.129681 56.672829 171 140 172
-9.869414 -9.994668 56.600086 172 140 170
-9.856170 -9.859408 56.524128 174 141 169
-9.842291 -9.723849 56.444534 175 141 168
-9.827729 -9.587968 56.361023 173 141 166
-9.812452 -9.451756 56.273411 173 142 164
-9.796443 -9.315228 56.181599 172 144 165
-9.779697 -9.178403 56.085567 172 146 165
-9.762226 -9.041320 55.985371 174 148 166
-9.744049 -8.904024 55.881126 175 150 168
-9.725200 -8.766573 55.773029 176 150 168
-9.705722 -8.629027 55.661324 176 148 166
-9.685675 -8.491465 55.546356 174 146 163
-9.665126 -8.353965 55.428513 173 144 162
-9.644164 -8.216620 55.308296 172 142 161
-9.622884 -8.079527 55.186256 172 142 161
-9.601400 -7.942792 55.063053 171 141 161
-9.579839 -7.806524 54.939400 170 141 161
-9.558343 -7.670842 54.816120 170 141 161
-9.537062 -7.535861 54.694077 170 142 160
-9.516163 -7.401704 54.574223 171 142 160
-9.495813 -7.268485 54.457523 171 142 160
-9.476193 -7.136317 54.345005 171 142 160
-9.457482 -7.005308 54.237694 171 143 161
-9.439857 -6.875552 54.136616 171 143 162
-9.423493 -6.747136 54.042778 172 144 164
-9.408565 -6.620134 53.957161 173 145 166
-9.395230 -6.494603 53.880688 174 146 168
-9.383642 -6.370586 53.814228 175 147 170
-9.373940 -6.248114 53.758587 175 147 171
-9.366246 -6.127196 53.714466 176 148 172
-9.360672 -6.007828 53.682499 176 148 173
-9.357305 -5.889987 53.663185 178 150 176
-9.356214 -5.773634 53.656929 180 152 179
-9.357446 -5.658713 53.663998 181 155 181
-9.361024 -5.545151 53.684517 180 154 181
-9.366942 -5.432858 53.718460 178 151 180
-9.375169 -5.321729 53.765640 177 149 179
-9.385641 -5.211643 53.825691 178 147 179
-9.398261 -5.102465 53.898067 178 146 179
-9.412902 -4.994047 53.982033 178 145 179
-9.429408 -4.886232 54.076691 178 145 178
-9.447585 -4.778856 54.180939 178 145 178
-9.467216 -4.671748 54.293522 178 145 177
-9.488062 -4.564738 54.413067 178 145 176
-9.509857 -4.457658 54.538059 177 144 174
-9.532328 -4.350347 54.666927 176 144 172
-9.555194 -4.242657 54.798065 177 145 172
-9.578178 -4.134452 54.929874 178 146 173
-9.601009 -4.025614 55.060810 179 148 174
-9.623435 -3.916048 55.189419 179 149 176
-9.645225 -3.805675 55.314377 179 148 176
-9.666176 -3.694444 55.434532 177 147 176
-9.686119 -3.582321 55.548904 176 147 178
-9.704919 -3.469297 55.656719 175 146 178
-9.722473 -3.355378 55.757393 175 146 178
-9.738713 -3.240588 55.850529 175 146 177
-9.753600 -3.124963 55.935902 176 145 176
-9.767119 -3.008548 56.013432 177 146 176
-9.779277 -2.891397 56.083153 178 145 174
-9.790093 -2.773565 56.145187 177 145 173
-9.799603 -2.655111 56.199730 177 144 171
-9.807845 -2.536095 56.246994 176 143 171
-9.814859 -2.416572 56.287216 175 144 171
-9.820687 -2.296599 56.320641 174 144 172
-9.825375 -2.176229 56.347523 173 144 172
-9.828964 -2.055513 56.368111 173 145 172
-9.831498 -1.934501 56.382641 172 145 171
-9.833021 -1.813240 56.391373 173 146 172
-9.833581 -1.691775 56.394585 175 148 173
-9.833232 -1.570152 56.392582 175 148 173
-9.832034 -1.448412 56.385712 173 146 172
-9.830054 -1.326596 56.374363 174 146 171
-9.827369 -1.204743 56.358959 173 146 171
-9.824062 -1.082888 56.339996 172 146 169
-9.820223 -0.961062 56.317974 170 145 167
-9.815946 -0.839293 56.293449 169 145 166
-9.811328 -0.717606 56.266968 177 154 175
-9.806467 -0.596018 56.239090 188 166 185
-9.801458 -0.474543 56.210365 185 163 182
-9.796390 -0.353190 56.181293 173 150 169
-9.791340 -0.231962 56.152336 167 144 163
-9.786386 -0.110860 56.123920 166 143 163
-9.781580 0.010119 56.096359 166 143 163
-9.776970 0.130982 56.069927 166 143 163
-9.772590 0.251737 56.044804 167 144 163
-9.768454 0.372393 56.021084 167 144 164
-9.764564 0.492959 55.998775 167 145 165
-9.760911 0.613444 55.977833 167 145 165
-9.757474 0.733855 55.958118 167 146 166
-9.754221 0.854197 55.939465 166 145 167
-9.751112 0.974473 55.921631 165 145 168
-9.748100 1.094683 55.904362 165 145 169
-9.745139 1.214825 55.887379 165 144 171
-9.742177 1.334893 55.870396 165 144 171
-9.739163 1.454881 55.853111 166 145 171
-9.736051 1.574778 55.835255 167 145 171
-9.732793 1.694573 55.816574 168 145 171
-9.729352 1.814253 55.796841 168 145 170
-9.725689 1.933804 55.775837 168 144 170
-9.721779 2.053212 55.753410 168 143 171
-9.717592 2.172461 55.729401 167 143 172
-9.713111 2.291538 55.703701 167 143 173
-9.708318 2.410426 55.676212 167 144 173
-9.703203 2.529112 55.646881 167 144 173
-9.697759 2.647582 55.615658 166 143 171
-9.691978 2.765821 55.582500 166 143 171
-9.685855 2.883815 55.547390 167 143 171
-9.679390 3.001551 55.510311 168 144 171
-9.672581 3.119017 55.471260 170 146 172
-9.665425 3.236199 55.430229 171 148 174
-9.657925 3.353083 55.387211 171 149 174
-9.650080 3.469659 55.342224 169 148 173
-9.641894 3.585914 55.295280 167 147 172
-9.633375 3.701838 55.246426 165 146 171
-9.624533 3.817424 55.195713 163 144 169
-9.615385 3.932666 55.143250 162 143 168
-9.605954 4.047562 55.089169 161 141 168
-9.596274 4.162117 55.033653 160 141 168
-9.586385 4.276340 54.976940 161 142 168
-9.576341 4.390247 54.919338 161 142 168
-9.566206 4.503863 54.861214 162 142 168
-9.556053 4.617220 54.802990 163 142 168
-9.545967 4.730359 54.745148 164 143 169
-9.536042 4.843330 54.688229 165 144 169
-9.526375 4.956190 54.632790 167 145 170
-9.517069 5.069003 54.579418 168 145 171
-9.508224 5.181838 54.528698 169 146 172
-9.499941 5.294766 54.481190 170 147 173
-9.492305 5.407859 54.437401 170 147 173
-9.485394 5.521185 54.397770 168 145 171
-9.479270 5.634809 54.362648 166 144 168
-9.473977 5.748784 54.332294 164 144 167
-9.469538 5.863158 54.306835 162 143 165
-9.465955 5.977962 54.286282 161 142 164
-9.463207 6.093216 54.270531 159 142 162
-9.461260 6.208927 54.259361 158 141 161
-9.460051 6.325083 54.252426 157 140 159
-9.459509 6.441665 54.249321 156 138 158
-9.459551 6.558636 54.249557 156 138 157
-9.460084 6.675957 54.252617 156 137 157
-9.461017 6.793577 54.257969 157 137 158
-9.462258 6.911446 54.265087 157 138 160
-9.463726 7.029513 54.273502 159 139 162
-9.465350 7.147735 54.282818 160 141 164
-9.467076 7.266075 54.292717 160 143 165
-9.468869 7.384510 54.302998 159 143 166
-9.470713 7.503030 54.313572 160 144 168
-9.472611 7.621639 54.324459 159 144 169
-9.474590 7.740361 54.335808 157 142 167
-9.476691 7.859233 54.347858 157 141 167
-9.478969 7.978305 54.360916 156 141 167
-9.481482 8.097635 54.375332 155 141 167
-9.484297 8.217289 54.391472 154 140 166
-9.487472 8.337329 54.409683 152 140 164
-9.491056 8.457813 54.430241 149 140 163
-9.495087 8.578787 54.453354 147 139 160
-9.499574 8.700279 54.479084 145 138 157
-9.504511 8.822301 54.507397 143 138 155
-9.509863 8.944835 54.538094 143 139 156
-9.515570 9.067839 54.570824 144 141 158
-9.521546 9.191244 54.605099 145 143 159
-9.527689 9.314960 54.640324 144 143 158
-9.533876 9.438872 54.675812 143 142 157
-9.539979 9.562852 54.710808 141 141 156
-9.545864 9.686762 54.744556 140 140 155
-9.551402 9.810461 54.776318 138 139 155
-9.556473 9.933811 54.805397 136 138 155
-9.560970 10.056684 54.831192 136 138 156
-10.164188 -13.221035 59.020222 167 156 187
-10.134751 -13.055885 58.849289 167 154 186
-10.106480 -12.892961 58.685127 167 152 184
-10.079493 -12.732366 58.528423 168 151 184
-10.053881 -12.574165 58.379700 168 150 184
-10.029708 -12.418388 58.239338 168 149 183
-10.007008 -12.265021 58.107525 169 150 182
-9.985785 -12.114015 57.984283 170 150 181
-9.966009 -11.965278 57.869457 172 150 180
-9.947625 -11.818689 57.762707 172 150 180
-9.930547 -11.674094 57.663536 173 151 179
-9.914659 -11.531313 57.571278 173 151 179
-9.899824 -11.390141 57.485146 171 151 178
-9.885890 -11.250365 57.404232 170 150 177
-9.872683 -11.111756 57.327541 168 148 175
-9.860027 -10.974092 57.254051 167 146 174
-9.847742 -10.837152 57.182716 167 144 174
-9.835649 -10.700729 57.112503 168 143 175
-9.823584 -10.564638 57.042439 169 142 175
-9.811389 -10.428712 56.971626 170 142 175
-9.798925 -10.292809 56.899254 171 141 174
-9.786075 -10.156816 56.824635 171 140 172
-9.772738 -10.020645 56.747192 172 139 170
-9.758836 -9.884237 56.666470 173 140 169
-9.744309 -9.747552 56.582119 173 140 167
-9.729117 -9.610573 56.493904 173 141 165
-9.713237 -9.473303 56.401691 174 143 164
-9.696658 -9.335757 56.305420 174 145 165
-9.679383 -9.197967 56.205112 174 147 165
-9.661430 -9.059972 56.100864 174 147 165
-9.642823 -8.921822 55.992821 175 148 166
-9.623602 -8.783577 55.881210 176 148 167
-9.603813 -8.645302 55.766304 176 147 167
-9.583517 -8.507072 55.648449 175 146 165
-9.562789 -8.368973 55.528088 174 144 163
-9.541715 -8.231093 55.405716 173 143 163
-9.520394 -8.093532 55.281914 173 142 162
-9.498942 -7.956395 55.157352 172 141 161
-9.477488 -7.819792 55.032768 172 141 161
-9.456170 -7.683837 54.908985 172 141 160
-9.435143 -7.548649 54.786884 172 141 160
-9.414568 -7.414343 54.667412 172 141 159
-9.394613 -7.281034 54.551544 172 141 159
-9.375455 -7.148830 54.440292 171 141 159
-9.357265 -7.017834 54.334679 170 141 159
-9.340219 -6.888135 54.235695 171 142 160
-9.324486 -6.759816 54.144337 172 144 163
-9.310228 -6.632941 54.061546 174 146 166
-9.297599 -6.507563 53.988213 175 147 168
-9.286741 -6.383719 53.925163 175 148 169
-9.277784 -6.261430 53.873158 176 148 171
-9.270845 -6.140702 53.832863 176 149 172
-9.266023 -6.021522 53.804859 178 150 174
-9.263395 -5.903862 53.789600 180 152 177
-9.263024 -5.787678 53.787445 184 156 182
-9.264949 -5.672909 53.798622 184 158 183
-9.269186 -5.559479 53.823227 181 155 181
-9.275724 -5.447293 53.861191 177 151 179
-9.284524 -5.336245 53.912289 176 149 178
-9.295520 -5.226210 53.976139 176 147 178
-9.308615 -5.117054 54.052174 177 146 178
-9.323677 -5.008627 54.139641 178 145 178
-9.340549 -4.900773 54.237610 178 145 178
-9.359041 -4.793325 54.344986 178 144 178
-9.378933 -4.686115 54.460495 178 144 177
-9.399985 -4.578972 54.582741 178 144 176
-9.421941 -4.471730 54.710224 176 143 173
-9.444525 -4.364229 54.841366 176 143 171
-9.467463 -4.256322 54.974560 177 144 171
-9.490480 -4.147875 55.108212 178 145 172
-9.513310 -4.038773 55.240780 179 146 173
-9.535707 -3.928920 55.370831 179 148 174
-9.557444 -3.818243 55.497044 179 148 175
-9.578325 -3.706691 55.618301 178 148 176
-9.598187 -3.594234 55.733631 176 147 177
-9.616900 -3.480865 55.842293 175 146 177
-9.634369 -3.366592 55.943729 174 145 176
-9.650528 -3.251440 56.037560 173 144 175
-9.665346 -3.135449 56.123604 174 145 174
-9.678814 -3.018666 56.201805 176 145 175
-9.690939 -2.901144 56.272213 177 145 174
-9.701748 -2.782940 56.334980 177 145 172
-9.711277 -2.664115 56.390308 177 144 171
-9.719563 -2.544726 56.438423 176 143 170
-9.726646 -2.424830 56.479557 175 143 170
-9.732571 -2.304482 56.513954 174 143 170
-9.737373 -2.183733 56.541840 174 144 171
-9.741094 -2.062636 56.563446 174 144 171
-9.743769 -1.941237 56.578979 174 145 171
-9.745434 -1.819583 56.588646 174 146 172
-9.746129 -1.697718 56.592682 175 147 172
-9.745899 -1.575686 56.591347 175 147 172
-9.744794 -1.453529 56.584927 174 146 172
-9.742871 -1.331289 56.573765 174 146 172
-9.740196 -1.209003 56.558235 175 147 172
-9.736848 -1.086709 56.538792 175 147 172
-9.732906 -0.964439 56.515903 173 146 170
-9.728463 -0.842225 56.490105 172 145 168
-9.723612 -0.720093 56.461933 177 151 173
-9.718451 -0.598062 56.431969 185 160 181
-9.713078 -0.476150 56.400761 184 159 179
-9.707584 -0.354369 56.368866 174 150 170
-9.702062 -0.232724 56.336800 169 145 165
-9.696589 -0.111218 56.305023 168 145 164
-9.691238 0.010151 56.273952 168 145 164
-9.686066 0.131388 56.243916 168 145 163
-9.681118 0.252502 56.215187 168 145 164
-9.676425 0.373502 56.187935 168 145 164
-9.672001 0.494398 56.162243 168 146 164
-9.667850 0.615201 56.138138 168 147 165
-9.663960 0.735920 56.115547 168 146 166
-9.660305 0.856562 56.094330 167 146 167
-9.656855 0.977133 56.074295 166 145 168
-9.653565 1.097636 56.055195 166 145 169
-9.650390 1.218072 56.036751 166 144 169
-9.647273 1.338436 56.018658 165 143 170
-9.644162 1.458722 56.000591 166 143 170
-9.641002 1.578923 55.982243 167 143 170
-9.637737 1.699027 55.963287 167 144 169
-9.634322 1.819020 55.943459 167 144 169
-9.630706 1.938887 55.922459 167 143 170
-9.626850 2.058613 55.900070 167 142 170
-9.622716 2.178178 55.876060 168 142 171
-9.618273 2.297567 55.850266 168 142 172
-9.613495 2.416760 55.822517 168 142 172
-9.608363 2.535740 55.792721 167 142 172
-9.602860 2.654490 55.760765 167 142 171
-9.596975 2.772991 55.726597 166 142 171
-9.590702 2.891227 55.690166 166 141 169
-9.584034 3.009183 55.651447 167 141 169
-9.576971 3.126842 55.610435 169 144 170
-9.569516 3.244193 55.567150 170 147 172
-9.561671 3.361219 55.521599 170 147 172
-9.553448 3.477911 55.473843 169 147 172
-9.544852 3.594257 55.423935 167 146 172
-9.535903 3.710250 55.371967 166 145 171
-9.526619 3.825885 55.318058 164 143 169
-9.517025 3.941159 55.262348 162 142 168
-9.507157 4.056077 55.205051 160 140 167
-9.497056 4.170644 55.146397 160 140 167
-9.486770 4.284875 55.086666 160 140 167
-9.476359 4.398791 55.026215 160 140 167
-9.465894 4.512420 54.965446 161 141 167
-9.455453 4.625799 54.904819 161 141 167
-9.445124 4.738973 54.844841 162 142 168
-9.434999 4.851993 54.786045 163 142 168
-9.425178 4.964920 54.729023 165 143 169
-9.415762 5.077819 54.674347 167 144 171
-9.406848 5.190760 54.622585 168 145 172
-9.398530 5.303814 54.574287 169 146 172
-9.390895 5.417053 54.529953 168 146 171
-9.384014 5.530546 54.489998 167 145 169
-9.377944 5.644355 54.454750 165 144 168
-9.372725 5.758534 54.424446 164 144 166
-9.368377 5.873129 54.399197 162 143 165
-9.364902 5.988173 54.379013 161 143 163
-9.362275 6.103684 54.363766 159 142 162
-9.360459 6.219667 54.353222 158 142 161
-9.359397 6.336115 54.347050 157 140 159
-9.359015 6.453006 54.344833 156 138 157
-9.359232 6.570308 54.346096 155 137 156
-9.359959 6.687979 54.350319 155 136 156
-9.361106 6.805974 54.356972 157 136 158
-9.362583 6.924241 54.365551 158 138 161
-9.364312 7.042736 54.375591 159 139 162
-9.366221 7.161411 54.386681 159 139 164
-9.368261 7.280235 54.398521 159 140 164
-9.370394 7.399184 54.410904 158 140 165
-9.372602 7.518248 54.423733 158 140 166
-9.374892 7.637432 54.437027 158 140 166
