ply
format ascii 1.0
element vertex 1197
property float x
property float y
property float z
property uchar red
property uchar green
property uchar blue
end_header
-13.050838 -7.333073 44.226917 18 14 14
-13.040524 -7.232014 44.191959 18 14 14
-13.030901 -7.131485 44.159351 18 14 14
-13.022060 -7.031519 44.129395 18 14 14
-13.014103 -6.932152 44.102425 18 14 14
-13.007126 -6.833417 44.078781 18 14 13
-13.001242 -6.735349 44.058842 18 14 13
-12.996552 -6.637979 44.042950 18 14 13
-12.993162 -6.541330 44.031460 18 13 13
-12.991167 -6.445423 44.024700 17 13 12
-12.990647 -6.350266 44.022938 17 13 12
-12.991673 -6.255861 44.026413 16 13 12
-12.994297 -6.162200 44.035309 16 14 13
-12.998554 -6.069263 44.049736 15 14 13
-13.004466 -5.977024 44.069771 15 14 13
-13.012039 -5.885449 44.095432 16 14 13
-13.021263 -5.794499 44.126690 16 15 13
-13.032119 -5.704128 44.163475 16 15 12
-13.044583 -5.614291 44.205719 17 15 12
-13.058635 -5.524943 44.253334 17 15 12
-13.074248 -5.436040 44.306248 17 15 12
-13.091411 -5.347541 44.364410 17 15 12
-13.110120 -5.259412 44.427811 17 15 12
-13.130387 -5.171623 44.496494 17 14 12
-13.152236 -5.084150 44.570534 17 14 12
-13.175705 -4.996972 44.650066 16 13 12
-13.200849 -4.910073 44.735271 16 13 12
-13.227731 -4.823442 44.826374 16 13 11
-13.256428 -4.737065 44.923618 17 13 11
-13.287016 -4.650932 45.027275 18 13 11
-13.319576 -4.565028 45.137619 19 13 11
-13.354192 -4.479338 45.254925 20 13 11
-13.390938 -4.393840 45.379452 20 13 11
-13.429885 -4.308512 45.511436 21 14 10
-13.471095 -4.223325 45.651089 22 15 12
-13.514621 -4.138244 45.798588 22 17 15
-13.560505 -4.053233 45.954082 24 20 18
-13.608786 -3.968250 46.117699 29 26 24
-13.659494 -3.883251 46.289539 33 32 29
-13.712656 -3.798192 46.469696 30 30 27
-13.768289 -3.713022 46.658222 21 21 19
-13.826406 -3.627691 46.855171 14 14 13
-13.887020 -3.542147 47.060585 12 13 12
-13.950136 -3.456339 47.274471 12 13 12
-14.015745 -3.370207 47.496807 12 13 12
-14.083823 -3.283693 47.727512 12 13 12
-14.154332 -3.196733 47.966454 12 13 12
-14.227205 -3.109259 48.213409 12 13 12
-14.302347 -3.021200 48.468048 12 13 12
-14.379626 -2.932479 48.729935 12 13 12
-14.458874 -2.843016 48.998489 12 13 11
-14.539879 -2.752728 49.273003 12 13 11
-14.622394 -2.661531 49.552631 12 13 11
-14.706134 -2.569342 49.836411 12 13 11
-14.790778 -2.476082 50.123253 12 13 11
-14.875984 -2.381675 50.412003 12 14 11
-14.961400 -2.286055 50.701462 12 14 11
-15.046664 -2.189165 50.990406 12 14 11
-15.131434 -2.090961 51.277676 12 14 11
-15.215391 -1.991412 51.562191 12 14 11
-15.298252 -1.890501 51.842991 12 14 11
-15.379789 -1.788225 52.119305 12 14 11
-15.459831 -1.684595 52.390556 12 13 11
-15.538276 -1.579634 52.656387 12 12 11
-15.615087 -1.473372 52.916687 12 12 11
-15.690295 -1.365848 53.171555 11 11 10
-15.764006 -1.257106 53.421345 10 11 10
-15.836369 -1.147190 53.666573 10 10 9
-15.907587 -1.036142 53.907917 10 11 10
-15.977890 -0.924000 54.146160 11 12 11
-16.047531 -0.810798 54.382164 13 13 12
-16.116758 -0.696560 54.616760 14 14 13
-16.185804 -0.581304 54.850746 14 15 14
-16.254881 -0.465041 55.084831 14 15 14
-13.455980 -10.686016 45.935432 26 20 20
-13.431252 -10.567539 45.851017 25 19 19
-13.407944 -10.450532 45.771446 24 18 18
-13.385971 -10.334900 45.696438 23 18 18
-13.365234 -10.220536 45.625648 22 18 17
-13.345616 -10.107325 45.558678 22 18 17
-13.326987 -9.995144 45.495083 22 17 17
-13.309214 -9.883873 45.434410 22 17 16
-13.292160 -9.773393 45.376190 21 16 16
-13.275694 -9.663590 45.319981 21 15 15
-13.259691 -9.554365 45.265350 20 15 15
-13.244039 -9.445625 45.211918 20 15 14
-13.228642 -9.337295 45.159351 20 15 14
-13.213419 -9.229314 45.107388 19 14 13
-13.198311 -9.121636 45.055813 19 14 12
-13.183276 -9.014232 45.004490 19 15 12
-13.168288 -8.907079 44.953323 19 15 12
-13.153339 -8.800173 44.902290 19 15 12
-13.138438 -8.693519 44.851421 19 15 12
-13.123600 -8.587125 44.800766 19 15 12
-13.108852 -8.481009 44.750423 19 15 12
-13.094227 -8.375187 44.700493 19 15 12
-13.079762 -8.269683 44.651115 20 15 13
-13.065497 -8.164516 44.602421 20 15 13
-13.051471 -8.059706 44.554535 20 15 13
-13.037722 -7.955273 44.507599 19 15 12
-13.024292 -7.851233 44.461754 19 15 12
-13.011228 -7.747610 44.417156 18 15 12
-12.998569 -7.644417 44.373943 19 15 13
-12.986370 -7.541677 44.332298 18 14 13
-12.974686 -7.439412 44.292408 18 14 14
-12.963580 -7.337646 44.254498 19 14 14
-12.953125 -7.236408 44.218807 19 14 14
-12.943405 -7.135728 44.185623 19 14 14
-12.934509 -7.035640 44.155258 19 14 14
-12.926538 -6.936179 44.128044 18 14 14
-12.919589 -6.837377 44.104324 18 13 13
-12.913774 -6.739267 44.084473 18 13 13
-12.909194 -6.641880 44.068840 17 13 13
-12.905954 -6.545239 44.057777 17 13 13
-12.904144 -6.449361 44.051598 17 13 13
-12.903848 -6.354254 44.050587 17 13 13
-12.905129 -6.259918 44.054962 17 14 13
-12.908041 -6.166342 44.064903 16 14 13
-12.912618 -6.073505 44.080524 15 14 13
-12.918878 -5.981380 44.101894 15 14 13
-12.926823 -5.889932 44.129017 15 14 13
-12.936443 -5.799117 44.161861 16 15 13
-12.947719 -5.708891 44.200352 16 15 12
-12.960623 -5.619205 44.244404 17 16 13
-12.975131 -5.530012 44.293930 17 16 13
-12.991217 -5.441267 44.348843 17 16 12
-13.008865 -5.352927 44.409092 17 15 12
-13.028070 -5.264957 44.474655 17 15 12
-13.048843 -5.177327 44.545567 17 15 13
-13.071205 -5.090010 44.621902 17 14 13
-13.095193 -5.002985 44.703793 17 14 13
-13.120859 -4.916235 44.791412 17 13 12
-13.148272 -4.829749 44.884991 17 13 12
-13.177502 -4.743514 44.984772 18 13 12
-13.208629 -4.657518 45.091034 19 13 12
-13.241736 -4.571747 45.204056 19 14 12
-13.276905 -4.486186 45.324116 20 14 12
-13.314215 -4.400815 45.451477 21 14 11
-13.353731 -4.315607 45.586380 22 14 11
-13.395521 -4.230536 45.729042 22 15 12
-13.439635 -4.145567 45.879635 23 17 15
-13.486114 -4.060661 46.038303 23 19 17
-13.534993 -3.975776 46.205162 23 21 19
-13.586300 -3.890866 46.380310 24 23 20
-13.640052 -3.805884 46.563808 22 22 19
-13.696262 -3.720778 46.755695 18 18 16
-13.754935 -3.635497 46.955994 14 14 14
-13.816077 -3.549985 47.164719 13 13 12
-13.879680 -3.464188 47.381840 12 13 11
-13.945726 -3.378047 47.607304 12 13 12
-14.014180 -3.291500 47.840992 12 13 12
-14.084997 -3.204483 48.082745 12 13 12
-14.158100 -3.116926 48.332298 12 13 12
-14.233388 -3.028759 48.589314 12 13 12
-14.310724 -2.939904 48.853321 12 13 12
-14.389934 -2.850282 49.123722 12 13 11
-14.470807 -2.759811 49.399803 12 13 10
-14.553097 -2.668411 49.680721 12 13 10
-14.636517 -2.575998 49.965496 11 13 10
-14.720755 -2.482495 50.253063 11 13 10
-14.805472 -2.387829 50.542267 11 13 10
-14.890323 -2.291937 50.831924 11 13 11
-14.974957 -2.194765 51.120846 11 13 11
-15.059036 -2.096270 51.407871 12 13 11
-15.142251 -1.996423 51.691952 12 13 11
-15.224329 -1.895210 51.972141 12 13 11
-15.305045 -1.792630 52.247688 12 13 11
-15.384236 -1.688694 52.518028 12 13 11
-15.461804 -1.583427 52.782829 12 12 11
-15.537721 -1.476861 53.041988 11 11 10
-15.612019 -1.369035 53.295620 11 11 10
-15.684802 -1.259995 53.544086 10 11 10
-15.756231 -1.149784 53.787930 10 10 10
-15.826507 -1.038446 54.027828 11 11 10
-15.895861 -0.926021 54.264591 11 11 11
-15.964551 -0.812541 54.499081 12 12 12
-16.032825 -0.698032 54.732151 14 13 13
-16.100922 -0.582511 54.964615 15 14 14
-16.169054 -0.465990 55.197201 15 14 14
-16.237381 -0.348469 55.430458 14 14 13
-13.372982 -10.698835 45.990540 26 21 20
-13.348635 -10.580396 45.906803 24 20 19
-13.325659 -10.463396 45.827789 23 19 18
-13.303971 -10.347738 45.753204 23 19 18
-13.283468 -10.233315 45.682693 23 19 18
-13.264030 -10.120008 45.615845 22 19 18
-13.245529 -10.007696 45.552219 22 19 18
-13.227830 -9.896260 45.491348 22 18 18
-13.210796 -9.785579 45.432770 22 17 17
-13.194300 -9.675544 45.376038 22 17 16
-13.178217 -9.566053 45.320728 22 16 16
-13.162440 -9.457022 45.266468 21 16 15
-13.146873 -9.348373 45.212933 20 15 14
-13.131441 -9.240051 45.159863 21 15 13
-13.116090 -9.132013 45.107071 21 15 14
-13.100780 -9.024231 45.054413 21 16 14
-13.085488 -8.916690 45.001827 21 16 13
-13.070215 -8.809386 44.949303 20 15 13
-13.054973 -8.702331 44.896881 19 15 12
-13.039782 -8.595534 44.844639 19 15 12
-13.024673 -8.489017 44.792683 19 15 13
-13.009686 -8.382802 44.741135 19 15 13
-12.994861 -8.276913 44.690155 20 16 13
-12.980244 -8.171374 44.639885 20 16 13
-12.965877 -8.066208 44.590477 20 16 13
-12.951806 -7.961437 44.542088 19 15 13
-12.938078 -7.857082 44.494873 19 15 13
-12.924740 -7.753165 44.449001 18 15 12
-12.911837 -7.649703 44.404629 19 15 13
-12.899426 -7.546721 44.361946 19 15 14
-12.887565 -7.444240 44.321156 19 14 14
-12.876322 -7.342288 44.282490 20 15 14
-12.865768 -7.240891 44.246197 20 15 14
-12.855990 -7.140079 44.212570 20 15 15
-12.847078 -7.039889 44.181919 20 15 15
-12.839129 -6.940351 44.154587 19 14 15
-12.832248 -6.841499 44.130917 19 14 14
-12.826536 -6.743365 44.111275 18 13 14
-12.822101 -6.645977 44.096020 18 13 14
-12.819039 -6.549357 44.085495 17 13 14
-12.817446 -6.453521 44.080013 17 13 14
-12.817397 -6.358475 44.079845 17 13 14
-12.818961 -6.264218 44.085224 17 13 14
-12.822185 -6.170736 44.096310 16 14 14
-12.827100 -6.078009 44.113213 16 14 13
-12.833726 -5.986006 44.135998 15 14 13
-12.842060 -5.894690 44.164665 15 14 13
-12.852094 -5.804016 44.199169 16 15 12
-12.863801 -5.713938 44.239429 17 15 13
-12.877154 -5.624405 44.285355 18 16 13
-12.892127 -5.535370 44.336845 18 16 13
-12.908691 -5.446784 44.393810 18 16 13
-12.926827 -5.358603 44.456184 18 16 13
-12.946531 -5.270792 44.523945 18 15 13
-12.967806 -5.183318 44.597111 18 15 13
-12.990675 -5.096153 44.675758 18 14 13
-13.015173 -5.009275 44.760010 18 14 13
-13.041353 -4.922670 44.850044 18 13 13
-13.069280 -4.836323 44.946083 18 13 13
-13.099028 -4.750222 45.048389 19 13 13
-13.130673 -4.664354 45.157223 19 13 13
-13.164303 -4.578708 45.272877 19 14 12
-13.200000 -4.493266 45.395641 20 15 12
-13.237841 -4.408008 45.525776 21 15 12
-13.277898 -4.322912 45.663536 22 15 12
-13.320234 -4.237946 45.809132 22 15 13
-13.364901 -4.153077 45.962746 23 16 15
-13.411940 -4.068265 46.124516 23 18 16
-13.461382 -3.983467 46.294548 23 19 17
-13.513251 -3.898636 46.472931 22 20 18
-13.567560 -3.813722 46.659706 21 19 18
-13.624317 -3.728673 46.854897 18 17 16
-13.683519 -3.643432 47.058495 15 15 14
-13.745161 -3.557946 47.270485 14 13 12
-13.809227 -3.472156 47.490814 13 12 11
-13.875690 -3.386000 47.719383 12 12 11
-13.944507 -3.299416 47.956047 12 12 12
-14.015618 -3.212337 48.200603 12 12 12
-14.088943 -3.124695 48.452770 12 12 12
-14.164368 -3.036416 48.712162 12 12 12
-14.241755 -2.947425 48.978302 11 12 11
-14.320925 -2.857642 49.250572 12 12 11
-14.401665 -2.766987 49.528240 12 12 10
-14.483726 -2.675379 49.810455 12 12 10
-14.566829 -2.582739 50.096252 11 12 9
-14.650663 -2.488991 50.384563 10 13 9
-14.734897 -2.394064 50.674248 10 13 10
-14.819188 -2.297898 50.964134 10 13 11
-14.903198 -2.200441 51.253048 11 12 11
-14.986598 -2.101652 51.539864 11 12 11
-15.069084 -2.001505 51.823540 11 12 11
-15.150392 -1.899988 52.103161 11 12 11
-15.230306 -1.797101 52.377991 11 12 11
-15.308670 -1.692857 52.647491 11 12 10
-15.385394 -1.587282 52.911350 11 11 10
-15.460452 -1.480410 53.169479 11 10 10
-15.533883 -1.372282 53.422016 10 10 10
-15.605799 -1.262942 53.669338 10 10 10
-15.676357 -1.152436 53.911991 11 10 10
-15.745767 -1.040808 54.150696 11 11 10
-15.814260 -0.928097 54.386250 12 11 10
-15.882097 -0.814337 54.619545 12 11 11
-15.949529 -0.699553 54.851444 14 13 13
-16.016798 -0.583764 55.082787 15 14 14
-16.084108 -0.466978 55.314278 15 15 14
-16.151632 -0.349199 55.546494 14 14 13
-16.219475 -0.230423 55.779808 13 14 12
-13.289661 -10.711585 46.045349 27 21 21
-13.265686 -10.593182 45.962280 25 21 20
-13.243036 -10.476185 45.883801 24 20 19
-13.221623 -10.360496 45.809612 23 19 19
-13.201344 -10.246006 45.739349 23 19 19
-13.182074 -10.132595 45.672585 23 19 18
-13.163688 -10.020144 45.608879 23 20 19
-13.146049 -9.908533 45.547771 23 20 19
-13.129026 -9.797645 45.488789 24 19 19
-13.112489 -9.687367 45.431488 23 19 18
-13.096317 -9.577606 45.375458 22 18 17
-13.080405 -9.468274 45.320328 22 17 17
-13.064662 -9.359301 45.265781 23 17 16
-13.049020 -9.250633 45.211586 23 17 16
-13.033422 -9.142233 45.157547 23 17 16
-13.017839 -9.034073 45.103550 23 17 16
-13.002253 -8.926146 45.049549 22 17 15
-12.986666 -8.818449 44.995544 21 16 14
-12.971094 -8.710997 44.941589 20 16 13
-12.955566 -8.603806 44.887794 20 16 13
-12.940117 -8.496899 44.834263 20 16 13
-12.924791 -8.390302 44.781162 20 16 14
-12.909635 -8.284042 44.728649 20 17 14
-12.894696 -8.178148 44.676891 20 17 14
-12.880025 -8.072644 44.626057 20 16 13
-12.865668 -7.967555 44.576317 20 16 13
-12.851679 -7.862905 44.527847 19 15 13
-12.838105 -7.758715 44.480820 19 15 13
-12.825000 -7.655006 44.435413 20 15 14
-12.812419 -7.551803 44.391823 21 16 15
-12.800426 -7.449130 44.350269 21 16 15
-12.789086 -7.347012 44.310982 21 16 15
-12.778478 -7.245477 44.274223 22 16 15
-12.768682 -7.144555 44.240284 22 16 16
-12.759793 -7.044281 44.209488 21 16 17
-12.751907 -6.944686 44.182167 20 15 17
-12.745126 -6.845801 44.158669 20 15 16
-12.739554 -6.747659 44.139362 19 14 15
-12.735294 -6.650285 44.124603 18 14 15
-12.732444 -6.553700 44.114731 18 14 15
-12.731093 -6.457918 44.110050 18 13 14
-12.731319 -6.362945 44.110832 18 14 14
-12.733187 -6.268776 44.117302 17 14 14
-12.736741 -6.175397 44.129616 17 14 14
-12.742013 -6.082786 44.147884 16 14 13
-12.749020 -5.990910 44.172161 15 14 13
-12.757758 -5.899731 44.202438 16 15 13
-12.768213 -5.809202 44.238663 16 15 13
-12.780359 -5.719274 44.280746 17 16 13
-12.794168 -5.629896 44.328587 19 16 14
-12.809608 -5.541018 44.382084 19 16 14
-12.826652 -5.452590 44.441135 19 17 14
-12.845274 -5.364567 44.505657 19 16 14
-12.865469 -5.276911 44.575626 18 16 14
-12.887240 -5.189588 44.651058 18 15 13
-12.910605 -5.102570 44.732014 18 15 13
-12.935601 -5.015835 44.818615 18 15 13
-12.962277 -4.929366 44.911041 19 14 13
-12.990698 -4.843148 45.009514 19 14 13
-13.020937 -4.757171 45.114285 19 14 13
-13.053076 -4.671421 45.225636 19 14 13
-13.087197 -4.585886 45.343861 19 14 13
-13.123386 -4.500551 45.469246 20 15 13
-13.161724 -4.415396 45.602077 21 15 13
-13.202281 -4.330396 45.742596 22 15 13
-13.245121 -4.245522 45.891026 23 16 14
-13.290299 -4.160740 46.047558 23 17 16
-13.337855 -4.076010 46.212326 23 18 16
-13.387816 -3.991287 46.385429 23 19 17
-13.440206 -3.906523 46.566948 23 19 18
-13.495034 -3.821667 46.756916 22 18 17
-13.552300 -3.736665 46.955326 19 16 15
-13.611996 -3.651458 47.162155 16 15 13
-13.674109 -3.565991 47.377361 14 13 12
-13.738613 -3.480201 47.600853 13 12 11
-13.805471 -3.394027 47.832500 12 12 11
-13.874633 -3.307402 48.072128 12 12 11
-13.946029 -3.220261 48.319496 12 12 11
-14.019568 -3.132532 48.574291 12 11 11
-14.095133 -3.044142 48.836105 11 11 11
-14.172576 -2.955015 49.104427 11 11 11
-14.251716 -2.865072 49.378624 11 11 10
-14.332335 -2.774234 49.657951 11 11 10
-14.414190 -2.682420 49.941559 11 12 10
-14.496998 -2.589555 50.228466 10 12 8
-14.580455 -2.495564 50.517624 10 12 9
-14.664235 -2.400379 50.807899 10 12 10
-14.748001 -2.303940 51.098129 10 12 10
-14.831425 -2.206199 51.387173 10 12 11
-14.914181 -2.107118 51.673901 10 11 11
-14.995980 -2.006672 51.957317 10 11 11
-15.076564 -1.904851 52.236519 10 11 11
-15.155726 -1.801657 52.510796 10 11 10
-15.233318 -1.697106 52.779633 11 11 10
-15.309257 -1.591224 53.042740 11 10 10
-15.383521 -1.484046 53.300049 10 10 9
-15.456160 -1.375614 53.551720 11 9 10
-15.527284 -1.265973 53.798149 11 10 10
-15.597060 -1.155170 54.039906 11 11 10
-15.665697 -1.043249 54.277718 12 11 10
-15.733436 -0.930250 54.512413 13 12 10
-15.800533 -0.816206 54.744888 13 12 10
-15.867246 -0.701142 54.976032 13 13 12
-15.933812 -0.585076 55.206669 15 15 14
-16.000444 -0.468019 55.437534 14 15 13
-16.067305 -0.349970 55.669186 13 14 12
-16.134497 -0.230928 55.901989 13 14 12
-16.202065 -0.110884 56.136097 13 14 12
-13.206024 -10.724271 46.099880 27 22 22
-13.182408 -10.605895 46.017441 25 21 21
-13.160069 -10.488893 45.939461 24 21 21
-13.138919 -10.373164 45.865627 23 20 20
-13.118848 -10.258598 45.795563 23 20 20
-13.099734 -10.145076 45.728840 24 20 20
-13.081449 -10.032476 45.665009 24 20 20
-13.063860 -9.920680 45.603607 25 21 20
-13.046833 -9.809572 45.544170 25 21 20
-13.030243 -9.699046 45.486259 24 20 19
-13.013972 -9.589005 45.429462 24 20 19
-12.997920 -9.479366 45.373421 24 19 18
-12.981997 -9.370064 45.317841 24 19 18
-12.966140 -9.261048 45.262486 24 19 18
-12.950298 -9.152282 45.207184 24 19 18
-12.934445 -9.043746 45.151844 24 18 18
-12.918569 -8.935432 45.096420 23 18 17
-12.902678 -8.827348 45.040947 22 17 16
-12.886792 -8.719506 44.985497 21 17 15
-12.870947 -8.611931 44.930183 21 17 15
-12.855181 -8.504646 44.875145 21 17 15
-12.839541 -8.397681 44.820553 21 17 16
-12.824082 -8.291069 44.766586 21 17 16
-12.808856 -8.184837 44.713432 21 18 15
-12.793914 -8.079015 44.661274 20 17 14
-12.779309 -7.973628 44.610294 20 16 14
-12.765099 -7.868703 44.560684 20 16 14
-12.751333 -7.764264 44.512634 21 16 15
-12.738068 -7.660332 44.466324 21 17 15
-12.725361 -7.556931 44.421967 22 17 16
-12.713277 -7.454088 44.379784 22 17 16
-12.701886 -7.351827 44.340023 23 17 17
-12.691263 -7.250176 44.302940 23 18 17
-12.681493 -7.149166 44.268833 23 17 17
-12.672668 -7.048829 44.238026 23 17 18
-12.664884 -6.949195 44.210854 22 16 19
-12.658239 -6.850296 44.187660 22 16 18
-12.652841 -6.752161 44.168816 21 15 17
-12.648787 -6.654816 44.154667 20 15 16
-12.646176 -6.558279 44.145550 19 14 16
-12.645094 -6.462563 44.141769 19 14 15
-12.645617 -6.367671 44.143597 18 14 15
-12.647808 -6.273600 44.151245 18 14 14
-12.651713 -6.180332 44.164875 17 15 14
-12.657356 -6.087842 44.184578 17 15 14
-12.664755 -5.996097 44.210403 16 15 14
-12.673904 -5.905057 44.242344 17 15 14
-12.684788 -5.814674 44.280334 17 15 14
-12.697377 -5.724897 44.324284 18 16 14
-12.711642 -5.635674 44.374077 19 17 14
-12.727549 -5.546950 44.429604 19 17 15
-12.745065 -5.458677 44.490749 19 17 14
-12.764167 -5.370808 44.557434 18 16 14
-12.784843 -5.283302 44.629612 18 16 14
-12.807096 -5.196124 44.707294 18 15 13
-12.830944 -5.109246 44.790543 18 15 13
-12.856418 -5.022645 44.879463 18 15 13
-12.883566 -4.936301 44.974236 18 15 13
-12.912456 -4.850204 45.075081 19 15 13
-12.943158 -4.764338 45.182259 20 14 14
-12.975756 -4.678694 45.296051 20 14 14
-13.010332 -4.593258 45.416752 20 14 13
-13.046975 -4.508016 45.544666 20 15 13
-13.085764 -4.422948 45.680073 21 15 13
-13.126776 -4.338030 45.823235 22 15 14
-13.170074 -4.253233 45.974380 23 16 15
-13.215715 -4.168525 46.133705 24 17 16
-13.263736 -4.083861 46.301338 24 18 16
-13.314170 -3.999200 46.477394 24 18 17
-13.367033 -3.914491 46.661930 23 19 18
-13.422333 -3.829682 46.854973 22 18 17
-13.480066 -3.744717 47.056507 19 16 15
-13.540216 -3.659536 47.266483 17 14 13
-13.602764 -3.574080 47.484829 15 13 12
-13.667680 -3.488286 47.711437 13 12 10
-13.734913 -3.402090 47.946136 12 11 10
-13.804403 -3.315423 48.188713 12 11 10
-13.876076 -3.228219 48.438908 11 11 10
-13.949829 -3.140405 48.696365 11 10 10
-14.025539 -3.051906 48.960659 10 10 10
-14.103053 -2.962647 49.231247 10 10 10
-14.182182 -2.872548 49.507473 10 10 10
-14.262712 -2.781532 49.788589 11 11 9
-14.344395 -2.689519 50.073727 11 11 9
-14.426949 -2.596435 50.361908 11 11 9
-14.510075 -2.502206 50.652084 11 12 9
-14.593451 -2.406768 50.943134 11 12 10
-14.676749 -2.310062 51.233917 10 12 10
-14.759645 -2.212043 51.523289 10 11 10
-14.841826 -2.112674 51.810169 10 11 10
-14.923005 -2.011934 52.093552 10 11 10
-15.002938 -1.909813 52.372585 10 10 10
-15.081424 -1.806315 52.646561 11 10 10
-15.158323 -1.701459 52.915005 11 10 10
-15.233558 -1.595270 53.177635 11 10 10
-15.307117 -1.487787 53.434422 10 9 9
-15.379054 -1.379051 53.685535 11 9 9
-15.449485 -1.269109 53.931400 12 10 10
-15.518583 -1.158007 54.172611 12 11 10
-15.586559 -1.045790 54.409901 13 12 10
-15.653659 -0.932498 54.644135 13 12 11
-15.720142 -0.818164 54.876217 13 13 10
-15.786266 -0.702813 55.107044 14 13 12
-15.852270 -0.586462 55.337452 15 14 13
-15.918362 -0.469121 55.568165 14 15 13
-15.984704 -0.350791 55.799751 13 14 12
-16.051394 -0.231467 56.032558 12 14 12
-16.118471 -0.111142 56.266712 12 13 12
-16.185900 0.010192 56.502090 12 13 12
-16.253576 0.132543 56.738338 12 13 12
-13.122085 -10.736901 46.154171 27 22 23
-13.098810 -10.618541 46.072311 26 22 22
-13.076765 -10.501521 45.994770 24 21 21
-13.055858 -10.385740 45.921230 24 21 21
-13.035976 -10.271085 45.851303 24 21 21
-13.017000 -10.157437 45.784561 25 21 21
-12.998801 -10.044678 45.720547 25 22 22
-12.981246 -9.932688 45.658802 25 21 21
-12.964203 -9.821351 45.598858 25 22 21
-12.947549 -9.710565 45.540276 25 22 21
-12.931170 -9.600236 45.482670 25 21 20
-12.914968 -9.490285 45.425686 26 21 20
-12.898861 -9.380649 45.369030 25 21 20
-12.882785 -9.271279 45.312485 25 21 20
-12.866700 -9.162147 45.255913 26 20 20
-12.850583 -9.053235 45.199223 26 20 20
-12.834426 -8.944541 45.142391 25 19 19
-12.818241 -8.836073 45.085468 24 19 18
-12.802057 -8.727850 45.028545 23 18 17
-12.785913 -8.619900 44.971760 22 18 17
-12.769853 -8.512250 44.915268 22 18 17
-12.753927 -8.404933 44.859253 23 18 17
-12.738194 -8.297983 44.803921 23 18 18
-12.722713 -8.191433 44.749466 22 18 17
-12.707538 -8.085313 44.696091 22 18 16
-12.692725 -7.979650 44.643990 21 18 16
-12.678333 -7.874475 44.593372 21 17 16
-12.664417 -7.769809 44.544426 21 17 16
-12.651035 -7.665678 44.497356 22 17 17
-12.638247 -7.562105 44.452377 22 17 17
-12.626120 -7.459116 44.409721 23 18 17
-12.614720 -7.356735 44.369625 24 18 18
-12.604127 -7.254992 44.332367 24 18 18
-12.594423 -7.153914 44.298233 24 18 19
-12.585701 -7.053534 44.267555 24 18 19
-12.578056 -6.953881 44.240665 24 17 20
-12.571586 -6.854985 44.217907 23 17 20
-12.566394 -6.756875 44.199646 22 16 19
-12.562576 -6.659571 44.186218 21 15 18
-12.560230 -6.563095 44.177967 20 15 17
-12.559443 -6.467456 44.175198 19 14 16
-12.560283 -6.372656 44.178154 18 14 15
-12.562816 -6.278688 44.187061 18 15 15
-12.567082 -6.185536 44.202068 18 15 15
-12.573108 -6.093172 44.223263 17 16 15
-12.580906 -6.001561 44.250690 17 16 15
-12.590472 -5.910662 44.284336 17 16 14
-12.601786 -5.820426 44.324127 18 16 14
-12.614817 -5.730798 44.369965 18 16 14
-12.629534 -5.641725 44.421730 19 17 15
-12.645902 -5.553154 44.479298 19 17 16
-12.663883 -5.465032 44.542545 19 17 15
-12.683454 -5.377310 44.611378 18 16 15
-12.704597 -5.289947 44.685749 18 16 14
-12.727317 -5.202908 44.765659 18 16 13
-12.751624 -5.116160 44.851154 18 16 13
-12.777552 -5.029682 44.942352 18 16 14
-12.805148 -4.943455 45.039413 18 16 14
-12.834476 -4.857465 45.142567 19 15 14
-12.865607 -4.771699 45.252068 20 15 14
-12.898626 -4.686147 45.368206 21 15 14
-12.933618 -4.600796 45.491280 20 14 13
-12.970670 -4.515631 45.621601 20 15 13
-13.009865 -4.430635 45.759464 21 15 13
-13.051281 -4.345784 45.905136 22 15 14
-13.094985 -4.261049 46.058857 23 15 15
-13.141036 -4.176396 46.220829 24 16 16
-13.189471 -4.091786 46.391190 24 17 16
-13.240320 -4.007172 46.570042 24 18 17
-13.293605 -3.922505 46.757458 23 18 17
-13.349329 -3.837732 46.953457 22 17 16
-13.407481 -3.752793 47.157997 19 15 14
-13.468045 -3.667629 47.371014 17 14 13
-13.530995 -3.582178 47.592426 15 13 12
-13.596289 -3.496376 47.822083 13 12 10
-13.663873 -3.410155 48.059799 12 11 9
-13.733679 -3.323447 48.305325 11 10 9
-13.805620 -3.236180 48.558361 11 10 9
-13.879590 -3.148283 48.818539 10 10 9
-13.955457 -3.059680 49.085384 10 10 10
-14.033061 -2.970295 49.358337 10 10 10
-14.112212 -2.880048 49.636734 10 10 10
-14.192688 -2.788862 49.919792 11 11 10
-14.274242 -2.696659 50.206646 12 11 10
-14.356599 -2.603364 50.496315 12 12 10
-14.439456 -2.508908 50.787746 12 12 10
-14.522497 -2.413226 51.079826 12 12 10
-14.605402 -2.316262 51.371426 11 11 10
-14.687851 -2.217973 51.661427 10 11 10
-14.769540 -2.118325 51.948750 10 10 10
-14.850190 -2.017297 52.232418 10 10 10
-14.929563 -1.914882 52.511593 10 10 10
-15.007466 -1.811086 52.785606 11 9 10
-15.083773 -1.705928 53.053997 11 9 10
-15.158408 -1.599437 53.316509 11 10 10
-15.231366 -1.491649 53.573124 10 9 9
-15.302710 -1.382609 53.824062 11 9 9
-15.372561 -1.272364 54.069748 12 10 10
-15.441096 -1.160961 54.310806 12 10 10
-15.508535 -1.048445 54.548008 13 11 10
-15.575122 -0.934854 54.782215 13 12 10
-15.641121 -0.820223 55.014351 14 13 10
-15.706790 -0.704576 55.245327 15 13 12
-15.772370 -0.587931 55.475994 15 14 13
-15.838065 -0.470294 55.707062 15 14 13
-15.904034 -0.351667 55.939091 14 14 12
-15.970367 -0.232045 56.172405 13 14 12
-16.037096 -0.111420 56.407112 13 14 12
-16.104176 0.010218 56.643051 13 13 12
-16.171492 0.132874 56.879822 13 13 12
-16.238861 0.256552 57.116779 13 13 12
-13.037854 -10.749485 46.208267 28 24 24
-13.014898 -10.631124 46.126904 27 23 23
-12.993122 -10.514069 46.049725 26 22 23
-12.972435 -10.398218 45.976406 25 21 22
-12.952723 -10.283459 45.906544 25 21 22
-12.933866 -10.169673 45.839710 26 22 22
-12.915732 -10.056739 45.775444 27 22 23
-12.898194 -9.944540 45.713287 28 23 24
-12.881120 -9.832964 45.652771 29 23 24
-12.864389 -9.721909 45.593475 28 22 23
-12.847891 -9.611282 45.535004 28 22 22
-12.831532 -9.501010 45.477020 28 22 22
-12.815233 -9.391034 45.419258 27 22 22
-12.798938 -9.281309 45.361507 27 22 22
-12.782611 -9.171810 45.303642 28 22 22
-12.766232 -9.062523 45.245590 28 21 22
-12.749801 -8.953450 45.187355 27 21 21
-12.733335 -8.844605 45.129002 25 20 20
-12.716870 -8.736011 45.070644 24 20 19
-12.700446 -8.627696 45.012436 23 19 18
-12.684113 -8.519693 44.954544 23 19 18
-12.667929 -8.412041 44.897190 23 18 18
-12.651956 -8.304772 44.840576 23 19 18
-12.636251 -8.197923 44.784920 23 19 18
-12.620880 -8.091526 44.730438 22 19 18
-12.605897 -7.985611 44.677338 22 19 17
-12.591366 -7.880208 44.625839 22 18 17
-12.577344 -7.775342 44.576141 22 18 17
-12.563890 -7.671035 44.528458 22 18 17
-12.551064 -7.567315 44.483006 23 18 18
-12.538937 -7.464205 44.440018 24 18 18
-12.527574 -7.361730 44.399750 25 19 19
-12.517054 -7.259917 44.362461 25 19 20
-12.507458 -7.158794 44.328453 25 19 20
-12.498878 -7.058393 44.298050 25 19 21
-12.491411 -6.958740 44.271580 25 19 21
-12.485148 -6.859865 44.249386 24 18 21
-12.480193 -6.761793 44.231823 23 17 20
-12.476642 -6.664547 44.219238 22 16 19
-12.474587 -6.568144 44.211956 21 16 19
-12.474113 -6.472591 44.210270 20 15 18
-12.475289 -6.377891 44.214443 19 15 17
-12.478178 -6.284034 44.224682 19 16 16
-12.482818 -6.191001 44.241123 19 16 16
-12.489234 -6.098766 44.263866 19 17 17
-12.497437 -6.007291 44.292938 18 17 16
-12.507420 -5.916533 44.328316 18 17 16
-12.519162 -5.826441 44.369938 18 17 16
-12.532631 -5.736959 44.417671 19 17 16
-12.547794 -5.648036 44.471413 19 17 16
-12.564610 -5.559611 44.531013 19 17 16
-12.583045 -5.471633 44.596348 19 17 16
-12.603068 -5.384052 44.667313 19 17 15
-12.624662 -5.296824 44.743843 19 16 15
-12.647826 -5.209914 44.825943 18 16 14
-12.672571 -5.123288 44.913643 18 16 14
-12.698928 -5.036923 45.007053 18 16 14
-12.726941 -4.950800 45.106339 18 16 14
-12.756673 -4.864905 45.211712 19 16 15
-12.788198 -4.779226 45.323444 21 15 15
-12.821599 -4.693751 45.441818 21 15 15
-12.856962 -4.608469 45.567154 21 14 15
-12.894376 -4.523367 45.699753 22 14 14
-12.933928 -4.438426 45.839935 22 14 14
-12.975698 -4.353626 45.987972 22 14 13
-13.019755 -4.268937 46.144119 24 15 14
-13.066158 -4.184326 46.308578 25 15 15
-13.114950 -4.099752 46.481506 25 16 16
-13.166163 -4.015172 46.663013 25 17 16
-13.219815 -3.930534 46.853161 23 17 16
-13.275908 -3.845783 47.051968 22 17 16
-13.334434 -3.760862 47.259388 20 16 15
-13.395367 -3.675707 47.475346 18 15 14
-13.458677 -3.590255 47.699730 16 14 12
-13.524320 -3.504439 47.932377 13 12 10
-13.592233 -3.418192 48.173069 11 11 9
-13.662336 -3.331441 48.421528 11 10 9
-13.734541 -3.244116 48.677433 11 10 9
-13.808731 -3.156141 48.940376 11 10 9
-13.884768 -3.067440 49.209862 11 10 10
-13.962485 -2.977936 49.485306 11 11 11
-14.041690 -2.887550 49.766018 11 11 11
-14.122157 -2.796204 50.051208 11 11 11
-14.203640 -2.703821 50.339996 12 12 11
-14.285860 -2.610328 50.631397 12 12 11
-14.368520 -2.515656 50.924358 12 12 11
-14.451306 -2.419742 51.217766 12 11 11
-14.533904 -2.322533 51.510506 11 11 10
-14.615999 -2.223986 51.801464 11 10 10
-14.697295 -2.124068 52.089592 11 10 10
-14.777518 -2.022762 52.373913 10 10 10
-14.856439 -1.920061 52.653622 10 10 10
-14.933874 -1.815974 52.928062 11 9 10
-15.009698 -1.710520 53.196796 11 9 10
-15.083848 -1.603729 53.459595 11 9 10
-15.156324 -1.495640 53.716465 10 9 9
-15.227195 -1.386298 53.967644 11 9 9
-15.296588 -1.275749 54.213581 11 10 9
-15.364686 -1.164042 54.454933 12 10 9
-15.431712 -1.051221 54.692482 12 11 9
-15.497916 -0.937327 54.927120 13 12 9
-15.563564 -0.822391 55.159790 14 13 10
-15.628916 -0.706439 55.391407 15 13 11
-15.694208 -0.589487 55.622810 15 13 12
-15.759644 -0.471541 55.854729 15 14 12
-15.825378 -0.352601 56.087700 14 14 12
-15.891496 -0.232663 56.322033 13 14 12
-15.958014 -0.111717 56.557781 14 14 12
-16.024878 0.010245 56.794758 14 13 12
-16.091963 0.133231 57.032520 14 13 12
-16.159071 0.257242 57.270359 14 13 12
-16.225948 0.382273 57.507389 14 13 11
-12.953353 -10.762037 46.262222 30 26 26
-12.930683 -10.643651 46.181259 28 24 25
-12.909148 -10.526540 46.104347 28 23 24
-12.888654 -10.410600 46.031151 28 23 24
-12.869087 -10.295718 45.961273 28 23 23
-12.850323 -10.181774 45.894257 28 23 23
-12.832236 -10.068650 45.829659 29 24 25
-12.814694 -9.956227 45.767010 31 25 27
-12.797571 -9.844398 45.705856 32 25 27
-12.780747 -9.733059 45.645771 31 24 26
-12.764118 -9.622126 45.586380 30 23 25
-12.747592 -9.511527 45.527359 30 23 24
-12.731096 -9.401203 45.468445 29 23 23
-12.714579 -9.291119 45.409451 29 24 24
-12.698008 -9.181250 45.350269 29 24 24
-12.681371 -9.071589 45.290852 29 23 24
-12.664673 -8.962141 45.231216 29 23 24
-12.647939 -8.852924 45.171452 28 22 23
-12.631205 -8.743966 45.111687 26 21 22
-12.614520 -8.635299 45.052097 25 20 21
-12.597939 -8.526958 44.992878 24 20 19
-12.581523 -8.418984 44.934250 24 19 20
-12.565338 -8.311416 44.876446 24 19 20
-12.549447 -8.204288 44.819695 24 20 19
-12.533915 -8.097637 44.764217 23 20 19
-12.518803 -7.991494 44.710247 23 20 18
-12.504174 -7.885888 44.658005 23 19 18
-12.490088 -7.780845 44.607697 23 19 18
-12.476605 -7.676391 44.559544 23 18 19
-12.463788 -7.572548 44.513767 24 19 19
-12.451704 -7.469342 44.470608 25 19 19
-12.440421 -7.366798 44.430313 25 19 20
-12.430016 -7.264939 44.393150 25 20 20
-12.420570 -7.163795 44.359417 26 20 21
-12.412173 -7.063392 44.329430 26 20 21
-12.404917 -6.963759 44.303513 26 20 21
-12.398895 -6.864922 44.282005 25 20 21
-12.394207 -6.766905 44.265263 24 19 21
-12.390948 -6.669730 44.253624 23 18 20
-12.389207 -6.573411 44.247406 22 18 20
-12.389067 -6.477954 44.246902 21 17 19
-12.390595 -6.383361 44.252365 21 17 18
-12.393851 -6.289619 44.263992 20 17 17
-12.398873 -6.196711 44.281925 20 17 17
-12.405684 -6.104606 44.306252 20 18 18
-12.414292 -6.013267 44.336998 19 18 18
-12.424691 -5.922647 44.374134 19 17 17
-12.436856 -5.832697 44.417583 19 17 17
-12.450757 -5.743360 44.467228 20 17 17
-12.466353 -5.654578 44.522930 20 17 17
-12.483607 -5.566295 44.584549 20 17 17
-12.502479 -5.478455 44.651947 20 17 17
-12.522936 -5.391007 44.725010 20 17 16
-12.544960 -5.303906 44.803669 19 16 15
-12.568545 -5.217115 44.887901 18 16 14
-12.593702 -5.130600 44.977749 18 16 14
-12.620457 -5.044338 45.073303 18 16 14
-12.648855 -4.958307 45.174725 18 16 14
-12.678959 -4.872494 45.282238 19 16 15
-12.710841 -4.786888 45.396103 21 16 16
-12.744581 -4.701476 45.516605 22 16 16
-12.780272 -4.616249 45.644070 22 15 16
-12.818003 -4.531193 45.778828 22 14 15
-12.857862 -4.446293 45.921185 22 14 15
-12.899934 -4.361527 46.071438 22 14 14
-12.944289 -4.276868 46.229851 23 14 14
-12.990991 -4.192283 46.396645 25 15 15
-13.040085 -4.107732 46.571980 25 16 16
-13.091604 -4.023171 46.755978 25 17 16
-13.145567 -3.938549 46.948704 23 17 17
-13.201980 -3.853811 47.150177 22 17 17
-13.260827 -3.768896 47.360352 21 16 16
-13.322084 -3.683742 47.579128 19 15 15
-13.385719 -3.598283 47.806396 16 14 13
-13.451677 -3.512451 48.041962 14 13 11
-13.519890 -3.426175 48.285580 12 11 10
-13.590277 -3.339383 48.536961 12 11 10
-13.662737 -3.252001 48.795750 11 10 10
-13.737149 -3.163953 49.061512 12 11 10
-13.813369 -3.075161 49.333725 12 11 11
-13.891225 -2.985547 49.611782 11 11 11
-13.970518 -2.895032 49.894974 12 12 12
-14.051023 -2.803538 50.182495 12 12 12
-14.132489 -2.710989 50.473446 12 12 12
-14.214640 -2.617311 50.766842 13 12 12
-14.297179 -2.522438 51.061630 13 12 12
-14.379798 -2.426306 51.356697 13 11 11
-14.462182 -2.328865 51.650928 12 11 10
-14.544024 -2.230072 51.943222 11 10 10
-14.625033 -2.129897 52.232540 11 10 10
-14.704943 -2.028324 52.517933 11 9 9
-14.783527 -1.925348 52.798595 11 9 9
-14.860611 -1.820977 53.073895 10 9 9
-14.936074 -1.715234 53.343407 10 9 9
-15.009862 -1.608149 53.606937 10 9 9
-15.081982 -1.499762 53.864506 10 9 9
-15.152504 -1.390118 54.116375 11 10 8
-15.221565 -1.279266 54.363026 11 11 8
-15.289354 -1.167253 54.605129 11 11 8
-15.356097 -1.054124 54.843498 12 11 8
-15.422047 -0.939919 55.079033 13 12 9
-15.487474 -0.824671 55.312702 14 13 10
-15.552637 -0.708404 55.545429 15 13 11
-15.617772 -0.591132 55.778057 15 13 11
-15.683082 -0.472862 56.011303 15 13 11
-15.748712 -0.353594 56.245697 14 13 11
-15.814738 -0.233322 56.481510 14 13 11
-15.881172 -0.112035 56.718773 14 13 12
-15.947944 0.010274 56.957245 15 13 12
-16.014914 0.133614 57.196426 15 13 12
-16.081869 0.257984 57.435555 14 13 12
-16.148546 0.383379 57.673691 14 13 11
-12.868592 -10.774567 46.316082 31 27 27
-12.846173 -10.656129 46.235397 30 26 26
-12.824847 -10.538936 46.158638 30 24 25
-12.804514 -10.422882 46.085457 29 23 24
-12.785061 -10.307853 46.015442 28 23 24
-12.766365 -10.193730 45.948151 29 24 25
-12.748299 -10.080397 45.883125 31 25 27
-12.730731 -9.967733 45.819901 33 26 28
-12.713539 -9.855634 45.758022 33 26 28
-12.696605 -9.743999 45.697075 33 26 27
-12.679830 -9.632747 45.636696 32 25 26
-12.663124 -9.521809 45.576572 32 24 26
-12.646421 -9.411131 45.516457 31 24 25
-12.629677 -9.300682 45.456188 31 25 25
-12.612861 -9.190440 45.395664 31 25 26
-12.595970 -9.080406 45.334873 31 25 26
-12.579013 -8.970587 45.273842 31 25 26
-12.562018 -8.861004 45.212677 29 24 24
-12.545033 -8.751691 45.151543 28 22 23
-12.528106 -8.642682 45.090618 27 21 23
-12.511298 -8.534018 45.030128 26 21 22
-12.494678 -8.425739 44.970306 26 21 22
-12.478310 -8.317888 44.911396 25 21 21
-12.462264 -8.210504 44.853645 25 21 20
-12.446608 -8.103621 44.797295 25 21 20
-12.431405 -7.997272 44.742577 24 20 20
-12.416718 -7.891488 44.689716 24 20 19
-12.402612 -7.786296 44.638947 24 20 19
-12.389142 -7.681718 44.590469 24 19 20
-12.376378 -7.577781 44.544525 25 19 20
-12.364380 -7.474505 44.501347 25 19 20
-12.353221 -7.371916 44.461182 26 20 21
-12.342972 -7.270036 44.424294 26 20 21
-12.333714 -7.168891 44.390976 26 21 21
-12.325538 -7.068510 44.361546 27 21 22
-12.318528 -6.968916 44.336319 26 20 21
-12.312780 -6.870134 44.315628 26 20 21
-12.308388 -6.772188 44.299820 25 20 21
-12.305445 -6.675097 44.289227 24 19 21
-12.304039 -6.578872 44.284168 23 19 20
-12.304247 -6.483520 44.284916 22 19 20
-12.306142 -6.389040 44.291737 21 18 19
-12.309773 -6.295419 44.304806 21 17 18
-12.315184 -6.202638 44.324280 21 18 18
-12.322391 -6.110664 44.350220 21 18 18
-12.331404 -6.019459 44.382656 21 18 18
-12.342213 -5.928978 44.421562 20 18 18
-12.354795 -5.839166 44.466843 20 18 18
-12.369114 -5.749967 44.518383 20 18 18
-12.385131 -5.661322 44.576031 21 18 19
-12.402805 -5.573173 44.639641 21 17 19
-12.422094 -5.485463 44.709068 21 17 18
-12.442966 -5.398140 44.784187 20 17 17
-12.465395 -5.311157 44.864914 19 16 15
-12.489377 -5.224475 44.951229 18 16 14
-12.514918 -5.138062 45.043156 18 16 14
-12.542044 -5.051889 45.140781 18 16 14
-12.570795 -4.965939 45.244263 18 16 15
-12.601234 -4.880197 45.353821 19 16 16
-12.633434 -4.794650 45.469715 21 16 17
-12.667477 -4.709288 45.592236 22 16 17
-12.703453 -4.624102 45.721722 22 15 16
-12.741455 -4.539079 45.858498 22 15 16
-12.781574 -4.454205 46.002892 22 15 15
-12.823895 -4.369458 46.155212 23 14 14
-12.868499 -4.284814 46.315746 23 15 14
-12.915446 -4.200241 46.484718 24 15 15
-12.964787 -4.115699 46.662304 24 16 15
-13.016558 -4.031144 46.848637 24 16 16
-13.070781 -3.946526 47.043793 23 16 17
-13.127460 -3.861789 47.247787 22 16 17
-13.186581 -3.776872 47.460575 21 17 17
-13.248119 -3.691711 47.682060 19 16 16
-13.312035 -3.606240 47.912106 17 15 14
-13.378273 -3.520387 48.150505 15 13 12
-13.446763 -3.434082 48.397011 13 12 11
-13.517414 -3.347250 48.651295 12 11 11
-13.590120 -3.259814 48.912975 12 11 10
-13.664755 -3.171697 49.181599 12 11 11
-13.741169 -3.082821 49.456623 12 11 11
-13.819183 -2.993107 49.737411 12 12 12
-13.898600 -2.902474 50.023239 12 12 12
-13.979185 -2.810845 50.313282 13 12 13
-14.060691 -2.718143 50.606636 13 12 12
-14.142838 -2.624295 50.902294 13 12 12
-14.225334 -2.529234 51.199211 13 12 12
-14.307869 -2.432900 51.496269 13 11 12
-14.390134 -2.335242 51.792351 13 11 11
-14.471826 -2.236218 52.086372 12 10 10
-14.552654 -2.135800 52.377285 12 10 9
-14.632362 -2.033972 52.664169 11 10 8
-14.710729 -1.930731 52.946224 11 10 8
-14.787581 -1.826087 53.222828 11 9 8
-14.862809 -1.720063 53.493584 10 9 8
-14.936360 -1.612690 53.758308 10 9 8
-15.008246 -1.504009 54.017036 10 10 8
-15.078548 -1.394066 54.270061 11 10 8
-15.147407 -1.282910 54.517895 11 11 8
-15.215012 -1.170589 54.761215 11 11 8
-15.281597 -1.057149 55.000866 12 11 8
-15.347417 -0.942628 55.237762 12 12 8
-15.412746 -0.827060 55.472893 13 12 9
-15.477841 -0.710467 55.707184 15 12 10
-15.542942 -0.592864 55.941490 15 12 11
-15.608242 -0.474257 56.176514 15 12 10
-15.673881 -0.354645 56.412758 15 12 10
-15.739930 -0.234020 56.650478 15 12 10
-15.806386 -0.112373 56.889668 15 12 11
-15.873169 0.010305 57.130028 15 12 12
-15.940125 0.134021 57.371010 15 12 12
-16.007025 0.258775 57.611794 14 12 11
-16.073589 0.384560 57.851368 14 12 11
-16.139494 0.511356 58.088573 14 13 11
-12.783578 -10.787079 46.369869 31 27 26
-12.761374 -10.668558 46.289326 31 26 26
-12.740216 -10.551251 46.212582 31 25 25
-12.720010 -10.435056 46.139286 31 24 25
-12.700638 -10.319855 46.069019 30 24 25
-12.681979 -10.205530 46.001339 31 24 26
-12.663903 -10.091962 45.935772 32 25 27
-12.646284 -9.979037 45.871864 33 26 28
-12.628999 -9.866649 45.809162 33 26 28
-12.611937 -9.754703 45.747272 33 26 28
-12.594997 -9.643118 45.685829 33 26 28
-12.578100 -9.531830 45.624538 33 26 27
-12.561182 -9.420790 45.563171 33 26 27
-12.544204 -9.309970 45.501583 33 26 27
-12.527142 -9.199354 45.439697 33 26 28
-12.509995 -9.088944 45.377502 33 27 28
-12.492785 -8.978756 45.315075 32 26 27
-12.475542 -8.868814 45.252529 31 26 26
-12.458316 -8.759154 45.190044 30 25 26
-12.441165 -8.649816 45.127834 29 24 25
-12.424153 -8.540840 45.066128 28 23 24
-12.407351 -8.432274 45.005180 27 22 24
-12.390831 -8.324160 44.945259 27 22 23
-12.374663 -8.216537 44.886612 27 22 23
-12.358917 -8.109446 44.829494 27 22 22
-12.343659 -8.002916 44.774151 26 21 21
-12.328957 -7.896980 44.720821 25 21 20
-12.314868 -7.791663 44.669716 26 21 20
-12.301456 -7.686990 44.621067 26 21 21
-12.288783 -7.582982 44.575100 26 20 21
-12.276917 -7.479663 44.532055 26 20 22
-12.265920 -7.377053 44.492168 26 21 22
-12.255868 -7.275176 44.455704 27 21 22
-12.246838 -7.174055 44.422951 27 22 22
-12.238914 -7.073714 44.394207 27 22 22
-12.232184 -6.974179 44.369801 27 22 22
-12.226739 -6.875470 44.350044 27 22 22
-12.222669 -6.777609 44.335281 26 22 22
-12.220064 -6.680614 44.325832 25 21 22
-12.219010 -6.584494 44.322014 24 20 21
-12.219585 -6.489256 44.324097 23 19 20
-12.221853 -6.394895 44.332325 22 18 19
-12.225869 -6.301399 44.346889 21 18 18
-12.231669 -6.208746 44.367928 21 18 18
-12.239273 -6.116904 44.395508 22 19 19
-12.248686 -6.025833 44.429653 22 19 19
-12.259897 -5.935486 44.470322 22 19 19
-12.272884 -5.845809 44.517429 22 19 20
-12.287609 -5.756742 44.570839 22 19 20
-12.304030 -5.668228 44.630405 23 18 20
-12.322108 -5.580207 44.695980 23 18 20
-12.341796 -5.492619 44.767391 22 18 19
-12.363056 -5.405411 44.844509 21 17 18
-12.385869 -5.318537 44.927258 20 16 16
-12.410220 -5.231956 45.015587 18 16 14
-12.436117 -5.145632 45.109524 19 16 14
-12.463582 -5.059541 45.209148 19 17 15
-12.492656 -4.973660 45.314606 19 17 16
-12.523396 -4.887975 45.426113 19 17 17
-12.555881 -4.802476 45.543941 21 17 18
-12.590186 -4.717153 45.668377 21 16 18
-12.626407 -4.631994 45.799763 22 16 17
-12.664637 -4.546991 45.938431 22 16 16
-12.704971 -4.462129 46.084736 22 15 16
-12.747499 -4.377389 46.238995 23 15 15
-12.792299 -4.292748 46.401505 23 15 15
-12.839443 -4.208173 46.572506 24 16 15
-12.888981 -4.123628 46.752197 24 15 15
-12.940954 -4.039067 46.940720 23 16 16
-12.995385 -3.954442 47.138157 23 16 17
-13.052281 -3.869696 47.344536 22 16 17
-13.111629 -3.784769 47.559807 21 16 17
-13.173402 -3.699594 47.783878 20 16 16
-13.237561 -3.614105 48.016602 18 15 15
-13.304048 -3.528229 48.257767 16 14 13
-13.372785 -3.441894 48.507099 14 13 12
-13.443678 -3.355021 48.764248 13 12 11
-13.516618 -3.267534 49.028824 13 11 11
-13.591473 -3.179355 49.300343 13 11 11
-13.668086 -3.090402 49.578243 13 11 12
-13.746278 -3.000596 49.861866 13 12 12
-13.825842 -2.909857 50.150475 13 12 12
-13.906549 -2.818104 50.443218 13 12 13
-13.988143 -2.725262 50.739185 13 12 13
-14.070347 -2.631258 51.037365 13 12 13
-14.152869 -2.536026 51.336697 13 12 12
-14.235400 -2.439505 51.636063 13 11 12
-14.317636 -2.341644 51.934357 13 11 11
-14.399273 -2.242404 52.230476 13 10 10
-14.480027 -2.141758 52.523399 12 10 10
-14.559644 -2.039689 52.812191 12 10 8
-14.637905 -1.936195 53.096069 12 10 8
-14.714647 -1.831289 53.374435 11 10 8
-14.789759 -1.724992 53.646885 11 10 8
-14.863194 -1.617338 53.913258 11 10 9
-14.934974 -1.508369 54.173622 11 11 9
-15.005176 -1.398130 54.428268 12 11 9
-15.073952 -1.286672 54.677742 12 11 9
-15.141493 -1.174042 54.922729 12 11 9
-15.208038 -1.060286 55.164112 12 12 9
-15.273847 -0.945445 55.402817 13 12 9
-15.339191 -0.829549 55.639843 13 12 9
-15.404329 -0.712621 55.876118 14 12 10
-15.469499 -0.594676 56.112507 15 12 10
-15.534892 -0.475719 56.349709 15 12 10
-15.600637 -0.355748 56.588188 15 12 10
-15.666800 -0.234754 56.828182 15 12 10
-15.733367 -0.112728 57.069637 15 12 11
-15.800242 0.010338 57.312214 15 12 11
-15.867261 0.134452 57.555313 15 12 11
-15.934176 0.259612 57.798035 14 12 11
-16.000698 0.385809 58.039326 14 12 12
-16.066484 0.513023 58.277950 14 13 12
-16.131186 0.641222 58.512646 14 14 13
-12.698318 -10.799579 46.423603 31 27 26
-12.676279 -10.680936 46.343029 32 27 26
-12.655251 -10.563483 46.266151 32 26 26
-12.635131 -10.447113 46.192596 32 26 26
-12.615804 -10.331710 46.121941 32 25 26
-12.597146 -10.217154 46.053726 32 25 27
-12.579030 -10.103327 45.987499 33 25 27
-12.561331 -9.990117 45.922791 33 26 28
-12.543928 -9.877419 45.859169 34 27 28
-12.526714 -9.765143 45.796238 34 27 29
-12.509592 -9.653210 45.733643 34 27 29
-12.492489 -9.541560 45.671112 35 27 29
-12.475343 -9.430148 45.608429 34 27 29
-12.458123 -9.318951 45.545475 34 27 29
-12.440810 -9.207956 45.482185 35 28 30
-12.423413 -9.097173 45.418579 34 28 29
-12.405951 -8.986617 45.354744 34 28 29
-12.388468 -8.876320 45.290825 33 28 28
-12.371016 -8.766321 45.227020 32 27 27
-12.353658 -8.656664 45.163563 31 26 26
-12.336461 -8.547392 45.100697 30 25 25
-12.319503 -8.438554 45.038696 29 24 25
-12.302857 -8.330194 44.977844 29 24 25
-12.286598 -8.222357 44.918400 29 24 25
-12.270797 -8.115078 44.860634 29 24 24
-12.255520 -8.008390 44.804783 28 23 23
-12.240835 -7.902327 44.751099 27 22 22
-12.226805 -7.796912 44.699802 27 22 22
-12.213490 -7.692168 44.651123 28 22 22
-12.200951 -7.588116 44.605282 28 22 23
-12.189251 -7.484778 44.562511 28 22 23
-12.178458 -7.382174 44.523052 28 22 24
-12.168637 -7.280322 44.487148 28 22 23
-12.159869 -7.179246 44.455097 28 23 23
-12.152234 -7.078968 44.427181 28 24 23
-12.145815 -6.979509 44.403713 28 24 23
-12.140697 -6.880890 44.385006 28 24 24
-12.136972 -6.783129 44.371384 28 24 24
-12.134727 -6.686241 44.363174 27 23 23
-12.134043 -6.590238 44.360676 25 22 22
-12.134995 -6.495121 44.364155 24 21 20
-12.137646 -6.400885 44.373848 23 20 19
-12.142048 -6.307517 44.389942 23 19 18
-12.148239 -6.214994 44.412575 23 19 18
-12.156235 -6.123283 44.441807 23 19 19
-12.166040 -6.032343 44.477654 24 20 20
-12.177645 -5.942127 44.520081 24 20 20
-12.191024 -5.852580 44.568989 25 20 21
-12.206139 -5.763641 44.624249 25 20 21
-12.222948 -5.675251 44.685703 25 20 21
-12.241406 -5.587348 44.753185 24 19 21
-12.261470 -5.499875 44.826534 23 18 20
-12.283099 -5.412776 44.905609 21 17 18
-12.306267 -5.326001 44.990307 21 17 17
-12.330962 -5.239511 45.080589 20 17 16
-12.357188 -5.153269 45.176468 20 18 16
-12.384961 -5.067247 45.278008 21 19 17
-12.414327 -4.981426 45.385361 20 18 17
-12.445339 -4.895790 45.498741 20 18 18
-12.478071 -4.810328 45.618404 21 18 18
-12.512605 -4.725031 45.744656 21 17 18
-12.549034 -4.639891 45.877838 21 17 18
-12.587455 -4.554896 46.018299 22 17 17
-12.627964 -4.470036 46.166397 22 16 17
-12.670655 -4.385292 46.322468 22 16 16
-12.715611 -4.300641 46.486824 23 16 16
-12.762904 -4.216054 46.659721 23 16 15
-12.812595 -4.131495 46.841385 23 16 15
-12.864722 -4.046918 47.031960 23 15 15
-12.919316 -3.962277 47.231548 23 16 16
-12.976384 -3.877514 47.440178 22 16 17
-13.035915 -3.792569 47.657818 22 17 17
-13.097882 -3.707374 47.884361 21 17 17
-13.162245 -3.621862 48.119663 19 16 16
-13.228943 -3.535960 48.363506 17 14 14
-13.297897 -3.449592 48.615597 15 13 13
-13.369010 -3.362680 48.875576 14 12 12
-13.442166 -3.275145 49.143028 14 11 11
-13.517232 -3.186908 49.417458 13 11 11
-13.594045 -3.097884 49.698277 13 11 12
-13.672422 -3.007995 49.984818 14 12 12
-13.752155 -2.917158 50.276310 14 12 12
-13.833011 -2.825294 50.571911 14 12 13
-13.914734 -2.732325 50.870682 14 12 13
-13.997046 -2.638179 51.171600 14 12 13
-14.079655 -2.542789 51.473610 14 11 12
-14.162252 -2.446096 51.775578 14 11 12
-14.244537 -2.348049 52.076401 13 11 11
-14.326208 -2.248609 52.374981 13 11 11
-14.406982 -2.147747 52.670280 13 11 10
-14.486608 -2.045451 52.961384 13 11 9
-14.564873 -1.941718 53.247513 13 12 9
-14.641611 -1.836560 53.528061 13 12 9
-14.716721 -1.730001 53.802654 12 12 9
-14.790158 -1.622074 54.071133 12 12 9
-14.861943 -1.512822 54.333569 12 12 10
-14.932163 -1.402292 54.590286 12 12 10
-15.000969 -1.290533 54.841827 12 12 9
-15.068559 -1.177595 55.088932 12 12 9
-15.135174 -1.063522 55.332466 12 12 9
-15.201074 -0.948355 55.573391 13 11 9
-15.266532 -0.832126 55.812698 14 12 10
-15.331809 -0.714856 56.051346 14 12 10
-15.397136 -0.596559 56.290173 15 12 10
-15.462702 -0.477240 56.529873 15 12 10
-15.528633 -0.356896 56.770908 15 12 10
-15.594980 -0.235519 57.013470 15 12 11
-15.661720 -0.113099 57.257462 15 11 11
-15.728747 0.010373 57.502506 15 11 11
-15.795878 0.134902 57.747929 15 11 11
-15.862860 0.260487 57.992805 14 12 11
-15.929380 0.387116 58.235996 14 13 12
-15.995090 0.514768 58.476223 14 13 13
-16.059624 0.643409 58.712154 14 14 14
-16.122627 0.772993 58.942486 14 14 14
-12.612803 -10.812059 46.477253 32 27 26
-12.590884 -10.693254 46.396481 33 27 26
-12.569938 -10.575616 46.319294 33 27 26
-12.549861 -10.459035 46.245312 33 27 26
-12.530537 -10.343395 46.174107 33 26 26
-12.511842 -10.228576 46.105213 33 26 27
-12.493651 -10.114462 46.038185 33 25 27
-12.475842 -10.000942 45.972557 33 26 28
-12.458293 -9.887913 45.907890 34 27 29
-12.440903 -9.775287 45.843811 34 28 30
-12.423579 -9.662989 45.779972 35 29 30
-12.406250 -9.550962 45.716118 36 29 31
-12.388865 -9.439168 45.652058 36 29 31
-12.371395 -9.327585 45.587677 36 29 32
-12.353827 -9.216208 45.522945 36 29 31
