ply
format ascii 1.0
element vertex 1222
property float x
property float y
property float z
property uchar red
property uchar green
property uchar blue
end_header
-7.797456 -9.674369 48.300293 29 18 18
-7.784901 -9.554840 48.222523 29 19 19
-7.772943 -9.436372 48.148453 30 20 19
-7.761601 -9.318962 48.078194 30 20 19
-7.750899 -9.202615 48.011902 29 20 18
-7.740859 -9.087331 47.949707 28 20 18
-7.731508 -8.973115 47.891788 28 19 18
-7.722872 -8.859969 47.838291 28 19 18
-7.714974 -8.747890 47.789371 29 18 18
-7.707837 -8.636875 47.745159 30 17 18
-7.701480 -8.526915 47.705784 31 17 18
-7.695919 -8.417994 47.671333 31 17 18
-7.691164 -8.310093 47.641880 31 18 18
-7.687225 -8.203190 47.617477 31 19 18
-7.684105 -8.097255 47.598156 31 19 17
-7.681807 -7.992258 47.583916 31 19 17
-7.680326 -7.888162 47.574745 31 19 17
-7.679657 -7.784929 47.570599 30 19 17
-7.679792 -7.682518 47.571438 29 19 17
-7.680726 -7.580891 47.577221 29 19 17
-7.682450 -7.480010 47.587902 29 18 17
-7.684958 -7.379834 47.603432 28 18 16
-7.688249 -7.280334 47.623825 28 18 16
-7.692325 -7.181479 47.649071 28 18 16
-7.697194 -7.083244 47.679234 28 19 16
-7.702868 -6.985610 47.714382 29 19 16
-7.709373 -6.888565 47.754669 30 20 17
-7.716738 -6.792105 47.800293 31 21 18
-7.725002 -6.696228 47.851486 31 22 19
-7.734215 -6.600938 47.908550 31 22 19
-7.744431 -6.506247 47.971840 31 21 19
-7.755721 -6.412169 48.041771 30 20 18
-7.768155 -6.318721 48.118790 30 19 17
-7.781812 -6.225921 48.203388 29 19 17
-7.796781 -6.133786 48.296108 29 19 17
-7.813152 -6.042336 48.397518 29 20 17
-7.831019 -5.951587 48.508194 29 21 18
-7.850482 -5.861551 48.628754 29 21 19
-7.871644 -5.772243 48.759838 28 21 19
-7.894615 -5.683670 48.902130 27 21 19
-7.919509 -5.595843 49.056332 26 20 18
-7.946448 -5.508770 49.223202 25 19 18
-7.975564 -5.422457 49.403557 25 19 18
-8.006997 -5.336911 49.598267 25 18 18
-8.040903 -5.252140 49.808289 26 18 18
-8.077448 -5.168152 50.034664 27 17 17
-8.116814 -5.084956 50.278511 28 17 17
-8.159195 -5.002557 50.541035 28 16 16
-8.204800 -4.920960 50.823528 29 16 16
-8.253843 -4.840161 51.127319 29 16 15
-8.306546 -4.760150 51.453781 28 16 15
-8.363126 -4.680901 51.804256 28 15 14
-8.423793 -4.602375 52.180050 27 15 13
-8.488740 -4.524508 52.582355 25 15 12
-8.558130 -4.447217 53.012188 24 15 11
-8.632094 -4.370389 53.470345 23 15 12
-8.710711 -4.293878 53.957329 23 15 13
-8.794003 -4.217510 54.473263 23 16 14
-8.881924 -4.141076 55.017879 23 16 14
-8.974355 -4.064336 55.590431 22 16 13
-9.071090 -3.987020 56.189648 20 15 12
-9.171843 -3.908833 56.813744 20 13 12
-9.276232 -3.829456 57.460365 19 13 12
-9.383788 -3.748556 58.126614 19 14 13
-9.493965 -3.665796 58.809086 18 14 13
-9.606135 -3.580837 59.503914 18 15 13
-9.719610 -3.493351 60.206818 18 15 13
-9.833650 -3.403030 60.913219 18 15 13
-9.947484 -3.309595 61.618351 18 14 13
-10.060329 -3.212804 62.317352 19 14 13
-10.171409 -3.112459 63.005421 19 13 13
-10.279978 -3.008413 63.677937 19 13 13
-10.385342 -2.900573 64.330597 20 13 14
-10.486874 -2.788899 64.959526 20 13 14
-10.584034 -2.673410 65.561371 22 13 14
-10.676379 -2.554174 66.133392 24 14 15
-10.763573 -2.431309 66.673500 28 16 16
-10.845387 -2.304971 67.180290 33 18 19
-10.921702 -2.175353 67.653015 40 22 22
-10.992501 -2.042672 68.091568 45 24 24
-11.057863 -1.907163 68.496445 49 25 25
-11.117948 -1.769068 68.868629 51 26 25
-11.172980 -1.628632 69.209526 54 27 27
-11.223242 -1.486095 69.520866 55 27 28
-11.269050 -1.341685 69.804611 55 27 28
-11.310740 -1.195617 70.062859 55 28 28
-11.348660 -1.048087 70.297752 55 28 27
-11.383149 -0.899274 70.511383 55 28 27
-11.414536 -0.749335 70.705803 55 28 27
-11.443123 -0.598412 70.882881 55 28 27
-11.469190 -0.446628 71.044350 55 28 27
-11.492980 -0.294089 71.191719 54 27 26
-11.514712 -0.140889 71.326332 52 26 25
-11.534568 0.012888 71.449326 52 25 24
-11.552701 0.167171 71.561653 52 24 24
-11.569235 0.321894 71.664062 52 24 25
-11.584274 0.476997 71.757225 52 25 25
-11.597906 0.632425 71.841667 51 27 25
-11.610196 0.788126 71.917801 51 27 25
-11.621199 0.944050 71.985954 50 27 26
-11.630962 1.100151 72.046432 49 28 26
-11.639533 1.256384 72.099525 49 28 27
-11.646949 1.412706 72.145454 49 28 28
-11.653245 1.569075 72.184456 50 28 29
-11.658461 1.725452 72.216766 51 28 29
-11.662634 1.881800 72.242615 51 27 28
-11.665801 2.038084 72.262238 52 27 27
-11.668000 2.194271 72.275856 51 26 26
-11.669269 2.350329 72.283714 51 25 25
-11.669644 2.506229 72.286041 51 26 25
-11.669163 2.661943 72.283058 51 26 25
-11.667853 2.817445 72.274948 52 26 25
-11.665751 2.972710 72.261925 51 27 24
-11.662885 3.127713 72.244171 51 27 24
-11.659286 3.282434 72.221870 50 27 25
-11.654982 3.436851 72.195213 50 28 27
-11.650003 3.590945 72.164383 50 28 28
-11.644383 3.744700 72.129562 50 30 29
-11.638155 3.898101 72.090981 50 30 29
-11.631355 4.051136 72.048866 49 28 27
-11.624026 4.203799 72.003464 48 26 27
-11.616208 4.356082 71.955040 49 25 26
-11.607952 4.507987 71.903893 50 24 26
-11.599308 4.659515 71.850357 50 23 26
-11.590329 4.810673 71.794731 52 24 26
-11.581070 4.961472 71.737381 54 25 27
-11.571587 5.111924 71.678635 55 27 27
-11.561932 5.262045 71.618828 56 28 27
-11.552163 5.411855 71.558319 56 28 27
-11.542329 5.561372 71.497406 55 28 26
-11.532482 5.710620 71.436409 54 28 26
-11.522669 5.859623 71.375626 54 27 26
-11.512935 6.008404 71.315323 54 27 25
-11.503321 6.156991 71.255768 54 27 25
-11.493867 6.305408 71.197212 54 27 26
-11.484612 6.453684 71.139885 54 27 27
-11.475592 6.601849 71.084007 54 28 27
-11.466837 6.749928 71.029778 54 28 28
-11.458380 6.897954 70.977394 53 28 28
-11.450248 7.045952 70.927017 53 29 27
-11.442465 7.193954 70.878807 53 29 27
-11.435052 7.341985 70.832893 52 29 27
-11.428026 7.490072 70.789368 51 29 27
-11.421400 7.638239 70.748322 50 29 26
-11.415179 7.786506 70.709793 50 29 26
-11.409370 7.934892 70.673813 50 29 26
-11.403973 8.083415 70.640373 50 28 26
-11.398982 8.232088 70.609459 51 29 27
-7.684852 -9.663698 48.247021 28 18 18
-7.672721 -9.544604 48.170860 28 19 19
-7.661159 -9.426538 48.098270 29 19 19
-7.650180 -9.309494 48.029346 29 20 18
-7.639806 -9.193475 47.964214 29 20 18
-7.630058 -9.078482 47.903015 28 20 19
-7.620965 -8.964522 47.845924 29 20 19
-7.612550 -8.851598 47.793095 29 20 19
-7.604839 -8.739711 47.744686 29 19 19
-7.597858 -8.628861 47.700859 30 18 19
-7.591628 -8.519043 47.661743 30 18 18
-7.586166 -8.410245 47.627453 30 18 18
-7.581488 -8.302453 47.598080 29 18 18
-7.577604 -8.195647 47.573696 30 19 18
-7.574521 -8.089801 47.554340 30 20 18
-7.572241 -7.984887 47.540031 30 20 18
-7.570765 -7.880869 47.530758 29 20 18
-7.570084 -7.777709 47.526485 29 20 18
-7.570195 -7.675371 47.527184 28 20 18
-7.571090 -7.573814 47.532803 28 19 18
-7.572760 -7.472997 47.543289 28 19 17
-7.575199 -7.372884 47.558598 28 18 17
-7.578403 -7.273438 47.578712 27 18 16
-7.582372 -7.174630 47.603634 27 18 16
-7.587111 -7.076433 47.633389 28 18 17
-7.592631 -6.978826 47.668041 30 19 17
-7.598953 -6.881794 47.707729 31 20 18
-7.606104 -6.785332 47.752625 32 21 18
-7.614120 -6.689435 47.802952 32 21 18
-7.623047 -6.594110 47.858997 32 21 18
-7.632937 -6.499364 47.921089 32 21 18
-7.643857 -6.405212 47.989643 31 20 18
-7.655874 -6.311670 48.065094 30 19 17
-7.669068 -6.218757 48.147926 29 18 17
-7.683524 -6.126493 48.238682 29 19 17
-7.699330 -6.034896 48.337921 29 20 18
-7.716582 -5.943985 48.446232 29 20 18
-7.735377 -5.853774 48.564228 29 21 19
-7.755822 -5.764281 48.692585 29 21 19
-7.778026 -5.675518 48.831985 28 21 19
-7.802107 -5.587498 48.983170 27 20 18
-7.828187 -5.500231 49.146904 26 19 18
-7.856402 -5.413730 49.324051 25 19 18
-7.886897 -5.328005 49.515499 25 18 17
-7.919830 -5.243068 49.722260 26 18 17
-7.955372 -5.158932 49.945400 26 17 17
-7.993707 -5.075608 50.186077 27 17 16
-8.035037 -4.993106 50.445553 28 17 16
-8.079571 -4.911434 50.725143 28 16 15
-8.127528 -4.830591 51.026230 28 16 15
-8.179132 -4.750568 51.350212 28 16 15
-8.234608 -4.671345 51.698498 27 16 14
-8.294168 -4.592882 52.072430 26 15 13
-8.358007 -4.515118 52.473228 25 16 12
-8.426297 -4.437970 52.901958 24 16 11
-8.499169 -4.361326 53.359470 23 16 12
-8.576712 -4.285042 53.846291 23 17 13
-8.658952 -4.208943 54.362610 23 17 14
-8.745852 -4.132820 54.908184 23 17 14
-8.837298 -4.056431 55.482307 22 16 14
-8.933099 -3.979507 56.083763 21 15 13
-9.032969 -3.901748 56.710766 21 14 13
-9.136539 -3.822834 57.361004 20 14 13
-9.243350 -3.742428 58.031582 19 14 13
-9.352858 -3.660186 58.719090 19 15 14
-9.464440 -3.575765 59.419628 19 15 14
-9.577413 -3.488830 60.128891 18 15 14
-9.691035 -3.399064 60.842236 18 15 13
-9.804535 -3.306182 61.554810 18 14 13
-9.917122 -3.209932 62.261654 18 14 13
-10.028013 -3.110109 62.957851 19 13 13
-10.136453 -3.006557 63.638657 19 13 13
-10.241734 -2.899176 64.299629 20 13 14
-10.343217 -2.787922 64.936760 21 13 14
-10.440347 -2.672806 65.546562 22 13 14
-10.532667 -2.553895 66.126167 24 14 14
-10.619830 -2.431304 66.673393 27 14 15
-10.701596 -2.305192 67.186745 32 17 17
-10.777840 -2.175751 67.665413 38 20 20
-10.848537 -2.043203 68.109268 44 23 23
-10.913765 -1.907784 68.518776 48 25 24
-10.973682 -1.769744 68.894951 50 26 25
-11.028519 -1.629331 69.239227 54 27 27
-11.078560 -1.486790 69.553391 56 28 28
-11.124128 -1.342355 69.839478 56 27 28
-11.165567 -1.196245 70.099648 57 28 28
-11.203233 -1.048659 70.336113 57 29 28
-11.237470 -0.899779 70.551056 57 29 28
-11.268613 -0.749767 70.746582 57 29 28
-11.296972 -0.598765 70.924629 57 29 28
-11.322830 -0.446896 71.086967 56 28 27
-11.346435 -0.294268 71.235161 54 27 26
-11.368002 -0.140977 71.370567 53 26 25
-11.387717 0.012896 71.494339 53 25 24
-11.405729 0.167278 71.607430 53 25 24
-11.422163 0.322103 71.710594 52 25 25
-11.437118 0.477311 71.804489 52 25 26
-11.450674 0.632847 71.889603 52 27 26
-11.462897 0.788657 71.966339 51 27 26
-11.473836 0.944693 72.035019 50 27 25
-11.483535 1.100906 72.095901 49 28 26
-11.492034 1.257251 72.149269 50 28 27
-11.499372 1.413682 72.195335 50 29 28
-11.505580 1.570158 72.234306 51 29 29
-11.510695 1.726638 72.266426 52 28 29
-11.514756 1.883085 72.291924 52 28 29
-11.517800 2.039460 72.311028 53 27 28
-11.519863 2.195732 72.323975 52 26 26
-11.520985 2.351867 72.331024 51 26 25
-11.521205 2.507836 72.332405 51 26 25
-11.520561 2.663612 72.328362 52 27 26
-11.519086 2.819166 72.319099 52 27 25
-11.516814 2.974475 72.304840 51 27 25
-11.513779 3.129515 72.285782 51 27 25
-11.510012 3.284264 72.262131 50 27 25
-11.505544 3.438701 72.234077 50 28 27
-11.500406 3.592808 72.201828 50 29 28
-11.494633 3.746569 72.165581 50 31 29
-11.488258 3.899970 72.125557 50 31 29
-11.481321 4.052999 72.082008 49 29 28
-11.473863 4.205650 72.035179 48 27 28
-11.465925 4.357917 71.985352 49 26 27
-11.457561 4.509801 71.932831 50 25 27
-11.448819 4.661305 71.877953 51 24 27
-11.439754 4.812436 71.821045 53 24 28
-11.430422 4.963206 71.762444 55 26 28
-11.420877 5.113628 71.702530 56 27 28
-11.411177 5.263720 71.641624 57 28 28
-11.401375 5.413501 71.580086 56 29 27
-11.391524 5.562993 71.518242 55 29 26
-11.381675 5.712219 71.456406 54 28 26
-11.371874 5.861203 71.394875 54 27 25
-11.362165 6.009971 71.333923 53 27 25
-11.352592 6.158550 71.273819 53 27 25
-11.343192 6.306966 71.214806 54 27 26
-11.334000 6.455245 71.157097 54 27 27
-11.325051 6.603418 71.100914 55 28 28
-11.316376 6.751512 71.046448 55 28 28
-11.308000 6.899553 70.993858 55 29 28
-11.299949 7.047571 70.943314 55 29 28
-11.292243 7.195591 70.894936 54 30 28
-11.284900 7.343638 70.848831 53 30 28
-11.277932 7.491735 70.805084 52 30 27
-11.271347 7.639904 70.763748 51 29 27
-11.265150 7.788162 70.724838 50 29 26
-11.259339 7.936525 70.688362 50 29 26
-11.253912 8.085007 70.654289 50 28 26
-11.248860 8.233616 70.622574 50 28 27
-11.244177 8.382363 70.593170 50 28 27
-7.560895 -9.534534 48.120041 28 19 18
-7.549762 -9.416917 48.049183 28 19 18
-7.539177 -9.300282 47.981819 28 20 18
-7.529160 -9.184628 47.918060 28 20 18
-7.519730 -9.069960 47.858047 28 20 19
-7.510915 -8.956283 47.801945 29 20 19
-7.502740 -8.843602 47.749920 29 20 19
-7.495235 -8.731925 47.702152 29 20 19
-7.488424 -8.621254 47.658806 30 19 19
-7.482331 -8.511587 47.620029 30 19 18
-7.476977 -8.402918 47.585957 29 19 17
-7.472382 -8.295237 47.556705 29 20 17
-7.468557 -8.188527 47.532364 29 20 18
-7.465513 -8.082767 47.512989 29 20 18
-7.463254 -7.977931 47.498619 29 20 18
-7.461782 -7.873986 47.489246 29 21 19
-7.461091 -7.770896 47.484852 28 21 19
-7.461178 -7.668624 47.485409 28 20 19
-7.462036 -7.567132 47.490864 27 19 19
-7.463655 -7.466377 47.501167 27 19 18
-7.466027 -7.366321 47.516266 27 19 17
-7.469149 -7.266929 47.536133 27 18 16
-7.473019 -7.168169 47.560760 28 18 16
-7.477637 -7.070011 47.590157 29 18 17
-7.483015 -6.972433 47.624378 30 19 17
-7.489167 -6.875419 47.663536 31 20 18
-7.496121 -6.778961 47.707790 32 21 18
-7.503907 -6.683054 47.757347 33 21 18
-7.512569 -6.587701 47.812477 33 21 18
-7.522158 -6.492909 47.873497 32 21 18
-7.532733 -6.398694 47.940804 31 20 18
-7.544363 -6.305069 48.014820 30 19 17
-7.557123 -6.212054 48.096027 29 19 18
-7.571096 -6.119669 48.184959 29 19 18
-7.586371 -6.027936 48.282173 29 19 18
-7.603041 -5.936872 48.388264 29 20 19
-7.621203 -5.846497 48.503857 29 20 19
-7.640965 -5.756828 48.629627 29 20 20
-7.662437 -5.667882 48.766285 29 20 20
-7.685739 -5.579675 48.914585 28 20 19
-7.710996 -5.492221 49.075333 26 19 18
-7.738346 -5.405536 49.249390 26 19 18
-7.767937 -5.319635 49.437717 25 18 17
-7.799930 -5.234535 49.641335 25 18 17
-7.834500 -5.150251 49.861351 26 17 17
-7.871837 -5.066798 50.098972 27 17 16
-7.912141 -4.984191 50.355484 27 17 16
-7.955629 -4.902441 50.632256 27 17 15
-8.002523 -4.821548 50.930706 27 17 15
-8.053052 -4.741509 51.252289 27 17 15
-8.107440 -4.662303 51.598427 27 16 15
-8.165903 -4.583892 51.970512 26 16 14
-8.228642 -4.506219 52.369804 25 16 13
-8.295834 -4.429201 52.797424 24 17 12
-8.367611 -4.352725 53.254242 23 17 13
-8.444067 -4.276649 53.740833 22 18 14
-8.525237 -4.200799 54.257431 22 18 14
-8.611090 -4.124964 54.803825 22 18 14
-8.701520 -4.048903 55.379349 22 17 14
-8.796341 -3.972345 55.982822 22 16 14
-8.895279 -3.894987 56.612495 22 14 14
-8.997971 -3.816506 57.266056 21 14 14
-9.103965 -3.736563 57.940639 21 14 14
-9.212724 -3.654809 58.632824 20 15 14
-9.323634 -3.570894 59.338692 20 15 14
-9.436012 -3.484479 60.053905 19 15 14
-9.549120 -3.395239 60.773758 18 15 13
-9.662183 -3.302880 61.493328 18 15 14
-9.774407 -3.207144 62.207561 18 14 13
-9.885005 -3.107816 62.911438 18 13 13
-9.993209 -3.004735 63.600082 19 13 13
-10.098303 -2.897793 64.268944 20 13 13
-10.199636 -2.786938 64.913849 20 13 13
-10.296638 -2.672180 65.531212 21 13 13
-10.388845 -2.553581 66.118042 22 13 13
-10.475893 -2.431255 66.672050 25 14 13
-10.557537 -2.305361 67.191658 29 16 16
-10.633639 -2.176092 67.675995 36 19 19
-10.704173 -2.043672 68.124893 42 22 22
-10.769212 -1.908343 68.538826 47 25 24
-10.828916 -1.770357 68.918800 50 26 26
-10.883516 -1.629968 69.266296 54 28 28
-10.933302 -1.487426 69.583145 56 28 29
-10.978601 -1.342970 69.871445 57 28 29
-11.019765 -1.196821 70.133423 58 29 29
-11.057153 -1.049185 70.371376 58 30 29
-11.091121 -0.900245 70.587563 59 30 29
-11.122006 -0.750165 70.784126 59 30 29
-11.150126 -0.599089 70.963089 58 30 29
-11.175764 -0.447143 71.126259 57 29 28
-11.199173 -0.294434 71.275246 55 27 27
-11.220570 -0.141057 71.411415 54 27 26
-11.240138 0.012904 71.535957 54 26 25
-11.258027 0.167377 71.649811 53 26 25
-11.274357 0.322297 71.753738 53 26 26
-11.289224 0.477603 71.848351 53 26 27
-11.302707 0.633239 71.934158 52 27 27
-11.314863 0.789153 72.011536 51 28 26
-11.325739 0.945293 72.080750 50 28 26
-11.335376 1.101611 72.142082 50 28 26
-11.343810 1.258061 72.195763 50 29 27
-11.351075 1.414596 72.241997 51 29 29
-11.357203 1.571173 72.280998 52 29 30
-11.362227 1.727751 72.312973 52 29 30
-11.366185 1.884289 72.338165 52 29 29
-11.369116 2.040752 72.356812 53 28 28
-11.371056 2.197104 72.369156 53 27 27
-11.372046 2.353312 72.375458 52 26 27
-11.372128 2.509347 72.375984 52 27 27
-11.371339 2.665180 72.370964 53 27 26
-11.369717 2.820785 72.360641 52 27 25
-11.367298 2.976137 72.345245 51 27 25
-11.364117 3.131212 72.324997 50 27 26
-11.360205 3.285990 72.300102 50 28 26
-11.355599 3.440449 72.270790 49 29 27
-11.350330 3.594571 72.237251 50 30 29
-11.344432 3.748342 72.199715 50 31 30
-11.337942 3.901747 72.158409 50 31 30
-11.330898 4.054775 72.113586 49 30 29
-11.323342 4.207420 72.065498 49 28 29
-11.315319 4.359678 72.014435 49 27 28
-11.306879 4.511549 71.960716 51 26 28
-11.298073 4.663037 71.904671 53 26 29
-11.288956 4.814152 71.846642 55 26 29
-11.279583 4.964903 71.786995 56 27 29
-11.270011 5.115307 71.726074 57 28 29
-11.260297 5.265382 71.664253 57 29 29
-11.250496 5.415149 71.601875 56 29 28
-11.240658 5.564628 71.539261 55 29 27
-11.230836 5.713846 71.476753 54 28 26
-11.221076 5.862826 71.414635 53 28 26
-11.211422 6.011595 71.353195 52 27 26
-11.201914 6.160180 71.292679 52 27 27
-11.192590 6.308608 71.233345 53 27 27
-11.183484 6.456905 71.175392 55 27 28
-11.174627 6.605100 71.119019 55 28 29
-11.166046 6.753220 71.064415 55 28 29
-11.157767 6.901289 71.011719 55 29 28
-11.149810 7.049336 70.961082 54 30 28
-11.142193 7.197384 70.912605 54 30 28
-11.134929 7.345456 70.866371 53 30 28
-11.128027 7.493572 70.822441 52 30 28
-11.121490 7.641750 70.780846 51 30 27
-11.115321 7.790006 70.741577 50 29 27
-11.109513 7.938351 70.704620 50 28 26
-11.104061 8.086796 70.669922 50 28 27
-11.098955 8.235348 70.637421 50 28 27
-11.094184 8.384012 70.607056 50 28 27
-11.089732 8.532792 70.578720 50 28 28
-7.449423 -9.524636 48.070084 27 19 18
-7.438746 -9.407511 48.001190 27 19 18
-7.428581 -9.291322 47.935593 27 19 18
-7.418945 -9.176069 47.873409 27 20 18
-7.409855 -9.061755 47.814754 28 20 18
-7.401339 -8.948386 47.759804 28 20 18
-7.393424 -8.835973 47.708729 29 20 19
-7.386138 -8.724523 47.661713 29 20 19
-7.379510 -8.614043 47.618942 29 20 19
-7.373566 -8.504538 47.580589 29 20 18
-7.368331 -8.396004 47.546806 29 20 18
-7.363825 -8.288438 47.517731 28 20 17
-7.360065 -8.181826 47.493469 28 21 18
-7.357064 -8.076152 47.474102 28 21 19
-7.354830 -7.971392 47.459686 28 21 19
-7.353364 -7.867517 47.450226 28 21 20
-7.352664 -7.764491 47.445713 28 21 20
-7.352729 -7.662282 47.446129 28 20 20
-7.353550 -7.560848 47.451431 28 20 19
-7.355120 -7.460151 47.461559 27 20 18
-7.357429 -7.360149 47.476456 27 19 17
-7.360472 -7.260808 47.496094 27 18 16
-7.364246 -7.162093 47.520451 28 17 16
-7.368752 -7.063974 47.549526 29 18 17
-7.373995 -6.966426 47.583355 30 19 17
-7.379989 -6.869432 47.622032 31 20 17
-7.386758 -6.772982 47.665710 32 20 17
-7.394331 -6.677069 47.714581 33 20 17
-7.402746 -6.581694 47.768879 33 20 17
-7.412050 -6.486864 47.828922 32 20 17
-7.422303 -6.392591 47.895084 31 20 17
-7.433570 -6.298892 47.967785 30 20 18
-7.445922 -6.205784 48.047489 29 19 18
-7.459441 -6.113290 48.134724 29 19 19
-7.474214 -6.021429 48.230053 29 20 19
-7.490333 -5.930223 48.334068 29 20 20
-7.507896 -5.839692 48.447399 29 20 20
-7.527009 -5.749856 48.570736 30 21 21
-7.547786 -5.660737 48.704807 29 20 20
-7.570345 -5.572351 48.850376 28 20 19
-7.594816 -5.484717 49.008278 27 19 18
-7.621336 -5.397855 49.179413 26 19 17
-7.650059 -5.311785 49.364761 25 18 17
-7.681149 -5.226525 49.565376 25 18 17
-7.714782 -5.142097 49.782410 26 17 17
-7.751153 -5.058518 50.017105 26 17 16
-7.790466 -4.975808 50.270782 27 16 15
-7.832939 -4.893978 50.544857 27 17 15
-7.878798 -4.813035 50.840778 26 17 15
-7.928272 -4.732974 51.160030 26 17 15
-7.981591 -4.653779 51.504086 26 17 15
-8.038975 -4.575414 51.874378 26 17 15
-8.100625 -4.497820 52.272198 24 17 14
-8.166720 -4.420919 52.698700 23 17 13
-8.237400 -4.344596 53.154785 23 18 14
-8.312762 -4.268712 53.641087 22 18 14
-8.392846 -4.193090 54.157856 22 18 15
-8.477627 -4.117521 54.704937 22 18 15
-8.567006 -4.041763 55.281689 23 17 15
-8.660804 -3.965542 55.886955 23 16 15
-8.758756 -3.888556 56.519024 23 15 15
-8.860507 -3.810478 57.175610 22 14 14
-8.965613 -3.730966 57.853848 22 14 14
-9.073545 -3.649666 58.550316 21 15 14
-9.183693 -3.566224 59.261082 20 15 14
-9.295380 -3.480294 59.981785 19 15 14
-9.407869 -3.391546 60.707661 18 15 13
-9.520388 -3.299679 61.433727 18 14 13
-9.632139 -3.204426 62.154846 18 14 13
-9.742330 -3.105566 62.865887 18 13 13
-9.850187 -3.002930 63.561874 19 13 12
-9.954986 -2.896403 64.238129 19 13 12
-10.056063 -2.785930 64.890366 20 12 12
-10.152841 -2.671513 65.514854 20 12 12
-10.244840 -2.553213 66.108513 21 13 12
-10.331690 -2.431142 66.668945 23 13 12
-10.413134 -2.305458 67.194489 27 15 15
-10.489029 -2.176357 67.684235 33 18 18
-10.559341 -2.044063 68.137947 40 21 22
-10.624144 -1.908824 68.556107 46 24 25
-10.683593 -1.770894 68.939728 50 27 27
-10.737925 -1.630533 69.290321 53 28 29
-10.787429 -1.487995 69.609764 56 29 30
-10.832438 -1.343523 69.900208 58 29 30
-10.873312 -1.197342 70.163956 59 30 31
-10.910413 -1.049662 70.403366 60 31 31
-10.944102 -0.900668 70.620758 60 31 30
-10.974726 -0.750528 70.818367 60 31 30
-11.002601 -0.599386 70.998238 60 31 30
-11.028020 -0.447369 71.162262 58 30 30
-11.051231 -0.294586 71.312050 56 29 29
-11.072457 -0.141132 71.449013 55 28 27
-11.091880 0.012911 71.574341 55 28 27
-11.109647 0.167469 71.688988 54 27 27
-11.125873 0.322476 71.793701 54 27 28
-11.140655 0.477874 71.889076 54 28 28
-11.154064 0.633604 71.975616 53 28 28
-11.166158 0.789614 72.053650 52 28 27
-11.176975 0.945853 72.123451 51 28 27
-11.186554 1.102271 72.185265 50 28 27
-11.194927 1.258819 72.239296 51 29 28
-11.202126 1.415453 72.285751 51 30 29
-11.208179 1.572125 72.324814 51 30 31
-11.213121 1.728795 72.356697 51 30 30
-11.216988 1.885422 72.381645 51 29 29
-11.219816 2.041967 72.399902 51 28 29
-11.221645 2.198395 72.411705 51 26 28
-11.222518 2.354673 72.417336 52 26 27
-11.222477 2.510772 72.417068 53 27 27
-11.221563 2.666661 72.411171 53 28 27
-11.219813 2.822315 72.399887 53 28 26
-11.217269 2.977709 72.383461 52 28 26
-11.213964 3.132820 72.362137 51 28 26
-11.209934 3.287627 72.336136 50 28 27
-11.205216 3.442110 72.305687 50 29 28
-11.199843 3.596251 72.271019 50 30 29
-11.193850 3.750036 72.232338 50 31 30
-11.187273 3.903450 72.189903 50 31 30
-11.180155 4.056484 72.143967 49 30 29
-11.172534 4.209131 72.094795 49 29 29
-11.164456 4.361387 72.042671 50 27 29
-11.155972 4.513255 71.987930 52 27 29
-11.147136 4.664739 71.930901 54 27 29
-11.137999 4.815847 71.871941 56 27 29
-11.128618 4.966592 71.811417 57 28 30
-11.119052 5.116991 71.749680 58 29 29
-11.109354 5.267061 71.687103 57 29 29
-11.099583 5.416826 71.624054 56 29 28
-11.089788 5.566307 71.560852 54 29 27
-11.080021 5.715530 71.497826 53 29 26
-11.070329 5.864521 71.435280 52 28 27
-11.060755 6.013306 71.373497 52 28 27
-11.051335 6.161911 71.312721 52 27 27
-11.042109 6.310365 71.253181 54 27 28
-11.033107 6.458693 71.195091 55 28 29
-11.024359 6.606922 71.138641 55 28 29
-11.015887 6.755079 71.083977 55 29 29
-11.007717 6.903188 71.031258 55 29 28
-10.999865 7.051273 70.980583 54 29 28
-10.992343 7.199358 70.932045 53 30 28
-10.985164 7.347461 70.885719 53 30 28
-10.978332 7.495602 70.841629 52 30 28
-10.971848 7.643795 70.799789 51 30 28
-10.965708 7.792054 70.760178 50 29 27
-10.959906 7.940385 70.722740 50 28 26
-10.954432 8.088799 70.687416 50 28 27
-10.949275 8.237296 70.654137 51 28 27
-10.944420 8.385882 70.622803 50 28 27
-10.939851 8.534557 70.593323 50 29 28
-10.935554 8.683320 70.565598 50 29 29
-7.338315 -9.514930 48.021103 28 19 18
-7.328116 -9.398333 47.954361 28 18 18
-7.318392 -9.282625 47.890724 28 19 17
-7.309155 -9.167803 47.830280 27 19 17
-7.300424 -9.053868 47.773144 28 19 17
-7.292224 -8.940832 47.719486 28 19 18
-7.284584 -8.828706 47.669491 29 20 19
-7.277533 -8.717500 47.623348 30 20 20
-7.271101 -8.607225 47.581253 30 20 20
-7.265317 -8.497891 47.543407 29 21 19
-7.260210 -8.389503 47.509987 29 21 19
-7.255802 -8.282056 47.481144 28 20 18
-7.252114 -8.175546 47.457012 28 21 18
-7.249162 -8.069957 47.437691 28 21 18
-7.246954 -7.965271 47.423248 28 21 19
-7.245499 -7.861464 47.413719 28 21 20
-7.244794 -7.758501 47.409107 28 21 20
-7.244838 -7.656349 47.409393 29 21 20
-7.245625 -7.554970 47.414543 28 21 20
-7.247146 -7.454326 47.424500 28 20 19
-7.249393 -7.354374 47.439201 27 19 17
-7.252360 -7.255079 47.458618 27 19 16
-7.256042 -7.156406 47.482719 28 18 16
-7.260439 -7.058324 47.511486 28 18 16
-7.265552 -6.960804 47.544945 29 19 16
-7.271396 -6.863829 47.583187 31 19 17
-7.277989 -6.767386 47.626331 32 20 17
-7.285358 -6.671468 47.674557 32 20 17
-7.293539 -6.576074 47.728088 32 21 17
-7.302577 -6.481210 47.787235 32 21 17
-7.312526 -6.386886 47.852337 31 21 17
-7.323449 -6.293118 47.923817 30 20 18
-7.335416 -6.199925 48.002129 29 19 19
-7.348505 -6.107328 48.087788 29 19 19
-7.362805 -6.015349 48.181358 29 20 20
-7.378403 -5.924010 48.283432 29 20 20
-7.395399 -5.833334 48.394653 29 20 20
-7.413898 -5.743342 48.515709 29 20 20
-7.434014 -5.654058 48.647343 29 20 20
-7.455868 -5.565504 48.790352 28 19 19
-7.479589 -5.477700 48.945583 27 19 18
-7.505321 -5.390672 49.113964 26 19 18
-7.533215 -5.304440 49.296501 25 18 17
-7.563439 -5.219029 49.494289 24 18 17
-7.596176 -5.134463 49.708511 25 17 16
-7.631617 -5.050765 49.940437 25 17 16
-7.669973 -4.967954 50.191437 25 16 16
-7.711465 -4.886047 50.462952 25 16 15
-7.756318 -4.805053 50.756466 25 17 15
-7.804767 -4.724970 51.073509 25 17 15
-7.857040 -4.645781 51.415577 25 18 15
-7.913362 -4.567454 51.784142 25 18 15
-7.973935 -4.489933 52.180527 23 17 14
-8.038940 -4.413135 52.605915 22 17 13
-8.108524 -4.336952 53.061260 22 17 14
-8.182783 -4.261241 53.547207 22 18 14
-8.261764 -4.185827 54.064045 22 18 15
-8.345447 -4.110500 54.611656 22 18 15
-8.433740 -4.035019 55.189438 23 17 15
-8.526471 -3.959107 55.796257 23 16 15
-8.623382 -3.882460 56.430428 23 15 15
-8.724126 -3.804752 57.089691 23 14 15
-8.828267 -3.725635 57.771179 22 14 15
-8.935287 -3.644753 58.471497 22 15 14
-9.044579 -3.561748 59.186695 21 15 14
-9.155472 -3.476266 59.912369 20 15 13
-9.267235 -3.387974 60.643730 19 15 13
-9.379095 -3.296564 61.375732 18 14 13
-9.490256 -3.201761 62.103161 18 14 13
-9.599922 -3.103339 62.820805 18 13 13
-9.707316 -3.001121 63.523575 18 13 12
-9.811705 -2.894985 64.206680 19 13 12
-9.912417 -2.784872 64.865730 19 12 12
-10.008867 -2.670781 65.496887 19 13 12
-10.100566 -2.552767 66.096954 20 12 11
-10.187133 -2.430941 66.663437 22 13 12
-10.268303 -2.305462 67.194603 25 14 14
-10.343926 -2.176525 67.689476 30 17 18
-10.413965 -2.044359 68.147804 37 20 22
-10.478487 -1.909211 68.570030 44 24 25
-10.537649 -1.771342 68.957176 48 26 29
-10.591686 -1.631015 69.310791 52 28 30
-10.640892 -1.488488 69.632790 55 28 30
-10.685602 -1.344006 69.925369 58 29 31
-10.726179 -1.197802 70.190895 59 30 31
-10.762993 -1.050086 70.431801 60 31 31
-10.796408 -0.901047 70.650459 61 32 32
-10.826773 -0.750855 70.849167 61 32 32
-10.854412 -0.599655 71.030037 60 32 32
-10.879616 -0.447575 71.194969 59 31 31
-10.902638 -0.294725 71.345627 58 31 30
-10.923701 -0.141200 71.483459 57 30 30
-10.942984 0.012917 71.609642 56 29 29
-10.960633 0.167553 71.725136 56 29 29
-10.976763 0.322643 71.830688 56 29 30
-10.991464 0.478125 71.926888 55 29 30
-11.004806 0.633944 72.014198 54 29 29
-11.016841 0.790045 72.092957 53 28 28
-11.027603 0.946377 72.163383 51 28 28
-11.037128 1.102888 72.225716 51 28 28
-11.045446 1.259531 72.280144 51 29 29
-11.052586 1.416258 72.326866 51 30 30
-11.058573 1.573022 72.366043 51 31 31
-11.063440 1.729780 72.397896 51 30 31
-11.067224 1.886490 72.422653 51 29 30
-11.069963 2.043114 72.440575 50 28 29
-11.071695 2.199616 72.451920 51 27 28
-11.072466 2.355962 72.456963 52 27 27
-11.072319 2.512121 72.456001 53 27 27
-11.071299 2.668066 72.449318 53 28 27
-11.069443 2.823769 72.437180 53 28 27
-11.066792 2.979206 72.419838 53 29 27
-11.063389 3.134354 72.397560 52 29 28
-11.059268 3.289193 72.370598 51 29 28
-11.054465 3.443704 72.339165 50 30 29
-11.049016 3.597868 72.303513 49 31 30
-11.042957 3.751672 72.263855 49 31 30
-11.036325 3.905102 72.220459 49 31 30
-11.029161 4.058149 72.173584 49 30 29
-11.021507 4.210806 72.123489 49 29 29
-11.013408 4.363071 72.070488 51 28 29
-11.004913 4.514946 72.014900 53 27 29
-10.996077 4.666436 71.957077 55 28 29
-10.986952 4.817551 71.897369 57 28 29
-10.977595 4.968302 71.836143 58 29 29
-10.968064 5.118709 71.773766 58 29 29
-10.958414 5.268789 71.710617 57 29 28
-10.948702 5.418566 71.647057 55 29 27
-10.938977 5.568063 71.583420 54 29 27
-10.929292 5.717307 71.520050 53 29 27
-10.919691 5.866322 71.457222 53 29 27
-10.910217 6.015136 71.395226 53 28 28
-10.900908 6.163776 71.334305 53 28 29
-10.891797 6.312269 71.274681 54 28 29
-10.882915 6.460640 71.216560 55 28 29
-10.874289 6.608916 71.160110 55 29 28
-10.865939 6.757121 71.105469 55 29 28
-10.857886 6.905280 71.052773 54 29 28
-10.850144 7.053412 71.002113 53 29 28
-10.842724 7.201540 70.953552 53 30 28
-10.835632 7.349682 70.907143 52 30 28
-10.828870 7.497852 70.862900 52 30 28
-10.822438 7.646065 70.820808 51 30 28
-10.816330 7.794329 70.780838 50 29 27
-10.810534 7.942649 70.742905 51 28 27
-10.805038 8.091033 70.706947 50 27 26
-10.799831 8.239480 70.672874 50 27 26
-10.794896 8.387992 70.640572 50 28 27
-10.790215 8.536566 70.609940 49 29 28
-10.785773 8.685201 70.580879 49 29 28
-10.781559 8.833897 70.553299 49 29 29
-7.217884 -9.389410 47.908833 28 18 18
-7.208615 -9.274210 47.847313 27 18 17
-7.199793 -9.159843 47.788754 27 17 16
-7.191435 -9.046313 47.733276 28 18 17
-7.183565 -8.933629 47.681042 29 19 18
-7.176213 -8.821807 47.632240 30 19 20
-7.169408 -8.710860 47.587074 30 20 21
-7.163184 -8.600804 47.545761 30 21 21
-7.157571 -8.491653 47.508507 29 21 21
-7.152601 -8.383415 47.475517 29 21 20
-7.148300 -8.276094 47.446968 29 20 19
-7.144691 -8.169689 47.423016 28 20 18
-7.141793 -8.064189 47.403782 28 20 18
-7.139620 -7.959579 47.389355 29 21 19
-7.138177 -7.855836 47.379780 29 21 20
-7.137470 -7.752933 47.375084 29 21 20
-7.137494 -7.650834 47.375244 29 21 20
-7.138247 -7.549505 47.380241 29 21 20
-7.139721 -7.448907 47.390026 29 21 19
-7.141907 -7.349000 47.404537 28 20 18
-7.144798 -7.249745 47.423729 27 19 17
-7.148390 -7.151109 47.447571 28 18 16
-7.152679 -7.053057 47.476036 28 18 15
-7.157666 -6.955561 47.509136 29 18 16
-7.163363 -6.858602 47.546951 30 19 16
-7.169786 -6.762164 47.589584 31 20 17
-7.176960 -6.666241 47.637199 32 21 17
-7.184916 -6.570827 47.690014 32 21 18
-7.193698 -6.475930 47.748302 32 21 18
-7.203358 -6.381558 47.812420 31 21 18
-7.213955 -6.287727 47.882759 30 21 18
-7.225557 -6.194455 47.959766 29 20 19
-7.238243 -6.101763 48.043968 29 20 19
-7.252093 -6.009675 48.135902 28 20 20
-7.267200 -5.918212 48.236176 29 20 20
-7.283660 -5.827401 48.345428 29 20 20
-7.301580 -5.737265 48.464371 28 20 20
-7.321073 -5.647829 48.593750 28 20 20
-7.342259 -5.559118 48.734379 28 19 19
-7.365272 -5.471158 48.887123 27 19 19
-7.390254 -5.383974 49.052948 26 19 19
-7.417362 -5.297594 49.232876 25 19 18
-7.446764 -5.212043 49.428032 25 18 17
-7.478644 -5.127349 49.639633 24 18 17
-7.513198 -5.043539 49.868988 24 17 17
-7.550637 -4.960634 50.117485 24 17 16
-7.591182 -4.878656 50.386608 25 17 16
-7.635064 -4.797613 50.677876 25 17 16
-7.682516 -4.717507 50.992840 25 18 16
-7.733770 -4.638323 51.333038 25 18 15
-7.789049 -4.560029 51.699955 24 18 15
-7.848560 -4.482570 52.094959 24 17 15
-7.912484 -4.405865 52.519253 23 17 14
-7.980968 -4.329805 52.973820 21 17 14
-8.054116 -4.254249 53.459343 21 17 14
-8.131977 -4.179021 53.976147 21 17 15
-8.214535 -4.103912 54.524120 22 17 15
-8.301704 -4.028678 55.102711 22 17 15
-8.393319 -3.953043 55.710808 23 16 15
-8.489130 -3.876703 56.346752 23 15 15
-8.588799 -3.799328 57.008305 23 15 15
-8.691896 -3.720568 57.692616 23 15 15
-8.797911 -3.640065 58.396290 23 15 15
-8.906247 -3.557456 59.115372 22 15 14
-9.016238 -3.472383 59.845444 20 15 13
-9.127160 -3.384508 60.581688 19 15 12
-9.238242 -3.293516 61.318996 18 14 12
-9.348690 -3.199129 62.052097 18 14 12
-9.457707 -3.101111 62.775707 18 14 12
-9.564515 -2.999281 63.484638 18 13 12
-9.668375 -2.893512 64.174011 19 13 12
-9.768610 -2.783739 64.839325 18 13 12
-9.864628 -2.669955 65.476646 19 13 12
-9.955929 -2.552215 66.082657 19 12 12
-10.042128 -2.430627 66.654808 20 12 12
-10.122951 -2.305347 67.191269 23 13 13
-10.198242 -2.176575 67.691017 28 16 17
-10.267959 -2.044538 68.153763 35 19 21
-10.332163 -1.909487 68.579918 41 23 26
-10.391011 -1.771685 68.970520 47 26 30
-10.444737 -1.631400 69.327133 51 27 31
-10.493637 -1.488892 69.651711 54 28 32
-10.538049 -1.344412 69.946487 57 29 32
-10.578336 -1.198194 70.213890 58 30 31
-10.614871 -1.050452 70.456398 59 31 32
-10.648023 -0.901379 70.676445 61 32 32
-10.678145 -0.751143 70.876381 61 32 32
-10.705563 -0.599894 71.058365 61 32 32
-10.730568 -0.447759 71.224342 60 32 32
-10.753418 -0.294850 71.376007 59 32 31
-10.774329 -0.141262 71.514809 58 32 31
-10.793485 0.012923 71.641953 57 32 31
-10.811028 0.167631 71.758400 57 31 31
-10.827071 0.322796 71.864883 56 30 32
-10.841700 0.478358 71.961983 56 30 31
-10.854981 0.634260 72.050133 55 29 30
-10.866964 0.790447 72.129669 53 28 29
-10.877679 0.946867 72.200790 52 28 29
-10.887157 1.103469 72.263702 51 28 29
-10.895427 1.260201 72.318588 51 29 29
-10.902513 1.417017 72.365623 51 30 30
-10.908441 1.573868 72.404968 51 31 31
-10.913243 1.730710 72.436852 51 31 31
-10.916956 1.887501 72.461487 50 30 30
-10.919618 2.044202 72.479156 49 28 28
-10.921268 2.200776 72.490112 50 27 28
-10.921953 2.357188 72.494659 51 26 27
-10.921719 2.513408 72.493103 52 27 26
-10.920610 2.669408 72.485748 54 28 26
-10.918670 2.825160 72.472870 54 29 27
-10.915941 2.980642 72.454758 53 29 28
-10.912463 3.135831 72.431671 52 29 28
-10.908277 3.290706 72.403885 51 29 28
-10.903417 3.445249 72.371628 50 30 29
-10.897921 3.599443 72.335144 49 30 30
-10.891826 3.753273 72.294693 49 30 30
-10.885170 3.906727 72.250511 49 30 30
-10.877993 4.059796 72.202873 49 30 29
-10.870337 4.212474 72.152061 50 29 29
-10.862247 4.364759 72.098366 51 28 29
-10.853774 4.516653 72.042122 53 27 29
-10.844970 4.668161 71.983681 55 28 28
-10.835888 4.819295 71.923401 57 29 29
-10.826586 4.970067 71.861656 58 29 29
-10.817120 5.120496 71.798828 58 29 28
-10.807546 5.270601 71.735283 57 29 27
-10.797918 5.420405 71.671379 56 29 27
-10.788290 5.569933 71.607468 54 29 27
-10.778710 5.719212 71.543884 54 29 28
-10.769222 5.868267 71.480911 54 29 28
-10.759870 6.017125 71.418831 54 29 29
-10.750687 6.165813 71.357872 55 29 29
-10.741707 6.314358 71.298271 55 29 29
-10.732958 6.462785 71.240196 56 29 29
-10.724463 6.611118 71.183815 56 30 28
-10.716242 6.759381 71.129250 55 30 28
-10.708313 6.907597 71.076614 54 30 28
-10.700684 7.055784 71.025986 54 30 28
-10.693366 7.203962 70.977409 53 30 29
-10.686361 7.352146 70.930916 52 30 29
-10.679670 7.500350 70.886505 51 30 29
-10.673287 7.648583 70.844139 50 30 28
-10.667206 7.796854 70.803772 50 29 28
-10.661412 7.945166 70.765320 50 28 27
-10.655896 8.093522 70.728699 50 27 27
-10.650639 8.241920 70.693802 50 27 26
-10.645624 8.390361 70.660522 50 27 27
-10.640835 8.538838 70.628738 49 28 27
-10.636257 8.687350 70.598351 48 28 28
-10.631875 8.835896 70.569267 48 29 28
-7.099268 -9.266112 47.805534 28 18 18
-7.090870 -9.152221 47.748985 28 17 17
-7.082894 -9.039111 47.695274 28 18 18
-7.075364 -8.926795 47.644566 29 19 19
-7.068309 -8.815290 47.597057 31 19 20
-7.061761 -8.704617 47.552963 31 21 21
-7.055754 -8.594790 47.512512 31 21 22
-7.050322 -8.485831 47.475933 30 21 22
-7.045498 -8.377753 47.443451 29 21 21
-7.041312 -8.270565 47.415264 29 20 20
-7.037789 -8.164267 47.391541 29 20 19
-7.034952 -8.058857 47.372440 29 20 19
-7.032817 -7.954322 47.358059 29 20 18
-7.031393 -7.850645 47.348469 29 20 19
-7.030684 -7.747796 47.343697 30 21 19
-7.030691 -7.645747 47.343746 30 21 20
-7.031412 -7.544463 47.348598 30 21 20
-7.032839 -7.443905 47.358208 30 21 19
-7.034963 -7.344035 47.372509 29 20 18
-7.037777 -7.244813 47.391464 28 20 17
-7.041277 -7.146205 47.415031 28 19 16
-7.045458 -7.048176 47.443184 28 18 16
-7.050319 -6.950697 47.475914 29 18 16
-7.055870 -6.853746 47.513294 29 19 17
-7.062125 -6.757310 47.555420 31 20 18
-7.069108 -6.661376 47.602440 32 21 19
-7.076847 -6.565942 47.654552 32 22 19
-7.085382 -6.471010 47.712032 32 22 19
-7.094766 -6.376592 47.775215 31 22 19
-7.105052 -6.282701 47.844479 30 21 18
-7.116307 -6.189353 47.920273 29 21 18
-7.128608 -6.096573 48.003101 28 20 19
-7.142036 -6.004384 48.093525 28 20 19
-7.156680 -5.912809 48.192139 28 20 20
-7.172636 -5.821874 48.299580 28 21 20
-7.190010 -5.731606 48.416576 28 21 20
-7.208916 -5.642034 48.543888 28 21 20
-7.229476 -5.553182 48.682335 28 20 19
-7.251822 -5.465080 48.832813 27 20 20
-7.276100 -5.377756 48.996296 27 20 20
-7.302465 -5.291241 49.173840 26 20 19
-7.331091 -5.205564 49.366600 25 20 18
-7.362159 -5.120756 49.575806 25 19 18
-7.395869 -5.036846 49.802807 24 18 17
-7.432433 -4.953858 50.049023 24 18 16
-7.472073 -4.871814 50.315948 24 18 16
-7.515020 -4.790728 50.605148 24 18 17
-7.561507 -4.710601 50.918190 24 18 16
-7.611768 -4.631420 51.256641 24 18 16
-7.666026 -4.553154 51.622005 24 18 16
-7.724489 -4.475749 52.015686 24 18 15
-7.787338 -4.399125 52.438908 23 17 15
-7.854724 -4.323173 52.892673 22 17 15
-7.926751 -4.247751 53.377697 21 17 15
-8.003472 -4.172686 53.894321 21 16 15
-8.084875 -4.097767 54.442482 21 16 14
-8.170880 -4.022750 55.021626 22 16 14
-8.261329 -3.947359 55.630699 22 15 14
-8.355976 -3.871288 56.268040 23 15 15
-8.454494 -3.794206 56.931446 23 15 15
-8.556462 -3.715762 57.618088 23 15 15
-8.661377 -3.635595 58.324570 23 16 15
-8.768651 -3.553337 59.046936 22 16 15
-8.877626 -3.468630 59.780766 21 16 14
-8.987585 -3.381130 60.521210 19 15 12
-9.097763 -3.290516 61.263134 19 15 12
-9.207369 -3.196505 62.001205 18 15 12
-9.315608 -3.098857 62.730076 18 15 12
-9.421702 -2.997385 63.444496 19 15 12
-9.524910 -2.891956 64.139481 19 15 12
-9.624552 -2.782499 64.810455 18 14 12
-9.720029 -2.669007 65.453392 18 14 13
-9.810838 -2.551528 66.064888 18 13 13
-9.896585 -2.430170 66.642288 19 12 12
-9.976990 -2.305089 67.183731 22 13 13
-10.051890 -2.176481 67.688103 26 15 17
-10.121239 -2.044577 68.155090 33 19 21
-10.185095 -1.909631 68.585083 39 22 26
-10.243611 -1.771906 68.979126 45 26 30
-10.297019 -1.631674 69.338768 49 27 32
-10.345613 -1.489197 69.666000 53 28 32
-10.389734 -1.344731 69.963097 56 29 32
-10.429746 -1.198513 70.232529 58 30 32
-10.466022 -1.050757 70.476814 59 31 32
-10.498935 -0.901659 70.698441 60 32 33
-10.528838 -0.751391 70.899803 62 32 33
-10.556058 -0.600103 71.083099 62 32 32
-10.580890 -0.447923 71.250313 61 32 32
-10.603586 -0.294962 71.403152 60 33 32
-10.624370 -0.141318 71.543098 59 33 32
-10.643416 0.012928 71.671364 58 33 32
-10.660871 0.167702 71.788895 57 32 32
-10.676839 0.322938 71.896423 57 31 33
-10.691408 0.478574 71.994530 56 30 32
-10.704638 0.634555 72.083626 55 29 30
-10.716578 0.790824 72.164017 54 29 29
-10.727253 0.947328 72.235901 52 28 29
-10.736691 1.104015 72.299461 52 28 30
-10.744920 1.260833 72.354866 52 29 30
-10.751961 1.417735 72.402283 52 30 31
-10.757839 1.574670 72.441872 52 31 31
-10.762588 1.731594 72.473846 51 31 31
-10.766240 1.888464 72.498444 50 30 30
-10.768838 2.045240 72.515930 50 28 28
-10.770422 2.201883 72.526604 50 27 27
-10.771038 2.358361 72.530746 51 26 26
-10.770736 2.514642 72.528717 53 27 26
-10.769563 2.670699 72.520813 54 28 27
-10.767560 2.826504 72.507332 54 29 27
-10.764776 2.982034 72.488579 54 30 28
-10.761251 3.137267 72.464844 53 30 29
-10.757028 3.292184 72.436401 51 29 28
-10.752141 3.446766 72.403496 50 29 29
-10.746629 3.600997 72.366379 49 30 29
-10.740528 3.754862 72.325302 50 30 29
-10.733880 3.908350 72.280525 50 29 29
-10.726722 4.061452 72.232323 49 29 29
-10.719096 4.214162 72.180977 50 28 28
-10.711048 4.366479 72.126785 52 27 28
-10.702628 4.518406 72.070084 53 27 27
-10.693887 4.669948 72.011223 55 28 27
-10.684879 4.821115 71.950569 56 29 28
-10.675661 4.971923 71.888489 57 29 28
-10.666287 5.122389 71.825371 57 29 27
-10.656816 5.272534 71.761597 57 29 27
-10.647300 5.422381 71.697510 56 29 27
-10.637791 5.571957 71.633484 56 29 27
-10.628338 5.721285 71.569824 55 30 28
-10.618983 5.870395 71.506828 55 30 29
-10.609768 6.019311 71.444778 55 30 29
-10.600726 6.168061 71.383888 56 30 29
-10.591889 6.316670 71.324379 57 30 29
-10.583282 6.465164 71.266426 56 30 28
-10.574926 6.613564 71.210159 56 30 28
-10.566840 6.761895 71.155708 56 30 27
-10.559035 6.910175 71.103149 56 30 28
-10.551520 7.058423 71.052544 55 30 29
-10.544303 7.206655 71.003944 54 31 29
-10.537382 7.354885 70.957336 52 31 30
-10.530755 7.503123 70.912720 51 30 29
-10.524418 7.651380 70.870033 50 30 29
-10.518358 7.799658 70.829231 49 29 28
-10.512563 7.947960 70.790207 49 28 27
-10.507018 8.096288 70.752869 49 28 27
-10.501708 8.244638 70.717110 49 27 26
-10.496614 8.393008 70.682816 48 27 27
-10.491722 8.541393 70.649864 48 28 27
-10.487013 8.689789 70.618156 48 28 27
-10.482474 8.838191 70.587601 48 28 27
-10.478098 8.986601 70.558128 49 28 27
-6.990378 -9.258381 47.765648 30 19 19
-6.982406 -9.144974 47.711174 30 18 18
-6.974817 -9.032296 47.659313 30 18 18
-6.967631 -8.920360 47.610218 31 19 19
-6.960880 -8.809183 47.564083 32 20 20
-6.954595 -8.698791 47.521137 32 21 21
-6.948812 -8.589203 47.481625 31 21 22
-6.943568 -8.480444 47.445793 30 20 22
-6.938898 -8.372532 47.413883 29 20 21
-6.934834 -8.265479 47.386108 29 19 20
-6.931405 -8.159294 47.362679 29 19 20
-6.928635 -8.053976 47.343750 29 19 19
-6.926542 -7.949518 47.329453 29 19 18
-6.925139 -7.845902 47.319866 30 20 19
-6.924432 -7.743105 47.315033 30 20 19
-6.924424 -7.641101 47.314980 31 21 20
-6.925112 -7.539855 47.319679 31 21 20
-6.926490 -7.439330 47.329098 30 21 19
-6.928551 -7.339487 47.343174 29 21 18
-6.931287 -7.240289 47.361874 29 20 17
-6.934692 -7.141700 47.385139 28 20 16
-6.938761 -7.043684 47.412945 28 19 16
-6.943494 -6.946212 47.445282 28 18 17
-6.948897 -6.849262 47.482204 29 19 18
-6.954986 -6.752818 47.523808 30 20 19
-6.961779 -6.656868 47.570225 31 21 19
-6.969304 -6.561408 47.621647 32 22 19
-6.977600 -6.466440 47.678329 32 22 19
-6.986714 -6.371974 47.740608 31 22 19
-6.996703 -6.278023 47.808861 30 21 18
-7.007628 -6.184606 47.883518 28 21 18
-7.019565 -6.091744 47.965084 27 20 18
-7.032594 -5.999463 48.054111 28 20 18
-7.046803 -5.907786 48.151196 28 20 19
-7.062286 -5.816741 48.256996 28 21 19
-7.079150 -5.726357 48.372231 28 21 19
-7.097509 -5.636662 48.497677 28 21 19
-7.117483 -5.547687 48.634163 27 20 19
-7.139208 -5.459461 48.782608 27 20 20
-7.162827 -5.372017 48.944000 26 20 20
-7.188498 -5.285385 49.119415 26 20 20
-7.216395 -5.199600 49.310036 26 20 19
-7.246700 -5.114693 49.517109 25 19 18
-7.279613 -5.030696 49.742004 24 19 17
-7.315346 -4.947637 49.986172 24 18 17
-7.354123 -4.865538 50.251133 23 19 17
-7.396173 -4.784415 50.538460 23 19 16
-7.441729 -4.704269 50.849754 23 19 17
-7.491025 -4.625091 51.186600 24 19 17
-7.544284 -4.546849 51.550522 24 19 17
-7.601714 -4.469489 51.942940 24 18 16
-7.663497 -4.392933 52.365108 23 18 16
-7.729782 -4.317072 52.818035 22 18 15
-7.800677 -4.241765 53.302464 22 17 15
-7.876236 -4.166836 53.818768 21 16 14
-7.956453 -4.092077 54.366890 21 15 13
-8.041250 -4.017244 54.946320 21 15 13
-8.130476 -3.942059 55.556000 22 14 13
-8.223894 -3.866217 56.194332 22 14 13
-8.321182 -3.789384 56.859104 23 15 14
-8.421930 -3.711211 57.547523 23 15 15
-8.525642 -3.631332 58.256195 23 16 15
-8.631743 -3.549380 58.981186 22 16 15
-8.739583 -3.464992 59.718063 21 16 14
-8.848452 -3.377820 60.461964 19 16 13
-8.957593 -3.287540 61.207733 19 16 12
-9.066222 -3.193865 61.950005 19 16 12
-9.173549 -3.096550 62.683376 19 16 12
-9.278796 -2.995402 63.402538 19 16 13
-9.381226 -2.890285 64.102448 19 15 12
-9.480156 -2.781125 64.778435 18 15 12
-9.574984 -2.667906 65.426399 18 14 13
-9.665203 -2.550678 66.042870 18 13 13
-9.750414 -2.429544 66.625122 19 12 13
-9.830331 -2.304659 67.171204 21 13 14
-9.904788 -2.176220 67.679977 26 15 17
-9.973731 -2.044457 68.151062 32 18 21
-10.037212 -1.909624 68.584839 38 22 26
-10.095385 -1.771989 68.982330 44 25 30
-10.148474 -1.631822 69.345093 48 27 32
-10.196773 -1.489393 69.675125 52 28 33
-10.240621 -1.344955 69.974739 55 29 33
-10.280380 -1.198749 70.246414 57 30 34
-10.316427 -1.050994 70.492729 59 31 34
-10.349132 -0.901886 70.716194 60 31 33
-10.378849 -0.751597 70.919258 62 32 33
-10.405903 -0.600280 71.104118 62 32 32
-10.430591 -0.448064 71.272812 61 32 32
-10.453165 -0.295061 71.427071 60 33 32
-10.473845 -0.141367 71.568375 60 33 33
-10.492807 0.012933 71.697937 59 33 33
-10.510192 0.167767 71.816734 59 33 34
-10.526104 0.323068 71.925461 58 32 33
-10.540627 0.478775 72.024696 57 31 32
-10.553821 0.634830 72.114853 55 30 30
-10.565727 0.791176 72.196205 54 29 29
-10.576370 0.947761 72.268936 54 29 29
-10.585779 1.104530 72.333229 54 29 30
-10.593975 1.261432 72.389229 54 30 31
-10.600981 1.418416 72.437096 54 31 31
-10.606821 1.575434 72.477005 54 32 31
-10.611526 1.732438 72.509148 53 31 31
-10.615132 1.889385 72.533798 52 30 30
-10.617681 2.046235 72.551208 52 28 29
-10.619214 2.202949 72.561684 52 27 27
-10.619781 2.359493 72.565559 52 26 27
-10.619431 2.515837 72.563171 54 27 27
-10.618216 2.671953 72.554863 55 28 27
-10.616178 2.827814 72.540939 55 29 28
-10.613364 2.983397 72.521713 55 30 29
-10.609820 3.138681 72.497498 54 30 29
-10.605588 3.293647 72.468575 51 29 28
-10.600704 3.448276 72.435211 49 28 28
-10.595207 3.602553 72.397652 50 28 29
-10.589135 3.756464 72.356155 50 29 29
-10.582525 3.909997 72.310989 50 29 29
-10.575418 4.063145 72.262428 50 28 28
-10.567856 4.215901 72.210754 50 27 27
-10.559882 4.368265 72.156273 52 27 26
-10.551546 4.520238 72.099304 53 27 26
-10.542900 4.671828 72.040230 55 28 26
-10.533996 4.823046 71.979385 56 28 26
-10.524889 4.973906 71.917152 57 28 26
-10.515636 5.124426 71.853935 57 29 26
-10.506292 5.274628 71.790085 57 29 26
-10.496911 5.424535 71.725983 57 29 27
-10.487543 5.574172 71.661972 57 29 27
-10.478234 5.723567 71.598366 56 30 29
-10.469030 5.872746 71.535469 56 30 29
-10.459967 6.021734 71.473541 57 30 29
-10.451078 6.170559 71.412804 57 30 29
-10.442393 6.319245 71.353455 57 30 29
-10.433934 6.467816 71.295662 57 30 28
-10.425722 6.616294 71.239548 57 30 28
-10.417770 6.764699 71.185211 57 30 28
-10.410089 6.913050 71.132729 57 30 29
-10.402687 7.061363 71.082146 56 30 30
-10.395564 7.209652 71.033470 55 31 30
-10.388721 7.357930 70.986717 54 31 30
-10.382153 7.506204 70.941826 51 30 30
-10.375851 7.654481 70.898766 50 30 29
-10.369804 7.802766 70.857460 49 29 28
-10.363999 7.951057 70.817795 48 29 27
-10.358422 8.099356 70.779678 48 28 27
-10.353055 8.247658 70.743011 47 27 26
-10.347881 8.395958 70.707657 48 27 26
-10.342885 8.544251 70.673515 48 28 27
-10.338050 8.692534 70.640472 49 28 28
-10.333364 8.840802 70.608452 49 27 28
-10.328816 8.989053 70.577385 50 28 28
-10.324405 9.137290 70.547241 50 28 28
-6.874430 -9.138158 47.675617 31 19 19
-6.867225 -9.025915 47.625648 32 19 19
-6.860385 -8.914363 47.578213 32 19 19
-6.853939 -8.803521 47.533508 32 20 19
-6.847921 -8.693415 47.491772 32 20 20
-6.842368 -8.584071 47.453259 31 20 21
-6.837317 -8.475517 47.418228 29 20 21
-6.832806 -8.367775 47.386944 30 20 21
-6.828869 -8.260862 47.359642 30 20 21
-6.825538 -8.154792 47.336540 29 20 20
-6.822840 -8.049566 47.317829 29 19 19
-6.820794 -7.945181 47.303635 29 19 18
-6.819416 -7.841626 47.294079 30 20 19
-6.818712 -7.738878 47.289200 31 21 20
-6.818687 -7.636911 47.289032 31 21 20
-6.819342 -7.535695 47.293568 32 22 21
-6.820669 -7.435193 47.302776 31 21 20
-6.822663 -7.335368 47.316605 30 21 19
-6.825316 -7.236182 47.335003 29 21 18
-6.828622 -7.137599 47.357929 28 19 17
-6.832575 -7.039584 47.385345 28 18 16
-6.837175 -6.942108 47.417248 28 18 17
-6.842428 -6.845148 47.453678 30 19 18
-6.848347 -6.748686 47.494728 31 20 19
