ply
format ascii 1.0
element vertex 1188
property float x
property float y
property float z
property uchar red
property uchar green
property uchar blue
end_header
-13.050657 3.069924 47.338646 103 96 109
-13.052241 3.172355 47.344391 102 95 107
-13.053966 3.274846 47.350647 102 95 107
-13.055886 3.377415 47.357613 103 95 108
-13.058044 3.480078 47.365440 103 96 109
-13.060464 3.582845 47.374214 104 96 109
-13.063157 3.685728 47.383984 106 96 110
-13.066121 3.788731 47.394737 107 96 110
-13.069347 3.891859 47.406437 108 95 111
-13.072818 3.995112 47.419025 108 95 110
-13.076514 4.098490 47.432434 109 95 110
-13.080422 4.201993 47.446613 109 96 109
-13.084524 4.305623 47.461491 109 96 109
-13.088816 4.409379 47.477055 110 95 108
-13.093297 4.513268 47.493313 110 94 108
-13.097979 4.617298 47.510296 110 93 109
-13.102878 4.721480 47.528065 109 92 109
-13.108020 4.825828 47.546719 109 91 110
-13.113435 4.930358 47.566357 109 91 110
-13.119155 5.035090 47.587105 109 90 111
-13.125213 5.140045 47.609081 108 90 112
-13.131643 5.245242 47.632404 108 90 113
-13.138473 5.350703 47.657177 107 91 114
-13.145723 5.456445 47.683475 106 91 115
-13.153408 5.562485 47.711353 105 92 116
-13.161534 5.668834 47.740829 105 92 116
-13.170100 5.775504 47.771900 105 93 116
-13.179096 5.882499 47.804531 105 93 116
-13.188504 5.989823 47.838657 105 93 116
-13.198306 6.097475 47.874210 105 93 116
-13.208470 6.205451 47.911079 105 92 114
-13.218972 6.313747 47.949173 105 91 113
-13.229778 6.422355 47.988369 104 90 110
-13.240857 6.531266 48.028553 102 88 107
-13.252173 6.640471 48.069607 100 86 104
-13.263694 6.749955 48.111393 97 84 101
-13.275378 6.859704 48.153774 94 81 99
-13.287189 6.969703 48.196617 92 78 96
-13.299082 7.079930 48.239754 90 76 94
-13.311005 7.190359 48.283001 89 74 92
-13.322903 7.300961 48.326160 89 71 89
-13.334713 7.411700 48.368999 89 68 87
-13.346368 7.522537 48.411274 89 67 85
-13.357790 7.633422 48.452705 90 65 82
-13.368901 7.744307 48.493011 90 65 79
-13.379620 7.855134 48.531891 90 64 76
-13.389863 7.965847 48.569042 90 64 74
-13.399553 8.076385 48.604195 89 64 73
-13.408618 8.186694 48.637077 87 63 73
-13.416993 8.296719 48.667458 87 62 74
-13.424630 8.406412 48.695156 86 61 76
-13.431495 8.515734 48.720055 86 62 77
-13.437572 8.624659 48.742100 86 62 78
-13.442863 8.733168 48.761295 86 61 80
-13.447394 8.841260 48.777729 86 61 80
-13.451209 8.948946 48.791565 86 61 79
-13.454371 9.056252 48.803036 85 61 78
-13.456960 9.163218 48.812424 85 61 78
-13.459072 9.269896 48.820087 84 60 77
-13.460814 9.376349 48.826408 84 60 77
-13.462301 9.482650 48.831799 84 60 77
-13.463656 9.588880 48.836716 83 60 78
-13.465003 9.695125 48.841602 83 60 78
-13.466465 9.801475 48.846901 83 59 78
-13.468160 9.908019 48.853050 83 58 78
-13.470200 10.014847 48.860451 82 58 78
-13.472692 10.122046 48.869492 81 57 77
-13.475736 10.229703 48.880531 80 57 76
-13.479415 10.337893 48.893875 79 57 74
-13.483809 10.446698 48.909821 78 57 73
-13.488980 10.556177 48.928574 77 57 71
-13.494988 10.666399 48.950367 76 56 69
-13.501881 10.777422 48.975368 75 56 68
-13.509692 10.889293 49.003704 74 56 66
-13.518450 11.002055 49.035465 73 56 65
-13.528162 11.115740 49.070698 73 56 64
-13.538825 11.230364 49.109375 73 56 63
-13.550420 11.345936 49.151436 73 55 63
-13.562912 11.462447 49.196747 73 55 63
-13.576241 11.579867 49.245090 72 54 63
-13.590321 11.698144 49.296165 72 54 64
-13.605048 11.817201 49.349586 71 54 64
-13.620281 11.936933 49.404839 71 54 63
-13.635855 12.057203 49.461330 70 54 63
-13.651569 12.177844 49.518333 69 54 62
-13.667198 12.298653 49.575024 67 54 62
-13.682480 12.419391 49.630455 65 53 61
-13.697135 12.539793 49.683613 64 53 61
-13.710855 12.659562 49.733379 64 52 61
-13.723320 12.778378 49.778591 63 51 61
-13.734206 12.895906 49.818085 64 51 61
-13.743191 13.011803 49.850670 65 52 61
-13.749965 13.125731 49.875240 65 52 60
-13.754246 13.237366 49.890774 66 53 60
-13.755794 13.346415 49.896385 65 53 59
-13.754416 13.452626 49.891388 65 53 58
-13.749983 13.555805 49.875309 64 51 56
-13.742440 13.655825 49.847950 62 49 54
-13.731805 13.752628 49.809368 60 47 52
-13.718182 13.846251 49.759956 59 45 50
-13.701752 13.936804 49.700359 57 44 49
-13.682775 14.024490 49.631523 56 43 48
-13.661579 14.109589 49.554642 55 43 47
-13.638549 14.192447 49.471104 53 42 45
-13.614111 14.273468 49.382462 51 42 43
-13.588719 14.353100 49.290356 49 41 42
-13.562833 14.431808 49.196457 48 41 42
-13.536901 14.510064 49.102398 47 39 41
-13.511349 14.588323 49.009712 46 38 40
-13.486559 14.667010 48.919788 47 37 40
-13.462855 14.746502 48.833809 47 36 40
-13.440505 14.827115 48.752739 47 36 40
-13.419707 14.909103 48.677299 48 36 39
-13.400591 14.992648 48.607960 49 36 39
-13.383220 15.077860 48.544949 49 35 39
-13.367594 15.164780 48.488270 49 36 39
-13.353662 15.253390 48.437737 48 36 39
-13.341328 15.343619 48.392990 48 36 39
-13.330462 15.435357 48.353580 49 36 38
-13.320914 15.528461 48.318947 49 35 38
-13.312524 15.622774 48.288513 48 35 38
-13.305130 15.718133 48.261692 48 35 38
-13.298583 15.814384 48.237946 46 33 36
-13.292741 15.911375 48.216755 44 32 35
-13.287485 16.008982 48.197689 45 33 36
-13.282720 16.107101 48.180405 47 35 38
-13.278370 16.205654 48.164627 47 35 38
-13.274387 16.304588 48.150181 46 35 38
-13.270742 16.403879 48.136959 46 35 38
-13.267425 16.503519 48.124924 46 36 38
-13.264437 16.603519 48.114086 46 36 38
-13.261794 16.703909 48.104504 45 36 37
-13.259523 16.804728 48.096264 44 35 36
-13.257654 16.906023 48.089485 44 36 36
-13.256222 17.007851 48.084290 44 35 35
-13.255268 17.110273 48.080830 43 35 35
-13.254835 17.213358 48.079258 43 35 35
-13.254974 17.317183 48.079765 42 34 35
-13.255736 17.421827 48.082531 42 33 35
-13.257181 17.527388 48.087769 42 33 35
-12.823602 -7.267934 46.881626 59 60 71
-12.811769 -7.160260 46.838364 59 60 72
-12.801196 -7.053467 46.799713 59 59 72
-12.791802 -6.947480 46.765369 59 58 71
-12.783496 -6.842224 46.735001 58 57 70
-12.776184 -6.737623 46.708271 57 56 69
-12.769776 -6.633607 46.684845 57 56 67
-12.764183 -6.530108 46.664394 57 55 66
-12.759318 -6.427066 46.646614 57 56 64
-12.755107 -6.324423 46.631218 58 56 63
-12.751483 -6.222134 46.617966 58 57 63
-12.748388 -6.120155 46.606651 59 57 63
-12.745779 -6.018455 46.597115 60 57 63
-12.743623 -5.917006 46.589230 61 56 64
-12.741892 -5.815785 46.582901 61 56 65
-12.740574 -5.714777 46.578087 61 56 66
-12.739656 -5.613966 46.574730 62 55 67
-12.739135 -5.513341 46.572823 62 55 69
-12.739005 -5.412891 46.572350 63 55 70
-12.739262 -5.312603 46.573288 64 56 70
-12.739896 -5.212467 46.575607 65 56 70
-12.740896 -5.112467 46.579262 65 56 71
-12.742241 -5.012587 46.584179 66 56 72
-12.743906 -4.912808 46.590263 67 58 72
-12.745852 -4.813111 46.597382 68 58 73
-12.748045 -4.713473 46.605396 68 59 74
-12.750433 -4.613872 46.614128 69 59 74
-12.752967 -4.514284 46.623390 69 59 74
-12.755589 -4.414688 46.632977 69 60 74
-12.758245 -4.315061 46.642685 69 61 73
-12.760875 -4.215384 46.652302 69 62 73
-12.763426 -4.115640 46.661629 70 62 73
-12.765842 -4.015813 46.670464 71 62 74
-12.768072 -3.915891 46.678616 72 63 75
-12.770069 -3.815864 46.685917 74 64 76
-12.771788 -3.715725 46.692200 75 65 77
-12.773190 -3.615470 46.697327 76 65 79
-12.774239 -3.515095 46.701160 78 65 81
-12.774901 -3.414600 46.703583 79 65 83
-12.775147 -3.313986 46.704483 81 65 84
-12.774950 -3.213258 46.703762 82 65 85
-12.774288 -3.112419 46.701340 84 64 84
-12.773143 -3.011476 46.697151 84 64 83
-12.771504 -2.910440 46.691162 85 65 82
-12.769368 -2.809319 46.683353 86 66 82
-12.766740 -2.708128 46.673744 86 67 82
-12.763635 -2.606881 46.662392 86 68 82
-12.760078 -2.505594 46.649391 86 69 82
-12.756111 -2.404286 46.634888 86 69 83
-12.751787 -2.302976 46.619080 86 69 83
-12.747171 -2.201684 46.602203 86 70 84
-12.742343 -2.100429 46.584553 87 71 85
-12.737394 -1.999232 46.566460 88 71 85
-12.732424 -1.898109 46.548290 89 72 86
-12.727540 -1.797077 46.530434 89 73 88
-12.722855 -1.696149 46.513302 89 74 88
-12.718476 -1.595333 46.497295 89 75 89
-12.714514 -1.494634 46.482811 89 75 90
-12.711072 -1.394056 46.470226 89 76 93
-12.708240 -1.293593 46.459873 89 77 95
-12.706099 -1.193240 46.452045 89 78 97
-12.704716 -1.092986 46.446991 90 80 99
-12.704143 -0.992818 46.444897 90 82 100
-12.704413 -0.892717 46.445885 91 84 101
-12.705549 -0.792666 46.450035 92 86 102
-12.707554 -0.692645 46.457367 93 88 103
-12.710416 -0.592632 46.467831 94 91 104
-12.714120 -0.492606 46.481373 96 93 105
-12.718634 -0.392548 46.497875 98 95 106
-12.723921 -0.292435 46.517204 100 97 108
-12.729940 -0.192251 46.539207 103 98 110
-12.736644 -0.091976 46.563713 105 101 113
-12.743980 0.008404 46.590538 107 103 117
-12.751901 0.108905 46.619495 109 105 120
-12.760350 0.209540 46.650383 111 107 123
-12.769275 0.310319 46.683014 112 109 125
-12.778615 0.411253 46.717159 112 111 126
-12.788311 0.512348 46.752605 112 112 127
-12.798297 0.613609 46.789112 112 113 128
-12.808499 0.715040 46.826412 113 115 129
-12.818844 0.816641 46.864231 115 117 132
-12.829248 0.918410 46.902267 116 118 134
-12.839623 1.020340 46.940197 118 118 136
-12.849876 1.122423 46.977684 120 120 137
-12.859915 1.224647 47.014381 122 121 139
-12.869643 1.326997 47.049946 124 122 139
-12.878969 1.429456 47.084042 125 124 139
-12.887807 1.532004 47.116352 126 125 140
-12.896077 1.634619 47.146587 127 126 140
-12.903718 1.737280 47.174519 127 125 140
-12.910678 1.839964 47.199966 127 124 140
-12.916928 1.942651 47.222816 126 122 140
-12.922459 2.045323 47.243034 125 120 139
-12.927279 2.147964 47.260658 123 118 137
-12.931423 2.250563 47.275806 122 116 135
-12.934942 2.353114 47.288673 120 115 133
-12.937904 2.455615 47.299500 119 113 131
-12.940393 2.558069 47.308601 117 111 127
-12.942504 2.660484 47.316319 115 109 124
-12.944336 2.762873 47.323017 112 106 120
-12.945992 2.865252 47.329071 109 103 115
-12.947572 2.967640 47.334846 106 100 111
-12.949168 3.070056 47.340683 104 98 108
-12.950861 3.172521 47.346870 102 97 106
-12.952720 3.275055 47.353664 102 96 105
-12.954796 3.377675 47.361256 102 95 106
-12.957126 3.480396 47.369774 103 96 106
-12.959733 3.583230 47.379307 104 96 106
-12.962625 3.686186 47.389877 105 96 108
-12.965795 3.789269 47.401466 107 95 109
-12.969234 3.892483 47.414040 108 95 109
-12.972919 3.995827 47.427513 108 94 109
-12.976834 4.099301 47.441826 109 94 109
-12.980958 4.202905 47.456902 109 95 110
-12.985274 4.306638 47.472683 109 95 110
-12.989776 4.410501 47.489140 109 95 110
-12.994462 4.514500 47.506271 109 94 110
-12.999343 4.618641 47.524113 109 94 110
-13.004431 4.722935 47.542717 109 92 110
-13.009754 4.827396 47.562176 108 91 110
-13.015338 4.932041 47.582592 108 90 110
-13.021216 5.036886 47.604080 108 90 111
-13.027421 5.141954 47.626766 108 89 112
-13.033986 5.247264 47.650764 107 90 113
-13.040936 5.352836 47.676174 107 90 114
-13.048293 5.458687 47.703072 105 91 115
-13.056071 5.564834 47.731506 104 92 116
-13.064278 5.671289 47.761505 104 92 116
-13.072909 5.778062 47.793064 104 92 116
-13.081961 5.885160 47.826157 104 93 116
-13.091413 5.992584 47.860714 105 94 116
-13.101250 6.100336 47.896671 105 94 115
-13.111442 6.208411 47.933937 105 93 114
-13.121965 6.316806 47.972408 105 92 112
-13.132792 6.425516 48.011986 104 91 110
-13.143890 6.534531 48.052563 102 88 107
-13.155231 6.643844 48.094025 100 86 104
-13.166783 6.753444 48.136257 98 84 101
-13.178512 6.863317 48.179134 95 81 98
-13.190381 6.973450 48.222527 93 79 96
-13.202349 7.083823 48.266281 92 76 93
-13.214370 7.194414 48.310230 90 73 91
-13.226391 7.305194 48.354176 89 71 89
-13.238350 7.416129 48.397900 89 68 87
-13.250182 7.527180 48.441154 90 67 85
-13.261812 7.638301 48.483673 90 66 83
-13.273158 7.749440 48.525150 90 66 80
-13.284139 7.860541 48.565296 90 66 78
-13.294669 7.971545 48.603790 90 65 75
-13.304666 8.082392 48.640339 89 65 74
-13.314051 8.193019 48.674648 87 65 74
-13.322757 8.303371 48.706478 86 64 74
-13.330728 8.413397 48.735619 85 63 76
-13.337921 8.523050 48.761917 85 63 77
-13.344314 8.632300 48.785290 85 63 79
-13.349905 8.741126 48.805729 85 62 79
-13.354709 8.849518 48.823292 85 62 79
-13.358765 8.957484 48.838120 85 62 79
-13.362130 9.065046 48.850426 85 62 78
-13.364884 9.172241 48.860493 84 61 77
-13.367119 9.279119 48.868660 84 60 77
-13.368937 9.385740 48.875309 84 60 77
-13.370457 9.492178 48.880867 84 59 77
-13.371800 9.598513 48.885777 84 59 78
-13.373095 9.704833 48.890511 84 58 78
-13.374463 9.811229 48.895512 84 58 78
-13.376030 9.917792 48.901237 84 58 78
-13.377908 10.024614 48.908104 83 57 78
-13.380208 10.131785 48.916512 83 57 78
-13.383029 10.239391 48.926826 82 56 77
-13.386458 10.347511 48.939362 81 56 75
-13.390579 10.456226 48.954430 80 57 73
-13.395446 10.565595 48.972221 78 57 71
-13.401123 10.675685 48.992977 77 57 69
-13.407651 10.786549 49.016842 76 57 68
-13.415065 10.898235 49.043945 74 57 67
-13.423383 11.010780 49.074356 74 57 65
-13.432611 11.124211 49.108093 73 57 65
-13.442742 11.238542 49.145134 73 57 64
-13.453753 11.353773 49.185383 73 56 63
-13.465600 11.469892 49.228695 73 56 63
-13.478223 11.586864 49.274845 73 55 63
-13.491535 11.704633 49.323513 72 55 63
-13.505430 11.823122 49.374310 71 56 63
-13.519771 11.942224 49.426739 70 56 63
-13.534392 12.061802 49.480194 69 56 63
-13.549104 12.181690 49.533974 68 56 62
-13.563681 12.301690 49.587269 66 55 62
-13.577875 12.421569 49.639160 64 54 62
-13.591416 12.541069 49.688667 64 54 62
-13.604010 12.659901 49.734707 64 53 62
-13.615351 12.777756 49.776169 64 53 62
-13.625126 12.894307 49.811905 65 53 62
-13.633030 13.009228 49.840801 66 53 62
-13.638770 13.122190 49.861786 66 53 61
-13.642078 13.232883 49.873882 67 53 60
-13.642726 13.341028 49.876247 67 53 59
-13.640534 13.446384 49.868237 66 53 58
-13.635386 13.548768 49.849415 65 52 56
-13.627232 13.648060 49.819603 62 50 53
-13.616097 13.744215 49.778900 60 47 52
-13.602090 13.837272 49.727688 59 46 50
-13.585391 13.927348 49.666637 57 45 50
-13.566257 14.014647 49.596687 55 44 48
-13.545012 14.099446 49.519020 53 43 47
-13.522037 14.182095 49.435020 52 42 46
-13.497746 14.262992 49.346214 50 42 44
-13.472581 14.342576 49.254219 48 41 42
-13.446994 14.421310 49.160675 48 41 42
-13.421423 14.499660 49.067192 47 40 41
-13.396279 14.578071 48.975269 46 38 40
-13.371934 14.656960 48.886265 47 37 39
-13.348703 14.736696 48.801338 47 36 39
-13.326847 14.817594 48.721432 48 35 40
-13.306555 14.899899 48.647247 49 35 40
-13.287949 14.983786 48.579224 50 36 40
-13.271091 15.069363 48.517593 50 36 40
-13.255977 15.156670 48.462337 49 36 39
-13.242554 15.245685 48.413265 49 36 39
-13.230727 15.336338 48.370029 49 36 39
-13.220367 15.428518 48.332157 49 35 38
-13.211328 15.522084 48.299107 49 35 38
-13.203445 15.616879 48.270290 48 34 38
-13.196564 15.712739 48.245132 48 34 38
-13.190537 15.809517 48.223103 46 33 37
-13.185227 15.907063 48.203686 45 32 36
-13.180511 16.005247 48.186443 46 33 37
-13.176295 16.103970 48.171032 47 35 38
-13.172509 16.203152 48.157188 47 36 39
-13.169097 16.302738 48.144714 47 36 39
-13.166031 16.402702 48.133507 47 37 39
-13.163296 16.503033 48.123505 47 37 39
-13.160892 16.603737 48.114719 47 37 39
-13.158833 16.704844 48.107189 46 37 38
-13.157137 16.806379 48.100990 45 36 37
-13.155832 16.908392 48.096222 44 36 36
-13.154950 17.010931 48.092999 44 36 36
-13.154528 17.114054 48.091454 44 36 37
-13.154605 17.217823 48.091732 43 35 37
-13.155226 17.322311 48.094006 43 34 37
-13.156445 17.427601 48.098461 43 34 37
-13.158319 17.533783 48.105316 43 33 36
-13.160915 17.640961 48.114803 43 33 36
-12.749083 -7.384368 46.979431 58 59 68
-12.735885 -7.275557 46.930794 58 59 70
-12.724051 -7.167724 46.887192 58 59 70
-12.713504 -7.060793 46.848324 58 58 70
-12.704154 -6.954685 46.813869 58 57 70
-12.695909 -6.849322 46.783485 57 56 69
-12.688672 -6.744626 46.756821 56 56 68
-12.682350 -6.640524 46.733524 56 55 66
-12.676848 -6.536945 46.713253 56 55 66
-12.672082 -6.433827 46.695686 57 55 65
-12.667973 -6.331113 46.680546 57 55 65
-12.664453 -6.228755 46.667576 58 56 64
-12.661467 -6.126710 46.656570 59 56 64
-12.658968 -6.024945 46.647366 60 56 64
-12.656925 -5.923433 46.639835 61 56 65
-12.655313 -5.822152 46.633896 61 56 66
-12.654119 -5.721085 46.629494 62 56 67
-12.653335 -5.620219 46.626602 62 55 68
-12.652954 -5.519542 46.625206 63 55 69
-12.652980 -5.419044 46.625298 64 55 71
-12.653407 -5.318716 46.626873 64 55 71
-12.654228 -5.218543 46.629898 65 55 72
-12.655433 -5.118512 46.634338 65 56 72
-12.657001 -5.018606 46.640118 66 56 73
-12.658910 -4.918807 46.647148 67 57 73
-12.661119 -4.819092 46.655293 68 58 74
-12.663594 -4.719441 46.664410 68 58 75
-12.666279 -4.619828 46.674305 68 58 75
-12.669124 -4.520229 46.684788 69 58 75
-12.672070 -4.420619 46.695641 69 59 74
-12.675056 -4.320978 46.706646 69 60 73
-12.678020 -4.221281 46.717567 69 61 73
-12.680904 -4.121511 46.728199 70 61 73
-12.683649 -4.021651 46.738312 71 62 74
-12.686197 -3.921687 46.747704 73 62 74
-12.688501 -3.821608 46.756191 74 63 75
-12.690509 -3.721406 46.763588 76 64 77
-12.692181 -3.621077 46.769749 77 65 78
-12.693477 -3.520617 46.774525 78 65 81
-12.694362 -3.420025 46.777786 80 65 83
-12.694805 -3.319304 46.779419 81 65 84
-12.694777 -3.218456 46.779320 83 65 85
-12.694259 -3.117488 46.777409 84 64 85
-12.693232 -3.016408 46.773621 85 64 85
-12.691684 -2.915224 46.767918 86 65 84
-12.689616 -2.813950 46.760300 86 66 84
-12.687032 -2.712598 46.750774 87 68 84
-12.683948 -2.611184 46.739410 87 68 84
-12.680393 -2.509726 46.726315 88 69 84
-12.676410 -2.408243 46.711636 88 70 84
-12.672051 -2.306755 46.695576 87 69 84
-12.667385 -2.205283 46.678379 87 70 85
-12.662492 -2.103847 46.660351 88 70 86
-12.657463 -2.002467 46.641819 88 70 87
-12.652402 -1.901163 46.623165 89 71 88
-12.647414 -1.799949 46.604790 88 72 88
-12.642612 -1.698840 46.587093 88 73 89
-12.638105 -1.597844 46.570488 88 74 89
-12.634004 -1.496968 46.555370 88 75 90
-12.630407 -1.396212 46.542118 89 75 93
-12.627406 -1.295575 46.531059 90 77 95
-12.625079 -1.195050 46.522484 90 79 96
-12.623491 -1.094625 46.516636 90 80 98
-12.622691 -0.994288 46.513687 90 81 99
-12.622709 -0.894021 46.513752 91 83 100
-12.623564 -0.793807 46.516903 91 85 101
-12.625256 -0.693625 46.523136 92 86 101
-12.627769 -0.593455 46.532402 94 88 102
-12.631085 -0.493277 46.544617 95 90 103
-12.635169 -0.393069 46.559669 98 92 104
-12.639985 -0.292814 46.577412 101 94 107
-12.645484 -0.192492 46.597679 103 96 110
-12.651622 -0.092088 46.620293 106 99 113
-12.658348 0.008414 46.645077 108 102 116
-12.665611 0.109028 46.671841 109 103 119
-12.673362 0.209765 46.700401 110 106 122
-12.681547 0.310636 46.730564 111 108 124
-12.690114 0.411649 46.762135 112 110 125
-12.699005 0.512811 46.794895 113 111 127
-12.708161 0.614128 46.828636 113 113 128
-12.717520 0.715601 46.863125 114 115 130
-12.727009 0.817231 46.898090 116 117 132
-12.736558 0.919017 46.933277 117 118 134
-12.746081 1.020952 46.968372 119 119 136
-12.755501 1.123029 47.003082 121 120 138
-12.764728 1.225238 47.037079 123 122 139
-12.773675 1.327564 47.070049 124 124 140
-12.782258 1.429991 47.101677 126 125 140
-12.790397 1.532502 47.131668 127 126 140
-12.798018 1.635075 47.159752 127 126 140
-12.805064 1.737692 47.185719 127 126 139
-12.811488 1.840331 47.209389 127 125 139
-12.817264 1.942974 47.230671 126 123 139
-12.822378 2.045604 47.249519 124 121 138
-12.826847 2.148206 47.265987 123 119 136
-12.830699 2.250772 47.280178 121 117 134
-12.833983 2.353294 47.292282 120 115 132
-12.836767 2.455773 47.302540 119 114 130
-12.839132 2.558212 47.311256 118 112 127
-12.841166 2.660621 47.318752 116 110 123
-12.842968 2.763012 47.325390 113 107 119
-12.844635 2.865401 47.331535 110 104 115
-12.846262 2.967808 47.337528 107 101 110
-12.847939 3.070252 47.343704 104 99 106
-12.849739 3.172754 47.350342 102 97 104
-12.851731 3.275333 47.357681 101 95 103
-12.853964 3.378007 47.365906 101 95 103
-12.856468 3.480790 47.375137 102 95 103
-12.859266 3.583694 47.385448 103 95 104
-12.862361 3.686729 47.396854 104 95 106
-12.865747 3.789898 47.409328 106 94 108
-12.869410 3.893204 47.422825 107 94 109
-12.873325 3.996648 47.437256 107 94 109
-12.877472 4.100227 47.452538 107 94 110
-12.881832 4.203941 47.468601 107 95 111
-12.886383 4.307789 47.485371 107 94 111
-12.891116 4.411771 47.502811 107 94 111
-12.896029 4.515892 47.520920 108 95 112
-12.901129 4.620157 47.539711 108 94 112
-12.906429 4.724577 47.559242 107 92 110
-12.911953 4.829164 47.579594 107 91 110
-12.917725 4.933934 47.600861 107 90 110
-12.923778 5.038906 47.623165 107 90 111
-12.930142 5.144097 47.646622 107 89 112
-12.936849 5.249529 47.671333 107 89 113
-12.943923 5.355219 47.697403 106 90 115
-12.951387 5.461186 47.724907 105 91 116
-12.959255 5.567445 47.753902 104 92 116
-12.967533 5.674008 47.784401 103 92 116
-12.976221 5.780886 47.816418 103 93 116
-12.985312 5.888084 47.849918 104 93 115
-12.994791 5.995606 47.884846 104 94 115
-13.004640 6.103452 47.921139 105 94 114
-13.014836 6.211620 47.958714 105 93 113
-13.025358 6.320108 47.997486 104 92 111
-13.036180 6.428912 48.037361 103 90 109
-13.047274 6.538023 48.078243 101 87 106
-13.058616 6.647437 48.120033 100 84 103
-13.070177 6.757145 48.162640 98 82 101
-13.081928 6.867136 48.205940 96 80 98
-13.093835 6.977396 48.249817 94 78 96
-13.105864 7.087912 48.294140 93 75 94
-13.117970 7.198661 48.338749 92 73 92
-13.130101 7.309618 48.383457 91 71 90
-13.142203 7.420749 48.428051 91 69 88
-13.154209 7.532018 48.472290 91 68 86
-13.166043 7.643378 48.515900 91 67 84
-13.177625 7.754777 48.558575 91 67 81
-13.188870 7.866160 48.600014 90 67 79
-13.199691 7.977465 48.639889 89 66 77
-13.210001 8.088630 48.677879 88 66 76
-13.219716 8.199589 48.713680 87 66 76
-13.228762 8.310282 48.747013 86 65 76
-13.237076 8.420652 48.777645 85 64 77
-13.244609 8.530652 48.805405 83 64 78
-13.251329 8.640243 48.830173 83 64 79
-13.257228 8.749396 48.851906 84 63 79
-13.262313 8.858101 48.870644 84 63 79
-13.266618 8.966360 48.886509 84 62 79
-13.270195 9.074188 48.899689 84 62 78
-13.273117 9.181621 48.910458 85 61 77
-13.275474 9.288704 48.919140 85 60 77
-13.277368 9.395498 48.926121 86 59 78
-13.278917 9.502075 48.931831 86 58 78
-13.280245 9.608516 48.936726 86 57 78
-13.281479 9.714910 48.941269 86 57 79
-13.282745 9.821347 48.945938 86 57 79
-13.284172 9.927924 48.951195 86 57 79
-13.285876 10.034734 48.957474 86 57 79
-13.287972 10.141869 48.965199 85 56 78
-13.290560 10.249416 48.974731 84 57 78
-13.293730 10.357460 48.986416 82 57 76
-13.297567 10.466078 49.000553 80 57 74
-13.302124 10.575330 49.017345 79 58 71
-13.307466 10.685284 49.037029 77 58 69
-13.313631 10.795991 49.059750 76 58 68
-13.320649 10.907494 49.085613 75 58 66
-13.328537 11.019827 49.114674 74 58 65
-13.337296 11.133013 49.146950 73 58 65
-13.346910 11.247059 49.182381 73 57 64
-13.357355 11.361964 49.220871 73 56 63
-13.368585 11.477709 49.262249 73 56 63
-13.380531 11.594254 49.306271 72 56 63
-13.393107 11.711538 49.352615 71 56 62
-13.406203 11.829482 49.400871 70 56 62
-13.419686 11.947978 49.450554 69 57 62
-13.433391 12.066887 49.501053 68 57 62
-13.447131 12.186047 49.551685 67 57 62
-13.460691 12.305259 49.601654 66 57 62
-13.473828 12.424297 49.650066 64 56 62
-13.486285 12.542912 49.695965 64 55 62
-13.497776 12.660818 49.738312 65 54 62
-13.508011 12.777719 49.776024 65 54 62
-13.516693 12.893301 49.808018 66 54 63
-13.523530 13.007245 49.833210 66 54 62
-13.528240 13.119238 49.850571 67 54 62
-13.530577 13.228983 49.859180 68 54 61
-13.530322 13.336211 49.858238 67 54 60
-13.527311 13.440698 49.847145 66 53 58
-13.521436 13.542266 49.825493 65 52 56
-13.512654 13.640809 49.793137 63 50 54
-13.501002 13.736291 49.750198 61 48 53
-13.486587 13.828754 49.697079 59 46 51
-13.469591 13.918323 49.634453 57 45 50
-13.450274 14.005203 49.563271 55 43 49
-13.428950 14.089672 49.484692 53 42 47
-13.405995 14.172077 49.400105 52 42 45
-13.381816 14.252814 49.311005 50 41 43
-13.356847 14.332320 49.218998 48 40 42
-13.331526 14.411049 49.125690 48 40 41
-13.306281 14.489457 49.032665 47 40 41
-13.281513 14.567988 48.941399 47 39 40
-13.257584 14.647051 48.853218 47 38 39
-13.234797 14.727008 48.769253 48 37 39
-13.213407 14.808165 48.690430 49 36 40
-13.193594 14.890764 48.617424 50 36 40
-13.175478 14.974977 48.550667 50 36 40
-13.159115 15.060906 48.490368 50 36 39
-13.144498 15.148590 48.436504 50 36 39
-13.131574 15.238006 48.388882 50 35 39
-13.120246 15.329082 48.347137 49 35 39
-13.110389 15.421706 48.310814 49 35 38
-13.101853 15.515740 48.279366 49 34 38
-13.094484 15.611029 48.252209 48 34 38
-13.088124 15.707412 48.228771 47 33 37
-13.082628 15.804737 48.208519 46 33 37
-13.077857 15.902857 48.190941 46 33 36
-13.073695 16.001646 48.175606 46 34 37
-13.070047 16.101004 48.162163 47 35 38
-13.066836 16.200844 48.150330 47 36 39
-13.064013 16.301117 48.139927 47 37 39
-13.061543 16.401787 48.130821 47 37 39
-13.059406 16.502842 48.122948 47 37 39
-13.057604 16.604286 48.116306 47 37 38
-13.056142 16.706139 48.110920 46 37 38
-13.055037 16.808426 48.106850 46 37 37
-13.054310 16.911186 48.104168 45 36 37
-13.053988 17.014463 48.102985 44 36 37
-13.054105 17.118311 48.103413 44 36 37
-13.054696 17.222786 48.105591 45 35 38
-13.055806 17.327959 48.109684 45 35 39
-13.057484 17.433907 48.115864 44 34 38
-13.059787 17.540722 48.124352 44 33 37
-13.062781 17.648506 48.135387 44 32 36
-13.066542 17.757381 48.149242 43 32 35
-12.675901 -7.502265 47.083771 56 58 66
-12.661198 -7.392184 47.029152 56 57 66
-12.647959 -7.283182 46.979980 56 57 67
-12.636116 -7.175184 46.935989 56 57 68
-12.625586 -7.068110 46.896873 56 57 69
-12.616274 -6.961879 46.862289 56 56 68
-12.608088 -6.856407 46.831879 55 55 67
-12.600924 -6.751616 46.805275 55 55 67
-12.594687 -6.647427 46.782104 55 54 66
-12.589281 -6.543771 46.762024 55 54 66
-12.584618 -6.440581 46.744701 56 54 65
-12.580614 -6.337798 46.729832 57 54 65
-12.577205 -6.235374 46.717167 58 54 65
-12.574331 -6.133266 46.706497 59 55 65
-12.571948 -6.031439 46.697639 60 56 65
-12.570022 -5.929866 46.690487 62 56 66
-12.568531 -5.828526 46.684948 63 56 67
-12.567463 -5.727402 46.680984 63 56 67
-12.566811 -5.626482 46.678558 64 55 69
-12.566574 -5.525754 46.677681 64 54 70
-12.566751 -5.425210 46.678341 64 54 71
-12.567345 -5.324838 46.680546 64 54 71
-12.568347 -5.224627 46.684269 65 54 72
-12.569750 -5.124564 46.689480 65 55 72
-12.571533 -5.024630 46.696102 66 56 73
-12.573675 -4.924808 46.704056 67 56 73
-12.576137 -4.825074 46.713203 67 57 74
-12.578879 -4.725406 46.723389 67 57 75
-12.581848 -4.625778 46.734417 68 58 76
-12.584991 -4.526165 46.746090 69 58 75
-12.588244 -4.426539 46.758171 69 58 74
-12.591543 -4.326879 46.770428 70 59 74
-12.594827 -4.227159 46.782623 70 59 73
-12.598027 -4.127360 46.794514 70 60 73
-12.601084 -4.027464 46.805866 72 61 73
-12.603936 -3.927455 46.816460 73 61 73
-12.606530 -3.827322 46.826096 75 62 74
-12.608813 -3.727056 46.834576 76 63 75
-12.610742 -3.626651 46.841740 77 64 77
-12.612272 -3.526103 46.847424 79 65 79
-12.613369 -3.425414 46.851498 80 65 81
-12.613999 -3.324584 46.853840 82 65 82
-12.614136 -3.223618 46.854343 83 65 84
-12.613756 -3.122522 46.852936 84 64 84
-12.612843 -3.021304 46.849545 85 64 85
-12.611386 -2.919975 46.844131 86 65 85
-12.609386 -2.818547 46.836704 87 67 85
-12.606850 -2.717037 46.827282 87 68 86
-12.603794 -2.615459 46.815933 88 69 86
-12.600249 -2.513832 46.802765 88 70 85
-12.596258 -2.412177 46.787941 89 70 85
-12.591876 -2.310514 46.771664 89 70 86
-12.587173 -2.208864 46.754192 89 70 87
-12.582227 -2.107250 46.735821 89 69 88
-12.577133 -2.005691 46.716904 89 70 89
-12.571994 -1.904207 46.697811 89 70 90
-12.566915 -1.802813 46.678944 89 71 90
-12.562009 -1.701525 46.660725 89 72 90
-12.557384 -1.600351 46.643547 89 73 90
-12.553151 -1.499297 46.627823 89 74 91
-12.549408 -1.398366 46.613918 89 75 93
-12.546241 -1.297555 46.602154 90 77 95
-12.543731 -1.196857 46.592831 90 79 96
-12.541936 -1.096261 46.586163 90 80 97
-12.540904 -0.995755 46.582333 90 81 98
-12.540664 -0.895322 46.581440 91 83 99
-12.541227 -0.794944 46.583530 92 84 99
-12.542594 -0.694602 46.588608 93 85 99
-12.544748 -0.594274 46.596611 94 87 100
-12.547663 -0.493942 46.607437 96 88 101
-12.551307 -0.393587 46.620972 98 90 103
-12.555636 -0.293189 46.637054 101 91 106
-12.560607 -0.192731 46.655518 104 95 110
-12.566172 -0.092198 46.676186 107 98 114
-12.572280 0.008424 46.698875 109 101 116
-12.578885 0.109148 46.723412 110 102 118
-12.585938 0.209986 46.749607 110 104 120
-12.593391 0.310946 46.777290 111 106 122
-12.601194 0.412037 46.806274 112 109 124
-12.609297 0.513266 46.836372 113 111 126
-12.617645 0.614636 46.867382 114 113 128
-12.626184 0.716150 46.899097 115 115 130
-12.634850 0.817810 46.931286 117 117 132
-12.643575 0.919613 46.963696 119 118 135
-12.652287 1.021554 46.996056 121 119 137
-12.660913 1.123627 47.028099 123 121 139
-12.669371 1.225822 47.059513 124 122 140
-12.677583 1.328127 47.090015 125 124 141
-12.685469 1.430526 47.119308 126 126 142
-12.692956 1.533004 47.147118 127 127 142
-12.699974 1.635541 47.173187 127 127 141
-12.706470 1.738119 47.197319 127 127 141
-12.712401 1.840720 47.219345 127 126 140
-12.717740 1.943324 47.239174 125 124 139
-12.722477 2.045918 47.256771 124 122 138
-12.726624 2.148488 47.272179 122 120 137
-12.730212 2.251025 47.285503 121 118 134
-12.733287 2.353525 47.296925 120 115 132
-12.735914 2.455988 47.306683 120 114 130
-12.738169 2.558418 47.315056 119 112 127
-12.740139 2.660825 47.322376 116 109 123
-12.741917 2.763221 47.328979 114 106 119
-12.743598 2.865625 47.335224 111 104 114
-12.745275 2.968054 47.341454 108 101 110
-12.747030 3.070529 47.347973 104 99 106
-12.748940 3.173071 47.355068 102 97 104
-12.751064 3.275698 47.362957 101 95 102
-12.753451 3.378429 47.371826 101 94 101
-12.756131 3.481278 47.381779 102 94 101
-12.759123 3.584257 47.392891 102 94 102
-12.762425 3.687375 47.405159 104 94 104
-12.766032 3.790635 47.418556 105 93 106
-12.769925 3.894041 47.433014 106 93 108
-12.774081 3.997591 47.448452 106 93 109
-12.778476 4.101284 47.464775 106 94 110
-12.783084 4.205118 47.481895 106 95 112
-12.787887 4.309092 47.499729 105 94 112
-12.792870 4.413204 47.518242 105 93 111
-12.798028 4.517458 47.537399 106 94 112
-12.803367 4.621860 47.557232 106 94 112
-12.808897 4.726418 47.577774 106 92 111
-12.814638 4.831144 47.599098 105 91 110
-12.820613 4.936052 47.621292 106 91 110
-12.826853 5.041160 47.644470 106 90 111
-12.833385 5.146485 47.668736 106 89 112
-12.840240 5.252047 47.694199 107 89 113
-12.847443 5.357862 47.720947 107 90 115
-12.855013 5.463951 47.749069 106 91 115
-12.862966 5.570325 47.778606 104 92 115
-12.871307 5.676999 47.809589 103 92 115
-12.880038 5.783981 47.842022 103 93 115
-12.889153 5.891279 47.875877 103 94 114
-12.898639 5.998895 47.911114 104 94 114
-12.908481 6.106831 47.947670 104 94 114
-12.918660 6.215087 47.985481 105 93 112
-12.929157 6.323662 48.024471 104 92 111
-12.939950 6.432552 48.064560 103 89 108
-12.951017 6.541753 48.105667 100 86 105
-12.962337 6.651260 48.147713 99 83 102
-12.973885 6.761069 48.190609 98 81 100
-12.985639 6.871171 48.234268 96 79 98
-12.997568 6.981555 48.278580 95 77 96
-13.009641 7.092209 48.323421 95 75 95
-13.021818 7.203115 48.368652 94 73 93
-13.034053 7.314247 48.414097 93 72 92
-13.046289 7.425576 48.459553 93 70 89
-13.058463 7.537065 48.504772 93 69 87
-13.070501 7.648669 48.549484 92 68 84
-13.082319 7.760336 48.593380 91 68 82
-13.093833 7.872009 48.636147 90 68 81
-13.104949 7.983624 48.677441 89 68 79
-13.115578 8.095117 48.716919 88 68 78
-13.125630 8.206419 48.754257 87 67 77
-13.135025 8.317466 48.789154 86 67 77
-13.143692 8.428196 48.821346 84 67 77
-13.151573 8.538555 48.850620 82 66 78
-13.158630 8.648499 48.876831 82 65 78
-13.164844 8.757995 48.899910 83 64 79
-13.170218 8.867024 48.919872 83 63 79
-13.174777 8.975585 48.936810 84 63 79
-13.178570 9.083691 48.950897 84 62 78
-13.181662 9.191368 48.962383 85 61 78
-13.184142 9.298664 48.971596 86 60 79
-13.186112 9.405636 48.978912 87 59 79
-13.187687 9.512354 48.984764 87 59 79
-13.188994 9.618901 48.989616 87 58 80
-13.190159 9.725366 48.993946 87 57 80
-13.191318 9.831843 48.998249 88 57 81
-13.192594 9.938428 49.002987 88 56 81
-13.194114 10.045220 49.008636 87 57 80
-13.195992 10.152311 49.015614 85 57 79
-13.198336 10.259794 49.024319 84 57 78
-13.201238 10.367753 49.035095 83 58 77
-13.204779 10.476265 49.048248 81 59 75
-13.209021 10.585396 49.064007 79 59 72
-13.214020 10.695209 49.082577 77 59 69
-13.219820 10.805755 49.104118 76 58 67
-13.226445 10.917075 49.128727 75 59 66
-13.233908 11.029199 49.156445 74 59 65
-13.242206 11.142146 49.187267 73 58 65
-13.251320 11.255919 49.221123 73 57 64
-13.261218 11.370510 49.257889 72 56 63
-13.271849 11.485893 49.297375 71 56 63
-13.283145 11.602028 49.339333 71 56 62
-13.295012 11.718847 49.383411 70 56 62
-13.307340 11.836267 49.429203 70 56 61
-13.319994 11.954176 49.476208 69 57 62
-13.332814 12.072438 49.523830 68 57 62
-13.345615 12.190888 49.571377 68 57 62
-13.358189 12.309334 49.618076 67 57 63
-13.370297 12.427549 49.663059 66 56 63
-13.381695 12.545291 49.705391 66 56 63
-13.392108 12.662284 49.744068 66 55 63
-13.401257 12.778239 49.778053 67 55 64
-13.408860 12.892855 49.806293 67 55 64
-13.414639 13.005824 49.827763 67 55 63
-13.418332 13.116845 49.841476 68 55 62
-13.419699 13.225633 49.846554 68 55 61
-13.418541 13.331935 49.842255 68 54 60
-13.414703 13.435534 49.827999 67 53 59
-13.408090 13.536270 49.803432 66 52 57
-13.398669 13.634044 49.768444 64 50 56
-13.386479 13.728827 49.723164 62 48 54
-13.371635 13.820670 49.668026 60 46 52
-13.354322 13.909704 49.603718 58 45 50
-13.334792 13.996135 49.531178 56 43 49
-13.313362 14.080243 49.451576 54 42 48
-13.290398 14.162372 49.366272 52 41 45
-13.266298 14.242916 49.276760 50 41 44
-13.241490 14.322308 49.184612 49 40 42
-13.216403 14.400997 49.091427 48 40 41
-13.191452 14.479434 48.998749 48 40 41
-13.167028 14.558056 48.908028 48 39 40
-13.143483 14.637263 48.820572 49 38 40
-13.121116 14.717415 48.737488 49 37 40
-13.100165 14.798810 48.659672 50 36 40
-13.080810 14.881683 48.587776 51 35 40
-13.063164 14.966206 48.522228 51 35 39
-13.047276 15.052474 48.463215 50 35 39
-13.033143 15.140526 48.410721 50 35 39
-13.020707 15.230336 48.364525 50 34 39
-13.009873 15.321836 48.324287 50 34 39
-13.000515 15.414910 48.289524 50 34 39
-12.992487 15.509423 48.259705 50 34 38
-12.985633 15.605218 48.234249 49 34 38
-12.979797 15.702135 48.212570 48 33 37
-12.974840 15.800028 48.194157 47 33 37
-12.970621 15.898747 48.178486 47 34 37
-12.967025 15.998167 48.165127 46 34 37
-12.963956 16.098183 48.153728 47 35 38
-12.961337 16.198713 48.144001 47 36 39
-12.959114 16.299700 48.135746 47 36 39
-12.957253 16.401108 48.128830 47 37 39
-12.955730 16.502920 48.123177 46 37 38
-12.954541 16.605133 48.118759 46 37 37
-12.953690 16.707762 48.115593 46 37 37
-12.953183 16.810825 48.113712 46 37 37
-12.953042 16.914358 48.113190 46 36 37
-12.953288 17.018396 48.114105 45 36 38
-12.953948 17.122988 48.116554 45 36 38
-12.955059 17.228188 48.120682 45 35 39
-12.956658 17.334061 48.126625 45 35 39
-12.958795 17.440680 48.134560 45 34 39
-12.961526 17.548138 48.144703 45 33 38
-12.964915 17.656540 48.157295 45 32 36
-12.969040 17.765999 48.172611 44 32 35
-12.973981 17.876652 48.190968 45 32 35
-12.587975 -7.510362 47.134583 55 56 65
-12.573188 -7.400053 47.079212 55 56 65
-12.559901 -7.290853 47.029461 55 55 66
-12.548040 -7.182684 46.985054 54 55 67
-12.537520 -7.075463 46.945660 54 55 67
-12.528247 -6.969106 46.910934 54 54 67
-12.520116 -6.863524 46.880489 54 54 66
-12.513026 -6.758636 46.853943 54 54 65
-12.506876 -6.654363 46.830914 54 53 65
-12.501568 -6.550630 46.811039 54 52 65
-12.497007 -6.447368 46.793964 55 52 65
-12.493116 -6.344520 46.779392 56 52 65
-12.489820 -6.242032 46.767052 57 53 65
-12.487062 -6.139862 46.756725 59 53 65
-12.484797 -6.037974 46.748241 60 54 66
-12.482991 -5.936343 46.741482 62 54 67
-12.481623 -5.834944 46.736359 63 55 67
-12.480681 -5.733764 46.732834 64 55 68
-12.480163 -5.632789 46.730888 65 55 69
-12.480065 -5.532010 46.730526 65 54 71
-12.480393 -5.431417 46.731754 65 54 71
-12.481147 -5.331001 46.734573 65 54 71
-12.482325 -5.230751 46.738983 65 53 72
-12.483915 -5.130651 46.744938 65 54 73
-12.485906 -5.030687 46.752392 65 56 73
-12.488268 -4.930837 46.761238 66 56 74
-12.490969 -4.831080 46.771351 66 57 74
-12.493964 -4.731391 46.782570 67 57 75
-12.497203 -4.631744 46.794693 68 58 76
-12.500625 -4.532111 46.807510 68 58 76
-12.504169 -4.432466 46.820778 69 58 75
-12.507765 -4.332782 46.834244 70 58 74
-12.511347 -4.233035 46.847656 71 58 74
-12.514846 -4.133203 46.860760 72 58 74
-12.518196 -4.033267 46.873302 73 59 73
-12.521335 -3.933209 46.885056 75 60 73
-12.524203 -3.833019 46.895794 76 61 73
-12.526745 -3.732685 46.905312 76 62 74
-12.528913 -3.632201 46.913433 77 63 76
-12.530666 -3.531566 46.919994 78 64 77
-12.531963 -3.430777 46.924850 80 65 79
-12.532772 -3.329838 46.927879 81 65 81
-12.533063 -3.228752 46.928970 82 65 82
-12.532817 -3.127527 46.928047 83 64 83
-12.532015 -3.026173 46.925045 84 65 84
-12.530649 -2.924700 46.919930 85 66 85
-12.528718 -2.823121 46.912701 87 68 86
-12.526232 -2.721453 46.903389 88 69 87
-12.523210 -2.619713 46.892075 87 69 86
-12.519682 -2.517920 46.878864 87 69 85
-12.515692 -2.416094 46.863922 89 70 86
-12.511295 -2.314258 46.847462 90 70 87
-12.506564 -2.212434 46.829746 90 70 89
-12.501579 -2.110643 46.811081 90 69 90
-12.496430 -2.008907 46.791805 90 69 92
-12.491224 -1.907244 46.772308 90 70 92
-12.486065 -1.805673 46.752991 90 70 92
-12.481064 -1.704206 46.734264 90 71 92
-12.476331 -1.602855 46.716541 90 72 91
-12.471971 -1.501625 46.700214 90 74 91
-12.468081 -1.400518 46.685654 90 75 92
-12.464749 -1.299532 46.673176 91 77 93
-12.462050 -1.198661 46.663071 91 79 94
-12.460045 -1.097894 46.655560 91 80 95
-12.458773 -0.997219 46.650795 91 81 96
-12.458262 -0.896619 46.648884 92 82 97
-12.458524 -0.796076 46.649864 92 82 97
-12.459554 -0.695572 46.653721 93 83 98
-12.461332 -0.595088 46.660381 94 85 100
-12.463834 -0.494603 46.669746 97 87 102
-12.467020 -0.394099 46.681679 99 88 104
-12.470852 -0.293559 46.696026 101 90 106
-12.475284 -0.192967 46.712620 105 94 110
-12.480267 -0.092307 46.731277 109 98 115
-12.485756 0.008433 46.751831 109 99 116
-12.491702 0.109266 46.774097 109 100 117
-12.498063 0.210203 46.797916 109 102 119
-12.504792 0.311251 46.823112 110 104 121
-12.511847 0.412418 46.849525 112 107 123
-12.519180 0.513711 46.876987 113 110 125
-12.526748 0.615133 46.905323 115 113 127
-12.534495 0.716688 46.934334 117 114 130
-12.542371 0.818377 46.963821 119 116 132
-12.550313 0.920197 46.993561 121 118 135
-12.558255 1.022146 47.023300 123 120 137
-12.566133 1.124217 47.052799 124 121 140
-12.573872 1.226402 47.081772 125 122 142
-12.581396 1.328689 47.109947 126 124 143
-12.588635 1.431065 47.137058 127 125 144
-12.595519 1.533515 47.162834 128 127 144
-12.601984 1.636021 47.187038 128 127 143
-12.607979 1.738567 47.209484 128 127 142
-12.613461 1.841135 47.230011 127 127 142
-12.618404 1.943709 47.248524 126 125 141
-12.622801 2.046273 47.264984 124 122 140
-12.626662 2.148818 47.279442 123 120 138
-12.630015 2.251334 47.292000 121 118 136
-12.632906 2.353818 47.302822 120 115 134
-12.635394 2.456271 47.312138 120 114 132
-12.637555 2.558697 47.320229 119 112 129
-12.639472 2.661108 47.327408 117 109 124
-12.641235 2.763515 47.334011 114 106 120
-12.642937 2.865937 47.340382 111 103 115
-12.644664 2.968392 47.346848 108 101 111
-12.646500 3.070902 47.353725 104 98 107
-12.648517 3.173487 47.361279 101 95 103
-12.650774 3.276166 47.369728 101 94 102
-12.653315 3.378958 47.379242 102 94 102
-12.656169 3.481877 47.389931 102 94 101
-12.659352 3.584935 47.401852 103 94 101
-12.662866 3.688141 47.415005 103 93 102
-12.666698 3.791499 47.429356 104 92 104
-12.670830 3.895010 47.444824 105 92 106
-12.675235 3.998675 47.461319 105 93 108
-12.679885 4.102490 47.478733 105 94 110
-12.684756 4.206454 47.496971 105 95 112
-12.689824 4.310563 47.515945 104 94 112
-12.695072 4.414816 47.535599 103 92 111
-12.700492 4.519216 47.555893 103 93 111
-12.706086 4.623765 47.576839 104 93 111
-12.711861 4.728473 47.598465 104 92 111
-12.717832 4.833349 47.620823 105 91 110
-12.724023 4.938406 47.644001 105 91 110
-12.730459 5.043661 47.668102 106 90 110
-12.737167 5.149128 47.693222 107 89 111
-12.744175 5.254828 47.719460 107 90 113
-12.751505 5.360777 47.746906 107 90 114
-12.759179 5.466991 47.775642 106 91 114
-12.767209 5.573485 47.805710 105 92 114
-12.775605 5.680271 47.837147 104 92 114
-12.784366 5.787358 47.869949 103 93 113
-12.793489 5.894753 47.904110 103 93 113
-12.802964 6.002460 47.939590 104 94 112
-12.812780 6.110484 47.976349 104 94 112
-12.822921 6.218822 48.014317 104 93 111
-12.833370 6.327477 48.053444 103 91 110
-12.844112 6.436447 48.093670 103 88 108
-12.855129 6.545731 48.134922 101 85 105
-12.866406 6.655326 48.177147 100 82 102
-12.877923 6.765230 48.220268 99 80 101
-12.889659 6.875437 48.264214 98 79 99
-12.901593 6.985940 48.308899 97 77 97
-12.913697 7.096730 48.354221 98 75 96
-12.925935 7.207789 48.400047 98 74 95
-12.938262 7.319097 48.446201 96 73 93
-12.950627 7.430625 48.492504 95 72 90
-12.962965 7.542337 48.538700 94 69 87
-12.975203 7.654190 48.584522 93 68 85
-12.987259 7.766130 48.629665 91 68 83
-12.999041 7.878100 48.673782 90 68 82
-13.010456 7.990036 48.716530 90 69 81
-13.021410 8.101867 48.757542 89 69 80
-13.031806 8.213524 48.796471 88 69 79
-13.041555 8.324936 48.832977 86 69 77
-13.050581 8.436038 48.866772 84 68 77
-13.058817 8.546768 48.897610 83 67 77
-13.066216 8.657078 48.925316 82 66 77
-13.072752 8.766928 48.949791 83 65 78
-13.078421 8.876294 48.971016 83 64 78
-13.083239 8.985168 48.989056 84 63 79
-13.087250 9.093558 49.004074 85 63 79
-13.090515 9.201489 49.016300 86 62 79
-13.093118 9.309003 49.026047 87 61 80
-13.095162 9.416157 49.033703 88 60 80
-13.096760 9.523019 49.039684 88 59 80
-13.098040 9.629672 49.044476 88 59 81
-13.099132 9.736208 49.048565 88 58 81
-13.100171 9.842721 49.052456 88 57 81
-13.101290 9.949311 49.056648 88 57 81
-13.102615 10.056078 49.061611 87 57 81
-13.104268 10.163119 49.067795 86 58 80
-13.106356 10.270529 49.075611 84 58 79
-13.108976 10.378395 49.085430 83 59 77
-13.112214 10.486796 49.097553 82 60 76
-13.116130 10.595798 49.112213 79 60 72
-13.120786 10.705465 49.129646 77 59 68
-13.126216 10.815846 49.149979 76 58 66
-13.132447 10.926982 49.173313 75 59 65
-13.139487 11.038898 49.199673 74 59 64
-13.147331 11.151609 49.229046 73 58 64
-13.155953 11.265114 49.261330 72 57 63
-13.165318 11.379399 49.296398 71 56 63
-13.175369 11.494433 49.334030 70 56 62
-13.186033 11.610170 49.373959 69 56 61
-13.197214 11.726540 49.415825 69 56 61
-13.208800 11.843451 49.459209 69 56 61
-13.220654 11.960793 49.503593 69 56 61
-13.232616 12.078424 49.548386 69 57 62
-13.244504 12.196182 49.592899 69 57 63
-13.256117 12.313874 49.636383 68 57 64
-13.267224 12.431282 49.677975 68 57 64
-13.277586 12.548162 49.716770 68 56 64
-13.286942 12.664252 49.751801 68 55 64
-13.295024 12.779269 49.782066 68 55 64
-13.301564 12.892921 49.806553 68 55 63
-13.306298 13.004915 49.824284 69 56 64
-13.308978 13.114961 49.834320 69 56 62
-13.309381 13.222786 49.835823 69 56 61
-13.307318 13.328150 49.828102 68 55 60
-13.302650 13.430850 49.810623 67 54 59
-13.295292 13.530736 49.783070 66 53 58
-13.285220 13.627719 49.745358 65 51 56
-13.272480 13.721783 49.697651 63 49 55
-13.257190 13.812983 49.640400 61 47 53
-13.239534 13.901453 49.574291 59 45 51
-13.219769 13.987406 49.500282 57 43 50
-13.198207 14.071122 49.419540 55 42 48
-13.175203 14.152944 49.333408 53 42 46
-13.151156 14.233265 49.243366 52 41 44
-13.126482 14.312513 49.150978 51 41 43
-13.101598 14.391132 49.057800 50 41 42
-13.076912 14.469569 48.965366 49 40 41
-13.052804 14.548252 48.875095 50 40 42
-13.029617 14.627580 48.788273 51 39 41
-13.007640 14.707901 48.705982 51 37 41
-12.987106 14.789512 48.629097 51 36 40
-12.968187 14.872643 48.558258 52 36 40
-12.950993 14.957458 48.493870 51 35 39
-12.935568 15.044056 48.436115 51 34 39
-12.921907 15.132470 48.384964 50 34 39
-12.909950 15.222673 48.340191 50 34 39
-12.899604 15.314595 48.301449 50 33 39
-12.890742 15.408125 48.268269 50 33 39
-12.883220 15.503122 48.240101 49 34 38
-12.876884 15.599438 48.216381 49 34 38
-12.871581 15.696908 48.196522 48 34 37
-12.867168 15.795386 48.180000 47 34 37
-12.863509 15.894725 48.166298 47 34 37
-12.860489 15.994799 48.154987 46 34 36
-12.858007 16.095499 48.145699 45 35 37
-12.855990 16.196743 48.138145 46 35 37
-12.854381 16.298471 48.132114 46 36 37
-12.853138 16.400642 48.127460 46 36 37
-12.852239 16.503235 48.124096 46 37 37
-12.851672 16.606241 48.121971 46 37 37
-12.851436 16.709669 48.121086 47 36 36
-12.851536 16.813532 48.121464 47 36 36
-12.851985 16.917856 48.123142 47 36 37
-12.852800 17.022676 48.126202 46 36 37
-12.854009 17.128029 48.130726 46 35 38
-12.855639 17.233967 48.136826 46 35 39
-12.857728 17.340551 48.144650 46 35 39
-12.860320 17.447853 48.154358 46 34 39
-12.863475 17.555964 48.166168 46 33 38
-12.867255 17.664982 48.180325 45 33 36
-12.871737 17.775034 48.197109 45 33 36
-12.877008 17.886251 48.216843 46 33 36
-12.516449 -7.630306 47.248131 55 55 63
-12.499975 -7.518546 47.185947 54 55 63
-12.485103 -7.408005 47.129803 53 54 63
-12.471766 -7.298604 47.079460 53 53 64
-12.459886 -7.190261 47.034615 53 53 65
-12.449376 -7.082891 46.994938 53 53 66
-12.440136 -6.976403 46.960060 53 53 66
-12.432061 -6.870711 46.929577 53 53 65
-12.425046 -6.765727 46.903095 53 53 64
-12.418984 -6.661368 46.880215 53 52 64
-12.413775 -6.557558 46.860550 54 51 65
-12.409324 -6.454227 46.843746 55 51 65
-12.405544 -6.351313 46.829479 56 51 65
-12.402366 -6.248763 46.817482 56 51 65
-12.399728 -6.146533 46.807522 58 51 65
-12.397582 -6.044585 46.799423 59 52 66
-12.395899 -5.942894 46.793068 61 53 66
-12.394655 -5.841438 46.788372 63 54 68
-12.393841 -5.740201 46.785301 65 54 69
-12.393452 -5.639171 46.783833 66 55 70
-12.393492 -5.538338 46.783981 66 54 72
-12.393965 -5.437696 46.785767 66 54 73
-12.394873 -5.337232 46.789196 65 54 73
-12.396215 -5.236938 46.794266 65 54 73
-12.397986 -5.136799 46.800953 64 55 74
-12.400170 -5.036798 46.809193 64 56 74
-12.402742 -4.936917 46.818901 64 57 75
-12.405666 -4.837132 46.829941 65 57 75
-12.408899 -4.737417 46.842144 65 57 75
-12.412388 -4.637744 46.855316 66 58 75
-12.416073 -4.538087 46.869225 67 58 75
-12.419887 -4.438416 46.883621 69 57 75
-12.423760 -4.338703 46.898243 71 57 75
-12.427622 -4.238924 46.912823 72 58 74
-12.431400 -4.139053 46.927082 74 58 74
-12.435024 -4.039071 46.940765 75 59 74
-12.438430 -3.938961 46.953617 76 60 73
-12.441552 -3.838708 46.965405 76 60 73
-12.444336 -3.738303 46.975914 76 61 74
-12.446731 -3.637739 46.984951 77 62 74
-12.448690 -3.537012 46.992352 77 63 76
-12.450174 -3.436122 46.997955 79 64 77
-12.451152 -3.335072 47.001640 80 64 79
-12.451591 -3.233866 47.003300 81 64 80
-12.451470 -3.132513 47.002846 82 65 82
-12.450775 -3.031021 47.000221 83 65 83
-12.449496 -2.929403 46.995392 85 67 84
-12.447636 -2.827675 46.988369 86 68 86
-12.445204 -2.725851 46.979191 88 69 87
-12.442219 -2.623950 46.967922 87 69 86
-12.438713 -2.521992 46.954689 87 69 85
-12.434731 -2.419999 46.939659 89 69 86
-12.430331 -2.317992 46.923050 90 69 88
-12.425582 -2.215995 46.905117 91 69 90
-12.420566 -2.114029 46.886185 91 69 91
-12.415373 -2.012117 46.866581 91 69 93
-12.410109 -1.910278 46.846710 91 69 93
-12.404876 -1.808530 46.826958 91 70 93
-12.399786 -1.706886 46.807743 91 71 92
-12.394946 -1.605357 46.789471 92 72 92
-12.390461 -1.503950 46.772541 92 73 92
-12.386424 -1.402668 46.757305 92 75 91
-12.382925 -1.301507 46.744095 92 77 92
-12.380033 -1.200462 46.733177 92 79 92
-12.377805 -1.099523 46.724766 92 80 93
-12.376282 -0.998677 46.719017 92 81 95
