ply
format ascii 1.0
element vertex 1209
property float x
property float y
property float z
property uchar red
property uchar green
property uchar blue
end_header
-15.322058 8.265677 49.743366 28 18 17
-15.348330 8.387265 49.828663 27 18 16
-15.375377 8.509647 49.916470 26 18 16
-15.403161 8.632823 50.006672 26 19 16
-15.431639 8.756781 50.099125 26 19 16
-15.460755 8.881503 50.193653 27 19 17
-15.490449 9.006969 50.290054 27 19 17
-15.520650 9.133149 50.388103 26 18 16
-15.551278 9.260007 50.487537 25 17 17
-15.582252 9.387501 50.588093 26 18 18
-15.613483 9.515586 50.689487 25 18 18
-15.644888 9.644215 50.791443 25 18 17
-15.676382 9.773338 50.893688 25 17 16
-15.707889 9.902911 50.995975 25 17 15
-15.739351 10.032897 51.098118 26 16 15
-15.770717 10.163260 51.199947 26 15 15
-15.801961 10.293984 51.301384 26 15 16
-15.833077 10.425060 51.402401 27 16 16
-15.864084 10.556499 51.503067 26 16 17
-15.895020 10.688325 51.603500 25 16 17
-15.925949 10.820579 51.703911 25 15 16
-15.956944 10.953311 51.804539 24 15 15
-15.988103 11.086591 51.905697 24 16 14
-16.019520 11.220488 52.007694 23 17 13
-16.051291 11.355073 52.110836 24 17 13
-16.083492 11.490412 52.215378 24 18 14
-16.116194 11.626563 52.321545 24 18 14
-16.149431 11.763561 52.429451 24 18 14
-16.183210 11.901423 52.539120 24 18 13
-16.217497 12.040135 52.650433 23 17 13
-16.252218 12.179653 52.763157 21 17 13
-16.287258 12.319896 52.876911 21 18 15
-16.322456 12.460752 52.991184 23 20 18
-16.357618 12.602073 53.105339 24 21 18
-16.392527 12.743687 53.218666 23 20 17
-16.426926 12.885392 53.330345 22 18 16
-16.460560 13.026973 53.439541 22 17 16
-16.493160 13.168199 53.545380 22 16 16
-16.524467 13.308839 53.647015 22 16 16
-16.554230 13.448664 53.743641 22 16 16
-16.582222 13.587452 53.834515 21 16 14
-16.608240 13.725002 53.918983 20 15 13
-16.632122 13.861137 53.996517 20 15 13
-16.653736 13.995700 54.066689 20 15 13
-16.672995 14.128570 54.129211 20 15 13
-16.689842 14.259647 54.183907 21 16 13
-16.704266 14.388874 54.230736 22 16 14
-16.716288 14.516216 54.269760 22 16 14
-16.725954 14.641666 54.301147 22 16 14
-16.733347 14.765244 54.325146 22 16 14
-16.738562 14.886990 54.342079 22 16 15
-16.741718 15.006963 54.352325 23 16 15
-16.742947 15.125237 54.356312 23 16 14
-16.742378 15.241893 54.354465 23 16 15
-16.740160 15.357027 54.347263 23 16 15
-16.736425 15.470730 54.335140 22 15 14
-16.731308 15.583093 54.318527 21 15 13
-16.724932 15.694201 54.297825 21 15 13
-16.717403 15.804132 54.273388 21 14 13
-16.708813 15.912947 54.245499 21 14 13
-16.699228 16.020685 54.214378 21 14 13
-16.688698 16.127378 54.180195 22 15 12
-16.677248 16.233028 54.143021 23 16 13
-16.664883 16.337618 54.102875 23 16 15
-16.651579 16.441111 54.059685 24 16 16
-16.637299 16.543446 54.013325 24 16 16
-16.621996 16.644556 53.963642 25 16 16
-16.605614 16.744364 53.910458 25 16 16
-16.588089 16.842783 53.853565 25 16 15
-16.569370 16.939737 53.792793 24 15 14
-16.549425 17.035166 53.728043 24 15 14
-16.528234 17.129023 53.659241 23 15 14
-16.505810 17.221298 53.586445 23 15 14
-16.482193 17.312008 53.509773 22 15 14
-16.457470 17.401217 53.429508 22 16 15
-16.431746 17.489012 53.345993 23 16 16
-15.499141 -6.326414 50.672901 16 14 12
-15.488363 -6.212857 50.637665 15 13 12
-15.476910 -6.099185 50.600216 14 12 11
-15.464312 -5.985233 50.559032 13 11 10
-15.450143 -5.870861 50.512707 13 11 9
-15.434034 -5.755964 50.460041 13 11 9
-15.415684 -5.640475 50.400047 13 11 9
-15.394879 -5.524364 50.332027 13 10 9
-15.371490 -5.407637 50.255562 13 10 9
-15.345492 -5.290340 50.170563 12 10 10
-15.316944 -5.172549 50.077225 12 10 10
-15.285992 -5.054365 49.976028 13 10 11
-15.252855 -4.935910 49.867695 14 10 11
-15.217813 -4.817319 49.753124 15 10 11
-15.181187 -4.698732 49.633385 15 9 11
-15.143336 -4.580291 49.509636 15 10 11
-15.104636 -4.462132 49.383106 15 11 11
-15.065465 -4.344383 49.255039 15 11 11
-15.026198 -4.227160 49.126663 15 11 11
-14.987186 -4.110559 48.999119 14 11 10
-14.948758 -3.994664 48.873478 15 11 11
-14.911212 -3.879541 48.750725 15 12 12
-14.874814 -3.765238 48.631729 16 12 12
-14.839799 -3.651788 48.517246 17 12 13
-14.806358 -3.539207 48.407917 17 11 13
-14.774654 -3.427501 48.304264 17 11 13
-14.744823 -3.316663 48.206734 18 12 12
-14.716956 -3.206674 48.115627 19 13 12
-14.691125 -3.097507 48.031174 18 13 11
-14.667364 -2.989125 47.953491 19 14 11
-14.645689 -2.881489 47.882626 18 13 11
-14.626087 -2.774552 47.818539 18 13 11
-14.608529 -2.668264 47.761135 17 13 10
-14.592966 -2.562574 47.710251 17 13 10
-14.579329 -2.457428 47.665665 17 13 10
-14.567538 -2.352773 47.627121 17 13 10
-14.557501 -2.248555 47.594303 17 13 11
-14.549118 -2.144722 47.566895 17 13 12
-14.542275 -2.041223 47.544525 18 13 12
-14.536859 -1.938011 47.526817 18 13 12
-14.532751 -1.835041 47.513386 19 13 12
-14.529832 -1.732270 47.503841 19 13 13
-14.527985 -1.629660 47.497803 19 14 13
-14.527092 -1.527177 47.494884 19 14 13
-14.527040 -1.424789 47.494717 19 14 12
-14.527719 -1.322468 47.496933 19 15 12
-14.529023 -1.220190 47.501198 20 15 13
-14.530850 -1.117934 47.507172 20 16 14
-14.533109 -1.015683 47.514553 21 16 14
-14.535711 -0.913421 47.523064 21 16 14
-14.538574 -0.811137 47.532425 20 16 14
-14.541627 -0.708822 47.542404 20 15 14
-14.544797 -0.606469 47.552769 20 14 14
-14.548028 -0.504073 47.563332 20 15 13
-14.551267 -0.401632 47.573921 21 15 13
-14.554468 -0.299144 47.584389 23 16 13
-14.557598 -0.196611 47.594620 25 18 14
-14.560632 -0.094032 47.604538 27 19 15
-14.563552 0.008589 47.614086 27 19 15
-14.566354 0.111250 47.623245 27 20 15
-14.569039 0.213949 47.632027 27 21 16
-14.571625 0.316684 47.640480 26 21 16
-14.574128 0.419453 47.648666 25 20 17
-14.576583 0.522255 47.656689 25 20 17
-14.579021 0.625092 47.664661 24 18 17
-14.581485 0.727964 47.672714 24 17 17
-14.584013 0.830874 47.680981 24 17 17
-14.586650 0.933827 47.689602 23 17 17
-14.589437 1.036828 47.698715 24 17 17
-14.592418 1.139883 47.708462 24 16 17
-14.595623 1.242999 47.718941 24 16 16
-14.599086 1.346184 47.730263 24 16 17
-14.602830 1.449446 47.742504 25 16 16
-14.606870 1.552793 47.755711 25 17 16
-14.611218 1.656231 47.769924 26 17 15
-14.615871 1.759767 47.785141 26 17 15
-14.620829 1.863407 47.801346 26 18 16
-14.626075 1.967156 47.818497 25 18 14
-14.631594 2.071018 47.836540 24 18 14
-14.637362 2.174995 47.855404 25 18 15
-14.643357 2.279088 47.875000 25 18 15
-14.649549 2.383298 47.895245 25 18 16
-14.655905 2.487622 47.916027 25 18 16
-14.662402 2.592062 47.937267 25 18 16
-14.669005 2.696612 47.958855 26 18 17
-14.675694 2.801272 47.980721 25 18 16
-14.682436 2.906037 48.002766 25 18 17
-14.689216 3.010904 48.024933 25 18 17
-14.696012 3.115871 48.047150 26 19 18
-14.702805 3.220932 48.069359 26 20 18
-14.709579 3.326085 48.091503 27 20 17
-14.716317 3.431326 48.113537 28 21 17
-14.723009 3.536650 48.135414 29 21 17
-14.729643 3.642054 48.157104 29 21 17
-14.736205 3.747533 48.178558 29 21 17
-14.742685 3.853083 48.199745 29 21 16
-14.749072 3.958700 48.220627 29 20 15
-14.755357 4.064379 48.241173 29 20 15
-14.761531 4.170115 48.261356 29 20 14
-14.767590 4.275904 48.281166 29 19 15
-14.773528 4.381743 48.300583 28 19 15
-14.779351 4.487631 48.319622 29 19 16
-14.785068 4.593568 48.338310 29 19 16
-14.790695 4.699557 48.356709 29 20 16
-14.796257 4.805604 48.374893 30 20 16
-14.801785 4.911718 48.392963 30 21 17
-14.807321 5.017913 48.411060 30 21 17
-14.812912 5.124206 48.429344 30 21 17
-14.818620 5.230618 48.448006 30 21 17
-14.824506 5.337174 48.467247 29 21 17
-14.830638 5.443904 48.487297 28 21 18
-14.837090 5.550840 48.508389 27 21 18
-14.843929 5.658015 48.530754 26 19 18
-14.851232 5.765466 48.554626 24 17 17
-14.859061 5.873228 48.580223 24 17 17
-14.867478 5.981337 48.607746 25 18 18
-14.876541 6.089829 48.637371 26 18 18
-14.886295 6.198736 48.669262 27 18 18
-14.896779 6.308090 48.703541 27 18 18
-14.908026 6.417921 48.740311 27 18 17
-14.920056 6.528252 48.779644 27 18 17
-14.932888 6.639110 48.821594 27 18 17
-14.946534 6.750515 48.866207 27 19 16
-14.960997 6.862489 48.913494 26 19 16
-14.976281 6.975048 48.963463 26 19 16
-14.992391 7.088213 49.016132 26 19 15
-15.009324 7.202001 49.071495 25 19 14
-15.027085 7.316430 49.129562 25 18 14
-15.045671 7.431517 49.190327 25 18 15
-15.065088 7.547282 49.253807 26 19 16
-15.085333 7.663742 49.320000 27 19 17
-15.106411 7.780915 49.388908 28 19 18
-15.128316 7.898818 49.460526 28 19 18
-15.151051 8.017469 49.534855 29 19 17
-15.174605 8.136880 49.611862 29 19 17
-15.198971 8.257063 49.691525 29 18 16
-15.224130 8.378027 49.773781 28 18 16
-15.250061 8.499776 49.858562 27 19 17
-15.276735 8.622309 49.945770 27 19 17
-15.304112 8.745620 50.035275 27 19 17
-15.332146 8.869697 50.126926 27 19 17
-15.360781 8.994521 50.220547 26 18 16
-15.389956 9.120069 50.315933 26 17 16
-15.419603 9.246310 50.412861 26 17 17
-15.449643 9.373208 50.511070 26 18 18
-15.480002 9.500727 50.610332 26 19 18
-15.510602 9.628820 50.710373 25 19 17
-15.541369 9.757452 50.810963 25 18 16
-15.572236 9.886580 50.911880 25 17 15
-15.603151 10.016174 51.012951 26 16 16
-15.634071 10.146208 51.114044 27 16 16
-15.664977 10.276668 51.215088 27 16 17
-15.695866 10.407552 51.316074 28 16 17
-15.726756 10.538873 51.417068 27 17 18
-15.757694 10.670660 51.518215 26 16 17
-15.788735 10.802955 51.619701 25 16 16
-15.819958 10.935813 51.721779 25 16 16
-15.851449 11.069299 51.824738 24 17 15
-15.883299 11.203481 51.928867 24 17 15
-15.915591 11.338428 52.034443 24 17 15
-15.948400 11.474200 52.141708 24 18 15
-15.981782 11.610853 52.250847 24 18 15
-16.015764 11.748416 52.361950 24 17 14
-16.050343 11.886899 52.474998 22 16 13
-16.085470 12.026281 52.589848 21 15 13
-16.121067 12.166512 52.706226 20 16 13
-16.157003 12.307504 52.823719 21 17 15
-16.193119 12.449139 52.941795 24 20 18
-16.229216 12.591268 53.059807 24 20 18
-16.265062 12.733712 53.177010 23 19 17
-16.300413 12.876268 53.292583 23 18 16
-16.335009 13.018720 53.405685 23 18 17
-16.368580 13.160838 53.515446 23 18 17
-16.400873 13.302391 53.621025 22 17 17
-16.431643 13.443152 53.721622 22 17 16
-16.460665 13.582908 53.816509 21 16 15
-16.487749 13.721457 53.905056 21 16 14
-16.512733 13.858628 53.986744 21 16 14
-16.535498 13.994270 54.061169 21 15 14
-16.555952 14.128263 54.128036 21 15 13
-16.574045 14.260513 54.187195 21 16 14
-16.589771 14.390964 54.238609 22 16 14
-16.603146 14.519579 54.282333 22 17 15
-16.614216 14.646353 54.318527 22 16 15
-16.623053 14.771298 54.347420 22 16 15
-16.629751 14.894452 54.369320 22 16 15
-16.634418 15.015867 54.384575 23 16 15
-16.637173 15.135608 54.393585 23 17 15
-16.638142 15.253751 54.396751 23 16 14
-16.637455 15.370378 54.394508 23 16 14
-16.635241 15.485572 54.387264 22 16 14
-16.631617 15.599413 54.375416 22 15 13
-16.626698 15.711981 54.359337 21 14 12
-16.620584 15.823341 54.339352 21 14 12
-16.613359 15.933549 54.315731 20 14 12
-16.605089 16.042645 54.288689 21 15 12
-16.595816 16.150648 54.258369 22 15 12
-16.585562 16.257561 54.224846 23 16 13
-16.574329 16.363361 54.188126 24 17 15
-16.562103 16.468016 54.148151 24 17 16
-16.548843 16.571463 54.104797 24 17 16
-16.534500 16.673630 54.057903 25 17 17
-16.519022 16.774445 54.007301 25 17 16
-16.502352 16.873819 53.952797 25 16 16
-16.484432 16.971676 53.894215 24 16 15
-16.465233 17.067949 53.831440 23 15 14
-16.444736 17.162601 53.764431 23 14 14
-16.422953 17.255611 53.693211 22 15 14
-16.399921 17.346994 53.617916 22 15 14
-16.375729 17.436817 53.538818 22 16 14
-16.350477 17.525162 53.456261 23 17 15
-16.324316 17.612169 53.370728 23 17 16
-15.402607 -6.550282 50.714718 15 13 11
-15.389155 -6.435333 50.670425 15 13 11
-15.376023 -6.320706 50.627186 15 13 11
-15.362797 -6.206228 50.583637 14 12 11
-15.349067 -6.091738 50.538429 13 11 10
-15.334435 -5.977090 50.490253 12 11 9
-15.318538 -5.862167 50.437908 12 11 9
-15.301059 -5.746875 50.380356 13 11 8
-15.281741 -5.631154 50.316753 13 11 8
-15.260399 -5.514975 50.246479 13 10 8
-15.236922 -5.398343 50.169182 13 10 9
-15.211282 -5.281293 50.084759 12 10 10
-15.183528 -5.163888 49.993374 12 10 10
-15.153781 -5.046213 49.895428 13 10 11
-15.122224 -4.928371 49.791527 14 10 11
-15.089091 -4.810474 49.682434 14 10 11
-15.054658 -4.692643 49.569057 15 10 11
-15.019228 -4.574996 49.452400 15 10 11
-14.983121 -4.457651 49.333515 15 11 11
-14.946661 -4.340716 49.213467 15 11 11
-14.910169 -4.224289 49.093311 15 11 10
-14.873950 -4.108457 48.974056 14 11 10
-14.838282 -3.993286 48.856617 14 11 11
-14.803431 -3.878836 48.741863 15 11 11
-14.769627 -3.765147 48.630562 16 11 12
-14.737076 -3.652249 48.523384 16 11 12
-14.705950 -3.540156 48.420898 17 11 12
-14.676396 -3.428873 48.323589 18 12 12
-14.648534 -3.318392 48.231850 18 12 13
-14.622454 -3.208697 48.145977 19 13 12
-14.598219 -3.099765 48.066185 19 14 11
-14.575871 -2.991563 47.992603 19 13 11
-14.555426 -2.884056 47.925285 18 13 11
-14.536877 -2.777202 47.864208 18 13 11
-14.520199 -2.670955 47.809296 17 13 10
-14.505353 -2.565269 47.760414 17 14 11
-14.492279 -2.460094 47.717365 17 14 11
-14.480909 -2.355382 47.679928 17 14 11
-14.471157 -2.251083 47.647820 17 14 12
-14.462932 -2.147149 47.620739 18 13 12
-14.456135 -2.043534 47.598354 18 13 12
-14.450658 -1.940193 47.580322 18 13 12
-14.446395 -1.837084 47.566288 19 13 12
-14.443235 -1.734167 47.555885 19 13 13
-14.441071 -1.631408 47.548756 19 14 13
-14.439794 -1.528774 47.544552 19 14 13
-14.439299 -1.426235 47.542919 19 14 12
-14.439483 -1.323766 47.543530 19 15 12
-14.440248 -1.221343 47.546047 19 15 13
-14.441504 -1.118947 47.550186 20 16 14
-14.443160 -1.016561 47.555637 20 16 15
-14.445138 -0.914172 47.562149 20 16 15
-14.447358 -0.811769 47.569458 20 16 15
-14.449755 -0.709343 47.577351 20 16 15
-14.452263 -0.606888 47.585606 20 15 15
-14.454824 -0.504398 47.594044 21 15 14
-14.457395 -0.401873 47.602505 22 16 14
-14.459929 -0.299311 47.610851 23 17 14
-14.462399 -0.196711 47.618984 26 18 15
-14.464780 -0.094076 47.626823 28 20 15
-14.467057 0.008592 47.634323 28 20 16
-14.469230 0.111293 47.641472 28 20 16
-14.471302 0.214022 47.648296 27 21 16
-14.473292 0.316780 47.654850 26 21 17
-14.475223 0.419563 47.661205 25 20 17
-14.477126 0.522373 47.667473 25 19 17
-14.479040 0.625211 47.673775 24 18 17
-14.481009 0.728079 47.680256 24 18 17
-14.483074 0.830980 47.687057 24 17 17
-14.485284 0.933919 47.694332 24 17 17
-14.487681 1.036904 47.702229 25 17 17
-14.490312 1.139941 47.710888 25 16 17
-14.493212 1.243038 47.720436 25 16 17
-14.496416 1.346205 47.730988 26 16 17
-14.499948 1.449450 47.742615 26 17 16
-14.503827 1.552782 47.755386 26 17 16
-14.508061 1.656210 47.769329 27 17 15
-14.512656 1.759742 47.784458 26 17 15
-14.517605 1.863384 47.800755 26 17 15
-14.522895 1.967143 47.818172 24 18 14
-14.528508 2.071023 47.836655 24 18 13
-14.534420 2.175027 47.856117 24 18 14
-14.540602 2.279158 47.876472 25 18 15
-14.547022 2.383415 47.897610 25 18 16
-14.553645 2.487799 47.919418 25 18 16
-14.560440 2.592307 47.941792 25 18 17
-14.567368 2.696935 47.964600 25 17 17
-14.574396 2.801682 47.987743 25 18 17
-14.581495 2.906543 48.011120 25 18 16
-14.588633 3.011512 48.034622 25 18 17
-14.595782 3.116585 48.058159 26 19 17
-14.602920 3.221757 48.081661 26 20 17
-14.610016 3.327020 48.105026 27 20 18
-14.617056 3.432372 48.128204 28 21 17
-14.624014 3.537803 48.151115 28 21 17
-14.630877 3.643310 48.173714 29 21 18
-14.637627 3.748885 48.195938 28 21 17
-14.644251 3.854523 48.217747 28 20 16
-14.650732 3.960216 48.239090 28 20 15
-14.657063 4.065959 48.259930 28 19 15
-14.663232 4.171747 48.280247 28 19 15
-14.669235 4.277573 48.300011 28 19 14
-14.675071 4.383435 48.319225 28 19 15
-14.680743 4.489329 48.337906 29 19 15
-14.686265 4.595257 48.356083 29 19 16
-14.691654 4.701221 48.373829 30 20 16
-14.696936 4.807227 48.391220 30 21 16
-14.702148 4.913284 48.408382 30 21 16
-14.707333 5.019405 48.425453 30 22 17
-14.712542 5.125608 48.442604 30 22 17
-14.717835 5.231916 48.460033 30 22 17
-14.723277 5.338353 48.477951 29 22 17
-14.728940 5.444949 48.496597 29 22 18
-14.734896 5.551735 48.516209 28 21 18
-14.741219 5.658746 48.537025 27 19 18
-14.747975 5.766018 48.559273 25 18 18
-14.755239 5.873587 48.583191 24 17 17
-14.763068 5.981488 48.608971 25 18 18
-14.771521 6.089757 48.636799 26 17 18
-14.780641 6.198426 48.666828 26 17 18
-14.790469 6.307527 48.699188 27 18 18
-14.801037 6.417087 48.733982 27 18 18
-14.812364 6.527133 48.771278 27 18 17
-14.824469 6.637687 48.811134 27 18 17
-14.837359 6.748771 48.853580 27 19 17
-14.851042 6.860403 48.898628 27 20 17
-14.865516 6.972601 48.946285 27 20 17
-14.880786 7.085384 48.996567 27 19 16
-14.896851 7.198767 49.049461 26 19 15
-14.913710 7.312768 49.104973 26 18 15
-14.931367 7.427405 49.163109 25 18 14
-14.949821 7.542694 49.223869 26 19 15
-14.969073 7.658655 49.287262 27 19 16
-14.989127 7.775304 49.353291 28 19 17
-15.009987 7.892662 49.421970 28 19 17
-15.031649 8.010743 49.493298 29 19 17
-15.054113 8.129565 49.567265 29 19 16
-15.077373 8.249141 49.643848 29 18 16
-15.101418 8.369483 49.723022 28 18 16
-15.126232 8.490598 49.804726 28 18 17
-15.151790 8.612487 49.888874 27 19 17
-15.178061 8.735150 49.975376 27 19 17
-15.205009 8.858581 50.064106 27 19 17
-15.232583 8.982762 50.154896 26 18 17
-15.260732 9.107678 50.247578 26 17 17
-15.289391 9.233303 50.341942 26 18 18
-15.318498 9.359608 50.437778 26 19 18
-15.347982 9.486559 50.534859 26 19 18
-15.377774 9.614120 50.632954 25 19 17
-15.407809 9.742259 50.731846 25 17 16
-15.438025 9.870940 50.831337 26 16 15
-15.468377 10.000137 50.931274 27 17 16
-15.498829 10.129830 51.031540 28 17 17
-15.529362 10.260010 51.132072 28 17 17
-15.559978 10.390678 51.232876 28 17 18
-15.590697 10.521852 51.334026 28 17 19
-15.621562 10.653560 51.435650 27 16 18
-15.652629 10.785845 51.537941 26 16 17
-15.683969 10.918761 51.641132 26 16 16
-15.715667 11.052374 51.745499 26 17 16
-15.747805 11.186749 51.851315 26 18 16
-15.780457 11.321951 51.958832 26 18 16
-15.813692 11.458037 52.068260 26 18 15
-15.847555 11.595055 52.179756 25 18 15
-15.882067 11.733032 52.293388 23 17 14
-15.917212 11.871973 52.409111 22 16 14
-15.952938 12.011849 52.526741 20 15 14
-15.989158 12.152609 52.646000 20 16 15
-16.025740 12.294159 52.766445 21 17 16
-16.062517 12.436380 52.887539 22 19 17
-16.099287 12.579119 53.008614 23 19 17
-16.135828 12.722198 53.128922 23 19 17
-16.171888 12.865414 53.247658 24 18 17
-16.207218 13.008554 53.363983 24 18 17
-16.241549 13.151388 53.477020 23 18 17
-16.274637 13.293694 53.585968 23 18 17
-16.306242 13.435247 53.690029 23 18 16
-16.336149 13.575839 53.788506 22 17 15
-16.364176 13.715279 53.880783 21 17 15
-16.390165 13.853395 53.966354 21 16 15
-16.413998 13.990042 54.044830 21 16 15
-16.435595 14.125105 54.115940 21 16 14
-16.454905 14.258492 54.179520 21 17 15
-16.471918 14.390148 54.235535 22 17 15
-16.486645 14.520033 54.284027 22 17 15
-16.499132 14.648137 54.325146 22 16 15
-16.509441 14.774469 54.359089 22 16 14
-16.517656 14.899058 54.386135 22 16 14
-16.523870 15.021947 54.406597 22 16 14
-16.528194 15.143190 54.420834 23 16 14
-16.530737 15.262852 54.429207 23 16 14
-16.531620 15.381003 54.432114 23 16 14
-16.530952 15.497715 54.429913 23 16 14
-16.528847 15.613059 54.422985 23 16 14
-16.525408 15.727104 54.411659 22 15 13
-16.520723 15.839906 54.396236 21 15 12
-16.514872 15.951512 54.376965 21 15 12
-16.507912 16.061960 54.354053 21 15 12
-16.499887 16.171263 54.327625 22 16 13
-16.490818 16.279423 54.297768 23 16 14
-16.480707 16.386417 54.264477 24 17 15
-16.469540 16.492210 54.227707 24 17 16
-16.457281 16.596745 54.187340 25 18 17
-16.443884 16.699949 54.143234 25 18 18
-16.429300 16.801748 54.095215 25 18 18
-16.413471 16.902060 54.043095 25 17 17
-16.396351 17.000807 53.986725 24 16 16
-16.377905 17.097927 53.925987 23 15 16
-16.358118 17.193377 53.860840 23 15 15
-16.337000 17.287136 53.791306 22 15 13
-16.314592 17.379223 53.717529 22 15 13
-16.290977 17.469694 53.639771 22 16 14
-16.266256 17.558640 53.558372 22 17 14
-16.240580 17.646194 53.473831 23 17 15
-16.214119 17.732527 53.386707 23 17 16
-16.187078 17.817844 53.297672 23 17 16
-15.302863 -6.663777 50.746483 14 12 10
-15.286407 -6.547337 50.691914 14 12 10
-15.270633 -6.431419 50.639603 14 12 11
-15.255210 -6.315872 50.588463 14 12 10
-15.239792 -6.200547 50.537331 13 11 10
-15.224029 -6.085305 50.485058 12 11 9
-15.207585 -5.970021 50.430531 12 11 9
-15.190155 -5.854591 50.372730 12 11 9
-15.171467 -5.738935 50.310757 13 11 8
-15.151301 -5.622999 50.243885 13 11 8
-15.129499 -5.506754 50.171589 13 10 8
-15.105962 -5.390203 50.093533 13 10 9
-15.080663 -5.273371 50.009636 13 10 9
-15.053639 -5.156311 49.920025 13 9 10
-15.024993 -5.039093 49.825027 13 9 10
-14.994873 -4.921801 49.725147 13 9 10
-14.963482 -4.804531 49.621048 13 10 11
-14.931043 -4.687381 49.513474 14 10 11
-14.897816 -4.570453 49.403290 14 11 11
-14.864071 -4.453845 49.291386 15 11 11
-14.830085 -4.337648 49.178684 15 11 10
-14.796132 -4.221948 49.066093 15 11 10
-14.762471 -4.106813 48.954468 14 10 10
-14.729342 -3.992305 48.844608 14 10 10
-14.696972 -3.878470 48.737263 15 10 11
-14.665565 -3.765345 48.633114 15 11 11
-14.635298 -3.652954 48.532742 16 11 12
-14.606322 -3.541308 48.436653 17 12 12
-14.578772 -3.430413 48.345295 18 12 12
-14.552752 -3.320260 48.259010 19 13 13
-14.528349 -3.210837 48.178085 19 14 13
-14.505620 -3.102120 48.102715 19 14 12
-14.484608 -2.994083 48.033031 19 13 11
-14.465323 -2.886692 47.969086 18 13 11
-14.447771 -2.779910 47.910877 18 13 11
-14.431930 -2.673695 47.858345 17 13 11
-14.417765 -2.568006 47.811371 17 14 11
-14.405223 -2.462796 47.769779 17 14 11
-14.394244 -2.358022 47.733376 17 14 11
-14.384754 -2.253639 47.701904 17 14 12
-14.376668 -2.149600 47.675087 18 14 12
-14.369895 -2.045864 47.652630 19 14 13
-14.364341 -1.942390 47.634209 19 14 13
-14.359902 -1.839139 47.619492 20 14 13
-14.356483 -1.736073 47.608154 20 14 13
-14.353981 -1.633162 47.599857 20 14 12
-14.352300 -1.530373 47.594280 20 14 12
-14.351339 -1.427680 47.591095 19 14 13
-14.351007 -1.325059 47.589996 19 14 13
-14.351214 -1.222489 47.590683 20 15 14
-14.351874 -1.119951 47.592869 20 16 15
-14.352908 -1.017430 47.596298 21 16 16
-14.354237 -0.914913 47.600704 21 16 16
-14.355793 -0.812390 47.605865 21 16 16
-14.357512 -0.709853 47.611565 21 16 16
-14.359334 -0.607296 47.617611 21 16 16
-14.361209 -0.504714 47.623825 22 16 15
-14.363090 -0.402106 47.630062 23 16 14
-14.364941 -0.299470 47.636200 24 17 14
-14.366732 -0.196807 47.642139 26 18 15
-14.368444 -0.094118 47.647820 28 20 15
-14.370068 0.008596 47.653202 29 20 16
-14.371599 0.111332 47.658283 28 20 16
-14.373049 0.214089 47.663086 27 20 16
-14.374436 0.316865 47.667686 26 20 17
-14.375786 0.419660 47.672165 25 20 17
-14.377134 0.522474 47.676636 25 19 17
-14.378522 0.625309 47.681240 25 18 18
-14.379993 0.728168 47.686119 25 18 18
-14.381597 0.831056 47.691433 25 18 18
-14.383379 0.933978 47.697346 25 17 17
-14.385390 1.036943 47.704014 26 17 17
-14.387676 1.139958 47.711597 26 16 17
-14.390275 1.243032 47.720211 27 17 18
-14.393224 1.346177 47.729988 27 16 17
-14.396550 1.449401 47.741020 28 17 17
-14.400274 1.552717 47.753372 28 17 16
-14.404407 1.656132 47.767075 27 17 16
-14.408950 1.759656 47.782139 27 17 16
-14.413899 1.863298 47.798553 26 17 15
-14.419243 1.967065 47.816273 24 17 14
-14.424958 2.070961 47.835228 24 17 13
-14.431023 2.174992 47.855339 25 18 15
-14.437402 2.279159 47.876492 25 18 16
-14.444060 2.383463 47.898571 26 18 16
-14.450959 2.487904 47.921452 26 18 16
-14.458058 2.592479 47.944992 26 18 17
-14.465317 2.697186 47.969063 26 17 17
-14.472694 2.802020 47.993526 25 17 17
-14.480150 2.906975 48.018253 25 17 16
-14.487650 3.012045 48.043121 25 18 17
-14.495156 3.117224 48.068012 26 18 18
-14.502636 3.222504 48.092815 26 19 17
-14.510059 3.327879 48.117435 27 20 17
-14.517397 3.433339 48.141766 28 20 17
-14.524625 3.538877 48.165733 28 20 17
-14.531718 3.644485 48.189259 28 20 17
-14.538659 3.750156 48.212276 28 20 17
-14.545427 3.855880 48.234722 28 20 17
-14.552011 3.961649 48.256550 29 19 16
-14.558395 4.067458 48.277725 28 19 15
-14.564572 4.173298 48.298206 28 19 15
-14.570539 4.279165 48.317993 28 19 15
-14.576291 4.385053 48.337070 28 19 15
-14.581839 4.490960 48.355465 29 19 15
-14.587194 4.596886 48.373226 29 20 15
-14.592380 4.702834 48.390423 30 20 15
-14.597425 4.808809 48.407150 30 21 15
-14.602365 4.914822 48.423534 31 22 16
-14.607248 5.020885 48.439728 31 22 16
-14.612127 5.127016 48.455906 31 22 16
-14.617064 5.233239 48.472279 30 22 17
-14.622127 5.339577 48.489067 30 22 17
-14.627386 5.446061 48.506508 29 21 18
-14.632916 5.552723 48.524845 28 21 18
-14.638790 5.659597 48.544323 27 20 18
-14.645079 5.766719 48.565178 27 19 18
-14.651852 5.874125 48.587639 27 18 18
-14.659172 5.981850 48.611912 26 17 18
-14.667090 6.089929 48.638172 26 17 18
-14.675653 6.198393 48.666569 26 17 18
-14.684902 6.307274 48.697239 27 18 18
-14.694863 6.416599 48.730270 27 18 18
-14.705561 6.526392 48.765743 27 17 17
-14.717004 6.636675 48.803692 27 17 17
-14.729204 6.747468 48.844151 28 18 17
-14.742165 6.858790 48.887127 28 20 18
-14.755885 6.970655 48.932629 28 20 17
-14.770367 7.083082 48.980648 27 19 16
-14.785604 7.196084 49.031181 26 18 16
-14.801603 7.309680 49.084236 26 18 15
-14.818359 7.423883 49.139801 26 18 15
-14.835877 7.538714 49.197895 26 18 15
-14.854160 7.654189 49.258522 27 19 15
-14.873211 7.770327 49.321697 28 19 16
-14.893037 7.887147 49.387444 29 19 16
-14.913639 8.004668 49.455765 30 19 16
-14.935020 8.122907 49.526669 30 18 16
-14.957182 8.241881 49.600159 29 18 16
-14.980117 8.361605 49.676212 29 18 16
-15.003819 8.482088 49.754810 29 18 17
-15.028266 8.603338 49.835880 28 18 17
-15.053440 8.725360 49.919361 27 19 17
-15.079307 8.848146 50.005138 27 19 17
-15.105828 8.971693 50.093090 26 18 17
-15.132958 9.095984 50.183056 26 18 18
-15.160645 9.221001 50.274868 26 19 18
-15.188829 9.346721 50.368332 26 19 17
-15.217449 9.473114 50.463242 26 19 17
-15.246443 9.600152 50.559387 25 19 16
-15.275752 9.727805 50.656582 25 17 15
-15.305322 9.856046 50.754639 26 17 15
-15.335107 9.984849 50.853413 27 17 16
-15.365078 10.114201 50.952801 28 17 17
-15.395217 10.244092 51.052742 29 17 18
-15.425528 10.374530 51.153255 29 18 19
-15.456029 10.505531 51.254406 29 18 19
-15.486759 10.637126 51.356312 28 17 19
-15.517773 10.769357 51.459156 27 16 17
-15.549135 10.902275 51.563160 27 17 17
-15.580924 11.035944 51.668575 27 18 17
-15.613216 11.170426 51.775661 27 18 17
-15.646077 11.305783 51.884632 27 18 16
-15.679568 11.442068 51.995693 26 18 16
-15.713724 11.579323 52.108959 25 17 15
-15.748563 11.717573 52.224487 23 17 15
-15.784057 11.856814 52.342190 22 16 15
-15.820154 11.997021 52.461895 21 16 15
-15.856762 12.138134 52.583294 20 17 15
-15.893746 12.280062 52.705940 21 18 16
-15.930941 12.422681 52.829277 22 19 17
-15.968146 12.565842 52.952660 23 18 16
-16.005142 12.709367 53.075340 24 18 17
-16.041687 12.853061 53.196529 24 18 17
-16.077530 12.996710 53.315395 25 18 17
-16.112421 13.140095 53.431099 24 18 17
-16.146120 13.282996 53.542843 24 18 17
-16.178396 13.425200 53.649879 23 18 16
-16.209045 13.566504 53.751518 23 18 15
-16.237890 13.706721 53.847168 22 18 15
-16.264782 13.845691 53.936344 22 17 15
-16.289606 13.983269 54.018669 22 17 15
-16.312286 14.119347 54.093880 22 17 15
-16.332771 14.253831 54.161808 22 17 15
-16.351044 14.386664 54.222404 22 17 15
-16.367117 14.517805 54.275700 22 17 16
-16.381020 14.647238 54.321808 21 16 15
-16.392809 14.774963 54.360905 21 16 14
-16.402555 14.901001 54.393223 22 16 14
-16.410337 15.025380 54.419033 22 16 13
-16.416252 15.148146 54.438644 22 16 13
-16.420391 15.269346 54.452366 23 16 13
-16.422859 15.389040 54.460552 23 17 14
-16.423756 15.507284 54.463524 23 17 14
-16.423178 15.624140 54.461609 23 17 15
-16.421217 15.739662 54.455109 23 16 14
-16.417959 15.853903 54.444302 22 16 13
-16.413469 15.966899 54.429413 22 16 14
-16.407806 16.078682 54.410637 22 16 14
-16.401011 16.189262 54.388096 22 16 14
-16.393101 16.298641 54.361870 23 16 14
-16.384087 16.406801 54.331978 24 17 15
-16.373951 16.513700 54.298367 25 18 16
-16.362663 16.619284 54.260933 25 18 18
-16.350187 16.723494 54.219563 25 18 18
-16.336473 16.826246 54.174088 25 18 18
-16.321474 16.927471 54.124348 25 17 18
-16.305143 17.027090 54.070187 24 16 17
-16.287449 17.125044 54.011513 23 16 16
-16.268379 17.221287 53.948273 23 15 15
-16.247948 17.315807 53.880520 22 16 14
-16.226192 17.408615 53.808376 22 16 14
-16.203197 17.499773 53.732124 22 16 14
-16.179062 17.589363 53.652088 22 17 15
-16.153934 17.677521 53.568760 22 17 16
-16.127985 17.764414 53.482708 22 17 17
-16.101416 17.850250 53.394600 22 17 17
-16.074438 17.935251 53.305141 22 17 17
-15.210405 -6.780719 50.803047 14 10 9
-15.190952 -6.662673 50.738071 14 11 10
-15.172428 -6.545308 50.676201 14 11 10
-15.154573 -6.428493 50.616566 14 11 10
-15.137105 -6.312097 50.558224 13 11 10
-15.119735 -6.195992 50.500206 13 11 9
-15.102167 -6.080058 50.441528 12 11 9
-15.084118 -5.964186 50.381245 12 11 9
-15.065330 -5.848288 50.318489 12 11 9
-15.045568 -5.732289 50.252487 13 11 8
-15.024651 -5.616143 50.182621 13 11 8
-15.002436 -5.499822 50.108425 14 10 8
-14.978842 -5.383326 50.029621 14 9 8
-14.953840 -5.266673 49.946114 14 9 9
-14.927463 -5.149906 49.858013 14 9 9
-14.899790 -5.033081 49.765587 13 9 10
-14.870949 -4.916268 49.669254 13 10 10
-14.841103 -4.799546 49.569569 14 10 10
-14.810442 -4.682996 49.467159 14 11 10
-14.779184 -4.566703 49.362762 15 12 10
-14.747559 -4.450749 49.257130 15 12 10
-14.715797 -4.335211 49.151047 16 12 10
-14.684133 -4.220157 49.045284 15 11 10
-14.652785 -4.105649 48.940586 15 11 10
-14.621959 -3.991734 48.837624 15 10 11
-14.591849 -3.878453 48.737057 15 10 11
-14.562630 -3.765837 48.639465 16 10 12
-14.534458 -3.653904 48.545372 17 11 12
-14.507464 -3.542665 48.455212 17 12 12
-14.481767 -3.432122 48.369377 18 12 13
-14.457458 -3.322267 48.288189 18 13 13
-14.434615 -3.213090 48.211895 18 13 13
-14.413296 -3.104569 48.140686 18 13 12
-14.393534 -2.996680 48.074680 18 13 11
-14.375345 -2.889391 48.013931 18 13 11
-14.358733 -2.782670 47.958443 17 13 11
-14.343680 -2.676479 47.908169 17 13 11
-14.330156 -2.570779 47.862999 17 14 11
-14.318118 -2.465529 47.822788 17 14 11
-14.307507 -2.360688 47.787346 17 14 11
-14.298255 -2.256215 47.756447 17 14 12
-14.290289 -2.152069 47.729839 18 14 12
-14.283525 -2.048209 47.707249 19 15 13
-14.277875 -1.944599 47.688377 19 15 13
-14.273250 -1.841202 47.672928 20 15 13
-14.269555 -1.737986 47.660587 20 15 13
-14.266704 -1.634919 47.651066 20 14 12
-14.264602 -1.531973 47.644043 20 14 12
-14.263163 -1.429125 47.639240 20 14 13
-14.262300 -1.326350 47.636360 20 14 14
-14.261933 -1.223631 47.635132 20 15 14
-14.261983 -1.120949 47.635296 20 16 15
-14.262374 -1.018292 47.636604 21 16 16
-14.263040 -0.915646 47.638828 22 16 17
-14.263914 -0.813003 47.641750 22 16 17
-14.264941 -0.710354 47.645180 22 16 16
-14.266064 -0.607695 47.648926 22 16 16
-14.267235 -0.505021 47.652840 23 16 15
-14.268414 -0.402331 47.656780 24 16 15
-14.269567 -0.299624 47.660629 25 17 14
-14.270669 -0.196898 47.664310 26 18 14
-14.271703 -0.094157 47.667763 28 18 15
-14.272661 0.008599 47.670963 28 19 15
-14.273543 0.111368 47.673912 28 19 15
-14.274364 0.214150 47.676655 27 19 16
-14.275145 0.316942 47.679256 26 19 17
-14.275911 0.419745 47.681816 26 20 17
-14.276703 0.522560 47.684464 25 19 18
-14.277562 0.625389 47.687332 26 18 18
-14.278538 0.728237 47.690594 26 18 18
-14.279679 0.831108 47.694405 26 18 18
-14.281038 0.934010 47.698944 26 18 17
-14.282665 1.036951 47.704376 26 17 17
-14.284608 1.139940 47.710865 27 16 17
-14.286910 1.242989 47.718555 28 16 17
-14.289607 1.346108 47.727562 28 16 17
-14.292732 1.449310 47.737999 28 17 17
-14.296306 1.552605 47.749935 28 17 17
-14.300337 1.656004 47.763401 28 17 17
-14.304833 1.759519 47.778419 28 17 17
-14.309788 1.863159 47.794968 27 17 16
-14.315187 1.966930 47.812996 26 17 15
-14.321009 2.070841 47.832443 25 18 15
-14.327226 2.174895 47.853210 26 18 16
-14.333802 2.279096 47.875175 26 18 17
-14.340698 2.383445 47.898209 27 18 17
-14.347872 2.487942 47.922169 27 18 17
-14.355275 2.592582 47.946896 27 18 17
-14.362861 2.697365 47.972233 26 17 17
-14.370582 2.802282 47.998020 26 17 17
-14.378392 2.907329 48.024109 25 17 16
-14.386247 3.012497 48.050343 25 17 17
-14.394104 3.117780 48.076584 26 17 18
-14.401923 3.223166 48.102699 26 18 17
-14.409664 3.328648 48.128559 27 19 17
-14.417297 3.434215 48.154053 27 19 17
-14.424788 3.539857 48.179070 28 19 18
-14.432111 3.645565 48.203529 28 19 18
-14.439240 3.751328 48.227341 28 19 18
-14.446160 3.857137 48.250454 28 19 17
-14.452849 3.962983 48.272797 28 19 17
-14.459298 4.068858 48.294334 28 18 16
-14.465496 4.174753 48.315037 28 19 15
-14.471441 4.280662 48.334892 28 18 15
-14.477134 4.386581 48.353905 28 19 15
-14.482584 4.492506 48.372112 29 19 16
-14.487807 4.598438 48.389553 30 20 16
-14.492826 4.704379 48.406319 30 21 16
-14.497673 4.810335 48.422508 31 21 16
-14.502390 4.916316 48.438259 31 22 16
-14.507023 5.022336 48.453735 31 22 16
-14.511628 5.128414 48.469116 31 22 16
-14.516268 5.234571 48.484615 31 21 16
-14.521012 5.340832 48.500462 30 21 17
-14.525934 5.447228 48.516899 29 20 17
-14.531105 5.553791 48.534172 28 20 18
-14.536602 5.660554 48.552532 28 20 18
-14.542496 5.767555 48.572216 28 19 18
-14.548850 5.874826 48.593441 28 18 18
-14.555731 5.982405 48.616421 27 17 18
-14.563188 6.090324 48.641327 27 17 18
-14.571267 6.198615 48.668312 27 17 18
-14.580007 6.307309 48.697502 27 17 18
-14.589430 6.416429 48.728977 27 17 18
-14.599561 6.526000 48.762817 27 17 17
-14.610407 6.636043 48.799042 27 17 17
-14.621976 6.746575 48.837681 28 18 17
-14.634270 6.857613 48.878742 28 19 18
-14.647285 6.969172 48.922215 28 19 18
-14.661022 7.081267 48.968094 27 18 17
-14.675476 7.193911 49.016373 27 18 16
-14.690648 7.307120 49.067047 26 18 15
-14.706538 7.420910 49.120121 26 18 15
-14.723149 7.535298 49.175602 26 18 15
-14.740485 7.650301 49.233505 27 18 14
-14.758554 7.765940 49.293854 28 18 15
-14.777363 7.882234 49.356674 29 18 15
-14.796920 7.999203 49.421997 30 18 15
-14.817234 8.116868 49.489849 30 18 16
-14.838311 8.235249 49.560246 30 18 16
-14.860149 8.354362 49.633186 30 18 16
-14.882751 8.474223 49.708672 29 18 16
-14.906103 8.594844 49.786674 28 18 16
-14.930195 8.716231 49.867138 27 18 16
-14.954999 8.838387 49.949986 27 18 16
-14.980488 8.961310 50.035118 26 19 16
-15.006620 9.084990 50.122402 26 19 17
-15.033356 9.209414 50.211700 26 20 17
-15.060640 9.334565 50.302826 26 20 17
-15.088417 9.460417 50.395603 26 20 16
-15.116634 9.586948 50.489849 26 20 16
-15.145234 9.714131 50.585373 26 19 16
-15.174167 9.841942 50.682011 27 18 16
-15.203391 9.970361 50.779621 29 18 17
-15.232879 10.099375 50.878109 30 18 18
-15.262613 10.228978 50.977421 30 18 19
-15.292594 10.359178 51.077557 30 18 20
-15.322840 10.489989 51.178577 29 19 20
-15.353383 10.621444 51.280594 29 19 19
-15.384274 10.753580 51.383774 29 18 19
-15.415574 10.886450 51.488316 29 19 18
-15.447351 11.020111 51.594448 28 19 18
-15.479673 11.154623 51.702408 28 19 17
-15.512605 11.290044 51.812401 28 18 17
-15.546194 11.426421 51.924587 26 18 16
-15.580472 11.563794 52.039074 25 17 15
-15.615447 11.702183 52.155891 23 17 15
-15.651093 11.841582 52.274948 22 17 16
-15.687350 11.981963 52.396053 21 17 16
-15.724126 12.123266 52.518883 21 17 16
-15.761289 12.265399 52.643005 22 18 16
-15.798676 12.408244 52.767883 23 18 16
-15.836092 12.551649 52.892853 24 18 16
-15.873322 12.695445 53.017204 24 18 17
-15.910139 12.839443 53.140171 25 18 17
-15.946298 12.983436 53.260941 25 18 17
-15.981559 13.127212 53.378716 25 19 17
-16.015696 13.270563 53.492729 24 19 16
-16.048487 13.413282 53.602253 24 19 16
-16.079739 13.555177 53.706638 23 18 16
-16.109282 13.696068 53.805313 23 18 16
-16.136976 13.835798 53.897812 23 17 16
-16.162710 13.974235 53.983765 23 17 16
-16.186407 14.111263 54.062908 23 17 15
-16.208015 14.246799 54.135086 22 18 15
-16.227516 14.380776 54.200214 21 17 16
-16.244909 14.513153 54.258308 21 17 16
-16.260216 14.643902 54.309437 21 16 15
-16.273481 14.773017 54.353741 21 16 13
-16.284758 14.900503 54.391407 21 16 13
-16.294111 15.026379 54.422649 22 16 13
-16.301617 15.150671 54.447716 21 15 13
-16.307352 15.273414 54.466873 22 16 13
-16.311407 15.394652 54.480415 23 17 14
-16.313864 15.514429 54.488617 23 17 15
-16.314806 15.632792 54.491768 23 17 15
-16.314314 15.749784 54.490124 24 17 15
-16.312460 15.865441 54.483929 24 17 15
-16.309311 15.979805 54.473412 23 16 14
-16.304914 16.092894 54.458733 23 16 14
-16.299314 16.204720 54.440025 23 16 14
-16.292532 16.315281 54.417370 23 16 14
-16.284573 16.424559 54.390785 24 17 15
-16.275431 16.532522 54.360252 24 18 16
-16.265081 16.639116 54.325684 25 18 18
-16.253490 16.744284 54.286972 25 18 18
-16.240620 16.847958 54.243984 25 18 18
-16.226423 16.950058 54.196568 25 17 18
-16.210863 17.050522 54.144596 24 17 17
-16.193913 17.149288 54.087978 23 16 17
-16.175564 17.246321 54.026695 23 16 16
-16.155830 17.341602 53.960789 23 16 15
-16.134754 17.435148 53.890388 23 17 15
-16.112415 17.527018 53.815777 23 17 15
-16.088917 17.617294 53.737289 23 17 16
-16.064398 17.706112 53.655399 23 18 17
-16.039034 17.793634 53.570683 22 18 18
-16.013020 17.880068 53.483795 22 18 18
-15.986567 17.965635 53.395443 22 17 18
-15.959900 18.050575 53.306374 22 17 17
-15.124949 -6.901211 50.883984 13 8 8
-15.102600 -6.781487 50.808800 13 9 8
-15.081342 -6.662569 50.737278 13 10 9
-15.060971 -6.544345 50.668747 13 10 9
-15.041265 -6.426700 50.602451 13 11 9
-15.021984 -6.309520 50.537582 13 11 9
-15.002887 -6.192695 50.473335 12 10 9
-14.983721 -6.076119 50.408859 12 11 9
-14.964250 -5.959701 50.343353 12 11 9
-14.944251 -5.843358 50.276073 13 11 9
-14.923532 -5.727028 50.206371 13 11 8
-14.901934 -5.610668 50.133705 14 11 9
-14.879336 -5.494253 50.057686 14 10 9
-14.855667 -5.377777 49.978054 14 10 9
-14.830903 -5.261256 49.894745 14 10 9
-14.805067 -5.144722 49.807823 14 9 9
-14.778226 -5.028220 49.717522 14 10 10
-14.750485 -4.911808 49.624199 14 10 10
-14.721982 -4.795551 49.528305 15 11 11
-14.692876 -4.679514 49.430386 15 12 11
-14.663345 -4.563768 49.331036 16 12 11
-14.633587 -4.448381 49.230923 16 12 11
-14.603792 -4.333415 49.130688 16 12 11
-14.574162 -4.218928 49.031002 16 12 11
-14.544878 -4.104970 48.932487 16 11 11
-14.516117 -3.991579 48.835728 16 10 11
-14.488043 -3.878789 48.741276 16 10 12
-14.460805 -3.766625 48.649639 16 10 12
-14.434536 -3.655101 48.561268 17 11 13
-14.409350 -3.544224 48.476536 17 12 13
-14.385350 -3.433996 48.395794 18 12 13
-14.362618 -3.324409 48.319317 18 12 13
-14.341222 -3.215452 48.247337 18 13 12
-14.321211 -3.107105 48.180012 18 13 11
-14.302615 -2.999346 48.117455 18 13 11
-14.285453 -2.892146 48.059715 18 13 11
-14.269723 -2.785475 48.006798 17 12 10
-14.255412 -2.679299 47.958652 17 13 11
-14.242494 -2.573582 47.915192 17 14 12
-14.230926 -2.468287 47.876274 17 14 12
-14.220656 -2.363375 47.841724 17 14 12
-14.211626 -2.258809 47.811344 17 14 12
-14.203764 -2.154551 47.784897 18 15 12
-14.196995 -2.050565 47.762119 19 15 13
-14.191239 -1.946817 47.742760 19 15 13
-14.186415 -1.843272 47.726528 20 15 13
-14.182438 -1.739902 47.713150 21 15 13
-14.179227 -1.636678 47.702347 21 14 13
-14.176698 -1.533574 47.693836 21 14 13
-14.174771 -1.430568 47.687359 21 14 13
-14.173369 -1.327639 47.682640 21 14 14
-14.172418 -1.224769 47.679440 21 15 14
-14.171848 -1.121943 47.677525 21 15 15
-14.171590 -1.019148 47.676655 21 15 16
-14.171581 -0.916373 47.676624 22 16 17
-14.171766 -0.813608 47.677246 22 16 17
-14.172091 -0.710849 47.678337 23 17 16
-14.172503 -0.608088 47.679726 22 16 15
-14.172961 -0.505323 47.681267 23 17 15
-14.173430 -0.402551 47.682846 24 16 14
-14.173878 -0.299773 47.684353 25 16 14
-14.174285 -0.196987 47.685722 26 17 14
-14.174634 -0.094195 47.686893 27 17 14
-14.174923 0.008602 47.687866 27 18 14
-14.175155 0.111403 47.688648 27 18 15
-14.175344 0.214206 47.689281 26 18 16
-14.175515 0.317012 47.689857 25 19 16
-14.175698 0.419821 47.690475 25 19 17
-14.175934 0.522634 47.691265 26 19 18
-14.176267 0.625455 47.692387 26 18 18
-14.176749 0.728289 47.694012 26 18 18
-14.177432 0.831141 47.696308 26 18 18
-14.178370 0.934020 47.699463 26 18 17
-14.179615 1.036935 47.703651 26 17 17
-14.181218 1.139897 47.709045 27 16 17
-14.183224 1.242917 47.715794 28 16 16
-14.185674 1.346009 47.724033 28 16 16
-14.188597 1.449184 47.733868 28 17 16
-14.192017 1.552457 47.745377 28 17 17
-14.195950 1.655838 47.758602 28 17 17
-14.200396 1.759340 47.773563 28 17 17
-14.205351 1.862974 47.790234 27 18 17
-14.210802 1.966748 47.808571 26 18 17
-14.216724 2.070670 47.828499 26 18 17
-14.223088 2.174745 47.849903 27 18 17
-14.229855 2.278977 47.872669 27 18 17
-14.236980 2.383367 47.896645 28 18 17
-14.244416 2.487915 47.921658 28 18 18
-14.252111 2.592618 47.947548 27 18 18
-14.260013 2.697471 47.974129 27 17 18
-14.268064 2.802469 48.001217 26 17 17
-14.276215 2.907603 48.028637 26 16 17
-14.284411 3.012866 48.056213 26 16 18
-14.292605 3.118246 48.083778 26 17 18
-14.300750 3.223735 48.111179 27 18 17
-14.308800 3.329319 48.138260 27 18 17
-14.316715 3.434988 48.164890 27 18 17
-14.324461 3.540730 48.190948 28 18 17
-14.332006 3.646533 48.216331 29 19 18
-14.339325 3.752387 48.240955 29 19 19
-14.346395 3.858279 48.264740 29 19 18
-14.353196 3.964200 48.287621 29 19 18
-14.359718 4.070140 48.309563 29 18 17
-14.365953 4.176092 48.330536 28 18 16
-14.371896 4.282047 48.350533 28 18 16
-14.377554 4.388001 48.369568 29 19 16
-14.382935 4.493951 48.387669 29 19 16
-14.388059 4.599896 48.404907 30 20 17
-14.392951 4.705841 48.421364 31 21 17
-14.397646 4.811790 48.437160 31 21 16
-14.402186 4.917755 48.452435 32 21 17
-14.406622 5.023749 48.467358 32 21 17
-14.411009 5.129789 48.482117 31 21 17
-14.415413 5.235900 48.496933 31 21 17
-14.419901 5.342106 48.512032 30 20 16
-14.424549 5.448437 48.527668 29 20 17
-14.429429 5.554925 48.544086 29 19 17
-14.434615 5.661604 48.561535 29 19 18
-14.440178 5.768508 48.580250 29 19 18
-14.446184 5.875674 48.600456 29 18 18
-14.452692 5.983135 48.622349 28 18 18
-14.459756 6.090923 48.646114 28 17 18
-14.467416 6.199070 48.671883 28 17 18
-14.475708 6.307603 48.699780 28 18 18
-14.484656 6.416548 48.729885 28 18 18
-14.494279 6.525926 48.762260 28 17 17
-14.504584 6.635755 48.796925 28 17 17
-14.515574 6.746052 48.833897 28 18 17
-14.527249 6.856833 48.873180 28 19 18
-14.539607 6.968109 48.914753 28 19 18
-14.552640 7.079893 48.958599 27 18 17
-14.566349 7.192201 49.004719 27 19 16
-14.580730 7.305043 49.053101 27 18 16
-14.595785 7.418437 49.103748 27 18 15
-14.611516 7.532397 49.156670 27 18 15
-14.627932 7.646944 49.211895 28 18 15
-14.645040 7.762096 49.269455 29 18 15
-14.662854 7.877875 49.329388 29 18 15
-14.681390 7.994306 49.391743 30 19 16
-14.700656 8.111408 49.456558 30 18 16
-14.720666 8.229206 49.523880 30 18 16
-14.741432 8.347722 49.593739 30 18 16
-14.762956 8.466974 49.666149 29 18 16
-14.785236 8.586978 49.741108 28 18 16
-14.808270 8.707747 49.818600 28 18 15
-14.832040 8.829289 49.898567 28 19 15
-14.856524 8.951606 49.980934 28 19 16
-14.881691 9.074695 50.065605 28 20 16
-14.907505 9.198547 50.152447 28 20 16
-14.933917 9.323149 50.241306 28 21 16
-14.960883 9.448483 50.332027 28 21 16
-14.988350 9.574527 50.424431 28 20 16
-15.016263 9.701258 50.518337 28 20 16
-15.044580 9.828658 50.613602 28 20 16
-15.073256 9.956706 50.710075 29 19 17
-15.102264 10.085392 50.807667 30 19 19
-15.131588 10.214711 50.906319 30 19 19
-15.161221 10.344666 51.006008 30 20 20
-15.191180 10.475277 51.106800 29 20 20
-15.221492 10.606568 51.208778 30 19 19
-15.252202 10.738579 51.312096 30 19 19
-15.283361 10.871355 51.416920 30 19 18
-15.315034 11.004951 51.523476 30 19 17
-15.347280 11.139423 51.631958 29 19 17
-15.380154 11.274824 51.742554 28 18 17
-15.413700 11.411199 51.855412 26 18 17
-15.447942 11.548580 51.970612 25 18 17
-15.482885 11.686988 52.088169 23 18 16
-15.518500 11.826414 52.207985 23 18 17
-15.554727 11.966826 52.329861 23 18 17
-15.591475 12.108171 52.453491 23 18 17
-15.628614 12.250354 52.578434 23 18 17
-15.665988 12.393261 52.704170 24 19 17
-15.703413 12.536752 52.830078 25 19 17
-15.740682 12.680659 52.955456 25 19 17
-15.777575 12.824802 53.079575 25 18 17
-15.813867 12.968987 53.201668 25 18 17
-15.849326 13.113009 53.320965 25 19 16
-15.883741 13.256675 53.436745 25 19 16
-15.916903 13.399783 53.548309 24 19 16
-15.948628 13.542154 53.655041 24 19 16
-15.978757 13.683617 53.756401 24 18 16
-16.007154 13.824022 53.851936 24 18 16
-16.033714 13.963240 53.941292 24 17 16
-16.058361 14.101161 54.024204 23 17 16
-16.081038 14.237696 54.100494 22 17 16
-16.101717 14.372779 54.170071 21 17 16
-16.120398 14.506360 54.232910 20 17 15
-16.137083 14.638404 54.289047 20 16 14
-16.151800 14.768889 54.338558 20 16 13
-16.164589 14.897813 54.381584 20 15 12
-16.175497 15.025173 54.418282 21 15 13
-16.184580 15.150983 54.448837 21 15 13
-16.191898 15.275261 54.473457 22 16 13
-16.197521 15.398032 54.492378 22 17 14
-16.201517 15.519326 54.505817 23 17 15
-16.203953 15.639174 54.514015 24 17 15
-16.204899 15.757608 54.517197 24 17 16
-16.204420 15.874660 54.515583 24 17 16
-16.202574 15.990354 54.509373 24 17 15
-16.199406 16.104708 54.498714 24 17 15
-16.194956 16.217733 54.483746 24 17 15
-16.189253 16.329430 54.464561 24 17 16
-16.182306 16.439779 54.441189 24 17 16
-16.174112 16.548752 54.413620 24 18 17
-16.164654 16.656305 54.381805 24 18 18
-16.153910 16.762384 54.345654 25 18 18
-16.141842 16.866926 54.305058 25 17 18
-16.128418 16.969866 54.259899 25 17 18
-16.113607 17.071140 54.210072 24 17 17
-16.097389 17.170698 54.155506 24 17 17
-16.079756 17.268503 54.096184 23 17 16
-16.060730 17.364546 54.032173 23 17 16
-16.040350 17.458838 53.963612 23 18 16
-16.018700 17.551443 53.890778 23 18 17
-15.995879 17.642445 53.814003 23 18 17
-15.972030 17.731974 53.733768 23 19 18
-15.947320 17.820192 53.650639 23 19 18
-15.921942 17.907303 53.565262 23 18 18
-15.896105 17.993526 53.478340 23 17 18
-15.870029 18.079102 53.390614 23 16 18
-15.843937 18.164280 53.302834 23 16 17
-15.046080 -7.025290 50.988422 12 8 8
-15.020990 -6.903844 50.903404 13 8 8
-14.997092 -6.783304 50.822414 13 9 8
-14.974225 -6.663572 50.744923 12 9 8
-14.952215 -6.544550 50.670338 13 9 8
-14.930874 -6.426136 50.598011 13 10 9
-14.909996 -6.308231 50.527264 13 10 9
-14.889376 -6.190738 50.457382 12 10 9
-14.868799 -6.073564 50.387653 13 10 9
-14.848065 -5.956627 50.317390 13 11 9
-14.826989 -5.839859 50.245968 13 11 9
-14.805404 -5.723201 50.172821 14 11 9
-14.783175 -5.606615 50.097488 14 11 9
-14.760204 -5.490077 50.019646 15 11 10
-14.736428 -5.373582 49.939072 14 10 10
-14.711825 -5.257139 49.855698 14 10 10
-14.686417 -5.140773 49.769592 14 10 9
-14.660257 -5.024521 49.680943 14 10 10
-14.633437 -4.908429 49.590054 14 10 11
-14.606070 -4.792550 49.497311 15 11 11
-14.578286 -4.676937 49.403160 16 12 11
-14.550243 -4.561649 49.308125 16 13 11
-14.522099 -4.446739 49.212753 16 13 11
-14.494020 -4.332260 49.117596 16 13 12
-14.466171 -4.218259 49.023220 17 12 12
-14.438706 -4.104773 48.930149 17 12 12
-14.411774 -3.991837 48.838879 17 11 12
-14.385511 -3.879474 48.749882 17 11 12
-14.360047 -3.767704 48.663586 16 11 13
-14.335493 -3.656539 48.580376 17 11 13
-14.311944 -3.545981 48.500572 17 12 13
-14.289490 -3.436031 48.424480 18 12 13
-14.268201 -3.326681 48.352333 18 12 13
-14.248133 -3.217917 48.284328 18 12 12
-14.229330 -3.109723 48.220612 17 12 11
-14.211819 -3.002077 48.161266 18 12 10
-14.195612 -2.894952 48.106342 18 12 10
-14.180708 -2.788321 48.055840 18 13 10
-14.167092 -2.682151 48.009697 18 13 11
-14.154741 -2.576410 47.967842 18 14 12
-14.143614 -2.471063 47.930134 18 14 12
-14.133665 -2.366076 47.896416 18 14 13
-14.124836 -2.261415 47.866497 18 14 13
-14.117064 -2.157043 47.840160 18 15 13
-14.110280 -2.052929 47.817173 19 15 14
