ply
format ascii 1.0
element vertex 1216
property float x
property float y
property float z
property uchar red
property uchar green
property uchar blue
end_header
8.999388 -4.339441 34.757774 209 98 119
9.007770 -4.268487 34.790150 198 88 110
9.016103 -4.197371 34.822334 203 99 121
9.024398 -4.126098 34.854374 220 123 143
9.032666 -4.054675 34.886307 235 141 158
9.040921 -3.983109 34.918190 232 140 152
9.049179 -3.911407 34.950085 213 119 127
9.057453 -3.839574 34.982040 186 94 98
9.065755 -3.767614 35.014103 163 80 80
9.074090 -3.695530 35.046295 140 66 66
9.082466 -3.623324 35.078648 108 44 45
9.090882 -3.550993 35.111149 85 29 31
9.099335 -3.478537 35.143795 78 28 32
9.107817 -3.405951 35.176556 76 31 36
9.116322 -3.333231 35.209404 73 31 37
9.124838 -3.260375 35.242294 70 30 37
9.133357 -3.187377 35.275200 67 29 35
9.141866 -3.114234 35.308060 64 28 33
9.150354 -3.040943 35.340847 61 28 31
9.158812 -2.967500 35.373512 58 27 30
9.167229 -2.893904 35.406021 55 26 29
9.175591 -2.820151 35.438316 53 26 29
9.183887 -2.746238 35.470356 52 25 28
9.192099 -2.672164 35.502075 50 25 28
9.200212 -2.597924 35.533405 48 25 28
9.208198 -2.523515 35.564251 47 25 27
9.216034 -2.448932 35.594517 45 25 26
9.223689 -2.374173 35.624084 43 25 25
9.231134 -2.299234 35.652840 40 25 24
9.238337 -2.224112 35.680653 38 24 24
9.245265 -2.148807 35.707413 36 24 24
9.251896 -2.073320 35.733025 35 23 23
9.258214 -1.997655 35.757427 33 23 23
9.264216 -1.921819 35.780609 32 23 22
9.269915 -1.845823 35.802616 30 22 22
9.275342 -1.769680 35.823578 29 22 22
9.280551 -1.693407 35.843697 29 21 21
9.285621 -1.617023 35.863277 28 21 21
9.290654 -1.540548 35.882721 28 21 20
9.295781 -1.464005 35.902519 28 21 20
9.301150 -1.387412 35.923256 28 21 20
9.306934 -1.310788 35.945595 27 21 20
9.313320 -1.234148 35.970261 27 20 20
9.320510 -1.157501 35.998024 26 19 19
9.328706 -1.080851 36.029682 26 18 19
9.338115 -1.004195 36.066021 26 19 18
9.348932 -0.927522 36.107803 25 18 17
9.361349 -0.850814 36.155758 25 18 17
9.375530 -0.774045 36.210529 25 18 17
9.391621 -0.697182 36.272675 24 18 17
9.409741 -0.620185 36.342663 24 18 17
9.429981 -0.543008 36.420834 24 18 17
9.452394 -0.465601 36.507397 24 18 18
9.477004 -0.387910 36.602448 24 17 17
9.503799 -0.309881 36.705936 25 17 17
9.532734 -0.231458 36.817688 25 17 17
9.563726 -0.152586 36.937389 25 17 17
9.596665 -0.073213 37.064606 24 17 17
9.631407 0.006710 37.198784 24 18 18
9.667780 0.087226 37.339268 25 18 18
9.705587 0.168373 37.485287 26 18 18
9.744606 0.250180 37.635986 27 18 18
9.784597 0.332671 37.790443 29 18 18
9.825306 0.415857 37.947670 30 18 17
9.866465 0.499744 38.106632 32 18 18
9.907802 0.584327 38.266289 33 18 18
9.949048 0.669592 38.425591 35 18 18
9.989940 0.755518 38.583523 37 19 19
10.030225 0.842073 38.739113 39 20 20
10.069671 0.929221 38.891464 41 21 22
10.108072 1.016921 39.039780 43 22 23
10.145249 1.105128 39.183365 45 22 23
10.181055 1.193792 39.321655 47 21 23
10.215379 1.282867 39.454224 49 20 22
10.248144 1.372305 39.580772 52 18 22
10.279312 1.462061 39.701149 57 18 22
10.308873 1.552094 39.815319 63 17 23
10.336845 1.642366 39.923359 70 18 24
10.363276 1.732847 40.025436 79 19 26
10.388228 1.823508 40.121807 86 21 28
10.411778 1.914328 40.212765 93 24 30
10.434015 2.005286 40.298653 100 27 34
10.455029 2.096370 40.379810 105 28 35
10.474905 2.187566 40.456577 108 27 34
10.493727 2.278865 40.529270 111 27 35
10.511567 2.370255 40.598175 116 28 36
10.528491 2.461728 40.663536 122 30 40
10.544546 2.553272 40.725548 129 36 47
10.559776 2.644877 40.784367 137 40 56
10.574203 2.736528 40.840088 141 40 62
10.587850 2.828211 40.892796 143 40 65
10.600720 2.919908 40.942505 155 51 77
10.612822 3.011600 40.989243 177 72 96
10.624144 3.103266 41.032970 187 80 101
10.634684 3.194885 41.073677 179 73 87
10.644429 3.286435 41.111317 172 69 74
10.653375 3.377894 41.145866 174 73 72
10.661508 3.469237 41.177277 179 80 77
10.668823 3.560443 41.205536 186 91 86
10.675316 3.651489 41.230610 193 102 97
10.680981 3.742353 41.252487 195 110 107
10.685815 3.833013 41.271160 197 116 116
10.689820 3.923450 41.286629 201 124 128
10.692997 4.013642 41.298897 203 131 139
10.695343 4.103569 41.307961 203 133 145
10.696861 4.193210 41.313824 202 134 150
10.697552 4.282546 41.316490 197 129 149
10.697414 4.371554 41.315960 190 123 145
10.696450 4.460215 41.312237 186 120 143
10.694663 4.548510 41.305332 179 115 139
10.692055 4.636419 41.295258 170 107 133
10.688633 4.723926 41.282043 170 108 134
10.684409 4.811014 41.265732 180 118 145
10.679399 4.897671 41.246380 186 125 152
10.673626 4.983889 41.224083 177 115 141
10.667115 5.069660 41.198940 167 106 131
10.659904 5.154984 41.171089 183 123 148
10.652037 5.239865 41.140701 210 155 176
10.643559 5.324309 41.107956 211 159 177
10.634526 5.408330 41.073071 196 139 156
10.624998 5.491945 41.036274 193 130 147
10.615038 5.575174 40.997803 197 132 151
10.604708 5.658041 40.957905 196 130 150
10.594074 5.740570 40.916836 187 122 143
10.583197 5.822788 40.874825 180 117 138
10.572136 5.904723 40.832104 186 124 145
10.560946 5.986400 40.788887 194 136 154
10.549676 6.067845 40.745361 191 135 151
10.538367 6.149080 40.701683 185 132 146
10.527052 6.230122 40.657982 200 149 162
10.515756 6.310987 40.614353 222 173 185
10.504495 6.391686 40.570858 225 174 189
10.493279 6.472226 40.527538 212 157 175
10.482107 6.552606 40.484390 205 147 166
10.470976 6.632825 40.441399 199 139 160
10.459868 6.712875 40.398502 184 122 144
10.448768 6.792744 40.355629 172 111 133
10.437653 6.872418 40.312698 173 113 134
10.426498 6.951882 40.269619 179 120 139
9.077174 -4.415759 34.768734 234 126 145
9.086169 -4.345110 34.803185 222 116 136
9.095160 -4.274312 34.837627 207 101 120
9.104145 -4.203362 34.872044 198 94 112
9.113120 -4.132260 34.906422 205 102 118
9.122087 -4.061005 34.940765 224 128 139
9.131045 -3.989599 34.975079 237 148 154
9.139997 -3.918042 35.009369 231 142 143
9.148945 -3.846335 35.043640 212 120 118
9.157885 -3.774477 35.077885 193 105 101
9.166814 -3.702467 35.112083 167 87 83
9.175724 -3.630303 35.146214 126 54 54
9.184606 -3.557980 35.180233 97 32 35
9.193449 -3.485496 35.214108 90 31 37
9.202241 -3.412847 35.247780 88 35 44
9.210968 -3.340029 35.281212 85 36 45
9.219619 -3.267040 35.314346 82 35 44
9.228184 -3.193879 35.347153 78 33 41
9.236651 -3.120543 35.379589 74 32 38
9.245018 -3.047034 35.411633 70 30 35
9.253275 -2.973352 35.443260 65 29 33
9.261420 -2.899498 35.474457 61 29 31
9.269446 -2.825474 35.505203 58 27 30
9.277352 -2.751281 35.535484 55 26 29
9.285126 -2.676919 35.565258 52 26 28
9.292758 -2.602390 35.594498 50 25 27
9.300235 -2.527693 35.623135 47 25 27
9.307536 -2.452825 35.651100 46 25 26
9.314639 -2.377787 35.678307 44 25 25
9.321521 -2.302576 35.704666 42 25 24
9.328153 -2.227192 35.730068 40 25 25
9.334512 -2.151636 35.754425 38 24 24
9.340578 -2.075910 35.777660 36 23 24
9.346343 -2.000019 35.799744 34 23 23
9.351808 -1.923971 35.820675 33 23 23
9.356992 -1.847778 35.840534 32 23 23
9.361935 -1.771453 35.859463 31 22 22
9.366696 -1.695013 35.877705 30 22 21
9.371365 -1.618479 35.895584 29 21 19
9.376052 -1.541871 35.913536 28 21 19
9.380894 -1.465210 35.932083 29 20 20
9.386050 -1.388516 35.951836 28 20 20
9.391702 -1.311805 35.973484 28 20 20
9.398043 -1.235092 35.997772 27 19 20
9.405281 -1.158384 36.025497 27 19 19
9.413624 -1.081684 36.057453 26 18 19
9.423279 -1.004986 36.094433 26 18 18
9.434443 -0.928277 36.137196 26 19 18
9.447300 -0.851536 36.186443 25 19 17
9.462011 -0.774735 36.242794 25 18 17
9.478717 -0.697837 36.306782 24 18 16
9.497519 -0.620801 36.378803 24 18 16
9.518498 -0.543579 36.459160 23 18 17
9.541692 -0.466118 36.547997 23 18 17
9.567105 -0.388365 36.645340 24 17 17
9.594710 -0.310262 36.751076 24 17 17
9.624441 -0.231755 36.864956 24 17 17
9.656199 -0.152789 36.986599 24 17 17
9.689855 -0.073313 37.115513 24 17 17
9.725248 0.006720 37.251083 24 18 18
9.762196 0.087351 37.392605 24 18 18
9.800487 0.168616 37.539272 25 18 18
9.839890 0.250541 37.690201 26 18 18
9.880160 0.333146 37.844448 28 18 17
9.921037 0.416442 38.001022 29 17 17
9.962255 0.500430 38.158897 31 17 17
10.003543 0.585102 38.317051 32 17 17
10.044638 0.670444 38.474457 34 17 18
10.085280 0.756430 38.630131 37 18 19
10.125231 0.843030 38.783157 39 19 19
10.164267 0.930206 38.932674 41 21 21
10.202191 1.017915 39.077938 44 22 23
10.238840 1.106114 39.218315 45 22 23
10.274076 1.194753 39.353287 47 22 23
10.307806 1.283786 39.482479 49 21 23
10.339963 1.373167 39.605652 52 19 22
10.370518 1.462854 39.722687 57 18 22
10.399471 1.552806 39.833591 63 17 21
10.426855 1.642988 39.938480 70 16 22
10.452722 1.733372 40.037560 78 17 24
10.477139 1.823930 40.131088 87 20 27
10.500193 1.914643 40.219391 95 23 30
10.521971 2.005493 40.302807 102 27 34
10.542565 2.096468 40.381691 108 28 35
10.562065 2.187556 40.456379 111 27 35
10.580550 2.278747 40.527187 114 28 36
10.598094 2.370034 40.594383 117 30 38
10.614757 2.461405 40.658207 123 35 44
10.630582 2.552851 40.718826 130 42 53
10.645608 2.644359 40.776382 136 48 64
10.659855 2.735916 40.830952 138 50 71
10.673336 2.827505 40.882587 137 48 75
10.686052 2.919108 40.931297 157 68 98
10.697999 3.010704 40.977055 196 110 139
10.709165 3.102271 41.019825 211 122 147
10.719538 3.193787 41.059555 194 103 122
10.729100 3.285226 41.096184 180 89 101
10.737839 3.376563 41.129654 172 77 84
10.745736 3.467773 41.159904 166 70 73
10.752783 3.558832 41.186897 172 77 79
10.758966 3.649715 41.210583 179 89 90
10.764281 3.740398 41.230942 184 98 101
10.768723 3.830858 41.247952 187 107 111
10.772286 3.921072 41.261604 194 118 126
10.774974 4.011018 41.271896 202 130 140
10.776785 4.100676 41.278835 205 136 150
10.777721 4.190023 41.282421 204 136 153
10.777785 4.279039 41.282665 198 131 150
10.776982 4.367705 41.279591 191 125 146
10.775316 4.456001 41.273209 186 121 144
10.772794 4.543909 41.263546 181 117 141
10.769424 4.631410 41.250641 174 110 137
10.765221 4.718490 41.234539 172 108 137
10.760200 4.805135 41.215305 179 116 145
10.754384 4.891336 41.193027 190 127 156
10.747802 4.977087 41.167820 188 125 153
10.740490 5.062385 41.139812 173 110 137
10.732487 5.147230 41.109158 168 106 131
10.723843 5.231630 41.076046 190 132 152
10.714612 5.315597 41.040691 215 164 179
10.704853 5.399145 41.003311 217 164 177
10.694632 5.482295 40.964161 206 145 159
10.684013 5.565068 40.923485 197 132 148
10.673066 5.647493 40.881557 191 125 142
10.661859 5.729597 40.838627 185 120 139
10.650454 5.811408 40.794941 184 120 141
10.638914 5.892957 40.750740 190 128 149
10.627296 5.974270 40.706242 192 132 153
10.615652 6.055377 40.661636 181 124 143
10.604022 6.136300 40.617092 172 117 134
10.592442 6.217060 40.572735 183 130 146
10.580938 6.297674 40.528675 203 151 166
10.569527 6.378154 40.484962 218 164 180
10.558218 6.458508 40.441647 221 165 182
10.547013 6.538741 40.398731 216 157 175
10.535905 6.618848 40.356182 204 144 163
10.524880 6.698825 40.313953 188 127 146
10.513916 6.778660 40.271954 174 113 133
10.502991 6.858338 40.230106 171 111 130
9.172997 -4.350710 34.848034 228 126 144
9.182599 -4.280064 34.884510 216 114 131
9.192239 -4.209279 34.921127 206 104 120
9.201905 -4.138348 34.957851 202 101 113
9.211585 -4.067265 34.994625 214 115 123
9.221268 -3.996024 35.031410 234 142 145
9.230941 -3.924621 35.068161 241 153 151
9.240590 -3.853049 35.104816 230 139 133
9.250200 -3.781304 35.141327 211 119 113
9.259754 -3.709378 35.177620 184 97 93
9.269232 -3.637266 35.213623 143 63 63
9.278613 -3.564961 35.249264 113 39 44
9.287878 -3.492460 35.284462 105 37 47
9.297006 -3.419756 35.319138 104 42 54
9.305981 -3.346848 35.353233 101 42 56
9.314786 -3.273733 35.386684 96 39 53
9.323414 -3.200413 35.419460 90 36 49
9.331852 -3.126887 35.451515 86 34 45
9.340099 -3.053162 35.482849 81 33 41
9.348155 -2.979240 35.513454 75 32 37
9.356024 -2.905128 35.543343 70 31 35
9.363705 -2.830831 35.572525 65 30 32
9.371203 -2.756354 35.601013 60 29 30
9.378519 -2.681702 35.628803 56 28 28
9.385652 -2.606880 35.655903 53 27 27
9.392593 -2.531889 35.682270 50 26 26
9.399334 -2.456732 35.707878 47 26 26
9.405857 -2.381409 35.732662 46 26 26
9.412147 -2.305923 35.756557 44 25 26
9.418183 -2.230273 35.779488 42 25 25
9.423948 -2.154462 35.801392 40 24 25
9.429428 -2.078495 35.822208 38 24 24
9.434622 -2.002376 35.841934 36 23 24
9.439536 -1.926116 35.860607 34 23 23
9.444198 -1.849725 35.878315 34 23 23
9.448653 -1.773220 35.895241 33 23 22
9.452971 -1.696617 35.911644 31 22 21
9.457248 -1.619936 35.927895 29 21 19
9.461604 -1.543198 35.944443 29 21 19
9.466187 -1.466424 35.961849 28 20 19
9.471162 -1.389632 35.980751 28 19 20
9.476719 -1.312840 36.001862 28 19 20
9.483059 -1.236058 36.025951 28 19 20
9.490395 -1.159295 36.053818 28 18 19
9.498936 -1.082548 36.086266 27 18 19
9.508894 -1.005812 36.124096 27 19 18
9.520462 -0.929069 36.168041 26 19 18
9.533819 -0.852297 36.218784 26 19 17
9.549121 -0.775464 36.276917 25 19 16
9.566494 -0.698532 36.342918 24 19 16
9.586033 -0.621456 36.417145 23 18 17
9.607799 -0.544185 36.499832 23 18 17
9.631813 -0.466668 36.591064 23 18 17
9.658066 -0.388847 36.690796 23 17 17
9.686505 -0.310666 36.798840 23 17 17
9.717051 -0.232069 36.914879 23 17 17
9.749583 -0.153004 37.038467 23 17 17
9.783956 -0.073419 37.169052 23 17 16
9.819994 0.006729 37.305958 23 18 17
9.857498 0.087481 37.448437 24 18 17
9.896247 0.168869 37.595642 25 18 17
9.936002 0.250916 37.746670 26 18 17
9.976511 0.333640 37.900566 27 18 16
10.017514 0.417048 38.056332 28 17 16
10.058743 0.501139 38.212959 30 17 17
10.099932 0.585902 38.369438 32 17 17
10.140823 0.671321 38.524784 34 17 18
10.181167 0.757368 38.678047 37 17 19
10.220732 0.844012 38.828354 39 18 20
10.259308 0.931215 38.974903 41 19 21
10.296712 1.018933 39.117001 43 21 22
10.332790 1.107122 39.254063 45 21 22
10.367424 1.195735 39.385635 47 21 22
10.400526 1.284726 39.511391 50 21 22
10.432047 1.374051 39.631134 53 20 22
10.461966 1.463668 39.744797 58 18 21
10.490297 1.553540 39.852428 64 16 20
10.517078 1.643634 39.954170 70 15 20
10.542369 1.733921 40.050247 78 15 22
10.566244 1.824378 40.140949 88 18 25
10.588792 1.914986 40.226608 98 22 29
10.610105 2.005730 40.307575 105 25 33
10.630276 2.096598 40.384205 111 28 36
10.649393 2.187580 40.456829 115 29 37
10.667535 2.278666 40.525749 118 30 38
10.684772 2.369849 40.591232 121 33 42
10.701160 2.461120 40.653492 126 40 49
10.716743 2.552466 40.712688 131 47 60
10.731549 2.643877 40.768936 135 55 71
10.745593 2.735336 40.822292 133 56 78
10.758886 2.826828 40.872795 130 54 82
10.771421 2.918332 40.920410 157 85 116
10.783188 3.009827 40.965111 211 146 178
10.794167 3.101288 41.006821 234 166 195
10.804340 3.192691 41.045471 223 151 175
10.813685 3.284009 41.080975 211 139 157
10.822183 3.375216 41.113255 188 105 117
10.829811 3.466284 41.142235 164 71 80
10.836555 3.557187 41.167854 158 66 74
10.842399 3.647897 41.190052 162 74 80
10.847334 3.738389 41.208801 168 83 91
10.851352 3.828639 41.224064 174 95 104
10.854448 3.918623 41.235832 183 109 120
10.856626 4.008317 41.244099 196 125 138
10.857882 4.097700 41.248875 209 141 156
10.858221 4.186749 41.250160 215 148 166
10.857649 4.275445 41.247990 208 142 162
10.856174 4.363769 41.242382 195 131 151
10.853802 4.451701 41.233376 187 123 144
10.850547 4.539224 41.221008 182 119 141
10.846422 4.626324 41.205341 179 115 140
10.841448 4.712986 41.186440 177 113 141
10.835646 4.799200 41.164398 183 119 149
10.829044 4.884959 41.139320 192 129 160
10.821679 4.970259 41.111340 191 128 159
10.813591 5.055099 41.080612 176 113 141
10.804825 5.139486 41.047314 160 99 123
10.795437 5.223428 41.011646 168 110 129
10.785485 5.306939 40.973843 199 145 159
10.775036 5.390037 40.934143 222 166 177
10.764154 5.472745 40.892803 218 156 166
10.752913 5.555089 40.850098 198 133 144
10.741381 5.637095 40.806290 184 118 132
10.729630 5.718797 40.761646 180 115 132
10.717726 5.800223 40.716423 185 120 140
10.705732 5.881405 40.670860 192 128 149
10.693708 5.962374 40.625183 190 128 150
10.681706 6.043158 40.579586 175 115 137
10.669768 6.123782 40.534237 161 103 124
10.657932 6.204270 40.489269 167 111 129
10.646225 6.284640 40.444794 185 130 147
10.634664 6.364906 40.400871 203 148 164
10.623258 6.445077 40.357540 215 157 173
10.612009 6.525157 40.314808 211 152 168
10.600911 6.605148 40.272648 201 142 158
10.589951 6.685043 40.231010 190 131 148
10.579103 6.764832 40.189800 181 121 138
10.568346 6.844500 40.148933 175 115 132
9.259902 -4.356253 34.892433 225 127 144
9.270098 -4.285751 34.930855 217 118 134
9.280386 -4.215124 34.969620 212 114 127
9.290741 -4.144361 35.008640 206 107 117
9.301139 -4.073448 35.047821 209 110 116
9.311555 -4.002373 35.087070 225 129 131
9.321962 -3.931126 35.126286 241 149 146
9.332332 -3.859694 35.165359 239 149 143
9.342635 -3.788067 35.204182 226 135 130
9.352839 -3.716233 35.242630 200 111 109
9.362910 -3.644182 35.280582 158 73 76
9.372819 -3.571905 35.317921 127 47 56
9.382536 -3.499396 35.354534 125 49 64
9.392029 -3.426647 35.390308 133 62 81
9.401278 -3.353657 35.425159 135 68 89
9.410265 -3.280425 35.459019 125 60 81
9.418977 -3.206953 35.491848 111 47 66
9.427404 -3.133246 35.523605 101 40 55
9.435550 -3.059310 35.554298 93 37 48
9.443418 -2.985154 35.583942 86 36 42
9.451015 -2.910787 35.612572 78 34 38
9.458354 -2.836219 35.640228 72 32 34
9.465446 -2.761460 35.666954 66 31 31
9.472300 -2.686517 35.692776 60 29 28
9.478925 -2.611401 35.717739 56 28 27
9.485321 -2.536116 35.741840 53 27 27
9.491487 -2.460667 35.765076 50 26 27
9.497416 -2.385058 35.787415 48 26 27
9.503098 -2.309294 35.808830 46 26 27
9.508524 -2.233376 35.829273 44 26 26
9.513680 -2.157309 35.848698 42 25 25
9.518560 -2.081099 35.867088 40 25 25
9.523170 -2.004752 35.884460 38 24 24
9.527526 -1.928279 35.900875 36 23 23
9.531659 -1.851691 35.916451 35 23 23
9.535627 -1.775006 35.931404 33 23 22
9.539507 -1.698241 35.946022 31 22 20
9.543405 -1.621416 35.960709 30 21 19
9.547447 -1.544551 35.975941 29 20 18
9.551791 -1.467666 35.992310 29 19 19
9.556614 -1.390781 36.010483 29 19 19
9.562110 -1.313909 36.031193 29 19 19
9.568487 -1.237063 36.055222 28 19 19
9.575962 -1.160246 36.083389 28 18 19
9.584750 -1.083455 36.116501 28 18 18
9.595057 -1.006682 36.155342 28 19 18
9.607078 -0.929906 36.200634 27 19 18
9.620984 -0.853103 36.253036 26 19 17
9.636923 -0.776238 36.313095 25 19 16
9.655008 -0.699269 36.381245 24 19 17
9.675323 -0.622149 36.457790 23 18 17
9.697910 -0.544828 36.542904 23 18 17
9.722775 -0.467248 36.636597 23 18 17
9.749888 -0.389355 36.738766 23 18 17
9.779179 -0.311090 36.849133 23 17 17
9.810545 -0.232399 36.967323 22 17 17
9.843850 -0.153228 37.092823 22 17 17
9.878930 -0.073530 37.225006 23 18 17
9.915593 0.006740 37.363159 23 18 17
9.953629 0.087617 37.506481 24 18 18
9.992805 0.169131 37.654099 25 18 18
10.032873 0.251305 37.805084 26 18 17
10.073580 0.334150 37.958469 27 18 17
10.114661 0.417672 38.113270 28 18 16
10.155851 0.501867 38.268482 30 18 17
10.196893 0.586722 38.423130 32 17 17
10.237530 0.672218 38.576256 34 16 18
10.277526 0.758326 38.726967 36 16 19
10.316659 0.845014 38.874424 39 17 20
10.354732 0.932242 39.017887 41 18 21
10.391576 1.019968 39.156719 43 19 21
10.427051 1.108146 39.290394 45 20 21
10.461050 1.196733 39.418507 47 20 21
10.493500 1.285681 39.540779 50 20 21
10.524363 1.374950 39.657078 54 19 22
10.553632 1.464499 39.767368 59 18 21
10.581327 1.554292 39.871727 65 16 21
10.607496 1.644299 39.970333 72 14 20
10.632205 1.734492 40.063442 80 14 21
10.655534 1.824851 40.151348 90 17 24
10.677574 1.915357 40.234398 100 21 29
10.698420 2.005997 40.312943 109 26 35
10.718163 2.096761 40.387341 117 30 39
10.736891 2.187638 40.457909 121 32 40
10.754683 2.278621 40.524948 123 33 42
10.771603 2.369702 40.588707 125 38 46
10.787705 2.460871 40.649384 128 45 54
10.803027 2.552117 40.707119 132 54 65
10.817595 2.643427 40.762009 134 61 76
10.831415 2.734786 40.814087 131 64 84
10.844494 2.826176 40.863369 127 63 89
10.856817 2.917575 40.909805 151 90 121
10.868371 3.008962 40.953339 202 146 180
10.879128 3.100309 40.993874 231 174 205
10.889067 3.191591 41.031326 232 173 200
10.898157 3.282779 41.065582 229 171 191
10.906378 3.373846 41.096558 210 140 155
10.913699 3.464760 41.124146 183 101 112
10.920103 3.555495 41.148277 161 77 86
10.925573 3.646022 41.168884 149 64 72
10.930095 3.736314 41.185925 151 69 78
10.933660 3.826345 41.199360 159 82 93
10.936264 3.916089 41.209171 169 96 109
10.937906 4.005524 41.215359 184 115 130
10.938591 4.094626 41.217937 205 138 155
10.938319 4.183374 41.216915 222 157 174
10.937101 4.271749 41.212326 218 155 173
10.934948 4.359730 41.204212 203 140 159
10.931873 4.447301 41.192623 192 130 149
10.927891 4.534446 41.177620 185 123 144
10.923022 4.621152 41.159275 180 118 141
10.917293 4.707407 41.137684 179 116 143
10.910728 4.793202 41.112949 184 120 152
10.903365 4.878533 41.085201 192 128 161
10.895244 4.963399 41.054600 190 127 159
10.886409 5.047802 41.021313 177 115 145
10.876915 5.131751 40.985535 161 100 126
10.866817 5.215256 40.947487 156 95 117
10.856182 5.298335 40.907413 173 113 131
10.845078 5.381008 40.865570 204 143 157
10.833574 5.463299 40.822224 218 155 166
10.821744 5.545236 40.777645 206 141 151
10.809662 5.626850 40.732121 190 124 136
10.797400 5.708172 40.685913 183 117 131
10.785027 5.789235 40.639290 181 114 132
10.772605 5.870071 40.592484 183 118 136
10.760198 5.950713 40.545731 184 121 141
10.747855 6.031190 40.499222 174 113 134
10.735623 6.111530 40.453133 162 102 123
10.723539 6.191756 40.407600 162 104 124
10.711631 6.271888 40.362728 175 117 137
10.699918 6.351943 40.318588 191 133 151
10.688409 6.431931 40.275223 201 141 158
10.677106 6.511857 40.232632 199 139 156
10.666006 6.591725 40.190804 195 135 150
10.655091 6.671529 40.149681 191 131 147
10.644341 6.751260 40.109173 187 127 143
10.633729 6.830904 40.069183 181 121 137
9.357682 -4.291385 34.976776 209 114 129
9.368598 -4.220904 35.017574 207 112 125
9.379627 -4.150298 35.058796 204 109 119
9.390732 -4.079548 35.100307 204 108 114
9.401876 -4.008635 35.141964 215 119 121
9.413019 -3.937542 35.183609 233 139 137
9.424117 -3.866251 35.225090 241 153 149
9.435123 -3.794744 35.266228 240 158 155
9.445993 -3.723006 35.306862 218 137 139
9.456682 -3.651023 35.346813 170 88 96
9.467144 -3.578782 35.385914 138 55 69
9.477338 -3.506273 35.424019 146 67 88
9.487226 -3.433490 35.460979 174 104 128
9.496782 -3.360429 35.496696 188 127 149
9.505979 -3.287090 35.531071 175 115 135
9.514805 -3.213478 35.564060 151 85 105
9.523252 -3.139599 35.595631 129 62 79
9.531322 -3.065462 35.625797 112 49 60
9.539023 -2.991080 35.654583 97 41 46
9.546374 -2.916466 35.682060 86 36 38
9.553390 -2.841635 35.708279 78 34 34
9.560089 -2.766598 35.733322 71 32 31
9.566491 -2.691370 35.757252 64 31 30
9.572616 -2.615963 35.780144 59 29 29
9.578470 -2.540386 35.802025 55 28 28
9.584063 -2.464647 35.822929 53 27 28
9.589397 -2.388754 35.842869 51 27 28
9.594470 -2.312712 35.861832 48 27 28
9.599279 -2.236526 35.879807 46 27 27
9.603821 -2.160203 35.896782 44 26 26
9.608097 -2.083749 35.912766 41 25 25
9.612120 -2.007173 35.927799 39 24 24
9.615914 -1.930487 35.941982 38 24 24
9.619521 -1.853703 35.955463 37 24 24
9.623006 -1.776839 35.968491 35 23 22
9.626455 -1.699912 35.981384 33 22 21
9.629983 -1.622942 35.994568 31 21 19
9.633728 -1.545951 36.008568 29 20 18
9.637855 -1.468958 36.023991 29 19 19
9.642549 -1.391980 36.041538 29 20 19
9.648012 -1.315031 36.061954 29 20 19
9.654458 -1.238121 36.086052 29 19 19
9.662108 -1.161251 36.114647 28 19 19
9.671178 -1.084417 36.148548 28 19 19
9.681873 -1.007606 36.188522 28 19 19
9.694384 -0.930796 36.235283 28 19 18
9.708875 -0.853960 36.289448 27 19 17
9.725484 -0.777059 36.351528 25 19 17
9.744313 -0.700050 36.421906 24 19 17
9.765429 -0.622884 36.500832 24 19 17
9.788858 -0.545506 36.588409 24 18 18
9.814590 -0.467860 36.684582 24 18 17
9.842570 -0.389889 36.789169 23 18 17
9.872711 -0.311535 36.901829 22 18 17
9.904892 -0.232743 37.022114 23 18 17
9.938956 -0.153462 37.149437 23 18 18
9.974722 -0.073645 37.283119 23 19 18
10.011985 0.006750 37.422398 24 19 18
10.050518 0.087757 37.566425 24 19 18
10.090081 0.169402 37.714306 25 18 18
10.130422 0.251703 37.865086 26 18 18
10.171278 0.334672 38.017799 27 18 17
10.212389 0.418310 38.171463 28 18 17
10.253493 0.502609 38.325100 30 18 17
10.294335 0.587556 38.477757 32 17 18
10.334671 0.673129 38.628525 33 16 18
10.374274 0.759297 38.776550 35 16 19
10.412933 0.846027 38.921051 37 17 20
10.450465 0.933280 39.061337 39 17 21
10.486714 1.021012 39.196827 42 18 21
10.521557 1.109180 39.327057 44 19 21
10.554897 1.197740 39.451675 46 19 21
10.586676 1.286646 39.570457 50 20 21
10.616868 1.375860 39.683308 55 19 22
10.645475 1.465341 39.790234 61 18 22
10.672528 1.555057 39.891354 67 17 21
10.698082 1.644979 39.986866 74 14 21
10.722207 1.735081 40.077042 81 14 21
10.744988 1.825344 40.162193 90 16 23
10.766521 1.915751 40.242676 103 21 30
10.786897 2.006291 40.318832 114 27 37
10.806211 2.096952 40.391026 123 32 42
10.824546 2.187727 40.459557 128 35 44
10.841979 2.278609 40.524719 129 37 46
10.858573 2.369587 40.586742 131 41 49
10.874376 2.460655 40.645813 133 49 58
10.889419 2.551798 40.702038 135 58 68
10.903725 2.643006 40.755508 135 65 79
10.917296 2.734260 40.806236 132 70 88
10.930130 2.825542 40.854210 130 72 96
10.942211 2.916831 40.899361 142 86 116
10.953515 3.008100 40.941612 172 118 150
10.964013 3.099324 40.980854 201 145 177
10.973679 3.190475 41.016983 214 157 185
10.982475 3.281523 41.049862 215 158 179
10.990376 3.372437 41.079395 215 155 171
10.997351 3.463186 41.105461 211 148 158
11.003378 3.553742 41.127991 187 115 122
11.008435 3.644074 41.146893 155 75 82
11.012511 3.734155 41.162128 142 64 72
11.015592 3.823956 41.173641 146 72 83
11.017677 3.913454 41.181438 156 85 99
11.018764 4.002622 41.185497 169 101 118
11.018856 4.091438 41.185844 190 125 142
11.017961 4.179881 41.182495 212 148 166
11.016090 4.267932 41.175507 214 152 169
11.013259 4.355573 41.164921 207 146 162
11.009481 4.442786 41.150803 205 144 161
11.004782 4.529559 41.133236 197 137 155
10.999184 4.615879 41.112312 183 123 144
10.992715 4.701737 41.088135 177 116 140
10.985413 4.787127 41.060841 179 118 145
10.977315 4.872046 41.030571 185 124 153
10.968467 4.956496 40.997501 185 124 153
10.958920 5.040482 40.961819 176 116 144
10.948731 5.124013 40.923733 163 104 129
10.937962 5.207104 40.883480 150 91 113
10.926682 5.289774 40.841320 150 91 109
10.914961 5.372046 40.797508 176 115 130
10.902872 5.453944 40.752323 204 142 154
10.890492 5.535500 40.706051 212 148 159
10.877895 5.616744 40.658966 204 139 149
10.865155 5.697710 40.611347 192 126 138
10.852342 5.778431 40.563450 181 115 128
10.839520 5.858942 40.515526 177 112 127
10.826749 5.939275 40.467793 177 113 130
10.814086 6.019461 40.420464 174 111 129
10.801574 6.099528 40.373695 168 107 126
10.789251 6.179502 40.327637 166 106 126
10.777147 6.259405 40.282394 173 113 133
10.765281 6.339252 40.238037 182 122 141
10.753662 6.419057 40.194611 188 127 145
10.742296 6.498827 40.152130 189 128 145
10.731178 6.578566 40.110573 189 128 144
10.720293 6.658270 40.069885 188 128 144
10.709619 6.737931 40.029987 189 130 146
9.445381 -4.296980 35.022385 196 105 119
9.456891 -4.226628 35.065060 196 105 117
9.468565 -4.156164 35.108349 197 105 116
9.480355 -4.085563 35.152065 199 105 113
9.492211 -4.014802 35.196026 207 112 118
9.504078 -3.943855 35.240025 221 128 129
9.515898 -3.872700 35.283848 233 148 149
9.527610 -3.801313 35.327278 243 172 174
9.539155 -3.729673 35.370087 227 160 166
9.550473 -3.657762 35.412052 180 104 116
9.561506 -3.585563 35.452961 147 65 85
9.572203 -3.513064 35.492622 163 86 112
9.582516 -3.440256 35.530865 205 144 168
9.592408 -3.367136 35.567543 229 180 200
9.601851 -3.293704 35.602558 222 169 188
9.610829 -3.219965 35.635845 198 133 153
9.619331 -3.145926 35.667370 171 101 120
9.627364 -3.071602 35.697155 147 82 96
9.634938 -2.997007 35.725239 123 63 71
9.642076 -2.922159 35.751705 98 43 48
9.648800 -2.847074 35.776634 83 33 36
9.655137 -2.771771 35.800137 76 32 33
9.661116 -2.696267 35.822304 69 32 32
9.666762 -2.620576 35.843239 64 31 31
9.672095 -2.544714 35.863014 59 30 30
9.677133 -2.468690 35.881691 56 29 30
9.681883 -2.392515 35.899303 53 29 30
9.686357 -2.316198 35.915894 51 28 29
9.690558 -2.239747 35.931473 48 27 28
9.694491 -2.163168 35.946053 46 27 27
9.698168 -2.086472 35.959686 43 26 26
9.701608 -2.009667 35.972443 41 25 25
9.704845 -1.932768 35.984447 40 25 25
9.707932 -1.855787 35.995892 38 25 25
9.710940 -1.778743 36.007046 36 25 24
9.713968 -1.701655 36.018272 34 23 22
9.717139 -1.624541 36.030029 32 22 20
9.720601 -1.547424 36.042866 31 21 19
9.724528 -1.470321 36.057426 30 20 19
9.729114 -1.393250 36.074432 29 20 19
9.734568 -1.316224 36.094654 29 20 19
9.741108 -1.239248 36.118904 29 20 19
9.748959 -1.162323 36.148014 28 19 19
9.758337 -1.085444 36.182789 28 19 19
9.769446 -1.008593 36.223980 28 19 19
9.782471 -0.931747 36.272274 28 19 19
9.797569 -0.854873 36.328259 28 20 18
9.814869 -0.777933 36.392403 27 20 18
9.834457 -0.700879 36.465031 25 20 17
9.856385 -0.623660 36.546337 25 19 18
9.880663 -0.546221 36.636356 25 18 18
9.907258 -0.468503 36.734970 24 18 17
9.936099 -0.390448 36.841908 23 18 17
9.967078 -0.311999 36.956776 23 18 17
10.000052 -0.233101 37.079041 23 18 17
10.034849 -0.153704 37.208061 23 19 18
10.071269 -0.073763 37.343105 24 19 18
10.109093 0.006761 37.483349 25 19 18
10.148081 0.087901 37.627914 25 19 18
10.187986 0.169678 37.775879 26 18 18
10.228549 0.252110 37.926281 27 18 18
10.269506 0.335203 38.078144 27 18 18
10.310598 0.418957 38.230507 28 18 18
10.351565 0.503361 38.382412 30 18 18
10.392161 0.588399 38.532932 31 17 18
10.432150 0.674047 38.681210 32 16 18
10.471316 0.760274 38.826435 33 16 19
10.509464 0.847045 38.967880 35 17 20
10.546422 0.934321 39.104916 37 17 21
10.582049 1.022059 39.237019 40 18 21
10.616235 1.110216 39.363773 43 18 20
10.648899 1.198748 39.484886 46 18 21
10.679993 1.287613 39.600182 51 19 22
10.709504 1.376771 39.709606 56 19 22
10.737445 1.466187 39.813210 62 18 22
10.763855 1.555828 39.911133 69 17 22
10.788794 1.645667 40.003601 76 15 22
10.812337 1.735681 40.090897 83 15 22
10.834575 1.825851 40.173351 93 16 24
10.855598 1.916162 40.251305 106 22 30
10.875505 2.006603 40.325119 120 30 39
10.894388 2.097166 40.395134 129 35 44
10.912326 2.187840 40.461647 134 38 47
10.929394 2.278620 40.524933 137 42 50
10.945649 2.369498 40.585205 137 46 53
10.961137 2.460462 40.642628 137 51 60
10.975882 2.551502 40.697304 138 60 69
10.989902 2.642602 40.749290 136 66 79
11.003195 2.733747 40.798576 134 72 89
11.015754 2.824915 40.845146 134 77 100
11.027555 2.916084 40.888901 136 83 111
11.038572 3.007229 40.929752 147 95 125
11.048771 3.098319 40.967567 174 120 151
11.058120 3.189328 41.002232 193 137 166
11.066580 3.280222 41.033600 192 133 156
11.074119 3.370972 41.061554 204 148 165
11.080705 3.461544 41.085972 226 173 183
11.086313 3.551909 41.106770 217 154 161
11.090921 3.642035 41.123859 181 107 113
11.094515 3.731892 41.137180 150 75 83
11.097082 3.821454 41.146698 140 67 79
11.098619 3.910694 41.152401 147 75 91
11.099128 3.999588 41.154285 157 88 107
11.098612 4.088113 41.152374 173 106 125
11.097083 4.176248 41.146702 190 126 144
11.094553 4.263974 41.137321 196 133 151
11.091041 4.351274 41.124302 199 138 154
11.086568 4.438134 41.107716 212 153 167
11.081161 4.524541 41.087666 214 155 170
11.074847 4.610484 41.064259 195 136 152
11.067663 4.695956 41.037621 178 119 138
11.059646 4.780953 41.007889 174 114 136
11.050842 4.865477 40.975246 174 115 140
11.041299 4.949528 40.939865 174 115 141
11.031075 5.033115 40.901955 170 112 139
11.020229 5.116251 40.861736 164 107 132
11.008826 5.198950 40.819458 152 95 118
10.996941 5.281235 40.775387 142 85 106
10.984642 5.363128 40.729786 152 93 111
10.972008 5.444658 40.682941 181 120 136
10.959115 5.525856 40.635132 205 142 156
10.946038 5.606754 40.586647 209 145 156
10.932854 5.687386 40.537758 199 134 143
10.919629 5.767787 40.488724 190 125 134
10.906432 5.847991 40.439793 186 121 132
10.893324 5.928031 40.391190 177 112 126
10.880358 6.007942 40.343109 171 107 123
10.867579 6.087749 40.295727 171 108 126
10.855026 6.167481 40.249184 170 108 127
10.842731 6.247161 40.203594 171 109 129
10.830710 6.326805 40.159023 174 113 132
10.818978 6.406426 40.115520 177 116 135
10.807540 6.486038 40.073112 180 118 137
10.796391 6.565642 40.031773 181 120 138
10.785518 6.645237 39.991455 182 122 139
10.774899 6.724818 39.952084 187 129 146
9.545287 -4.232307 35.112171 183 94 107
9.557566 -4.161964 35.157341 187 98 110
9.570005 -4.091495 35.203098 190 99 110
9.582542 -4.020869 35.249218 196 105 114
9.595109 -3.950057 35.295441 205 114 121
9.607634 -3.879029 35.341515 216 133 139
9.620043 -3.807756 35.387161 230 160 167
9.632260 -3.736212 35.432102 222 156 167
9.644215 -3.664375 35.476074 183 109 126
9.655832 -3.592223 35.518814 157 78 102
9.667053 -3.519742 35.560089 177 103 132
9.677817 -3.446920 35.599682 217 156 182
9.688080 -3.373753 35.637436 238 186 208
9.697807 -3.300241 35.673218 237 182 202
9.706979 -3.226390 35.706955 222 155 175
9.715584 -3.152209 35.738605 205 137 155
9.723626 -3.077714 35.768192 193 136 147
9.731121 -3.002923 35.795761 164 109 116
9.738093 -2.927856 35.821407 118 60 66
9.744573 -2.852534 35.845242 87 31 37
9.750593 -2.776978 35.867390 78 29 32
9.756190 -2.701210 35.887978 74 31 34
9.761397 -2.625248 35.907131 69 31 34
9.766245 -2.549109 35.924965 63 31 32
9.770757 -2.472809 35.941559 59 31 32
9.774954 -2.396360 35.956997 56 31 32
9.778852 -2.319774 35.971336 53 29 31
9.782465 -2.243060 35.984627 50 28 29
9.785807 -2.166229 35.996922 48 27 28
9.788898 -2.089292 36.008293 45 27 28
9.791769 -2.012260 36.018856 44 27 27
9.794463 -1.935148 36.028763 42 26 27
9.797040 -1.857971 36.038242 40 26 26
9.799583 -1.780747 36.047600 38 26 24
9.802202 -1.703495 36.057228 36 25 23
9.805028 -1.626237 36.067627 34 24 22
9.808222 -1.548991 36.079372 33 23 21
9.811965 -1.471778 36.093143 31 22 20
9.816458 -1.394611 36.109673 31 21 21
9.821919 -1.317504 36.129761 31 21 21
9.828571 -1.240460 36.154228 30 21 21
9.836640 -1.163478 36.183910 30 20 20
9.846343 -1.086548 36.219604 29 20 20
9.857881 -1.009653 36.262043 29 20 20
9.871432 -0.932764 36.311893 29 20 20
9.887148 -0.855848 36.369701 28 20 19
9.905141 -0.778862 36.435886 27 20 18
9.925488 -0.701758 36.510735 26 20 17
9.948222 -0.624480 36.594360 25 19 18
9.973336 -0.546972 36.686745 25 18 18
10.000778 -0.469175 36.787689 24 18 17
10.030458 -0.391030 36.896866 23 18 17
10.062245 -0.312480 37.013794 23 18 17
10.095979 -0.233471 37.137882 23 18 17
10.131469 -0.153954 37.268433 23 19 17
10.168498 -0.073885 37.404644 24 19 18
10.206834 0.006773 37.545662 25 19 18
10.246228 0.088047 37.690575 26 19 18
10.286422 0.169959 37.838425 26 18 18
10.327154 0.252522 37.988258 27 18 18
10.368158 0.335740 38.139091 27 18 18
10.409178 0.419608 38.289978 28 17 18
10.449958 0.504116 38.439991 29 17 18
10.490259 0.589243 38.588238 30 17 18
10.529860 0.674965 38.733906 31 17 19
10.568552 0.761249 38.876236 32 17 20
10.606153 0.848060 39.014549 34 17 20
10.642509 0.935357 39.148285 36 17 20
10.677490 1.023100 39.276962 39 17 20
10.711003 1.111244 39.400238 42 18 21
10.742977 1.199749 39.517857 46 18 21
10.773380 1.288572 39.629692 51 18 22
10.802208 1.377677 39.735737 57 19 23
10.829482 1.467029 39.836060 64 18 24
10.855249 1.556597 39.930847 71 17 25
10.879577 1.646356 40.020332 80 16 25
10.902542 1.736283 40.104813 88 17 26
10.924238 1.826363 40.184624 98 20 29
10.944759 1.916581 40.260109 111 25 35
10.964199 2.006927 40.331615 124 32 41
10.982648 2.097391 40.399483 132 37 46
11.000185 2.187967 40.463989 139 41 49
11.016878 2.278646 40.525394 143 47 54
11.032782 2.369421 40.583897 144 50 57
11.047935 2.460281 40.639637 143 55 62
11.062361 2.551213 40.692699 142 61 70
11.076068 2.642203 40.743126 139 67 78
11.089052 2.733232 40.790886 136 73 88
11.101299 2.824279 40.835938 137 80 101
11.112783 2.915320 40.878181 136 84 110
11.123473 3.006329 40.917503 138 87 117
11.133329 3.097275 40.953762 161 109 140
11.142317 3.188129 40.986820 183 130 159
11.150395 3.278858 41.016537 181 124 149
11.157528 3.369430 41.042774 191 135 154
11.163683 3.459812 41.065414 221 166 179
11.168831 3.549972 41.084351 229 168 177
11.172953 3.639878 41.099510 208 139 146
11.176028 3.729501 41.110825 170 98 107
11.178049 3.818813 41.118263 144 70 85
11.179013 3.907787 41.121807 141 68 87
11.178922 3.996399 41.121471 149 77 99
11.177781 4.084626 41.117275 159 90 112
11.175606 4.172449 41.109272 170 103 124
11.172412 4.259849 41.097527 176 111 129
11.168221 4.346810 41.082108 183 120 135
11.163059 4.433320 41.063118 201 141 154
11.156956 4.519365 41.040668 214 156 168
11.149944 4.604939 41.014877 206 150 162
11.142065 4.690037 40.985893 191 135 150
11.133360 4.774656 40.953873 180 123 142
11.123878 4.858797 40.918995 173 117 138
11.113675 4.942467 40.881458 169 114 136
11.102808 5.025674 40.841484 167 112 135
11.091342 5.108434 40.799309 165 110 134
11.079345 5.190763 40.755180 159 104 127
11.066892 5.272684 40.709370 148 92 114
11.054055 5.354222 40.662151 144 87 107
11.040914 5.435407 40.613808 158 100 118
11.027543 5.516268 40.564629 184 123 138
11.014023 5.596841 40.514893 199 137 149
11.000425 5.677160 40.464874 199 136 144
10.986822 5.757260 40.414833 198 136 142
10.973278 5.837176 40.365013 196 134 140
10.959853 5.916942 40.315628 182 120 128
10.946601 5.996590 40.266884 172 109 120
10.933571 6.076150 40.218952 170 108 122
10.920798 6.155649 40.171967 170 109 125
10.908315 6.235111 40.126049 170 108 127
10.896142 6.314555 40.081272 169 107 127
10.884293 6.393996 40.037682 169 107 127
10.872773 6.473445 39.995308 172 110 130
10.861582 6.552909 39.954140 174 113 132
10.850704 6.632389 39.914131 175 116 135
9.633813 -4.237954 35.159019 169 84 98
9.646646 -4.167706 35.205853 174 88 103
9.659687 -4.097347 35.253448 181 94 107
9.672863 -4.026837 35.301533 186 99 111
9.686094 -3.956143 35.349819 192 106 118
9.699295 -3.885229 35.397999 201 118 129
9.712380 -3.814061 35.445755 209 133 145
9.725260 -3.742608 35.492756 201 129 144
9.737846 -3.670843 35.538692 175 101 122
9.750057 -3.598740 35.583260 167 92 118
9.761817 -3.526283 35.626175 194 123 153
9.773058 -3.453457 35.667198 224 158 188
9.783725 -3.380256 35.706127 236 174 200
9.793777 -3.306679 35.742813 234 172 194
9.803189 -3.232734 35.777164 227 159 177
9.811948 -3.158429 35.809128 224 162 176
9.820056 -3.083783 35.838718 228 181 189
9.827530 -3.008815 35.865993 204 159 165
9.834398 -2.933549 35.891060 151 98 105
9.840693 -2.858008 35.914036 107 51 59
9.846456 -2.782218 35.935066 86 32 41
9.851728 -2.706203 35.954308 77 28 36
9.856552 -2.629984 35.971912 71 29 35
9.860965 -2.553584 35.988018 67 31 35
9.864998 -2.477018 36.002735 63 32 36
9.868682 -2.400305 36.016182 60 32 35
9.872042 -2.323457 36.028446 56 31 33
9.875100 -2.246487 36.039604 54 29 31
9.877881 -2.169409 36.049755 51 28 30
9.880413 -2.092234 36.058998 48 28 29
9.882737 -2.014977 36.067478 46 28 29
9.884906 -1.937652 36.075394 45 28 29
9.886991 -1.860278 36.083000 43 28 28
9.889086 -1.782873 36.090645 41 27 27
9.891309 -1.705457 36.098763 39 27 25
9.893806 -1.628051 36.107876 37 25 24
9.896744 -1.550675 36.118599 35 24 23
9.900315 -1.473347 36.131630 34 24 22
9.904730 -1.396082 36.147739 33 23 22
9.910210 -1.318889 36.167740 32 22 22
9.916983 -1.241771 36.192459 32 22 22
9.925279 -1.164726 36.222733 31 21 21
9.935310 -1.087740 36.259350 30 20 21
9.947279 -1.010794 36.303028 30 20 21
9.961355 -0.933856 36.354397 29 20 20
9.977681 -0.856890 36.413979 29 20 19
9.996358 -0.779851 36.482143 28 20 19
10.017447 -0.702687 36.559109 27 20 18
10.040966 -0.625343 36.644943 26 19 18
10.066889 -0.547759 36.739548 25 18 17
10.095144 -0.469876 36.842667 24 18 17
10.125622 -0.391635 36.953896 23 18 17
10.158173 -0.312978 37.072693 23 18 16
10.192618 -0.233852 37.198402 24 19 16
10.228747 -0.154209 37.330257 24 19 17
10.266331 -0.074009 37.467419 25 19 18
10.305120 0.006784 37.608986 26 19 19
10.344860 0.088195 37.754017 26 19 19
10.385283 0.170243 37.901543 26 19 19
10.426126 0.252937 38.050594 26 18 18
10.467120 0.336278 38.200207 27 17 18
10.508012 0.420260 38.349445 28 17 18
10.548555 0.504869 38.497410 29 17 18
10.588518 0.590083 38.643253 29 17 18
10.627687 0.675876 38.786205 30 17 19
10.665870 0.762215 38.925552 31 17 19
10.702897 0.849063 39.060684 33 18 20
10.738626 0.936380 39.191078 35 18 20
10.772944 1.024125 39.316330 37 17 20
10.805770 1.112257 39.436127 42 17 21
10.837049 1.200733 39.550282 47 17 21
10.866756 1.289516 39.658699 52 18 22
10.894901 1.378568 39.761414 58 18 24
10.921512 1.467856 39.858532 66 18 26
10.946643 1.557353 39.950249 74 18 27
10.970364 1.647034 40.036816 83 18 28
10.992759 1.736878 40.118549 92 19 29
11.013919 1.826870 40.195778 102 23 33
11.033940 1.916997 40.268845 119 32 41
11.052913 2.007249 40.338085 132 40 46
11.070926 2.097617 40.403824 135 40 44
11.088054 2.188094 40.466331 139 42 46
11.104362 2.278672 40.525852 145 49 53
11.119897 2.369342 40.582546 149 54 59
11.134698 2.460095 40.636562 148 58 64
11.148778 2.550915 40.687950 147 63 72
11.162146 2.641788 40.736732 145 68 80
11.174786 2.732694 40.782867 141 72 88
11.186687 2.823612 40.826298 141 80 100
11.197813 2.914516 40.866905 142 86 111
11.208132 3.005378 40.904564 139 86 115
11.217601 3.096168 40.939117 153 101 132
11.226182 3.186855 40.970440 174 122 153
11.233832 3.277405 40.998360 173 119 148
11.240514 3.367786 41.022743 180 124 148
11.246193 3.457963 41.043468 208 150 168
11.250840 3.547904 41.060429 226 163 178
11.254434 3.637578 41.073544 219 152 166
11.256958 3.726955 41.082756 188 117 132
11.258402 3.816005 41.088028 155 81 101
11.258766 3.904703 41.089355 143 68 92
11.258053 3.993025 41.086754 145 71 96
11.256274 4.080949 41.080261 150 78 103
11.253443 4.168456 41.069927 157 87 111
11.249581 4.255528 41.055836 162 95 115
11.244714 4.342151 41.038071 167 103 119
11.238869 4.428312 41.016739 178 117 130
11.232081 4.514003 40.991970 192 134 145
11.224391 4.599216 40.963902 205 149 159
11.215837 4.683949 40.932686 209 155 166
11.206470 4.768200 40.898499 200 147 160
11.196341 4.851974 40.861530 186 135 150
11.185508 4.935278 40.821995 177 127 144
11.174034 5.018123 40.780121 172 122 141
11.161983 5.100525 40.736145 170 119 139
11.149430 5.182503 40.690327 169 117 138
11.136447 5.264081 40.642944 162 109 130
11.123110 5.345284 40.594273 149 93 115
11.109498 5.426144 40.544594 144 87 106
11.095688 5.506691 40.494194 159 100 117
11.081758 5.586959 40.443356 179 119 133
11.067780 5.666985 40.392345 192 131 141
11.053825 5.746801 40.341415 201 141 147
11.039959 5.826446 40.290806 201 141 146
11.026239 5.905951 40.240742 189 130 136
11.012724 5.985351 40.191414 178 118 127
10.999454 6.064673 40.142986 171 110 122
10.986473 6.143949 40.095608 172 111 126
10.973809 6.223200 40.049393 177 116 133
10.961486 6.302447 40.004417 172 111 129
10.949516 6.381707 39.960735 166 105 125
10.937909 6.460993 39.918373 169 109 129
10.926663 6.540312 39.877335 174 115 134
10.915770 6.619668 39.837574 176 118 138
9.735827 -4.173403 35.253975 163 81 97
9.749412 -4.103125 35.303165 175 92 107
9.763174 -4.032708 35.353001 185 101 117
9.777023 -3.962111 35.403145 195 114 128
9.790863 -3.891294 35.453262 201 121 136
9.804593 -3.820219 35.502979 194 118 133
9.818112 -3.748848 35.551933 177 104 122
9.831324 -3.677152 35.599770 161 91 114
9.844126 -3.605099 35.646130 174 105 133
9.856436 -3.532670 35.690704 211 145 175
9.868174 -3.459848 35.733208 236 173 203
9.879276 -3.386626 35.773411 240 183 210
9.889694 -3.313000 35.811134 238 183 205
9.899396 -3.238978 35.846268 234 174 191
9.908365 -3.164570 35.878742 234 177 190
9.916602 -3.089794 35.908569 240 196 205
9.924122 -3.014671 35.935802 230 192 200
9.930956 -2.939229 35.960548 198 156 165
9.937139 -2.863491 35.982937 156 106 119
9.942717 -2.787488 36.003132 112 57 72
9.947735 -2.711245 36.021301 82 29 42
9.952243 -2.634789 36.037628 71 25 35
9.956285 -2.558142 36.052265 70 30 37
9.959901 -2.481327 36.065357 68 34 39
9.963129 -2.404361 36.077045 64 34 37
9.966002 -2.327262 36.087448 60 32 34
9.968552 -2.250045 36.096684 57 30 32
9.970812 -2.172725 36.104870 54 29 31
9.972822 -2.095318 36.112144 51 29 30
9.974630 -2.017838 36.118694 50 29 30
9.976302 -1.940303 36.124748 48 29 29
9.977920 -1.862732 36.130604 46 29 29
9.979587 -1.785145 36.136642 44 28 29
9.981435 -1.707563 36.143333 42 28 27
9.983618 -1.630007 36.151237 40 27 26
9.986315 -1.552496 36.161003 38 26 25
9.989725 -1.475049 36.173355 36 25 24
9.994069 -1.397678 36.189083 35 24 24
9.999574 -1.320394 36.209015 34 23 24
10.006472 -1.243196 36.233994 33 23 23
10.014992 -1.166080 36.264847 32 22 22
10.025350 -1.089031 36.302353 31 21 21
10.037740 -1.012024 36.347218 30 20 21
10.052327 -0.935029 36.400036 29 20 20
10.069242 -0.858004 36.461288 29 20 19
10.088576 -0.780902 36.531296 29 20 19
10.110374 -0.703670 36.610233 28 20 19
10.134639 -0.626250 36.698093 26 19 18
10.161325 -0.548582 36.794727 25 19 17
10.190344 -0.470605 36.899807 24 18 17
10.221565 -0.392260 37.012859 23 18 16
10.254820 -0.313489 37.133278 23 18 16
10.289911 -0.234241 37.260345 24 19 16
10.326613 -0.154469 37.393242 25 19 17
10.364682 -0.074134 37.531090 25 19 17
10.403857 0.006796 37.672947 26 19 18
10.443873 0.088344 37.817852 26 19 19
10.484461 0.170527 37.964817 26 19 19
10.525348 0.253350 38.112869 26 19 18
10.566273 0.336814 38.261063 27 18 18
10.606982 0.420907 38.408474 28 18 18
10.647238 0.505614 38.554241 28 18 18
10.686816 0.590913 38.697559 29 18 18
10.725516 0.676773 38.837692 29 18 18
10.763157 0.763163 38.973991 30 18 19
10.799582 0.850045 39.105892 32 18 19
10.834666 0.937380 39.232933 34 18 20
10.868310 1.025126 39.354759 37 18 21
10.900441 1.113243 39.471107 42 17 21
10.931020 1.201691 39.581833 47 17 22
10.960034 1.290432 39.686893 53 17 23
10.987497 1.379432 39.786343 60 17 25
11.013452 1.468659 39.880322 68 17 27
11.037953 1.558086 39.969044 77 18 29
11.061076 1.647690 40.052776 86 19 31
11.082907 1.737453 40.131824 94 21 31
11.103537 1.827359 40.206528 106 25 34
11.123059 1.917396 40.277218 130 45 50
11.141565 2.007555 40.344231 153 63 63
11.159138 2.097826 40.407860 149 57 54
11.175849 2.188204 40.468372 140 46 43
11.191758 2.278680 40.525982 144 49 47
11.206909 2.369243 40.580845 148 56 56
11.221334 2.459884 40.633076 149 59 63
11.235043 2.550587 40.682716 150 64 73
11.248035 2.641336 40.729767 152 72 84
11.260299 2.732111 40.774170 147 74 91
11.271812 2.822890 40.815861 144 78 99
11.282538 2.913646 40.854702 146 86 111
11.292443 3.004349 40.890568 142 86 114
11.301478 3.094970 40.923286 144 91 122
11.309608 3.185477 40.952721 159 106 138
11.316783 3.275834 40.978703 162 109 141
11.322968 3.366009 41.001102 168 114 143
11.328127 3.455967 41.019779 197 139 165
11.332232 3.545677 41.034645 221 160 183
11.335260 3.635105 41.045612 219 153 175
11.337197 3.724221 41.052628 194 123 147
11.338036 3.812999 41.055660 167 93 120
11.337775 3.901412 41.054718 152 76 105
11.336422 3.989435 41.049816 147 70 100
11.333988 4.077050 41.041004 146 71 100
11.330493 4.164236 41.028351 150 76 103
11.325959 4.250978 41.011932 154 84 106
11.320417 4.337262 40.991863 158 92 109
11.313898 4.423078 40.968258 163 99 113
11.306440 4.508418 40.941254 170 111 122
11.298085 4.593277 40.910999 187 130 140
11.288880 4.677653 40.877666 205 151 160
11.278876 4.761548 40.841442 208 158 167
11.268128 4.844967 40.802525 198 150 161
11.256699 4.927920 40.761135 189 142 154
11.244650 5.010418 40.717506 182 134 149
11.232051 5.092479 40.671886 176 129 144
11.218976 5.174124 40.624538 178 129 146
11.205500 5.255376 40.575741 177 125 145
11.191700 5.336264 40.525768 160 106 126
11.177652 5.416817 40.474907 141 84 105
11.163437 5.497067 40.423428 142 84 103
11.149129 5.577049 40.371616 160 101 116
11.134802 5.656798 40.319740 178 119 131
11.120523 5.736349 40.268036 195 137 145
