ply
format ascii 1.0
element vertex 1186
property float x
property float y
property float z
property uchar red
property uchar green
property uchar blue
end_header
1.307508 -0.189610 30.160997 254 254 254
1.306248 -0.124473 30.131929 252 253 252
1.305055 -0.059465 30.104408 249 251 249
1.303925 0.005426 30.078360 251 253 251
1.302856 0.070207 30.053690 252 254 252
1.301841 0.134887 30.030281 253 254 252
1.300876 0.199474 30.008009 254 254 253
1.299953 0.263974 29.986723 254 254 254
1.299066 0.328391 29.966261 253 253 253
1.298206 0.392728 29.946440 252 252 252
1.297367 0.456987 29.927082 253 254 253
1.296540 0.521167 29.907995 254 254 254
1.295716 0.585267 29.888994 254 254 254
1.294888 0.649282 29.869884 254 254 254
1.294047 0.713208 29.850498 254 254 254
1.293187 0.777039 29.830662 252 252 252
1.292302 0.840768 29.810230 252 252 252
1.291384 0.904386 29.789068 254 254 254
1.290431 0.967886 29.767073 254 254 254
1.289437 1.031259 29.744152 254 254 254
1.288401 1.094498 29.720255 254 254 254
1.287321 1.157593 29.695349 254 254 254
1.286198 1.220541 29.669436 254 254 254
1.285032 1.283334 29.642538 254 254 254
1.283826 1.345968 29.614721 254 254 254
1.282584 1.408444 29.586061 254 254 254
1.281310 1.470759 29.556671 254 254 254
1.280010 1.532916 29.526682 254 254 254
1.278690 1.594919 29.496239 254 254 254
1.277357 1.656775 29.465506 254 254 254
1.276020 1.718492 29.434652 253 254 253
1.274685 1.780079 29.403860 253 254 252
1.273360 1.841548 29.373301 254 254 253
1.272053 1.902911 29.343143 254 254 254
1.270770 1.964182 29.313559 255 255 255
1.269519 2.025376 29.284685 254 254 254
1.268304 2.086505 29.256657 254 254 254
1.267130 2.147583 29.229582 254 254 254
1.266002 2.208623 29.203552 254 254 254
1.264921 2.269639 29.178637 254 254 254
1.263891 2.330638 29.154873 254 254 254
1.262912 2.391631 29.132275 254 254 254
1.261982 2.452624 29.110840 254 254 254
1.261102 2.513623 29.090534 252 252 252
1.260268 2.574629 29.071299 249 249 249
1.259477 2.635641 29.053053 251 251 250
1.258725 2.696658 29.035694 250 251 250
1.258005 2.757672 29.019100 247 247 246
1.257313 2.818675 29.003128 250 250 249
1.256641 2.879656 28.987619 254 254 254
1.255981 2.940599 28.972404 254 254 254
1.255327 3.001489 28.957310 254 254 254
1.254670 3.062308 28.942158 254 254 254
1.254003 3.123036 28.926769 254 254 254
1.253318 3.183654 28.910978 254 254 254
1.252610 3.244141 28.894636 254 254 254
1.251872 3.304480 28.877609 254 254 254
1.251099 3.364653 28.859791 254 254 254
1.250289 3.424647 28.841112 254 254 254
1.249440 3.484451 28.821527 254 254 254
1.248552 3.544059 28.801041 254 254 254
1.247626 3.603471 28.779682 254 254 254
1.246666 3.662690 28.757540 255 255 255
1.245677 3.721726 28.734724 254 254 254
1.244666 3.780598 28.711403 254 254 254
1.243641 3.839326 28.687761 254 254 254
1.242613 3.897940 28.664034 254 254 254
1.241592 3.956476 28.640474 254 254 254
1.240589 4.014972 28.617359 254 254 254
1.239620 4.073474 28.594988 254 254 254
1.238695 4.132032 28.573662 254 252 252
1.237829 4.190696 28.553692 254 251 251
1.237035 4.249520 28.535374 254 249 250
1.236326 4.308559 28.518999 254 247 250
1.235711 4.367864 28.504824 254 247 250
1.235202 4.427485 28.493076 254 244 248
1.234806 4.487470 28.483952 254 241 245
1.234530 4.547854 28.477583 254 241 246
1.234377 4.608672 28.474058 254 243 248
1.234349 4.669944 28.473398 254 242 248
1.234442 4.731682 28.475559 254 240 246
1.234653 4.793886 28.480431 254 236 243
1.234975 4.856544 28.487843 254 233 240
1.235395 4.919629 28.497545 254 231 239
1.235902 4.983104 28.509241 254 231 240
1.236481 5.046920 28.522577 254 231 241
1.237113 5.111017 28.537159 254 230 242
1.237780 5.175323 28.552546 255 228 241
1.238462 5.239760 28.568293 254 228 240
1.239140 5.304246 28.583931 254 229 241
1.239794 5.368694 28.599012 254 233 245
1.240405 5.433018 28.613096 254 237 248
1.240955 5.497134 28.625780 254 239 250
1.241428 5.560964 28.636707 254 239 249
1.241812 5.624435 28.645571 254 238 249
1.242097 5.687488 28.652134 254 238 249
1.242275 5.750075 28.656237 254 237 249
1.242341 5.812160 28.657772 254 236 249
1.242297 5.873725 28.656738 254 234 246
1.242142 5.934762 28.653181 254 230 244
1.241885 5.995285 28.647234 254 226 241
1.241531 6.055314 28.639080 254 223 239
1.241093 6.114890 28.628963 254 218 236
1.240582 6.174062 28.617182 254 210 231
1.240012 6.232887 28.604038 254 196 219
1.239398 6.291433 28.589886 254 176 202
1.238756 6.349770 28.575062 254 162 190
1.238099 6.407970 28.559919 254 162 190
1.237443 6.466107 28.544785 254 171 199
1.236802 6.524255 28.529982 254 179 206
1.236187 6.582481 28.515795 254 183 207
1.235609 6.640850 28.502481 250 180 201
1.235080 6.699419 28.490265 236 171 188
1.234606 6.758241 28.479336 220 166 177
1.234195 6.817361 28.469852 218 177 184
1.233852 6.876820 28.461935 230 202 207
1.233581 6.936652 28.455688 245 228 231
1.233386 6.996884 28.451181 251 243 244
1.233268 7.057545 28.448479 251 247 248
1.233231 7.118657 28.447628 254 251 251
1.459846 -4.074263 32.079865 254 143 174
1.458679 -4.001909 32.054237 255 146 178
1.457584 -3.929858 32.030167 254 145 177
1.456554 -3.858084 32.007530 254 141 174
1.455583 -3.786559 31.986185 254 141 173
1.454662 -3.715256 31.965950 254 142 175
1.453783 -3.644145 31.946642 254 146 179
1.452937 -3.573200 31.928057 254 150 184
1.452115 -3.502391 31.909992 254 152 187
1.451307 -3.431693 31.892235 254 154 191
1.450504 -3.361083 31.874588 254 161 200
1.449697 -3.290540 31.856848 254 171 211
1.448877 -3.220045 31.838837 254 173 214
1.448037 -3.149585 31.820377 254 159 202
1.447170 -3.079145 31.801315 254 141 184
1.446269 -3.008717 31.781509 254 132 174
1.445327 -2.938293 31.760826 254 132 172
1.444341 -2.867869 31.739147 254 138 177
1.443304 -2.797441 31.716368 254 148 182
1.442213 -2.727008 31.692390 254 149 178
1.441064 -2.656570 31.667128 254 143 168
1.439851 -2.586129 31.640484 254 153 175
1.438572 -2.515686 31.612373 254 182 202
1.437222 -2.445244 31.582722 254 205 225
1.435799 -2.374809 31.551447 254 214 233
1.434299 -2.304384 31.518478 254 220 238
1.432719 -2.233977 31.483753 254 224 242
1.431056 -2.163595 31.447224 254 223 239
1.429311 -2.093249 31.408859 251 210 227
1.427481 -2.022949 31.368654 244 184 204
1.425568 -1.952709 31.326624 241 171 193
1.423575 -1.882543 31.282822 246 184 206
1.421505 -1.812469 31.237329 250 208 226
1.419363 -1.742502 31.190266 248 217 232
1.417157 -1.672662 31.141783 242 196 212
1.414894 -1.602968 31.092062 216 135 154
1.412585 -1.533437 31.041319 189 85 105
1.410240 -1.464087 30.989780 206 117 135
1.407870 -1.394936 30.937702 240 182 199
1.405487 -1.325996 30.885334 253 205 220
1.403102 -1.257281 30.832939 254 199 210
1.400728 -1.188800 30.780756 254 197 204
1.398374 -1.120561 30.729034 253 207 210
1.396051 -1.052569 30.677990 253 222 223
1.393768 -0.984824 30.627823 254 235 234
1.391533 -0.917327 30.578707 253 243 241
1.389353 -0.850076 30.530806 248 244 240
1.387234 -0.783066 30.484241 245 243 240
1.385182 -0.716291 30.439137 248 248 245
1.383199 -0.649743 30.395575 253 253 252
1.381291 -0.583414 30.353634 253 253 253
1.379459 -0.517295 30.313375 251 252 251
1.377706 -0.451375 30.274847 250 251 250
1.376032 -0.385644 30.238073 251 253 253
1.374439 -0.320090 30.203075 254 254 253
1.372928 -0.254702 30.169851 254 254 253
1.371496 -0.189468 30.138390 254 254 253
1.370142 -0.124377 30.108648 251 252 251
1.368865 -0.059418 30.080580 249 251 249
1.367660 0.005421 30.054102 251 253 251
1.366523 0.070149 30.029119 252 254 252
1.365449 0.134776 30.005505 251 253 252
1.364430 0.199309 29.983124 253 254 253
1.363460 0.263755 29.961809 254 254 254
1.362531 0.328119 29.941389 253 253 253
1.361633 0.392403 29.921661 253 253 253
1.360758 0.456611 29.902435 253 254 253
1.359897 0.520741 29.883503 254 254 254
1.359039 0.584790 29.864660 254 255 254
1.358177 0.648757 29.845705 254 254 254
1.357300 0.712634 29.826448 254 254 254
1.356402 0.776415 29.806711 253 253 253
1.355475 0.840094 29.786337 252 252 252
1.354512 0.903661 29.765181 253 253 253
1.353509 0.967108 29.743134 254 254 254
1.352461 1.030425 29.720104 254 254 254
1.351365 1.093605 29.696028 254 254 254
1.350221 1.156640 29.670879 254 254 254
1.349028 1.219521 29.644655 254 254 254
1.347787 1.282245 29.617386 254 254 254
1.346501 1.344805 29.589130 252 252 252
1.345174 1.407202 29.559975 252 252 252
1.343812 1.469433 29.530035 254 254 254
1.342420 1.531502 29.499443 254 254 254
1.341005 1.593412 29.468357 254 254 254
1.339575 1.655169 29.436939 254 254 254
1.338139 1.716782 29.405375 252 253 252
1.336704 1.778262 29.373844 252 253 251
1.335279 1.839619 29.342533 253 253 252
1.333872 1.900867 29.311621 254 254 254
1.332492 1.962019 29.281277 254 254 254
1.331144 2.023092 29.251657 254 254 254
1.329835 2.084097 29.222900 254 254 254
1.328571 2.145051 29.195127 254 254 254
1.327357 2.205968 29.168438 254 254 254
1.326195 2.266859 29.142906 254 254 254
1.325088 2.327737 29.118582 254 254 254
1.324037 2.388611 29.095490 254 254 254
1.323042 2.449490 29.073631 254 254 254
1.322103 2.510378 29.052980 254 254 254
1.321216 2.571280 29.033491 253 253 253
1.320378 2.632197 29.015085 254 254 253
1.319586 2.693127 28.997671 253 253 253
1.318833 2.754063 28.981125 251 251 251
1.318113 2.815001 28.965321 252 252 252
1.317420 2.875928 28.950092 254 254 254
1.316747 2.936832 28.935289 254 254 254
1.316084 2.997697 28.920729 254 254 254
1.315425 3.058507 28.906237 254 254 254
1.314761 3.119244 28.891644 254 254 254
1.314084 3.179888 28.876780 254 254 254
1.313388 3.240420 28.861490 254 254 254
1.312668 3.300823 28.845652 254 254 254
1.311917 3.361081 28.829151 254 254 254
1.311132 3.421180 28.811911 254 254 254
1.310312 3.481110 28.793890 254 254 254
1.309456 3.540866 28.775085 254 254 254
1.308566 3.600446 28.755526 254 254 254
1.307646 3.659856 28.735292 254 254 254
1.306699 3.719106 28.714495 254 254 254
1.305734 3.778213 28.693293 254 254 254
1.304760 3.837199 28.671873 255 255 255
1.303786 3.896096 28.650471 254 254 254
1.302824 3.954936 28.629328 254 254 254
1.301886 4.013761 28.608725 254 254 254
1.300986 4.072616 28.588959 254 253 253
1.300139 4.131549 28.570326 254 251 251
1.299356 4.190613 28.553129 254 249 250
1.298652 4.249861 28.537664 254 247 250
1.298040 4.309346 28.524210 255 245 249
1.297531 4.369120 28.513021 254 243 248
1.297134 4.429231 28.504309 254 242 247
1.296859 4.489722 28.498251 254 241 247
1.296709 4.550631 28.494968 254 241 247
1.296689 4.611985 28.494528 254 242 247
1.296798 4.673803 28.496927 254 243 249
1.297034 4.736094 28.502108 254 242 248
1.297390 4.798851 28.509926 254 236 243
1.297857 4.862058 28.520189 254 231 238
1.298423 4.925685 28.532629 254 231 238
1.299073 4.989689 28.546917 255 232 241
1.299791 5.054016 28.562679 254 233 243
1.300556 5.118600 28.579502 254 232 243
1.301349 5.183366 28.596926 254 228 239
1.302148 5.248232 28.614485 254 224 236
1.302932 5.313111 28.631704 254 226 237
1.303679 5.377913 28.648121 254 231 242
1.304369 5.442549 28.663290 254 236 247
1.304984 5.506934 28.676809 254 237 248
1.305508 5.570985 28.688314 254 235 246
1.305926 5.634632 28.697504 254 234 245
1.306229 5.697814 28.704153 254 233 245
1.306408 5.760482 28.708099 254 232 244
1.306461 5.822604 28.709265 254 230 243
1.306388 5.884160 28.707649 254 226 240
1.306191 5.945148 28.703325 254 222 237
1.305878 6.005582 28.696440 254 217 233
1.305458 6.065491 28.687210 254 213 230
1.304943 6.124914 28.675896 254 207 227
1.304348 6.183909 28.662825 254 200 222
1.303688 6.242538 28.648331 254 191 215
1.302981 6.300874 28.632786 254 181 206
1.302243 6.358992 28.616564 254 173 199
1.301491 6.416971 28.600035 254 172 198
1.300741 6.474891 28.583559 254 176 201
1.300009 6.532828 28.567471 254 179 203
1.299308 6.590857 28.552076 252 181 202
1.298651 6.649043 28.537645 242 174 193
1.298049 6.707448 28.524410 222 160 175
1.297510 6.766127 28.512569 206 154 166
1.297042 6.825127 28.502281 216 176 184
1.296650 6.884486 28.493664 239 211 216
1.296338 6.944237 28.486805 252 236 239
1.296109 7.004408 28.481773 254 247 249
1.295965 7.065022 28.478619 254 251 252
1.295908 7.126098 28.477362 254 253 253
1.524677 -4.062745 31.989178 254 140 171
1.523473 -3.990634 31.963926 254 144 176
1.522360 -3.918865 31.940571 254 142 174
1.521332 -3.847412 31.919001 254 137 169
1.520382 -3.776247 31.899076 254 136 167
1.519503 -3.705340 31.880634 254 140 172
1.518686 -3.634660 31.863483 254 146 178
1.517920 -3.564175 31.847416 254 151 184
1.517195 -3.493854 31.832212 254 151 186
1.516501 -3.423666 31.817636 254 150 187
1.515825 -3.353583 31.803465 254 154 192
1.515158 -3.283579 31.789459 254 159 198
1.514488 -3.213630 31.775402 254 157 198
1.513805 -3.143715 31.761074 254 146 188
1.513099 -3.073815 31.746271 254 139 182
1.512362 -3.003917 31.730801 254 142 186
1.511584 -2.934006 31.714487 254 144 188
1.510758 -2.864075 31.697157 254 140 183
1.509877 -2.794115 31.678665 254 140 179
1.508933 -2.724123 31.658867 254 137 172
1.507921 -2.654096 31.637630 254 128 159
1.506835 -2.584032 31.614830 254 131 159
1.505668 -2.513933 31.590347 254 152 178
1.504416 -2.443801 31.564079 254 174 199
1.503074 -2.373641 31.535931 254 189 214
1.501638 -2.303458 31.505808 254 200 225
1.500105 -2.233259 31.473644 254 199 224
1.498472 -2.163056 31.439384 254 186 212
1.496738 -2.092858 31.402996 252 166 194
1.494902 -2.022680 31.364475 247 145 176
1.492966 -1.952536 31.323849 245 137 170
1.490931 -1.882444 31.281168 249 156 188
1.488804 -1.812422 31.236532 253 191 220
1.486589 -1.742491 31.190065 253 202 228
1.484295 -1.672670 31.141937 241 159 182
1.481931 -1.602982 31.092337 214 95 117
1.479508 -1.533446 31.041496 206 80 101
1.477037 -1.464082 30.989656 229 130 149
1.474531 -1.394908 30.937080 250 181 199
1.472003 -1.325941 30.884041 254 194 209
1.469466 -1.257194 30.830809 254 190 202
1.466932 -1.188680 30.777643 254 190 199
1.464414 -1.120407 30.724804 254 200 206
1.461922 -1.052381 30.672529 253 216 220
1.459468 -0.984606 30.621035 254 230 232
1.457060 -0.917082 30.570518 254 240 240
1.454708 -0.849808 30.521154 251 241 239
1.452417 -0.782780 30.473097 247 239 236
1.450195 -0.715993 30.426481 248 244 241
1.448047 -0.649441 30.381416 252 251 249
1.445978 -0.583114 30.338003 253 252 252
1.443992 -0.517004 30.296324 251 250 248
1.442091 -0.451101 30.256441 250 249 248
1.440277 -0.385393 30.218399 251 252 252
1.438554 -0.319869 30.182234 254 254 253
1.436920 -0.254517 30.147955 254 254 253
1.435376 -0.189325 30.115561 253 254 253
1.433920 -0.124279 30.085012 250 251 249
1.432550 -0.059370 30.056267 247 249 247
1.431262 0.005417 30.029240 250 252 250
1.430050 0.070090 30.003828 250 253 251
1.428910 0.134661 29.979902 250 252 250
1.427834 0.199137 29.957314 253 253 252
1.426812 0.263527 29.935884 253 254 253
1.425837 0.327834 29.915424 253 253 253
1.424898 0.392063 29.895721 253 253 253
1.423985 0.456216 29.876570 253 254 253
1.423088 0.520292 29.857740 254 254 254
1.422195 0.584288 29.839016 254 254 254
1.421297 0.648202 29.820181 254 254 254
1.420385 0.712026 29.801035 254 254 254
1.419448 0.775756 29.781384 253 253 253
1.418480 0.839381 29.761063 252 252 252
1.417472 0.902894 29.739918 253 253 253
1.416419 0.966285 29.717834 254 254 254
1.415317 1.029545 29.694710 254 254 254
1.414163 1.092665 29.670490 254 254 254
1.412954 1.155636 29.645134 254 254 254
1.411692 1.218451 29.618647 254 254 254
1.410377 1.281105 29.591053 253 253 253
1.409012 1.343591 29.562420 250 250 250
1.407602 1.405910 29.532833 249 249 249
1.406152 1.468059 29.502417 252 252 252
1.404669 1.530041 29.471300 254 254 254
1.403161 1.591860 29.439650 254 254 254
1.401635 1.653521 29.407637 254 254 254
1.400100 1.715035 29.375448 253 254 253
1.398567 1.776411 29.343275 252 252 251
1.397044 1.837661 29.311310 252 253 252
1.395539 1.898799 29.279736 254 254 254
1.394061 1.959839 29.248735 254 254 254
1.392618 2.020796 29.218468 254 254 254
1.391218 2.081686 29.189083 254 254 254
1.389866 2.142523 29.160711 254 254 254
1.388567 2.203322 29.133459 254 254 254
1.387325 2.264098 29.107409 254 254 254
1.386144 2.324862 29.082621 254 254 254
1.385024 2.385626 29.059124 254 254 254
1.383966 2.446397 29.036930 254 254 254
1.382969 2.507185 29.016024 254 254 254
1.382032 2.567992 28.996361 254 254 254
1.381151 2.628821 28.977873 255 255 255
1.380322 2.689672 28.960476 254 254 254
1.379539 2.750540 28.944050 254 254 254
1.378797 2.811420 28.928474 254 254 254
1.378088 2.872302 28.913593 254 254 254
1.377404 2.933174 28.899250 254 254 254
1.376738 2.994022 28.885275 254 254 254
1.376081 3.054832 28.871498 254 254 254
1.375425 3.115583 28.857737 253 253 253
1.374763 3.176260 28.843834 253 253 253
1.374086 3.236843 28.829636 254 254 254
1.373389 3.297317 28.815014 253 253 253
1.372666 3.357664 28.799847 251 251 251
1.371914 3.417874 28.784069 253 253 253
1.371130 3.477934 28.767624 254 254 254
1.370314 3.537841 28.750509 254 254 254
1.369468 3.597594 28.732752 254 254 254
1.368595 3.657198 28.714424 254 254 254
1.367699 3.716664 28.695639 254 254 254
1.366789 3.776008 28.676550 254 254 254
1.365874 3.835255 28.657347 254 254 254
1.364964 3.894434 28.638250 254 254 254
1.364071 3.953580 28.619511 254 254 254
1.363208 4.012734 28.601412 254 254 254
1.362389 4.071942 28.584234 254 253 253
1.361629 4.131254 28.568285 254 248 249
1.360942 4.190721 28.553860 254 245 249
1.360341 4.250395 28.541252 254 244 250
1.359839 4.310331 28.530727 254 241 249
1.359449 4.370578 28.522537 254 239 247
1.359179 4.431185 28.516882 254 238 247
1.359038 4.492192 28.513927 254 238 246
1.359031 4.553634 28.513773 254 237 244
1.359160 4.615537 28.516472 254 235 242
1.359423 4.677915 28.521996 254 236 242
1.359817 4.740772 28.530262 254 235 241
1.360334 4.804100 28.541111 254 230 236
1.360963 4.867876 28.554316 254 226 232
1.361691 4.932065 28.569584 254 228 235
1.362501 4.996620 28.586565 254 234 241
1.363373 5.061481 28.604866 254 238 245
1.364286 5.126576 28.624035 254 236 244
1.365219 5.191827 28.643604 255 228 237
1.366148 5.257147 28.663092 254 222 232
1.367049 5.322445 28.682003 254 225 234
1.367901 5.387627 28.699867 254 232 241
1.368681 5.452601 28.716230 254 237 245
1.369369 5.517278 28.730679 254 235 245
1.369949 5.581576 28.742851 254 230 242
1.370407 5.645421 28.752453 254 227 239
1.370731 5.708752 28.759256 255 226 239
1.370915 5.771521 28.763109 254 225 239
1.370955 5.833694 28.763947 255 222 236
1.370852 5.895255 28.761776 254 216 232
1.370609 5.956203 28.756697 254 211 228
1.370236 6.016555 28.748871 254 207 225
1.369744 6.076343 28.738537 254 202 222
1.369146 6.135612 28.725983 254 197 219
1.368458 6.194422 28.711554 254 191 214
1.367698 6.252843 28.695621 254 186 211
1.366886 6.310951 28.678577 254 181 207
1.366040 6.368829 28.660831 254 176 202
1.365179 6.426559 28.642771 252 172 198
1.364322 6.484230 28.624790 250 170 195
1.363486 6.541921 28.607235 248 169 192
1.362685 6.599712 28.590441 241 168 187
1.361934 6.657673 28.574686 225 160 176
1.361245 6.715869 28.560221 204 148 161
1.360627 6.774357 28.547251 197 150 161
1.360087 6.833185 28.535931 216 181 189
1.359632 6.892392 28.526384 243 218 223
1.359266 6.952012 28.518698 253 238 241
1.358991 7.012068 28.512924 254 247 249
1.358809 7.072585 28.509104 254 251 252
1.358720 7.133577 28.507250 254 253 253
1.589297 -4.051685 31.902098 254 138 169
1.588045 -3.979779 31.876978 254 141 173
1.586903 -3.908252 31.854063 254 141 172
1.585867 -3.837077 31.833256 254 137 168
1.584930 -3.766228 31.814440 254 135 166
1.584083 -3.695672 31.797453 254 139 171
1.583319 -3.625378 31.782112 254 145 178
1.582626 -3.555309 31.768200 254 147 181
1.581993 -3.485433 31.755491 254 145 181
1.581407 -3.415714 31.743734 254 145 181
1.580856 -3.346119 31.732676 254 146 184
1.580327 -3.276617 31.722057 254 146 186
1.579807 -3.207179 31.711620 254 142 184
1.579284 -3.137779 31.701111 254 135 178
1.578744 -3.068394 31.690281 254 136 181
1.578177 -2.999002 31.678892 254 151 196
1.577571 -2.929588 31.666725 254 158 203
1.576915 -2.860136 31.653563 254 145 189
1.576200 -2.790635 31.639208 254 132 174
1.575416 -2.721078 31.623476 254 126 163
1.574555 -2.651459 31.606194 254 121 154
1.573609 -2.581774 31.587200 254 120 150
1.572570 -2.512023 31.566351 254 129 157
1.571432 -2.442208 31.543505 254 146 173
1.570189 -2.372332 31.518547 254 165 193
1.568835 -2.302402 31.491371 255 178 206
1.567366 -2.232425 31.461891 254 173 203
1.565780 -2.162413 31.430044 254 153 185
1.564073 -2.092378 31.395792 254 133 169
1.562247 -2.022335 31.359133 252 123 162
1.560302 -1.952302 31.320091 252 122 165
1.558241 -1.882297 31.278727 253 133 177
1.556070 -1.812341 31.235140 254 156 197
1.553795 -1.742457 31.189465 253 159 196
1.551424 -1.672667 31.141876 246 123 155
1.548968 -1.602994 31.092579 236 90 116
1.546439 -1.533461 31.041811 237 97 119
1.543849 -1.464090 30.989826 247 138 157
1.541212 -1.394900 30.936899 254 174 191
1.538543 -1.325909 30.883310 254 187 201
1.535854 -1.257135 30.829351 254 189 201
1.533161 -1.188589 30.775288 254 189 198
1.530477 -1.120283 30.721401 254 195 202
1.527813 -1.052224 30.667942 254 209 216
1.525183 -0.984417 30.615147 254 225 229
1.522597 -0.916863 30.563229 254 235 237
1.520064 -0.849564 30.512390 253 238 238
1.517594 -0.782515 30.462803 251 239 237
1.515194 -0.715714 30.414625 251 242 240
1.512870 -0.649154 30.367990 253 247 246
1.510630 -0.582826 30.323023 253 249 247
1.508478 -0.516723 30.279825 251 248 246
1.506419 -0.450833 30.238483 251 248 247
1.504455 -0.385147 30.199062 252 251 250
1.502589 -0.319651 30.161612 253 253 251
1.500823 -0.254333 30.126156 253 254 251
1.499156 -0.189181 30.092703 251 253 251
1.497588 -0.124181 30.061228 248 250 248
1.496116 -0.059321 30.031683 246 248 245
1.494737 0.005412 30.003986 247 249 247
1.493444 0.070030 29.978035 250 252 250
1.492231 0.134543 29.953690 251 253 251
1.491090 0.198961 29.930792 253 254 253
1.490012 0.263291 29.909153 253 254 253
1.488987 0.327540 29.888569 253 254 254
1.488003 0.391710 29.868816 254 254 254
1.487049 0.455805 29.849667 254 254 254
1.486113 0.519824 29.830883 254 254 254
1.485184 0.583764 29.812231 254 254 254
1.484249 0.647621 29.793478 254 254 254
1.483300 0.711390 29.774410 251 251 251
1.482324 0.775064 29.754829 251 251 251
1.481314 0.838633 29.734550 252 252 252
1.480261 0.902089 29.713415 253 253 253
1.479159 0.965423 29.691305 254 254 254
1.478004 1.028623 29.668112 255 255 255
1.476791 1.091681 29.643772 254 254 254
1.475520 1.154588 29.618250 254 254 254
1.474190 1.217337 29.591547 254 254 254
1.472802 1.279920 29.563690 253 253 253
1.471360 1.342334 29.534746 250 250 250
1.469868 1.404575 29.504801 249 249 249
1.468333 1.466644 29.473984 250 251 251
1.466761 1.528542 29.442432 253 254 254
1.465161 1.590273 29.410313 254 254 254
1.463541 1.651844 29.377800 254 254 254
1.461912 1.713263 29.345093 254 254 254
1.460282 1.774541 29.312386 253 253 253
1.458663 1.835690 29.279873 253 253 253
1.457062 1.896725 29.247749 254 254 254
1.455491 1.957659 29.216208 254 254 254
1.453957 2.018509 29.185408 254 254 254
1.452467 2.079291 29.155510 254 254 254
1.451029 2.140020 29.126650 254 254 254
1.449649 2.200712 29.098946 254 254 254
1.448331 2.261382 29.072489 255 255 255
1.447078 2.322042 29.047338 254 254 254
1.445893 2.382704 29.023540 255 255 255
1.444775 2.443380 29.001112 254 254 254
1.443726 2.504075 28.980038 254 254 254
1.442742 2.564798 28.960289 254 254 254
1.441821 2.625549 28.941803 254 254 254
1.440959 2.686331 28.924498 254 254 254
1.440150 2.747139 28.908260 254 254 254
1.439388 2.807970 28.892979 254 254 254
1.438667 2.868815 28.878498 254 254 254
1.437978 2.929664 28.864664 254 254 254
1.437313 2.990503 28.851318 254 254 254
1.436664 3.051318 28.838287 254 254 254
1.436021 3.112091 28.825392 253 253 253
1.435378 3.172807 28.812477 254 254 254
1.434726 3.233447 28.799387 254 254 254
1.434058 3.293996 28.785988 249 249 249
1.433370 3.354437 28.772165 245 245 245
1.432656 3.414760 28.757845 250 250 250
1.431915 3.474953 28.742970 254 254 254
1.431146 3.535014 28.727533 254 254 254
1.430350 3.594940 28.711554 254 254 254
1.429531 3.654738 28.695110 254 254 254
1.428694 3.714419 28.678307 254 254 254
1.427847 3.774000 28.661299 254 254 254
1.426998 3.833505 28.644268 252 253 253
1.426160 3.892964 28.627441 252 252 252
1.425344 3.952413 28.611065 253 254 254
1.424565 4.011894 28.595419 254 254 254
1.423836 4.071453 28.580795 254 252 253
1.423173 4.131139 28.567488 254 246 248
1.422591 4.191004 28.555794 254 241 246
1.422103 4.251103 28.546005 254 240 248
1.421723 4.311488 28.538385 254 239 249
1.421464 4.372209 28.533175 254 237 248
1.421334 4.433311 28.530563 254 236 247
1.421341 4.494835 28.530704 254 232 242
1.421489 4.556813 28.533684 253 222 232
1.421780 4.619269 28.539534 250 214 222
1.422213 4.682213 28.548206 250 213 220
1.422780 4.745646 28.559597 252 216 222
1.423474 4.809555 28.573519 252 216 221
1.424281 4.873911 28.589722 252 217 222
1.425186 4.938677 28.607883 253 225 230
1.426170 5.003798 28.627632 254 235 240
1.427211 5.069210 28.648546 254 241 246
1.428288 5.134837 28.670156 254 239 245
1.429375 5.200593 28.691969 254 231 238
1.430446 5.266389 28.713482 254 229 236
1.431478 5.332129 28.734192 254 232 239
1.432445 5.397715 28.753605 254 236 244
1.433325 5.463051 28.771267 254 238 246
1.434097 5.528047 28.786753 254 232 241
1.434741 5.592615 28.799700 254 222 233
1.435245 5.656683 28.809811 254 218 231
1.435597 5.720187 28.816864 254 219 233
1.435788 5.783079 28.820713 254 217 232
1.435817 5.845325 28.821297 254 214 229
1.435685 5.906910 28.818644 254 207 223
1.435397 5.967835 28.812859 254 202 218
1.434962 6.028120 28.804131 254 198 217
1.434393 6.087796 28.792707 254 194 215
1.433706 6.146917 28.778912 254 188 211
1.432918 6.205545 28.763107 254 181 206
1.432051 6.263753 28.745691 254 177 204
1.431124 6.321626 28.727089 254 174 200
1.430160 6.379249 28.707727 252 169 195
1.429178 6.436714 28.688028 247 164 188
1.428201 6.494111 28.668406 240 160 183
1.427246 6.551528 28.649242 234 158 178
1.426331 6.609046 28.630878 223 155 172
1.425471 6.666744 28.613619 207 148 161
1.424680 6.724689 28.597729 191 142 152
1.423967 6.782939 28.583418 194 154 163
1.423341 6.841548 28.570856 220 190 196
1.422808 6.900555 28.560167 246 225 230
1.422373 6.959991 28.551430 254 242 245
1.422038 7.019884 28.544704 254 249 250
1.421804 7.080253 28.540012 253 251 252
1.421672 7.141111 28.537359 252 251 251
1.421641 7.202471 28.536737 253 252 252
1.653740 -4.041113 31.818855 254 138 168
1.652429 -3.969374 31.793634 255 141 171
1.651248 -3.898047 31.770893 254 143 173
1.650191 -3.827109 31.750563 254 140 171
1.649254 -3.756532 31.732536 254 139 170
1.648429 -3.686282 31.716663 254 142 175
1.647707 -3.616327 31.702768 254 146 179
1.647076 -3.546629 31.690636 254 145 179
1.646525 -3.477150 31.680031 254 144 178
1.646040 -3.407854 31.670694 254 144 179
1.645606 -3.338704 31.662355 254 145 181
1.645210 -3.269662 31.654728 254 145 182
1.644836 -3.200697 31.647528 254 143 182
1.644469 -3.131777 31.640469 254 140 181
1.644094 -3.062873 31.633265 254 143 186
1.643698 -2.993961 31.625639 254 160 204
1.643266 -2.925018 31.617329 254 169 212
1.642785 -2.856025 31.608074 254 157 199
1.642243 -2.786969 31.597641 254 140 179
1.641627 -2.717836 31.585798 254 134 170
1.640928 -2.648618 31.572334 254 135 168
1.640134 -2.579310 31.557056 254 131 162
1.639236 -2.509909 31.539783 254 125 154
1.638226 -2.440415 31.520346 254 133 163
1.637096 -2.370831 31.498606 254 152 182
1.635839 -2.301164 31.474432 254 163 193
1.634451 -2.231421 31.447727 254 159 192
1.632928 -2.161613 31.418415 254 143 180
1.631267 -2.091755 31.386452 254 124 165
1.629467 -2.021863 31.351822 254 116 162
1.627530 -1.951956 31.314552 254 119 169
1.625459 -1.882054 31.274700 254 123 174
1.623259 -1.812181 31.232372 254 125 172
1.620937 -1.742359 31.187702 254 119 162
1.618503 -1.672613 31.140873 253 108 145
1.615968 -1.602969 31.092094 253 105 134
1.613344 -1.533451 31.041607 254 114 137
1.610645 -1.464082 30.989674 254 141 159
1.607885 -1.394885 30.936581 254 170 187
1.605081 -1.325880 30.882618 254 189 204
1.602246 -1.257083 30.828083 254 197 209
1.599397 -1.188511 30.773260 254 194 203
1.596548 -1.120175 30.718441 254 194 202
1.593713 -1.052085 30.663893 254 207 214
1.590905 -0.984247 30.609869 254 221 226
1.588137 -0.916664 30.556606 254 230 234
1.585419 -0.849339 30.504324 254 236 237
1.582763 -0.782269 30.453218 254 237 237
1.580178 -0.715452 30.403469 254 238 238
1.577671 -0.648881 30.355240 254 241 241
1.575251 -0.582550 30.308674 254 244 243
1.572924 -0.516451 30.263899 253 246 244
1.570696 -0.450573 30.221027 253 248 247
1.568571 -0.384905 30.180145 253 250 248
1.566553 -0.319436 30.141315 252 251 248
1.564644 -0.254151 30.104588 251 252 248
1.562845 -0.189038 30.069975 249 250 247
1.561155 -0.124083 30.037462 246 248 245
1.559572 -0.059272 30.007010 243 245 242
1.558092 0.005408 29.978539 244 245 243
1.556710 0.069969 29.951939 249 250 249
1.555417 0.134424 29.927069 252 253 252
1.554206 0.198781 29.903761 253 253 253
1.553066 0.263051 29.881821 253 253 253
1.551985 0.327238 29.861027 253 254 254
1.550951 0.391347 29.841141 254 254 254
1.549953 0.455382 29.821924 254 254 254
1.548975 0.519340 29.803122 254 254 254
1.548007 0.583220 29.784487 254 254 253
1.547034 0.647019 29.765772 253 253 252
1.546046 0.710730 29.746754 250 250 250
1.545030 0.774345 29.727213 249 249 249
1.543978 0.837855 29.706966 251 251 251
1.542880 0.901252 29.685841 252 252 252
1.541730 0.964525 29.663712 253 253 253
1.540522 1.027664 29.640469 254 254 254
1.539252 1.090660 29.616045 254 254 254
1.537919 1.153502 29.590397 254 254 254
1.536523 1.216184 29.563528 254 254 254
1.535064 1.278698 29.535469 254 254 254
1.533548 1.341040 29.506283 253 253 253
1.531977 1.403207 29.476063 251 251 251
1.530359 1.465199 29.444937 251 251 251
1.528702 1.527016 29.413044 253 254 254
1.527013 1.588664 29.380560 254 254 254
1.525303 1.650149 29.347662 254 254 254
1.523583 1.711480 29.314550 254 254 254
1.521861 1.772667 29.281427 254 254 254
1.520149 1.833723 29.248491 254 254 254
1.518458 1.894662 29.215946 254 254 254
1.516797 1.955500 29.183985 254 254 254
1.515175 2.016253 29.152782 254 254 254
1.513601 2.076937 29.122499 254 254 254
1.512082 2.137568 29.093277 254 254 254
1.510625 2.198163 29.065245 254 254 254
1.509235 2.258738 29.038496 254 254 254
1.507915 2.319305 29.013102 254 254 254
1.506668 2.379878 28.989109 254 254 254
1.505496 2.440467 28.966545 254 254 254
1.504397 2.501083 28.945404 254 254 254
1.503371 2.561731 28.925661 254 254 254
1.502414 2.622415 28.907253 254 254 254
1.501523 2.683137 28.890112 254 254 254
1.500692 2.743896 28.874130 254 254 254
1.499916 2.804688 28.859198 254 254 254
1.499187 2.865504 28.845165 254 254 254
1.498497 2.926337 28.831892 254 254 254
1.497838 2.987174 28.819206 253 253 253
1.497200 3.048002 28.806946 253 253 253
1.496576 3.108803 28.794933 254 254 254
1.495957 3.169562 28.783012 254 254 254
1.495334 3.230263 28.771030 254 254 254
1.494701 3.290890 28.758852 247 247 247
1.494052 3.351429 28.746361 242 242 242
1.493382 3.411866 28.733475 248 248 248
1.492689 3.472193 28.720137 254 254 254
1.491972 3.532407 28.706345 254 254 254
1.491232 3.592505 28.692104 254 254 254
1.490473 3.652495 28.677496 254 254 254
1.489699 3.712388 28.662622 254 254 254
1.488920 3.772201 28.647633 253 253 253
1.488145 3.831958 28.632708 248 249 249
1.487385 3.891692 28.618084 246 248 247
1.486653 3.951437 28.604002 251 251 251
1.485963 4.011237 28.590740 254 252 252
1.485332 4.071138 28.578588 254 251 252
1.484774 4.131191 28.567850 254 244 248
1.484304 4.191448 28.558815 254 237 244
1.483939 4.251964 28.551783 254 238 247
1.483690 4.312789 28.546999 254 239 250
1.483571 4.373975 28.544704 254 238 250
1.483591 4.435567 28.545086 254 235 248
1.483757 4.497603 28.548277 253 222 235
1.484072 4.560114 28.554354 249 198 210
1.484539 4.623120 28.563328 244 183 194
1.485152 4.686630 28.575132 245 185 195
1.485906 4.750638 28.589640 247 194 202
1.486790 4.815129 28.606638 246 199 205
1.487789 4.880072 28.625854 245 204 210
1.488884 4.945419 28.646940 248 219 223
1.490057 5.011115 28.669498 253 236 239
1.491282 5.077089 28.693075 254 243 247
1.492535 5.143260 28.717184 253 238 242
1.493789 5.209538 28.741312 253 231 235
1.495017 5.275827 28.764936 254 232 237
1.496192 5.342028 28.787535 254 236 242
1.497287 5.408039 28.808603 254 236 243
1.498278 5.473761 28.827667 254 234 241
1.499142 5.539099 28.844307 254 225 233
1.499862 5.603965 28.858147 254 213 223
1.500420 5.668283 28.868889 254 211 224
1.500806 5.731988 28.876314 254 214 228
1.501012 5.795030 28.880274 255 212 227
1.501035 5.857378 28.880722 254 209 224
1.500877 5.919014 28.877691 254 203 220
1.500545 5.979939 28.871298 254 199 217
1.500049 6.040178 28.861750 254 196 216
1.499402 6.099764 28.849308 254 191 214
1.498623 6.158752 28.834322 254 184 210
1.497732 6.217209 28.817171 254 178 205
1.496750 6.275213 28.798281 254 172 201
1.495701 6.332851 28.778099 253 169 198
1.494609 6.390217 28.757084 250 166 193
1.493497 6.447406 28.735682 242 160 186
1.492387 6.504514 28.714333 233 156 179
1.491301 6.561635 28.693441 225 155 174
1.490258 6.618856 28.673374 214 154 168
1.489275 6.676260 28.654461 200 149 160
1.488366 6.733917 28.636972 192 150 158
1.487544 6.791892 28.621141 202 169 176
1.486816 6.850237 28.607143 227 203 209
1.486190 6.908996 28.595106 248 233 237
1.485671 6.968203 28.585117 254 248 249
1.485261 7.027882 28.577229 254 253 253
1.484962 7.088054 28.571461 249 249 249
1.484772 7.148732 28.567812 245 245 245
1.484691 7.209923 28.566263 246 247 246
1.718039 -4.031042 31.739557 254 143 170
1.716656 -3.959434 31.714014 254 144 173
1.715421 -3.888270 31.691202 254 145 175
1.714331 -3.817527 31.671068 254 146 176
1.713382 -3.747178 31.653521 254 146 176
1.712564 -3.677189 31.638426 254 147 179
1.711871 -3.607526 31.625612 254 147 180
1.711289 -3.538149 31.614870 254 145 179
1.710808 -3.469021 31.605967 254 145 179
1.710410 -3.400100 31.598631 254 144 178
1.710083 -3.331346 31.592581 254 143 178
1.709809 -3.262720 31.587517 254 143 178
1.709571 -3.194184 31.583128 254 145 181
1.709353 -3.125703 31.579102 254 146 184
1.709138 -3.057244 31.575125 254 150 190
1.708909 -2.988777 31.570885 254 160 201
1.708649 -2.920277 31.566082 254 168 208
1.708342 -2.851719 31.560421 254 165 203
1.707974 -2.783087 31.553625 254 153 190
1.707531 -2.714362 31.545429 254 150 184
1.706998 -2.645535 31.535589 254 159 191
1.706364 -2.576597 31.523870 254 153 183
1.705616 -2.507544 31.510059 254 134 163
1.704745 -2.438373 31.493967 254 131 161
1.703741 -2.369086 31.475420 254 141 172
1.702596 -2.299690 31.454271 254 150 182
1.701304 -2.230191 31.430401 254 154 189
1.699860 -2.160602 31.403717 254 144 183
1.698260 -2.090936 31.374165 254 120 165
1.696504 -2.021212 31.341722 254 108 157
1.694592 -1.951449 31.306406 254 112 166
1.692528 -1.881668 31.268270 254 117 172
1.690317 -1.811893 31.227417 255 111 163
1.687966 -1.742151 31.183983 254 103 151
1.685485 -1.672467 31.138149 254 104 145
1.682885 -1.602868 31.090124 254 107 140
1.680181 -1.533379 31.040155 254 113 139
1.677385 -1.464027 30.988506 254 134 155
1.674514 -1.394835 30.935472 254 166 183
1.671584 -1.325825 30.881346 254 193 207
1.668612 -1.257016 30.826435 254 204 215
1.665613 -1.188425 30.771034 254 198 208
1.662604 -1.120066 30.715446 254 196 205
1.659600 -1.051950 30.659952 254 207 214
1.656617 -0.984085 30.604826 254 218 225
1.653666 -0.916476 30.550318 254 225 231
1.650762 -0.849126 30.496670 254 232 235
1.647917 -0.782035 30.444101 254 232 235
1.645141 -0.715201 30.392822 254 232 234
1.642445 -0.648620 30.343014 254 235 237
1.639838 -0.582285 30.294849 254 238 239
1.637328 -0.516188 30.248482 254 240 241
1.634923 -0.450320 30.204046 254 244 244
1.632628 -0.384669 30.161652 253 247 245
1.630448 -0.319224 30.121387 252 248 245
1.628387 -0.253971 30.083313 251 248 244
1.626447 -0.188897 30.047462 246 246 243
1.624626 -0.123985 30.013826 243 244 241
1.622924 -0.059224 29.982378 241 243 239
1.621336 0.005403 29.953035 242 243 241
1.619856 0.069908 29.925694 248 249 248
1.618476 0.134303 29.900206 252 252 252
1.617187 0.198600 29.876400 252 252 252
1.615978 0.262806 29.854067 252 252 252
1.614837 0.326931 29.832977 253 254 254
1.613749 0.390977 29.812881 254 254 254
1.612701 0.454948 29.793526 254 254 254
1.611679 0.518844 29.774641 254 254 254
1.610668 0.582662 29.755968 253 253 253
1.609655 0.646399 29.737244 252 252 252
1.608626 0.710048 29.718237 250 250 250
1.607569 0.773602 29.698717 249 249 249
1.606474 0.837052 29.678486 249 250 250
1.605331 0.900388 29.657370 250 251 251
1.604133 0.963599 29.635231 251 252 251
1.602873 1.026676 29.611959 252 253 252
1.601548 1.089608 29.587479 252 253 252
1.600156 1.152386 29.561752 252 253 252
1.598696 1.215001 29.534777 253 253 253
1.597169 1.277447 29.506578 254 254 254
1.595580 1.339720 29.477228 253 253 253
1.593935 1.401815 29.446819 252 252 252
1.592238 1.463733 29.415480 252 252 252
1.590499 1.525475 29.383354 254 254 254
1.588727 1.587045 29.350616 254 254 254
1.586932 1.648451 29.317451 255 255 255
1.585125 1.709700 29.284065 254 254 254
1.583316 1.770804 29.250654 254 254 254
1.581518 1.831776 29.217434 254 254 254
1.579741 1.892629 29.184603 254 254 254
1.577996 1.953381 29.152363 254 254 254
1.576292 2.014047 29.120892 254 254 254
1.574639 2.074645 29.090359 254 254 254
1.573045 2.135190 29.060909 255 255 255
1.571517 2.195700 29.032677 254 254 254
1.570060 2.256191 29.005762 254 254 254
1.568679 2.316678 28.980242 254 254 254
1.567376 2.377173 28.956169 254 254 254
1.566153 2.437690 28.933578 254 254 254
1.565010 2.498237 28.912466 254 254 254
1.563946 2.558821 28.892811 254 254 254
1.562959 2.619449 28.874565 254 254 254
1.562044 2.680123 28.857660 254 254 254
1.561196 2.740842 28.841995 254 254 254
1.560409 2.801603 28.827463 254 254 254
1.559676 2.862401 28.813925 254 254 254
1.558989 2.923226 28.801235 254 254 254
1.558340 2.984067 28.789230 253 253 253
1.557719 3.044913 28.777754 253 253 253
1.557116 3.105747 28.766632 254 254 254
1.556525 3.166555 28.755703 254 254 254
1.555936 3.227320 28.744814 254 254 254
1.555341 3.288027 28.733831 250 250 250
1.554735 3.348663 28.722637 246 246 246
1.554113 3.409215 28.711149 250 250 250
1.553472 3.469675 28.699305 254 254 254
1.552811 3.530039 28.687099 254 254 254
1.552131 3.590305 28.674534 254 254 254
1.551436 3.650482 28.661690 254 254 254
1.550731 3.710580 28.648664 254 254 254
1.550024 3.770618 28.635611 252 252 252
1.549326 3.830620 28.622711 246 247 247
1.548648 3.890618 28.610189 244 246 245
1.548005 3.950649 28.598297 250 250 249
1.547410 4.010757 28.587318 254 249 250
1.546881 4.070989 28.577538 254 247 250
1.546433 4.131395 28.569262 254 243 248
1.546082 4.192031 28.562786 254 238 245
1.545845 4.252949 28.558397 254 239 247
1.545734 4.314202 28.556351 254 241 252
1.545763 4.375841 28.556877 254 238 252
1.545940 4.437909 28.560154 254 231 246
1.546273 4.500444 28.566309 252 208 224
1.546765 4.563476 28.575401 246 178 194
1.547416 4.627021 28.587425 244 166 181
1.548221 4.691086 28.602303 246 174 188
1.549173 4.755662 28.619875 244 183 195
1.550257 4.820730 28.639910 236 184 193
1.551459 4.886253 28.662115 230 186 193
1.552758 4.952181 28.686111 238 205 211
1.554131 5.018453 28.711479 249 233 236
1.555552 5.084991 28.737736 252 243 245
1.556995 5.151713 28.764381 248 230 233
1.558429 5.218521 28.790873 246 218 223
1.559825 5.285316 28.816673 249 225 230
1.561155 5.351993 28.841236 253 233 239
1.562390 5.418448 28.864052 254 229 237
1.563504 5.484577 28.884634 254 225 233
1.564473 5.550282 28.902544 254 220 229
1.565278 5.615473 28.917406 254 211 222
1.565901 5.680070 28.928923 254 210 223
1.566331 5.744007 28.936863 254 213 228
1.566560 5.807233 28.941088 254 212 227
1.566585 5.869714 28.941553 254 208 225
1.566408 5.931434 28.938292 254 206 223
1.566037 5.992395 28.931435 254 203 222
1.565483 6.052619 28.921196 254 198 220
1.564761 6.112144 28.907858 254 192 218
1.563891 6.171025 28.891781 254 188 216
1.562894 6.229333 28.873365 254 182 212
1.561795 6.287149 28.853060 253 174 205
1.560619 6.344567 28.831341 253 171 202
1.559393 6.401683 28.808681 250 168 197
1.558141 6.458597 28.785561 239 161 186
1.556890 6.515412 28.762444 229 157 178
1.555662 6.572227 28.739758 223 159 177
1.554478 6.629133 28.717896 213 160 173
1.553358 6.686219 28.697206 201 158 167
1.552318 6.743560 28.677982 200 166 174
1.551370 6.801226 28.660477 217 193 198
1.550526 6.859272 28.644873 238 223 228
1.549792 6.917744 28.631310 251 243 246
1.549173 6.976677 28.619881 254 252 253
1.548673 7.036099 28.610640 253 252 252
1.548292 7.096029 28.603603 245 244 245
1.548030 7.156479 28.598770 241 241 241
1.547886 7.217457 28.596111 242 243 242
1.782217 -4.021472 31.664206 254 146 173
1.780751 -3.949961 31.638145 254 146 174
1.779449 -3.878924 31.615028 254 147 176
1.778312 -3.808337 31.594826 254 148 178
1.777335 -3.738174 31.577463 254 149 179
1.776510 -3.668401 31.562815 254 149 180
1.775830 -3.598984 31.550726 254 149 181
1.775282 -3.529881 31.540987 254 148 180
1.774853 -3.461053 31.533373 254 147 179
1.774529 -3.392458 31.527607 254 146 177
1.774292 -3.324051 31.523403 254 142 174
1.774126 -3.255792 31.520445 254 141 174
1.774011 -3.187639 31.518414 255 145 178
1.773930 -3.119553 31.516972 254 148 183
1.773863 -3.051498 31.515779 254 151 187
1.773791 -2.983440 31.514502 254 156 193
1.773696 -2.915348 31.512806 254 159 196
1.773558 -2.847197 31.510365 254 162 197
1.773362 -2.778963 31.506870 254 161 193
1.773089 -2.710627 31.502024 254 159 190
1.772724 -2.642176 31.495546 254 163 193
1.772253 -2.573598 31.487173 254 156 186
1.771661 -2.504886 31.476662 254 140 169
1.770937 -2.436036 31.463791 254 132 160
1.770069 -2.367050 31.448366 254 131 160
1.769047 -2.297931 31.430216 254 139 171
1.767864 -2.228687 31.409199 254 151 186
1.766514 -2.159328 31.385206 254 144 182
1.764992 -2.089870 31.358168 254 118 161
1.763296 -2.020330 31.328045 254 101 149
1.761428 -1.950728 31.294849 254 103 155
1.759389 -1.881087 31.258623 254 107 160
1.757185 -1.811432 31.219465 254 103 155
1.754823 -1.741789 31.177500 254 99 148
1.752313 -1.672185 31.132906 254 101 145
1.749667 -1.602649 31.085892 254 102 139
1.746898 -1.533209 31.036699 254 106 136
1.744022 -1.463890 30.985596 254 125 148
1.741054 -1.394718 30.932873 254 153 173
1.738012 -1.325717 30.878830 254 179 194
1.734914 -1.256908 30.823776 254 192 203
1.731775 -1.188308 30.768017 254 192 202
1.728615 -1.119935 30.711864 254 194 202
1.725449 -1.051801 30.655611 254 204 211
1.722293 -0.983915 30.599545 254 214 221
1.719163 -0.916284 30.543938 254 219 226
1.716074 -0.848914 30.489052 254 225 230
1.713039 -0.781804 30.435125 254 227 231
1.710071 -0.714956 30.382397 254 227 231
1.707182 -0.648364 30.331070 254 230 233
1.704383 -0.582025 30.281349 254 233 235
1.701685 -0.515931 30.233412 254 236 237
1.699097 -0.450072 30.187422 254 239 239
1.696625 -0.384438 30.143507 253 241 240
1.694276 -0.319017 30.101780 252 242 240
1.692056 -0.253794 30.062326 250 243 239
1.689965 -0.188756 30.025187 245 243 237
1.688006 -0.123888 29.990370 241 242 237
1.686176 -0.059175 29.957857 241 242 238
1.684471 0.005398 29.927574 244 245 241
1.682886 0.069846 29.899416 247 249 246
1.681412 0.134182 29.873232 250 251 249
1.680040 0.198416 29.848845 251 251 250
1.678756 0.262560 29.826040 252 252 251
1.677548 0.326619 29.804581 253 253 252
1.676401 0.390601 29.784201 254 254 253
1.675300 0.454507 29.764641 254 254 253
1.674230 0.518338 29.745615 253 253 252
1.673173 0.582092 29.726851 252 252 251
1.672117 0.645765 29.708076 251 251 250
1.671046 0.709351 29.689045 249 250 249
1.669947 0.772842 29.669519 248 249 248
1.668808 0.836229 29.649294 248 249 248
1.667620 0.899502 29.628183 249 250 249
1.666374 0.962650 29.606047 250 251 250
1.665064 1.025664 29.582767 251 252 251
1.663685 1.088532 29.558270 250 251 250
1.662235 1.151246 29.532509 250 251 250
1.660714 1.213796 29.505486 252 253 251
1.659123 1.276176 29.477224 254 254 253
1.657467 1.338382 29.447794 254 254 253
1.655750 1.400409 29.417288 252 252 252
1.653980 1.462258 29.385838 252 252 252
1.652165 1.523930 29.353594 253 253 253
1.650315 1.585429 29.320724 254 254 254
1.648440 1.646762 29.287422 254 254 254
1.646553 1.707938 29.253891 254 254 254
1.644664 1.768968 29.220337 254 254 254
1.642786 1.829866 29.186972 254 254 254
1.640931 1.890645 29.153999 254 254 254
1.639109 1.951322 29.121628 254 254 254
1.637330 2.011913 29.090036 254 254 254
1.635606 2.072437 29.059399 254 254 254
1.633944 2.132909 29.029863 254 254 254
1.632351 2.193347 29.001566 254 254 254
1.630834 2.253769 28.974617 254 254 254
1.629397 2.314188 28.949093 254 254 254
1.628045 2.374619 28.925058 254 254 254
1.626777 2.435075 28.902544 254 254 254
1.625596 2.495566 28.881556 254 254 254
1.624500 2.556100 28.862080 254 254 254
1.623486 2.616683 28.844070 254 254 254
1.622552 2.677319 28.827465 255 255 255
1.621691 2.738008 28.812170 254 254 254
1.620898 2.798748 28.798080 254 255 254
1.620165 2.859534 28.785063 254 254 253
1.619485 2.920358 28.772982 253 254 253
1.618849 2.981211 28.761675 254 254 254
1.618247 3.042080 28.750982 253 253 253
1.617670 3.102951 28.740734 253 254 254
1.617110 3.163810 28.730778 254 254 254
1.616556 3.224640 28.720947 254 254 254
1.616003 3.285429 28.711126 253 253 253
1.615444 3.346161 28.701178 252 252 252
1.614872 3.406826 28.691029 253 253 253
1.614286 3.467415 28.680614 254 254 254
1.613684 3.527924 28.669914 254 254 254
1.613066 3.588353 28.658943 254 254 254
1.612437 3.648709 28.647770 254 254 254
1.611803 3.709004 28.636497 254 254 254
1.611171 3.769256 28.625271 253 253 253
1.610552 3.829491 28.614279 249 249 249
1.609959 3.889742 28.603745 247 248 248
1.609406 3.950044 28.593920 251 251 251
1.608910 4.010445 28.585091 254 248 250
1.608485 4.070990 28.577547 254 243 247
1.608150 4.131733 28.571598 254 243 249
1.607922 4.192728 28.567537 254 242 249
1.607816 4.254030 28.565655 254 239 249
1.607847 4.315691 28.566206 254 239 251
1.608027 4.377761 28.569414 254 236 251
1.608367 4.440286 28.575453 254 221 239
1.608873 4.503301 28.584438 252 192 212
1.609547 4.566833 28.596424 248 167 188
1.610389 4.630898 28.611383 248 166 186
1.611393 4.695500 28.629221 251 178 197
1.612550 4.760629 28.649761 248 183 200
1.613844 4.826258 28.672756 234 176 190
1.615258 4.892350 28.697876 224 170 182
1.616769 4.958848 28.724728 232 191 199
1.618353 5.025687 28.752865 247 226 230
1.619981 5.092787 28.781790 250 238 240
1.621623 5.160056 28.810968 242 217 220
1.623248 5.227397 28.839844 240 200 206
1.624825 5.294704 28.867857 247 210 217
1.626322 5.361869 28.894455 253 221 229
1.627709 5.428782 28.919102 254 218 227
1.628959 5.495337 28.941301 254 216 227
1.630046 5.561434 28.960613 254 219 230
1.630948 5.626976 28.976645 254 215 228
1.631649 5.691884 28.989092 254 212 226
1.632134 5.756088 28.997721 254 212 227
1.632398 5.819535 29.002396 254 211 227
1.632435 5.882189 29.003063 254 210 228
1.632249 5.944035 28.999765 254 209 229
1.631848 6.005071 28.992634 254 208 229
1.631243 6.065321 28.981890 254 203 228
1.630452 6.124823 28.967829 254 198 225
1.629495 6.183635 28.950819 254 193 223
1.628395 6.241829 28.931286 254 186 217
1.627179 6.299489 28.909687 254 179 210
1.625875 6.356710 28.886520 254 175 205
1.624511 6.413594 28.862284 248 167 195
1.623116 6.470247 28.837484 235 157 181
1.621715 6.526775 28.812603 225 155 175
1.620336 6.583282 28.788103 223 163 179
1.619002 6.639868 28.764399 214 166 178
1.617733 6.696623 28.741859 202 164 172
1.616548 6.753631 28.720808 206 179 185
1.615462 6.810962 28.701504 230 214 218
1.614485 6.868679 28.684155 247 240 243
1.613628 6.926829 28.668913 252 249 251
1.612894 6.985452 28.655878 252 251 252
1.612288 7.044576 28.645109 245 242 245
1.611810 7.104221 28.636629 236 233 236
1.611462 7.164402 28.630434 241 239 241
1.611240 7.225125 28.626493 247 246 247
1.846296 -4.012392 31.592707 254 150 176
1.844733 -3.940948 31.565950 254 148 175
1.843352 -3.870003 31.542320 254 148 176
1.842153 -3.799536 31.521805 254 149 177
1.841132 -3.729518 31.504345 254 150 179
1.840284 -3.659919 31.489830 254 151 180
