ply
format ascii 1.0
element vertex 1151
property float x
property float y
property float z
property uchar red
property uchar green
property uchar blue
end_header
-7.410523 5.476490 45.298615 155 136 154
-7.413477 5.576361 45.316673 155 135 155
-7.416659 5.676483 45.336124 155 134 156
-7.420023 5.776832 45.356689 154 134 156
-7.423526 5.877379 45.378101 153 133 157
-7.427122 5.978093 45.400082 153 134 158
-7.430770 6.078945 45.422379 153 134 158
-7.434430 6.179903 45.444752 154 135 159
-7.438066 6.280936 45.466976 155 136 160
-7.441644 6.382017 45.488853 155 136 161
-7.445138 6.483118 45.510208 155 137 162
-7.448522 6.584213 45.530891 155 138 163
-7.451773 6.685280 45.550770 156 139 164
-7.454876 6.786296 45.569736 156 141 165
-7.457815 6.887243 45.587700 155 142 165
-7.460578 6.988103 45.604591 154 142 164
-7.463157 7.088861 45.620354 154 142 163
-7.465549 7.189507 45.634975 153 142 162
-7.467752 7.290031 45.648445 152 142 161
-7.469774 7.390434 45.660801 151 142 160
-7.471623 7.490717 45.672104 150 141 158
-7.473314 7.590888 45.682442 149 140 157
-7.474870 7.690966 45.691956 148 140 156
-7.476317 7.790969 45.700798 147 140 155
-7.477686 7.890930 45.709167 144 139 153
-7.479012 7.990880 45.717274 142 138 151
-7.480333 8.090859 45.725346 141 138 151
-7.481686 8.190909 45.733616 140 138 151
-7.483108 8.291071 45.742306 140 138 151
-7.484634 8.391388 45.751640 139 138 151
-7.423301 -10.300505 45.982639 170 156 186
-7.421679 -10.199153 45.972591 169 153 184
-7.420049 -10.097834 45.962498 169 151 183
-7.418376 -9.996499 45.952133 171 152 183
-7.416630 -9.895112 45.941319 173 152 184
-7.414785 -9.793642 45.929890 172 150 181
-7.412821 -9.692065 45.917725 172 149 179
-7.410724 -9.590366 45.904728 172 148 179
-7.408484 -9.488544 45.890858 173 148 179
-7.406104 -9.386601 45.876110 175 148 179
-7.403587 -9.284552 45.860523 175 149 180
-7.400949 -9.182420 45.844185 176 150 179
-7.398211 -9.080235 45.827225 176 149 178
-7.395398 -8.978030 45.809795 176 149 177
-7.392538 -8.875847 45.792084 175 148 176
-7.389667 -8.773726 45.774300 174 147 175
-7.386820 -8.671709 45.756660 173 146 174
-7.384032 -8.569838 45.739391 172 146 172
-7.381336 -8.468145 45.722691 172 145 171
-7.378766 -8.366669 45.706772 171 143 169
-7.376348 -8.265430 45.691792 170 142 167
-7.374106 -8.164453 45.677906 170 141 165
-7.372059 -8.063747 45.665226 171 141 164
-7.370222 -7.963324 45.653847 171 142 164
-7.368603 -7.863182 45.643818 172 142 164
-7.367207 -7.763318 45.635170 172 142 164
-7.366034 -7.663723 45.627903 171 141 163
-7.365082 -7.564388 45.622009 171 141 163
-7.364347 -7.465297 45.617455 171 141 162
-7.363820 -7.366434 45.614189 170 140 161
-7.363493 -7.267782 45.612167 170 140 161
-7.363358 -7.169326 45.611328 170 141 162
-7.363403 -7.071047 45.611607 171 141 164
-7.363617 -6.972926 45.612934 172 142 166
-7.363989 -6.874948 45.615238 172 142 167
-7.364506 -6.777092 45.618443 172 140 167
-7.365156 -6.679343 45.622463 172 139 167
-7.365923 -6.581682 45.627220 174 138 167
-7.366794 -6.484092 45.632614 175 139 167
-7.367753 -6.386555 45.638554 176 139 166
-7.368785 -6.289054 45.644947 177 139 165
-7.369876 -6.191576 45.651703 177 139 165
-7.371010 -6.094103 45.658730 177 139 165
-7.372174 -5.996626 45.665943 177 139 164
-7.373358 -5.899132 45.673275 179 142 166
-7.374551 -5.801615 45.680664 182 147 169
-7.375747 -5.704068 45.688076 183 149 171
-7.376943 -5.606489 45.695480 181 148 169
-7.378138 -5.508876 45.702881 177 145 167
-7.379333 -5.411233 45.710289 176 145 166
-7.380536 -5.313563 45.717739 176 145 166
-7.381754 -5.215871 45.725281 176 145 167
-7.382996 -5.118164 45.732975 176 145 168
-7.384274 -5.020448 45.740891 175 145 169
-7.385601 -4.922730 45.749107 175 144 169
-7.386987 -4.825016 45.757698 174 143 169
-7.388445 -4.727312 45.766731 173 142 169
-7.389985 -4.629618 45.776268 173 141 169
-7.391614 -4.531939 45.786358 173 141 168
-7.393339 -4.434274 45.797043 173 141 168
-7.395162 -4.336619 45.808334 174 141 167
-7.397083 -4.238973 45.820236 175 142 168
-7.399099 -4.141328 45.832722 176 143 170
-7.401202 -4.043678 45.845749 178 143 170
-7.403384 -3.946012 45.859264 179 143 171
-7.405630 -3.848323 45.873180 179 143 171
-7.407924 -3.750597 45.887386 179 143 173
-7.410246 -3.652824 45.901772 180 144 173
-7.412574 -3.554991 45.916191 180 144 173
-7.414882 -3.457088 45.930485 179 143 173
-7.417141 -3.359100 45.944485 178 143 173
-7.419325 -3.261019 45.958012 179 144 173
-7.421399 -3.162833 45.970852 181 147 175
-7.423330 -3.064533 45.982819 184 151 178
-7.425086 -2.966110 45.993690 184 151 179
-7.426630 -2.867560 46.003258 183 151 179
-7.427929 -2.768877 46.011307 182 150 179
-7.428950 -2.670059 46.017632 180 149 178
-7.429661 -2.571106 46.022034 179 148 177
-7.430031 -2.472021 46.024326 178 148 175
-7.430033 -2.372809 46.024342 177 148 175
-7.429643 -2.273477 46.021919 177 148 174
-7.428838 -2.174034 46.016941 178 147 174
-7.427603 -2.074492 46.009289 180 148 175
-7.425927 -1.974865 45.998901 181 148 177
-7.423801 -1.875170 45.985733 183 148 177
-7.421225 -1.775424 45.969780 184 148 177
-7.418204 -1.675646 45.951069 184 148 177
-7.414751 -1.575858 45.929680 184 148 179
-7.410882 -1.476078 45.905712 182 148 178
-7.406625 -1.376330 45.879345 180 146 177
-7.402013 -1.276634 45.850777 178 145 176
-7.397085 -1.177011 45.820248 177 145 175
-7.391891 -1.077481 45.788071 176 145 175
-7.386482 -0.978061 45.754566 176 145 175
-7.380919 -0.878767 45.720104 176 144 174
-7.375267 -0.779612 45.685097 176 144 173
-7.369593 -0.680607 45.649948 175 143 172
-7.363965 -0.581756 45.615089 175 142 171
-7.358454 -0.483064 45.580948 174 141 169
-7.353124 -0.384528 45.547935 173 141 167
-7.348040 -0.286144 45.516445 172 142 168
-7.343257 -0.187903 45.486820 172 143 168
-7.338827 -0.089795 45.459373 172 144 168
-7.334789 0.008196 45.434364 171 145 167
-7.331177 0.106085 45.411987 170 145 165
-7.328012 0.203889 45.392384 170 145 164
-7.325307 0.301629 45.375629 170 145 163
-7.323064 0.399321 45.361732 170 145 162
-7.321277 0.496984 45.350662 172 145 163
-7.319931 0.594636 45.342327 175 147 166
-7.319004 0.692291 45.336586 178 148 169
-7.318467 0.789963 45.333260 181 150 172
-7.318287 0.887665 45.332142 182 151 173
-7.318428 0.985404 45.333019 178 147 170
-7.318851 1.083190 45.335632 174 144 167
-7.319514 1.181025 45.339745 175 145 168
-7.320379 1.278913 45.345100 175 147 170
-7.321403 1.376855 45.351444 174 147 170
-7.322549 1.474848 45.358543 173 145 169
-7.323778 1.572890 45.366158 170 143 168
-7.325055 1.670975 45.374065 168 141 167
-7.326347 1.769098 45.382072 165 138 166
-7.327623 1.867252 45.389973 164 137 166
-7.328853 1.965427 45.397591 164 135 165
-7.330010 2.063615 45.404758 163 134 165
-7.331070 2.161805 45.411331 164 135 165
-7.332013 2.259987 45.417164 164 135 164
-7.332816 2.358149 45.422142 162 134 161
-7.333463 2.456281 45.426147 163 134 160
-7.333938 2.554370 45.429092 164 135 160
-7.334229 2.652405 45.430889 164 136 161
-7.334323 2.750374 45.431477 164 137 162
-7.334216 2.848267 45.430809 165 137 162
-7.333899 2.946074 45.428852 165 138 163
-7.333377 3.043786 45.425617 165 138 163
-7.332649 3.141397 45.421108 165 138 163
-7.331724 3.238900 45.415375 165 137 161
-7.330614 3.336295 45.408497 164 136 160
-7.329335 3.433582 45.400578 163 136 158
-7.327910 3.530763 45.391750 160 134 156
-7.326365 3.627848 45.382187 160 135 157
-7.324734 3.724847 45.372078 163 138 161
-7.323050 3.821775 45.361652 164 140 162
-7.321356 3.918653 45.351154 162 140 161
-7.319694 4.015502 45.340858 161 138 161
-7.318109 4.112351 45.331036 161 138 162
-7.316648 4.209230 45.321995 164 139 164
-7.315360 4.306170 45.314011 167 141 166
-7.314287 4.403206 45.307365 166 139 166
-7.313475 4.500374 45.302334 164 137 163
-7.312960 4.597706 45.299145 164 137 162
-7.312775 4.695238 45.298000 164 138 160
-7.312947 4.792998 45.299068 164 138 158
-7.313495 4.891014 45.302460 163 138 157
-7.314427 4.989306 45.308235 162 138 155
-7.315744 5.087892 45.316391 160 137 154
-7.317438 5.186779 45.326885 159 137 153
-7.319492 5.285972 45.339607 158 137 152
-7.321881 5.385466 45.354404 157 136 152
-7.324574 5.485251 45.371086 155 136 152
-7.327535 5.585313 45.389427 154 135 153
-7.330722 5.685629 45.409172 154 134 154
-7.334093 5.786176 45.430050 153 133 154
-7.337604 5.886924 45.451797 151 132 155
-7.341211 5.987845 45.474144 151 133 155
-7.344873 6.088909 45.496830 151 134 156
-7.348551 6.190083 45.519611 152 135 157
-7.352211 6.291338 45.542278 153 135 157
-7.355817 6.392646 45.564617 153 136 158
-7.359343 6.493979 45.586456 153 137 159
-7.362763 6.595312 45.607643 153 137 160
-7.366056 6.696621 45.628044 153 138 161
-7.369205 6.797884 45.647545 153 140 162
-7.372192 6.899081 45.666054 153 141 162
-7.375008 7.000194 45.683491 152 142 162
-7.377643 7.101208 45.699814 152 142 161
-7.380093 7.202113 45.714993 152 143 161
-7.382359 7.302900 45.729027 152 143 161
-7.384445 7.403568 45.741951 151 142 159
-7.386362 7.504119 45.753822 151 141 157
-7.388124 7.604564 45.764740 150 141 156
-7.389756 7.704918 45.774849 149 140 155
-7.391283 7.805206 45.784306 147 139 154
-7.392736 7.905456 45.793312 145 139 151
-7.394153 8.005705 45.802086 143 139 150
-7.395569 8.105991 45.810860 142 138 150
-7.397023 8.206357 45.819866 141 138 150
-7.398552 8.306846 45.829338 141 138 151
-7.400190 8.407499 45.839481 140 138 151
-7.322408 -10.298016 45.971527 171 157 186
-7.320976 -10.196922 45.962536 170 154 184
-7.319541 -10.095863 45.953529 170 152 182
-7.318069 -9.994793 45.944290 172 152 182
-7.316531 -9.893672 45.934628 173 152 182
-7.314898 -9.792467 45.924377 172 151 180
-7.313151 -9.691154 45.913414 172 149 179
-7.311276 -9.589722 45.901642 171 148 178
-7.309264 -9.488160 45.889004 172 147 178
-7.307113 -9.386477 45.875504 174 147 179
-7.304830 -9.284682 45.861168 175 148 178
-7.302428 -9.182800 45.846088 175 148 177
-7.299925 -9.080858 45.830372 177 149 177
-7.297347 -8.978890 45.814186 177 149 177
-7.294722 -8.876937 45.797707 177 148 176
-7.292082 -8.775036 45.781136 175 147 174
-7.289462 -8.673229 45.764683 173 146 173
-7.286894 -8.571556 45.748562 172 145 170
-7.284413 -8.470053 45.732986 171 144 169
-7.282049 -8.368750 45.718140 170 143 167
-7.279828 -8.267675 45.704201 169 142 166
-7.277774 -8.166847 45.691307 169 142 165
-7.275905 -8.066280 45.679569 170 142 165
-7.274233 -7.965980 45.669075 171 142 165
-7.272768 -7.865949 45.659882 172 142 165
-7.271515 -7.766183 45.652012 172 141 164
-7.270475 -7.666676 45.645481 171 141 163
-7.269643 -7.567413 45.640259 171 140 163
-7.269017 -7.468385 45.636326 170 140 162
-7.268588 -7.369574 45.633636 170 139 161
-7.268350 -7.270964 45.632137 169 139 161
-7.268293 -7.172541 45.631783 170 140 162
-7.268408 -7.074286 45.632500 171 141 165
-7.268684 -6.976182 45.634235 173 143 168
-7.269110 -6.878214 45.636909 173 142 168
-7.269675 -6.780363 45.640457 173 140 168
-7.270366 -6.682612 45.644794 174 139 168
-7.271170 -6.584946 45.649841 175 138 168
-7.272072 -6.487345 45.655506 176 138 168
-7.273059 -6.389794 45.661701 176 138 166
-7.274115 -6.292276 45.668335 176 138 165
-7.275227 -6.194778 45.675316 177 138 165
-7.276380 -6.097283 45.682552 177 138 165
-7.277562 -5.999781 45.689972 177 138 164
-7.278760 -5.902261 45.697495 178 140 165
-7.279967 -5.804715 45.705074 181 144 168
-7.281176 -5.707138 45.712662 182 147 169
-7.282382 -5.609526 45.720238 181 147 169
-7.283587 -5.511880 45.727798 179 146 167
-7.284792 -5.414202 45.735367 178 145 166
-7.286002 -5.316494 45.742962 177 145 166
-7.287226 -5.218765 45.750645 176 144 165
-7.288473 -5.121018 45.758472 175 144 166
-7.289754 -5.023261 45.766521 174 143 166
-7.291082 -4.925501 45.774853 173 142 167
-7.292467 -4.827743 45.783554 172 141 167
-7.293922 -4.729992 45.792686 173 140 169
-7.295456 -4.632253 45.802319 173 140 169
-7.297078 -4.534526 45.812500 174 141 168
-7.298791 -4.436812 45.823257 174 141 168
-7.300601 -4.339108 45.834621 175 141 167
-7.302507 -4.241411 45.846584 176 142 167
-7.304505 -4.143714 45.859127 177 142 168
-7.306588 -4.046011 45.872204 178 143 169
-7.308747 -3.948292 45.885761 180 143 171
-7.310969 -3.850549 45.899712 180 144 172
-7.313239 -3.752769 45.913960 181 145 173
-7.315535 -3.654941 45.928375 182 146 175
-7.317837 -3.557054 45.942829 182 146 175
-7.320120 -3.459095 45.957165 180 144 173
-7.322357 -3.361054 45.971207 178 141 171
-7.324518 -3.262918 45.984772 178 142 172
-7.326573 -3.164678 45.997677 180 146 175
-7.328489 -3.066324 46.009705 183 149 178
-7.330234 -2.967849 46.020657 184 151 179
-7.331772 -2.869246 46.030315 183 151 179
-7.333072 -2.770512 46.038475 182 150 178
-7.334100 -2.671643 46.044930 180 149 177
-7.334826 -2.572640 46.049484 179 148 176
-7.335218 -2.473505 46.051949 178 148 175
-7.335250 -2.374243 46.052155 177 148 174
-7.334900 -2.274862 46.049957 178 148 174
-7.334146 -2.175370 46.045219 178 148 174
-7.332971 -2.075779 46.037842 180 148 175
-7.331364 -1.976104 46.027756 181 148 175
-7.329319 -1.876360 46.014915 182 148 176
-7.326834 -1.776565 45.999313 184 149 177
-7.323915 -1.676738 45.980991 185 150 179
-7.320573 -1.576898 45.960007 186 151 180
-7.316827 -1.477068 45.936489 184 150 179
-7.312702 -1.377267 45.910591 180 147 177
-7.308230 -1.277518 45.882515 178 145 176
-7.303452 -1.177840 45.852512 177 146 175
-7.298413 -1.078253 45.820881 177 146 175
-7.293167 -0.978774 45.787945 177 146 175
-7.287773 -0.879420 45.754078 177 145 175
-7.282293 -0.780203 45.719681 176 143 173
-7.276795 -0.681132 45.685162 175 142 172
-7.271346 -0.582214 45.650948 174 141 170
-7.266012 -0.483451 45.617458 173 140 169
-7.260860 -0.384842 45.585114 172 141 168
-7.255949 -0.286382 45.554287 172 142 168
-7.251339 -0.188063 45.525341 171 143 168
-7.247075 -0.089872 45.498569 170 142 167
-7.243200 0.008203 45.474239 170 142 166
-7.239743 0.106179 45.452541 169 143 165
-7.236727 0.204075 45.433605 170 145 165
-7.234165 0.301907 45.417519 171 145 165
-7.232058 0.399696 45.404289 172 145 164
-7.230400 0.497458 45.393883 174 146 165
-7.229177 0.595211 45.386200 176 147 167
-7.228365 0.692971 45.381111 178 148 169
-7.227940 0.790751 45.378437 179 149 171
-7.227867 0.888562 45.377983 180 150 171
-7.228111 0.986415 45.379513 178 148 170
-7.228635 1.084317 45.382801 176 146 168
-7.229398 1.182271 45.387592 176 147 168
-7.230361 1.280282 45.393642 175 147 168
-7.231487 1.378350 45.400703 174 146 168
-7.232735 1.476474 45.408539 173 145 169
-7.234069 1.574650 45.416920 171 143 168
-7.235456 1.672874 45.425625 168 140 166
-7.236862 1.771140 45.434452 164 138 165
-7.238256 1.869442 45.443203 163 136 165
-7.239609 1.967770 45.451698 163 135 165
-7.240896 2.066115 45.459778 163 135 165
-7.242092 2.164469 45.467289 163 135 164
-7.243173 2.262819 45.474072 163 135 163
-7.244119 2.361154 45.480015 162 135 161
-7.244912 2.459463 45.484989 163 135 160
-7.245535 2.557733 45.488903 164 135 159
-7.245974 2.655952 45.491657 163 134 159
-7.246217 2.754109 45.493183 164 135 160
-7.246255 2.852193 45.493427 164 136 160
-7.246084 2.950191 45.492352 164 136 161
-7.245700 3.048096 45.489941 165 136 161
-7.245107 3.145900 45.486217 165 136 161
-7.244310 3.243596 45.481213 165 136 160
-7.243322 3.341182 45.475010 165 136 159
-7.242159 3.438658 45.467709 164 136 158
-7.240842 3.536028 45.459438 163 135 157
-7.239398 3.633299 45.450375 163 136 158
-7.237860 3.730482 45.440716 164 138 160
-7.236263 3.827592 45.430691 164 139 161
-7.234647 3.924649 45.420547 163 139 160
-7.233058 4.021677 45.410572 162 138 161
-7.231540 4.118702 45.401039 162 138 162
-7.230141 4.215755 45.392258 164 139 164
-7.228907 4.312870 45.384510 166 139 164
-7.227885 4.410079 45.378090 166 137 164
-7.227116 4.507420 45.373264 165 136 162
-7.226640 4.604927 45.370277 165 135 160
-7.226490 4.702631 45.369335 165 136 158
-7.226691 4.800566 45.370594 164 136 156
-7.227262 4.898757 45.374180 163 136 154
-7.228212 4.997225 45.380150 162 136 153
-7.229544 5.095988 45.388508 161 135 152
-7.231248 5.195055 45.399204 160 135 150
-7.233308 5.294428 45.412140 158 135 150
-7.235701 5.394105 45.427162 157 135 150
-7.238397 5.494077 45.444088 155 135 151
-7.241358 5.594327 45.462681 154 134 152
-7.244548 5.694837 45.482708 153 133 152
-7.247923 5.795581 45.503895 152 132 152
-7.251440 5.896532 45.525974 150 132 153
-7.255057 5.997660 45.548683 150 133 153
-7.258733 6.098937 45.571766 150 133 154
-7.262431 6.200332 45.594982 150 134 154
-7.266115 6.301814 45.618103 150 135 154
-7.269751 6.403354 45.640938 150 135 155
-7.273313 6.504926 45.663296 151 136 156
-7.276775 6.606503 45.685032 151 137 157
-7.280115 6.708063 45.706001 150 137 158
-7.283314 6.809581 45.726089 150 138 158
-7.286357 6.911036 45.745190 150 139 158
-7.289231 7.012413 45.763233 150 141 159
-7.291928 7.113694 45.780167 151 142 159
-7.294442 7.214867 45.795948 152 143 160
-7.296774 7.315926 45.810593 153 144 160
-7.298928 7.416867 45.824116 152 143 159
-7.300915 7.517694 45.836590 151 142 156
-7.302751 7.618418 45.848114 150 141 155
-7.304457 7.719054 45.858829 149 140 154
-7.306062 7.819627 45.868900 147 139 152
-7.307596 7.920168 45.878536 145 138 150
-7.309095 8.020713 45.887947 144 138 150
-7.310598 8.121301 45.897385 143 138 149
-7.312143 8.221977 45.907082 142 138 150
-7.313766 8.322784 45.917271 141 138 151
-7.315501 8.423763 45.928162 140 138 152
-7.221466 -10.295389 45.959801 171 156 185
-7.220225 -10.194562 45.951897 171 155 183
-7.218985 -10.093772 45.944008 171 153 182
-7.217712 -9.992970 45.935905 172 153 182
-7.216378 -9.892118 45.927414 173 152 181
-7.214954 -9.791182 45.918354 172 151 179
-7.213420 -9.690138 45.908592 172 150 178
-7.211762 -9.588969 45.898041 171 148 178
-7.209971 -9.487672 45.886642 171 147 177
-7.208044 -9.386246 45.874378 172 147 177
-7.205988 -9.284707 45.861290 173 147 176
-7.203813 -9.183073 45.847450 174 147 176
-7.201539 -9.081374 45.832977 176 148 176
-7.199188 -8.979641 45.818012 177 149 176
-7.196789 -8.877913 45.802746 177 148 175
-7.194372 -8.776230 45.787361 175 147 173
-7.191971 -8.674631 45.772079 173 146 171
-7.189617 -8.573155 45.757099 171 145 169
-7.187343 -8.471838 45.742626 169 144 167
-7.185178 -8.370710 45.728851 168 143 166
-7.183149 -8.269798 45.715939 168 142 165
-7.181278 -8.169122 45.704025 168 141 164
-7.179581 -8.068691 45.693226 169 141 165
-7.178071 -7.968517 45.683620 170 141 165
-7.176759 -7.868600 45.675270 171 141 165
-7.175647 -7.768935 45.668190 172 141 164
-7.174736 -7.669516 45.662392 171 140 163
-7.174024 -7.570332 45.657856 170 139 162
-7.173506 -7.471370 45.654568 169 139 161
-7.173177 -7.372616 45.652470 169 138 160
-7.173028 -7.274054 45.651524 169 138 160
-7.173052 -7.175668 45.651676 169 139 161
-7.173238 -7.077442 45.652863 170 139 163
-7.173578 -6.979360 45.655022 171 140 165
-7.174061 -6.881407 45.658096 172 141 166
-7.174675 -6.783564 45.662006 173 140 167
-7.175410 -6.685817 45.666683 175 139 167
-7.176252 -6.588148 45.672043 177 139 168
-7.177188 -6.490541 45.678001 177 139 167
-7.178204 -6.392980 45.684467 177 138 166
-7.179286 -6.295448 45.691353 176 137 164
-7.180420 -6.197932 45.698570 176 137 163
-7.181592 -6.100416 45.706028 177 137 164
-7.182791 -6.002892 45.713657 178 139 165
-7.184004 -5.905345 45.721378 179 140 166
-7.185223 -5.807771 45.729137 181 143 167
-7.186442 -5.710163 45.736897 181 144 168
-7.187659 -5.612520 45.744640 181 146 168
-7.188871 -5.514840 45.752354 181 147 169
-7.190083 -5.417126 45.760063 180 146 168
-7.191298 -5.319382 45.767799 179 145 166
-7.192526 -5.221613 45.775612 177 144 165
-7.193775 -5.123826 45.783562 176 143 165
-7.195056 -5.026027 45.791718 174 142 165
-7.196383 -4.928224 45.800159 173 140 165
-7.197764 -4.830421 45.808952 172 139 166
-7.199214 -4.732626 45.818180 172 139 167
-7.200741 -4.634840 45.827900 173 139 168
-7.202353 -4.537066 45.838154 174 140 167
-7.204055 -4.439303 45.848991 175 140 167
-7.205852 -4.341551 45.860424 176 140 166
-7.207741 -4.243804 45.872448 176 140 166
-7.209721 -4.146057 45.885048 177 141 166
-7.211785 -4.048302 45.898186 178 141 167
-7.213923 -3.950533 45.911797 179 142 169
-7.216125 -3.852737 45.925800 180 143 170
-7.218371 -3.754905 45.940102 180 144 172
-7.220645 -3.657026 45.954575 181 144 173
-7.222926 -3.559087 45.969090 180 144 173
-7.225188 -3.461077 45.983486 179 142 171
-7.227407 -3.362984 45.997604 178 141 171
-7.229552 -3.264798 46.011257 179 142 172
-7.231594 -3.166507 46.024254 181 144 173
-7.233501 -3.068103 46.036392 182 147 176
-7.235241 -2.969578 46.047466 183 149 177
-7.236782 -2.870927 46.057274 183 149 178
-7.238090 -2.772144 46.065594 182 150 177
-7.239133 -2.673227 46.072235 181 149 175
-7.239881 -2.574177 46.076996 179 147 174
-7.240305 -2.474995 46.079700 178 147 172
-7.240379 -2.375687 46.080166 177 146 172
-7.240078 -2.276259 46.078255 177 147 172
-7.239385 -2.176722 46.073837 177 147 172
-7.238280 -2.077085 46.066807 179 147 173
-7.236754 -1.977363 46.057095 180 147 173
-7.234801 -1.877573 46.044666 181 147 174
-7.232419 -1.777731 46.029503 183 148 176
-7.229612 -1.677855 46.011642 185 150 178
-7.226393 -1.577967 45.991158 186 151 179
-7.222780 -1.478086 45.968159 184 150 179
-7.218797 -1.378234 45.942810 180 147 177
-7.214477 -1.278431 45.915314 178 146 176
-7.209857 -1.178698 45.885914 178 147 176
-7.204985 -1.079053 45.854904 178 147 176
-7.199911 -0.979515 45.822613 177 146 175
-7.194695 -0.880099 45.789413 177 145 175
-7.189396 -0.780817 45.755692 177 144 174
-7.184081 -0.681679 45.721867 175 142 172
-7.178816 -0.582691 45.688358 174 141 170
-7.173666 -0.483855 45.655582 173 141 169
-7.168695 -0.385170 45.623951 173 142 169
-7.163965 -0.286630 45.593845 173 144 170
-7.159529 -0.188229 45.565613 172 144 170
-7.155436 -0.089953 45.539558 170 141 168
-7.151723 0.008210 45.515934 169 140 166
-7.148424 0.106278 45.494934 169 142 166
-7.145557 0.204268 45.476688 170 144 166
-7.143137 0.302198 45.461285 172 145 166
-7.141164 0.400087 45.448727 173 145 166
-7.139633 0.497952 45.438984 174 146 166
-7.138528 0.595811 45.431957 176 146 168
-7.137830 0.693679 45.427513 177 147 168
-7.137512 0.791570 45.425484 177 147 168
-7.137540 0.889496 45.425667 177 147 168
-7.137882 0.987466 45.427845 177 147 168
-7.138500 1.085487 45.431778 178 148 169
-7.139357 1.183564 45.437225 177 148 169
-7.140412 1.281701 45.443947 176 147 168
-7.141629 1.379898 45.451691 175 147 169
-7.142972 1.478154 45.460232 175 147 170
-7.144403 1.576467 45.469341 171 144 168
-7.145889 1.674832 45.478798 166 139 165
-7.147398 1.773244 45.488407 163 137 165
-7.148901 1.871694 45.497967 163 137 165
-7.150367 1.970177 45.507301 163 137 165
-7.151772 2.068682 45.516243 163 137 165
-7.153090 2.167199 45.524632 163 136 164
-7.154299 2.265717 45.532322 163 136 162
-7.155375 2.364225 45.539173 163 135 161
-7.156301 2.462711 45.545071 163 135 160
-7.157061 2.561163 45.549904 163 134 159
-7.157637 2.659567 45.553566 163 134 159
-7.158016 2.757911 45.555981 163 134 159
-7.158190 2.856184 45.557087 163 134 160
-7.158152 2.954374 45.556843 164 135 160
-7.157897 3.052471 45.555225 164 135 160
-7.157430 3.150466 45.552250 165 135 160
-7.156753 3.248355 45.547943 165 135 159
-7.155879 3.346132 45.542377 166 135 159
-7.154824 3.443798 45.535667 165 136 158
-7.153609 3.541356 45.527935 165 136 158
-7.152261 3.638813 45.519352 165 137 159
-7.150811 3.736180 45.510128 165 138 160
-7.149297 3.833473 45.500492 164 139 161
-7.147758 3.930710 45.490700 162 138 161
-7.146239 4.027916 45.481026 162 137 161
-7.144784 4.125119 45.471771 162 137 162
-7.143444 4.222348 45.463238 163 137 162
-7.142263 4.319637 45.455723 165 137 162
-7.141287 4.417021 45.449512 165 136 162
-7.140559 4.514534 45.444881 165 135 160
-7.140119 4.612214 45.442078 164 134 158
-7.139997 4.710092 45.441307 165 135 157
-7.140223 4.808199 45.442741 165 135 156
-7.140812 4.906564 45.446487 163 135 153
-7.141776 5.005207 45.452625 162 135 151
-7.143116 5.104144 45.461151 161 134 150
-7.144825 5.203388 45.472027 160 134 148
-7.146886 5.302940 45.485149 159 133 148
-7.149278 5.402798 45.500366 157 133 148
-7.151971 5.502954 45.517509 155 133 149
-7.154930 5.603392 45.536343 154 133 150
-7.158119 5.704093 45.556633 153 132 150
-7.161494 5.805034 45.578114 152 131 150
-7.165015 5.906188 45.600525 150 131 151
-7.168641 6.007525 45.623600 149 132 151
-7.172331 6.109017 45.647087 149 132 151
-7.176049 6.210635 45.670750 148 133 152
-7.179759 6.312347 45.694359 148 134 152
-7.183429 6.414126 45.717716 148 135 153
-7.187030 6.515943 45.740635 148 136 154
-7.190537 6.617773 45.762959 148 137 155
-7.193929 6.719590 45.784542 148 137 156
-7.197186 6.821373 45.805267 148 138 156
-7.200289 6.923098 45.825024 148 139 156
-7.203228 7.024746 45.843723 149 140 156
-7.205992 7.126304 45.861317 150 141 156
-7.208577 7.227757 45.877766 151 142 157
-7.210979 7.329096 45.893059 152 144 158
-7.213206 7.430319 45.907230 152 143 157
-7.215266 7.531430 45.920338 151 142 155
-7.217175 7.632439 45.932491 150 141 154
-7.218957 7.733362 45.943829 149 140 153
-7.220636 7.834223 45.954514 147 140 151
-7.222246 7.935054 45.964764 146 139 150
-7.223823 8.035893 45.974800 144 139 150
-7.225405 8.136781 45.984863 143 138 150
-7.227029 8.237761 45.995205 142 138 151
-7.228733 8.338875 46.006046 141 137 151
-7.230550 8.440169 46.017609 141 137 152
-7.120484 -10.292631 45.947487 172 156 184
-7.119430 -10.192074 45.940681 171 154 182
-7.118382 -10.091556 45.933918 171 153 180
-7.117306 -9.991027 45.926975 171 153 179
-7.116171 -9.890447 45.919655 172 152 178
-7.114951 -9.789781 45.911781 172 151 177
-7.113626 -9.689005 45.903229 172 151 176
-7.112179 -9.588102 45.893894 171 150 176
-7.110601 -9.487066 45.883717 171 148 177
-7.108892 -9.385900 45.872684 172 147 176
-7.107055 -9.284613 45.860828 172 146 176
-7.105100 -9.183227 45.848213 173 146 175
-7.103045 -9.081766 45.834953 174 147 174
-7.100914 -8.980266 45.821201 176 147 174
-7.098733 -8.878762 45.807129 175 147 172
-7.096531 -8.777294 45.792919 174 146 171
-7.094339 -8.675900 45.778778 173 145 169
-7.092192 -8.574620 45.764919 171 145 168
-7.090118 -8.473488 45.751537 169 143 166
-7.088146 -8.372535 45.738815 167 142 165
-7.086303 -8.271785 45.726917 167 141 164
-7.084608 -8.171258 45.715981 167 141 164
-7.083079 -8.070968 45.706112 168 140 164
-7.081728 -7.970920 45.697395 169 140 164
-7.080564 -7.871118 45.689884 170 140 164
-7.079590 -7.771557 45.683601 170 140 164
-7.078808 -7.672231 45.678555 169 138 161
-7.078214 -7.573128 45.674725 167 136 158
-7.077806 -7.474237 45.672085 166 135 157
-7.077576 -7.375544 45.670601 167 136 157
-7.077517 -7.277033 45.670223 167 136 158
-7.077622 -7.178690 45.670902 167 136 159
-7.077882 -7.080499 45.672581 168 136 160
-7.078288 -6.982445 45.675201 169 137 162
-7.078829 -6.884511 45.678692 171 138 164
-7.079496 -6.786682 45.682995 174 139 165
-7.080276 -6.688942 45.688030 176 139 166
-7.081159 -6.591275 45.693722 177 139 166
-7.082130 -6.493666 45.699989 177 139 165
-7.083177 -6.396097 45.706745 176 137 163
-7.084285 -6.298554 45.713898 175 136 161
-7.085442 -6.201023 45.721359 175 135 161
-7.086633 -6.103489 45.729050 176 136 163
-7.087849 -6.005943 45.736893 177 138 164
-7.089076 -5.908372 45.744812 179 140 166
-7.090307 -5.810771 45.752754 180 142 167
-7.091537 -5.713134 45.760689 181 144 168
-7.092760 -5.615458 45.768589 183 146 170
-7.093979 -5.517745 45.776451 185 149 171
-7.095194 -5.419994 45.784294 183 148 170
-7.096413 -5.322213 45.792160 180 146 167
-7.097642 -5.224405 45.800087 178 144 166
-7.098891 -5.126577 45.808147 177 144 166
-7.100171 -5.028737 45.816402 176 143 166
-7.101493 -4.930890 45.824936 174 141 166
-7.102870 -4.833044 45.833824 173 139 166
-7.104312 -4.735203 45.843132 173 138 166
-7.105831 -4.637372 45.852928 173 138 165
-7.107432 -4.539551 45.863262 174 139 166
-7.109122 -4.441741 45.874165 175 140 166
-7.110904 -4.343940 45.885666 176 140 166
-7.112778 -4.246145 45.897758 176 140 165
-7.114740 -4.148349 45.910423 175 139 164
-7.116786 -4.050546 45.923626 176 139 165
-7.118906 -3.952727 45.937302 176 139 166
-7.121087 -3.854883 45.951378 177 140 167
-7.123314 -3.757002 45.965748 178 141 168
-7.125569 -3.659073 45.980301 178 141 169
-7.127831 -3.561085 45.994896 178 141 170
-7.130077 -3.463026 46.009388 179 141 170
-7.132281 -3.364885 46.023609 180 141 172
-7.134415 -3.266651 46.037376 180 142 173
-7.136450 -3.168313 46.050510 181 143 173
-7.138354 -3.069863 46.062798 181 144 174
-7.140097 -2.971292 46.074047 181 145 175
-7.141646 -2.872595 46.084038 182 146 175
-7.142970 -2.773767 46.092579 182 147 175
-7.144036 -2.674807 46.099461 181 147 174
-7.144815 -2.575713 46.104492 179 146 172
-7.145279 -2.476488 46.107487 177 145 171
-7.145403 -2.377137 46.108284 177 145 170
-7.145163 -2.277666 46.106731 177 145 170
-7.144537 -2.178085 46.102695 177 144 171
-7.143513 -2.078405 46.096088 177 144 171
-7.142078 -1.978640 46.086826 177 144 171
-7.140226 -1.878805 46.074875 179 144 172
-7.137956 -1.778917 46.060230 182 147 174
-7.135273 -1.678996 46.042915 183 148 176
-7.132188 -1.579060 46.023010 183 148 176
-7.128718 -1.479130 46.000614 183 148 177
-7.124887 -1.379226 45.975899 181 148 177
-7.120728 -1.279370 45.949059 179 147 176
-7.116278 -1.179582 45.920341 179 148 177
-7.111582 -1.079880 45.890038 179 147 176
-7.106690 -0.980282 45.858475 177 145 175
-7.101659 -0.880803 45.826012 178 145 175
-7.096550 -0.781455 45.793045 178 145 175
-7.091426 -0.682247 45.759979 177 144 174
-7.086352 -0.583187 45.727234 176 143 173
-7.081393 -0.484275 45.695232 175 142 171
-7.076610 -0.385511 45.664371 174 143 170
-7.072064 -0.286889 45.635036 175 145 172
-7.067807 -0.188402 45.607567 175 146 173
-7.063886 -0.090038 45.582264 171 143 170
-7.060340 0.008218 45.559383 170 141 168
-7.057198 0.106382 45.539108 170 142 168
-7.054482 0.204470 45.521584 171 144 168
-7.052203 0.302501 45.506874 172 144 168
-7.050363 0.400494 45.495007 173 145 168
-7.048957 0.498467 45.485931 174 145 169
-7.047970 0.596435 45.479561 175 146 169
-7.047381 0.694416 45.475761 176 147 169
-7.047165 0.792422 45.474369 176 147 169
-7.047291 0.890465 45.475182 176 147 168
-7.047725 0.988556 45.477982 177 147 168
-7.048432 1.086700 45.482540 178 148 170
-7.049374 1.184903 45.488625 178 149 170
-7.050514 1.283169 45.495979 176 148 169
-7.051816 1.381498 45.504375 176 148 170
-7.053243 1.479889 45.513584 174 148 170
-7.054761 1.578341 45.523384 169 143 167
-7.056336 1.676848 45.533550 164 138 164
-7.057940 1.775406 45.543892 163 137 164
-7.059538 1.874008 45.554211 163 137 165
-7.061106 1.972646 45.564327 164 137 165
-7.062616 2.071310 45.574074 163 137 165
-7.064045 2.169991 45.583290 163 136 163
-7.065367 2.268678 45.591824 163 136 161
-7.066561 2.367359 45.599529 163 135 160
-7.067608 2.466021 45.606281 163 135 159
-7.068490 2.564653 45.611969 163 134 158
-7.069189 2.663240 45.616482 163 134 158
-7.069692 2.761770 45.619732 163 133 159
-7.069989 2.860231 45.621647 163 133 158
-7.070072 2.958611 45.622181 163 133 158
-7.069937 3.056899 45.621315 164 134 158
-7.069584 3.155086 45.619038 165 134 158
-7.069020 3.253165 45.615395 165 134 158
-7.068254 3.351133 45.610447 165 135 158
-7.067300 3.448989 45.604298 165 135 157
-7.066182 3.546735 45.597080 165 135 157
-7.064925 3.644378 45.588966 165 136 158
-7.063560 3.741930 45.580162 166 139 161
-7.062126 3.839405 45.570908 166 139 162
-7.060660 3.936824 45.561451 164 138 162
-7.059208 4.034209 45.552082 163 138 162
-7.057817 4.131589 45.543098 162 137 161
-7.056531 4.228995 45.534809 163 136 161
-7.055401 4.326459 45.527512 164 136 160
-7.054469 4.424017 45.521500 164 135 159
-7.053780 4.521704 45.517052 163 134 158
-7.053371 4.619556 45.514416 162 134 156
-7.053277 4.717606 45.513802 163 135 156
-7.053521 4.815886 45.515385 164 135 155
-7.054125 4.914423 45.519279 162 134 152
-7.055098 5.013237 45.525555 161 134 150
-7.056441 5.112349 45.534225 159 133 148
-7.058149 5.211766 45.545246 158 133 147
-7.060207 5.311494 45.558525 158 133 147
-7.062593 5.411531 45.573921 157 133 148
-7.065278 5.511868 45.591251 155 133 148
-7.068231 5.612493 45.610302 154 132 149
-7.071414 5.713385 45.630840 152 131 150
-7.074786 5.814521 45.652603 151 130 149
-7.078310 5.915878 45.675343 150 130 149
-7.081943 6.017425 45.698784 149 130 149
-7.085647 6.119135 45.722687 147 131 149
-7.089385 6.220978 45.746807 147 132 149
-7.093123 6.322925 45.770931 147 133 150
-7.096829 6.424946 45.794842 147 134 151
-7.100473 6.527015 45.818359 147 135 152
-7.104031 6.629104 45.841316 147 136 154
-7.107480 6.731188 45.863567 148 137 156
-7.110797 6.833243 45.884979 148 138 156
-7.113968 6.935246 45.905441 148 139 156
-7.116977 7.037179 45.924854 148 139 155
-7.119815 7.139023 45.943169 149 139 154
-7.122475 7.240764 45.960331 150 140 155
-7.124953 7.342393 45.976326 150 141 156
-7.127256 7.443908 45.991188 150 142 156
-7.129393 7.545310 46.004971 150 142 155
-7.131378 7.646610 46.017780 150 142 154
-7.133234 7.747825 46.029755 149 141 153
-7.134987 7.848978 46.041069 147 141 152
-7.136670 7.950102 46.051926 145 140 151
-7.138318 8.051233 46.062565 144 140 150
-7.139970 8.152415 46.073227 143 138 151
-7.141664 8.253692 46.084156 142 137 151
-7.143437 8.355107 46.095596 141 136 152
-7.145323 8.456705 46.107765 140 135 153
-7.019473 -10.289752 45.934635 172 155 182
-7.018604 -10.189469 45.928944 171 154 180
-7.017743 -10.089225 45.923313 170 152 179
-7.016857 -9.988969 45.917515 170 152 177
-7.015917 -9.888660 45.911362 170 151 176
-7.014895 -9.788266 45.904678 171 151 175
-7.013771 -9.687757 45.897320 171 150 175
-7.012528 -9.587119 45.889187 171 150 174
-7.011158 -9.486344 45.880222 171 148 175
-7.009657 -9.385432 45.870403 171 147 175
-7.008030 -9.284396 45.859753 171 147 175
-7.006287 -9.183253 45.848347 172 146 174
-7.004444 -9.082029 45.836285 173 146 173
-7.002523 -8.980760 45.823719 174 146 172
-7.000551 -8.879477 45.810810 174 146 171
-6.998555 -8.778221 45.797752 173 145 170
-6.996567 -8.677031 45.784740 172 145 168
-6.994617 -8.575943 45.771980 171 144 166
-6.992736 -8.474995 45.759670 169 142 165
-6.990951 -8.374214 45.747990 168 141 164
-6.989286 -8.273625 45.737095 166 139 163
-6.987762 -8.173249 45.727119 166 139 163
-6.986396 -8.073098 45.718182 167 139 163
-6.985199 -7.973179 45.710350 169 139 164
-6.984179 -7.873494 45.703678 169 139 164
-6.983341 -7.774039 45.698193 169 138 164
-6.982685 -7.674808 45.693897 169 136 161
-6.982209 -7.575790 45.690781 166 134 157
-6.981908 -7.476975 45.688816 165 133 155
-6.981777 -7.378346 45.687958 165 133 155
-6.981810 -7.279892 45.688168 166 134 156
-6.981997 -7.181597 45.689396 167 134 157
-6.982332 -7.083445 45.691586 168 135 158
-6.982804 -6.985423 45.694679 168 135 159
-6.983405 -6.887513 45.698612 171 136 162
-6.984126 -6.789702 45.703327 174 139 164
-6.984953 -6.691975 45.708740 176 139 164
-6.985878 -6.594315 45.714790 176 138 163
-6.986885 -6.496705 45.721382 176 137 162
-6.987963 -6.399133 45.728439 175 136 160
-6.989100 -6.301582 45.735874 173 134 159
-6.990279 -6.204038 45.743595 173 134 159
-6.991491 -6.106489 45.751522 175 136 161
-6.992723 -6.008923 45.759583 176 137 163
-6.993964 -5.911329 45.767704 178 140 165
-6.995206 -5.813702 45.775837 179 141 166
-6.996445 -5.716036 45.783939 181 144 168
-6.997676 -5.618330 45.791996 186 150 173
-6.998899 -5.520583 45.800003 191 155 177
-7.000118 -5.422798 45.807976 188 153 174
-7.001338 -5.324979 45.815960 181 147 168
-7.002566 -5.227132 45.823997 178 144 167
-7.003813 -5.129264 45.832157 178 144 167
-7.005089 -5.031382 45.840504 177 143 168
-7.006406 -4.933493 45.849125 177 142 167
-7.007777 -4.835603 45.858093 176 140 167
-7.009211 -4.737718 45.867477 175 139 166
-7.010718 -4.639841 45.877346 175 139 165
-7.012308 -4.541975 45.887749 175 140 165
-7.013986 -4.444119 45.898727 176 140 165
-7.015753 -4.346272 45.910294 176 140 164
-7.017612 -4.248430 45.922455 176 140 164
-7.019558 -4.150587 45.935192 176 139 163
-7.021587 -4.052738 45.948467 175 139 162
-7.023689 -3.954872 45.962223 175 138 163
-7.025853 -3.856980 45.976379 175 138 163
-7.028062 -3.759053 45.990845 176 138 164
-7.030301 -3.661078 46.005493 176 138 166
-7.032549 -3.563044 46.020199 177 139 167
-7.034781 -3.464940 46.034813 178 140 169
-7.036975 -3.366754 46.049168 180 141 171
-7.039103 -3.268475 46.063087 181 142 173
-7.041135 -3.170094 46.076385 181 142 173
-7.043042 -3.071600 46.088867 180 142 172
-7.044793 -2.972987 46.100327 180 143 172
-7.046357 -2.874248 46.110558 180 143 172
-7.047702 -2.775379 46.119358 180 144 172
-7.048799 -2.676378 46.126537 180 144 171
-7.049617 -2.577244 46.131889 178 142 170
-7.050129 -2.477979 46.135242 177 142 169
-7.050309 -2.378588 46.136425 178 143 170
-7.050136 -2.279077 46.135292 178 143 170
-7.049589 -2.179456 46.131710 177 143 170
-7.048654 -2.079736 46.125591 176 143 170
-7.047319 -1.979929 46.116856 176 142 170
-7.045578 -1.880052 46.105457 177 142 171
-7.043430 -1.780121 46.091404 179 144 173
-7.040879 -1.680155 46.074715 181 145 174
-7.037937 -1.580173 46.055458 181 145 174
-7.034619 -1.480195 46.033749 181 146 175
-7.030951 -1.380242 46.009750 181 148 176
-7.026963 -1.280334 45.983646 180 148 176
-7.022692 -1.180490 45.955696 180 148 177
-7.018180 -1.080731 45.926174 179 148 176
-7.013479 -0.981072 45.895409 178 146 175
-7.008643 -0.881528 45.863762 178 145 174
-7.003731 -0.782113 45.831619 179 145 174
-6.998806 -0.682835 45.799389 179 144 174
-6.993930 -0.583700 45.767487 178 144 174
-6.989168 -0.484710 45.736320 177 143 172
-6.984579 -0.385865 45.706291 176 144 172
-6.980222 -0.287158 45.677776 177 146 174
-6.976148 -0.188582 45.651119 175 147 174
-6.972403 -0.090125 45.626610 173 145 172
-6.969026 0.008226 45.604511 171 143 171
-6.966044 0.106489 45.585003 171 143 171
-6.963480 0.204679 45.568222 171 144 171
-6.961343 0.302816 45.554237 172 145 171
-6.959636 0.400917 45.543064 173 145 171
-6.958353 0.499001 45.534672 173 145 170
-6.957480 0.597083 45.528961 174 146 171
-6.956999 0.695180 45.525810 175 147 171
-6.956882 0.793305 45.525043 176 148 171
-6.957100 0.891470 45.526478 176 146 170
-6.957622 0.989684 45.529884 175 146 169
-6.958411 1.087954 45.535049 176 148 171
-6.959433 1.186287 45.541737 177 149 172
-6.960650 1.284684 45.549702 175 148 171
-6.962027 1.383147 45.558716 173 147 170
-6.963531 1.481676 45.568554 171 145 169
-6.965126 1.580269 45.578995 167 141 166
-6.966781 1.678921 45.589821 164 138 165
-6.968465 1.777627 45.600845 164 137 165
-6.970150 1.876380 45.611870 164 137 164
-6.971806 1.975173 45.622707 164 136 164
-6.973409 2.073997 45.633198 164 135 162
-6.974934 2.172842 45.643177 163 135 161
-6.976356 2.271696 45.652481 163 135 159
-6.977654 2.370548 45.660973 162 134 158
-6.978806 2.469386 45.668518 162 133 158
-6.979796 2.568196 45.674995 163 133 158
-6.980605 2.666965 45.680286 163 133 158
-6.981219 2.765680 45.684307 163 132 159
-6.981627 2.864327 45.686977 163 132 158
-6.981820 2.962895 45.688236 162 131 157
-6.981793 3.061371 45.688061 162 131 157
-6.981546 3.159748 45.686447 164 133 157
-6.981084 3.258017 45.683422 164 133 157
-6.980418 3.356174 45.679058 164 134 157
-6.979560 3.454219 45.673450 164 134 156
-6.978533 3.552152 45.666725 164 134 156
-6.977362 3.649982 45.659065 165 136 158
-6.976080 3.747719 45.650677 167 140 162
-6.974722 3.845378 45.641792 168 141 164
-6.973329 3.942978 45.632671 166 140 163
-6.971943 4.040544 45.623608 164 138 161
-6.970613 4.138103 45.614895 163 137 160
-6.969382 4.235685 45.606846 162 136 159
-6.968300 4.333325 45.599766 162 136 158
-6.967412 4.431058 45.593956 162 135 157
-6.966759 4.528919 45.589680 161 133 156
-6.966380 4.626943 45.587200 161 133 155
-6.966308 4.725165 45.586731 161 134 154
-6.966569 4.823616 45.588440 161 134 153
-6.967184 4.922323 45.592461 160 133 151
-6.968160 5.021308 45.598850 159 132 149
-6.969503 5.120591 45.607635 157 131 147
-6.971205 5.220181 45.618778 156 130 146
-6.973254 5.320082 45.632183 156 130 146
-6.975629 5.420295 45.647724 156 131 148
-6.978303 5.520812 45.665222 155 131 149
-6.981244 5.621619 45.684471 154 131 150
-6.984418 5.722700 45.705242 151 130 150
-6.987786 5.824032 45.727280 150 128 149
-6.991309 5.925591 45.750332 148 128 148
-6.994947 6.027348 45.774143 147 129 147
-6.998665 6.129277 45.798466 146 130 146
-7.002424 6.231349 45.823067 146 131 147
-7.006191 6.333533 45.847721 145 132 149
-7.009935 6.435802 45.872219 145 133 150
-7.013626 6.538128 45.896370 145 134 152
-7.017237 6.640483 45.920006 146 136 154
-7.020747 6.742841 45.942970 148 137 156
-7.024132 6.845178 45.965118 149 139 157
-7.027375 6.947469 45.986343 149 139 157
-7.030460 7.049694 46.006535 147 138 154
-7.033376 7.151834 46.025616 147 137 154
-7.036116 7.253874 46.043545 149 139 154
-7.038676 7.355804 46.060299 149 140 155
-7.041060 7.457619 46.075897 149 141 155
-7.043276 7.559321 46.090397 150 142 155
-7.045338 7.660919 46.103889 149 142 154
-7.047268 7.762430 46.116524 148 142 153
-7.049094 7.863878 46.128471 147 142 152
-7.050847 7.965295 46.139938 144 141 151
-7.052561 8.066719 46.151157 143 140 150
-7.054277 8.168192 46.162388 142 138 151
-7.056032 8.269759 46.173874 142 137 151
-7.057863 8.371467 46.185856 141 135 152
-7.059804 8.473358 46.198559 141 134 152
-6.918450 -10.286773 45.921337 172 155 181
-6.917758 -10.186763 45.916744 169 152 177
-6.917079 -10.086792 45.912239 169 151 176
-6.916378 -9.986808 45.907585 169 151 175
-6.915625 -9.886770 45.902584 169 151 173
-6.914794 -9.786644 45.897072 169 150 173
-6.913863 -9.686401 45.890892 170 150 173
-6.912817 -9.586024 45.883945 171 150 173
-6.911645 -9.485506 45.876167 171 149 174
-6.910345 -9.384847 45.867538 171 149 174
-6.908919 -9.284057 45.858078 172 148 174
-6.907379 -9.183153 45.847851 172 147 174
-6.905738 -9.082164 45.836964 172 146 173
-6.904020 -8.981120 45.825558 173 145 172
-6.902247 -8.880054 45.813793 173 145 171
-6.900450 -8.779009 45.801861 173 145 170
-6.898656 -8.678020 45.789955 172 144 168
-6.896897 -8.577124 45.778278 172 143 166
-6.895201 -8.476356 45.767021 170 142 165
-6.893595 -8.375746 45.756359 169 140 164
-6.892102 -8.275318 45.746449 167 138 163
-6.890744 -8.175093 45.737434 166 137 162
-6.889534 -8.075081 45.729412 167 137 163
-6.888487 -7.975291 45.722454 169 137 164
-6.887609 -7.875724 45.716625 169 137 164
-6.886903 -7.776378 45.711941 169 137 164
-6.886371 -7.677246 45.708412 169 136 162
-6.886010 -7.578316 45.706013 168 134 159
-6.885816 -7.479578 45.704727 167 133 158
-6.885783 -7.381020 45.704510 166 132 156
-6.885906 -7.282626 45.705322 166 131 155
-6.886176 -7.184382 45.707115 166 132 155
-6.886584 -7.086274 45.709827 167 132 155
-6.887125 -6.988287 45.713417 167 131 155
-6.887787 -6.890407 45.717812 170 134 158
-6.888561 -6.792618 45.722950 175 137 162
-6.889437 -6.694906 45.728760 176 138 162
-6.890403 -6.597255 45.735176 174 136 159
-6.891448 -6.499651 45.742115 173 135 158
-6.892560 -6.402079 45.749489 173 134 158
-6.893723 -6.304522 45.757210 172 134 157
-6.894927 -6.206969 45.765202 172 134 157
-6.896159 -6.109406 45.773376 173 135 159
-6.897407 -6.011821 45.781662 175 137 161
-6.898662 -5.914207 45.789993 177 139 163
-6.899915 -5.816556 45.798313 177 140 164
-6.901162 -5.718863 45.806583 179 143 167
-6.902399 -5.621127 45.814793 190 154 176
-6.903625 -5.523348 45.822937 199 163 185
-6.904846 -5.425528 45.831039 194 158 179
-6.906066 -5.327672 45.839134 182 147 169
-6.907292 -5.229787 45.847275 177 143 166
-6.908535 -5.131879 45.855526 177 144 167
-6.909807 -5.033957 45.863964 178 143 168
-6.911117 -4.936026 45.872665 178 142 168
-6.912479 -4.838093 45.881706 178 141 167
-6.913904 -4.740164 45.891167 177 141 166
-6.915402 -4.642244 45.901104 177 141 165
-6.916979 -4.544333 45.911575 177 141 164
-6.918643 -4.446432 45.922619 177 141 163
-6.920397 -4.348540 45.934258 177 141 163
-6.922241 -4.250654 45.946499 177 140 162
-6.924171 -4.152767 45.959312 176 140 161
-6.926184 -4.054872 45.972672 176 139 160
-6.928270 -3.956962 45.986515 175 137 160
-6.930418 -3.859026 46.000771 174 136 161
-6.932613 -3.761055 46.015347 174 136 161
-6.934839 -3.663037 46.030117 175 136 162
-6.937074 -3.564960 46.044952 175 137 164
-6.939297 -3.466814 46.059711 176 138 166
-6.941485 -3.368587 46.074234 178 139 168
-6.943610 -3.270267 46.088333 181 141 170
-6.945644 -3.171845 46.101841 181 141 171
-6.947559 -3.073312 46.114548 180 142 171
-6.949323 -2.974659 46.126255 180 142 171
-6.950907 -2.875882 46.136768 179 141 170
-6.952281 -2.776975 46.145885 179 140 169
-6.953413 -2.677936 46.153400 179 140 168
-6.954276 -2.578765 46.159130 178 139 168
-6.954842 -2.479464 46.162888 177 139 168
-6.955087 -2.380036 46.164513 178 140 169
-6.954988 -2.280488 46.163857 178 141 170
-6.954527 -2.180830 46.160797 178 141 170
-6.953688 -2.081072 46.155228 177 141 171
-6.952460 -1.981227 46.147083 176 141 171
-6.950838 -1.881310 46.136314 176 141 171
-6.948820 -1.781339 46.122921 177 142 171
-6.946410 -1.681330 46.106922 178 142 171
-6.943620 -1.581303 46.088402 179 144 172
-6.940464 -1.481279 46.067455 180 146 174
-6.936967 -1.381276 46.044243 181 147 175
-6.933158 -1.281317 46.018959 181 149 176
-6.929073 -1.181419 45.991848 181 149 177
-6.924755 -1.081602 45.963188 180 148 176
-6.920253 -0.981882 45.933304 179 146 175
-6.915620 -0.882274 45.902550 179 145 174
-6.910913 -0.782790 45.871311 179 144 174
-6.906194 -0.683440 45.839985 180 144 174
-6.901524 -0.584229 45.808990 180 144 174
-6.896964 -0.485160 45.778721 179 144 174
-6.892574 -0.386230 45.749588 178 145 174
-6.888412 -0.287436 45.721958 177 147 174
-6.884526 -0.188768 45.696163 176 147 174
-6.880961 -0.090216 45.672508 174 146 174
-6.877756 0.008235 45.651230 173 145 173
-6.874937 0.106600 45.632519 172 145 172
-6.872525 0.204896 45.616508 172 145 172
-6.870531 0.303142 45.603271 172 145 172
-6.868957 0.401355 45.592827 173 145 171
-6.867797 0.499554 45.585129 172 144 171
-6.867038 0.597754 45.580086 173 145 171
-6.866661 0.695971 45.577583 175 147 172
-6.866640 0.794218 45.577446 176 147 172
-6.866947 0.892508 45.579483 174 146 169
-6.867551 0.990849 45.583492 172 145 168
-6.868417 1.089249 45.589241 173 146 169
-6.869512 1.187713 45.596508 174 147 171
-6.870799 1.286245 45.605053 172 147 170
-6.872245 1.384845 45.614647 170 145 169
-6.873815 1.483514 45.625072 168 143 168
-6.875478 1.582249 45.636108 167 142 167
-6.877202 1.681046 45.647549 166 140 166
-6.878957 1.779901 45.659199 166 138 165
-6.880714 1.878807 45.670864 165 137 164
-6.882447 1.977756 45.682362 165 136 163
-6.884129 2.076739 45.693527 164 135 161
-6.885736 2.175747 45.704193 163 134 159
-6.887243 2.274768 45.714203 162 134 158
-6.888630 2.373790 45.723404 161 133 157
-6.889875 2.472801 45.731667 161 132 156
-6.890958 2.571787 45.738857 162 132 157
-6.891863 2.670735 45.744862 162 132 157
-6.892574 2.769632 45.749580 163 131 158
-6.893079 2.868462 45.752934 162 130 157
-6.893369 2.967215 45.754864 160 128 155
-6.893440 3.065879 45.755333 160 128 154
-6.893290 3.164443 45.754333 161 130 155
-6.892922 3.262900 45.751892 163 133 156
-6.892347 3.361245 45.748077 164 134 156
-6.891579 3.459477 45.742977 164 135 156
-6.890638 3.557598 45.736736 165 135 157
-6.889551 3.655614 45.729519 166 137 159
-6.888348 3.753536 45.721535 168 140 162
-6.887066 3.851379 45.713024 168 140 164
-6.885743 3.949162 45.704247 167 140 163
-6.884424 4.046909 45.695488 164 138 161
-6.883152 4.144648 45.687050 163 137 159
-6.881978 4.242410 45.679249 162 136 158
-6.880943 4.340227 45.672386 161 136 157
-6.880096 4.438135 45.666763 160 135 156
-6.879478 4.536169 45.662663 159 134 155
-6.879128 4.634366 45.660336 159 133 154
-6.879076 4.732759 45.659992 159 133 153
-6.879351 4.831380 45.661819 159 132 152
-6.879972 4.930256 45.665939 158 131 151
-6.880949 5.029411 45.672424 157 130 149
-6.882286 5.128861 45.681301 155 129 147
-6.883979 5.228621 45.692532 154 129 145
-6.886014 5.328693 45.706043 154 129 146
-6.888373 5.429080 45.721703 155 130 148
-6.891032 5.529773 45.739349 154 130 149
-6.893958 5.630762 45.758770 153 130 149
-6.897119 5.732029 45.779751 150 128 149
-6.900478 5.833555 45.802052 148 127 147
-6.903999 5.935315 45.825417 146 126 146
-6.907642 6.037283 45.849598 145 127 145
-6.911371 6.139433 45.874352 144 128 144
-6.915152 6.241735 45.899445 144 129 145
-6.918949 6.344160 45.924648 144 130 148
-6.922732 6.446681 45.949757 144 132 149
-6.926471 6.549269 45.974579 145 133 151
