ply
format ascii 1.0
element vertex 1241
property float x
property float y
property float z
property uchar red
property uchar green
property uchar blue
end_header
-6.695823 -2.625666 55.576477 21 17 18
-6.725145 -2.516836 55.819859 21 17 18
-6.754588 -2.406999 56.064236 21 17 18
-6.783998 -2.296097 56.308346 21 16 18
-6.813222 -2.184084 56.550911 20 16 18
-6.842104 -2.070921 56.790634 20 17 17
-6.870493 -1.956584 57.026268 20 17 16
-6.898247 -1.841062 57.256626 21 17 16
-6.925232 -1.724355 57.480614 23 17 16
-6.951338 -1.606479 57.697296 26 17 17
-6.976466 -1.487461 57.905865 30 18 19
-7.000541 -1.367338 58.105690 35 20 21
-7.023507 -1.246156 58.296307 41 24 24
-7.045328 -1.123970 58.477432 48 28 28
-7.065991 -1.000839 58.648937 56 33 33
-7.085498 -0.876826 58.810848 61 36 37
-7.103867 -0.751994 58.963310 64 37 39
-7.121126 -0.626407 59.106564 64 36 39
-7.137317 -0.500128 59.240955 64 35 38
-7.152486 -0.373216 59.366856 63 34 37
-7.166682 -0.245728 59.484684 62 35 36
-7.179955 -0.117716 59.594856 63 36 36
-7.192358 0.010769 59.697796 64 38 37
-7.203935 0.139681 59.793892 64 38 38
-7.214730 0.268979 59.883495 64 38 38
-7.224783 0.398623 59.966934 65 38 37
-7.234127 0.528574 60.044491 64 37 36
-7.242790 0.658798 60.116402 64 35 35
-7.250798 0.789260 60.182865 63 34 35
-7.258170 0.919928 60.244057 62 33 33
-7.264924 1.050771 60.300110 62 32 32
-7.271073 1.181757 60.351154 62 31 32
-7.276630 1.312857 60.397278 62 31 32
-7.281607 1.444040 60.438587 62 32 32
-7.286016 1.575278 60.475178 63 33 33
-7.289867 1.706544 60.507145 64 34 34
-7.293174 1.837810 60.534592 64 34 33
-7.295950 1.969051 60.557632 63 33 32
-7.298214 2.100245 60.576424 63 33 31
-7.299983 2.231368 60.591110 63 32 31
-7.301278 2.362401 60.601856 63 32 31
-7.302120 2.493325 60.608849 62 32 31
-7.302534 2.624126 60.612278 62 31 30
-7.302544 2.754790 60.612362 62 31 30
-7.302173 2.885303 60.609283 63 32 31
-7.301445 3.015656 60.603249 63 32 31
-7.300385 3.145839 60.594444 64 32 32
-7.299011 3.275844 60.583038 65 32 32
-7.297341 3.405661 60.569176 66 31 32
-7.295389 3.535281 60.552975 68 31 32
-7.293165 3.664696 60.534519 68 31 32
-7.290680 3.793895 60.513893 68 32 33
-7.287939 3.922867 60.491142 67 32 33
-7.284949 4.051602 60.466320 65 31 32
-7.281714 4.180090 60.439472 64 30 32
-7.278242 4.308322 60.410648 63 31 33
-7.274538 4.436288 60.379910 62 32 33
-7.270612 4.563983 60.347328 62 33 32
-7.266478 4.691402 60.313007 62 33 32
-7.262150 4.818545 60.277088 62 33 31
-7.257648 4.945414 60.239716 62 33 31
-7.252992 5.072015 60.201077 61 32 31
-7.248209 5.198358 60.161377 62 33 31
-7.243325 5.324456 60.120838 62 33 31
-7.238368 5.450324 60.079693 62 33 31
-7.233366 5.575979 60.038174 62 32 31
-7.228346 5.701441 59.996506 63 32 31
-7.223335 5.826732 59.954918 63 31 31
-7.218359 5.951871 59.913616 64 31 30
-7.213440 6.076881 59.872787 63 31 30
-7.208599 6.201782 59.832607 63 31 30
-7.203853 6.326592 59.793209 63 32 30
-7.199215 6.451330 59.754715 62 32 30
-7.194695 6.576010 59.717205 62 32 30
-7.190302 6.700647 59.680740 61 33 31
-7.186038 6.825247 59.645340 60 33 31
-7.181900 6.949819 59.611000 58 32 31
-7.177886 7.074364 59.577679 56 31 30
-7.173985 7.198879 59.545300 56 30 29
-7.170186 7.323358 59.513767 55 30 29
-7.166472 7.447791 59.482944 56 30 30
-7.162826 7.572160 59.452679 58 30 30
-7.159225 7.696449 59.422791 59 30 31
-7.155647 7.820635 59.393097 59 30 31
-7.152071 7.944693 59.363407 58 29 30
-7.148471 8.068599 59.333534 57 28 29
-7.144829 8.192326 59.303307 57 28 28
-7.141126 8.315850 59.272564 56 27 28
-7.137343 8.439150 59.241169 57 28 28
-7.133469 8.562203 59.209015 57 29 29
-7.129494 8.684997 59.176022 58 30 30
-5.544985 -8.174202 46.862812 34 22 21
-5.549119 -8.079200 46.897751 34 21 20
-5.553708 -7.984702 46.936535 34 21 21
-5.558789 -7.890735 46.979477 35 21 21
-5.564397 -7.797322 47.026875 35 21 22
-5.570565 -7.704478 47.078999 35 22 22
-5.577321 -7.612212 47.136093 35 23 22
-5.584690 -7.520526 47.198372 35 23 22
-5.592695 -7.429417 47.266029 35 23 22
-5.601357 -7.338876 47.339230 35 23 21
-5.610694 -7.248892 47.418148 34 23 21
-5.620722 -7.159447 47.502895 34 23 21
-5.631453 -7.070520 47.593582 34 23 21
-5.642897 -6.982084 47.690304 35 24 22
-5.655062 -6.894110 47.793114 37 24 23
-5.667948 -6.806560 47.902020 37 25 23
-5.681553 -6.719390 48.017006 37 25 23
-5.695869 -6.632551 48.137993 37 24 22
-5.710880 -6.545988 48.264858 36 23 21
-5.726563 -6.459636 48.397404 35 22 20
-5.742887 -6.373424 48.535358 35 21 19
-5.759813 -6.287273 48.678406 36 20 19
-5.777294 -6.201102 48.826141 36 20 19
-5.795275 -6.114822 48.978111 37 21 19
-5.813696 -6.028343 49.133793 37 21 20
-5.832491 -5.941574 49.292633 36 21 20
-5.851591 -5.854425 49.454060 35 21 20
-5.870927 -5.766811 49.617470 33 20 20
-5.890430 -5.678655 49.782303 32 20 19
-5.910035 -5.589884 49.947990 31 20 19
-5.929682 -5.500438 50.114037 30 19 19
-5.949320 -5.410268 50.280006 29 18 18
-5.968905 -5.319335 50.445526 28 18 18
-5.988402 -5.227611 50.610306 27 17 18
-6.007791 -5.135084 50.774162 27 17 18
-6.027059 -5.041750 50.937000 27 18 18
-6.046208 -4.947617 51.098839 28 18 18
-6.065251 -4.852701 51.259777 28 19 18
-6.084212 -4.757027 51.420025 29 19 17
-6.103127 -4.660627 51.579880 29 19 17
-6.122040 -4.563537 51.739727 29 19 16
-6.141005 -4.465795 51.900005 28 18 15
-6.160085 -4.367444 52.061260 27 18 16
-6.179348 -4.268523 52.224056 27 18 16
-6.198867 -4.169074 52.389019 27 17 16
-6.218719 -4.069130 52.556801 27 18 17
-6.238983 -3.968726 52.728054 27 18 17
-6.259733 -3.867884 52.903427 26 18 17
-6.281043 -3.766620 53.083519 26 18 17
-6.302977 -3.664944 53.268894 26 18 16
-6.325592 -3.562852 53.460026 25 17 16
-6.348933 -3.460332 53.657284 24 18 17
-6.373027 -3.357358 53.860916 25 18 18
-6.397889 -3.253896 54.071030 25 18 19
-6.423509 -3.149900 54.287556 25 18 19
-6.449862 -3.045317 54.510277 24 18 19
-6.476899 -2.940085 54.738777 23 18 18
-6.504551 -2.834135 54.972473 23 18 18
-6.532729 -2.727397 55.210617 22 17 18
-6.561323 -2.619799 55.452278 22 18 18
-6.590211 -2.511270 55.696423 22 17 18
-6.619254 -2.401745 55.941872 21 17 18
-6.648305 -2.291165 56.187393 21 17 17
-6.677212 -2.179480 56.431698 20 16 17
-6.705820 -2.066648 56.673473 20 17 17
-6.733979 -1.952645 56.911457 20 17 16
-6.761547 -1.837455 57.144444 21 17 16
-6.788391 -1.721076 57.371315 22 17 17
-6.814395 -1.603522 57.591087 25 17 18
-6.839459 -1.484816 57.802910 29 17 19
-6.863502 -1.364994 58.006107 33 19 20
-6.886464 -1.244101 58.200169 39 21 22
-6.908305 -1.122189 58.384758 46 26 26
-6.929005 -0.999317 58.559696 56 32 33
-6.948559 -0.875546 58.724960 63 37 39
-6.966983 -0.750940 58.880665 66 38 41
-6.984300 -0.625564 59.027016 66 37 40
-7.000548 -0.499481 59.164333 65 35 39
-7.015769 -0.372752 59.292980 64 34 37
-7.030013 -0.245433 59.413357 63 35 36
-7.043329 -0.117580 59.525898 63 36 36
-7.055768 0.010756 59.631020 63 38 36
-7.067378 0.139530 59.729137 64 38 37
-7.078202 0.268697 59.820618 65 38 37
-7.088282 0.398216 59.905811 66 38 37
-7.097655 0.528050 59.985023 66 37 37
-7.106351 0.658163 60.058521 65 36 37
-7.114397 0.788521 60.126518 64 34 36
-7.121815 0.919091 60.189209 63 33 35
-7.128624 1.049841 60.246761 63 32 34
-7.134841 1.180742 60.299301 62 32 33
-7.140479 1.311762 60.346947 63 32 33
-7.145549 1.442874 60.389801 63 32 33
-7.150066 1.574048 60.427971 64 33 34
-7.154040 1.705258 60.461559 64 34 34
-7.157485 1.836477 60.490673 64 34 34
-7.160414 1.967679 60.515427 64 34 32
-7.162845 2.098842 60.535973 64 33 32
-7.164795 2.229944 60.552448 63 33 31
-7.166282 2.360965 60.565018 63 33 31
-7.167328 2.491886 60.573856 62 32 31
-7.167955 2.622692 60.579155 62 31 31
-7.168186 2.753369 60.581108 62 31 31
-7.168042 2.883904 60.579895 63 32 31
-7.167547 3.014286 60.575710 64 32 32
-7.166720 3.144504 60.568726 65 32 33
-7.165581 3.274549 60.559097 66 32 33
-7.164145 3.404412 60.546959 67 31 32
-7.162423 3.534081 60.532406 67 31 33
-7.160426 3.663546 60.515526 68 32 33
-7.158160 3.792797 60.496380 69 32 33
-7.155632 3.921821 60.475010 69 33 34
-7.152846 4.050607 60.451466 67 32 33
-7.149807 4.179144 60.425781 66 32 33
-7.146521 4.307420 60.398006 64 33 34
-7.142993 4.435428 60.368198 63 33 34
-7.139235 4.563160 60.336441 63 34 33
-7.135259 4.690610 60.302830 63 34 32
-7.131080 4.817780 60.267513 63 34 32
-7.126718 4.944670 60.230652 62 33 32
-7.122195 5.071287 60.192429 62 33 31
-7.117539 5.197641 60.153072 63 33 31
-7.112775 5.323745 60.112816 63 33 31
-7.107934 5.449615 60.071892 63 33 31
-7.103042 5.575271 60.030552 63 32 30
-7.098129 5.700731 59.989033 64 32 30
-7.093223 5.826017 59.947567 64 31 30
-7.088348 5.951152 59.906372 65 30 30
-7.083529 6.076156 59.865646 65 31 30
-7.078786 6.201051 59.825558 65 31 30
-7.074135 6.325856 59.786251 65 32 30
-7.069591 6.450589 59.747845 64 32 30
-7.065164 6.575264 59.710426 64 32 30
-7.060859 6.699895 59.674046 63 33 31
-7.056680 6.824491 59.638725 61 33 31
-7.052625 6.949056 59.604458 60 33 31
-7.048688 7.073593 59.571186 58 32 30
-7.044862 7.198099 59.538853 56 30 29
-7.041133 7.322567 59.507339 56 29 28
-7.037487 7.446986 59.476524 57 30 29
-7.033906 7.571342 59.446255 58 30 30
-7.030367 7.695616 59.416351 59 31 31
-7.026852 7.819785 59.386642 60 31 31
-7.023338 7.943828 59.356941 59 30 30
-7.019804 8.067720 59.327076 59 29 30
-7.016231 8.191438 59.296879 58 28 29
-7.012601 8.314959 59.266205 57 28 29
-7.008901 8.438261 59.234928 58 28 29
-7.005116 8.561326 59.202942 58 29 29
-7.001240 8.684140 59.170185 59 31 30
-6.997267 8.806691 59.136612 60 32 31
-5.433122 -8.057102 46.769478 35 21 20
-5.437605 -7.962848 46.808071 35 21 20
-5.442569 -7.869123 46.850803 34 21 21
-5.448049 -7.775949 46.897972 34 21 21
-5.454078 -7.683346 46.949871 35 22 22
-5.460685 -7.591323 47.006741 35 22 22
-5.467898 -7.499886 47.068836 35 23 22
-5.475739 -7.409031 47.136333 35 23 21
-5.484231 -7.318754 47.209438 35 23 21
-5.493393 -7.229043 47.288303 34 23 21
-5.503241 -7.139882 47.373077 34 23 21
-5.513789 -7.051250 47.463875 35 23 22
-5.525047 -6.963122 47.560783 36 24 23
-5.537024 -6.875469 47.663879 37 24 24
-5.549720 -6.788252 47.773178 38 25 24
-5.563134 -6.701427 47.888645 38 25 24
-5.577259 -6.614948 48.010235 38 25 24
-5.592077 -6.528755 48.137798 37 24 22
-5.607568 -6.442785 48.271149 36 22 21
-5.623700 -6.356964 48.410011 36 21 20
-5.640433 -6.271212 48.554054 36 20 20
-5.657722 -6.185447 48.702877 37 20 20
-5.675510 -6.099578 48.856007 37 21 20
-5.693738 -6.013512 49.012913 37 21 21
-5.712337 -5.927156 49.173023 37 21 21
-5.731240 -5.840418 49.335739 36 22 21
-5.750375 -5.753211 49.500462 35 21 21
-5.769673 -5.665455 49.666580 33 21 20
-5.789067 -5.577074 49.833527 32 20 19
-5.808496 -5.488007 50.000774 30 20 19
-5.827906 -5.398200 50.167858 29 19 18
-5.847250 -5.307614 50.334377 28 18 18
-5.866494 -5.216221 50.500034 28 17 18
-5.885612 -5.124005 50.664612 27 17 18
-5.904593 -5.030961 50.827995 27 18 18
-5.923435 -4.937098 50.990192 27 18 18
-5.942149 -4.842431 51.151287 28 19 18
-5.960759 -4.746986 51.311489 28 19 18
-5.979298 -4.650796 51.471077 28 19 17
-5.997812 -4.553898 51.630451 28 19 16
-6.016354 -4.456335 51.790058 27 18 15
-6.034986 -4.358148 51.950447 27 18 15
-6.053777 -4.259381 52.112202 27 17 16
-6.072802 -4.160078 52.275978 26 17 16
-6.092140 -4.060277 52.442448 26 17 17
-6.111870 -3.960012 52.612289 26 17 17
-6.132071 -3.859312 52.786186 27 18 18
-6.152817 -3.758194 52.964767 26 18 17
-6.174177 -3.656670 53.148636 26 18 17
-6.196210 -3.554740 53.338299 26 18 17
-6.218962 -3.452391 53.534153 26 18 18
-6.242466 -3.349601 53.736481 26 18 18
-6.266738 -3.246337 53.945419 26 18 19
-6.291775 -3.142554 54.160946 26 19 19
-6.317554 -3.038199 54.382851 25 18 18
-6.344029 -2.933209 54.610764 24 17 18
-6.371138 -2.827517 54.844116 23 17 17
-6.398793 -2.721052 55.082180 23 17 17
-6.426892 -2.613741 55.324066 23 17 17
-6.455316 -2.505513 55.568737 22 17 17
-6.483928 -2.396300 55.815044 22 17 17
-6.512588 -2.286042 56.061752 21 16 16
-6.541145 -2.174686 56.307575 20 17 16
-6.569447 -2.062190 56.551208 20 17 17
-6.597347 -1.948525 56.791370 20 17 17
-6.624701 -1.833673 57.026836 21 17 17
-6.651376 -1.717631 57.256466 22 17 17
-6.677255 -1.600408 57.479237 24 17 18
-6.702233 -1.482025 57.694260 27 16 18
-6.726229 -1.362517 57.900818 31 17 19
-6.749175 -1.241924 58.098343 36 19 21
-6.771027 -1.120299 58.286449 44 24 26
-6.791759 -0.997699 58.464912 55 32 34
-6.811362 -0.874184 58.633659 64 38 41
-6.829844 -0.749819 58.792759 67 40 43
-6.847226 -0.624667 58.942387 67 38 42
-6.863541 -0.498793 59.082832 65 36 40
-6.878829 -0.372258 59.214436 65 35 38
-6.893136 -0.245120 59.337585 64 35 37
-6.906510 -0.117436 59.452713 64 37 36
-6.919002 0.010744 59.560246 64 38 36
-6.930660 0.139370 59.660603 65 38 36
-6.941530 0.268398 59.754173 66 38 37
-6.951654 0.397788 59.841324 67 38 38
-6.961071 0.527499 59.922386 68 38 39
-6.969813 0.657496 59.997643 66 36 38
-6.977910 0.787745 60.067341 65 35 37
-6.985386 0.918212 60.131695 64 34 36
-6.992261 1.048867 60.190876 64 33 35
-6.998554 1.179680 60.245052 64 32 34
-7.004280 1.310619 60.294338 64 32 34
-7.009451 1.441657 60.338852 64 33 34
-7.014081 1.572765 60.378712 64 34 34
-7.018184 1.703917 60.414024 64 34 34
-7.021770 1.835087 60.444901 64 34 34
-7.024855 1.966249 60.471455 64 34 33
-7.027454 2.097381 60.493832 64 33 32
-7.029585 2.228461 60.512177 63 34 32
-7.031266 2.359469 60.526638 63 33 32
-7.032515 2.490386 60.537392 62 32 32
-7.033355 2.621197 60.544624 62 31 31
-7.033806 2.751888 60.548508 62 31 32
-7.033889 2.882444 60.549225 63 31 32
-7.033625 3.012854 60.546947 64 32 33
-7.033032 3.143108 60.541843 65 32 33
-7.032126 3.273195 60.534046 66 32 33
-7.030923 3.403103 60.523689 67 31 33
-7.029431 3.532822 60.510841 67 31 33
-7.027659 3.662340 60.495598 68 32 33
-7.025614 3.791644 60.477993 69 33 33
-7.023300 3.920722 60.458065 69 33 34
-7.020720 4.049561 60.435852 69 33 34
-7.017877 4.178148 60.411388 68 34 35
-7.014779 4.306473 60.384716 66 34 35
-7.011430 4.434524 60.355892 65 34 35
-7.007842 4.562294 60.324997 65 35 34
-7.004025 4.689779 60.292141 64 35 33
-6.999996 4.816976 60.257458 64 34 33
-6.995775 4.943888 60.221127 64 34 32
-6.991386 5.070521 60.183346 64 34 31
-6.986855 5.196886 60.144337 64 33 31
-6.982209 5.322995 60.104347 65 33 31
-6.977479 5.448866 60.063629 65 33 30
-6.972693 5.574517 60.022434 64 32 30
-6.967882 5.699969 59.981014 65 32 30
-6.963072 5.825244 59.939613 65 31 30
-6.958291 5.950365 59.898453 65 31 30
-6.953561 6.075354 59.857738 66 31 30
-6.948903 6.200230 59.817638 66 31 30
-6.944334 6.325016 59.778313 67 31 29
-6.939869 6.449728 59.739876 66 32 29
-6.935516 6.574381 59.702408 66 32 30
-6.931283 6.698988 59.665974 65 33 30
-6.927173 6.823559 59.630581 63 33 31
-6.923181 6.948096 59.596222 61 33 31
-6.919304 7.072603 59.562851 59 32 30
-6.915534 7.197077 59.530396 57 30 29
-6.911858 7.321510 59.498753 56 30 28
-6.908261 7.445893 59.467793 57 30 29
-6.904726 7.570210 59.437359 58 31 30
-6.901234 7.694443 59.407299 59 31 31
-6.897765 7.818573 59.377438 60 31 31
-6.894299 7.942578 59.347599 60 31 31
-6.890817 8.066435 59.317623 60 30 31
-6.887300 8.190122 59.287354 60 29 30
-6.883734 8.313619 59.256653 59 29 30
-6.880105 8.436905 59.225410 60 29 29
-6.876401 8.559965 59.193531 60 30 30
-6.872617 8.682785 59.160957 59 31 30
-6.868747 8.805356 59.127647 60 32 31
-5.317593 -8.034875 46.640453 35 22 20
-5.321976 -7.940874 46.678902 35 22 20
-5.326828 -7.847397 46.721455 35 22 20
-5.332183 -7.754470 46.768429 35 21 21
-5.338077 -7.662113 46.820118 35 22 21
-5.344539 -7.570338 46.876801 35 22 22
-5.351598 -7.479153 46.938717 36 22 22
-5.359279 -7.388557 47.006081 36 22 21
-5.367602 -7.298546 47.079086 35 22 20
-5.376589 -7.209110 47.157913 35 22 20
-5.386258 -7.120234 47.242714 34 22 21
-5.396621 -7.031898 47.333607 35 23 21
-5.407691 -6.944078 47.430706 36 23 23
-5.419477 -6.856744 47.534073 38 24 24
-5.431979 -6.769859 47.643738 39 24 25
-5.445198 -6.683380 47.759678 40 25 25
-5.459125 -6.597257 47.881828 39 25 25
-5.473746 -6.511432 48.010067 38 24 24
-5.489038 -6.425840 48.144192 37 23 23
-5.504969 -6.340406 48.283928 36 22 22
-5.521501 -6.255051 48.428928 36 21 21
-5.538587 -6.169687 48.578789 36 20 21
-5.556173 -6.084225 48.733036 37 21 21
-5.574195 -5.998568 48.891109 37 22 22
-5.592588 -5.912621 49.052433 37 22 23
-5.611282 -5.826290 49.216393 37 23 23
-5.630204 -5.739485 49.382355 36 23 22
-5.649284 -5.652123 49.549709 34 22 21
-5.668454 -5.564128 49.717850 32 21 20
-5.687651 -5.475434 49.886230 31 20 19
-5.706820 -5.385988 50.054363 29 19 18
-5.725914 -5.295746 50.221825 28 18 18
-5.744893 -5.204679 50.388290 27 18 17
-5.763732 -5.112771 50.553532 26 18 17
-5.782416 -5.020015 50.717411 26 18 18
-5.800943 -4.926419 50.879906 26 18 18
-5.819323 -4.832000 51.041115 27 19 18
-5.837576 -4.736784 51.201214 27 19 18
-5.855736 -4.640804 51.360497 27 18 16
-5.873848 -4.544100 51.519356 27 18 15
-5.891964 -4.446713 51.678249 27 18 15
-5.910147 -4.348692 51.837734 26 18 15
-5.928466 -4.250080 51.998409 26 17 15
-5.946999 -4.150925 52.160961 25 16 16
-5.965823 -4.051266 52.326065 24 16 16
-5.985021 -3.951143 52.494450 24 16 16
-6.004672 -3.850584 52.666809 25 18 17
-6.024854 -3.749612 52.843822 26 18 18
-6.045637 -3.648240 53.026108 26 18 18
-6.067082 -3.546470 53.214203 26 18 18
-6.089240 -3.444291 53.408554 26 18 18
-6.112146 -3.341684 53.609459 27 18 19
-6.135819 -3.238615 53.817101 27 18 19
-6.160260 -3.135042 54.031467 26 18 18
-6.185449 -3.030911 54.252399 25 17 18
-6.211346 -2.926161 54.479542 24 17 17
-6.237890 -2.820724 54.712360 24 17 16
-6.265002 -2.714530 54.950153 23 17 16
-6.292581 -2.607504 55.192047 23 17 16
-6.320512 -2.499575 55.437027 22 17 16
-6.348665 -2.390673 55.683964 22 17 16
-6.376904 -2.280736 55.931641 21 17 16
-6.405080 -2.169711 56.178776 21 17 16
-6.433045 -2.057553 56.424061 21 17 17
-6.460655 -1.944231 56.666218 20 17 17
-6.487765 -1.829723 56.903999 20 17 16
-6.514244 -1.714024 57.136250 21 16 16
-6.539971 -1.597141 57.361904 23 16 16
-6.564844 -1.479092 57.580055 26 15 16
-6.588773 -1.359908 57.789940 29 15 17
-6.611688 -1.239628 57.990929 34 17 20
-6.633540 -1.118303 58.182590 43 23 25
-6.654297 -0.995988 58.364655 53 31 34
-6.673947 -0.872743 58.537003 63 38 41
-6.692490 -0.748631 58.699638 67 40 43
-6.709942 -0.623717 58.852711 67 39 43
-6.726332 -0.498064 58.996468 66 37 40
-6.741697 -0.371735 59.131233 65 36 39
-6.756079 -0.244789 59.257381 65 36 38
-6.769526 -0.117283 59.375320 65 37 37
-6.782087 0.010730 59.485493 65 38 37
-6.793810 0.139201 59.588318 66 38 37
-6.804742 0.268084 59.684196 67 38 38
-6.814925 0.397337 59.773518 68 38 38
-6.824401 0.526920 59.856625 68 38 38
-6.833203 0.656797 59.933834 66 36 37
-6.841364 0.786933 60.005409 65 34 36
-6.848908 0.917295 60.071579 65 33 35
-6.855860 1.047851 60.132553 65 33 35
-6.862238 1.178572 60.188496 65 33 35
-6.868058 1.309428 60.239544 65 33 35
-6.873336 1.440390 60.285835 65 34 35
-6.878086 1.571431 60.327492 65 34 35
-6.882319 1.702524 60.364632 65 34 35
-6.886051 1.833643 60.397354 65 35 34
-6.889293 1.964764 60.425789 64 34 33
-6.892062 2.095864 60.450077 64 33 32
-6.894374 2.226921 60.470360 63 33 32
-6.896247 2.357915 60.486786 63 33 33
-6.897699 2.488828 60.499519 62 32 32
-6.898750 2.619644 60.508739 62 32 32
-6.899420 2.750347 60.514614 62 31 32
-6.899727 2.880925 60.517311 62 31 32
-6.899691 3.011364 60.516994 63 32 33
-6.899329 3.141653 60.513817 64 32 33
-6.898655 3.271781 60.507908 65 31 32
-6.897683 3.401736 60.499378 65 30 32
-6.896419 3.531505 60.488297 66 31 32
-6.894873 3.661077 60.474731 67 32 33
-6.893047 3.790436 60.458717 68 33 33
-6.890945 3.919569 60.440289 69 33 34
-6.888571 4.048463 60.419464 69 34 34
-6.885927 4.177103 60.396271 68 34 35
-6.883018 4.305477 60.370754 67 34 36
-6.879849 4.433574 60.342964 66 34 35
-6.876430 4.561385 60.312973 65 35 35
-6.872774 4.688905 60.280907 65 35 34
-6.868896 4.816132 60.246899 65 35 33
-6.864818 4.943067 60.211124 65 35 32
-6.860561 5.069716 60.173790 65 34 31
-6.856154 5.196091 60.135136 65 34 30
-6.851625 5.322204 60.095409 66 33 30
-6.847004 5.448072 60.054878 65 33 30
-6.842321 5.573715 60.013802 65 33 30
-6.837604 5.699153 59.972431 66 32 30
-6.832884 5.824411 59.931034 66 32 30
-6.828187 5.949509 59.889835 66 31 30
-6.823536 6.074471 59.849045 66 31 30
-6.818953 6.199318 59.808838 66 31 30
-6.814454 6.324071 59.769382 67 31 30
-6.810054 6.448747 59.730789 67 31 30
-6.805762 6.573361 59.693146 66 33 30
-6.801585 6.697927 59.656509 65 33 30
-6.797525 6.822451 59.620903 63 33 30
-6.793581 6.946940 59.586304 61 33 30
-6.789747 7.071395 59.552677 59 33 30
-6.786016 7.195814 59.519951 57 31 29
-6.782375 7.320189 59.488022 56 30 28
-6.778811 7.444512 59.456760 57 30 29
-6.775308 7.568767 59.426033 58 31 31
-6.771847 7.692938 59.395679 59 31 31
-6.768410 7.817006 59.365536 60 31 31
-6.764979 7.940950 59.335442 61 31 31
-6.761537 8.064752 59.305248 61 31 31
-6.758066 8.188389 59.274807 61 30 31
-6.754554 8.311844 59.244003 61 30 30
-6.750988 8.435098 59.212727 61 29 30
-6.747359 8.558138 59.180897 60 30 29
-6.743661 8.680952 59.148464 60 31 29
-6.739891 8.803531 59.115391 60 31 30
-6.736045 8.925867 59.081657 61 32 31
-5.206844 -7.918809 46.549198 36 22 20
-5.211588 -7.825589 46.591614 36 22 20
-5.216825 -7.732915 46.638428 36 22 21
-5.222588 -7.640810 46.689949 35 22 21
-5.228909 -7.549289 46.746464 36 22 21
-5.235818 -7.458361 46.808224 36 22 21
-5.243339 -7.368026 46.875462 36 22 21
-5.251495 -7.278284 46.948383 36 22 20
-5.260309 -7.189124 47.027180 35 22 20
-5.269797 -7.100533 47.112003 35 21 20
-5.279975 -7.012494 47.202991 36 22 21
-5.290856 -6.924981 47.300266 37 23 22
-5.302447 -6.837965 47.403893 39 24 24
-5.314753 -6.751411 47.513905 41 24 24
-5.327772 -6.665275 47.630295 41 25 25
-5.341496 -6.579505 47.752991 40 25 25
-5.355912 -6.494045 47.881866 39 25 25
-5.370997 -6.408827 48.016727 38 24 25
-5.386719 -6.323777 48.157284 37 23 23
-5.403041 -6.238812 48.303200 36 21 22
-5.419915 -6.153845 48.454052 35 20 22
-5.437286 -6.068784 48.609352 35 21 22
-5.455092 -5.983529 48.768536 36 22 23
-5.473266 -5.897985 48.931015 37 23 23
-5.491737 -5.812055 49.096146 37 23 23
-5.510433 -5.725646 49.263287 37 23 23
-5.529283 -5.638673 49.431801 35 22 22
-5.548216 -5.551058 49.601063 33 21 20
-5.567169 -5.462732 49.770504 31 20 19
-5.586085 -5.373641 49.939617 30 20 18
-5.604915 -5.283738 50.107952 28 19 17
-5.623619 -5.192994 50.275162 27 19 17
-5.642168 -5.101389 50.440994 27 19 17
-5.660547 -5.008919 50.605309 26 18 17
-5.678752 -4.915589 50.768055 26 18 18
-5.696789 -4.821416 50.929310 26 18 18
-5.714681 -4.726428 51.089264 27 18 17
-5.732459 -4.630657 51.248199 27 18 16
-5.750166 -4.534145 51.406498 27 18 16
-5.767855 -4.436938 51.564640 26 18 16
-5.785590 -4.339083 51.723186 26 18 15
-5.803439 -4.240627 51.882755 25 17 15
-5.821479 -4.141620 52.044037 24 17 15
-5.839791 -4.042106 52.207745 24 16 15
-5.858458 -3.942124 52.374630 24 17 16
-5.877561 -3.841708 52.545414 24 18 17
-5.897179 -3.740883 52.720791 25 18 18
-5.917384 -3.639662 52.901428 26 19 19
-5.938241 -3.538052 53.087894 27 18 19
-5.959802 -3.436043 53.280647 27 18 19
-5.982105 -3.333616 53.480034 27 18 19
-6.005172 -3.230741 53.686253 27 18 19
-6.029007 -3.127375 53.899338 26 18 18
-6.053595 -3.023467 54.119148 25 17 17
-6.078897 -2.918954 54.345356 25 16 16
-6.104860 -2.813770 54.577465 24 16 15
-6.131407 -2.707843 54.814793 24 16 15
-6.158442 -2.601100 55.056488 23 16 15
-6.185856 -2.493467 55.301575 22 16 15
-6.213525 -2.384875 55.548931 22 17 15
-6.241314 -2.275261 55.797367 22 17 16
-6.269081 -2.164568 56.045597 21 17 16
-6.296679 -2.052750 56.292328 21 17 17
-6.323967 -1.939773 56.536285 21 17 17
-6.350805 -1.825614 56.776211 20 16 16
-6.377059 -1.710265 57.010929 21 15 15
-6.402611 -1.593729 57.239361 22 15 15
-6.427352 -1.476022 57.460548 25 15 15
-6.451194 -1.357172 57.673691 28 15 16
-6.474061 -1.237217 57.878124 33 16 18
-6.495901 -1.116204 58.073368 41 22 24
-6.516675 -0.994187 58.259090 52 30 33
-6.536365 -0.871224 58.435116 61 37 40
-6.554966 -0.747379 58.601418 65 39 43
-6.572492 -0.622714 58.758091 66 39 42
-6.588963 -0.497295 58.905346 66 38 41
-6.604413 -0.371183 59.043472 66 37 40
-6.618883 -0.244440 59.172829 66 36 39
-6.632415 -0.117122 59.293808 66 37 38
-6.645059 0.010716 59.406845 66 37 38
-6.656862 0.139024 59.512363 67 37 37
-6.667870 0.267754 59.610775 68 37 37
-6.678127 0.396865 59.702477 68 37 37
-6.687676 0.526314 59.787838 67 37 37
-6.696552 0.656066 59.867188 67 35 36
-6.704787 0.786086 59.940815 66 34 35
-6.712411 0.916339 60.008972 66 34 35
-6.719448 1.046794 60.071880 66 34 35
-6.725918 1.177421 60.129726 66 33 35
-6.731841 1.308192 60.182674 67 34 36
-6.737230 1.439076 60.230854 67 34 36
-6.742102 1.570048 60.274410 66 35 36
-6.746470 1.701081 60.313465 65 35 35
-6.750348 1.832149 60.348125 65 35 35
-6.753747 1.963227 60.378517 64 34 34
-6.756686 2.094294 60.404789 64 33 33
-6.759179 2.225327 60.427078 63 33 33
-6.761242 2.356307 60.445522 63 33 33
-6.762895 2.487214 60.460293 62 32 33
-6.764153 2.618034 60.471550 62 32 33
-6.765038 2.748750 60.479462 62 32 32
-6.765567 2.879348 60.484184 63 31 32
-6.765755 3.009815 60.485870 63 31 33
-6.765621 3.140140 60.484665 63 31 33
-6.765175 3.270309 60.480686 63 31 32
-6.764431 3.400311 60.474026 63 30 31
-6.763393 3.530131 60.464752 64 31 32
-6.762069 3.659756 60.452915 66 31 32
-6.760462 3.789171 60.438545 67 32 33
-6.758572 3.918361 60.421654 68 33 33
-6.756403 4.047310 60.402264 68 34 34
-6.753957 4.176004 60.380390 68 34 35
-6.751237 4.304430 60.356075 68 34 36
-6.748249 4.432575 60.329361 67 35 36
-6.745001 4.560429 60.300327 67 35 35
-6.741506 4.687985 60.269081 67 35 34
-6.737781 4.815243 60.235779 67 35 33
-6.733845 4.942202 60.200588 67 35 32
-6.729721 5.068868 60.163723 67 34 31
-6.725438 5.195252 60.125431 67 34 31
-6.721024 5.321368 60.085968 67 33 30
-6.716509 5.447231 60.045605 67 33 30
-6.711924 5.572862 60.004616 67 33 31
-6.707298 5.698282 59.963261 67 33 31
-6.702662 5.823514 59.921810 67 32 31
-6.698041 5.948582 59.880505 67 32 31
-6.693461 6.073508 59.839558 67 32 31
-6.688941 6.198314 59.799152 66 31 31
-6.684501 6.323021 59.759457 66 31 31
-6.680154 6.447646 59.720592 66 32 30
-6.675909 6.572205 59.682648 66 33 31
-6.671774 6.696711 59.645679 65 34 31
-6.667752 6.821171 59.609718 64 34 31
-6.663839 6.945592 59.574741 62 33 31
-6.660034 7.069975 59.540718 60 33 30
-6.656326 7.194317 59.507572 58 31 29
-6.652706 7.318614 59.475212 56 30 29
-6.649162 7.442854 59.443523 57 30 30
-6.645676 7.567026 59.412361 58 30 31
-6.642234 7.691113 59.381592 59 31 32
-6.638818 7.815099 59.351051 60 32 32
-6.635412 7.938964 59.320602 61 32 32
-6.632000 8.062691 59.290096 62 32 32
-6.628567 8.186261 59.259403 62 31 32
-6.625102 8.309658 59.228424 62 30 31
-6.621593 8.432866 59.197060 62 29 30
-6.618034 8.555874 59.165237 61 30 29
-6.614418 8.678670 59.132915 60 30 29
-6.610744 8.801249 59.100063 61 30 29
-6.607008 8.923603 59.066669 62 31 30
-5.092238 -7.896694 46.419197 37 23 20
-5.096881 -7.803739 46.461525 37 23 20
-5.102004 -7.711326 46.508221 37 23 21
-5.107641 -7.619480 46.559605 36 22 21
-5.113826 -7.528217 46.615982 36 22 21
-5.120587 -7.437550 46.677620 36 22 21
-5.127952 -7.347481 46.744751 36 22 21
-5.135943 -7.258008 46.817596 36 22 20
-5.144584 -7.169126 46.896362 35 22 20
-5.153892 -7.080822 46.981213 36 22 20
-5.163885 -6.993078 47.072300 37 23 21
-5.174573 -6.905871 47.169735 38 24 23
-5.185968 -6.819172 47.273609 40 24 24
-5.198073 -6.732945 47.383953 41 25 25
-5.210887 -6.647148 47.500759 41 25 25
-5.224402 -6.561727 47.623962 40 25 25
-5.238606 -6.476626 47.753441 40 25 25
-5.253476 -6.391778 47.888992 39 24 25
-5.268981 -6.307106 48.030327 38 23 24
-5.285082 -6.222525 48.177101 36 22 23
-5.301733 -6.137949 48.328884 35 21 22
-5.318879 -6.053280 48.485176 35 21 23
-5.336456 -5.968421 48.645405 36 22 23
-5.354398 -5.883273 48.808956 37 23 23
-5.372633 -5.797735 48.975185 37 23 23
-5.391089 -5.711716 49.143429 37 23 23
-5.409694 -5.625124 49.313019 35 23 22
-5.428376 -5.537881 49.483322 34 22 21
-5.447073 -5.449917 49.653751 32 21 19
-5.465723 -5.361175 49.823761 30 20 18
-5.484277 -5.271605 49.992893 28 20 18
-5.502693 -5.181178 50.160770 28 19 17
-5.520943 -5.089874 50.327133 27 19 17
-5.539008 -4.997684 50.491802 27 18 17
-5.556882 -4.904617 50.654739 27 18 17
-5.574572 -4.810688 50.815994 27 18 17
-5.592098 -4.715926 50.975754 27 18 17
-5.609489 -4.620365 51.134293 28 18 16
-5.626790 -4.524046 51.292000 27 18 16
-5.644053 -4.427018 51.449356 27 18 16
-5.661338 -4.329329 51.606922 26 19 16
-5.678718 -4.231031 51.765358 25 19 15
-5.696269 -4.132174 51.925343 24 18 15
-5.714072 -4.032805 52.087627 23 17 15
-5.732211 -3.932968 52.252975 23 17 16
-5.750769 -3.832696 52.422146 24 18 17
-5.769825 -3.732018 52.595860 25 18 18
-5.789455 -3.630950 52.774799 26 18 19
-5.809724 -3.529499 52.959560 27 18 19
-5.830687 -3.427659 53.150650 27 18 19
-5.852384 -3.325413 53.348438 27 18 19
-5.874840 -3.222731 53.553143 27 18 18
-5.898062 -3.119570 53.764824 26 17 17
-5.922039 -3.015882 53.983387 25 17 16
-5.946736 -2.911604 54.208519 25 16 16
-5.972103 -2.806670 54.439758 25 16 15
-5.998067 -2.701009 54.676445 24 16 14
-6.024540 -2.594546 54.917763 24 15 14
-6.051416 -2.487208 55.162750 23 16 14
-6.078575 -2.378924 55.410320 22 16 15
-6.105888 -2.269631 55.659298 22 16 15
-6.133216 -2.159270 55.908417 22 16 15
-6.160420 -2.047793 56.156395 21 16 16
-6.187358 -1.935164 56.401958 21 16 16
-6.213894 -1.821358 56.643848 21 16 15
-6.239896 -1.706363 56.880871 21 15 15
-6.265244 -1.590181 57.111938 23 15 15
-6.289830 -1.472824 57.336056 25 14 15
-6.313562 -1.354318 57.552391 28 14 16
-6.336362 -1.234697 57.760231 31 16 17
-6.358173 -1.114007 57.959045 38 20 22
-6.378952 -0.992299 58.148460 48 28 30
-6.398674 -0.869631 58.328243 56 34 36
-6.417331 -0.746064 58.498314 61 36 40
-6.434928 -0.621661 58.658722 63 37 41
-6.451483 -0.496487 58.809635 65 37 41
-6.467026 -0.370604 58.951313 66 37 40
-6.481590 -0.244073 59.084076 67 36 40
-6.495219 -0.116953 59.208313 67 37 39
-6.507958 0.010701 59.324440 68 37 38
-6.519853 0.138838 59.432873 69 38 37
-6.530951 0.267410 59.534035 69 38 37
-6.541295 0.396372 59.628330 68 37 37
-6.550929 0.525683 59.716148 68 37 36
-6.559889 0.655306 59.797829 67 36 35
-6.568211 0.785205 59.873684 68 35 35
-6.575923 0.915346 59.943989 67 35 35
-6.583053 1.045698 60.008980 67 34 35
-6.589623 1.176230 60.068874 67 34 35
-6.595652 1.306913 60.123829 68 34 36
-6.601158 1.437718 60.174015 68 34 36
-6.606155 1.568620 60.219570 67 35 36
-6.610658 1.699591 60.260624 66 35 36
-6.614682 1.830606 60.297302 65 35 35
-6.618239 1.961641 60.329723 64 34 34
-6.621346 2.092673 60.358044 64 33 33
-6.624016 2.223681 60.382389 64 33 33
-6.626267 2.354645 60.402912 63 33 33
-6.628116 2.485547 60.419758 62 33 33
-6.629579 2.616369 60.433098 62 32 33
-6.630675 2.747096 60.443085 62 32 32
-6.631419 2.877714 60.449867 63 31 32
-6.631827 3.008209 60.453594 63 31 33
-6.631915 3.138568 60.454395 64 32 34
-6.631693 3.268778 60.452374 64 32 33
-6.631172 3.398826 60.447620 64 32 32
-6.630357 3.528697 60.440189 65 32 32
-6.629252 3.658376 60.430122 65 32 32
-6.627860 3.787847 60.417423 66 32 32
-6.626180 3.917094 60.402115 66 33 33
-6.624215 4.046100 60.384205 67 33 34
-6.621966 4.174850 60.363697 67 34 35
-6.619435 4.303329 60.340626 68 34 35
-6.616627 4.431522 60.315037 68 35 35
-6.613551 4.559420 60.286995 68 35 35
-6.610219 4.687016 60.256615 68 35 35
-6.606646 4.814305 60.224049 69 35 34
-6.602852 4.941289 60.189465 69 34 33
-6.598862 5.067973 60.153091 69 33 32
-6.594702 5.194366 60.115170 69 33 31
-6.590402 5.320482 60.075970 68 33 30
-6.585991 5.446339 60.035767 69 33 30
-6.581502 5.571954 59.994843 69 33 32
-6.576963 5.697351 59.953468 69 33 33
-6.572405 5.822553 59.911922 68 32 32
-6.567856 5.947583 59.870449 68 32 32
-6.563338 6.072464 59.829269 67 32 32
-6.558875 6.197219 59.788586 66 32 32
-6.554484 6.321867 59.748558 66 32 32
-6.550179 6.446429 59.709316 66 33 32
-6.545971 6.570918 59.670952 65 33 32
-6.541866 6.695347 59.633541 64 34 32
-6.537868 6.819726 59.597092 63 34 32
-6.533976 6.944061 59.561607 62 33 31
-6.530185 7.068352 59.527050 60 32 31
-6.526489 7.192599 59.493362 59 31 31
-6.522878 7.316797 59.460445 58 31 30
-6.519341 7.440936 59.428200 58 30 31
-6.515862 7.565004 59.396492 58 30 32
-6.512428 7.688989 59.365189 59 31 32
-6.509025 7.812875 59.334160 60 31 32
-6.505635 7.936644 59.303261 61 32 32
-6.502245 8.060280 59.272366 63 32 33
-6.498844 8.183768 59.241364 63 31 32
-6.495420 8.307095 59.210152 63 30 31
-6.491966 8.430245 59.178658 62 29 29
-6.488472 8.553209 59.146812 61 29 29
-6.484937 8.675980 59.114586 61 29 28
-6.481357 8.798551 59.081951 62 29 29
-6.477731 8.920918 59.048897 63 30 30
-6.474058 9.043077 59.015419 64 32 32
-4.982737 -7.781891 46.331448 38 23 20
-4.987751 -7.689747 46.378075 39 23 21
-4.993268 -7.598165 46.429363 38 23 21
-4.999320 -7.507167 46.485638 37 23 21
-5.005937 -7.416764 46.547169 37 23 21
-5.013147 -7.326962 46.614212 36 23 21
-5.020976 -7.237762 46.687004 36 23 20
-5.029445 -7.149159 46.765751 36 23 21
-5.038573 -7.061141 46.850636 37 23 22
-5.048379 -6.973692 46.941811 38 24 23
-5.058874 -6.886789 47.039398 39 24 24
-5.070070 -6.800405 47.143501 40 24 24
-5.081970 -6.714502 47.254154 41 25 25
-5.094574 -6.629038 47.371349 41 25 25
-5.107875 -6.543963 47.495033 40 25 26
-5.121861 -6.459217 47.625072 40 25 26
-5.136507 -6.374730 47.761261 39 25 25
-5.151786 -6.290428 47.903328 38 24 25
-5.167656 -6.206224 48.050896 37 23 23
-5.184072 -6.122030 48.203541 36 22 23
-5.200980 -6.037746 48.360752 37 22 24
-5.218315 -5.953274 48.521942 37 23 24
-5.236012 -5.868511 48.686493 37 23 24
-5.253997 -5.783358 48.853733 37 23 24
-5.272200 -5.697717 49.022984 37 23 23
-5.290545 -5.611498 49.193573 35 23 23
-5.308963 -5.524620 49.364826 34 23 22
-5.327388 -5.437009 49.536144 31 22 20
-5.345759 -5.348607 49.706966 30 21 19
-5.364025 -5.259365 49.876812 29 20 19
-5.382143 -5.169249 50.045277 28 20 18
-5.400082 -5.078238 50.212086 28 19 18
-5.417824 -4.986327 50.377060 28 19 17
-5.435360 -4.893519 50.540115 27 19 17
-5.452697 -4.799832 50.701317 28 19 16
-5.469851 -4.705294 50.860828 28 19 16
-5.486855 -4.609941 51.018929 28 19 16
-5.503747 -4.513816 51.176006 29 19 16
-5.520582 -4.416967 51.332542 28 19 16
-5.537421 -4.319446 51.489117 27 19 16
-5.554335 -4.221307 51.646385 26 19 15
-5.571399 -4.122602 51.805061 24 18 15
-5.588698 -4.023382 51.965908 23 18 15
-5.606314 -3.923689 52.129707 22 18 15
-5.624331 -3.823564 52.297234 23 18 16
-5.642830 -3.723034 52.469254 24 18 18
-5.661888 -3.622120 52.646461 26 18 19
-5.681571 -3.520830 52.829487 27 18 19
-5.701938 -3.419160 53.018856 27 18 19
-5.723028 -3.317093 53.214966 27 17 19
-5.744872 -3.214603 53.418079 26 17 18
-5.767478 -3.111647 53.628273 26 17 17
-5.790836 -3.008177 53.845467 25 16 17
-5.814919 -2.904132 54.069401 25 16 16
-5.839678 -2.799446 54.299622 25 17 15
-5.865047 -2.694047 54.535507 25 16 15
-5.890940 -2.587861 54.776276 24 15 14
-5.917257 -2.480816 55.020985 24 15 14
-5.943885 -2.372839 55.268578 23 16 14
-5.970698 -2.263865 55.517895 22 16 14
-5.997563 -2.153835 55.767696 22 16 15
-6.024344 -2.042699 56.016724 21 15 15
-6.050905 -1.930420 56.263691 21 15 15
-6.077111 -1.816969 56.507362 21 15 15
-6.102831 -1.702333 56.746525 22 15 15
-6.127948 -1.586509 56.980068 23 15 15
-6.152353 -1.469509 57.207001 25 15 15
-6.175952 -1.351353 57.426426 27 15 16
-6.198665 -1.232076 57.637619 29 15 16
-6.220428 -1.111718 57.839985 35 18 20
-6.241197 -0.990330 58.033100 43 24 25
-6.260941 -0.867968 58.216690 49 29 31
-6.279646 -0.744690 58.390621 55 32 36
-6.297312 -0.620561 58.554882 59 35 39
-6.313951 -0.495642 58.709602 62 36 40
-6.329588 -0.369998 58.855000 64 36 40
-6.344254 -0.243690 58.991364 66 36 40
-6.357987 -0.116777 59.119061 68 37 39
-6.370830 0.010686 59.238476 69 38 38
-6.382828 0.138644 59.350040 70 39 38
-6.394026 0.267051 59.454163 70 39 38
-6.404468 0.395859 59.551258 69 38 37
-6.414197 0.525028 59.641724 68 37 36
-6.423252 0.654518 59.725922 68 36 34
-6.431668 0.784294 59.804176 67 36 33
-6.439476 0.914320 59.876785 67 35 34
-6.446706 1.044566 59.944008 67 35 35
-6.453381 1.175000 60.006069 68 35 35
-6.459520 1.305594 60.063156 68 34 35
-6.465143 1.436319 60.115440 68 34 36
-6.470267 1.567149 60.163086 68 35 36
-6.474906 1.698057 60.206223 67 35 35
-6.479075 1.829018 60.244987 65 35 35
-6.482788 1.960008 60.279507 65 34 34
-6.486059 2.091005 60.309925 65 34 33
-6.488904 2.221987 60.336380 64 33 33
-6.491338 2.352934 60.359013 63 33 33
-6.493378 2.483828 60.377979 63 33 33
-6.495039 2.614652 60.393429 63 33 33
-6.496339 2.745389 60.405518 63 32 32
-6.497293 2.876025 60.414391 63 31 32
-6.497916 3.006546 60.420174 64 32 33
-6.498220 3.136939 60.423004 65 33 35
-6.498217 3.267188 60.422970 66 33 34
-6.497913 3.397281 60.420151 66 33 34
-6.497314 3.527202 60.414585 66 33 33
-6.496425 3.656934 60.406311 65 33 32
-6.495244 3.786461 60.395325 65 32 32
-6.493771 3.915766 60.381638 65 32 32
-6.492008 4.044829 60.365238 67 33 33
-6.489953 4.173635 60.346134 68 34 34
-6.487610 4.302167 60.324348 69 34 34
-6.484982 4.430411 60.299915 69 34 34
-6.482078 4.558355 60.272911 69 33 34
-6.478908 4.685990 60.243431 69 34 34
-6.475488 4.813313 60.211636 70 34 34
-6.471838 4.940323 60.177696 70 34 33
-6.467982 5.067024 60.141834 69 33 32
-6.463945 5.193427 60.104301 69 32 32
-6.459758 5.319543 60.065372 70 32 31
-6.455452 5.445392 60.025330 70 32 31
-6.451056 5.570990 59.984455 71 32 33
-6.446602 5.696361 59.943039 70 32 33
-6.442120 5.821527 59.901360 69 32 33
-6.437636 5.946513 59.859676 68 32 33
-6.433177 6.071341 59.818207 67 33 33
-6.428763 6.196035 59.777164 66 33 33
-6.424414 6.320615 59.736721 66 33 33
-6.420143 6.445100 59.697014 65 33 33
-6.415962 6.569506 59.658134 64 33 33
-6.411878 6.693845 59.620163 63 34 33
-6.407895 6.818128 59.583126 62 33 32
-6.404012 6.942359 59.547016 61 32 31
-6.400226 7.066543 59.511814 59 31 31
-6.396532 7.190678 59.477467 59 31 31
-6.392920 7.314759 59.443886 58 31 31
-6.389381 7.438779 59.410980 58 30 31
-6.385902 7.562729 59.378624 59 30 32
-6.382470 7.686595 59.346710 59 31 32
-6.379070 7.810365 59.315105 60 31 32
-6.375691 7.934024 59.283688 61 31 32
-6.372321 8.057557 59.252342 62 31 32
-6.368948 8.180952 59.220978 63 30 30
-6.365563 8.304197 59.189503 63 29 29
-6.362159 8.427281 59.157852 63 29 29
-6.358730 8.550195 59.125973 63 28 28
-6.355274 8.672934 59.093830 63 28 28
-6.351788 8.795493 59.061420 63 29 28
-6.348271 8.917870 59.028721 64 30 29
-6.344724 9.040061 58.995731 66 32 31
-6.341146 9.162066 58.962460 68 34 33
-4.874096 -7.668225 46.248272 40 23 21
-4.879496 -7.576915 46.299511 39 23 21
-4.885420 -7.486186 46.355721 37 23 21
-4.891898 -7.396052 46.417183 36 23 21
-4.898957 -7.306521 46.484165 35 23 21
-4.906624 -7.217596 46.556919 35 23 20
-4.914923 -7.129272 46.635662 35 23 21
-4.923872 -7.041539 46.720573 36 23 22
-4.933490 -6.954383 46.811836 38 24 23
-4.943791 -6.867782 46.909573 39 24 24
-4.954784 -6.781708 47.013889 40 25 25
-4.966475 -6.696125 47.124821 41 25 25
-4.978865 -6.610991 47.242382 41 25 26
-4.991946 -6.526253 47.366497 40 25 26
-5.005705 -6.441854 47.497055 40 26 26
-5.020120 -6.357722 47.633831 40 25 26
-5.035162 -6.273781 47.776554 39 24 25
-5.050791 -6.189945 47.924854 38 23 24
-5.066961 -6.106122 48.078285 38 22 23
-5.083618 -6.022213 48.236340 38 22 24
-5.100698 -5.938117 48.398407 38 23 24
-5.118135 -5.853730 48.563862 37 23 24
-5.135858 -5.768949 48.732018 37 23 24
-5.153792 -5.683677 48.902187 37 23 23
-5.171864 -5.597821 49.073662 35 23 23
-5.190002 -5.511296 49.245777 34 23 22
-5.208142 -5.424030 49.417889 32 22 22
-5.226221 -5.335960 49.589432 30 22 21
-5.244186 -5.247037 49.759899 29 21 20
-5.261994 -5.157225 49.928871 29 20 19
-5.279613 -5.066504 50.096054 29 20 18
-5.297023 -4.974864 50.261246 29 19 18
-5.314214 -4.882312 50.424366 29 19 17
-5.331191 -4.788863 50.585453 29 19 17
-5.347971 -4.694548 50.744675 29 19 17
-5.364583 -4.599402 50.902294 29 19 17
-5.381067 -4.503470 51.058708 29 19 17
-5.397476 -4.406802 51.214405 29 19 16
-5.413871 -4.309451 51.369968 28 19 16
-5.430322 -4.211473 51.526062 26 19 16
-5.446906 -4.112923 51.683422 25 19 16
-5.463704 -4.013851 51.842815 24 19 16
-5.480803 -3.914307 52.005058 23 19 17
-5.498286 -3.814330 52.170944 24 19 17
-5.516234 -3.713952 52.341251 25 19 18
-5.534725 -3.613193 52.516708 26 19 19
-5.553829 -3.512065 52.697975 26 18 19
-5.573601 -3.410565 52.885586 25 18 19
-5.594089 -3.308679 53.079979 25 17 18
-5.615319 -3.206379 53.281429 26 17 18
-5.637306 -3.103627 53.490055 25 17 17
-5.660043 -3.000374 53.705795 25 16 17
-5.683506 -2.896560 53.928421 25 16 16
-5.707648 -2.792119 54.157501 25 16 16
-5.732410 -2.686980 54.392452 25 16 15
-5.757710 -2.581069 54.632511 24 15 14
-5.783453 -2.474313 54.876774 24 15 14
-5.809529 -2.366641 55.124203 23 15 13
-5.835821 -2.257984 55.373672 22 15 14
-5.862199 -2.148284 55.623970 22 15 14
-5.888532 -2.037489 55.873833 22 15 14
-5.914688 -1.925559 56.122017 21 15 14
-5.940536 -1.812465 56.367275 22 15 15
-5.965949 -1.698190 56.608402 23 16 16
-5.990807 -1.582729 56.844280 24 16 16
-6.015005 -1.466089 57.073883 25 15 16
-6.038445 -1.348291 57.296295 27 15 15
-6.061048 -1.229364 57.510761 29 16 16
-6.082745 -1.109347 57.716637 32 17 18
-6.103487 -0.988288 57.913448 38 21 22
-6.123240 -0.866241 58.100876 44 25 27
-6.141983 -0.743263 58.278721 50 29 32
-6.159711 -0.619417 58.446934 55 32 36
-6.176431 -0.494764 58.605587 59 34 38
-6.192162 -0.369369 58.754852 61 35 40
-6.206931 -0.243292 58.894989 64 36 40
-6.220772 -0.116593 59.026318 66 37 39
-6.233726 0.010670 59.149227 68 38 38
-6.245833 0.138444 59.264114 70 39 39
-6.257139 0.266679 59.371391 71 40 39
-6.267687 0.395329 59.471478 70 39 38
-6.277520 0.524351 59.564777 69 38 36
-6.286677 0.653705 59.651665 68 37 34
-6.295194 0.783353 59.732479 68 36 34
-6.303105 0.913263 59.807541 68 36 34
-6.310438 1.043400 59.877125 68 35 34
-6.317220 1.173735 59.941471 69 35 35
-6.323472 1.304238 60.000793 69 35 36
-6.329214 1.434881 60.055279 69 35 36
-6.334464 1.565638 60.105095 69 35 35
-6.339237 1.696482 60.150387 68 35 35
-6.343549 1.827388 60.191299 67 34 34
-6.347413 1.958332 60.227959 66 34 34
-6.350844 2.089292 60.260521 65 34 33
-6.353858 2.220247 60.289120 65 33 33
-6.356470 2.351176 60.313900 65 33 33
-6.358694 2.482060 60.335003 64 33 33
-6.360547 2.612883 60.352585 64 33 33
-6.362044 2.743629 60.366791 64 32 33
-6.363200 2.874281 60.377762 64 31 32
-6.364029 3.004827 60.385624 65 33 34
-6.364542 3.135251 60.390488 67 34 35
-6.364749 3.265538 60.392452 67 34 35
-6.364657 3.395675 60.391579 67 34 34
-6.364269 3.525644 60.387897 67 34 33
-6.363588 3.655429 60.381439 66 33 32
-6.362613 3.785011 60.372189 65 31 31
-6.361343 3.914372 60.360142 66 32 31
-6.359778 4.043492 60.345287 68 33 32
-6.357916 4.172355 60.327625 70 34 33
-6.355760 4.300941 60.307159 70 35 33
-6.353312 4.429237 60.283932 70 34 33
-6.350578 4.557227 60.257996 70 33 33
-6.347571 4.684904 60.229465 70 33 33
-6.344306 4.812261 60.198475 71 34 34
-6.340800 4.939298 60.165211 70 33 33
-6.337078 5.066018 60.129894 70 32 32
-6.333166 5.192430 60.092777 70 32 32
-6.329093 5.318548 60.054134 71 32 32
-6.324890 5.444387 60.014252 72 32 32
-6.320589 5.569966 59.973434 72 32 33
-6.316218 5.695308 59.931961 72 32 33
-6.311809 5.820435 59.890129 70 32 33
-6.307389 5.945372 59.848190 68 33 33
-6.302984 6.070142 59.806389 66 33 33
-6.298615 6.194768 59.764938 66 33 34
-6.294302 6.319271 59.724014 65 33 34
-6.290060 6.443670 59.683762 65 33 34
-6.285900 6.567981 59.644287 63 33 34
-6.281830 6.692218 59.605671 63 32 33
-6.277854 6.816391 59.567947 61 32 32
-6.273973 6.940506 59.531124 60 31 31
-6.270185 7.064568 59.495182 59 30 30
-6.266486 7.188575 59.460079 58 30 30
-6.262867 7.312527 59.425743 58 30 31
-6.259321 7.436414 59.392090 59 30 31
-6.255835 7.560231 59.359013 59 30 32
-6.252399 7.683967 59.326416 60 30 32
-6.249001 7.807609 59.294170 61 30 32
-6.245630 7.931146 59.262184 62 30 31
-6.242276 8.054567 59.230358 63 30 31
-6.238928 8.177861 59.198597 64 29 30
-6.235581 8.301017 59.166836 64 28 29
-6.232228 8.424028 59.135017 64 28 28
-6.228864 8.546888 59.103100 65 28 28
-6.225488 8.669592 59.071060 65 28 28
-6.222097 8.792138 59.038887 65 29 28
-6.218690 8.914523 59.006569 66 31 30
-6.215269 9.036746 58.974098 68 32 32
-6.211832 9.158807 58.941486 69 34 33
-6.208378 9.280703 58.908722 71 36 35
-4.761066 -7.646809 46.119106 40 23 22
-4.766356 -7.555777 46.170345 39 23 22
-4.772155 -7.465322 46.226524 38 23 22
-4.778497 -7.375462 46.287956 36 23 22
-4.785409 -7.286204 46.354912 35 23 22
-4.792918 -7.197555 46.427643 34 22 21
-4.801047 -7.109510 46.506390 34 22 21
-4.809818 -7.022063 46.591351 36 24 23
-4.819248 -6.935199 46.682701 37 25 24
-4.829352 -6.848896 46.780575 39 25 24
-4.840141 -6.763128 46.885086 40 25 25
-4.851621 -6.677860 46.996284 40 25 25
-4.863790 -6.593048 47.114166 40 25 26
-4.876644 -6.508641 47.238674 41 25 26
-4.890170 -6.424580 47.369694 41 25 26
-4.904345 -6.340794 47.507004 40 25 26
-4.919140 -6.257205 47.650322 40 24 25
-4.934516 -6.173725 47.799271 39 23 24
-4.950429 -6.090262 47.953407 39 23 24
-4.966822 -6.006716 48.112206 38 22 24
-4.983634 -5.922983 48.275063 38 22 24
-5.000798 -5.838959 48.441319 37 22 23
-5.018242 -5.754539 48.610294 36 22 23
-5.035892 -5.669623 48.781273 35 22 23
-5.053676 -5.584118 48.953537 34 23 23
-5.071522 -5.497936 49.126400 33 23 23
-5.089362 -5.411004 49.299210 32 22 22
-5.107135 -5.323257 49.471375 30 22 22
-5.124787 -5.234644 49.642368 30 22 21
-5.142274 -5.145129 49.811764 30 21 20
-5.159563 -5.054688 49.979233 29 21 19
-5.176632 -4.963316 50.144581 30 20 19
-5.193472 -4.871015 50.307697 30 19 18
-5.210084 -4.777803 50.468616 30 19 17
-5.226486 -4.683708 50.627499 30 19 18
-5.242706 -4.588769 50.784615 30 19 18
-5.258782 -4.493030 50.940342 30 19 17
-5.274767 -4.396543 51.095184 30 19 17
-5.290721 -4.299364 51.249722 29 19 16
-5.306714 -4.201549 51.404640 27 19 16
-5.322823 -4.103155 51.560684 26 19 16
-5.339129 -4.004237 51.718639 26 20 16
-5.355718 -3.904844 51.879330 25 19 17
-5.372674 -3.805018 52.043575 25 19 18
-5.390079 -3.704793 52.212177 25 19 19
-5.408012 -3.604193 52.385887 26 19 19
-5.426541 -3.503228 52.565376 25 19 19
-5.445727 -3.401900 52.751221 25 18 19
-5.465614 -3.300194 52.943859 25 18 18
-5.486235 -3.198086 53.143612 25 17 18
-5.507605 -3.095537 53.350613 25 17 18
-5.529719 -2.992498 53.564831 25 16 17
-5.552557 -2.888913 53.786049 26 16 16
-5.576077 -2.784714 54.013885 26 16 16
-5.600224 -2.679833 54.247784 26 16 15
-5.624918 -2.574194 54.486992 25 16 15
-5.650072 -2.467725 54.730656 24 16 15
-5.675581 -2.360353 54.977753 24 16 14
-5.701333 -2.252011 55.227203 23 15 13
-5.727202 -2.142638 55.477798 23 15 13
-5.753065 -2.032183 55.728321 22 16 14
-5.778792 -1.920601 55.977528 22 16 14
-5.804255 -1.807864 56.224186 23 16 14
-5.829333 -1.693951 56.467106 23 16 15
-5.853907 -1.578855 56.705147 24 16 16
-5.877870 -1.462580 56.937271 25 16 16
-5.901128 -1.345144 57.162563 26 16 15
-5.923595 -1.226573 57.380199 28 16 16
-5.945205 -1.106904 57.589527 31 17 17
-5.965902 -0.986182 57.790012 36 20 20
-5.985647 -0.864458 57.981277 41 23 24
-6.004416 -0.741788 58.163082 47 27 29
-6.022196 -0.618234 58.335312 52 30 34
-6.038990 -0.493856 58.497997 56 33 37
-6.054811 -0.368717 58.651253 60 35 39
-6.069683 -0.242880 58.795303 62 36 39
-6.083633 -0.116404 58.930439 65 37 39
-6.096699 0.010653 59.057007 68 38 39
-6.108921 0.138237 59.175392 71 40 40
-6.120340 0.266296 59.286007 72 41 40
-6.130999 0.394783 59.389256 71 41 38
-6.140940 0.523654 59.485558 69 39 36
-6.150204 0.652868 59.575291 69 38 35
-6.158826 0.782387 59.658813 69 37 34
-6.166842 0.912177 59.736454 69 36 34
-6.174281 1.042205 59.808517 69 35 34
-6.181171 1.172439 59.875267 70 35 35
-6.187536 1.302850 59.936916 71 36 36
-6.193396 1.433410 59.993679 71 35 36
-6.198770 1.564092 60.045731 70 34 35
-6.203674 1.694870 60.093239 69 34 34
-6.208124 1.825719 60.136345 69 34 34
-6.212134 1.956616 60.175190 68 34 33
-6.215720 2.087538 60.209923 67 34 33
-6.218896 2.218463 60.240692 66 33 33
