ply
format ascii 1.0
element vertex 1185
property float x
property float y
property float z
property uchar red
property uchar green
property uchar blue
end_header
-11.605245 0.430984 39.328060 114 116 135
-11.621435 0.516482 39.382927 115 117 136
-11.637112 0.602190 39.436054 117 118 137
-11.652224 0.688093 39.487267 119 118 140
-11.666739 0.774177 39.536453 121 119 142
-11.680645 0.860429 39.583580 123 120 144
-11.693950 0.946835 39.628670 124 120 145
-11.706687 1.033385 39.671833 124 121 146
-11.718905 1.120072 39.713238 123 122 145
-11.730673 1.206891 39.753117 122 122 144
-11.742072 1.293842 39.791744 121 122 143
-11.753198 1.380926 39.829445 120 122 141
-11.764149 1.468152 39.866558 120 121 139
-11.775035 1.555529 39.903450 119 120 137
-11.785962 1.643071 39.940479 118 118 135
-11.797033 1.730793 39.978001 117 116 132
-11.808350 1.818715 40.016346 115 115 131
-11.820001 1.906857 40.055828 113 113 129
-11.832067 1.995238 40.096722 112 111 126
-11.844616 2.083881 40.139248 110 109 124
-11.857705 2.172806 40.183601 109 107 123
-11.871377 2.262033 40.229935 108 105 123
-11.885660 2.351582 40.278339 107 103 121
-11.900571 2.441467 40.328869 106 101 120
-11.916114 2.531705 40.381542 106 100 119
-11.932282 2.622307 40.436333 106 100 119
-11.949057 2.713283 40.493176 107 100 120
-11.966413 2.804641 40.551994 108 99 121
-11.984314 2.896384 40.612659 108 99 122
-12.002722 2.988514 40.675037 109 99 123
-12.021587 3.081031 40.738972 110 99 124
-12.040862 3.173931 40.804291 111 99 124
-12.060491 3.267209 40.870808 111 100 125
-12.080419 3.360857 40.938339 111 101 125
-12.100588 3.454865 41.006691 112 102 124
-12.120943 3.549221 41.075668 112 102 122
-12.141422 3.643913 41.145069 112 102 121
-12.161969 3.738925 41.214699 112 102 119
-12.182526 3.834239 41.284363 112 102 118
-12.203033 3.929839 41.353859 112 101 116
-12.223436 4.025703 41.423000 111 100 115
-12.243674 4.121810 41.491585 111 99 116
-12.263695 4.218138 41.559429 110 97 116
-12.283441 4.314662 41.626343 109 95 115
-12.302859 4.411358 41.692150 107 94 114
-12.321899 4.508198 41.756672 106 92 113
-12.340508 4.605156 41.819736 104 92 112
-12.358641 4.702204 41.881184 103 91 111
-12.376246 4.799313 41.940845 101 91 110
-12.393284 4.896454 41.998581 100 91 110
-12.409710 4.993599 42.054249 99 91 110
-12.425486 5.090717 42.107708 99 91 110
-12.440575 5.187779 42.158840 99 91 110
-12.454941 5.284755 42.207527 99 91 109
-12.468555 5.381617 42.253666 99 91 108
-12.481389 5.478334 42.297157 98 90 108
-12.493422 5.574882 42.337933 98 89 107
-12.504636 5.671234 42.375935 98 87 106
-12.515022 5.767369 42.411133 98 85 104
-12.524583 5.863269 42.443531 98 83 102
-12.533326 5.958920 42.473160 98 81 100
-12.541273 6.054314 42.500092 96 78 97
-12.548456 6.149450 42.524433 94 75 92
-12.554920 6.244333 42.546337 92 72 88
-12.560720 6.338976 42.565998 90 70 84
-12.565923 6.433398 42.583626 87 68 80
-12.570603 6.527624 42.599487 85 67 76
-12.574843 6.621686 42.613853 83 66 75
-12.578732 6.715624 42.627033 81 66 73
-12.582357 6.809475 42.639320 80 65 72
-12.585810 6.903285 42.651016 79 64 71
-12.589170 6.997095 42.662407 79 63 70
-12.592522 7.090947 42.673763 80 63 72
-12.595931 7.184882 42.685314 80 63 73
-12.599453 7.278932 42.697254 82 63 74
-12.603135 7.373127 42.709728 82 63 75
-12.607006 7.467487 42.722847 82 63 76
-12.611078 7.562026 42.736649 83 62 76
-12.615354 7.656746 42.751137 83 62 76
-12.619813 7.751643 42.766251 82 61 75
-12.624429 7.846701 42.781891 81 60 74
-12.629157 7.941897 42.797913 81 60 72
-12.633945 8.037202 42.814140 80 60 71
-12.638736 8.132577 42.830376 78 60 70
-12.643464 8.227982 42.846397 77 59 69
-12.648067 8.323374 42.861996 76 58 68
-12.652485 8.418709 42.876968 75 58 67
-12.656666 8.513949 42.891136 74 57 66
-12.660568 8.609062 42.904362 74 56 66
-12.664171 8.704025 42.916569 73 55 65
-12.667464 8.798827 42.927731 73 54 63
-12.670463 8.893469 42.937889 74 54 63
-12.673203 8.987972 42.947178 74 54 63
-12.675742 9.082372 42.955784 73 54 62
-12.678158 9.176718 42.963966 72 54 62
-12.680548 9.271081 42.972069 71 53 61
-12.683022 9.365541 42.980450 71 52 62
-12.685702 9.460192 42.989536 70 52 62
-12.688719 9.555135 42.999760 71 51 62
-12.692199 9.650473 43.011551 71 50 61
-12.696264 9.746313 43.025330 70 49 61
-12.701030 9.842753 43.041481 70 48 61
-12.706598 9.939892 43.060349 69 48 60
-12.713046 10.037807 43.082199 68 48 59
-12.720437 10.136567 43.107246 67 48 58
-12.728808 10.236224 43.135612 66 48 58
-12.738172 10.336808 43.167343 64 49 58
-12.748516 10.438333 43.202400 63 49 58
-12.759809 10.540791 43.240669 62 50 58
-12.771993 10.644157 43.281960 60 50 58
-12.784997 10.748391 43.326027 59 50 58
-12.798728 10.853432 43.372559 60 50 58
-12.813087 10.959209 43.421219 60 50 58
-12.827959 11.065640 43.471619 60 50 58
-12.843231 11.172636 43.523373 61 50 58
-12.858786 11.280103 43.576084 61 50 58
-12.874505 11.387942 43.629353 62 50 57
-12.890281 11.496061 43.682816 61 50 55
-12.906012 11.604372 43.736126 61 50 54
-12.921609 11.712790 43.788982 60 49 53
-12.936996 11.821244 43.841125 59 48 51
-12.952116 11.929677 43.892361 57 47 50
-12.966923 12.038040 43.942539 56 46 49
-12.981395 12.146307 43.991585 54 45 48
-12.995525 12.254463 44.039471 53 43 48
-13.009321 12.362507 44.086220 52 42 47
-13.022806 12.470455 44.131920 51 42 47
-13.036019 12.578338 44.176697 50 41 46
-13.049006 12.686193 44.220703 49 40 45
-13.061815 12.794065 44.264114 48 39 44
-13.074508 12.902009 44.307129 47 38 42
-13.087134 13.010072 44.349915 47 37 41
-13.099750 13.118308 44.392666 46 36 40
-13.112395 13.226761 44.435520 46 36 40
-13.125111 13.335467 44.478611 47 36 39
-13.137920 13.444457 44.522022 47 35 39
-13.150840 13.553746 44.565800 46 35 39
-13.163872 13.663342 44.609966 46 35 38
-13.177011 13.773240 44.654495 45 35 37
-13.190242 13.883426 44.699329 46 35 36
-13.203538 13.993876 44.744389 45 34 36
-13.216871 14.104558 44.789570 45 34 36
-13.230209 14.215441 44.834774 45 34 36
-13.243518 14.326485 44.879871 45 33 36
-13.256766 14.437660 44.924767 44 33 36
-13.269921 14.548925 44.969349 43 34 35
-13.282960 14.660255 45.013535 41 34 35
-13.295854 14.771613 45.057228 40 34 34
-13.308592 14.882987 45.100395 39 33 33
-13.321162 14.994358 45.142994 39 32 33
-13.333564 15.105721 45.185020 38 31 32
-13.345791 15.217066 45.226456 38 31 31
-13.357848 15.328395 45.267315 37 30 30
-13.369738 15.439706 45.307606 38 31 30
-13.381461 15.550999 45.347336 39 31 30
-13.393021 15.662270 45.386509 39 31 30
-13.404413 15.773514 45.425117 40 30 30
-13.415628 15.884714 45.463123 40 31 30
-11.263621 -5.380780 38.451252 65 67 80
-11.255331 -5.293993 38.422951 65 67 82
-11.247830 -5.207694 38.397346 66 67 82
-11.241096 -5.121853 38.374359 66 67 80
-11.235093 -5.036440 38.353867 67 67 79
-11.229777 -4.951418 38.335716 68 67 79
-11.225097 -4.866750 38.319740 69 66 79
-11.220995 -4.782397 38.305737 70 65 80
-11.217402 -4.698318 38.293472 71 65 80
-11.214250 -4.614473 38.282711 73 65 80
-11.211466 -4.530824 38.273209 73 65 80
-11.208978 -4.447332 38.264713 73 65 80
-11.206717 -4.363966 38.256996 73 65 81
-11.204614 -4.280694 38.249817 71 66 81
-11.202610 -4.197489 38.242977 70 66 81
-11.200651 -4.114330 38.236290 70 67 82
-11.198695 -4.031202 38.229614 69 68 81
-11.196707 -3.948090 38.222824 68 68 82
-11.194662 -3.864989 38.215843 69 68 82
-11.192552 -3.781895 38.208641 70 68 82
-11.190372 -3.698810 38.201202 71 68 83
-11.188135 -3.615738 38.193562 71 68 82
-11.185858 -3.532686 38.185787 71 69 81
-11.183570 -3.449665 38.177979 71 69 81
-11.181305 -3.366684 38.170246 71 69 80
-11.179104 -3.283756 38.162731 71 70 80
-11.177006 -3.200889 38.155571 71 70 80
-11.175058 -3.118095 38.148922 72 71 81
-11.173303 -3.035382 38.142929 73 72 82
-11.171781 -2.952756 38.137733 74 72 83
-11.170527 -2.870222 38.133450 74 72 84
-11.169573 -2.787781 38.130196 75 72 84
-11.168941 -2.705432 38.128040 76 71 84
-11.168652 -2.623173 38.127052 76 70 85
-11.168715 -2.540998 38.127266 76 70 84
-11.169135 -2.458901 38.128700 77 70 84
-11.169915 -2.376874 38.131363 77 70 84
-11.171052 -2.294909 38.135246 78 70 83
-11.172542 -2.212998 38.140331 79 70 84
-11.174382 -2.131131 38.146614 81 71 84
-11.176574 -2.049302 38.154095 82 72 86
-11.179121 -1.967503 38.162792 84 72 87
-11.182035 -1.885728 38.172741 85 73 88
-11.185333 -1.803972 38.183998 87 73 90
-11.189044 -1.722232 38.196667 88 74 91
-11.193201 -1.640502 38.210854 89 75 92
-11.197847 -1.558779 38.226719 90 75 92
-11.203032 -1.477059 38.244415 91 76 92
-11.208808 -1.395336 38.264137 92 77 93
-11.215231 -1.313603 38.286060 93 78 93
-11.222357 -1.231854 38.310387 93 78 92
-11.230236 -1.150076 38.337284 94 80 92
-11.238917 -1.068259 38.366920 96 82 93
-11.248437 -0.986388 38.399418 97 84 93
-11.258822 -0.904446 38.434872 99 86 94
-11.270087 -0.822415 38.473328 101 89 95
-11.282230 -0.740277 38.514782 102 91 98
-11.295236 -0.658009 38.559177 103 93 102
-11.309069 -0.575593 38.606403 105 95 107
-11.323684 -0.493007 38.656292 105 98 113
-11.339012 -0.410231 38.708618 106 101 118
-11.354978 -0.327249 38.763123 107 104 122
-11.371489 -0.244043 38.819485 108 106 125
-11.388440 -0.160600 38.877357 108 108 127
-11.405722 -0.076910 38.936348 109 109 129
-11.423214 0.007034 38.996067 110 111 130
-11.440797 0.091237 39.056087 111 113 131
-11.458348 0.175698 39.116005 111 115 132
-11.475748 0.260413 39.175400 112 115 133
-11.492885 0.345377 39.233906 113 115 133
-11.509657 0.430580 39.291161 113 115 134
-11.525975 0.516009 39.346867 114 116 135
-11.541765 0.601651 39.400768 116 117 138
-11.556973 0.687490 39.452686 119 118 141
-11.571564 0.773512 39.502495 121 119 143
-11.585526 0.859702 39.550156 123 120 145
-11.598865 0.946047 39.595695 124 121 146
-11.611612 1.032536 39.639214 125 122 146
-11.623821 1.119160 39.680889 124 123 146
-11.635556 1.205915 39.720951 123 123 144
-11.646901 1.292799 39.759678 122 123 143
-11.657951 1.379815 39.797401 121 122 141
-11.668809 1.466970 39.834465 120 121 139
-11.679582 1.554273 39.871243 119 120 137
-11.690376 1.641738 39.908092 118 118 135
-11.701300 1.729381 39.945381 117 116 132
-11.712452 1.817220 39.983456 116 114 130
-11.723925 1.905276 40.022617 115 113 129
-11.735802 1.993568 40.063164 114 112 126
-11.748153 2.082120 40.105324 112 109 124
-11.761035 2.170951 40.149303 110 107 123
-11.774494 2.260083 40.195248 109 104 122
-11.788561 2.349534 40.243271 107 102 120
-11.803257 2.439322 40.293438 105 100 119
-11.818585 2.529462 40.345768 105 99 118
-11.834544 2.619967 40.400246 105 98 117
-11.851118 2.710847 40.456825 106 98 118
-11.868281 2.802111 40.515419 107 98 119
-11.886004 2.893764 40.575920 108 98 120
-11.904246 2.985807 40.638191 108 97 121
-11.922962 3.078241 40.702084 109 97 121
-11.942101 3.171063 40.767422 109 98 122
-11.961614 3.264269 40.834030 109 98 122
-11.981441 3.357850 40.901718 109 99 122
-12.001528 3.451797 40.970287 110 100 121
-12.021814 3.546100 41.039539 110 101 120
-12.042242 3.640743 41.109276 110 101 118
-12.062751 3.735712 41.179287 111 102 117
-12.083280 3.830989 41.249367 112 102 116
-12.103769 3.926556 41.319317 112 101 115
-12.124163 4.022392 41.388931 112 100 114
-12.144397 4.118475 41.458008 111 99 115
-12.164418 4.214781 41.526356 110 97 115
-12.184168 4.311286 41.593773 109 95 115
-12.203592 4.407965 41.660088 107 94 114
-12.222637 4.504789 41.725101 106 93 114
-12.241253 4.601733 41.788651 104 92 113
-12.259390 4.698766 41.850567 102 91 112
-12.277003 4.795863 41.910694 101 91 111
-12.294049 4.892992 41.968884 101 91 111
-12.310487 4.990126 42.024998 100 92 111
-12.326278 5.087234 42.078903 100 92 111
-12.341387 5.184290 42.130486 100 92 111
-12.355784 5.281262 42.179630 100 92 111
-12.369438 5.378124 42.226242 100 91 110
-12.382324 5.474847 42.270233 100 90 110
-12.394422 5.571406 42.311531 99 88 109
-12.405717 5.667775 42.350090 99 86 107
-12.416203 5.763936 42.385883 98 84 106
-12.425879 5.859869 42.418919 98 83 104
-12.434757 5.955562 42.449226 98 80 101
-12.442857 6.051007 42.476875 97 77 97
-12.450211 6.146203 42.501980 95 75 93
-12.456862 6.241156 42.524689 93 72 88
-12.462864 6.335876 42.545177 91 69 84
-12.468282 6.430383 42.563671 88 67 80
-12.473189 6.524703 42.580425 86 67 77
-12.477665 6.618866 42.595703 84 66 74
-12.481794 6.712909 42.609802 82 65 73
-12.485665 6.806872 42.623013 81 64 72
-12.489362 6.900795 42.635635 81 64 71
-12.492967 6.994721 42.647942 81 63 70
-12.496557 7.088693 42.660198 81 63 71
-12.500199 7.182746 42.672630 81 63 73
-12.503947 7.276916 42.685425 83 63 75
-12.507847 7.371229 42.698738 84 63 76
-12.511925 7.465706 42.712658 84 63 77
-12.516196 7.560360 42.727238 85 63 78
-12.520660 7.655195 42.742477 85 62 78
-12.525299 7.750204 42.758312 84 62 77
-12.530086 7.845374 42.774654 83 61 76
-12.534979 7.940681 42.791359 82 61 75
-12.539926 8.036095 42.808247 81 61 73
-12.544870 8.131580 42.825127 80 60 72
-12.549750 8.227096 42.841785 78 60 71
-12.554504 8.322599 42.858013 77 59 69
-12.559072 8.418049 42.873608 76 58 68
-12.563405 8.513406 42.888397 75 57 67
-12.567463 8.608639 42.902248 75 56 66
-12.571222 8.703725 42.915085 75 55 64
-12.574679 8.798654 42.926888 75 54 63
-12.577846 8.893429 42.937698 75 54 63
-12.580759 8.988069 42.947639 75 54 63
-12.583476 9.082611 42.956917 74 54 63
-12.586077 9.177108 42.965794 73 53 63
-12.588656 9.271627 42.974598 73 53 63
-12.591327 9.366253 42.983719 72 52 63
-12.594212 9.461078 42.993565 72 51 63
-12.597436 9.556204 43.004574 72 51 62
-12.601130 9.651736 43.017185 71 50 62
-12.605417 9.747783 43.031818 71 49 62
-12.610412 9.844443 43.048870 71 48 62
-12.616214 9.941814 43.068672 70 48 61
-12.622904 10.039977 43.091515 68 47 60
-12.630543 10.139000 43.117588 67 47 59
-12.639168 10.238935 43.147034 66 47 58
-12.648790 10.339810 43.179882 65 49 58
-12.659398 10.441642 43.216095 63 49 58
-12.670958 10.544420 43.255558 62 49 58
-12.683411 10.648119 43.298069 61 50 58
-12.696683 10.752695 43.343376 60 50 58
-12.710682 10.858088 43.391167 60 50 58
-12.725305 10.964224 43.441086 61 50 59
-12.740439 11.071020 43.492752 62 50 59
-12.755968 11.178384 43.545761 62 50 59
-12.771772 11.286220 43.599716 63 50 58
-12.787739 11.394433 43.654221 63 50 57
-12.803757 11.502927 43.708900 63 50 56
-12.819726 11.611613 43.763416 61 50 54
-12.835561 11.720411 43.817474 60 49 53
-12.851188 11.829251 43.870819 59 48 51
-12.866549 11.938074 43.923256 58 47 51
-12.881606 12.046840 43.974659 57 46 50
-12.896337 12.155519 44.024944 55 45 50
-12.910738 12.264102 44.074112 55 45 49
-12.924821 12.372591 44.122185 54 44 48
-12.938611 12.481007 44.169258 52 43 47
-12.952146 12.589375 44.215462 51 42 47
-12.965474 12.697743 44.260967 51 41 46
-12.978647 12.806152 44.305931 50 40 44
-12.991719 12.914656 44.350559 49 39 43
-13.004745 13.023304 44.395023 48 37 41
-13.017772 13.132147 44.439495 48 37 40
-13.030843 13.241226 44.484119 48 37 39
-13.043994 13.350578 44.529011 48 36 39
-13.057243 13.460227 44.574242 47 36 39
-13.070605 13.570187 44.619858 47 36 38
-13.084080 13.680460 44.665855 46 35 38
-13.097657 13.791040 44.712204 45 35 37
-13.111317 13.901909 44.758835 45 34 36
-13.125031 14.013036 44.805653 45 34 36
-13.138770 14.124391 44.852554 45 34 36
-13.152495 14.235935 44.899410 45 34 36
-13.166175 14.347630 44.946110 44 33 35
-13.179773 14.459436 44.992531 43 33 35
-13.193256 14.571317 45.038559 42 33 34
-13.206601 14.683242 45.084114 40 33 34
-13.219775 14.795172 45.129086 39 33 33
-13.232769 14.907093 45.173443 39 33 33
-13.245571 15.018989 45.217148 39 32 32
-13.258177 15.130847 45.260181 38 31 32
-13.270584 15.242663 45.302536 37 30 31
-13.282795 15.354436 45.344219 37 30 30
-13.294814 15.466165 45.385250 38 31 31
-13.306643 15.577848 45.425632 40 32 32
-13.318288 15.689488 45.465382 40 31 31
-13.329743 15.801076 45.504490 40 31 31
-13.341003 15.912599 45.542931 39 31 30
-13.352053 16.024035 45.580650 40 32 30
-11.173183 -5.459979 38.425289 61 64 76
-11.164248 -5.372847 38.394562 62 65 76
-11.156096 -5.286218 38.366524 63 66 78
-11.148708 -5.200067 38.341118 64 66 78
-11.142063 -5.114367 38.318264 65 66 78
-11.136127 -5.029084 38.297848 66 65 77
-11.130854 -4.944185 38.279716 67 65 77
-11.126198 -4.859633 38.263702 68 65 77
-11.122101 -4.775390 38.249611 69 64 77
-11.118501 -4.691418 38.237232 71 63 77
-11.115329 -4.607677 38.226322 72 63 78
-11.112518 -4.524129 38.216660 72 63 78
-11.110000 -4.440741 38.207996 72 63 78
-11.107709 -4.357478 38.200119 72 64 79
-11.105580 -4.274312 38.192799 71 65 80
-11.103557 -4.191217 38.185837 70 65 79
-11.101589 -4.108174 38.179073 69 66 79
-11.099637 -4.025165 38.172359 69 66 79
-11.097668 -3.942178 38.165588 68 66 79
-11.095659 -3.859208 38.158680 69 66 79
-11.093602 -3.776250 38.151604 70 67 80
-11.091496 -3.693307 38.144363 71 67 80
-11.089350 -3.610382 38.136982 71 67 80
-11.087182 -3.527482 38.129524 72 68 80
-11.085020 -3.444615 38.122089 72 68 79
-11.082898 -3.361793 38.114792 72 69 79
-11.080852 -3.279025 38.107758 71 70 79
-11.078922 -3.196321 38.101120 72 70 80
-11.077151 -3.113690 38.095032 73 70 81
-11.075580 -3.031140 38.089626 74 70 82
-11.074244 -2.948676 38.085033 75 71 83
-11.073178 -2.866301 38.081364 75 71 84
-11.072410 -2.784018 38.078724 76 70 84
-11.071962 -2.701823 38.077183 77 70 84
-11.071846 -2.619714 38.076782 77 69 84
-11.072075 -2.537686 38.077572 77 69 83
-11.072650 -2.455731 38.079548 77 68 83
-11.073573 -2.373842 38.082726 78 68 83
-11.074839 -2.292011 38.087074 78 69 82
-11.076445 -2.210228 38.092598 80 69 83
-11.078387 -2.128487 38.099277 82 71 84
-11.080666 -2.046778 38.107113 84 72 86
-11.083285 -1.965097 38.116127 84 72 86
-11.086259 -1.883437 38.126350 85 72 87
-11.089604 -1.801793 38.137856 87 73 89
-11.093349 -1.720161 38.150730 88 74 91
-11.097528 -1.638538 38.165104 90 74 92
-11.102185 -1.556920 38.181122 91 75 93
-11.107372 -1.475303 38.198959 93 75 93
-11.113142 -1.393682 38.218803 94 76 94
-11.119551 -1.312052 38.240845 94 76 93
-11.126659 -1.230404 38.265289 94 76 93
-11.134518 -1.148727 38.292316 95 78 93
-11.143177 -1.067011 38.322098 96 81 94
-11.152678 -0.985241 38.354767 97 83 94
-11.163048 -0.903400 38.390430 98 85 96
-11.174304 -0.821471 38.429146 100 88 96
-11.186450 -0.739433 38.470913 101 90 98
-11.199469 -0.657267 38.515686 102 92 102
-11.213331 -0.574951 38.563358 103 94 106
-11.227987 -0.492464 38.613762 104 96 111
-11.243376 -0.409787 38.666687 105 99 116
-11.259417 -0.326900 38.721851 107 102 120
-11.276018 -0.243788 38.778946 108 105 123
-11.293075 -0.160436 38.837601 108 107 126
-11.310473 -0.076833 38.897438 109 109 127
-11.328093 0.007027 38.958031 110 111 128
-11.345807 0.091150 39.018955 111 113 129
-11.363495 0.175535 39.079781 111 114 131
-11.381029 0.260179 39.140083 112 115 132
-11.398296 0.345074 39.199467 113 115 133
-11.415192 0.430212 39.257572 114 115 134
-11.431621 0.515579 39.314072 115 116 136
-11.447508 0.601161 39.368710 117 117 139
-11.462797 0.686943 39.421288 119 118 141
-11.477450 0.772909 39.471684 121 119 143
-11.491455 0.859043 39.519844 123 120 144
-11.504818 0.945333 39.565804 125 121 146
-11.517569 1.031766 39.609650 125 122 146
-11.529757 1.118333 39.651569 125 123 146
-11.541453 1.205029 39.691792 124 123 145
-11.552738 1.291854 39.730602 123 123 143
-11.563706 1.378807 39.768322 122 123 142
-11.574464 1.465897 39.805317 121 122 141
-11.585115 1.553132 39.841949 121 121 139
-11.595774 1.640525 39.878605 119 119 136
-11.606544 1.728094 39.915642 118 117 134
-11.617527 1.815855 39.953415 117 115 132
-11.628816 1.903829 39.992237 116 113 129
-11.640495 1.992038 40.032406 115 112 126
-11.652638 2.080502 40.074165 114 109 124
-11.665304 2.169244 40.117725 112 107 123
-11.678540 2.258284 40.163246 111 104 122
-11.692382 2.347641 40.210846 108 101 119
-11.706848 2.437334 40.260597 106 98 117
-11.721951 2.527379 40.312534 105 98 116
-11.737687 2.617789 40.366653 105 97 116
-11.754044 2.708575 40.422905 106 97 116
-11.771002 2.799746 40.481224 107 97 117
-11.788529 2.891309 40.541504 108 97 117
-11.806590 2.983266 40.603615 108 96 118
-11.825140 3.075619 40.667412 108 97 118
-11.844132 3.168365 40.732727 108 97 119
-11.863514 3.261499 40.799381 108 97 119
-11.883230 3.355015 40.867188 108 97 119
-11.903223 3.448904 40.935944 109 99 118
-11.923433 3.543154 41.005447 109 100 118
-11.943802 3.637751 41.075497 110 101 116
-11.964265 3.732680 41.145866 111 102 115
-11.984761 3.827924 41.216358 113 102 115
-12.005232 3.923462 41.286755 113 102 113
-12.025613 4.019274 41.356850 112 100 113
-12.045843 4.115337 41.426422 111 99 114
-12.065864 4.211627 41.495274 110 97 114
-12.085616 4.308118 41.563202 109 95 114
-12.105044 4.404784 41.630020 107 94 115
-12.124095 4.501597 41.695538 105 93 115
-12.142715 4.598530 41.759571 103 92 113
-12.160855 4.695554 41.821957 101 91 112
-12.178472 4.792641 41.882538 101 91 112
-12.195520 4.889761 41.941170 101 91 112
-12.211962 4.986887 41.997715 101 92 111
-12.227760 5.083988 42.052044 100 92 111
-12.242882 5.181037 42.104050 101 92 111
-12.257296 5.278006 42.153622 101 92 112
-12.270977 5.374867 42.200672 101 91 112
-12.283901 5.471595 42.245117 101 90 112
-12.296050 5.568162 42.286900 100 88 111
-12.307412 5.664548 42.325974 100 87 109
-12.317980 5.760731 42.362320 99 85 107
-12.327757 5.856694 42.395939 99 82 104
-12.336754 5.952427 42.426884 98 79 101
-12.344991 6.047921 42.455212 97 77 97
-12.352500 6.143174 42.481037 95 74 93
-12.359325 6.238194 42.504505 94 71 88
-12.365519 6.332991 42.525806 92 68 84
-12.371140 6.427583 42.545139 90 67 81
-12.376265 6.521997 42.562763 88 66 77
-12.380968 6.616261 42.578938 85 65 75
-12.385334 6.710412 42.593952 83 64 73
-12.389443 6.804487 42.608086 82 64 72
-12.393381 6.898528 42.621628 82 63 70
-12.397229 6.992576 42.634861 81 63 70
-12.401058 7.086671 42.648029 82 63 70
-12.404935 7.180850 42.661362 83 63 73
-12.408912 7.275145 42.675037 84 63 75
-12.413030 7.369583 42.689201 85 63 77
-12.417319 7.464185 42.703953 86 63 78
-12.421791 7.558961 42.719334 86 63 79
-12.426447 7.653917 42.735344 86 62 79
-12.431270 7.749047 42.751930 85 62 79
-12.436231 7.844335 42.768990 84 61 78
-12.441291 7.939759 42.786388 83 61 77
-12.446398 8.035290 42.803955 82 61 75
-12.451497 8.130890 42.821491 81 60 74
-12.456527 8.226521 42.838791 79 60 72
-12.461430 8.322141 42.855648 78 60 71
-12.466145 8.417706 42.871864 77 59 69
-12.470623 8.513182 42.887268 76 57 68
-12.474829 8.608535 42.901733 76 56 67
-12.478739 8.703743 42.915176 76 55 65
-12.482347 8.798798 42.927586 76 54 64
-12.485669 8.893702 42.939011 76 54 64
-12.488743 8.988476 42.949581 76 53 64
-12.491625 9.083156 42.959496 75 53 63
-12.494392 9.177794 42.969009 74 53 63
-12.497146 9.272465 42.978481 73 52 63
-12.499995 9.367247 42.988277 72 51 63
-12.503062 9.462236 42.998829 72 51 63
-12.506476 9.557536 43.010571 72 51 63
-12.510365 9.653254 43.023945 71 50 63
-12.514854 9.749496 43.039379 71 50 63
-12.520058 9.846366 43.057274 71 49 63
-12.526073 9.943959 43.077965 70 48 62
-12.532984 10.042357 43.101730 68 48 61
-12.540851 10.141632 43.128784 68 48 60
-12.549708 10.241833 43.159248 67 48 59
-12.559569 10.342990 43.193161 65 49 60
-12.570421 10.445117 43.230480 63 50 59
-12.582228 10.548204 43.271084 62 50 59
-12.594930 10.652225 43.314766 61 50 59
-12.608451 10.757133 43.361267 61 50 59
-12.622699 10.862866 43.410263 61 50 60
-12.637568 10.969351 43.461399 62 50 60
-12.652945 11.076500 43.514282 63 50 60
-12.668711 11.184221 43.568504 63 50 60
-12.684748 11.292417 43.623657 64 50 59
-12.700942 11.400991 43.679348 63 50 57
-12.717181 11.509847 43.735195 63 49 56
-12.733371 11.618898 43.790874 62 49 54
-12.749424 11.728064 43.846081 61 49 52
-12.765269 11.837275 43.900574 60 48 52
-12.780851 11.946474 43.954163 58 47 52
-12.796138 12.055626 44.006733 57 46 51
-12.811105 12.164701 44.058205 57 46 51
-12.825755 12.273696 44.108589 56 45 50
-12.840100 12.382613 44.157925 55 45 49
-12.854169 12.491474 44.206306 53 44 48
-12.868000 12.600311 44.253872 52 42 47
-12.881641 12.709167 44.300785 52 42 46
-12.895145 12.818088 44.347225 51 40 44
-12.908566 12.927126 44.393383 50 39 42
-12.921956 13.036331 44.439430 49 38 40
-12.935362 13.145752 44.485535 50 37 39
-12.948823 13.255427 44.531826 50 37 39
-12.962373 13.365394 44.578426 49 37 39
-12.976027 13.475670 44.625381 48 37 38
-12.989796 13.586268 44.672733 47 36 38
-13.003676 13.697188 44.720470 46 35 37
-13.017657 13.808421 44.768551 46 34 37
-13.031713 13.919942 44.816895 45 34 36
-13.045818 14.031721 44.865398 45 33 35
-13.059935 14.143723 44.913944 45 33 35
-13.074027 14.255910 44.962410 45 33 35
-13.088058 14.368237 45.010666 44 33 34
-13.101992 14.480665 45.058582 42 33 34
-13.115793 14.593152 45.106049 41 34 34
-13.129437 14.705668 45.152973 40 33 34
-13.142892 14.818172 45.199242 40 33 33
-13.156146 14.930648 45.244823 40 33 33
-13.169187 15.043077 45.289669 40 32 32
-13.182008 15.155447 45.333767 39 31 32
-13.194609 15.267752 45.377102 38 30 31
-13.206991 15.379989 45.419682 38 30 31
-13.219159 15.492159 45.461529 40 31 32
-13.231114 15.604258 45.502644 42 33 33
-13.242863 15.716290 45.543049 41 32 33
-13.254404 15.828247 45.582741 40 31 32
-13.265730 15.940118 45.621689 40 31 31
-13.276829 16.051882 45.659859 40 31 30
-13.287675 16.163502 45.697159 40 32 30
-11.084046 -5.539660 38.403442 62 65 76
-11.074510 -5.452179 38.370399 61 64 74
-11.065740 -5.365214 38.340015 60 63 73
-11.057728 -5.278741 38.312256 60 63 74
-11.050460 -5.192738 38.287075 61 64 74
-11.043909 -5.107174 38.264378 63 65 75
-11.038043 -5.022020 38.244057 65 64 75
-11.032822 -4.937242 38.225964 66 64 75
-11.028195 -4.852804 38.209934 67 63 74
-11.024113 -4.768671 38.195789 68 62 74
-11.020513 -4.684803 38.183315 69 61 74
-11.017331 -4.601164 38.172295 70 61 74
-11.014504 -4.517718 38.162498 70 61 75
-11.011967 -4.434431 38.153706 70 62 76
-11.009658 -4.351271 38.145706 70 63 77
-11.007516 -4.268211 38.138287 70 63 77
-11.005487 -4.185227 38.131256 69 64 76
-11.003527 -4.102298 38.124462 68 64 77
-11.001595 -4.019409 38.117771 68 64 77
-10.999661 -3.936548 38.111073 68 65 76
-10.997708 -3.853709 38.104305 68 65 76
-10.995724 -3.770888 38.097427 70 65 77
-10.993710 -3.688087 38.090450 71 65 77
-10.991675 -3.605309 38.083401 72 66 77
-10.989637 -3.522561 38.076344 72 67 77
-10.987624 -3.439851 38.069366 73 68 78
-10.985667 -3.357188 38.062588 73 68 78
-10.983800 -3.274582 38.056114 73 69 78
-10.982062 -3.192040 38.050095 73 69 79
-10.980493 -3.109573 38.044655 74 69 80
-10.979129 -3.027185 38.039932 74 69 81
-10.978004 -2.944882 38.036034 75 69 82
-10.977151 -2.862667 38.033077 76 69 83
-10.976593 -2.780539 38.031147 76 69 83
-10.976350 -2.698497 38.030300 77 68 83
-10.976432 -2.616536 38.030586 78 68 83
-10.976848 -2.534651 38.032028 78 68 82
-10.977599 -2.452835 38.034630 79 67 81
-10.978684 -2.371079 38.038391 79 68 81
-10.980098 -2.289376 38.043285 80 68 80
-10.981835 -2.207716 38.049309 80 69 81
-10.983892 -2.126093 38.056438 83 71 83
-10.986271 -2.044499 38.064678 85 72 85
-10.988973 -1.962927 38.074039 84 71 85
-10.992013 -1.881373 38.084572 84 71 86
-10.995408 -1.799831 38.096333 86 72 88
-10.999187 -1.718299 38.109432 88 73 90
-11.003387 -1.636772 38.123981 90 74 92
-11.008053 -1.555249 38.140144 92 74 93
-11.013235 -1.473725 38.158100 93 74 93
-11.018989 -1.392196 38.178036 94 74 94
-11.025374 -1.310656 38.200161 95 75 95
-11.032451 -1.229098 38.224678 96 75 95
-11.040274 -1.147511 38.251781 96 77 95
-11.048894 -1.065885 38.281651 96 79 96
-11.058356 -0.984205 38.314434 97 81 97
-11.068692 -0.902454 38.350246 97 84 97
-11.079921 -0.820616 38.389153 98 86 98
-11.092046 -0.738669 38.431160 98 88 99
-11.105056 -0.656594 38.476234 100 90 102
-11.118922 -0.574368 38.524281 101 92 105
-11.133597 -0.491971 38.575127 102 93 109
-11.149020 -0.409383 38.628563 105 97 113
-11.165112 -0.326583 38.684315 107 101 118
-11.181778 -0.243556 38.742062 108 104 121
-11.198915 -0.160286 38.801437 108 106 123
-11.216406 -0.076763 38.862038 109 108 124
-11.234127 0.007021 38.923435 110 110 125
-11.251950 0.091071 38.985191 110 112 127
-11.269749 0.175387 39.046856 111 113 129
-11.287395 0.259965 39.107998 112 114 131
-11.304771 0.344799 39.168201 113 115 132
-11.321767 0.429878 39.227085 114 116 133
-11.338287 0.515189 39.284325 116 116 136
-11.354254 0.600717 39.339645 118 117 138
-11.369607 0.686447 39.392841 120 118 140
-11.384309 0.772362 39.443775 122 119 141
-11.398342 0.858447 39.492401 123 120 142
-11.411716 0.944686 39.538734 124 121 144
-11.424458 1.031068 39.582882 125 122 144
-11.436618 1.117584 39.625015 125 123 144
-11.448265 1.204227 39.665371 124 123 144
-11.459482 1.290996 39.704235 122 123 143
-11.470365 1.377892 39.741940 122 123 142
-11.481015 1.464922 39.778843 122 123 141
-11.491546 1.552094 39.815327 121 122 140
-11.502063 1.639421 39.851765 120 120 138
-11.512674 1.726920 39.888535 119 117 135
-11.523484 1.814608 39.925987 119 115 133
-11.534586 1.902506 39.964451 118 113 131
-11.546066 1.990636 40.004227 117 111 128
-11.557996 2.079017 40.045563 116 109 125
-11.570441 2.167673 40.088680 114 106 124
-11.583448 2.256625 40.133747 112 104 122
-11.597055 2.345892 40.180893 109 101 120
-11.611285 2.435493 40.230194 107 98 117
-11.626151 2.525446 40.281704 106 97 116
-11.641655 2.615763 40.335419 106 96 115
-11.657785 2.706457 40.391308 106 96 116
-11.674525 2.797539 40.449306 107 96 116
-11.691847 2.889014 40.509319 107 96 116
-11.709716 2.980887 40.571232 107 96 117
-11.728089 3.073159 40.634892 107 97 117
-11.746922 3.165830 40.700146 108 97 117
-11.766165 3.258895 40.766811 108 97 118
-11.785758 3.352348 40.834702 108 97 118
-11.805649 3.446180 40.903618 108 98 117
-11.825775 3.540380 40.973347 109 99 116
-11.846077 3.634934 41.043690 110 100 115
-11.866489 3.729827 41.114414 111 100 113
-11.886950 3.825040 41.185307 112 100 113
-11.907397 3.920553 41.256149 112 100 111
-11.927763 4.016346 41.326714 112 99 112
-11.947988 4.112393 41.396782 111 98 113
-11.968006 4.208670 41.466145 110 96 114
-11.987761 4.305151 41.534588 108 94 114
-12.007194 4.401810 41.601917 106 93 115
-12.026246 4.498617 41.667931 105 92 115
-12.044868 4.595544 41.732452 103 91 113
-12.063010 4.692562 41.795307 102 91 112
-12.080626 4.789643 41.856342 102 91 112
-12.097672 4.886757 41.915401 102 91 112
-12.114112 4.983876 41.972363 101 91 112
-12.129910 5.080972 42.027100 101 92 112
-12.145034 5.178016 42.079498 101 92 112
-12.159457 5.274982 42.129475 102 92 113
-12.173154 5.371843 42.176929 102 91 113
-12.186104 5.468574 42.221798 102 90 113
-12.198291 5.565150 42.264023 101 88 112
-12.209704 5.661550 42.303566 101 87 110
-12.220341 5.757753 42.340420 100 84 107
-12.230204 5.853745 42.374592 99 82 104
-12.239304 5.949514 42.406124 99 79 100
-12.247664 6.045054 42.435089 97 76 97
-12.255317 6.140364 42.461605 95 73 93
-12.262301 6.235449 42.485802 94 70 89
-12.268672 6.330321 42.507877 93 68 85
-12.274487 6.424998 42.528027 91 66 82
-12.279819 6.519505 42.546497 89 65 78
-12.284741 6.613871 42.563553 87 64 76
-12.289334 6.708130 42.579468 85 64 74
-12.293679 6.802321 42.594517 84 63 72
-12.297856 6.896483 42.608990 82 62 70
-12.301941 6.990655 42.623146 82 61 69
-12.306008 7.084877 42.637238 82 62 69
-12.310118 7.179185 42.651474 83 62 72
-12.314323 7.273612 42.666046 85 62 75
-12.318663 7.368181 42.681080 86 62 77
-12.323165 7.462914 42.696678 87 62 79
-12.327842 7.557820 42.712883 87 62 80
-12.332692 7.652905 42.729691 87 62 80
-12.337701 7.748161 42.747040 86 61 80
-12.342838 7.843574 42.764843 85 61 79
-12.348065 7.939122 42.782955 84 61 78
-12.353334 8.034774 42.801208 83 61 77
-12.358587 8.130495 42.819408 81 61 75
-12.363769 8.226246 42.837360 80 60 74
-12.368814 8.321984 42.854843 79 60 72
-12.373673 8.417670 42.871677 78 59 71
-12.378295 8.513266 42.887691 77 57 70
-12.382642 8.608740 42.902752 77 56 69
-12.386693 8.704070 42.916790 77 55 67
-12.390445 8.799249 42.929787 77 55 66
-12.393912 8.894279 42.941803 77 55 66
-12.397133 8.989182 42.952961 76 55 65
-12.400166 9.083996 42.963467 75 54 65
-12.403088 9.178774 42.973595 74 54 65
-12.405999 9.273586 42.983681 73 53 64
-12.409010 9.368518 42.994110 72 52 64
-12.412245 9.463664 43.005318 72 51 64
-12.415830 9.559130 43.017738 72 52 65
-12.419894 9.655022 43.031822 72 51 65
-12.424566 9.751450 43.048008 71 51 64
-12.429955 9.848517 43.066685 71 50 64
-12.436167 9.946322 43.088203 70 49 63
-12.443278 10.044947 43.112843 69 49 63
-12.451352 10.144462 43.140816 68 49 62
-12.460423 10.244917 43.172245 67 49 61
-12.470504 10.346345 43.207172 66 50 61
-12.481579 10.448756 43.245544 64 50 60
-12.493611 10.552141 43.287231 63 50 60
-12.506541 10.656472 43.332031 63 50 61
-12.520292 10.761701 43.379677 63 50 61
-12.534767 10.867763 43.429829 62 50 61
-12.549863 10.974583 43.482128 63 50 61
-12.565462 11.082074 43.536179 64 50 61
-12.581447 11.190140 43.591560 64 50 61
-12.597697 11.298684 43.647865 64 50 60
-12.614099 11.407606 43.704693 64 50 58
-12.630544 11.516814 43.761669 63 50 56
-12.646935 11.626217 43.818459 63 50 55
-12.663186 11.735737 43.874767 62 50 54
-12.679232 11.845306 43.930363 61 49 54
-12.695019 11.954872 43.985062 59 48 53
-12.710513 12.064396 44.038746 58 47 53
-12.725698 12.173855 44.091358 57 46 52
-12.740576 12.283245 44.142906 57 45 51
-12.755162 12.392573 44.193439 55 45 50
-12.769485 12.501863 44.243069 54 43 48
-12.783587 12.611147 44.291927 53 43 47
-12.797515 12.720470 44.340183 52 41 45
-12.811322 12.829880 44.388023 52 40 43
-12.825062 12.939427 44.435627 51 39 41
-12.838783 13.049161 44.483166 50 38 40
-12.852533 13.159130 44.530807 50 37 39
-12.866350 13.269373 44.578678 50 37 39
-12.880260 13.379920 44.626877 50 37 39
-12.894281 13.490790 44.675453 49 37 39
-12.908422 13.601995 44.724445 48 36 38
-12.922672 13.713530 44.773823 47 35 37
-12.937020 13.825379 44.823536 46 34 36
-12.951441 13.937523 44.873497 46 33 35
-12.965903 14.049926 44.923607 45 33 34
-12.980371 14.162551 44.973732 45 33 34
-12.994803 14.275354 45.023739 45 34 34
-13.009164 14.388293 45.073494 44 33 34
-13.023416 14.501326 45.122871 43 33 33
-13.037523 14.614409 45.171753 41 33 33
-13.051459 14.727509 45.220036 40 33 33
-13.065190 14.840586 45.267612 40 33 33
-13.078705 14.953620 45.314438 40 32 32
-13.091990 15.066590 45.360462 40 33 33
-13.105036 15.179484 45.405666 39 31 32
-13.117843 15.292294 45.450039 39 30 31
-13.130411 15.405013 45.493584 40 31 31
-13.142744 15.517645 45.536316 41 32 32
-13.154846 15.630184 45.578247 43 33 34
-13.166719 15.742632 45.619385 42 33 34
-13.178366 15.854983 45.659737 41 32 32
-13.189778 15.967226 45.699276 39 31 31
-13.200945 16.079340 45.737968 39 31 30
-13.211844 16.191294 45.775734 40 32 31
-13.222445 16.303041 45.812458 40 33 32
-10.996117 -5.619815 38.385487 63 66 76
-10.986023 -5.531987 38.350250 63 65 75
-10.976679 -5.444682 38.317631 62 64 73
-10.968081 -5.357882 38.287617 60 62 70
-10.960218 -5.271564 38.260170 58 61 69
-10.953074 -5.185706 38.235233 59 62 69
-10.946626 -5.100279 38.212719 62 63 70
-10.940839 -5.015253 38.192520 64 63 71
-10.935674 -4.930594 38.174488 65 63 72
-10.931087 -4.846269 38.158482 66 62 71
-10.927028 -4.762243 38.144310 66 60 71
-10.923437 -4.678479 38.131775 66 58 71
-10.920257 -4.594941 38.120670 67 59 71
-10.917424 -4.511596 38.110783 68 60 72
-10.914879 -4.428409 38.101898 67 60 72
-10.912564 -4.345353 38.093819 67 60 73
-10.910422 -4.262398 38.086342 68 61 73
-10.908403 -4.179523 38.079292 67 62 73
-10.906465 -4.096709 38.072525 67 63 74
-10.904568 -4.013939 38.065903 67 63 74
-10.902687 -3.931204 38.059338 68 63 74
-10.900804 -3.848496 38.052761 68 64 73
-10.898909 -3.765812 38.046150 70 64 73
-10.897005 -3.683154 38.039501 71 65 73
-10.895100 -3.600524 38.032852 72 66 74
-10.893211 -3.517928 38.026260 72 66 75
-10.891366 -3.435374 38.019817 73 67 75
-10.889592 -3.352870 38.013626 73 68 76
-10.887923 -3.270424 38.007801 73 68 77
-10.886396 -3.188045 38.002472 73 68 78
-10.885048 -3.105740 37.997761 74 68 79
-10.883910 -3.023514 37.993790 74 68 81
-10.883017 -2.941370 37.990673 75 68 82
-10.882396 -2.859312 37.988503 76 68 82
-10.882067 -2.777338 37.987354 76 67 82
-10.882047 -2.695445 37.987286 77 67 82
-10.882344 -2.613628 37.988327 78 67 81
-10.882966 -2.531883 37.990494 79 67 80
-10.883909 -2.450201 37.993790 80 67 79
-10.885172 -2.368573 37.998196 80 67 79
-10.886746 -2.286993 38.003693 81 67 78
-10.888629 -2.205451 38.010262 81 68 79
-10.890813 -2.123940 38.017887 83 71 81
-10.893299 -2.042452 38.026566 85 72 84
-10.896091 -1.960982 38.036316 84 71 84
-10.899203 -1.879525 38.047176 84 71 85
-10.902652 -1.798077 38.059216 86 72 87
-10.906467 -1.716635 38.072536 88 73 89
-10.910687 -1.635196 38.087265 90 73 91
-10.915358 -1.553757 38.103569 92 73 92
-10.920529 -1.472316 38.121624 93 73 92
-10.926260 -1.390868 38.141628 94 73 93
-10.932611 -1.309409 38.163799 95 74 94
-10.939646 -1.227930 38.188354 96 75 95
-10.947418 -1.146423 38.215488 96 76 95
-10.955986 -1.064875 38.245396 96 78 96
-10.965393 -0.983275 38.278233 96 80 97
-10.975677 -0.901605 38.314133 96 83 98
-10.986856 -0.819846 38.353157 97 85 99
-10.998940 -0.737981 38.395340 97 87 100
-11.011918 -0.655987 38.440647 98 89 102
-11.025764 -0.573842 38.488979 100 91 105
-11.040435 -0.491526 38.540192 102 93 108
-11.055866 -0.409017 38.594059 104 96 111
-11.071982 -0.326296 38.650318 106 100 115
-11.088687 -0.243346 38.708633 107 103 118
-11.105877 -0.160151 38.768639 108 104 120
-11.123431 -0.076700 38.829918 109 106 121
-11.141227 0.007016 38.892036 109 108 123
-11.159131 0.091000 38.954536 110 110 124
-11.177013 0.175253 39.016964 111 112 126
-11.194746 0.259772 39.078865 112 113 128
-11.212205 0.344549 39.139809 113 114 130
-11.229278 0.429575 39.199406 114 115 132
-11.245868 0.514835 39.257320 116 116 135
-11.261891 0.600314 39.313255 118 117 137
-11.277289 0.685997 39.367008 120 117 139
-11.292021 0.771866 39.418434 121 118 140
-11.306067 0.857905 39.467468 123 119 141
-11.319438 0.944099 39.514141 124 120 142
-11.332159 1.030435 39.558552 124 121 142
-11.344281 1.116903 39.600864 124 122 143
-11.355872 1.203497 39.641327 124 123 144
-11.367016 1.290216 39.680225 123 123 144
-11.377806 1.377059 39.717896 122 123 143
-11.388349 1.464032 39.754696 122 123 143
-11.398751 1.551146 39.791012 122 122 142
-11.409125 1.638412 39.827225 121 120 140
-11.419580 1.725846 39.863720 121 117 137
-11.430216 1.813466 39.900845 120 115 135
-11.441131 1.901292 39.938946 120 113 133
-11.452409 1.989346 39.978317 119 111 129
-11.464127 2.077650 40.019222 118 108 127
-11.476348 2.166225 40.061886 115 106 125
-11.489125 2.255092 40.106487 113 104 123
-11.502496 2.344274 40.153164 111 101 120
-11.516486 2.433787 40.202003 109 98 117
-11.531112 2.523650 40.253059 107 96 116
-11.546377 2.613878 40.306347 107 95 115
-11.562275 2.704483 40.361843 107 95 115
-11.578791 2.795477 40.419495 106 95 115
-11.595899 2.886867 40.479218 106 95 115
-11.613567 2.978658 40.540894 106 95 116
-11.631757 3.070853 40.604389 106 96 116
-11.650422 3.163450 40.669548 107 97 116
-11.669516 3.256448 40.736198 107 97 116
-11.688980 3.349840 40.804150 107 97 116
-11.708761 3.443618 40.873199 108 98 115
-11.728797 3.537770 40.943142 108 99 114
-11.749025 3.632283 41.013756 109 99 112
-11.769382 3.727142 41.084816 111 99 110
-11.789804 3.822327 41.156101 112 99 109
-11.810221 3.917819 41.227375 112 98 109
-11.830570 4.013596 41.298416 112 97 110
-11.850784 4.109631 41.368977 111 96 111
-11.870801 4.205900 41.438850 110 95 112
-11.890555 4.302376 41.507812 108 94 113
-11.909989 4.399031 41.575649 106 93 114
-11.929045 4.495836 41.642170 105 92 114
-11.947667 4.592761 41.707176 104 91 114
-11.965807 4.689777 41.770500 104 91 114
-11.983418 4.786855 41.831978 104 91 114
-12.000459 4.883966 41.891464 103 91 114
-12.016892 4.981082 41.948833 102 91 113
-12.032684 5.078174 42.003956 102 92 113
-12.047805 5.175215 42.056740 102 92 114
-12.062228 5.272180 42.107090 103 92 115
-12.075932 5.369041 42.154926 103 91 115
-12.088897 5.465775 42.200188 103 90 115
-12.101110 5.562358 42.242821 102 88 113
-12.112565 5.658771 42.282806 101 86 111
-12.123257 5.754994 42.320129 100 85 108
-12.133192 5.851013 42.354813 99 82 104
-12.142385 5.946817 42.386898 99 80 100
-12.150853 6.042401 42.416466 97 77 96
-12.158636 6.137765 42.443630 96 73 93
-12.165768 6.232913 42.468529 94 70 89
-12.172305 6.327859 42.491348 92 68 87
-12.178304 6.422620 42.512287 91 66 83
-12.183832 6.517220 42.531590 90 64 80
-12.188964 6.611687 42.549503 88 64 77
-12.193778 6.706057 42.566307 87 63 75
-12.198350 6.800364 42.582264 86 63 73
-12.202759 6.894649 42.597660 84 61 70
-12.207080 6.988949 42.612743 83 61 69
-12.211382 7.083302 42.627758 83 61 70
-12.215724 7.177745 42.642914 84 61 72
-12.220157 7.272307 42.658390 85 61 75
-12.224718 7.367013 42.674313 86 61 77
-12.229435 7.461882 42.690777 87 61 78
-12.234317 7.556925 42.707821 87 61 80
-12.239364 7.652143 42.725437 87 61 81
-12.244558 7.747532 42.743572 86 61 81
-12.249874 7.843076 42.762131 85 61 81
-12.255271 7.938753 42.780968 84 61 80
-12.260700 8.034533 42.799919 83 61 78
-12.266109 8.130379 42.818798 82 61 76
-12.271438 8.226254 42.837402 81 60 75
-12.276628 8.322117 42.855526 80 59 74
-12.281628 8.417925 42.872974 79 59 73
-12.286386 8.513641 42.889584 78 58 72
-12.290870 8.609238 42.905235 78 57 71
-12.295055 8.704691 42.919849 78 57 69
-12.298943 8.799993 42.933418 77 56 68
-12.302547 8.895148 42.945999 77 56 68
-12.305905 8.990179 42.957722 76 56 67
-12.309076 9.085121 42.968792 75 55 67
-12.312140 9.180032 42.979485 74 55 66
-12.315194 9.274981 42.990150 73 54 66
-12.318353 9.370056 43.001175 73 53 65
-12.321736 9.465352 43.012989 73 52 65
-12.325478 9.560975 43.026047 72 52 65
-12.329702 9.657034 43.040794 72 52 65
-12.334538 9.753639 43.057671 72 51 64
-12.340097 9.850895 43.077080 71 51 64
-12.346483 9.948901 43.099373 71 51 64
-12.353777 10.047741 43.124832 70 50 64
-12.362038 10.147485 43.153671 69 50 63
-12.371303 10.248183 43.186012 68 49 62
-12.381580 10.349870 43.221889 67 49 62
-12.392858 10.452553 43.261257 66 50 61
-12.405096 10.556224 43.303982 64 50 61
-12.418234 10.660851 43.349842 64 50 62
-12.432194 10.766389 43.398575 64 50 62
-12.446877 10.872767 43.449829 64 50 62
-12.462179 10.979913 43.503246 64 50 61
-12.477981 11.087732 43.558407 65 50 61
-12.494164 11.196132 43.614902 65 50 61
-12.510610 11.305011 43.672310 65 50 61
-12.527201 11.414271 43.730228 65 50 59
-12.543832 11.523818 43.788284 64 50 57
-12.560407 11.633563 43.846142 63 50 55
-12.576841 11.743425 43.903515 62 50 55
-12.593071 11.853343 43.960171 62 49 54
-12.609044 11.963262 44.015926 60 48 54
-12.624730 12.073146 44.070683 59 47 54
-12.640116 12.182977 44.124393 58 46 53
-12.655203 12.292748 44.177059 57 45 52
-12.670010 12.402473 44.228745 56 44 50
-12.684568 12.512177 44.279568 55 43 48
-12.698917 12.621890 44.329659 54 42 46
-12.713109 12.731663 44.379200 53 41 44
-12.727192 12.841538 44.428360 52 40 42
-12.741220 12.951571 44.477329 52 39 41
-12.755242 13.061809 44.526279 52 38 40
-12.769304 13.172297 44.575367 51 37 39
-12.783440 13.283075 44.624710 51 37 39
-12.797678 13.394173 44.674412 50 37 39
-12.812030 13.505605 44.724514 49 37 39
-12.826501 13.617379 44.775032 49 36 39
-12.841084 13.729491 44.825939 48 35 38
-12.855765 13.841928 44.877186 47 34 37
-12.870514 13.954659 44.928673 46 34 36
-12.885301 14.067654 44.980289 46 34 35
-12.900087 14.180871 45.031906 46 34 35
-12.914834 14.294267 45.083385 45 34 34
-12.929502 14.407796 45.134586 44 34 34
-12.944053 14.521415 45.185383 43 34 33
-12.958452 14.635081 45.235645 43 34 33
-12.972668 14.748756 45.285275 42 34 33
-12.986670 14.862400 45.334152 42 34 33
-13.000443 14.975990 45.382229 42 33 33
-13.013971 15.089507 45.429455 41 33 33
-13.027250 15.202933 45.475811 42 33 34
-13.040273 15.316259 45.521271 41 32 33
-13.053041 15.429481 45.565838 41 32 33
-13.065554 15.542590 45.609520 42 33 33
-13.077819 15.655591 45.652336 43 33 34
-13.089836 15.768478 45.694286 43 33 34
-13.101606 15.881248 45.735374 41 32 33
-13.113125 15.993887 45.775581 39 31 31
-13.124378 16.106375 45.814869 39 31 31
-13.135350 16.218683 45.853165 40 32 31
-13.146007 16.330765 45.890369 40 33 32
-13.156303 16.442558 45.926311 40 33 31
-10.898685 -5.612253 38.333832 62 64 74
-10.888812 -5.524609 38.299107 62 63 72
-10.879668 -5.437479 38.266945 61 62 71
-10.871248 -5.350844 38.237331 59 61 69
-10.863543 -5.264683 38.210224 58 60 67
-10.856531 -5.178970 38.185566 59 61 67
-10.850192 -5.093679 38.163265 61 61 68
-10.844492 -5.008779 38.143219 62 61 68
-10.839395 -4.924240 38.125290 64 61 69
-10.834857 -4.840027 38.109329 64 61 69
-10.830830 -4.756108 38.095165 64 59 69
-10.827260 -4.672447 38.082607 64 58 69
-10.824090 -4.589009 38.071457 65 58 69
-10.821263 -4.505764 38.061516 66 58 69
-10.818724 -4.422678 38.052586 65 58 69
-10.816416 -4.339723 38.044464 65 59 70
-10.814285 -4.256874 38.036976 65 59 70
-10.812289 -4.174108 38.029953 66 60 70
-10.810384 -4.091407 38.023251 66 60 71
-10.808537 -4.008757 38.016754 67 61 71
-10.806723 -3.926146 38.010372 68 62 71
-10.804924 -3.843569 38.004047 68 63 72
-10.803135 -3.761022 37.997753 70 64 72
-10.801355 -3.678505 37.991493 71 65 72
-10.799595 -3.596023 37.985302 71 65 72
-10.797872 -3.513578 37.979240 72 66 73
-10.796207 -3.431179 37.973389 72 67 74
-10.794633 -3.348833 37.967850 72 67 75
-10.793179 -3.266546 37.962734 72 68 76
-10.791878 -3.184328 37.958160 73 67 78
-10.790764 -3.102183 37.954243 74 67 79
-10.789869 -3.020116 37.951096 75 67 81
-10.789221 -2.938129 37.948814 75 67 82
-10.788845 -2.856225 37.947491 76 67 82
-10.788758 -2.774401 37.947189 76 66 82
-10.788976 -2.692654 37.947952 78 66 81
-10.789503 -2.610978 37.949806 79 66 80
-10.790341 -2.529368 37.952755 79 66 79
-10.791489 -2.447815 37.956791 80 66 78
-10.792941 -2.366311 37.961899 81 67 77
-10.794687 -2.284847 37.968040 82 68 77
-10.796723 -2.203417 37.975201 82 68 78
-10.799043 -2.122011 37.983360 83 70 79
-10.801643 -2.040623 37.992508 83 71 81
-10.804532 -1.959248 38.002670 83 71 82
-10.807719 -1.877880 38.013878 84 71 84
-10.811225 -1.796518 38.026207 86 72 86
-10.815078 -1.715157 38.039761 88 72 88
-10.819317 -1.633796 38.054672 89 72 89
-10.823989 -1.552433 38.071102 91 72 91
-10.829146 -1.471066 38.089245 92 73 92
-10.834848 -1.389689 38.109299 93 73 93
-10.841158 -1.308300 38.131493 95 73 94
-10.848139 -1.226891 38.156048 95 74 95
-10.855850 -1.145453 38.183170 96 75 95
-10.864351 -1.063975 38.213070 96 77 96
-10.873688 -0.982445 38.245911 95 79 97
-10.883901 -0.900845 38.281830 95 82 99
-10.895012 -0.819157 38.320911 95 84 100
-10.907034 -0.737363 38.363197 96 86 102
-10.919958 -0.655441 38.408657 97 88 103
-10.933762 -0.573368 38.457207 99 91 105
-10.948400 -0.491124 38.508694 102 93 107
-10.963815 -0.408687 38.562912 103 96 109
-10.979926 -0.326037 38.619579 104 98 112
-10.996641 -0.243156 38.678371 106 101 114
-11.013852 -0.160028 38.738907 107 103 116
-11.031442 -0.076642 38.800774 107 105 118
-11.049280 0.007010 38.863518 108 108 120
-11.067235 0.090935 38.926670 110 110 122
-11.085173 0.175131 38.989761 111 111 124
-11.102961 0.259595 39.052330 112 112 126
-11.120474 0.344321 39.113926 113 113 128
-11.137597 0.429298 39.174156 114 114 131
-11.154230 0.514511 39.232658 116 115 133
-11.170288 0.599946 39.289139 118 116 135
-11.185710 0.685585 39.343380 120 117 137
-11.200451 0.771412 39.395229 121 117 139
-11.214497 0.857408 39.444630 123 119 140
-11.227848 0.943560 39.491592 123 119 140
-11.240537 1.029853 39.536224 123 119 141
-11.252611 1.116278 39.578693 125 122 143
-11.264138 1.202827 39.619236 125 124 145
-11.275201 1.289498 39.658146 124 124 145
-11.285896 1.376292 39.695766 123 123 145
-11.296328 1.463213 39.732452 123 123 145
-11.306604 1.550272 39.768600 123 122 143
-11.316837 1.637481 39.804596 123 121 141
-11.327134 1.724854 39.840813 122 118 139
-11.337600 1.812410 39.877621 122 116 136
-11.348329 1.900169 39.915356 121 114 134
-11.359409 1.988153 39.954334 120 111 131
-11.370917 2.076382 39.994808 119 109 128
-11.382919 2.164880 40.037025 116 106 126
-11.395467 2.253668 40.081158 114 103 123
-11.408604 2.342767 40.127361 112 101 120
-11.422355 2.432196 40.175732 110 98 118
-11.436742 2.521974 40.226330 108 95 115
-11.451768 2.612116 40.279182 107 93 114
