ply
format ascii 1.0
element vertex 1184
property float x
property float y
property float z
property uchar red
property uchar green
property uchar blue
end_header
0.014732 -1.725771 61.981716 224 193 219
0.014732 -1.592160 61.981716 213 178 204
0.014671 -1.452483 61.723995 175 134 162
0.014550 -1.308545 61.214931 155 112 138
0.014580 -1.179018 61.341408 171 127 150
0.014580 -1.046786 61.341408 192 147 168
0.014610 -0.916448 61.468410 190 144 164
0.014580 -0.782323 61.341408 174 126 146
0.014610 -0.651438 61.468410 162 113 133
0.014640 -0.520009 61.595940 159 110 129
0.014640 -0.387229 61.595940 160 110 129
0.014640 -0.254449 61.595940 161 111 129
0.014580 -0.121166 61.341408 161 112 128
0.014285 2.861043 60.099682 150 94 112
0.013974 2.925456 58.790577 150 95 113
0.013837 3.022266 58.214199 149 96 114
0.012294 3.354278 51.723419 148 102 123
0.012146 3.424020 51.100246 148 103 124
0.012146 3.534175 51.100246 147 104 125
0.015543 5.086686 65.394806 144 101 118
0.015475 5.204727 65.107986 144 100 116
0.015612 5.675565 65.684166 138 89 108
0.015647 5.830057 65.829803 137 86 105
0.015647 5.971963 65.829803 136 84 104
0.015578 6.086877 65.539169 135 84 104
0.015578 6.228158 65.539169 136 85 104
0.015578 6.369438 65.539169 134 84 104
0.015543 6.496377 65.394806 131 81 101
0.015509 6.622759 65.251083 127 78 98
0.015509 6.763419 65.251083 126 78 96
0.015509 6.904078 65.251083 126 78 94
0.015441 7.013907 64.965523 126 79 92
0.015374 7.122779 64.682442 125 80 90
0.015307 7.230706 64.401825 124 80 89
0.015341 7.385555 64.541832 123 80 88
0.145907 -9.451015 60.963535 174 133 152
0.145310 -9.281482 60.714195 182 139 159
0.145310 -9.150602 60.714195 196 151 170
0.145608 -9.038206 60.838612 201 155 174
0.145608 -8.907059 60.838612 195 148 165
0.145907 -8.793931 60.963535 185 139 156
0.145907 -8.662515 60.963535 179 134 150
0.145907 -8.531097 60.963535 177 133 150
0.146207 -8.416965 61.088974 178 134 151
0.145907 -8.268264 60.963535 183 140 156
0.146207 -8.153589 61.088974 193 150 166
0.146207 -8.021902 61.088974 200 157 173
0.146207 -7.890215 61.088974 207 163 179
0.146811 -7.790588 61.341408 222 180 197
0.146509 -7.642566 61.214931 239 202 220
0.146207 -7.495153 61.088974 240 207 224
0.146207 -7.363466 61.088974 218 182 197
0.146509 -7.246690 61.214931 187 147 162
0.146509 -7.114731 61.214931 181 141 154
0.146509 -6.982772 61.214931 208 173 183
0.146509 -6.850813 61.214931 237 211 217
0.146207 -6.705030 61.088974 239 216 222
0.146207 -6.573343 61.088974 220 195 200
0.146207 -6.441656 61.088974 188 164 168
0.145907 -6.297011 60.963535 153 132 136
0.145907 -6.165595 60.963535 148 132 135
0.145907 -6.034178 60.963535 193 184 185
0.145907 -5.902761 60.963535 240 238 238
0.146509 -5.795143 61.214931 254 254 254
0.146509 -5.663185 61.214931 254 254 254
0.146811 -5.542654 61.341408 253 253 253
0.146509 -5.399267 61.214931 248 247 247
0.146811 -5.278191 61.341408 238 237 236
0.146811 -5.145960 61.341408 233 232 231
0.147727 -5.044999 61.723995 240 240 238
0.147727 -4.911943 61.723995 250 250 249
0.148344 -4.798841 61.981716 254 254 254
0.148966 -4.684789 62.241596 254 254 254
0.148966 -2.135523 62.241596 239 224 235
0.148966 -2.001351 62.241596 217 191 211
0.148035 -1.855509 61.852589 199 163 190
0.148035 -1.722176 61.852589 203 164 193
0.148035 -1.588843 61.852589 193 153 182
0.147420 -1.449470 61.595940 166 124 151
0.146509 -1.308545 61.214931 157 115 140
0.146509 -1.176587 61.214931 178 134 157
0.146509 -1.044628 61.214931 206 161 182
0.146811 -0.914555 61.341408 212 165 185
0.146509 -0.780710 61.214931 186 138 158
0.146811 -0.650092 61.341408 161 110 131
0.146811 -0.517861 61.341408 157 105 126
0.147115 -0.386428 61.468410 161 109 129
0.144718 2.878524 60.466888 149 92 111
0.141266 2.937088 59.024338 149 94 112
0.123792 3.465776 51.723419 146 100 121
0.123362 3.564853 51.543823 145 101 121
0.156858 5.097915 65.539169 142 98 114
0.155826 5.204727 65.107986 142 97 113
0.157554 5.688149 65.829803 137 88 106
0.156858 6.086877 65.539169 135 84 103
0.156858 6.228158 65.539169 135 84 103
0.156858 6.369438 65.539169 133 83 102
0.156858 6.510718 65.539169 130 80 99
0.156512 6.637347 65.394806 126 78 97
0.156858 6.793279 65.539169 124 77 94
0.156512 6.919285 65.394806 124 77 92
0.155826 7.029288 65.107986 124 78 90
0.155145 7.138331 64.823669 124 79 88
0.154136 7.230706 64.401825 124 80 87
0.276189 -9.150602 60.714195 188 142 161
0.277324 -9.056765 60.963535 191 143 162
0.277324 -8.925348 60.963535 187 139 157
0.277324 -8.793931 60.963535 181 134 151
0.277324 -8.662515 60.963535 176 129 146
0.277894 -8.548652 61.088974 174 129 146
0.278467 -8.434319 61.214931 176 132 149
0.277894 -8.285276 61.088974 182 139 155
0.278467 -8.170401 61.214931 191 148 164
0.278467 -8.038443 61.214931 198 155 172
0.278467 -7.906484 61.214931 209 166 183
0.279620 -7.806717 61.468410 228 187 204
0.278467 -7.642566 61.214931 246 212 229
0.278467 -7.510607 61.214931 248 221 236
0.277894 -7.363466 61.088974 225 194 209
0.278467 -7.246690 61.214931 189 150 163
0.278467 -7.114731 61.214931 175 134 145
0.277894 -6.968404 61.088974 200 163 171
0.278467 -6.850813 61.214931 235 209 214
0.278467 -6.718855 61.214931 247 227 230
0.277894 -6.573343 61.088974 234 209 212
0.277894 -6.441656 61.088974 209 182 185
0.277324 -6.297011 60.963535 178 154 156
0.277324 -6.165595 60.963535 159 140 142
0.277324 -6.034178 60.963535 186 174 175
0.277324 -5.902761 60.963535 234 229 230
0.278467 -5.795143 61.214931 254 253 253
0.279043 -5.674885 61.341408 254 254 254
0.279620 -5.554130 61.468410 254 254 253
0.279620 -5.421624 61.468410 254 254 253
0.279043 -5.278191 61.341408 253 253 253
0.279043 -5.145960 61.341408 252 252 252
0.280201 -5.034532 61.595940 253 253 252
0.281368 -4.922176 61.852589 254 254 254
0.282545 -4.808880 62.111385 254 254 254
0.283732 -4.694632 62.372356 254 254 254
0.284930 -2.284060 62.635532 248 238 245
0.282545 -2.131056 62.111385 247 236 243
0.282545 -1.997164 62.111385 225 200 217
0.281368 -1.855509 61.852589 193 155 180
0.281368 -1.722176 61.852589 180 138 165
0.280783 -1.585540 61.723995 175 132 159
0.279620 -1.446469 61.468410 169 126 151
0.278467 -1.308545 61.214931 172 129 152
0.279043 -1.179018 61.341408 185 141 163
0.278467 -1.044628 61.214931 206 161 181
0.278467 -0.912669 61.214931 209 163 182
0.277894 -0.779104 61.088974 183 135 154
0.278467 -0.648752 61.214931 159 109 128
0.278467 -0.516793 61.214931 156 105 125
0.278467 -0.384834 61.214931 163 110 130
0.236527 3.596069 51.995171 145 99 119
0.300126 4.989679 65.976097 142 97 114
0.297482 5.086686 65.394806 142 95 112
0.296177 5.204727 65.107986 141 93 111
0.298138 6.228158 65.539169 134 83 102
0.298138 6.369438 65.539169 131 82 100
0.298138 6.510718 65.539169 128 79 98
0.298138 6.651999 65.539169 125 77 95
0.298138 6.793279 65.539169 123 77 92
0.297482 6.919285 65.394806 122 77 90
0.296177 7.029288 65.107986 122 77 88
0.294241 7.122779 64.682442 122 78 86
0.408741 -9.056765 60.963535 183 136 152
0.408741 -8.925348 60.963535 180 133 149
0.409582 -8.812026 61.088974 176 129 144
0.409582 -8.680339 61.088974 172 126 141
0.409582 -8.548652 61.088974 172 127 141
0.410426 -8.434319 61.214931 176 131 146
0.409582 -8.285276 61.088974 181 137 153
0.410426 -8.170401 61.214931 189 145 162
0.410426 -8.038443 61.214931 200 156 173
0.410426 -7.906484 61.214931 213 170 187
0.412126 -7.806717 61.468410 226 185 203
0.410426 -7.642566 61.214931 236 201 218
0.410426 -7.510607 61.214931 237 208 223
0.409582 -7.363466 61.088974 219 186 201
0.409582 -7.231779 61.088974 189 148 161
0.409582 -7.100091 61.088974 174 131 141
0.409582 -6.968404 61.088974 195 155 162
0.409582 -6.836717 61.088974 231 200 205
0.409582 -6.705030 61.088974 244 221 223
0.409582 -6.573343 61.088974 233 205 207
0.409582 -6.441656 61.088974 220 189 191
0.408741 -6.297011 60.963535 204 177 178
0.408741 -6.165595 60.963535 184 161 163
0.408741 -6.034178 60.963535 193 176 178
0.408741 -5.902761 60.963535 230 221 222
0.410426 -5.795143 61.214931 251 249 249
0.411274 -5.674885 61.341408 253 252 252
0.412126 -5.554130 61.468410 252 251 250
0.412126 -5.421624 61.468410 253 252 251
0.412126 -5.289119 61.468410 254 254 254
0.411274 -5.145960 61.341408 254 254 254
0.413839 -5.044999 61.723995 254 254 254
0.415567 -4.932452 61.981716 254 254 254
0.417310 -4.818961 62.241596 254 254 254
0.419067 -4.704515 62.503666 254 254 254
0.419067 -2.279252 62.503666 254 251 253
0.416436 -2.131056 62.111385 249 241 246
0.415567 -1.992995 61.981716 220 195 209
0.414701 -1.855509 61.852589 177 139 160
0.414701 -1.722176 61.852589 160 118 140
0.412981 -1.582250 61.595940 167 124 145
0.411274 -1.443480 61.341408 181 138 158
0.410426 -1.308545 61.214931 191 148 166
0.410426 -1.176587 61.214931 190 148 165
0.410426 -1.044628 61.214931 192 148 165
0.410426 -0.912669 61.214931 187 142 159
0.409582 -0.779104 61.088974 170 123 141
0.409582 -0.647417 61.088974 159 109 128
0.409582 -0.515729 61.088974 161 109 129
0.442348 4.989679 65.976097 143 97 113
0.438451 5.086686 65.394806 141 94 111
0.435573 5.193338 64.965523 140 91 109
0.438451 6.214439 65.394806 133 83 101
0.438451 6.355409 65.394806 132 82 101
0.438451 6.496377 65.394806 128 79 97
0.438451 6.637347 65.394806 124 77 94
0.438451 6.778316 65.394806 122 76 92
0.437487 6.904078 65.251083 121 76 89
0.540157 -8.925348 60.963535 187 140 152
0.541269 -8.812026 61.088974 180 133 145
0.541269 -8.680339 61.088974 171 125 137
0.542385 -8.566278 61.214931 167 122 134
0.543505 -8.451745 61.341408 172 127 139
0.541269 -8.285276 61.088974 178 134 148
0.544631 -8.204233 61.468410 186 143 158
0.543505 -8.055051 61.341408 199 155 171
0.542385 -7.906484 61.214931 212 167 184
0.545761 -7.822914 61.595940 214 171 188
0.543505 -7.658357 61.341408 208 167 184
0.542385 -7.510607 61.214931 203 165 181
0.542385 -7.378648 61.214931 196 156 170
0.542385 -7.246690 61.214931 181 137 149
0.541269 -7.100091 61.088974 173 128 138
0.541269 -6.968404 61.088974 190 147 154
0.542385 -6.850813 61.214931 224 188 192
0.541269 -6.705030 61.088974 239 210 212
0.541269 -6.573343 61.088974 231 200 200
0.541269 -6.441656 61.088974 222 189 190
0.540157 -6.297011 60.963535 212 182 184
0.540157 -6.165595 60.963535 194 168 171
0.540157 -6.034178 60.963535 192 170 173
0.541269 -5.914907 61.088974 218 204 207
0.542385 -5.795143 61.214931 245 240 241
0.544631 -5.686635 61.468410 252 251 251
0.545761 -5.565652 61.595940 250 248 248
0.545761 -5.432872 61.595940 251 248 249
0.544631 -5.289119 61.468410 253 252 253
0.543505 -5.145960 61.341408 255 255 255
0.546895 -5.044999 61.723995 254 254 254
0.550328 -4.942771 62.111385 254 254 254
0.550328 -4.808880 62.111385 254 254 254
0.552640 -4.694632 62.372356 254 254 254
0.556145 -4.589100 62.767956 254 254 254
0.551481 -2.269695 62.241596 253 251 252
0.549179 -2.126606 61.981716 239 228 233
0.548035 -1.988843 61.852589 194 167 180
0.546895 -1.851652 61.723995 153 114 131
0.546895 -1.718596 61.723995 153 110 127
0.544631 -1.578974 61.468410 172 129 145
0.542385 -1.440504 61.214931 189 147 162
0.542385 -1.308545 61.214931 198 156 170
0.542385 -1.176587 61.214931 192 151 164
0.541269 -1.042478 61.088974 180 138 153
0.541269 -0.910791 61.088974 169 126 142
0.540157 -0.777504 60.963535 161 116 133
0.551481 2.560494 62.241596 147 91 109
0.550328 2.689028 62.111385 146 91 109
0.550328 2.822919 62.111385 145 91 108
0.585872 5.000792 66.123032 143 96 111
0.579420 5.086686 65.394806 140 92 109
0.576879 5.204727 65.107986 139 90 108
0.579420 5.509593 65.394806 137 87 104
0.580699 5.663036 65.539169 136 85 103
0.578146 6.200781 65.251083 133 82 99
0.578146 6.341441 65.251083 131 81 98
0.578146 6.482100 65.251083 127 79 95
0.578146 6.622759 65.251083 124 78 93
0.579420 6.778316 65.394806 123 77 92
0.671574 -8.793931 60.963535 200 155 164
0.672956 -8.680339 61.088974 179 134 143
0.674344 -8.566278 61.214931 161 115 124
0.674344 -8.434319 61.214931 164 118 129
0.672956 -8.285276 61.088974 174 128 142
0.677136 -8.204233 61.468410 182 136 151
0.675737 -8.055051 61.341408 192 146 163
0.674344 -7.906484 61.214931 203 156 173
0.678541 -7.822914 61.595940 201 155 172
0.675737 -7.658357 61.341408 189 143 160
0.674344 -7.510607 61.214931 182 136 152
0.674344 -7.378648 61.214931 181 135 150
0.674344 -7.246690 61.214931 175 129 142
0.672956 -7.100091 61.088974 167 120 131
0.672956 -6.968404 61.088974 179 133 141
0.674344 -6.850813 61.214931 210 170 174
0.672956 -6.705030 61.088974 234 198 200
0.672956 -6.573343 61.088974 237 203 203
0.674344 -6.454937 61.214931 228 194 194
0.671574 -6.297011 60.963535 211 179 181
0.671574 -6.165595 60.963535 192 163 167
0.672956 -6.046594 61.088974 186 160 167
0.672956 -5.914907 61.088974 207 188 194
0.674344 -5.795143 61.214931 237 228 231
0.675737 -5.674885 61.341408 250 249 250
0.678541 -5.565652 61.595940 250 248 249
0.678541 -5.432872 61.595940 249 246 248
0.677136 -5.289119 61.468410 252 251 252
0.677136 -5.156614 61.468410 254 254 254
0.678541 -5.034532 61.595940 255 255 255
0.684219 -4.942771 62.111385 254 254 254
0.684219 -4.808880 62.111385 254 254 254
0.687094 -4.694632 62.372356 254 254 254
0.689993 -4.579419 62.635532 253 253 253
0.678541 -4.370632 61.595940 254 254 254
0.675737 -4.220340 61.341408 254 254 254
0.674344 -4.079679 61.214931 253 253 254
0.684219 -2.532729 62.111385 253 245 248
0.682790 -2.393830 61.981716 254 249 251
0.684219 -2.264947 62.111385 248 242 245
0.681368 -2.122176 61.852589 218 200 207
0.681368 -1.988843 61.852589 167 134 146
0.681368 -1.855509 61.852589 142 101 113
0.681368 -1.722176 61.852589 160 117 128
0.677136 -1.578974 61.468410 181 138 149
0.674344 -1.440504 61.214931 189 146 157
0.674344 -1.308545 61.214931 193 151 162
0.674344 -1.176587 61.214931 188 146 157
0.672956 -1.042478 61.088974 173 130 143
0.672956 -0.910791 61.088974 162 118 133
0.671574 -0.777504 60.963535 159 113 130
0.687094 2.565873 62.372356 148 92 109
0.687094 2.700327 62.372356 147 92 109
0.687094 2.834780 62.372356 146 91 108
0.671574 3.165001 60.963535 146 94 110
0.731670 5.023167 66.418884 142 94 108
0.721979 5.097915 65.539169 140 91 107
0.717229 5.204727 65.107986 139 90 106
0.721979 5.521756 65.539169 137 87 104
0.721979 5.663036 65.539169 136 85 103
0.721979 5.804317 65.539169 135 84 101
0.720389 5.932501 65.394806 134 83 99
0.718806 6.060122 65.251083 133 82 98
0.718806 6.200781 65.251083 132 82 97
0.718806 6.341441 65.251083 130 81 96
0.717229 6.467885 65.107986 128 79 94
0.717229 6.608236 65.107986 126 78 93
0.806302 -8.566278 61.214931 157 114 120
0.806302 -8.434319 61.214931 158 112 121
0.804643 -8.285276 61.088974 172 126 138
0.807968 -8.187283 61.341408 178 132 146
0.807968 -8.055051 61.341408 184 137 152
0.806302 -7.906484 61.214931 191 142 158
0.809641 -7.806717 61.468410 195 146 161
0.806302 -7.642566 61.214931 195 147 162
0.806302 -7.510607 61.214931 197 150 164
0.806302 -7.378648 61.214931 201 155 168
0.804643 -7.231779 61.088974 185 139 152
0.804643 -7.100091 61.088974 160 113 124
0.804643 -6.968404 61.088974 164 119 126
0.806302 -6.850813 61.214931 197 154 158
0.806302 -6.718855 61.214931 225 185 188
0.804643 -6.573343 61.088974 238 200 202
0.806302 -6.454937 61.214931 234 197 200
0.802991 -6.297011 60.963535 219 184 187
0.802991 -6.165595 60.963535 206 172 179
0.802991 -6.034178 60.963535 203 173 182
0.802991 -5.902761 60.963535 212 188 198
0.806302 -5.795143 61.214931 232 218 225
0.807968 -5.674885 61.341408 248 244 247
0.809641 -5.554130 61.468410 251 250 252
0.811321 -5.432872 61.595940 248 246 250
0.809641 -5.289119 61.468410 250 249 251
0.807968 -5.145960 61.341408 253 253 254
0.811321 -5.034532 61.595940 254 254 254
0.819825 -4.953133 62.241596 254 254 254
0.821548 -4.829085 62.372356 254 254 254
0.823277 -4.704515 62.503666 252 252 252
0.825014 -4.579419 62.635532 251 251 251
0.813008 -4.379718 61.723995 253 253 253
0.809641 -4.229078 61.468410 254 254 254
0.807968 -4.088109 61.341408 254 254 254
0.801346 -3.136567 60.838612 231 220 227
0.813008 -2.516932 61.723995 251 244 249
0.811321 -2.378931 61.595940 254 248 251
0.814701 -2.255509 61.852589 239 224 230
0.813008 -2.117764 61.723995 196 166 176
0.813008 -1.984708 61.723995 154 114 124
0.813008 -1.851652 61.723995 149 106 114
0.814701 -1.722176 61.852589 172 127 135
0.807968 -1.575712 61.341408 187 142 149
0.806302 -1.440504 61.214931 189 144 152
0.806302 -1.308545 61.214931 191 146 155
0.806302 -1.176587 61.214931 185 140 150
0.804643 -1.042478 61.088974 168 123 136
0.804643 -0.910791 61.088974 158 111 126
0.802991 -0.777504 60.963535 157 109 125
0.828510 2.452024 62.900936 149 92 108
0.823277 2.571275 62.503666 148 92 108
0.825014 2.711720 62.635532 147 91 107
0.826758 2.852760 62.767956 146 91 107
0.828510 2.994397 62.900936 145 91 106
0.825014 3.116784 62.635532 144 91 107
0.814701 3.211157 61.852589 146 93 109
0.839177 3.582308 63.710819 147 97 111
0.840982 3.727646 63.847832 146 97 110
0.872894 5.011954 66.270630 141 92 104
0.861358 5.086686 65.394806 140 91 104
0.861358 5.509593 65.394806 137 88 104
0.863260 5.663036 65.539169 136 87 103
0.863260 5.804317 65.539169 134 86 101
0.859465 5.919463 65.251083 133 85 99
0.857580 6.187183 65.107986 131 83 96
0.857580 6.327534 65.107986 130 82 95
0.855704 6.453732 64.965523 128 80 93
0.938261 -8.434319 61.214931 161 116 124
0.936331 -8.285276 61.088974 177 131 143
0.940200 -8.187283 61.341408 181 133 147
0.938261 -8.038443 61.214931 182 133 148
0.938261 -7.906484 61.214931 184 135 149
0.942146 -7.806717 61.468410 193 144 157
0.938261 -7.642566 61.214931 210 164 176
0.938261 -7.510607 61.214931 225 183 194
0.936331 -7.363466 61.088974 225 184 196
0.936331 -7.231779 61.088974 196 154 165
0.936331 -7.100091 61.088974 158 116 126
0.936331 -6.968404 61.088974 160 117 124
0.938261 -6.850813 61.214931 189 148 152
0.936331 -6.705030 61.088974 213 172 176
0.936331 -6.573343 61.088974 226 186 190
0.936331 -6.441656 61.088974 230 192 196
0.934408 -6.297011 60.963535 227 190 195
0.934408 -6.165595 60.963535 224 188 196
0.934408 -6.034178 60.963535 223 189 201
0.934408 -5.902761 60.963535 221 192 205
0.936331 -5.783219 61.088974 228 208 219
0.938261 -5.663185 61.214931 244 235 241
0.940200 -5.542654 61.341408 250 246 250
0.942146 -5.421624 61.468410 241 238 243
0.940200 -5.278191 61.341408 237 234 240
0.942146 -5.156614 61.468410 244 243 246
0.942146 -5.024109 61.468410 252 251 252
0.952001 -4.942771 62.111385 254 254 254
0.953997 -4.818961 62.241596 254 254 254
0.956001 -4.694632 62.372356 252 252 252
0.958014 -4.569778 62.503666 251 251 251
0.948035 -4.388843 61.852589 253 253 253
0.944101 -4.237852 61.595940 254 254 254
0.942146 -4.096572 61.468410 254 254 254
0.940200 -3.955877 61.341408 255 254 255
0.944101 -3.839511 61.595940 254 254 254
0.942146 -3.699057 61.468410 254 253 253
0.938261 -3.551844 61.214931 252 251 251
0.938261 -3.287927 61.214931 241 235 238
0.930586 -3.130152 60.714195 219 207 215
0.940200 -2.501332 61.341408 248 237 246
0.940200 -2.369100 61.341408 249 237 244
0.944101 -2.246150 61.595940 223 197 206
0.946064 -2.117764 61.723995 180 140 150
0.944101 -1.980590 61.595940 157 112 120
0.944101 -1.847810 61.595940 165 119 124
0.946064 -1.718596 61.723995 182 135 140
0.940200 -1.575712 61.341408 191 145 149
0.936331 -1.437540 61.088974 195 149 154
0.938261 -1.308545 61.214931 197 149 157
0.938261 -1.176587 61.214931 186 138 148
0.936331 -1.042478 61.088974 168 120 132
0.934408 -0.908921 60.963535 158 109 122
0.932493 -0.775911 60.838612 157 106 122
0.964103 2.316431 62.900936 149 92 107
0.964103 2.452024 62.900936 148 92 106
0.960035 2.576699 62.635532 148 92 105
0.962065 2.717453 62.767956 148 91 105
0.966150 2.864874 63.034485 147 91 105
0.968206 3.007139 63.168602 145 90 105
0.964103 3.129990 62.900936 144 90 105
0.962065 3.258680 62.767956 146 93 108
0.980726 3.597749 63.985435 148 97 110
0.980726 3.735680 63.985435 146 97 109
0.984971 3.890380 64.262428 145 97 108
1.024902 4.912963 66.867661 141 91 103
1.008995 4.978615 65.829803 140 89 102
1.000124 5.075507 65.251083 140 90 103
0.995748 5.193338 64.965523 139 90 103
0.989254 5.298599 64.541832 138 88 103
1.002327 5.650563 65.394806 135 87 103
1.002327 5.791532 65.394806 134 87 102
1.000124 5.919463 65.251083 133 86 99
0.997931 6.046832 65.107986 132 85 98
0.997931 6.187183 65.107986 131 84 96
0.995748 6.313688 64.965523 129 82 93
1.068018 -8.285276 61.088974 185 139 150
1.072431 -8.187283 61.341408 184 137 150
1.070220 -8.038443 61.214931 187 139 152
1.070220 -7.906484 61.214931 191 141 154
1.074651 -7.806717 61.468410 200 152 164
1.070220 -7.642566 61.214931 222 183 192
1.070220 -7.510607 61.214931 238 206 215
1.070220 -7.378648 61.214931 226 189 199
1.070220 -7.246690 61.214931 190 150 160
1.068018 -7.100091 61.088974 166 127 136
1.068018 -6.968404 61.088974 172 133 141
1.068018 -6.836717 61.088974 188 149 156
1.068018 -6.705030 61.088974 201 163 169
1.068018 -6.573343 61.088974 214 175 182
1.068018 -6.441656 61.088974 224 185 192
1.065825 -6.297011 60.963535 226 188 195
1.065825 -6.165595 60.963535 222 183 194
1.065825 -6.034178 60.963535 216 178 192
1.065825 -5.902761 60.963535 210 175 191
1.068018 -5.783219 61.088974 214 187 202
1.070220 -5.663185 61.214931 234 217 227
1.072431 -5.542654 61.341408 241 232 240
1.074651 -5.421624 61.468410 221 213 223
1.074651 -5.289119 61.468410 204 197 208
1.074651 -5.156614 61.468410 216 212 221
1.079120 -5.044999 61.723995 239 237 241
1.085893 -4.942771 62.111385 252 251 252
1.088169 -4.818961 62.241596 254 254 254
1.092751 -4.704515 62.503666 254 254 254
1.092751 -4.569778 62.503666 254 254 254
1.083626 -4.398005 61.981716 254 254 254
1.079120 -4.246662 61.723995 254 254 254
1.079120 -4.113606 61.723995 254 254 254
1.074651 -3.964067 61.468410 254 254 254
1.076881 -3.839511 61.595940 254 254 254
1.074651 -3.699057 61.468410 255 254 254
1.070220 -3.551844 61.214931 254 252 251
1.070220 -3.419886 61.214931 252 246 246
1.070220 -3.287927 61.214931 237 228 231
1.072431 -2.633563 61.341408 227 201 221
1.072431 -2.501332 61.341408 236 214 231
1.072431 -2.369100 61.341408 238 213 227
1.076881 -2.246150 61.595940 205 168 181
1.079120 -2.117764 61.723995 172 125 135
1.074651 -1.976490 61.468410 169 121 126
1.076881 -1.847810 61.595940 182 133 135
1.081368 -1.722176 61.852589 191 142 143
1.070220 -1.572463 61.214931 196 147 148
1.068018 -1.437540 61.088974 201 152 154
1.070220 -1.308545 61.214931 201 151 157
1.068018 -1.174166 61.088974 188 136 146
1.068018 -1.042478 61.088974 171 119 131
1.065825 -0.908921 60.963535 163 109 124
1.102031 2.321349 63.034485 149 91 105
1.099696 2.452024 62.900936 149 91 104
1.097371 2.582147 62.767956 148 91 104
1.099696 2.723211 62.900936 148 91 105
1.104376 2.870969 63.168602 148 91 106
1.106731 3.013551 63.303288 147 90 106
1.104376 3.143310 63.168602 147 91 106
1.099696 3.265584 62.900936 147 93 108
1.109095 3.430247 63.438553 147 95 109
1.121073 3.605519 64.123634 147 96 109
1.118657 3.735680 63.985435 146 96 108
1.121073 3.881977 64.123634 145 96 109
1.130842 4.055241 64.682442 145 95 109
1.123499 4.167436 64.262428 144 95 109
1.145820 4.674074 65.539169 143 93 106
1.150902 4.836709 65.829803 142 91 104
1.143297 4.945717 65.394806 141 90 102
1.138282 5.064376 65.107986 141 89 102
1.130842 5.170709 64.682442 139 89 102
1.123499 5.275661 64.262428 138 88 101
1.140784 5.638144 65.251083 135 87 102
1.143297 5.791532 65.394806 133 86 102
1.140784 5.919463 65.251083 132 86 100
1.135791 6.033601 64.965523 132 85 99
1.202179 -8.038443 61.214931 200 154 164
1.202179 -7.906484 61.214931 204 158 168
1.207157 -7.806717 61.468410 209 167 175
1.202179 -7.642566 61.214931 228 197 203
1.202179 -7.510607 61.214931 239 216 222
1.202179 -7.378648 61.214931 211 181 189
1.202179 -7.246690 61.214931 172 136 145
1.199705 -7.100091 61.088974 171 136 147
1.202179 -6.982772 61.214931 184 150 162
1.202179 -6.850813 61.214931 184 150 161
1.199705 -6.705030 61.088974 192 157 168
1.199705 -6.573343 61.088974 209 172 183
1.199705 -6.441656 61.088974 222 185 196
1.197242 -6.297011 60.963535 226 190 200
1.197242 -6.165595 60.963535 217 180 193
1.197242 -6.034178 60.963535 199 160 176
1.199705 -5.914907 61.088974 187 148 165
1.202179 -5.795143 61.214931 191 156 173
1.204662 -5.674885 61.341408 210 185 199
1.204662 -5.542654 61.341408 218 200 213
1.212176 -5.444168 61.723995 195 178 192
1.212176 -5.311111 61.723995 168 154 169
1.212176 -5.178055 61.723995 175 166 179
1.214701 -5.055510 61.852589 207 201 211
1.222341 -4.953133 62.241596 232 229 235
1.222341 -4.818961 62.241596 243 241 244
1.224909 -4.694632 62.372356 249 248 249
1.227488 -4.569778 62.503666 253 253 253
1.219784 -4.407206 62.111385 254 254 254
1.214701 -4.255509 61.852589 254 254 254
1.214701 -4.122176 61.852589 254 254 254
1.209661 -3.972291 61.595940 254 254 254
1.209661 -3.839511 61.595940 254 254 254
1.207157 -3.699057 61.468410 254 254 254
1.207157 -2.639016 61.468410 210 178 200
1.204662 -2.501332 61.341408 216 181 202
1.207157 -2.374005 61.468410 221 182 199
1.212176 -2.250820 61.723995 194 146 160
1.214701 -2.122176 61.852589 172 121 130
1.209661 -1.980590 61.595940 183 132 135
1.209661 -1.847810 61.595940 197 146 145
1.214701 -1.722176 61.852589 198 146 145
1.204662 -1.575712 61.341408 196 144 144
1.199705 -1.437540 61.088974 197 144 146
1.204662 -1.311249 61.341408 194 141 146
1.199705 -1.174166 61.088974 184 130 139
1.199705 -1.042478 61.088974 173 118 130
1.245847 2.336230 63.438553 149 91 105
1.237912 2.457230 63.034485 149 91 104
1.237912 2.593112 63.034485 149 90 104
1.240546 2.734799 63.168602 148 90 105
1.245847 2.883238 63.438553 148 91 106
1.248515 3.026457 63.574394 148 91 107
1.245847 3.156743 63.438553 148 91 108
1.243191 3.286472 63.303288 147 92 108
1.253885 3.452377 63.847832 147 93 108
1.259302 3.605519 64.123634 146 94 108
1.256588 3.735680 63.985435 146 94 108
1.262027 3.890380 64.262428 146 94 109
1.273049 4.064095 64.823669 145 93 110
1.264765 4.176476 64.401825 144 93 109
1.270276 4.334108 64.682442 143 92 108
1.284266 4.522810 65.394806 143 92 107
1.292809 4.694801 65.829803 142 91 106
1.295681 4.847456 65.976097 142 91 104
1.289948 4.967601 65.684166 142 90 103
1.281443 5.075507 65.251083 142 89 102
1.275835 5.193338 64.965523 140 89 101
1.267514 5.298599 64.541832 138 88 101
1.284266 5.650563 65.394806 135 86 102
1.284266 5.791532 65.394806 134 85 101
1.281443 5.919463 65.251083 133 85 100
1.336894 -7.922819 61.341408 215 174 183
1.336894 -7.790588 61.341408 216 178 187
1.334137 -7.642566 61.214931 231 205 212
1.334137 -7.510607 61.214931 238 219 226
1.334137 -7.378648 61.214931 203 177 187
1.334137 -7.246690 61.214931 162 131 145
1.331392 -7.100091 61.088974 171 142 157
1.334137 -6.982772 61.214931 188 160 177
1.334137 -6.850813 61.214931 180 150 168
1.334137 -6.718855 61.214931 182 150 168
1.331392 -6.573343 61.088974 200 166 182
1.331392 -6.441656 61.088974 218 183 198
1.331392 -6.309968 61.088974 232 201 213
1.331392 -6.178281 61.088974 229 198 210
1.328658 -6.034178 60.963535 206 166 183
1.331392 -5.914907 61.088974 181 137 156
1.336894 -5.807117 61.341408 175 134 153
1.339662 -5.686635 61.468410 185 149 166
1.339662 -5.554130 61.468410 188 158 174
1.348035 -5.455510 61.852589 174 148 164
1.353675 -5.344445 62.111385 151 130 147
1.353675 -5.210554 62.111385 144 128 145
1.356513 -5.087305 62.241596 162 150 165
1.359363 -4.963539 62.372356 186 177 190
1.362224 -4.839252 62.503666 204 198 208
1.362224 -4.704515 62.503666 228 224 230
1.362224 -4.569778 62.503666 248 247 249
1.353675 -4.407206 62.111385 254 254 254
1.348035 -4.255509 61.852589 254 254 254
1.348035 -4.122176 61.852589 255 255 255
1.342441 -3.972291 61.595940 254 254 254
1.339662 -3.831562 61.468410 254 254 254
1.339662 -3.699057 61.468410 254 254 254
1.339662 -2.639016 61.468410 202 167 185
1.339662 -2.506510 61.468410 196 154 172
1.339662 -2.374005 61.468410 202 155 170
1.342441 -2.246150 61.595940 188 137 147
1.348035 -2.122176 61.852589 176 123 128
1.342441 -1.980590 61.595940 191 138 138
1.345232 -1.851652 61.723995 204 151 148
1.348035 -1.722176 61.852589 197 144 141
1.334137 -1.572463 61.214931 191 137 136
1.331392 -1.437540 61.088974 189 135 136
1.339662 -1.313964 61.468410 184 128 134
1.334137 -1.176587 61.214931 178 121 130
1.336894 -1.046786 61.341408 173 115 128
1.397531 2.361459 64.123634 149 91 104
1.379652 2.467709 63.303288 149 91 103
1.379652 2.604169 63.303288 149 91 104
1.379652 2.740630 63.303288 148 90 105
1.382600 2.883238 63.438553 148 90 106
1.388534 3.032952 63.710819 148 91 107
1.388534 3.170291 63.710819 148 91 108
1.385560 3.300547 63.574394 147 92 108
1.391520 3.452377 63.847832 147 92 108
1.397531 3.605519 64.123634 146 93 109
1.394519 3.735680 63.985435 147 93 109
1.403594 3.898819 64.401825 147 93 110
1.418984 4.081920 65.107986 146 92 110
1.409709 4.194674 64.682442 145 91 110
1.422102 4.372210 65.251083 143 91 108
1.437904 4.563012 65.976097 143 90 107
1.447554 4.736813 66.418884 143 90 106
1.447554 4.879990 66.418884 143 90 105
1.441106 5.000792 66.123032 143 89 104
1.431541 5.109193 65.684166 142 89 103
1.422102 5.216166 65.251083 141 89 102
1.428381 5.521756 65.539169 137 86 101
1.428381 5.663036 65.539169 135 85 101
1.469125 -7.658357 61.341408 233 208 217
1.469125 -7.526125 61.341408 229 210 220
1.469125 -7.393894 61.341408 197 174 189
1.469125 -7.261662 61.341408 171 144 164
1.463079 -7.100091 61.088974 186 159 182
1.466096 -6.982772 61.214931 202 175 200
1.466096 -6.850813 61.214931 191 162 188
1.463079 -6.705030 61.088974 184 154 179
1.463079 -6.573343 61.088974 197 166 189
1.463079 -6.441656 61.088974 218 188 207
1.460075 -6.297011 60.963535 237 212 226
1.463079 -6.178281 61.088974 238 210 223
1.460075 -6.034178 60.963535 217 177 194
1.463079 -5.914907 61.088974 193 147 165
1.469125 -5.807117 61.341408 185 139 156
1.472167 -5.686635 61.468410 183 140 155
1.475221 -5.565652 61.595940 181 143 156
1.484461 -5.466899 61.981716 181 150 162
1.493816 -5.366900 62.372356 171 147 160
1.496961 -5.243462 62.503666 147 126 141
1.496961 -5.108726 62.503666 137 119 136
1.496961 -4.973989 62.503666 146 131 148
1.500119 -4.849461 62.635532 161 148 164
1.496961 -4.704515 62.503666 196 186 198
1.496961 -4.569778 62.503666 236 230 236
1.490685 -4.416446 62.241596 251 249 251
1.484461 -4.264394 61.981716 249 247 248
1.484461 -4.130782 61.981716 247 244 246
1.472167 -3.964067 61.468410 250 248 250
1.472167 -3.831562 61.468410 254 253 254
1.469125 -3.691414 61.341408 254 254 254
1.469125 -2.633563 61.341408 211 179 190
1.472167 -2.506510 61.468410 195 151 162
1.472167 -2.374005 61.468410 197 147 157
1.475221 -2.246150 61.595940 189 137 144
1.484461 -2.126606 61.981716 176 122 126
1.478288 -1.984708 61.723995 188 133 134
1.481368 -1.855509 61.852589 200 144 144
1.484461 -1.725771 61.981716 192 137 137
1.469125 -1.575712 61.341408 187 131 133
1.469125 -1.443480 61.341408 186 129 133
1.481368 -1.322176 61.852589 179 122 129
1.478288 -1.186371 61.723995 174 116 126
1.478288 -1.053315 61.723995 172 113 126
1.466096 0.406918 61.214931 164 110 130
1.512887 1.509267 63.168602 149 94 110
1.516112 2.467709 63.303288 149 91 103
1.516112 2.604169 63.303288 149 90 104
1.512887 2.734799 63.168602 147 90 104
1.516112 2.877090 63.303288 146 90 104
1.519352 3.019990 63.438553 146 90 105
1.522605 3.163502 63.574394 146 91 107
1.519352 3.293495 63.438553 146 91 107
1.519352 3.430247 63.438553 146 91 108
1.525873 3.582308 63.710819 146 92 109
1.525873 3.719647 63.710819 147 92 109
1.542422 3.898819 64.401825 147 91 110
1.562762 4.090891 65.251083 146 91 110
1.552525 4.203833 64.823669 145 90 109
1.573134 4.401229 65.684166 144 90 108
1.590731 4.593637 66.418884 144 89 106
1.594297 4.747434 66.567810 144 90 105
1.590731 5.023167 66.418884 143 89 103
1.580126 5.131901 65.976097 142 89 102
1.569661 5.239195 65.539169 141 89 101
1.573134 5.533972 65.684166 138 87 101
1.604672 -7.409202 61.468410 184 161 181
1.604672 -7.276697 61.468410 187 163 188
1.598055 -7.114731 61.214931 209 185 214
1.598055 -6.982772 61.214931 225 201 230
1.598055 -6.850813 61.214931 219 194 222
1.594767 -6.705030 61.088974 210 182 212
1.594767 -6.573343 61.088974 218 192 217
1.594767 -6.441656 61.088974 235 214 231
1.591492 -6.297011 60.963535 241 222 235
1.594767 -6.178281 61.088974 226 196 212
1.591492 -6.034178 60.963535 204 161 179
1.591492 -5.902761 60.963535 199 152 168
1.598055 -5.795143 61.214931 204 156 171
1.601357 -5.674885 61.341408 198 152 164
1.601357 -5.542654 61.341408 192 151 160
1.614701 -5.455510 61.852589 203 174 180
1.628270 -5.366900 62.372356 210 187 194
1.635141 -5.254524 62.635532 181 157 168
1.631698 -5.108726 62.503666 151 127 142
1.631698 -4.973989 62.503666 144 122 140
1.635141 -4.849461 62.635532 145 125 145
1.631698 -4.704515 62.503666 170 153 170
1.631698 -4.569778 62.503666 216 203 216
1.628270 -4.425724 62.372356 239 230 239
1.621457 -4.273315 62.111385 224 214 224
1.621457 -4.139424 62.111385 213 201 213
1.608001 -3.972291 61.595940 229 218 227
1.604672 -3.831562 61.468410 246 239 244
1.601357 -3.691414 61.341408 252 249 251
1.594767 -3.544536 61.088974 254 253 254
1.598055 -3.024009 61.214931 237 227 227
1.598055 -2.892051 61.214931 247 240 240
1.598055 -2.760092 61.214931 246 237 238
1.601357 -2.633563 61.341408 230 205 209
1.604672 -2.506510 61.468410 217 177 181
1.604672 -2.374005 61.468410 214 166 171
1.608001 -2.246150 61.595940 195 144 148
1.618072 -2.126606 61.981716 172 118 122
1.611344 -1.984708 61.723995 176 121 125
1.618072 -1.859383 61.981716 188 131 135
1.618072 -1.725771 61.981716 186 129 134
1.604672 -1.578974 61.468410 184 126 133
1.608001 -1.449470 61.595940 182 124 132
1.618072 -1.324936 61.981716 177 119 129
1.614701 -1.188843 61.852589 172 114 126
1.621457 -1.059926 62.111385 170 112 125
1.614701 -0.922176 61.852589 169 110 124
1.611344 -0.787203 61.723995 167 109 124
1.598055 0.274960 61.214931 157 105 126
1.594767 0.406081 61.088974 169 116 138
1.656104 1.515717 63.438553 150 95 110
1.677612 2.366570 64.262428 149 92 102
1.649057 2.462458 63.168602 149 91 103
1.645555 2.593112 63.034485 148 91 104
1.642069 2.723211 62.900936 146 90 104
1.645555 2.864874 63.034485 145 90 104
1.645555 3.000755 63.034485 144 90 105
1.656104 3.156743 63.438553 144 90 106
1.652573 3.286472 63.303288 144 90 106
1.652573 3.422933 63.303288 144 90 107
1.659650 3.574637 63.574394 146 90 108
1.663212 3.719647 63.710819 146 90 108
1.681251 3.898819 64.401825 146 90 109
1.707173 4.099902 65.394806 146 90 108
1.695966 4.213032 64.965523 146 89 107
1.714727 4.401229 65.684166 145 89 106
1.737795 4.603936 66.567810 145 89 105
1.733907 4.736813 66.418884 144 89 104
1.730037 4.869097 66.270630 144 90 104
1.733907 5.023167 66.418884 143 89 104
1.722348 5.131901 65.976097 143 89 103
1.710942 5.239195 65.539169 141 89 102
1.737177 -7.276697 61.468410 192 164 195
1.730014 -7.114731 61.214931 214 186 220
1.733588 -6.997200 61.341408 228 202 235
1.733588 -6.864968 61.341408 231 206 237
1.726454 -6.705030 61.088974 229 201 233
1.726454 -6.573343 61.088974 236 211 236
1.726454 -6.441656 61.088974 247 231 245
1.726454 -6.309968 61.088974 240 222 234
1.726454 -6.178281 61.088974 206 173 190
1.726454 -6.046594 61.088974 181 138 155
1.726454 -5.914907 61.088974 191 146 160
1.730014 -5.795143 61.214931 207 161 172
1.733588 -5.674885 61.341408 206 163 171
1.733588 -5.542654 61.341408 205 169 175
1.748035 -5.455510 61.852589 220 197 200
1.766435 -5.378199 62.503666 230 211 215
1.770162 -5.254524 62.635532 205 181 189
1.766435 -5.108726 62.503666 176 150 163
1.770162 -4.984482 62.635532 168 143 160
1.770162 -4.849461 62.635532 161 138 158
1.766435 -4.704515 62.503666 169 147 169
1.766435 -4.569778 62.503666 204 186 204
1.762724 -4.425724 62.372356 217 201 218
1.762724 -4.291270 62.372356 186 166 187
1.762724 -4.156816 62.372356 170 147 171
1.748035 -3.988843 61.852589 199 175 198
1.740781 -3.839511 61.595940 228 206 224
1.737177 -3.699057 61.468410 241 228 238
1.730014 -3.551844 61.214931 250 245 250
1.730014 -3.419886 61.214931 254 251 253
1.722909 -3.274424 60.963535 253 247 249
1.726454 -3.149474 61.088974 251 246 246
1.730014 -3.024009 61.214931 252 249 247
1.730014 -2.892051 61.214931 254 250 247
1.730014 -2.760092 61.214931 253 247 243
1.733588 -2.633563 61.341408 246 231 228
1.733588 -2.501332 61.341408 237 206 205
1.737177 -2.374005 61.468410 225 182 182
1.740781 -2.246150 61.595940 198 148 151
1.755349 -2.131056 62.111385 174 121 125
1.748035 -1.988843 61.852589 173 118 125
1.755349 -1.863273 62.111385 182 125 133
1.755349 -1.729382 62.111385 182 125 135
1.740781 -1.582250 61.595940 180 122 134
1.744401 -1.452483 61.723995 177 119 131
1.759029 -1.330492 62.241596 173 115 128
1.751684 -1.191325 61.981716 170 113 125
1.762724 -1.064379 62.372356 168 110 123
1.759029 -0.927976 62.241596 167 108 122
1.748035 -0.788843 61.852589 166 107 122
1.726454 -0.647417 61.088974 166 107 122
1.792856 1.515717 63.438553 152 96 109
1.796695 1.656007 63.574394 151 95 108
1.832001 1.828287 64.823669 151 95 106
1.832001 1.968025 64.823669 152 94 105
1.828010 2.103171 64.682442 152 93 104
1.836010 2.252419 64.965523 151 93 103
1.808312 2.356369 63.985435 150 92 103
1.777662 2.452024 62.900936 149 92 103
1.773904 2.582147 62.767956 148 92 104
1.766435 2.706012 62.503666 146 92 105
1.773904 2.852760 62.767956 145 91 105
1.796695 3.163502 63.574394 142 90 106
1.792856 3.293495 63.438553 142 89 106
1.789033 3.422933 63.303288 143 89 106
1.796695 3.574637 63.574394 144 89 107
1.792856 3.703751 63.438553 146 89 107
1.816140 3.890380 64.262428 146 90 106
1.848142 4.099902 65.394806 146 90 106
1.840037 4.222271 65.107986 146 90 105
1.848142 4.381840 65.394806 145 90 104
1.864570 4.563012 65.976097 144 90 103
1.864570 4.705235 65.976097 144 89 103
1.864570 4.847456 65.976097 143 90 103
1.877084 5.023167 66.418884 143 90 104
1.865819 -6.997200 61.341408 204 173 209
1.865819 -6.864968 61.341408 213 182 218
1.861972 -6.718855 61.214931 217 185 220
1.861972 -6.586896 61.214931 226 196 225
1.861972 -6.454937 61.214931 241 219 238
1.858141 -6.309968 61.088974 235 213 227
1.861972 -6.191020 61.214931 199 165 180
1.861972 -6.059061 61.214931 174 133 148
1.858141 -5.914907 61.088974 185 144 155
1.861972 -5.795143 61.214931 201 160 168
1.865819 -5.674885 61.341408 211 172 179
1.865819 -5.542654 61.341408 224 197 201
1.877457 -5.444168 61.723995 237 223 225
1.905183 -5.389545 62.635532 233 218 221
1.909211 -5.265633 62.767956 204 179 186
1.901172 -5.108726 62.503666 185 156 168
1.905183 -4.984482 62.635532 193 165 182
1.901172 -4.839252 62.503666 198 171 192
1.901172 -4.704515 62.503666 198 172 196
1.901172 -4.569778 62.503666 211 189 210
1.897178 -4.425724 62.372356 201 179 202
1.897178 -4.291270 62.372356 165 139 167
1.897178 -4.156816 62.372356 165 137 167
1.881368 -3.988843 61.852589 198 170 198
1.877457 -3.847494 61.723995 216 186 213
1.869682 -3.699057 61.468410 226 199 222
1.865819 -3.559183 61.341408 241 221 236
1.865819 -3.426951 61.341408 247 230 238
1.858141 -3.281162 61.088974 243 225 230
1.861972 -3.155968 61.214931 245 233 234
1.865819 -3.030257 61.341408 249 241 238
1.865819 -2.898026 61.341408 246 232 226
1.861972 -2.760092 61.214931 244 229 222
1.865819 -2.633563 61.341408 245 227 221
1.865819 -2.501332 61.341408 231 201 197
1.869682 -2.374005 61.468410 208 165 164
1.873562 -2.246150 61.595940 191 142 145
1.893201 -2.135523 62.241596 184 132 139
1.885296 -1.992995 61.981716 183 129 139
1.897178 -1.871102 62.372356 183 128 140
1.889240 -1.729382 62.111385 181 125 139
1.881368 -1.588843 61.852589 177 121 136
1.885296 -1.458548 61.981716 173 116 132
1.897178 -1.333287 62.372356 170 113 128
1.893201 -1.196320 62.241596 167 110 125
1.901172 -1.066620 62.503666 166 108 121
1.901172 -0.931883 62.503666 165 106 120
1.885296 -0.790490 61.981716 165 106 119
1.858141 -0.647417 61.088974 165 106 120
1.905183 1.631552 62.635532 151 95 107
1.913256 1.774058 62.900936 152 95 106
1.950446 1.946772 64.123634 152 95 106
1.950446 2.085001 64.123634 152 94 105
1.958908 2.232875 64.401825 151 93 105
1.929608 2.336230 63.438553 150 93 105
1.905183 2.441678 62.635532 149 93 105
1.901172 2.571275 62.503666 148 93 106
1.889240 2.689028 62.111385 147 93 106
1.893201 2.828837 62.241596 145 93 106
1.971739 3.225667 64.823669 141 90 107
1.937890 3.307630 63.710819 141 89 106
1.929608 3.430247 63.438553 142 89 105
1.933740 3.574637 63.574394 144 89 105
1.917318 3.680160 63.034485 145 90 105
1.954668 3.890380 64.262428 146 90 104
1.984740 4.090891 65.251083 146 91 103
1.980387 4.222271 65.107986 146 91 102
1.980387 4.362622 65.107986 145 91 101
1.989112 4.522810 65.394806 143 90 101
1.989112 4.663779 65.394806 142 90 101
1.993931 -6.718855 61.214931 196 157 193
1.998051 -6.600505 61.341408 206 169 200
1.993931 -6.454937 61.214931 221 190 213
1.993931 -6.322978 61.214931 223 194 211
1.993931 -6.191020 61.214931 204 168 184
1.993931 -6.059061 61.214931 186 147 161
1.993931 -5.927102 61.214931 186 149 160
1.993931 -5.795143 61.214931 194 157 167
1.998051 -5.674885 61.341408 208 173 181
1.998051 -5.542654 61.341408 228 204 210
2.010513 -5.444168 61.723995 244 231 235
2.044517 -5.400940 62.767956 239 225 229
2.044517 -5.265633 62.767956 210 186 194
2.035909 -5.108726 62.503666 192 164 175
2.040204 -4.984482 62.635532 209 182 197
2.035909 -4.839252 62.503666 226 200 219
2.035909 -4.704515 62.503666 227 201 222
2.031632 -4.560178 62.372356 222 198 219
2.031632 -4.425724 62.372356 197 173 197
2.031632 -4.291270 62.372356 170 141 171
2.027372 -4.148102 62.241596 189 163 190
2.018907 -3.997170 61.981716 223 203 224
2.010513 -3.847494 61.723995 226 201 224
2.006342 -3.706731 61.595940 216 182 209
2.002188 -3.566552 61.468410 222 184 210
2.002188 -3.434047 61.468410 228 189 207
1.993931 -3.287927 61.214931 221 184 196
2.002188 -3.169036 61.468410 228 203 207
2.002188 -3.036531 61.468410 232 211 208
1.998051 -2.898026 61.341408 213 183 176
1.998051 -2.765795 61.341408 210 177 168
1.998051 -2.633563 61.341408 222 190 182
2.002188 -2.506510 61.468410 211 173 167
2.006342 -2.378931 61.595940 185 141 139
2.010513 -2.250820 61.723995 180 133 136
2.031632 -2.140009 62.372356 188 138 145
2.018907 -1.992995 61.981716 188 137 148
2.031632 -1.871102 62.372356 183 130 144
2.023131 -1.729382 62.111385 179 124 141
2.018907 -1.592160 61.981716 176 121 138
2.023131 -1.461599 62.111385 172 116 134
2.035909 -1.336094 62.503666 168 112 129
2.031632 -1.198833 62.372356 166 109 125
2.040204 -1.068870 62.635532 165 107 122
2.035909 -0.931883 62.503666 164 105 118
2.023131 -0.792143 62.111385 165 106 119
1.998051 -0.650092 61.341408 168 109 122
1.998051 -0.121166 61.341408 161 103 122
1.993931 0.011042 61.214931 160 101 122
1.998051 0.143296 61.341408 159 100 122
1.989828 0.406081 61.088974 161 99 121
1.993931 0.670836 61.214931 159 95 113
2.006342 0.807791 61.595940 160 95 112
2.010513 0.942527 61.723995 161 98 113
2.014701 1.077824 61.852589 159 96 111
2.023131 1.350116 62.111385 154 94 108
2.031632 1.490243 62.372356 153 95 108
2.023131 1.617898 62.111385 151 95 107
2.027372 1.755462 62.241596 151 95 107
2.044517 1.905614 62.767956 151 95 107
2.079692 2.213668 63.847832 151 93 106
2.057567 2.326288 63.168602 150 93 106
2.031632 2.431419 62.372356 148 93 107
2.040204 2.576699 62.635532 147 94 108
2.031632 2.700327 62.372356 147 94 108
2.035909 2.840748 62.503666 146 94 108
2.106877 3.218639 64.682442 142 91 107
2.070785 3.300547 63.574394 142 90 106
2.061954 3.422933 63.303288 143 90 106
2.061954 3.559393 63.303288 144 90 105
2.053199 3.680160 63.034485 146 91 105
2.079692 3.865281 63.847832 146 91 104
2.120738 4.081920 65.107986 146 92 102
2.116098 4.213032 64.965523 146 92 100
2.116098 4.353076 64.965523 144 92 99
2.125890 -6.454937 61.214931 195 156 179
2.125890 -6.322978 61.214931 199 162 180
2.130282 -6.203811 61.341408 205 167 183
2.125890 -6.059061 61.214931 207 169 183
2.125890 -5.927102 61.214931 196 161 173
2.125890 -5.795143 61.214931 187 152 164
2.130282 -5.674885 61.341408 192 159 170
2.125890 -5.531226 61.214931 210 181 191
2.143569 -5.444168 61.723995 228 206 215
2.184442 -5.412383 62.900936 234 215 225
2.179824 -5.265633 62.767956 223 200 210
2.170645 -5.108726 62.503666 216 189 201
2.170645 -4.973989 62.503666 230 208 219
2.175225 -4.849461 62.635532 243 224 236
2.170645 -4.704515 62.503666 241 219 235
2.166085 -4.560178 62.372356 225 200 219
2.166085 -4.425724 62.372356 194 165 189
2.166085 -4.291270 62.372356 179 147 176
2.161544 -4.148102 62.241596 207 182 206
2.152519 -3.997170 61.981716 241 227 241
2.148035 -3.855510 61.852589 240 226 238
2.143569 -3.714438 61.723995 216 185 208
2.134693 -3.566552 61.468410 204 158 188
2.139122 -3.441171 61.595940 210 158 185
2.130282 -3.294720 61.341408 214 166 184
2.139122 -3.175611 61.595940 222 183 192
2.143569 -3.049157 61.723995 207 171 173
2.134693 -2.904026 61.468410 171 128 125
2.134693 -2.771521 61.468410 169 124 119
2.134693 -2.639016 61.468410 197 153 147
2.134693 -2.506510 61.468410 201 156 152
2.143569 -2.383876 61.723995 180 135 134
2.143569 -2.250820 61.723995 172 125 128
2.166085 -2.140009 62.372356 179 130 138
2.152519 -1.992995 61.981716 182 132 143
2.166085 -1.871102 62.372356 180 128 142
2.152519 -1.725771 61.981716 178 124 141
2.148035 -1.588843 61.852589 176 121 139
2.157022 -1.461599 62.111385 172 116 134
2.166085 -1.333287 62.372356 168 111 128
2.166085 -1.198833 62.372356 166 109 125
2.175225 -1.068870 62.635532 166 107 122
2.170645 -0.931883 62.503666 166 107 120
2.157022 -0.792143 62.111385 168 109 122
2.134693 -0.651438 61.468410 171 112 125
2.152519 -0.523266 61.981716 170 111 124
2.143569 -0.388034 61.723995 164 107 121
2.130282 -0.253398 61.341408 162 104 121
2.139122 -0.121669 61.595940 160 101 121
2.134693 0.011088 61.468410 160 100 122
2.143569 0.144190 61.723995 160 100 122
2.139122 0.276671 61.595940 160 99 121
2.134693 0.408603 61.468410 160 96 117
2.139122 0.542231 61.595940 160 95 115
2.139122 0.675011 61.595940 160 94 111
2.152519 0.812851 61.981716 160 95 109
2.157022 0.948442 62.111385 159 95 108
2.161544 1.084603 62.241596 156 93 106
2.161544 1.218775 62.241596 153 91 105
2.166085 1.355789 62.372356 153 93 106
2.166085 1.490243 62.372356 152 94 106
2.157022 1.617898 62.111385 150 93 106
2.161544 1.755462 62.241596 149 93 106
2.175225 1.901594 62.635532 148 92 107
2.175225 2.036615 62.635532 148 92 106
2.212568 2.208917 63.710819 148 91 106
2.193738 2.326288 63.168602 148 92 106
2.179824 2.446840 62.767956 147 93 107
2.189080 2.593112 63.034485 147 94 108
2.179824 2.717453 62.767956 146 94 108
2.184442 2.858804 62.900936 146 94 108
2.207830 3.026457 63.574394 144 94 108
2.231724 3.197739 64.262428 143 92 107
2.207830 3.300547 63.574394 143 91 106
2.198415 3.422933 63.303288 144 91 106
2.198415 3.559393 63.303288 145 91 105
2.193738 3.687990 63.168602 146 92 104
2.212568 3.856986 63.710819 146 92 102
2.251215 4.064095 64.823669 146 92 100
2.257849 -6.059061 61.214931 225 191 202
2.257849 -5.927102 61.214931 217 186 197
2.262514 -5.807117 61.341408 192 159 173
2.267198 -5.686635 61.468410 181 147 162
2.257849 -5.531226 61.214931 189 156 170
2.271902 -5.432872 61.595940 201 171 185
2.315130 -5.400940 62.767956 212 183 197
2.310246 -5.254524 62.635532 219 189 203
2.300539 -5.097993 62.372356 230 200 212
2.305382 -4.973989 62.503666 244 224 233
2.300539 -4.829085 62.372356 251 242 247
2.300539 -4.694632 62.372356 246 234 242
2.295716 -4.550618 62.241596 220 197 213
2.300539 -4.425724 62.372356 186 153 176
2.300539 -4.291270 62.372356 182 147 174
2.295716 -4.148102 62.241596 215 187 210
2.290914 -4.005532 62.111385 243 225 240
2.281368 -3.855510 61.852589 241 223 237
2.276625 -3.714438 61.723995 221 190 213
2.271902 -3.573951 61.595940 210 162 193
2.276625 -3.448325 61.723995 218 165 194
2.271902 -3.308391 61.595940 231 183 204
2.281368 -3.188843 61.852589 229 185 199
2.281368 -3.055509 61.852589 193 146 155
2.271902 -2.910051 61.595940 154 104 108
2.271902 -2.777271 61.595940 161 112 113
2.276625 -2.649989 61.723995 196 149 149
2.271902 -2.511711 61.595940 209 161 161
2.281368 -2.388843 61.852589 188 140 141
2.281368 -2.255509 61.852589 170 121 125
2.300539 -2.140009 62.372356 171 122 129
2.295716 -2.001351 62.241596 175 124 136
2.300539 -1.871102 62.372356 175 123 138
