ply
format ascii 1.0
element vertex 1193
property float x
property float y
property float z
property uchar red
property uchar green
property uchar blue
end_header
-18.768517 -2.852350 73.853836 16 16 12
-19.052887 -2.733951 74.972832 16 16 12
-20.282106 1.218698 79.809792 19 15 15
-20.013113 1.372296 78.751305 20 15 15
-19.960167 1.537977 78.542969 20 15 15
-20.013113 1.711818 78.751305 20 15 15
-20.119848 1.891615 79.171310 20 15 15
-19.960167 2.045914 78.542969 20 15 15
-19.855114 2.203567 78.129585 20 15 16
-19.907503 2.378247 78.335732 20 16 16
-15.236137 -13.936139 60.466888 37 31 32
-15.236137 -13.805794 60.466888 36 30 31
-15.143610 -13.592398 60.099682 35 30 30
-15.021975 -13.354708 59.616951 36 29 30
-14.872651 -13.094721 59.024338 36 29 30
-15.052200 -12.995260 59.736904 36 30 30
-15.143610 -12.944625 60.099682 36 30 31
-14.991871 -12.686663 59.497478 37 30 32
-15.052200 -12.608943 59.736904 37 31 33
-15.082547 -12.505332 59.857342 38 31 34
-15.392887 -12.104207 61.088974 42 33 35
-9.327860 -7.095567 37.019005 42 34 34
-16.298351 -11.979618 64.682442 42 34 34
-16.698534 -5.702332 66.270630 28 23 23
-16.405577 -5.461940 65.107986 27 23 23
-16.262920 -5.275314 64.541832 26 23 23
-16.053526 -5.070053 63.710819 26 23 22
-18.380695 -3.446301 72.946541 18 16 13
-18.335646 -3.280992 72.767754 17 16 13
-18.380695 -3.131805 72.946541 17 16 13
-18.471464 -2.989246 73.306770 16 16 12
-18.563135 -2.845272 73.670578 16 16 12
-18.891272 -2.733951 74.972832 16 16 12
-19.035479 -2.591971 75.545143 17 16 12
-20.608660 1.072605 81.788544 19 16 15
-20.218765 1.225285 80.241196 20 16 16
-19.896126 1.375945 78.960747 21 16 16
-19.896126 1.546158 78.960747 21 16 16
-20.002522 1.725549 79.383003 21 15 16
-20.056149 1.901757 79.595825 21 15 15
-19.843351 2.051341 78.751305 21 15 15
-19.790855 2.215226 78.542969 21 15 16
-19.738636 2.378247 78.335732 21 16 17
-15.075089 -13.907814 60.343987 38 32 33
-15.105791 -13.805794 60.466888 37 32 32
-15.044510 -13.619968 60.221588 37 31 32
-14.923428 -13.381578 59.736904 37 31 32
-14.745414 -13.094721 59.024338 37 30 31
-15.075089 -13.127326 60.343987 37 30 31
-15.105791 -13.023716 60.466888 38 31 32
-14.983724 -12.789181 59.978268 38 31 33
-15.075089 -12.737082 60.343987 38 31 33
-15.105791 -12.632677 60.466888 39 31 35
-15.105791 -12.502331 60.466888 40 32 36
-15.324264 -12.154224 61.341408 42 33 35
-9.306077 -7.140081 37.251244 43 34 34
-9.156720 -6.946475 36.653385 42 34 35
-16.123791 -11.953575 64.541832 43 35 35
-16.019316 -5.932278 64.123634 32 26 26
-16.265226 -5.461940 65.107986 29 24 25
-16.088814 -5.263871 64.401825 28 24 24
-15.848169 -5.048386 63.438553 27 25 24
-18.046091 -3.724196 72.236603 25 23 22
-18.134336 -3.429449 72.589836 19 17 15
-18.134336 -3.272969 72.589836 18 16 13
-18.134336 -3.116490 72.589836 18 16 13
-18.223448 -2.974557 72.946541 17 16 12
-18.268333 -2.824248 73.126213 17 17 12
-18.635536 -2.720212 74.596085 18 17 13
-18.777071 -2.578847 75.162636 19 17 13
-20.432350 1.072605 81.788544 20 17 16
-20.045794 1.225285 80.241196 21 17 17
-19.778515 1.379615 79.171310 22 16 17
-19.725914 1.546158 78.960747 22 16 17
-19.831400 1.725549 79.383003 22 15 16
-19.884567 1.901757 79.595825 22 15 16
-19.725914 2.056797 78.960747 21 15 15
-19.621544 2.215226 78.542969 21 15 16
-19.569771 2.378247 78.335732 22 16 17
-19.569771 2.547112 78.335732 22 17 18
-14.914693 -13.879603 60.221588 39 32 33
-14.945006 -13.777733 60.343987 38 32 33
-14.884501 -13.592398 60.099682 37 32 33
-14.764947 -13.354708 59.616951 38 31 32
-14.589173 -13.068739 58.907227 38 31 32
-14.975445 -13.154062 60.466888 38 31 32
-15.006007 -13.050295 60.590290 39 32 33
-14.914693 -12.841063 60.221588 39 32 34
-15.006007 -12.789070 60.590290 40 32 35
-18.709780 -9.105966 75.545143 38 33 35
-15.881087 -5.932278 64.123634 33 28 28
-16.160315 -5.473944 65.251083 31 25 25
-15.949986 -5.263871 64.401825 30 26 25
-15.677917 -5.037621 63.303288 29 26 25
-17.846951 -3.870497 72.061264 30 28 27
-17.846951 -3.715157 72.061264 28 26 25
-17.934008 -3.577182 72.412788 24 22 21
-17.977856 -3.429449 72.589836 21 19 18
-17.934008 -3.264987 72.412788 19 18 16
-17.890373 -3.101325 72.236603 19 17 15
-17.977856 -2.960011 72.589836 19 16 14
-17.977856 -2.803532 72.589836 19 17 13
-18.200356 -2.679813 73.488220 19 17 14
-18.245518 -2.527654 73.670578 20 18 14
-20.256042 0.896296 81.788544 21 17 16
-19.926676 1.055164 80.458649 22 17 16
-19.712984 1.215430 79.595825 22 17 17
-19.503828 1.372296 78.751305 23 16 17
-19.555700 1.546158 78.960747 23 16 17
-19.660276 1.725549 79.383003 23 15 17
-19.660276 1.896672 79.383003 22 15 16
-19.555700 2.056797 78.960747 21 15 16
-19.503828 2.221102 78.751305 22 15 17
-19.452230 2.384538 78.542969 22 16 17
-19.452230 2.553850 78.542969 23 17 18
-19.452230 2.723163 78.542969 23 18 18
-14.636433 -13.740250 59.616951 39 33 34
-14.636433 -13.611736 59.616951 38 33 34
-14.725138 -13.564939 59.978268 38 32 33
-14.636433 -13.354708 59.616951 38 32 33
-15.776934 -12.040356 64.262428 44 36 38
-18.981623 -9.652720 77.315735 38 34 34
-18.641798 -9.316226 75.931564 39 34 35
-18.641798 -9.152544 75.931564 39 34 36
-16.090384 -6.204514 65.539169 37 30 30
-15.845529 -5.970966 64.541832 36 29 30
-16.054941 -5.486001 65.394806 32 27 26
-15.845529 -5.275314 64.541832 32 27 26
-15.574665 -5.048386 63.438553 31 28 26
-17.691610 -3.870497 72.061264 30 28 27
-17.691610 -3.715157 72.061264 30 27 27
-17.734655 -3.568478 72.236603 27 24 24
-17.777910 -3.421084 72.412788 23 21 20
-17.734655 -3.257043 72.236603 21 19 18
-17.691610 -3.093797 72.061264 21 18 16
-17.734655 -2.945607 72.236603 21 17 15
-17.777910 -2.796694 72.412788 20 17 14
-17.908951 -2.660060 72.946541 20 17 14
-17.953062 -2.508977 73.126213 21 18 15
-19.489153 0.698811 79.383003 20 18 17
-19.437181 1.038281 79.171310 22 17 17
-19.181431 1.361462 78.129585 23 17 17
-19.437181 1.891615 79.171310 22 16 16
-19.232040 2.884843 78.335732 25 19 18
-14.478845 -13.712714 59.497478 39 33 34
-14.537109 -13.639124 59.736904 39 33 34
-14.684844 -13.647652 60.343987 39 33 34
-14.625391 -13.462843 60.099682 38 32 33
-18.717470 -9.602706 76.915138 40 35 36
-18.430979 -9.292460 75.737862 40 34 36
-18.430979 -9.129195 75.737862 41 35 37
-16.091188 -6.544865 66.123032 40 32 32
-15.984388 -6.359833 65.684166 39 31 32
-15.984388 -6.218240 65.684166 39 31 32
-15.949102 -5.498112 65.539169 34 29 28
-15.706399 -5.275314 64.541832 33 29 26
-15.504170 -5.070053 63.710819 32 29 26
-17.536270 -4.025836 72.061264 31 27 27
-17.536270 -3.870497 72.061264 31 28 29
-17.536270 -3.715157 72.061264 31 28 29
-17.578938 -3.568478 72.236603 30 26 27
-17.621813 -3.421084 72.412788 27 24 23
-17.578938 -3.257043 72.236603 25 22 21
-17.536270 -3.093797 72.061264 24 20 19
-17.578938 -2.945607 72.236603 24 19 18
-17.578938 -2.789889 72.236603 23 18 16
-17.751703 -2.660060 72.946541 22 17 16
-17.751703 -2.502812 72.946541 23 17 16
-17.621813 -2.328401 72.412788 23 17 16
-19.632998 0.536292 80.677292 21 19 18
-19.215275 0.695094 78.960747 21 18 18
-19.013008 2.877251 78.129585 25 19 19
-18.913464 3.029726 77.720528 25 19 19
-14.408337 -13.767897 59.736904 39 32 33
-14.525240 -13.749786 60.221588 39 32 33
-14.644056 -13.731380 60.714195 39 32 33
-14.614170 -13.572744 60.590290 39 32 33
-15.913207 -13.356988 65.976097 48 35 42
-18.551666 -9.602706 76.915138 41 35 37
-18.314434 -9.316226 75.931564 42 36 38
-18.267714 -9.129195 75.737862 42 36 38
-17.992319 -8.830765 74.596085 43 36 39
-15.913207 -6.530321 65.976097 41 33 33
-15.773003 -6.331816 65.394806 40 32 33
-15.773003 -6.190847 65.394806 40 31 33
-15.499877 -5.252477 64.262428 34 30 28
-15.301161 -5.048386 63.438553 34 30 27
-17.255285 -4.305168 71.540344 29 27 27
-17.213806 -4.140973 71.368370 30 27 28
-17.380930 -4.025836 72.061264 32 28 29
-17.380930 -3.870497 72.061264 33 29 30
-17.380930 -3.715157 72.061264 34 30 31
-17.465715 -3.577182 72.412788 33 29 29
-17.465715 -3.421084 72.412788 31 27 27
-17.423220 -3.257043 72.236603 29 25 24
-17.380930 -3.093797 72.061264 27 22 21
-17.380930 -2.938457 72.061264 26 21 20
-17.423220 -2.789889 72.236603 25 20 18
-17.551332 -2.653541 72.767754 24 18 17
-17.594456 -2.502812 72.946541 24 18 16
-17.508419 -2.334094 72.589836 24 18 16
-17.465715 -2.172304 72.412788 24 18 17
-19.459085 0.536292 80.677292 22 19 19
-19.095848 0.696948 79.171310 22 19 19
-18.944294 2.553850 78.542969 24 18 19
-18.894310 2.715977 78.335732 25 19 19
-18.844587 2.877251 78.129585 25 19 19
-18.696980 3.021816 77.517601 26 20 20
-18.221230 3.107775 75.545143 25 19 19
-14.483558 -13.833968 60.590290 40 32 34
-14.602764 -13.816141 61.088974 40 32 34
-14.602764 -13.684454 61.088974 39 32 33
-14.972454 -13.625833 62.635532 43 35 35
-14.909545 -13.434127 62.372356 45 36 36
-15.666542 -13.127251 65.539169 49 36 42
-18.338354 -9.577893 76.716385 42 37 39
-18.104446 -9.292460 75.737862 43 37 39
-18.104446 -9.129195 75.737862 44 37 40
-17.921574 -8.875365 74.972832 44 37 41
-15.701202 -6.501426 65.684166 42 34 35
-17.523317 -6.623814 73.306770 40 32 33
-17.101068 -4.305168 71.540344 30 28 28
-17.059959 -4.140973 71.368370 31 29 29
-17.225590 -4.025836 72.061264 33 29 30
-17.267502 -3.879914 72.236603 34 30 31
-17.267502 -3.724196 72.236603 36 31 32
-17.309618 -3.577182 72.412788 36 31 32
-17.309618 -3.421084 72.412788 35 30 29
-17.267502 -3.257043 72.236603 33 28 27
-17.225590 -3.093797 72.061264 31 25 24
-17.267502 -2.945607 72.236603 29 23 22
-17.267502 -2.789889 72.236603 27 21 20
-17.394468 -2.653541 72.767754 25 19 18
-17.394468 -2.496678 72.767754 25 18 17
-17.351940 -2.334094 72.589836 25 18 17
-17.267502 -2.167018 72.236603 25 18 17
-17.351940 -2.021136 72.589836 25 18 17
-17.267502 -1.855583 72.236603 25 18 17
-18.774982 2.553850 78.542969 24 19 19
-18.725445 2.715977 78.335732 24 19 20
-18.627148 2.869699 77.924522 25 20 20
-18.578386 3.029726 77.720528 25 20 20
-18.150751 3.123671 75.931564 25 19 19
-14.621504 -13.959760 61.723995 41 32 34
-14.651965 -13.855510 61.852589 41 33 34
-14.995615 -13.907557 63.303288 42 34 34
-14.931939 -13.712621 63.034485 44 35 34
-15.059835 -13.144849 63.574394 49 35 38
-17.987068 -9.152544 75.931564 45 38 42
-15.663571 -6.544865 66.123032 43 36 37
-17.365292 -6.623814 73.306770 40 34 33
-16.946852 -4.305168 71.540344 32 28 29
-16.906115 -4.140973 71.368370 33 29 29
-17.070251 -4.025836 72.061264 34 30 30
-17.111784 -3.879914 72.236603 36 31 32
-17.153521 -3.733279 72.412788 38 32 33
-17.153521 -3.577182 72.412788 39 33 33
-17.153521 -3.421084 72.412788 38 32 32
-17.111784 -3.257043 72.236603 37 31 30
-17.070251 -3.093797 72.061264 35 29 28
-17.111784 -2.945607 72.236603 33 27 26
-17.153521 -2.796694 72.412788 30 24 23
-17.237606 -2.653541 72.767754 28 21 20
-17.237606 -2.496678 72.767754 27 20 19
-17.195461 -2.334094 72.589836 26 19 18
-17.111784 -2.167018 72.236603 26 19 18
-17.195461 -2.021136 72.589836 26 19 17
-17.111784 -1.855583 72.236603 25 19 17
-18.804661 1.896672 79.383003 24 19 18
-18.605671 2.384538 78.542969 24 19 19
-18.605671 2.553850 78.542969 24 19 19
-18.556580 2.715977 78.335732 24 20 20
-18.459169 2.869699 77.924522 25 20 20
-18.410847 3.029726 77.720528 25 20 20
-18.079546 3.139731 76.321960 25 20 19
-14.609944 -14.210995 62.241596 42 32 35
-14.640637 -14.106396 62.372356 42 32 35
-15.149877 -14.179662 64.541832 42 35 34
-14.986975 -13.889558 63.847832 43 36 35
-15.383981 -13.692372 65.539169 49 36 39
-15.182883 -13.373953 64.682442 50 36 39
-15.383981 -13.127251 65.539169 50 36 41
-17.164885 -6.607499 73.126213 41 35 35
-16.833197 -6.325228 71.713142 40 35 34
-12.929394 -4.502123 55.082081 39 33 32
-12.953426 -4.391532 55.184464 39 33 32
-12.810557 -4.225450 54.575813 38 32 31
-12.881596 -4.130581 54.878452 38 32 30
-16.997423 -3.889377 72.412788 37 32 33
-16.997423 -3.733279 72.412788 39 33 34
-17.038980 -3.585928 72.589836 41 35 35
-16.997423 -3.421084 72.412788 41 35 35
-16.956066 -3.257043 72.236603 41 34 33
-16.914911 -3.093797 72.061264 39 32 31
-16.914911 -2.938457 72.061264 36 30 29
-16.997423 -2.796694 72.412788 33 27 26
-17.080744 -2.653541 72.767754 31 24 23
-17.038980 -2.490573 72.589836 29 22 22
-16.997423 -2.328401 72.412788 28 20 20
-16.956066 -2.167018 72.236603 27 20 19
-16.997423 -2.016206 72.412788 26 20 18
-16.914911 -1.851079 72.061264 25 19 18
-16.833197 -1.687547 71.713142 24 19 18
-18.683495 1.901757 79.595825 24 20 17
-18.633539 2.238918 79.383003 24 19 18
-18.485260 2.560625 78.751305 25 20 18
-18.436357 2.723163 78.542969 24 20 19
-18.291189 2.869699 77.924522 25 20 20
-18.291189 3.037678 77.924522 25 20 20
-17.961195 3.147823 76.518669 25 20 19
-14.640637 3.103688 62.372356 27 21 21
-15.076296 -14.241582 64.823669 43 35 36
-15.010746 -14.040531 64.541832 44 37 36
-15.378493 -13.956892 66.123032 48 38 40
-15.242701 -13.692372 65.539169 50 37 41
-15.142420 -13.461940 65.107986 51 37 41
-15.310296 -13.327372 65.829803 51 36 42
-15.276423 -13.156293 65.684166 51 36 42
-12.600262 -4.544972 54.177448 41 35 34
-12.554442 -4.412081 53.980442 41 34 33
-12.600262 -4.311395 54.177448 41 33 33
-12.577311 -4.186966 54.078766 41 33 32
-12.577311 -4.070391 54.078766 41 32 31
-12.600262 -3.961030 54.177448 40 32 30
-16.882502 -3.585928 72.589836 43 36 36
-16.882502 -3.429449 72.589836 44 37 36
-16.800348 -3.257043 72.236603 43 36 35
-16.718990 -3.086306 71.886787 42 35 33
-16.718990 -2.931343 71.886787 40 32 31
-16.800348 -2.789889 72.236603 37 30 29
-16.841326 -2.640596 72.412788 34 27 26
-16.841326 -2.484499 72.412788 32 25 24
-16.759571 -2.317098 72.061264 30 23 22
-16.718990 -2.156524 71.886787 29 21 20
-16.759571 -2.006419 72.061264 27 21 19
-16.678608 -1.842137 71.713142 26 20 19
-16.479578 -1.667409 70.857384 25 20 19
-16.598421 -1.525588 71.368370 25 20 19
-16.759571 -1.385060 72.061264 25 20 20
-16.440342 -1.053916 70.688675 26 20 22
-18.218847 2.884843 78.335732 24 20 19
-18.123211 3.037678 77.924522 24 20 19
-17.842232 3.155957 76.716385 24 20 19
-14.567391 3.116784 62.635532 27 21 22
-14.586233 -14.453400 63.303288 45 33 37
-14.936558 -14.381320 64.823669 43 35 37
-14.936558 -14.241582 64.823669 44 36 38
-14.936558 -14.101844 64.823669 44 37 38
-14.904016 -13.931687 64.682442 45 38 39
-15.101420 -13.833652 65.539169 49 40 42
-15.068157 -13.662212 65.394806 51 39 43
-15.002069 -13.461940 65.107986 52 38 44
-15.002069 -13.321589 65.107986 52 38 44
-15.134830 -13.297886 65.684166 52 37 44
-15.068157 -13.098336 65.394806 52 37 44
-12.393013 -4.512037 53.784859 41 36 36
-12.348273 -4.380225 53.590691 42 35 36
-12.370603 -4.272413 53.687599 43 35 35
-12.393013 -4.048269 53.784859 42 33 33
-16.767017 -3.594717 72.767754 44 37 38
-16.726023 -3.429449 72.589836 45 38 38
-16.644630 -3.257043 72.236603 45 38 38
-16.564028 -3.086306 71.886787 44 37 36
-16.524017 -2.924262 71.713142 43 35 34
-16.604231 -2.783118 72.061264 40 32 32
-16.685228 -2.640596 72.412788 37 30 29
-16.644630 -2.478454 72.236603 35 27 26
-16.564028 -2.311488 71.886787 32 25 24
-16.484201 -2.146132 71.540344 31 23 22
-16.484201 -1.991915 71.540344 29 22 21
-16.405140 -1.828884 71.197220 28 21 21
-16.287960 -1.663439 70.688675 27 21 21
-16.210766 -1.503897 70.353653 26 21 21
-16.444576 -1.371742 71.368370 26 21 21
-16.405140 -1.214975 71.197220 26 21 22
-16.249271 -1.051412 70.520767 27 21 22
-16.020945 -0.886755 69.529839 28 21 23
-16.685228 1.105745 72.412788 24 21 16
-15.101420 1.424626 65.539169 25 19 15
-17.955233 3.037678 77.924522 24 20 19
-17.585972 3.139731 76.321960 25 20 20
-14.493524 3.129990 62.900936 29 21 22
-14.542797 -14.546448 63.710819 46 33 37
-14.480648 -14.347531 63.438553 45 33 38
-14.700528 -14.426560 64.401825 44 34 37
-14.764583 -14.349988 64.682442 44 35 38
-14.764583 -14.210554 64.682442 44 36 38
-14.829198 -13.992658 64.965523 46 38 41
-14.861718 -13.882993 65.107986 48 40 43
-14.894381 -13.772845 65.251083 50 40 45
-14.927188 -13.662212 65.394806 52 40 46
-14.894381 -13.491527 65.251083 53 40 47
-14.861718 -13.321589 65.107986 53 39 47
-14.993237 -13.297886 65.684166 54 39 46
-15.026482 -13.185465 65.829803 54 38 45
-15.437228 -6.110807 67.629250 44 38 39
-12.254870 -4.619610 53.687599 42 37 37
-12.232750 -4.495748 53.590691 43 36 37
-12.188747 -4.364469 53.397919 43 36 37
-12.145060 -4.234130 53.206528 44 35 37
-12.188747 -4.134253 53.397919 44 35 36
-12.254870 -4.040948 53.687599 43 35 34
-16.691978 -3.927696 73.126213 39 34 36
-16.650967 -3.760797 72.946541 41 35 37
-16.650967 -3.603549 72.946541 44 37 39
-16.610155 -3.437854 72.767754 46 39 40
-16.529131 -3.264987 72.412788 47 39 40
-16.448893 -3.093797 72.061264 46 38 38
-16.369429 -2.924262 71.713142 45 37 36
-16.448893 -2.783118 72.061264 43 35 34
-16.529131 -2.640596 72.412788 41 33 32
-16.488913 -2.478454 72.236603 38 30 29
-16.409063 -2.311488 71.886787 35 27 26
-16.329985 -2.146132 71.540344 33 25 25
-16.290730 -1.987126 71.368370 32 24 23
-16.251663 -1.828884 71.197220 31 23 23
-16.135580 -1.663439 70.688675 29 22 22
-16.059107 -1.503897 70.353653 28 22 21
-16.290730 -1.371742 71.368370 28 22 21
-16.329985 -1.220830 71.540344 28 21 22
-16.135580 -1.053916 70.688675 28 21 22
-15.908318 -0.888837 69.693054 28 21 22
-16.569544 1.108449 72.589836 25 21 17
-17.740690 3.029726 77.720528 24 20 18
-17.421448 3.139731 76.321960 25 20 20
-17.376778 3.295783 76.126259 26 20 21
-17.556849 3.495739 76.915138 27 20 22
-14.498797 -14.640701 64.123634 47 34 38
-14.498797 -14.502472 64.123634 46 33 38
-14.561699 -14.426560 64.401825 45 34 38
-14.593355 -14.318792 64.541832 45 35 39
-14.530180 -14.118279 64.262428 45 36 39
-14.689154 -13.712570 64.965523 51 41 47
-14.721367 -13.602291 65.107986 52 41 49
-14.721367 -13.461940 65.107986 54 41 49
-13.372397 -10.316025 59.141918 55 42 44
-9.034917 -4.816480 39.958603 46 39 42
-16.254101 -7.735217 71.886787 47 39 42
-16.175768 -7.543722 71.540344 46 39 42
-15.983198 -7.301535 70.688675 45 39 43
-15.758083 -6.447522 69.693054 46 39 41
-15.291443 -6.110807 67.629250 45 38 40
-12.117227 -4.611272 53.590691 44 37 39
-12.117227 -4.495748 53.590691 44 37 38
-12.073639 -4.364469 53.397919 44 37 37
-12.051963 -4.241732 53.302052 44 36 37
-12.095393 -4.141702 53.494129 44 36 37
-12.117227 -4.033654 53.590691 44 36 35
-16.534344 -4.085331 73.126213 39 35 37
-16.575169 -3.937394 73.306770 41 36 38
-16.534344 -3.770061 73.126213 43 37 40
-16.534344 -3.612425 73.126213 46 39 41
-16.453293 -3.437854 72.767754 48 40 42
-16.373034 -3.264987 72.412788 49 41 42
-16.293552 -3.093797 72.061264 48 40 40
-16.254101 -2.931343 71.886787 47 39 39
-16.333195 -2.789889 72.236603 47 38 38
-16.373034 -2.640596 72.412788 44 36 35
-16.373034 -2.484499 72.412788 41 33 32
-16.293552 -2.317098 72.061264 39 30 29
-16.175768 -2.146132 71.540344 36 28 26
-16.098185 -1.982361 71.197220 34 26 25
-16.059673 -1.824508 71.026894 33 24 24
-15.945233 -1.659488 70.520767 31 23 23
-15.907449 -1.503897 70.353653 30 23 21
-16.098185 -1.368452 71.197220 29 22 21
-16.175768 -1.220830 71.540344 29 22 21
-16.021345 -1.056431 70.857384 28 22 21
-15.795161 -0.890928 69.857040 28 21 21
-14.786219 1.421488 65.394806 26 19 16
-17.573151 3.029726 77.720528 24 20 18
-17.391045 3.164133 76.915138 25 20 19
-17.301401 3.312772 76.518669 27 20 20
-17.391045 3.495739 76.915138 28 21 22
-17.346107 3.652081 76.716385 30 21 22
-14.360569 -14.640701 64.123634 48 34 38
-14.360569 -14.502472 64.123634 47 34 38
-14.329619 -14.333285 63.985435 47 35 38
-14.298803 -14.164827 63.847832 47 35 39
-14.176851 -13.907557 63.303288 47 36 40
-13.088471 -10.446151 58.443390 55 44 46
-13.192348 -10.275088 58.907227 56 44 45
-13.140204 -10.107993 58.674393 55 43 45
-13.218575 -10.041043 59.024338 54 42 45
-13.166224 -9.874543 58.790577 52 41 44
-13.088471 -9.690245 58.443390 52 40 44
-9.070864 -4.969501 40.503742 47 40 43
-16.256586 -7.967346 72.589836 48 39 43
-16.099136 -7.735217 71.886787 47 39 43
-15.983037 -7.525588 71.368370 46 39 43
-15.830817 -7.301535 70.688675 46 39 43
-15.755790 -7.115272 70.353653 46 39 44
-15.571296 -6.432423 69.529839 46 39 43
-15.180236 -6.124759 67.783661 46 39 42
-12.001703 -4.611272 53.590691 45 38 40
-12.001703 -4.495748 53.590691 45 37 39
-11.980078 -4.372333 53.494129 45 37 38
-12.001703 -4.264701 53.590691 45 38 38
-12.023406 -4.156681 53.687599 45 38 38
-12.001703 -4.033654 53.590691 45 38 37
-16.539660 -4.444389 73.853836 41 36 37
-16.376707 -4.242967 73.126213 41 36 38
-16.376707 -4.085331 73.126213 42 37 40
-16.417145 -3.937394 73.306770 43 38 41
-16.417145 -3.779369 73.306770 46 39 43
-16.376707 -3.612425 73.126213 48 40 44
-16.336470 -3.446301 72.946541 49 41 45
-16.256586 -3.272969 72.589836 50 42 44
-16.177477 -3.101325 72.236603 50 42 44
-16.138212 -2.938457 72.061264 50 42 43
-16.216934 -2.796694 72.412788 50 41 41
-16.256586 -2.647053 72.589836 48 39 38
-16.216934 -2.484499 72.412788 45 36 35
-16.138212 -2.317098 72.061264 43 34 33
-16.060249 -2.151315 71.713142 40 31 30
-15.944708 -1.982361 71.197220 37 29 28
-15.906563 -1.824508 71.026894 35 26 26
-15.830817 -1.663439 70.688675 33 25 24
-15.755790 -1.503897 70.353653 31 24 22
-15.906563 -1.365178 71.026894 30 23 21
-15.983037 -1.217896 71.368370 30 22 21
-15.868600 -1.056431 70.857384 29 22 21
-15.718542 -0.895141 70.187332 29 22 21
-14.677579 1.424626 65.539169 28 20 16
-14.454225 1.542077 64.541832 27 20 16
-17.405611 3.029726 77.720528 25 19 18
-17.269983 3.172352 77.114914 26 20 18
-17.180733 3.321332 76.716385 28 20 20
-17.225243 3.495739 76.915138 29 21 21
-17.269983 3.671053 77.114914 31 22 22
-17.405611 3.867423 77.720528 32 22 22
-17.497219 4.056199 78.129585 32 22 22
-14.040391 -14.316939 63.303288 50 35 39
-14.040391 -14.180479 63.303288 49 35 39
-14.040391 -14.044018 63.303288 49 36 39
-13.921657 -13.789947 62.767956 49 36 40
-14.222340 -13.534869 64.123634 53 41 48
-14.191689 -13.367768 63.985435 55 42 50
-14.161168 -13.201386 63.847832 56 42 52
-14.040391 -12.952333 63.303288 57 42 52
-13.013722 -10.613922 58.674393 57 45 48
-12.988054 -10.466755 58.558662 57 45 48
-12.988054 -10.340522 58.558662 57 45 48
-13.013722 -10.234475 58.674393 57 45 47
-12.988054 -10.088057 58.558662 56 44 46
-13.039492 -10.001276 58.790577 55 43 45
-12.988054 -9.835590 58.558662 53 41 45
-12.937020 -9.671207 58.328571 53 41 45
-12.937020 -9.545470 58.328571 52 41 45
-12.937020 -9.419734 58.328571 52 41 45
-16.021761 -7.928576 72.236603 49 39 44
-15.905661 -7.716533 71.713142 48 39 44
-15.829191 -7.525588 71.368370 47 39 44
-15.678436 -7.301535 70.688675 47 39 44
-15.641195 -7.132172 70.520767 47 39 45
-15.567242 -6.644550 70.187332 48 40 45
-15.493984 -6.462693 69.857040 48 40 44
-15.137801 -6.166999 68.251129 48 40 43
-11.886179 -4.495748 53.590691 46 38 40
-11.864763 -4.372333 53.494129 46 39 39
-11.907673 -4.272413 53.687599 46 39 39
-11.907673 -4.156681 53.687599 46 39 39
-11.886179 -4.033654 53.590691 46 39 38
-16.713055 -4.697067 75.353409 43 37 38
-16.339809 -4.433361 73.670578 42 38 39
-16.219072 -4.242967 73.126213 42 38 40
-16.219072 -4.085331 73.126213 43 39 42
-16.259119 -3.937394 73.306770 45 40 44
-16.259119 -3.779369 73.306770 47 41 46
-16.219072 -3.612425 73.126213 49 42 47
-16.179222 -3.446301 72.946541 51 44 48
-16.100105 -3.272969 72.589836 53 44 48
-16.060837 -3.108889 72.412788 53 44 47
-16.021761 -2.945607 72.236603 53 43 46
-16.100105 -2.803532 72.589836 53 43 44
-16.100105 -2.647053 72.589836 51 41 42
-16.060837 -2.484499 72.412788 49 39 39
-16.021761 -2.322736 72.236603 47 37 37
-15.867333 -2.146132 71.540344 44 35 34
-15.753453 -1.977618 71.026894 41 32 31
-15.753453 -1.824508 71.026894 38 29 27
-15.678436 -1.663439 70.688675 35 26 25
-15.678436 -1.511058 70.688675 33 25 23
-15.753453 -1.365178 71.026894 32 24 22
-15.791231 -1.214975 71.197220 31 22 21
-15.678436 -1.053916 70.688675 31 22 21
-15.641195 -0.899393 70.520767 29 22 20
-15.753453 -0.752738 71.026894 30 22 20
-14.600761 1.430943 65.829803 30 21 17
-14.346282 1.545437 64.682442 29 21 18
-19.142277 2.806266 86.305939 26 21 17
-17.238071 3.029726 77.720528 27 19 18
-17.103748 3.172352 77.114914 28 19 19
-16.971504 3.312772 76.518669 29 21 20
-17.059439 3.495739 76.915138 30 22 21
-17.148291 3.680613 77.315735 32 23 22
-17.238071 3.867423 77.720528 33 23 23
-17.283316 4.045552 77.924522 33 23 23
-17.283316 4.213531 77.924522 33 23 22
-17.193064 4.358631 77.517601 34 24 22
-13.874348 -14.286478 63.168602 51 37 41
-13.874348 -14.150308 63.168602 51 37 40
-13.844891 -13.984384 63.034485 51 37 39
-13.757264 -13.760854 62.635532 51 37 39
-14.023534 -13.614289 63.847832 53 40 44
-13.963476 -13.418939 63.574394 54 41 47
-13.963476 -13.281894 63.574394 56 42 50
-13.963476 -13.144849 63.574394 57 43 52
-13.903931 -12.952333 63.303288 58 43 52
-13.903931 -12.270031 63.303288 57 43 47
-13.670741 -11.930073 62.241596 57 43 48
-12.887239 -10.487440 58.674393 59 46 50
-12.887239 -10.360957 58.674393 59 46 50
-12.887239 -10.234475 58.674393 58 46 49
-12.861821 -10.088057 58.558662 57 45 48
-12.912759 -10.001276 58.790577 56 44 47
-12.861821 -9.835590 58.558662 55 43 46
-12.811284 -9.671207 58.328571 54 42 46
-12.836503 -9.564260 58.443390 53 42 46
-12.811284 -9.419734 58.328571 53 41 46
-15.904740 -7.947914 72.412788 50 40 45
-15.827533 -7.753992 72.061264 49 40 45
-15.713117 -7.543722 71.540344 48 40 45
-15.563110 -7.318961 70.857384 48 39 45
-15.526055 -7.149154 70.688675 47 39 45
-15.489177 -6.828134 70.520767 48 40 46
-15.415942 -6.644550 70.187332 48 40 46
-15.343396 -6.462693 69.857040 48 40 45
-15.025215 -6.181209 68.408394 48 40 45
-11.770656 -4.495748 53.590691 46 38 41
-11.749448 -4.372333 53.494129 46 39 39
-11.791941 -4.156681 53.687599 47 39 39
-11.791941 -4.040948 53.687599 47 39 39
-9.328960 -2.922238 42.473881 46 37 38
-16.261703 -4.455472 74.038010 44 39 40
-16.061438 -4.242967 73.126213 44 40 41
-16.101095 -4.095418 73.306770 44 40 43
-16.140949 -3.947140 73.488220 46 42 45
-16.101095 -3.779369 73.306770 48 43 47
-16.061438 -3.612425 73.126213 50 44 48
-16.061438 -3.454789 73.126213 53 46 50
-15.982704 -3.280992 72.767754 55 46 51
-15.943626 -3.116490 72.589836 56 46 50
-15.904740 -2.952791 72.412788 56 45 49
-15.982704 -2.810403 72.767754 56 44 47
-15.943626 -2.647053 72.589836 55 43 45
-15.904740 -2.484499 72.412788 53 42 43
-15.827533 -2.317098 72.061264 51 41 41
-15.675344 -2.140972 71.368370 48 39 37
-15.563110 -1.972899 70.857384 45 34 33
-15.563110 -1.820154 70.857384 41 31 29
-15.526055 -1.663439 70.688675 38 28 26
-15.526055 -1.511058 70.688675 35 26 24
-15.637753 -1.368452 71.197220 33 24 22
-15.637753 -1.214975 71.197220 32 23 22
-15.563110 -1.056431 70.857384 31 23 21
-15.563110 -0.903686 70.857384 29 22 20
-15.637753 -0.754543 71.197220 30 23 21
-15.713117 -0.603963 71.540344 30 22 21
-18.846657 2.790045 85.807060 28 21 19
-17.115337 3.037678 77.924522 29 20 19
-16.981623 3.180613 77.315735 30 20 19
-16.893635 3.329937 76.915138 31 21 20
-16.981623 3.513947 77.315735 32 22 21
-17.025961 3.690223 77.517601 33 23 22
-17.115337 3.877573 77.924522 34 24 23
-17.115337 4.045552 77.924522 34 25 23
-17.070532 4.202501 77.720528 34 25 23
-17.025961 4.358631 77.517601 35 26 24
-13.738177 -14.286478 63.168602 52 38 42
-13.738177 -14.150308 63.168602 52 38 41
-13.709009 -13.984384 63.034485 53 38 40
-13.622243 -13.760854 62.635532 52 38 40
-13.856102 -13.585074 63.710819 53 40 44
-13.796887 -13.390266 63.438553 54 41 46
-13.826431 -13.281894 63.574394 56 42 49
-13.856102 -13.173057 63.710819 58 43 51
-13.796887 -12.980010 63.438553 58 43 52
-13.738177 -12.788606 63.168602 59 43 52
-13.767469 -12.679413 63.303288 59 44 51
-14.006385 -12.621789 64.401825 59 44 49
-13.767469 -12.270031 63.303288 59 44 48
-13.593565 -11.980305 62.503666 58 44 48
-13.313285 -11.601329 61.214931 58 44 48
-13.123869 -10.915944 60.343987 62 47 53
-12.913887 -10.613289 59.378483 62 47 52
-12.811396 -10.402073 58.907227 61 47 51
-12.811396 -10.275088 58.907227 60 46 51
-12.760757 -10.107993 58.674393 59 46 50
-12.786026 -10.001276 58.790577 58 45 49
-12.760757 -9.855029 58.674393 57 44 48
-12.710519 -9.690245 58.443390 56 43 47
-12.735588 -9.583125 58.558662 55 43 47
-12.710519 -9.438276 58.443390 54 42 47
-15.710324 -7.928576 72.236603 50 41 47
-15.634246 -7.735217 71.886787 50 41 47
-15.521499 -7.525588 71.368370 50 40 46
-15.373674 -7.301535 70.688675 49 39 46
-15.373674 -7.149154 70.688675 49 39 47
-15.373674 -6.844392 70.688675 49 40 47
-15.264642 -6.644550 70.187332 49 40 46
-15.192808 -6.462693 69.857040 49 40 46
-14.912109 -6.195484 68.566376 49 40 45
-9.237401 -2.922238 42.473881 48 38 39
-9.145812 -2.802613 42.052750 47 38 40
-16.471794 -4.721032 75.737862 46 38 41
-16.223476 -4.489057 74.596085 46 39 42
-15.943070 -4.253443 73.306770 45 40 43
-15.982533 -4.105556 73.488220 45 41 44
-16.022192 -3.956934 73.670578 47 43 46
-15.982533 -3.788724 73.488220 49 45 48
-15.943070 -3.621345 73.306770 52 46 50
-15.903801 -3.454789 73.126213 55 48 52
-15.864726 -3.289053 72.946541 57 48 53
-15.787148 -3.116490 72.589836 58 48 53
-15.787148 -2.960011 72.589836 58 47 52
-15.825842 -2.810403 72.767754 58 47 51
-15.787148 -2.647053 72.589836 57 46 49
-15.748642 -2.484499 72.412788 56 45 47
-15.672193 -2.317098 72.061264 55 43 44
-15.521499 -2.140972 71.368370 52 41 41
-15.373674 -1.968201 70.688675 48 37 36
-15.373674 -1.815820 70.688675 44 33 31
-15.373674 -1.663439 70.688675 41 30 28
-15.373674 -1.511058 70.688675 38 27 25
-15.484277 -1.368452 71.197220 35 25 23
-15.484277 -1.214975 71.197220 33 23 22
-15.410366 -1.056431 70.857384 32 23 21
-15.410366 -0.903686 70.857384 31 23 20
-15.484277 -0.754543 71.197220 31 23 20
-15.596481 -0.605422 71.713142 31 23 21
-16.858860 3.188918 77.517601 32 21 20
-16.771282 3.338586 77.114914 33 22 21
-16.858860 3.523121 77.517601 33 23 22
-16.902992 3.699883 77.720528 34 23 23
-16.947357 3.877573 77.924522 35 24 23
-16.947357 4.045552 77.924522 35 25 24
-16.902992 4.202501 77.720528 36 27 25
-16.858860 4.358631 77.517601 37 27 26
-13.602007 -14.150308 63.168602 53 39 42
-13.573128 -13.984384 63.034485 53 39 41
-13.487223 -13.760854 62.635532 53 38 41
-13.718762 -13.585074 63.710819 53 39 43
-13.631009 -13.361715 63.303288 54 40 44
-13.689386 -13.281894 63.574394 55 41 46
-13.777895 -13.229837 63.985435 56 42 48
-13.718762 -13.035718 63.710819 57 42 50
-13.660135 -12.843258 63.438553 58 43 51
-13.660135 -12.706506 63.438553 59 44 51
-13.631009 -12.542953 63.303288 59 45 51
-13.777895 -12.540182 63.985435 59 45 51
-13.602007 -12.243924 63.168602 59 45 50
-13.458828 -11.980305 62.503666 58 43 48
-13.263368 -11.673536 61.595940 58 44 47
-13.127193 -11.422268 60.963535 59 45 49
-13.100294 -11.005419 60.838612 63 47 54
-12.993788 -10.785863 60.343987 63 47 54
-12.760366 -10.464360 59.259964 62 47 53
-12.684411 -10.275088 58.907227 62 47 53
-12.659294 -10.128009 58.790577 61 47 52
-12.659294 -10.001276 58.790577 59 46 51
-12.634275 -9.855029 58.674393 59 45 50
-12.584535 -9.690245 58.443390 58 44 49
-12.609356 -9.583125 58.558662 57 44 48
-15.441893 -7.871122 71.713142 51 42 48
-15.441893 -7.716533 71.713142 51 42 47
-15.367652 -7.525588 71.368370 50 41 46
-15.294123 -7.336470 71.026894 50 40 46
-15.257622 -7.166216 70.857384 50 40 47
-15.185139 -6.980153 70.520767 50 40 48
-15.294123 -6.877140 71.026894 50 40 48
-15.149155 -6.660295 70.353653 49 40 48
-15.077697 -6.477935 70.021797 49 40 47
-14.867311 -6.238708 69.044746 49 40 46
-14.595761 -5.978641 67.783661 49 40 44
-9.158945 -2.926425 42.534733 50 39 41
-9.080886 -2.810575 42.172218 49 39 42
-16.267031 -4.709019 75.545143 47 39 43
-15.982358 -4.466611 74.223106 46 40 43
-15.785046 -4.253443 73.306770 46 41 44
-15.824118 -4.105556 73.488220 46 42 45
-15.824118 -3.947140 73.488220 48 44 47
-15.824118 -3.788724 73.488220 50 46 49
-15.785046 -3.621345 73.306770 53 48 51
-15.746166 -3.454789 73.126213 56 49 53
-15.707478 -3.289053 72.946541 58 50 55
-15.668979 -3.124129 72.767754 59 51 55
-15.630669 -2.960011 72.589836 59 50 55
-15.707478 -2.817308 72.946541 59 48 53
-15.630669 -2.647053 72.589836 58 47 51
-15.592545 -2.484499 72.412788 58 46 48
-15.516852 -2.317098 72.061264 57 44 46
-15.367652 -2.140972 71.368370 55 43 43
-15.185139 -1.963526 70.520767 52 40 40
-15.185139 -1.811507 70.520767 49 36 35
-15.221293 -1.663439 70.688675 46 33 31
-15.221293 -1.511058 70.688675 42 30 28
-15.294123 -1.365178 71.026894 38 27 25
-15.294123 -1.212068 71.026894 35 25 23
-15.221293 -1.053916 70.688675 33 24 21
-15.257622 -0.903686 70.857384 32 24 20
-15.294123 -0.752738 71.026894 32 24 20
-13.631009 1.785406 63.303288 34 22 22
-13.346437 1.881744 61.981716 35 22 22
-16.691757 3.188918 77.517601 34 22 21
-16.605047 3.338586 77.114914 34 23 22
-16.648291 3.513947 77.315735 35 23 23
-16.691757 3.690223 77.517601 35 23 23
-16.735455 3.867423 77.720528 35 24 24
-16.779379 4.045552 77.924522 36 26 25
-16.735455 4.202501 77.720528 38 28 27
-16.648291 4.347280 77.315735 39 29 28
-13.437247 -13.984384 63.034485 54 39 42
-13.352201 -13.760854 62.635532 54 39 41
-13.494549 -13.361715 63.303288 53 40 43
-13.552341 -13.281894 63.574394 54 40 45
-13.639964 -13.229837 63.985435 55 41 46
-13.610631 -13.063751 63.847832 56 42 49
-13.581424 -12.898378 63.710819 58 44 51
-13.523383 -12.706506 63.438553 58 45 52
-13.581424 -12.623701 63.710819 59 47 53
-13.639964 -12.540182 63.985435 59 47 53
-13.465837 -12.243924 63.168602 59 46 52
-13.352201 -12.005579 62.635532 57 44 49
-13.212826 -11.746648 61.981716 57 44 48
-13.130588 -11.540756 61.595940 60 44 50
-13.185299 -11.455509 61.852589 63 45 52
-13.049368 -11.205453 61.214931 64 46 54
-12.969146 -11.005419 60.838612 65 47 55
-12.916211 -10.829886 60.590290 64 47 55
-12.657887 -10.485289 59.378483 64 48 55
-12.532561 -10.254742 58.790577 63 48 55
-12.557427 -10.148105 58.907227 62 48 54
-12.532561 -10.001276 58.790577 61 47 53
-12.483123 -9.835590 58.558662 61 46 52
-15.324318 -7.890181 71.886787 51 43 48
-15.324318 -7.735217 71.886787 51 42 47
-15.287303 -7.561944 71.713142 51 41 46
-15.250466 -7.389505 71.540344 51 40 46
-15.250466 -7.235288 71.540344 51 40 47
-15.250466 -7.081071 71.540344 51 40 48
-15.213806 -6.910203 71.368370 51 40 49
-15.033119 -6.676116 70.520767 51 41 48
-14.926753 -6.477935 70.021797 51 41 47
-14.752782 -6.253251 69.205696 50 41 46
-9.080263 -2.930624 42.595757 50 40 43
-9.015589 -2.818582 42.292366 49 40 43
-15.901868 -4.649861 74.596085 47 40 44
-15.704574 -4.433361 73.670578 46 41 45
-15.588531 -4.242967 73.126213 46 42 46
-15.588531 -4.085331 73.126213 47 43 47
-15.627021 -3.937394 73.306770 49 45 49
-15.627021 -3.779369 73.306770 51 48 51
-15.588531 -3.612425 73.126213 54 50 53
-15.588531 -3.454789 73.126213 57 52 55
-15.550229 -3.289053 72.946541 59 53 56
-15.474189 -3.116490 72.589836 60 54 57
-15.474189 -2.960011 72.589836 61 52 56
-15.550229 -2.817308 72.946541 61 50 55
-15.474189 -2.647053 72.589836 60 48 52
-15.436447 -2.484499 72.412788 59 47 50
-15.361513 -2.317098 72.061264 58 45 47
-15.177322 -2.135838 71.197220 57 44 46
-15.033119 -1.963526 70.520767 55 42 44
-14.997496 -1.807214 70.353653 54 40 40
-15.068913 -1.663439 70.688675 50 37 36
-15.033119 -1.507469 70.520767 46 33 33
-15.104877 -1.361920 70.857384 42 29 29
-15.104877 -1.209175 70.857384 38 27 25
-15.033119 -1.051412 70.520767 36 26 23
-15.068913 -0.901535 70.688675 35 26 22
-15.104877 -0.750942 70.857384 35 25 22
-13.352201 1.631552 62.635532 35 22 22
-13.185299 1.877824 61.852589 37 24 23
-16.567915 3.364805 77.720528 37 24 24
-16.481623 3.513947 77.315735 37 25 25
-16.481623 3.680613 77.315735 36 24 25
-16.524656 3.857325 77.517601 36 24 25
-16.524656 4.024427 77.517601 38 27 27
-16.481623 4.180613 77.315735 40 29 29
-8.262328 2.513519 38.758801 44 30 29
-13.273185 -13.954756 62.900936 56 40 44
-13.161646 -13.703034 62.372356 55 40 43
-13.358088 -13.225255 63.303288 54 40 45
-13.415297 -13.144849 63.574394 55 41 46
-13.386631 -12.980010 63.438553 56 42 49
-13.386631 -12.843258 63.438553 57 44 51
-13.329667 -12.652435 63.168602 58 46 53
-13.415297 -12.596669 63.574394 59 48 53
-13.444084 -12.486362 63.710819 59 48 53
-13.329667 -12.243924 63.168602 58 47 53
-13.245123 -12.030961 62.767956 57 46 50
-13.134053 -11.795900 62.241596 57 44 49
-13.134053 -11.661729 62.241596 60 45 50
-13.134053 -11.527556 62.241596 63 45 53
-12.944098 -11.228604 61.341408 64 46 54
-12.864360 -11.028017 60.963535 65 47 55
-12.837998 -10.874271 60.838612 65 48 56
-12.656451 -10.591201 59.978268 65 48 56
-12.479967 -10.316025 59.141918 64 48 56
-12.455155 -10.168280 59.024338 64 48 56
-12.405828 -10.001276 58.790577 63 48 54
-13.922096 -8.663654 65.976097 53 45 53
-13.953103 -8.540411 66.123032 52 45 54
-15.206173 -7.753992 72.061264 51 42 48
-15.206173 -7.598652 72.061264 51 41 47
-15.169354 -7.425290 71.886787 52 41 47
-15.206173 -7.287972 72.061264 52 40 48
-15.169354 -7.115362 71.886787 52 40 48
-15.023845 -6.893632 71.197220 52 40 48
-14.845838 -6.660295 70.353653 51 41 48
-14.810740 -6.493249 70.187332 51 41 48
-14.671998 -6.282540 69.529839 51 42 47
-15.545765 -4.592170 73.670578 47 41 45
-15.468996 -4.411468 73.306770 46 41 45
-15.392982 -4.232542 72.946541 45 42 46
-15.392982 -4.075294 72.946541 47 43 48
-15.430895 -3.927696 73.126213 49 46 50
-15.430895 -3.770061 73.126213 52 49 52
-15.430895 -3.612425 73.126213 55 51 55
-15.392982 -3.446301 72.946541 58 54 57
-15.392982 -3.289053 72.946541 61 55 58
-15.317710 -3.116490 72.589836 62 55 58
-15.317710 -2.960011 72.589836 63 54 57
-15.355253 -2.810403 72.767754 63 52 56
-15.317710 -2.647053 72.589836 62 50 54
-15.280350 -2.484499 72.412788 61 48 52
-15.169354 -2.311488 71.886787 60 47 50
-15.023845 -2.135838 71.197220 59 45 49
-14.881101 -1.963526 70.520767 58 43 47
-14.845838 -1.807214 70.353653 57 41 44
-14.881101 -1.659488 70.520767 54 39 41
-14.916532 -1.511058 70.688675 50 36 37
-14.916532 -1.358678 70.688675 45 32 32
-14.916532 -1.206296 70.688675 41 28 28
-14.845838 -1.048921 70.353653 40 27 26
-14.916532 -0.901535 70.688675 39 27 25
-14.952132 -0.750942 70.857384 39 27 25
-15.132713 -0.605422 71.713142 40 27 25
-13.106576 1.617898 62.111385 38 23 23
-13.273185 1.774058 62.900936 38 24 23
-12.997808 1.870032 61.595940 39 25 24
-16.530193 3.391439 78.335732 38 26 26
-16.400375 3.532344 77.720528 39 26 27
-16.314957 3.680613 77.315735 38 26 27
-16.314957 3.847280 77.315735 38 26 27
-16.357555 4.024427 77.517601 40 29 29
-13.082159 -13.895875 62.635532 56 40 46
-12.972685 -13.645700 62.111385 56 40 45
-13.137592 -13.141196 62.900936 54 41 46
-13.193497 -13.060946 63.168602 55 41 46
-13.193497 -12.924775 63.168602 55 42 48
-13.193497 -12.788606 63.168602 56 44 50
-13.193497 -12.516265 63.168602 57 48 54
-13.249879 -12.433002 63.438553 58 49 54
-13.165484 -12.217929 63.034485 58 49 55
-13.109817 -12.030961 62.767956 58 48 53
-13.027192 -11.820682 62.372356 58 46 51
-13.054618 -11.710831 62.503666 60 46 51
-12.999881 -11.527556 62.241596 62 46 53
-12.838392 -11.251852 61.468410 63 46 53
-12.759143 -11.050709 61.088974 64 47 54
-12.706851 -10.874271 60.838612 65 48 55
-12.603543 -10.655782 60.343987 65 49 56
-12.451694 -10.398885 59.616951 65 49 56
-12.327919 -10.168280 59.024338 65 49 57
-13.779874 -8.805877 65.976097 54 45 53
-13.841392 -8.702332 66.270630 54 45 54
-13.903461 -8.597857 66.567810 53 45 55
-13.872356 -8.435447 66.418884 52 45 55
-15.087454 -7.772858 72.236603 52 43 48
-15.087454 -7.617140 72.236603 53 42 47
-15.087454 -7.461422 72.236603 53 41 47
-15.124252 -7.323523 72.412788 53 41 48
-15.050834 -7.132632 72.061264 53 40 48
-14.870368 -6.893632 71.197220 53 40 48
-14.729081 -6.676116 70.520767 52 41 48
-14.729081 -6.524096 70.520767 52 42 48
-15.348869 -4.580803 73.488220 46 42 46
-15.273259 -4.400602 73.126213 45 41 46
-15.235733 -4.232542 72.946541 45 42 46
-15.235733 -4.075294 72.946541 46 44 49
-15.273259 -3.927696 73.126213 49 47 51
-15.273259 -3.770061 73.126213 52 49 54
-15.273259 -3.612425 73.126213 55 53 57
-15.235733 -3.446301 72.946541 58 55 59
-15.235733 -3.289053 72.946541 61 57 60
-15.161231 -3.116490 72.589836 63 56 59
-15.198391 -2.967266 72.767754 64 55 58
-15.235733 -2.817308 72.946541 64 54 57
-15.198391 -2.653541 72.767754 63 52 55
-15.124252 -2.484499 72.412788 63 50 53
-15.050834 -2.317098 72.061264 62 48 52
-14.942032 -2.146132 71.540344 61 46 51
-14.764151 -1.968201 70.688675 60 44 49
-14.729081 -1.811507 70.520767 59 42 47
-14.729081 -1.659488 70.520767 57 40 45
-14.764151 -1.511058 70.688675 54 39 41
-14.764151 -1.358678 70.688675 49 35 36
-14.764151 -1.206296 70.688675 45 30 31
-14.694179 -1.048921 70.353653 43 28 28
-14.764151 -0.901535 70.688675 42 29 28
-14.799388 -0.750942 70.857384 42 29 27
-14.942032 -0.603963 71.540344 43 28 27
-12.972685 1.617898 62.111385 40 24 24
-13.137592 1.774058 62.900936 41 25 24
-12.918632 1.877824 61.852589 42 26 26
-12.891774 2.140032 61.723995 42 27 26
-16.318272 3.550936 78.129585 41 27 29
-16.190453 3.690223 77.517601 41 28 29
-16.190453 3.857325 77.517601 42 29 29
-12.811991 -13.617212 61.981716 57 40 47
-13.001999 -13.005603 62.900936 55 42 47
-13.001999 -12.870009 62.900936 56 43 49
-12.974510 -12.707494 62.767956 57 45 51
-12.947138 -12.545664 62.635532 57 46 53
-13.029604 -12.353810 63.034485 58 50 55
-12.974510 -12.166267 62.767956 59 50 56
-12.947138 -12.005579 62.635532 59 50 56
-12.892738 -11.820682 62.372356 59 49 54
-12.919881 -11.710831 62.503666 61 48 53
-12.865709 -11.527556 62.241596 62 47 53
-12.732247 -11.275196 61.595940 63 47 53
-12.627456 -11.050709 61.088974 64 47 53
-12.601526 -10.896601 60.963535 65 48 54
-12.524374 -10.699275 60.590290 66 49 55
-13.759963 -8.741356 66.567810 55 45 55
-13.821944 -8.636587 66.867661 55 45 55
-13.790884 -8.473358 66.717400 54 45 56
-15.004751 -7.810867 72.589836 52 44 48
-15.004751 -7.654387 72.589836 53 43 47
-15.004751 -7.497909 72.589836 53 42 47
-15.041528 -7.359423 72.767754 54 41 47
-15.152946 -4.569493 73.306770 47 43 47
-15.152946 -4.411468 73.306770 46 43 47
-15.115624 -4.242967 73.126213 46 43 48
-15.078485 -4.075294 72.946541 47 45 50
-15.115624 -3.927696 73.126213 49 48 53
-15.115624 -3.770061 73.126213 52 50 56
-15.152946 -3.621345 73.306770 55 53 58
-15.115624 -3.454789 73.126213 58 56 60
-15.115624 -3.297154 73.126213 61 58 61
-15.041528 -3.124129 72.767754 64 58 60
-15.078485 -2.974557 72.946541 64 57 59
-15.115624 -2.824248 73.126213 64 55 59
-15.041528 -2.653541 72.767754 64 53 58
-14.968155 -2.484499 72.412788 64 51 56
-14.895494 -2.317098 72.061264 64 49 55
-14.823535 -2.151315 71.713142 63 47 54
-14.646643 -1.972899 70.857384 63 46 53
-14.577063 -1.811507 70.520767 62 44 51
-14.611770 -1.663439 70.688675 61 43 49
-14.611770 -1.511058 70.688675 58 42 47
-14.611770 -1.358678 70.688675 54 37 41
-14.611770 -1.206296 70.688675 48 33 34
-14.542520 -1.048921 70.353653 45 30 30
-14.577063 -0.899393 70.520767 45 30 29
-14.646643 -0.750942 70.857384 45 29 29
-14.716890 -0.601066 71.197220 45 29 28
-13.001999 1.774058 62.900936 43 27 26
-12.838794 1.885681 62.111385 44 28 28
-12.705887 1.998666 61.468410 45 29 28
-12.732247 2.135592 61.595940 43 29 27
-16.192463 3.560305 78.335732 43 29 31
-16.065296 3.699883 77.720528 44 29 31
-12.839204 -12.978106 62.767956 56 43 49
-12.812117 -12.815705 62.635532 56 44 50
-12.785144 -12.653989 62.503666 57 45 51
-12.758285 -12.492950 62.372356 58 46 53
-12.785144 -12.384515 62.503666 58 48 54
-12.866405 -12.327637 62.900936 59 50 56
-12.812117 -12.140600 62.635532 60 50 57
-12.812117 -12.005579 62.635532 60 51 57
-12.758285 -11.820682 62.372356 61 50 56
-12.785144 -11.710831 62.503666 62 50 55
-12.731538 -11.527556 62.241596 62 49 54
-12.573381 -11.251852 61.468410 63 48 53
-12.495769 -11.050709 61.088974 64 49 52
-12.444556 -10.874271 60.838612 65 49 54
-12.343381 -10.655782 60.343987 66 50 55
-11.978192 -10.088057 58.558662 68 50 58
-13.677800 -8.492443 66.867661 56 46 55
-7.836056 -3.048573 38.308701 53 44 47
-14.957989 -4.558238 73.126213 48 45 49
-14.994922 -4.411468 73.306770 48 45 49
-14.957989 -4.242967 73.126213 48 46 50
-14.921237 -4.075294 72.946541 48 47 52
-14.957989 -3.927696 73.126213 49 49 54
-14.957989 -3.770061 73.126213 51 51 56
-14.994922 -3.621345 73.306770 54 53 59
-14.994922 -3.463320 73.306770 58 56 61
-15.032038 -3.313477 73.488220 61 58 62
-14.957989 -3.139518 73.126213 65 59 62
-14.994922 -2.989246 73.306770 66 58 62
-14.994922 -2.831221 73.306770 66 56 62
-14.884665 -2.653541 72.767754 66 54 61
-14.848272 -2.490573 72.589836 66 52 60
-14.776018 -2.322736 72.236603 66 50 59
-14.668945 -2.151315 71.713142 65 49 58
-14.493898 -1.972899 70.857384 65 47 57
-14.459389 -1.815820 70.688675 65 46 55
-14.425044 -1.659488 70.520767 64 45 53
-14.459389 -1.511058 70.688675 62 44 51
-14.425044 -1.355450 70.520767 58 40 45
-14.425044 -1.203431 70.520767 53 35 38
-14.390862 -1.048921 70.353653 49 33 33
-14.425044 -0.899393 70.520767 48 32 32
-14.459389 -0.749154 70.688675 48 31 31
-14.493898 -0.598197 70.857384 47 30 29
-14.704463 -0.451924 71.886787 46 30 27
-12.758285 1.624696 62.372356 45 28 28
-12.839204 1.770308 62.767956 45 28 28
-12.678379 1.881744 61.981716 45 29 28
-12.547403 1.994536 61.341408 45 30 28
-12.573381 2.131171 61.468410 43 29 27
-12.623831 -12.896312 62.372356 56 43 50
-12.623831 -12.761858 62.372356 57 44 51
-12.623831 -12.627404 62.372356 57 45 51
-12.571012 -12.440679 62.111385 58 46 53
-12.571012 -12.306787 62.111385 59 48 55
-12.703897 -12.301574 62.767956 60 49 57
-12.677095 -12.140600 62.635532 61 50 57
-12.703897 -12.030961 62.767956 62 51 58
-12.623831 -11.820682 62.372356 62 52 57
-12.650407 -11.710831 62.503666 63 52 56
-12.597365 -11.527556 62.241596 63 51 55
-12.415173 -11.228604 61.341408 64 50 53
-12.338693 -11.028017 60.963535 64 50 53
-12.263149 -10.829886 60.590290 65 50 53
-12.139279 -10.591201 59.978268 67 50 55
-11.851959 -10.088057 58.558662 68 50 57
-14.800353 -4.400602 73.126213 50 47 50
-14.800353 -4.242967 73.126213 50 47 51
-14.763988 -4.075294 72.946541 49 48 52
-14.800353 -3.927696 73.126213 50 49 54
-14.800353 -3.770061 73.126213 51 50 56
-14.873622 -3.630308 73.488220 54 53 59
-14.873622 -3.471892 73.488220 57 55 62
-14.910529 -3.321699 73.670578 61 58 64
-14.836897 -3.147270 73.306770 65 60 66
-14.910529 -3.004081 73.670578 67 60 66
-14.873622 -2.838229 73.488220 67 59 66
-14.763988 -2.660060 72.946541 67 57 65
-14.691793 -2.490573 72.589836 66 55 64
-14.620300 -2.322736 72.236603 66 53 63
-14.514356 -2.151315 71.713142 66 51 63
-14.341153 -1.972899 70.857384 66 50 61
-14.307008 -1.815820 70.688675 66 49 58
-14.273025 -1.659488 70.520767 66 48 57
-14.273025 -1.507469 70.520767 65 46 54
-14.273025 -1.355450 70.520767 61 43 49
-14.273025 -1.203431 70.520767 57 40 43
-14.239202 -1.048921 70.353653 54 36 38
-14.273025 -0.899393 70.520767 51 34 34
-14.307008 -0.749154 70.688675 48 32 31
-14.341153 -0.598197 70.857384 47 31 29
-14.514356 -0.450832 71.713142 46 30 28
-12.650407 1.493380 62.503666 47 29 29
-12.466687 1.604472 61.595940 47 29 30
-12.571012 1.751790 62.111385 46 29 30
-12.466687 1.870032 61.595940 46 30 29
-12.364081 1.986328 61.088974 45 30 29
-12.389574 2.122382 61.214931 45 30 28
-11.380574 3.161658 56.229626 54 36 36
-12.463194 -12.735104 62.241596 57 44 51
-12.437120 -12.574570 62.111385 58 45 52
-12.359550 -12.363087 61.723995 59 46 53
-12.257615 -12.129164 61.214931 60 48 55
-12.568590 -12.301574 62.767956 61 49 57
-12.542074 -12.140600 62.635532 63 51 57
-12.568590 -12.030961 62.767956 64 52 58
-12.515670 -11.845568 62.503666 64 53 59
-12.515670 -11.710831 62.503666 64 53 58
-12.437120 -11.503441 62.111385 64 52 56
-12.282941 -11.228604 61.341408 65 52 55
-12.182261 -11.005419 60.838612 65 51 54
-12.107827 -10.807830 60.466888 66 51 54
-11.725726 -10.088057 58.558662 68 50 56
-11.633940 -9.883844 58.100277 68 50 57
-14.606740 -4.232542 72.946541 51 49 52
-14.570940 -4.065305 72.767754 51 49 52
-14.606740 -3.918046 72.946541 51 50 54
-14.642717 -3.770061 73.126213 52 51 56
-14.715206 -3.630308 73.488220 54 52 60
-14.751720 -3.480508 73.670578 58 55 64
-14.788416 -3.329962 73.853836 62 59 67
-14.678872 -3.147270 73.306770 66 61 69
-14.788416 -3.011554 73.853836 68 61 70
-14.751720 -2.845272 73.670578 69 60 70
-14.642717 -2.666612 73.126213 69 59 69
-14.359767 -2.151315 71.713142 68 54 67
-14.188409 -1.972899 70.857384 68 53 65
-14.154627 -1.815820 70.688675 69 52 63
