ply
format ascii 1.0
element vertex 1174
property float x
property float y
property float z
property uchar red
property uchar green
property uchar blue
end_header
-6.398600 -2.308410 63.303288 100 99 113
-6.495548 -2.204858 64.262428 101 98 114
-6.384986 -2.031159 63.168602 101 98 115
-7.011550 1.657373 69.367386 114 112 130
-7.011550 1.806905 69.367386 115 113 132
-6.995206 1.951878 69.205696 116 114 133
-7.011550 2.105971 69.367386 118 114 134
-6.978938 2.245013 69.044746 119 114 134
-6.914616 2.371787 68.408394 121 114 134
-7.094429 6.215971 70.187332 120 115 126
-7.061043 6.337307 69.857040 122 116 127
-7.061043 6.487895 69.857040 123 116 128
-7.044468 6.622900 69.693054 124 116 128
-7.011550 6.741485 69.367386 124 116 126
-7.011550 6.891017 69.367386 123 115 125
-6.962746 6.991544 68.884552 120 113 122
-6.962746 7.140036 68.884552 117 110 119
-6.978938 7.305478 69.044746 112 106 115
-6.995206 7.471691 69.205696 107 103 112
-6.995206 7.620875 69.205696 105 101 112
-6.946628 7.716101 68.725098 105 101 112
-6.882897 7.792099 68.094589 106 101 113
-6.867147 9.531706 67.938766 108 103 114
-6.835862 9.634068 67.629250 109 105 117
-6.804860 9.735500 67.322548 111 106 120
-6.804860 9.880625 67.322548 112 106 120
-6.835862 10.071424 67.629250 113 106 120
-6.835862 10.217211 67.629250 112 106 118
-6.804860 10.315999 67.322548 111 105 116
-7.077697 11.786216 70.021797 106 102 113
-7.027970 11.853292 69.529839 106 101 113
-7.213806 12.474412 71.368370 105 98 111
-7.145103 12.507989 70.688675 103 97 109
-7.077697 12.540933 70.021797 102 96 108
-7.077697 12.691876 70.021797 100 95 108
-7.061043 12.812601 69.857040 98 94 107
-7.061043 12.963189 69.857040 97 94 107
-6.995206 12.991505 69.205696 96 93 107
-6.867147 12.900126 67.938766 97 93 107
-6.789464 12.898994 67.170235 97 93 107
-6.713520 12.897887 66.418884 98 92 105
-6.653976 12.925400 65.829803 98 91 104
-6.610007 12.980959 65.394806 99 90 102
-6.581016 13.064376 65.107986 99 89 101
-6.595480 13.233748 65.251083 99 87 100
-6.624599 13.433455 65.539169 99 85 98
-6.610007 13.544836 65.394806 98 82 96
-6.624599 13.716017 65.539169 97 79 93
-6.639255 13.887955 65.684166 94 76 90
-6.882897 15.718705 68.094589 85 66 77
-6.639255 15.587070 65.684166 84 67 78
-6.509638 15.421596 64.401825 84 67 78
-6.384986 15.262459 63.168602 85 68 80
-6.357931 15.333381 62.900936 85 68 82
-6.344489 15.436270 62.767956 86 69 84
-6.357931 15.604567 62.900936 87 69 85
-6.317776 15.640748 62.503666 87 69 86
-6.344489 15.842189 62.767956 87 69 86
-6.331104 15.943788 62.635532 87 68 85
-6.331104 16.078810 62.635532 87 68 84
-6.439793 20.475012 63.710819 87 64 79
-6.523790 21.576860 64.541832 78 62 70
-6.371429 23.654682 63.034485 76 61 70
-6.331104 23.639990 62.635532 75 60 68
-6.357931 23.875753 62.900936 74 61 67
-6.357931 24.011347 62.900936 74 61 67
-6.398600 24.301397 63.303288 74 62 68
-6.439793 24.595184 63.710819 74 62 69
-6.105911 -2.783045 61.723995 103 103 114
-6.384659 -2.214445 64.541832 102 100 115
-6.302454 -2.048594 63.710819 103 99 116
-4.894906 -1.057741 49.482071 101 99 115
-4.846441 -0.941658 48.992149 101 99 115
-6.483319 3.685112 65.539169 114 106 123
-6.469038 3.817964 65.394806 113 105 123
-6.483319 3.967672 65.539169 112 105 122
-6.926753 6.201310 70.021797 120 114 126
-6.894233 6.322431 69.693054 122 115 127
-6.878088 6.457507 69.529839 124 116 128
-6.846022 6.576586 69.205696 125 117 128
-6.814254 6.694560 68.884552 125 117 127
-6.814254 6.843052 68.884552 124 116 125
-6.782779 6.959250 68.566376 121 114 122
-6.782779 7.107057 68.566376 118 111 119
-6.814254 7.288528 68.884552 112 106 115
-6.830101 7.454315 69.044746 107 103 111
-6.830101 7.603152 69.044746 105 101 111
-6.782779 7.698280 68.566376 106 101 111
-6.720694 7.774269 67.938766 106 102 112
-6.705350 9.509944 67.783661 110 104 116
-6.674871 9.612171 67.475548 111 106 118
-6.644668 9.713474 67.170235 112 107 119
-6.674871 10.193990 67.475548 113 106 116
-6.644668 10.292660 67.170235 111 105 114
-6.926753 11.786216 70.021797 106 101 111
-6.862017 11.825597 69.367386 106 100 111
-7.043030 12.444497 71.197220 104 98 109
-6.992723 12.507989 70.688675 103 97 109
-6.959581 12.600368 70.353653 102 97 108
-6.943129 12.721881 70.187332 100 96 108
-6.926753 12.842819 70.021797 98 95 107
-6.943129 13.024481 70.187332 97 94 107
-6.878088 13.052355 69.529839 96 94 107
-6.736109 12.929714 68.094589 97 94 107
-6.659736 12.928244 67.322548 97 93 107
-6.599873 12.955855 66.717400 98 92 106
-6.526541 12.954123 65.976097 97 90 104
-6.497662 13.038397 65.684166 97 89 101
-6.469038 13.121928 65.394806 98 88 100
-6.469038 13.262897 65.394806 98 86 98
-6.497662 13.463176 65.684166 98 85 97
-6.469038 13.544836 65.394806 98 82 94
-6.526541 13.807457 65.976097 96 79 91
-6.555677 14.011954 66.270630 93 76 88
-6.720694 14.804017 67.938766 90 72 84
-6.370810 15.421596 64.401825 87 66 79
-6.248816 15.262459 63.168602 87 66 80
-6.209183 15.300963 62.767956 87 67 81
-6.222338 15.468973 62.900936 87 67 83
-6.209183 15.571576 62.767956 87 68 84
-6.183039 15.640748 62.503666 87 68 85
-6.209183 15.842189 62.767956 87 68 85
-6.209183 15.977496 62.767956 86 68 83
-6.209183 16.112803 62.767956 86 67 82
-7.589001 20.024174 76.716385 84 66 77
-7.530624 20.034245 76.126259 84 66 76
-6.316007 20.381409 63.847832 87 63 79
-6.235548 20.257654 63.034485 86 62 77
-6.288958 21.253437 63.574394 78 61 68
-6.343290 21.575281 64.123634 79 61 68
-6.357020 21.760509 64.262428 79 62 67
-6.262139 21.572187 63.303288 80 62 66
-6.222338 23.604567 62.900936 78 61 71
-6.196083 23.639990 62.635532 77 61 70
-6.209183 23.825275 62.767956 76 61 69
-6.209183 23.960583 62.767956 75 61 69
-6.262139 24.301397 63.303288 75 62 69
-6.302454 24.595184 63.710819 75 62 70
-5.589384 -4.721098 57.761173 98 99 115
-5.535536 -4.552301 57.204704 100 99 116
-6.245529 -2.214445 64.541832 103 102 117
-4.788239 -1.057741 49.482071 101 100 116
-4.748667 -0.943214 49.073128 101 100 115
-5.985299 1.077824 61.852589 110 106 127
-6.245529 2.655121 64.541832 121 111 126
-6.218492 2.782155 64.262428 121 111 124
-6.286528 3.372769 64.965523 117 109 124
-6.328069 3.676994 65.394806 114 107 123
-6.328069 3.817964 65.394806 113 107 122
-6.342038 3.967672 65.539169 113 107 122
-6.328069 4.099902 65.394806 115 107 123
-6.314161 4.231551 65.251083 116 107 123
-6.272802 4.343571 64.823669 116 107 124
-6.759867 6.186719 69.857040 121 114 126
-6.712484 6.292887 69.367386 123 115 128
-6.696838 6.427402 69.205696 124 116 128
-6.650332 6.530915 68.725098 125 117 128
-6.619685 6.648284 68.408394 125 117 127
-6.634973 6.811444 68.566376 123 116 125
-6.619685 6.943215 68.408394 120 113 122
-6.634973 7.107057 68.566376 117 110 119
-6.665762 7.288528 68.884552 112 106 115
-6.681263 7.454315 69.044746 107 103 111
-6.681263 7.603152 69.044746 105 101 110
-6.650332 7.716101 68.725098 105 101 110
-6.589320 7.792099 68.094589 105 101 111
-6.544290 9.488281 67.629250 111 105 118
-6.529417 9.612171 67.475548 112 107 119
-6.470593 9.669720 66.867661 114 108 119
-6.514611 10.025749 67.322548 114 107 117
-6.499872 10.292660 67.170235 112 105 112
-6.775810 11.786216 70.021797 106 100 110
-6.696838 11.798032 69.205696 106 100 110
-6.856667 12.385097 70.857384 105 99 109
-6.840342 12.507989 70.688675 104 98 109
-6.807923 12.600368 70.353653 102 98 109
-6.791828 12.721881 70.187332 100 97 108
-6.791828 12.873180 70.187332 98 95 107
-6.791828 13.024481 70.187332 97 94 107
-6.728205 13.052355 69.529839 96 94 107
-6.589320 12.929714 68.094589 97 93 107
-6.514611 12.928244 67.322548 98 93 107
-6.470593 12.985035 66.867661 98 92 106
-6.412820 13.011954 66.270630 98 89 103
-6.384318 13.096346 65.976097 97 88 101
-6.356070 13.179990 65.684166 98 87 100
-6.370162 13.351121 65.829803 98 85 98
-6.398538 13.553130 66.123032 97 84 96
-6.356070 13.604769 65.684166 97 82 93
-6.470593 14.138188 66.867661 93 76 86
-6.574241 14.657564 67.938766 91 72 84
-6.574241 14.804017 67.938766 90 71 83
-6.245529 15.455121 64.541832 88 66 80
-6.112646 15.262459 63.168602 88 66 81
-6.061062 15.268682 62.635532 88 67 82
-6.099668 15.501817 63.034485 88 67 84
-6.086744 15.604567 62.900936 87 68 84
-6.048302 15.640748 62.503666 87 68 84
-6.086744 15.875753 62.900936 87 68 84
-6.073876 15.977496 62.767956 86 68 82
-7.423626 20.024174 76.716385 84 65 76
-7.347681 19.983006 75.931564 83 65 75
-6.073876 20.171999 62.767956 86 61 76
-6.245529 21.437729 64.541832 78 59 68
-6.112646 21.117777 63.168602 78 60 67
-6.073876 21.525064 62.767956 81 60 65
-5.899268 21.037691 60.963535 80 60 65
-6.086744 23.604567 62.900936 79 61 70
-6.048302 23.590221 62.503666 78 61 70
-6.073876 23.825275 62.767956 77 61 69
-6.073876 23.960583 62.767956 75 61 69
-6.138768 24.353323 63.438553 75 61 70
-6.191688 24.701197 63.985435 75 62 71
-6.138768 24.626827 63.438553 75 62 71
-5.595505 -5.088933 59.141918 95 99 114
-5.433159 -4.693703 57.425999 99 99 115
-5.412222 -4.552301 57.204704 101 100 116
-4.697230 -1.382349 49.647564 105 104 123
-4.705098 -1.170259 49.730724 103 102 120
-4.681572 -1.057741 49.482071 101 102 117
-4.650568 -0.944776 49.154373 99 101 115
-5.803602 0.936685 61.341408 110 106 128
-5.839799 1.075583 61.723995 112 107 129
-5.888770 1.218775 62.241596 113 108 130
-5.901142 1.355789 62.372356 114 109 131
-6.027775 2.483595 63.710819 119 111 126
-5.989218 2.604169 63.303288 119 110 124
-5.951151 2.723211 62.900936 119 109 123
-6.002016 3.019990 63.438553 117 109 122
-6.146484 3.372769 64.965523 116 110 124
-6.200758 3.685112 65.539169 114 109 123
-6.200758 3.826392 65.539169 113 107 122
-6.214477 3.976450 65.684166 113 108 122
-6.200758 4.108953 65.539169 115 108 122
-6.187100 4.240871 65.394806 115 108 122
-6.578321 6.157741 69.529839 121 113 126
-6.532426 6.263618 69.044746 123 115 128
-6.517270 6.397576 68.884552 125 116 129
-6.457341 6.485875 68.251129 125 116 129
-6.442531 6.617788 68.094589 125 116 128
-6.457341 6.780128 68.251129 122 115 125
-6.442531 6.911366 68.094589 119 112 122
-6.457341 7.074380 68.251129 115 109 119
-6.487167 7.254862 68.566376 111 106 116
-6.517270 7.437020 68.884552 108 103 113
-6.517270 7.585512 68.884552 106 101 111
-6.487167 7.698280 68.566376 105 101 111
-6.427788 7.774269 67.938766 106 101 112
-6.369486 9.300126 67.322548 111 105 118
-6.383962 9.466717 67.475548 112 106 119
-6.369486 9.590375 67.322548 113 107 120
-6.312232 9.647990 66.717400 114 109 121
-6.312232 9.791810 66.717400 115 108 120
-6.355075 10.003067 67.170235 114 107 117
-6.340730 10.269425 67.018608 111 104 111
-6.672074 11.718184 70.520767 105 100 109
-6.609279 11.758484 69.857040 106 100 110
-6.532426 11.770594 69.044746 106 99 110
-6.547654 11.947215 69.205696 106 99 110
-6.656264 12.297050 70.353653 106 99 110
-6.672074 12.478279 70.520767 105 99 110
-6.640528 12.570580 70.187332 103 99 110
-6.624866 12.691876 70.021797 101 97 109
-6.624866 12.842819 70.021797 99 96 108
-6.640528 13.024481 70.187332 98 94 107
-6.578321 13.052355 69.529839 97 93 106
-6.457341 12.959438 68.251129 97 92 107
-6.383962 12.957626 67.475548 98 91 106
-6.340730 13.014346 67.018608 98 90 105
-6.312232 13.099675 66.717400 99 88 104
-6.283989 13.184240 66.418884 99 87 102
-6.255999 13.268052 66.123032 99 86 101
-6.283989 13.470593 66.418884 100 84 100
-6.298079 13.644295 66.567810 99 82 97
-6.283989 13.756948 66.418884 97 81 93
-6.383962 14.121263 67.475548 96 78 90
-6.355075 14.202162 67.170235 93 75 86
-6.442531 14.691182 68.094589 90 72 84
-6.427788 14.804017 67.938766 90 71 83
-6.002016 15.327682 63.438553 90 67 83
-6.027775 15.668145 63.710819 89 68 84
-5.976475 15.670969 63.168602 88 68 84
-5.926041 15.673746 62.635532 87 69 84
-5.976475 15.943310 63.168602 87 69 83
-5.951151 16.011347 62.900936 86 68 82
-7.431067 20.331629 78.542969 84 66 77
-7.277055 20.076050 76.915138 84 65 76
-7.183999 19.983006 75.931564 84 65 75
-6.413113 18.277067 67.783661 81 64 77
-5.913565 19.952328 62.503666 87 61 76
-5.938570 20.171999 62.767956 86 60 75
-5.938570 23.554663 62.767956 79 61 69
-5.901142 23.540663 62.372356 78 61 69
-5.478929 -5.099091 59.259964 96 101 115
-5.309368 -4.693703 57.425999 100 100 117
-5.288908 -4.552301 57.204704 102 101 118
-5.218524 -4.370047 56.443428 103 101 119
-4.652446 -1.509567 50.320751 107 107 128
-4.590206 -1.382349 49.647564 107 107 127
-4.582543 -1.273196 49.564678 105 106 125
-4.590206 -1.168302 49.647564 104 104 122
-4.567294 -1.055981 49.399738 101 102 118
-4.529610 -0.941658 48.992149 99 101 115
-5.659677 0.934754 61.214931 111 106 129
-5.706743 1.075583 61.723995 113 107 130
-5.742559 1.216225 62.111385 113 108 130
-5.742559 1.350116 62.111385 114 109 130
-5.694903 1.870032 61.595940 115 111 127
-5.730571 2.148968 61.981716 116 111 126
-5.742559 2.287354 62.111385 117 111 125
-5.803263 2.446840 62.767956 117 110 124
-5.791020 2.576699 62.635532 117 109 122
-5.766688 2.700327 62.372356 116 108 121
-5.954324 3.343504 64.401825 116 110 124
-6.368778 5.803609 68.884552 117 109 124
-6.339361 5.924609 68.566376 118 110 125
-6.368778 6.100593 68.884552 120 112 126
-6.339361 6.220221 68.566376 122 114 128
-6.324754 6.353354 68.408394 124 116 130
-6.295742 6.470999 68.094589 125 117 131
-6.266994 6.587570 67.783661 125 117 129
-6.281335 6.749097 67.938766 122 114 126
-6.266994 6.879807 67.783661 118 111 123
-6.281335 7.042003 67.938766 114 108 120
-6.310215 7.221507 68.251129 110 106 118
-6.339361 7.402668 68.566376 108 104 116
-6.324754 7.533077 68.408394 107 102 114
-6.295742 7.645311 68.094589 106 101 114
-6.210279 9.134289 67.170235 113 105 119
-6.196260 9.258139 67.018608 113 106 120
-6.210279 9.423882 67.170235 113 107 121
-6.210279 9.568678 67.170235 114 109 121
-6.154582 9.626357 66.567810 116 110 123
-6.154582 9.769855 66.567810 116 109 121
-6.196260 9.980486 67.018608 113 107 117
-6.504605 11.690415 70.353653 106 100 110
-6.443529 11.730882 69.693054 107 100 111
-6.354035 11.716101 68.725098 107 100 111
-6.354035 11.864249 68.725098 107 101 112
-6.458690 12.210248 69.857040 107 101 112
-6.473923 12.389989 70.021797 106 101 112
-6.458690 12.511425 69.857040 105 99 111
-6.443529 12.632290 69.693054 103 98 110
-6.443529 12.782524 69.693054 100 96 108
-6.473923 12.993763 70.021797 99 94 107
-6.398469 12.991505 69.205696 98 93 106
-6.295742 12.929714 68.094589 97 92 106
-6.238508 12.957626 67.475548 98 90 106
-6.196260 13.014346 67.018608 99 89 105
-6.168412 13.099675 66.717400 100 88 104
-6.154582 13.213801 66.567810 101 87 103
-6.140813 13.327417 66.418884 101 85 103
-6.168412 13.531136 66.717400 101 84 101
-6.168412 13.674956 66.717400 100 82 99
-6.310215 14.724956 68.251129 91 73 86
-5.928603 15.493208 64.123634 92 68 85
-5.967268 15.872512 64.541832 89 69 85
-5.877823 15.771639 63.574394 88 69 85
-5.915826 16.149473 63.985435 86 69 82
-5.865263 16.148195 63.438553 85 68 80
-7.281017 20.385559 78.751305 83 65 76
-7.148290 20.180613 77.315735 84 65 76
-7.020316 19.983006 75.931564 85 65 76
-5.754598 19.868670 62.241596 87 60 74
-4.999897 19.361303 54.078766 80 59 70
-5.791020 23.504969 62.635532 80 60 67
-5.742559 23.442165 62.111385 79 60 68
-5.766688 23.675116 62.372356 78 60 69
-5.175566 -4.561090 57.315140 103 103 120
-5.106559 -4.378371 56.550938 105 103 121
-4.622316 -1.645939 51.188347 108 108 130
-4.543972 -1.509567 50.320751 107 108 130
-4.475698 -1.380041 49.564678 106 107 128
-4.475698 -1.273196 49.564678 105 106 126
-4.475698 -1.166351 49.564678 103 104 123
-4.453394 -1.054227 49.317677 101 103 118
-4.387796 -0.933952 48.591232 98 102 115
-5.516345 0.801143 61.088974 109 105 127
-5.527718 0.934754 61.214931 111 106 129
-5.539139 1.068916 61.341408 113 107 130
-5.562123 1.206132 61.595940 113 108 130
-5.562123 1.338912 61.595940 114 109 129
-5.573687 1.474751 61.723995 114 110 129
-5.596959 1.614521 61.981716 114 111 127
-5.516345 2.249703 61.088974 113 110 121
-5.527718 2.386300 61.214931 113 109 120
-5.573687 2.539201 61.723995 113 108 119
-5.550607 2.661191 61.468410 113 107 119
-5.516345 2.776452 61.088974 114 107 120
-5.573687 2.938369 61.723995 115 108 120
-6.635998 4.290484 73.488220 115 111 123
-6.669014 4.471034 73.853836 115 111 122
-6.652465 4.618748 73.670578 115 110 121
-6.652465 4.777557 73.670578 115 109 120
-6.669014 4.948646 73.853836 114 109 118
-6.669014 5.107850 73.853836 113 108 119
-6.635998 5.240979 73.488220 113 107 119
-6.619613 5.386063 73.306770 112 105 119
-6.652465 5.571602 73.670578 112 105 121
-6.570940 5.660185 72.767754 114 106 123
-6.383198 5.650846 70.688675 115 106 124
-6.220286 5.803609 68.884552 116 108 124
-6.163088 5.897369 68.251129 117 109 125
-6.163088 6.044495 68.251129 119 111 126
-6.148952 6.177421 68.094589 121 113 128
-6.148952 6.324210 68.094589 123 116 130
-6.120875 6.441451 67.783661 124 117 131
-6.106933 6.572564 67.629250 124 117 130
-6.106933 6.718349 67.629250 121 114 128
-6.106933 6.864135 67.629250 117 111 125
-6.120875 7.025926 67.783661 114 108 122
-6.134882 7.188457 67.938766 111 106 120
-6.148952 7.351733 68.094589 109 104 119
-6.134882 7.481363 67.938766 109 103 119
-6.120875 7.610401 67.783661 109 103 119
-6.011084 8.908869 66.567810 114 105 120
-6.038161 9.093143 66.867661 114 106 120
-6.011084 9.195865 66.567810 114 107 121
-6.038161 9.381432 66.867661 114 108 122
-6.038161 9.525576 66.867661 115 110 123
-5.984249 9.583383 66.270630 117 111 124
-5.984249 9.726240 66.270630 115 109 122
-6.024592 9.935630 66.717400 111 105 118
-6.038161 10.534584 66.867661 108 100 112
-6.293294 11.280177 69.693054 106 99 112
-6.249285 11.648848 69.205696 108 101 113
-6.163088 11.635300 68.251129 108 102 114
-6.120875 11.701725 67.783661 109 102 114
-6.249285 12.096399 69.205696 109 102 115
-6.278556 12.302940 69.529839 108 102 114
-6.293294 12.482055 69.693054 107 100 113
-6.263886 12.573260 69.367386 105 98 111
-6.249285 12.693136 69.205696 102 96 109
-6.278556 12.902472 69.529839 100 94 107
-6.205887 12.901286 68.725098 99 93 106
-6.120875 12.870674 67.783661 98 91 105
-6.093053 12.957626 67.475548 99 89 104
-6.038161 12.985035 66.867661 100 88 104
-6.011084 13.070304 66.567810 101 87 104
-5.997636 13.184240 66.418884 102 86 103
-5.997636 13.327417 66.418884 102 85 103
-6.038161 13.561611 66.867661 101 83 102
-6.024592 13.674956 66.717400 100 81 101
-5.828138 15.594251 64.541832 93 70 86
-5.853588 15.941824 64.823669 90 70 86
-5.790374 15.907895 64.123634 89 70 85
-5.840835 16.325394 64.682442 87 69 81
-5.777895 16.287403 63.985435 86 67 79
-7.130168 20.439775 78.960747 84 65 75
-6.963489 20.128197 77.114914 85 65 75
-6.856633 19.983006 75.931564 85 65 76
-5.608668 19.827103 62.111385 86 60 72
-6.065483 23.179537 67.170235 80 61 67
-4.728295 19.085283 52.361980 84 61 68
-5.596959 23.393227 61.981716 79 60 66
-5.497780 -3.484547 62.372356 111 115 132
-5.463347 -3.329112 61.981716 111 114 131
-5.429343 -3.175611 61.595940 112 114 131
-5.406908 -3.030257 61.341408 114 114 132
-4.591129 -1.787096 52.086391 110 108 132
-4.504205 -1.643106 51.100246 109 108 132
-4.435497 -1.509567 50.320751 107 108 131
-4.376160 -1.382349 49.647564 106 107 129
-4.376160 -1.275325 49.647564 105 106 126
-4.368854 -1.166351 49.564678 103 105 123
-4.339873 -1.052479 49.235889 101 104 119
-4.269075 -0.930905 48.432693 100 103 116
-5.373600 0.799498 60.963535 110 106 127
-5.384657 0.932830 61.088974 111 107 128
-5.384657 1.064517 61.088974 112 108 129
-5.395760 1.198671 61.214931 113 109 128
-5.395760 1.330630 61.214931 113 109 128
-5.373600 1.456582 60.963535 112 110 126
-5.308201 1.958125 60.221588 110 109 118
-5.329823 2.096447 60.466888 110 109 117
-5.329823 2.226793 60.466888 110 108 117
-5.318991 2.352349 60.343987 110 106 116
-5.318991 2.742592 60.343987 112 107 119
-6.526043 4.162981 74.038010 117 111 123
-6.493656 4.301130 73.670578 117 111 123
-6.526043 4.482183 74.038010 116 111 121
-6.509809 4.630238 73.853836 115 110 119
-6.509809 4.789442 73.853836 113 109 118
-6.526043 4.960986 74.038010 113 109 118
-6.526043 5.120587 74.038010 112 108 118
-6.493656 5.253984 73.670578 112 108 119
-6.477582 5.399395 73.488220 113 107 120
-6.526043 5.599390 74.038010 113 106 122
-6.429836 5.674092 72.946541 114 106 124
-6.275643 5.691500 71.197220 114 106 124
-6.002164 5.883843 68.094589 116 107 124
-5.988429 6.016832 67.938766 118 110 126
-5.974757 6.149213 67.783661 120 112 127
-5.974757 6.295332 67.783661 122 115 129
-5.961147 6.426778 67.629250 122 115 130
-5.934112 6.542756 67.322548 122 115 130
-5.947598 6.703081 67.475548 120 113 129
-5.947598 6.848535 67.475548 117 110 127
-5.961147 7.009922 67.629250 114 107 125
-5.961147 7.155707 67.629250 111 104 122
-5.974757 7.318163 67.783661 109 103 122
-5.961147 7.447279 67.629250 111 104 123
-5.947598 7.575808 67.475548 112 105 124
-5.713850 8.395972 64.823669 115 106 121
-5.738911 8.573148 65.107986 115 106 120
-5.751524 8.732650 65.251083 115 106 121
-5.854459 9.032115 66.418884 115 107 121
-5.815430 9.114123 65.976097 115 108 122
-5.854459 9.318469 66.418884 115 109 124
-5.867586 9.482860 66.567810 116 111 125
-5.815430 9.540790 65.976097 117 111 124
-5.815430 9.683012 65.976097 114 108 121
-5.867586 9.913353 66.567810 111 105 118
-5.907321 10.413895 67.018608 107 100 115
-5.894017 10.534584 66.867661 107 100 115
-6.143060 11.280177 69.693054 106 99 115
-6.085915 11.324082 69.044746 106 100 116
-6.128673 11.553526 69.529839 108 101 116
-6.043749 11.541237 68.566376 108 102 116
-5.974757 11.555606 67.783661 108 103 115
-5.947598 11.648535 67.475548 109 103 116
-6.029823 11.957040 68.408394 109 103 116
-6.071795 12.485744 68.884552 106 99 112
-6.043749 12.575879 68.566376 103 97 110
-6.057739 12.753138 68.725098 100 95 107
-6.015962 12.812311 68.251129 99 92 106
-5.961147 12.841356 67.629250 98 90 104
-5.934112 12.928244 67.322548 98 89 104
-5.880772 12.955855 66.717400 99 88 103
-5.854459 13.041063 66.418884 100 87 103
-5.841392 13.154811 66.270630 102 86 103
-5.841392 13.297668 66.270630 101 84 103
-5.907321 13.592224 67.018608 100 83 103
-5.880772 13.674956 66.717400 98 81 101
-5.867586 13.787792 66.567810 96 78 98
-5.974757 14.185743 67.783661 93 76 95
-5.751524 16.046936 65.251083 92 70 85
-5.701402 16.046526 64.682442 90 70 84
-6.978516 20.494282 79.171310 85 65 75
-6.814957 20.180613 77.315735 86 65 75
-6.071795 23.622635 68.884552 81 62 67
-5.841392 23.011953 66.270630 81 61 68
-5.776917 22.899239 65.539169 80 60 67
-4.623575 19.119003 52.454491 84 61 67
-5.443376 -4.628240 63.303288 110 110 127
-5.374618 -3.626620 62.503666 111 115 134
-5.363327 -3.484547 62.372356 111 115 133
-5.307575 -3.315269 61.723995 112 115 133
-5.274676 -3.162489 61.341408 113 114 134
-5.263801 -3.024009 61.214931 114 114 134
-5.242184 -2.880174 60.963535 115 114 134
-5.263801 -2.760092 61.214931 115 113 133
-4.455399 -1.777739 51.813686 111 108 133
-4.394051 -1.643106 51.100246 110 108 132
-4.327023 -1.509567 50.320751 108 107 131
-4.269136 -1.382349 49.647564 106 107 129
-4.262009 -1.273196 49.564678 105 107 126
-4.262009 -1.166351 49.564678 104 106 123
-4.233737 -1.052479 49.235889 103 106 120
-5.231441 0.797860 60.838612 110 109 128
-5.231441 0.929007 60.838612 111 109 128
-5.231441 1.060155 60.838612 111 109 128
-5.231441 1.191302 60.838612 111 109 127
-5.231441 1.322450 60.838612 111 109 125
-5.210088 1.447664 60.590290 110 109 123
-5.167902 1.565497 60.099682 110 109 122
-5.126392 1.681437 59.616951 109 109 120
-5.167902 1.824606 60.099682 108 108 118
-5.105887 1.930711 59.378483 108 108 116
-5.065364 2.042372 58.907227 107 107 115
-5.095695 2.310091 59.259964 108 106 114
-5.095695 2.693324 59.259964 111 108 118
-5.116119 2.832376 59.497478 114 109 120
-5.167902 2.990598 60.099682 116 110 122
-6.414431 4.194360 74.596085 118 110 123
-6.366442 4.322582 74.038010 117 110 121
-6.398354 4.504650 74.409126 116 109 120
-6.382359 4.653389 74.223106 114 109 118
-6.382359 4.813389 74.223106 112 108 117
-6.398354 4.985853 74.409126 112 108 118
-6.398354 5.146255 74.409126 112 108 118
-6.366442 5.280188 74.038010 112 108 119
-6.334847 5.412793 73.670578 113 108 121
-6.398354 5.627457 74.409126 114 107 123
-6.272588 5.674092 72.946541 114 106 124
-5.815361 5.989420 67.629250 117 110 125
-5.815361 6.135206 67.629250 119 112 127
-5.815361 6.280992 67.629250 121 114 129
-5.802144 6.412171 67.475548 121 115 131
-5.775890 6.527954 67.170235 121 115 131
-5.788987 6.687881 67.322548 120 113 130
-5.788987 6.833005 67.322548 118 110 129
-5.802144 6.993989 67.475548 115 107 127
-5.802144 7.139444 67.475548 113 104 125
-5.802144 7.284899 67.475548 112 103 125
-5.788987 7.413505 67.322548 114 105 126
-5.775890 7.541528 67.170235 115 106 127
-5.598560 8.011744 65.107986 115 108 122
-5.561968 8.238247 64.682442 115 108 121
-5.525851 8.323280 64.262428 116 108 122
-5.574112 8.535710 64.823669 116 108 122
-5.586309 8.694432 64.965523 116 108 122
-5.673207 8.971901 65.976097 116 109 122
-5.648105 9.073795 65.684166 116 109 123
-5.673207 9.256346 65.976097 116 111 125
-5.685843 9.419500 66.123032 116 112 126
-5.660628 9.519635 65.829803 115 110 124
-5.660628 9.661542 65.829803 113 108 122
-5.698534 9.869097 66.270630 110 105 119
-5.762852 10.413895 67.018608 107 100 117
-5.749872 10.534584 66.867661 106 100 117
-5.992825 11.280177 69.693054 106 101 118
-5.909591 11.271656 68.725098 106 102 119
-5.909591 11.419805 68.725098 108 102 118
-5.868835 11.488173 68.251129 108 102 117
-5.828638 11.555606 67.783661 108 103 117
-5.802144 11.648535 67.475548 109 104 117
-5.855375 11.902191 68.094589 109 103 117
-5.855375 12.048981 68.094589 109 102 116
-5.882358 12.399437 68.408394 105 99 112
-5.855375 12.489347 68.094589 103 97 110
-5.855375 12.636136 68.094589 101 95 107
-5.855375 12.782926 68.094589 98 92 105
-5.802144 12.812172 67.475548 97 90 103
-5.788987 12.928244 67.322548 98 89 103
-5.736951 12.955855 66.717400 99 87 103
-5.698534 13.011954 66.270630 100 86 103
-5.698534 13.154811 66.270630 101 86 103
-5.711283 13.327417 66.418884 101 85 104
-5.775890 13.622976 67.170235 100 84 104
-5.749872 13.705755 66.867661 97 81 102
-5.749872 16.300350 66.867661 95 71 86
-5.648105 16.153440 65.684166 93 69 85
-5.586309 16.116751 64.965523 91 69 84
-5.660628 16.473072 65.829803 90 68 82
-6.826052 20.549078 79.383003 87 65 76
-6.136883 23.551334 71.368370 85 60 70
-5.909591 23.567953 68.725098 83 62 68
-5.724088 23.115147 66.567810 82 62 68
-5.635636 22.899239 65.539169 81 60 68
-4.692911 19.539257 54.575813 84 61 70
-4.583381 19.313026 53.302052 83 60 68
-4.510500 19.119003 52.454491 83 60 66
-4.918966 22.206850 57.204704 75 56 65
-5.295624 -4.618392 63.168602 111 112 131
-5.262037 -4.318487 62.767956 112 115 133
-5.228873 -4.156816 62.372356 112 115 134
-5.228873 -3.753455 62.372356 112 116 137
-5.228873 -3.619001 62.372356 112 117 136
-5.217911 -3.477242 62.241596 112 117 136
-5.174519 -3.315269 61.723995 112 116 135
-5.131842 -3.155968 61.214931 113 115 135
-5.121283 -3.017787 61.088974 114 115 135
-4.321082 -1.768480 51.543823 112 110 133
-4.276535 -1.640283 51.012444 111 110 132
-4.211410 -1.507013 50.235603 110 109 131
-4.162113 -1.382349 49.647564 108 108 129
-5.089864 0.927107 60.714195 109 109 127
-5.079476 1.055827 60.590290 109 109 127
-5.069131 1.184023 60.466888 109 108 125
-5.079476 1.317052 60.590290 108 108 123
-5.048567 1.438855 60.221588 108 108 121
-4.977887 1.546711 59.378483 108 108 119
-4.938380 1.661420 58.907227 107 107 117
-4.958055 1.795529 59.141918 106 107 116
-4.948197 1.919196 59.024338 105 107 115
-4.889869 2.022309 58.328571 105 107 115
-4.909159 2.156520 58.558662 106 106 114
-4.899495 2.404243 58.443390 109 107 117
-4.967951 2.821069 59.259964 114 110 121
-5.018031 2.978539 59.857342 115 110 122
-6.269379 4.204926 74.783989 118 109 121
-6.222358 4.333389 74.223106 117 109 119
-6.237953 4.504650 74.409126 117 109 119
-6.222358 4.653389 74.223106 116 110 119
-6.237953 4.825452 74.409126 114 110 118
-6.253626 4.998381 74.596085 112 109 119
-6.253626 5.159184 74.596085 111 109 119
-6.222358 5.293389 74.223106 112 109 120
-6.191401 5.426258 73.853836 112 108 122
-6.253626 5.641597 74.596085 113 107 124
-6.130403 5.688067 73.126213 113 107 124
-5.643863 5.962257 67.322548 117 112 126
-5.643863 6.107382 67.322548 119 114 128
-5.643863 6.252507 67.322548 121 116 129
-5.631094 6.383157 67.170235 122 116 131
-5.618382 6.513218 67.018608 122 116 131
-5.631094 6.672750 67.170235 121 114 131
-5.618382 6.802157 67.018608 119 112 130
-5.631094 6.962343 67.170235 118 109 129
-5.631094 7.107139 67.170235 117 107 128
-5.631094 7.251935 67.170235 116 106 127
-5.618382 7.380035 67.018608 116 106 128
-5.593131 7.490686 66.717400 116 107 128
-5.494356 7.923522 65.539169 115 109 124
-5.434374 7.976758 64.823669 115 107 122
-5.387323 8.046224 64.262428 115 107 121
-5.364102 8.149473 63.985435 115 108 121
-5.329643 8.234166 63.574394 116 108 122
-5.422534 8.517115 64.682442 117 109 123
-5.446266 8.694432 64.965523 117 110 123
-5.506512 8.932202 65.684166 117 110 123
-5.494356 9.053765 65.539169 116 111 124
-5.506512 9.215388 65.684166 116 112 126
-5.530985 9.398568 65.976097 116 112 126
-5.518722 9.519635 65.829803 114 110 124
-5.506512 9.640167 65.684166 112 108 123
-5.555677 9.869097 66.270630 110 105 121
-5.580591 10.056850 66.567810 109 104 119
-5.593131 10.223270 66.717400 108 102 118
-5.605728 10.390440 66.867661 107 101 118
-5.605728 10.534584 66.867661 107 101 119
-5.828907 11.253760 69.529839 107 102 121
-5.721709 11.193921 68.251129 106 103 121
-5.734892 11.367179 68.408394 107 103 120
-5.721709 11.488173 68.251129 107 103 119
-5.682519 11.993962 67.783661 108 102 117
-5.708586 12.195769 68.094589 107 102 114
-5.708586 12.342559 68.094589 105 99 112
-5.695523 12.460768 67.938766 103 97 110
-5.682519 12.578437 67.783661 101 95 108
-5.708586 12.782926 68.094589 99 92 105
-5.631094 12.898994 67.170235 98 89 103
-5.593131 12.955855 66.717400 98 88 103
-5.555677 13.011954 66.270630 98 86 103
-5.555677 13.154811 66.270630 99 85 103
-5.605728 13.417467 66.867661 100 85 104
-5.669575 13.716072 67.629250 99 85 104
-5.643863 13.798992 67.322548 97 82 102
-5.631094 16.374107 67.170235 96 72 86
-5.543303 16.261372 66.123032 94 70 85
-5.494356 16.259064 65.539169 93 69 84
-5.580591 16.657747 66.567810 92 68 83
-5.593131 23.167091 66.717400 83 62 68
-4.609154 19.683992 54.980080 84 62 70
-4.452493 19.243927 53.111347 83 61 68
-4.786429 22.164145 57.094696 74 56 63
-5.041462 -5.044999 61.723995 107 114 134
-5.137592 -4.598823 62.900936 112 114 135
-5.105144 -4.165567 62.503666 113 116 137
-5.094419 -3.887909 62.372356 113 117 137
-5.073103 -3.737750 62.111385 113 117 138
-5.083739 -3.611414 62.241596 113 117 137
-5.083739 -3.477242 62.241596 113 117 136
-5.031003 -3.308391 61.595940 113 117 135
-4.999883 -3.155968 61.214931 113 117 135
-4.989595 -3.017787 61.088974 113 117 134
-4.224640 -1.774642 51.723419 114 113 133
-4.188158 -1.648782 51.276756 112 111 132
-4.110074 -1.509567 50.320751 111 110 131
-4.948864 0.925215 60.590290 108 108 127
-4.938785 1.053677 60.466888 108 108 126
-4.918749 1.179220 60.221588 107 107 124
-4.918749 1.309037 60.221588 107 107 122
-4.888999 1.430152 59.857342 106 106 119
-4.820961 1.537486 59.024338 106 106 117
-4.801868 1.658130 58.790577 105 106 116
-4.801868 1.784862 58.790577 104 106 116
-4.801868 1.911595 58.790577 103 106 115
-4.754791 2.018344 58.214199 103 106 115
-4.745486 2.139639 58.100277 105 106 116
-4.801868 2.291793 58.790577 107 107 117
-4.773510 2.404243 58.443390 110 108 119
-4.820961 2.682615 59.024338 114 111 122
-4.830564 2.815449 59.141918 115 111 122
-4.879162 2.972546 59.736904 116 111 122
-6.108170 4.204926 74.783989 119 108 119
-6.047240 4.322582 74.038010 118 108 118
-6.077552 4.504650 74.409126 119 111 120
-6.077552 4.665051 74.409126 123 116 124
-6.077552 4.825452 74.409126 121 116 125
-6.092823 4.998381 74.596085 114 111 121
-6.092823 5.159184 74.596085 112 109 120
-6.062358 5.293389 74.223106 112 109 121
-6.047240 5.439789 74.038010 112 109 123
-6.108170 5.655807 74.783989 112 109 125
-5.473913 6.368748 67.018608 122 118 133
-5.461584 6.498549 66.867661 122 117 133
-5.473913 6.657687 67.018608 122 115 132
-5.461584 6.786837 66.867661 121 113 131
-5.473913 6.946626 67.018608 120 111 130
-5.461584 7.075125 66.867661 119 110 130
-5.461584 7.219269 66.867661 119 109 130
-5.461584 7.363413 66.867661 118 108 129
-5.376814 7.816753 65.829803 114 109 124
-5.329546 7.888693 65.251083 114 109 123
-5.271616 7.942077 64.541832 114 108 122
-5.192598 7.960076 63.574394 114 107 121
-5.170455 8.062592 63.303288 114 108 121
-5.159454 8.181607 63.168602 115 108 122
-5.294636 8.535710 64.823669 116 110 123
-5.306222 8.694432 64.965523 117 111 124
-5.353076 8.912484 65.539169 117 111 124
-5.341285 9.033823 65.394806 116 112 124
-5.353076 9.195045 65.539169 115 112 125
-5.364919 9.356981 65.684166 114 111 125
-5.364919 9.498574 65.684166 113 110 124
-5.353076 9.618886 65.539169 111 109 123
-5.388763 9.825234 65.976097 111 107 122
-5.412820 10.011954 66.270630 110 105 121
-5.449311 10.223270 66.717400 108 103 120
-5.449311 10.367091 66.717400 107 102 120
-5.424929 10.463882 66.418884 107 102 121
-5.536400 12.286200 67.783661 105 100 112
-5.511235 12.375808 67.475548 103 98 111
-5.536400 12.724556 67.783661 99 93 107
-5.486297 12.898994 67.170235 97 90 104
-5.449311 12.955855 66.717400 97 88 103
-5.400765 12.982974 66.123032 97 87 103
-5.388763 13.096346 65.976097 98 85 103
-5.574583 13.842196 68.251129 97 84 102
-5.549069 13.925299 67.938766 95 82 100
-5.412820 16.297668 66.270630 94 70 86
-5.364919 16.295034 65.684166 93 68 85
-5.561797 18.214119 68.094589 88 62 78
-5.449311 23.167091 66.717400 85 62 68
-6.589520 30.101509 80.677292 78 60 63
-4.672338 22.206850 57.204704 74 56 62
-4.939212 -5.076662 62.111385 109 118 137
-5.033994 -4.764700 63.303288 112 116 138
-4.970407 -4.165567 62.503666 115 117 139
-4.959965 -3.887909 62.372356 115 117 139
-4.928901 -3.729947 61.981716 115 118 138
-4.918632 -3.588843 61.852589 114 118 137
-4.918632 -3.455509 61.852589 114 118 136
-4.867925 -3.287927 61.214931 113 118 135
-4.847933 -3.143007 60.963535 113 118 135
-4.105989 -1.660251 51.633465 112 113 131
-4.001599 -1.509567 50.320751 111 112 129
-4.788932 0.919585 60.221588 108 108 126
-4.779238 1.047278 60.099682 107 107 125
-4.750389 1.169729 59.736904 106 106 123
-4.740850 1.295895 59.616951 105 105 120
-4.721887 1.418711 59.378483 104 105 118
-4.684412 1.534436 58.907227 103 105 116
-4.665896 1.654853 58.674393 102 105 116
-4.665896 1.781335 58.674393 103 106 116
-4.665896 1.907817 58.674393 102 105 116
-4.638396 2.022309 58.328571 102 104 115
-4.647526 2.152275 58.443390 105 106 118
-4.647526 2.404243 58.443390 111 109 122
-4.693724 2.682615 59.024338 115 112 124
-4.693724 2.809852 59.024338 117 112 125
-4.712462 2.948813 59.259964 118 111 124
-5.932018 4.194360 74.596085 119 107 118
-5.872993 4.311830 73.853836 118 108 117
-5.917151 4.504650 74.409126 122 113 121
-5.917151 4.665051 74.409126 133 125 134
-5.917151 4.825452 74.409126 134 129 138
-5.932018 4.998381 74.596085 120 116 127
-5.932018 5.159184 74.596085 111 108 120
-5.902359 5.293389 74.223106 113 109 123
-5.887640 5.439789 74.038010 113 111 125
-5.293595 6.325909 66.567810 123 120 134
-5.293595 6.469407 66.567810 123 119 134
-5.317440 6.642693 66.867661 123 117 133
-5.293595 6.756402 66.567810 123 115 133
-5.305490 6.915406 66.717400 122 114 132
-5.269963 7.011954 66.270630 121 112 132
-5.246541 7.123012 65.976097 120 112 132
-5.258226 7.281415 66.123032 120 111 131
-5.154898 7.837021 64.823669 114 110 124
-5.077298 7.856678 63.847832 114 110 123
-5.012619 7.892475 63.034485 113 109 123
-5.001998 8.011346 62.900936 113 109 123
-4.991424 8.129716 62.767956 114 110 123
-5.154898 8.535710 64.823669 114 110 124
-5.166178 8.694432 64.965523 115 111 124
-5.211795 8.912484 65.539169 116 112 125
-5.200316 9.033823 65.394806 116 112 125
-5.200316 9.174791 65.394806 115 112 125
-5.200316 9.315761 65.394806 113 112 125
-5.200316 9.456730 65.394806 112 111 124
-5.200316 9.597699 65.394806 111 109 123
-5.234908 9.803449 65.829803 111 108 122
-5.258226 9.989655 66.123032 110 106 122
-5.281753 10.177529 66.418884 110 105 121
-5.281753 10.320705 66.418884 109 104 122
-5.234908 10.371077 65.829803 109 103 123
-5.305490 12.812035 66.717400 98 89 104
-5.293595 12.926806 66.567810 97 87 103
-5.258226 12.982974 66.123032 97 86 102
-5.223326 13.038397 65.684166 97 85 102
-5.452525 13.906133 68.566376 96 83 101
-5.365780 16.448536 67.475548 95 72 87
-5.281753 16.334129 66.418884 94 71 87
-5.223326 16.295034 65.684166 93 69 86
-6.450665 30.265999 81.118149 79 60 65
-6.279105 29.631264 78.960747 79 60 65
-4.961001 -4.826446 64.123634 114 118 141
-4.907999 -4.638129 63.438553 115 118 142
-4.612336 1.038866 59.616951 106 105 123
-4.593887 1.162711 59.378483 104 104 120
-4.584717 1.288135 59.259964 103 103 118
-4.575584 1.413059 59.141918 101 103 117
-4.548403 1.531397 58.790577 100 103 116
-4.530460 1.651589 58.558662 100 104 115
-4.530460 1.777821 58.558662 102 106 117
-4.530460 2.156520 58.558662 107 107 121
-4.557427 2.296340 58.907227 110 109 124
-4.539414 2.413746 58.674393 112 111 125
-4.566488 2.682615 59.024338 116 112 127
-4.557427 2.804277 58.907227 117 112 126
-4.557427 2.931261 58.907227 118 111 124
-5.785751 4.204926 74.783989 119 108 117
-5.728038 4.322582 74.038010 118 108 117
-5.756750 4.504650 74.409126 123 114 123
-5.756750 4.665051 74.409126 141 134 143
-5.756750 4.825452 74.409126 146 141 151
-5.771214 4.998381 74.596085 126 122 134
-5.771214 5.159184 74.596085 112 108 121
-5.742358 5.293389 74.223106 113 110 123
-5.728038 5.439789 74.038010 115 112 126
-5.127106 6.726240 66.270630 123 117 135
-5.115687 6.853798 66.123032 123 116 134
-5.081733 6.949902 65.684166 122 115 134
-4.887114 7.773097 63.168602 113 111 125
-4.835670 7.826012 62.503666 112 110 125
-4.835670 7.960748 62.503666 113 110 125
-4.825511 8.078478 62.372356 113 110 126
-5.015160 8.535710 64.823669 113 111 126
-5.026134 8.694432 64.965523 114 111 126
-5.070515 8.912484 65.539169 115 112 126
-5.048227 9.013968 65.251083 115 112 126
-5.048227 9.154628 65.251083 114 112 126
-5.048227 9.295287 65.251083 113 112 126
-5.048227 9.435946 65.251083 112 111 125
-5.059347 9.597699 65.394806 111 109 124
-5.093001 9.803449 65.829803 111 108 123
-5.115687 9.989655 66.123032 111 107 123
-5.138576 10.177529 66.418884 111 106 124
-5.115687 10.274734 66.123032 110 105 124
-5.104319 12.954123 65.976097 97 86 102
-5.070515 13.009615 65.539169 97 85 102
-5.220326 15.866717 67.475548 96 72 83
-5.280330 16.490473 68.251129 96 74 89
-5.232217 16.486004 67.629250 95 72 89
-5.161671 16.407541 66.717400 94 71 89
-5.127106 16.440525 66.270630 92 70 87
-4.293352 19.867954 55.493912 85 63 70
-6.275802 30.265999 81.118149 78 60 65
-6.092688 29.552668 78.751305 78 60 65
-4.661677 -5.333287 61.981716 111 120 137
-4.456973 1.032646 59.259964 106 104 122
-4.439251 1.155776 59.024338 103 102 120
-4.430443 1.280467 58.907227 101 101 118
-4.430443 1.407451 58.907227 100 102 117
-4.395558 1.522353 58.443390 99 102 116
-4.386922 1.645099 58.328571 99 103 115
-4.386922 1.770836 58.328571 101 105 117
-4.395558 2.152275 58.443390 108 109 125
-4.421670 2.291793 58.790577 111 110 128
-4.404228 2.408985 58.558662 113 112 129
-4.430443 2.677293 58.907227 116 112 128
-4.421670 2.798724 58.790577 117 112 126
-4.421670 2.925456 58.790577 117 111 124
-5.638746 4.215544 74.972832 119 110 120
-5.582358 4.333389 74.223106 118 110 120
-5.610410 4.515968 74.596085 123 116 125
-5.596349 4.665051 74.409126 138 132 142
-5.596349 4.825452 74.409126 144 139 149
-5.610410 4.998381 74.596085 128 124 135
-5.610410 5.159184 74.596085 115 112 124
-5.596349 5.306655 74.409126 115 112 124
-5.582358 5.453389 74.223106 116 113 126
-4.651965 8.011157 61.852589 112 110 127
-4.875422 8.675448 64.823669 112 111 127
-4.918377 8.892854 65.394806 113 111 127
-4.907568 9.013968 65.251083 113 112 126
-4.896806 9.134551 65.107986 113 112 126
-4.896806 9.274902 65.107986 113 112 126
-4.886090 9.394650 64.965523 112 110 125
-4.918377 9.597699 65.394806 111 109 124
-4.951094 9.803449 65.829803 112 108 124
-4.984249 10.011954 66.270630 111 107 124
-4.995399 10.177529 66.418884 111 106 124
-4.951094 10.229170 65.829803 111 106 125
-5.086432 15.902860 67.629250 96 72 86
-5.145031 16.528469 68.408394 97 75 91
-5.086432 16.486004 67.629250 94 73 90
-5.029152 16.444494 66.867661 93 72 89
-4.984249 16.440525 66.270630 92 71 88
-5.406642 18.453646 71.886787 89 65 83
-4.173726 19.867954 55.493912 85 62 71
-6.307750 31.111174 83.867912 80 61 67
-6.117653 30.348919 81.340393 79 60 66
-5.938679 29.631264 78.960747 79 59 66
-4.499883 -5.300092 61.595940 113 120 137
-4.131320 -3.646942 56.550938 118 120 142
-4.123466 -3.518336 56.443428 119 121 141
-4.163039 -3.429260 56.985111 119 121 140
-4.155064 -3.300085 56.875942 117 120 137
-4.147119 -3.171404 56.767193 116 120 136
-4.312015 1.028540 59.024338 105 103 121
-4.294937 1.151199 58.790577 102 101 119
-4.277995 1.272890 58.558662 100 101 117
-4.286449 1.401888 58.674393 99 101 117
-4.252830 1.516383 58.214199 99 102 117
-4.236217 1.635460 57.986801 101 103 118
-4.252830 1.767364 58.214199 102 105 120
-4.236217 2.010460 57.986801 107 108 126
-4.244508 2.139639 58.100277 109 109 127
-4.261185 2.273783 58.328571 110 110 129
-4.261185 2.399520 58.328571 112 110 129
-4.269574 2.530227 58.443390 112 110 129
-4.277995 2.661451 58.558662 114 111 127
-4.277995 2.787683 58.558662 115 111 126
-4.277995 2.913916 58.558662 116 111 125
-4.261185 3.028203 58.328571 118 112 125
-5.477129 4.215544 74.972832 120 113 124
-5.422359 4.333389 74.223106 121 115 126
-5.449606 4.515968 74.596085 123 118 129
-5.449606 4.676773 74.596085 129 124 135
-5.449606 4.837576 74.596085 130 126 137
-5.449606 4.998381 74.596085 123 120 130
-5.449606 5.159184 74.596085 117 114 125
-5.435948 5.306655 74.409126 116 114 125
-5.435948 5.467056 74.409126 116 115 126
-4.481288 7.944949 61.341408 110 110 128
-4.704866 8.618993 64.401825 111 111 128
-4.756455 8.853849 65.107986 112 111 127
-4.735684 8.954925 64.823669 112 111 126
-4.735684 9.094663 64.823669 112 111 126
-4.725367 9.214282 64.682442 111 110 125
-4.704866 9.313135 64.401825 111 109 124
-4.766909 9.576606 65.251083 110 107 123
-4.787954 9.760166 65.539169 111 106 122
-4.830609 9.989655 66.123032 111 106 122
-4.756455 9.976657 65.107986 111 105 124
-4.963257 15.389830 67.938766 97 70 83
-4.940646 15.757074 67.629250 97 71 87
-4.940646 15.902860 67.629250 98 73 90
-4.940646 16.048645 67.629250 98 74 92
-4.997565 16.528469 68.408394 97 75 92
-4.940646 16.486004 67.629250 95 74 91
-4.874030 16.407541 66.717400 94 73 90
-4.819874 16.367456 65.976097 93 73 89
-5.213806 18.320566 71.368370 89 67 83
-4.819874 22.909679 65.976097 88 61 73
-6.161771 31.287941 84.344437 81 61 68
-5.975050 30.516130 81.788544 80 60 67
-5.783849 29.710281 79.171310 80 59 66
-4.340089 -5.267308 61.214931 115 120 138
-4.304588 -5.093343 60.714195 115 122 139
-4.243837 -4.892428 59.857342 116 123 140
-4.193114 -4.706463 59.141918 116 123 141
-4.017067 -3.653902 56.658859 117 121 141
-4.009416 -3.525037 56.550938 117 121 140
-4.032458 -3.422691 56.875942 117 121 139
-4.032458 -3.300085 56.875942 117 121 138
-4.017067 -3.165352 56.658859 116 121 137
-4.009416 -3.037418 56.550938 116 122 137
-3.956661 -0.230535 55.806847 108 113 129
-3.949237 0.010048 55.702145 110 113 128
-3.934474 0.129636 55.493912 110 112 127
-3.986635 0.373779 56.229626 111 110 128
-4.184778 1.028540 59.024338 105 103 122
-4.151762 1.146658 58.558662 102 101 119
-4.119263 1.262927 58.100277 100 101 117
-4.143589 1.396369 58.443390 99 102 117
-4.103203 1.507516 57.873768 101 104 119
-4.079348 1.622782 57.537292 103 105 121
-4.127340 1.767364 58.214199 105 107 124
-4.135448 1.896573 58.328571 106 107 126
-4.119263 2.014394 58.100277 107 107 127
-4.111217 2.135460 57.986801 109 108 128
-4.103203 2.256053 57.873768 110 109 128
-4.111217 2.385460 57.986801 111 109 128
-4.103203 2.505566 57.873768 111 109 128
-4.135448 2.650993 58.328571 112 110 126
-4.135448 2.776730 58.328571 113 111 126
-4.143589 2.908180 58.443390 115 112 126
-4.119263 3.016351 58.100277 117 113 127
-5.315514 4.215544 74.972832 121 117 129
-5.262358 4.333389 74.223106 123 119 131
-5.275548 4.504650 74.409126 124 121 132
-5.275548 4.665051 74.409126 123 120 132
-5.275548 4.825452 74.409126 122 119 130
-5.275548 4.985853 74.409126 120 117 128
-5.275548 5.146255 74.409126 118 115 127
-5.275548 5.306655 74.409126 118 116 127
-5.275548 5.467056 74.409126 118 116 127
-4.151762 6.700898 58.558662 117 119 132
-4.135448 6.800305 58.328571 115 118 131
-4.176475 6.994753 58.907227 113 116 129
-4.159967 7.093588 58.674393 111 114 128
-4.218323 7.577867 59.497478 109 109 127
-4.546314 8.581761 64.123634 111 110 128
-4.585933 8.795981 64.682442 112 111 127
-4.575964 8.915990 64.541832 112 110 127
-4.575964 9.055120 64.541832 111 109 126
-4.556154 9.154449 64.262428 110 109 124
-4.517046 9.213209 63.710819 110 107 123
-4.606003 9.534695 64.965523 110 106 122
-4.616104 9.695955 65.107986 110 105 122
-4.269662 9.487536 60.221588 109 105 124
-4.135448 9.440777 58.328571 107 105 124
-4.850100 15.348745 68.408394 100 73 87
-4.816804 15.389830 67.938766 99 71 87
-4.805807 15.500812 67.783661 98 70 87
-4.805807 15.646931 67.783661 98 70 88
-4.816804 15.829188 67.938766 98 72 91
-4.816804 15.975642 67.938766 98 73 93
-4.805807 16.085287 67.783661 98 74 94
-4.827852 16.305861 68.094589 97 74 93
-4.838950 16.490473 68.251129 96 74 92
-4.783962 16.448536 67.475548 95 74 91
-4.730210 16.407541 66.717400 95 74 90
-4.688070 16.403910 66.123032 94 74 89
-5.011770 18.146084 70.688675 89 69 83
-4.385299 20.944490 61.852589 88 62 72
-4.385299 21.211157 61.852589 88 62 74
-5.830868 30.685196 82.241669 82 60 67
-5.628191 29.789721 79.383003 82 60 66
-4.340089 23.763620 61.214931 77 56 62
-4.148259 -5.062285 60.343987 118 122 139
-4.057541 -4.824343 59.024338 117 123 140
-3.994018 -4.498326 58.100277 116 123 140
-3.986217 -4.364540 57.986801 116 122 142
-3.909853 -3.667902 56.875942 116 122 141
-3.894930 -3.531764 56.658859 116 122 140
-3.917358 -3.429260 56.985111 116 122 139
-3.917358 -3.306419 56.985111 116 122 138
-3.894930 -3.165352 56.658859 116 122 138
-3.880121 -3.031644 56.443428 116 122 138
-4.208131 -2.232257 61.214931 117 116 131
-3.836360 -0.350836 55.806847 109 114 130
-3.829162 -0.230102 55.702145 109 114 130
-3.836360 -0.110234 55.806847 110 114 129
-3.829162 0.010048 55.702145 112 114 129
-3.829162 0.130123 55.702145 112 113 129
-3.865423 0.373779 56.229626 111 110 128
-3.829162 0.490348 55.702145 111 109 128
-4.017605 1.144400 58.443390 103 103 121
-3.962997 1.253117 57.649014 102 103 119
-4.009712 1.393626 58.328571 102 103 119
-3.970707 1.504583 57.761173 103 105 120
-3.947666 1.619643 57.425999 105 107 122
-4.017605 1.774322 58.443390 107 108 125
-4.017605 1.900306 58.443390 106 107 126
-4.009712 2.022309 58.328571 106 106 126
-3.994018 2.139639 58.100277 109 108 128
-3.978447 2.256053 57.873768 110 109 129
-3.994018 2.390128 58.100277 111 109 128
-3.994018 2.515373 58.100277 111 110 127
-4.009712 2.650993 58.328571 112 111 127
-4.009712 2.776730 58.328571 113 113 127
-4.009712 2.902467 58.328571 115 114 128
-3.978447 3.004591 57.873768 117 116 130
-5.115146 4.344249 74.409126 121 120 133
-5.127998 4.515968 74.596085 122 121 133
-5.127998 4.676773 74.596085 121 119 131
-5.127998 4.837576 74.596085 120 118 130
-5.127998 4.998381 74.596085 120 118 130
-5.127998 5.159184 74.596085 120 118 130
-5.127998 5.319989 74.596085 121 119 129
-5.115146 5.467056 74.409126 121 119 129
-4.033485 5.702283 58.674393 124 124 137
-4.057541 6.626949 59.024338 119 120 134
-4.025529 6.700898 58.558662 117 119 133
-4.009712 6.800305 58.328571 115 118 131
-4.033485 6.967106 58.674393 113 116 128
-4.025529 7.079597 58.558662 110 114 127
-4.033485 7.220070 58.674393 109 111 126
-4.041472 7.361100 58.790577 108 109 126
-4.090067 7.577867 59.497478 109 108 127
-4.370328 8.508256 63.574394 112 111 128
-4.389125 8.682485 63.847832 112 112 127
-4.398585 8.839128 63.985435 112 112 127
-4.408085 8.996449 64.123634 112 110 126
-4.389125 9.095388 63.847832 111 109 124
-4.360990 9.173837 63.438553 110 108 122
-4.436833 9.472512 64.541832 110 106 121
-4.446500 9.632583 64.682442 110 105 122
