ply
format ascii 1.0
element vertex 1242
property float x
property float y
property float z
property uchar red
property uchar green
property uchar blue
end_header
-9.606710 -2.349986 78.335732 22 17 18
-9.606710 -2.181120 78.335732 21 17 17
-9.581429 -2.006959 78.129585 21 16 17
-9.556282 -1.833713 77.924522 21 17 17
-9.531265 -1.661373 77.720528 22 18 18
-9.531265 -1.493834 77.720528 23 18 18
-9.531265 -1.326295 77.720528 24 18 18
-9.383875 -1.140836 76.518669 26 19 19
-9.311875 -0.968400 75.931564 27 20 21
-9.240973 -0.798590 75.353409 29 21 22
-9.264487 -0.637772 75.545143 31 23 23
-9.311875 -0.477352 75.931564 34 24 24
-9.288121 -0.312869 75.737862 36 26 26
-9.288121 -0.149603 75.737862 39 28 28
-9.264487 0.013627 75.545143 43 30 31
-9.217578 0.175583 75.162636 47 33 34
-9.240973 0.338466 75.353409 51 35 38
-9.240973 0.500902 75.353409 55 36 41
-9.217578 0.661659 75.162636 57 37 43
-9.240973 0.825775 75.353409 59 37 45
-9.288121 0.993254 75.737862 61 37 45
-9.264487 1.153576 75.545143 62 38 45
-9.217578 1.309761 75.162636 63 39 44
-9.217578 1.471786 75.162636 63 39 42
-9.148099 1.621496 74.596085 62 38 40
-9.148099 1.782300 74.596085 60 37 37
-9.217578 1.957862 75.162636 57 35 34
-9.171142 2.270417 74.783989 53 30 29
-9.125172 2.419437 74.409126 52 29 29
-9.012236 2.547909 73.488220 52 30 30
-9.359752 4.784976 76.321960 45 28 27
-9.335752 4.936809 76.126259 44 28 26
-9.359752 5.114024 76.321960 44 28 27
-9.383875 5.292153 76.518669 44 28 26
-9.311875 5.415231 75.931564 44 28 26
-9.171142 5.494598 74.783989 45 28 27
-9.217578 5.684444 75.162636 45 28 27
-9.079659 5.758991 74.038010 45 28 27
-9.012236 5.874642 73.488220 45 29 27
-8.989984 6.018162 73.306770 45 29 27
-9.012236 6.191474 73.488220 44 29 27
-9.012236 6.349890 73.488220 43 28 26
-6.948365 5.750679 56.658859 39 26 25
-6.818246 5.762838 55.597832 38 26 24
-9.125172 9.156280 74.409126 45 27 29
-9.148099 9.340089 74.596085 46 28 29
-9.079659 9.429814 74.038010 47 29 30
-3.828542 4.312676 31.218971 45 29 28
-3.812506 4.361629 31.088211 43 28 27
-3.428384 4.404290 27.955973 35 26 24
-3.386924 4.410563 27.617899 35 26 24
-11.632407 16.988356 94.853806 34 22 21
-11.558550 17.083668 94.251564 34 22 21
-11.669690 17.453062 95.157829 33 22 21
-8.256107 13.073368 67.322548 31 22 20
-8.237429 13.188587 67.170235 32 22 20
-8.181895 13.243495 66.717400 32 22 19
-8.200323 13.417467 66.867661 32 22 19
-5.584269 10.118644 45.535648 32 23 22
-5.550219 10.154506 45.257992 33 23 22
-11.558550 21.756683 94.251564 29 20 19
-11.413615 21.684500 93.069725 28 20 19
-10.198721 24.216682 83.163147 29 20 17
-10.198721 24.395954 83.163147 29 20 17
-10.113731 24.370432 82.470116 29 20 17
-10.057855 24.589380 82.014481 29 21 17
-9.893867 24.362379 80.677292 29 21 18
-9.840387 24.403664 80.241196 29 21 18
-9.813864 24.510391 80.024910 29 21 17
-9.735143 24.484907 79.383003 28 20 17
-6.895726 18.070749 56.229626 29 22 19
-6.831038 18.021305 55.702145 28 21 19
-6.856767 18.330236 55.911945 27 21 19
-6.792805 18.278648 55.390377 27 21 19
-8.496303 -9.108419 70.520767 14 14 12
-8.456131 -8.914053 70.187332 15 15 12
-8.456131 -8.762753 70.187332 16 15 12
-8.476169 -8.480201 70.353653 15 14 9
-8.476169 -8.328542 70.353653 13 12 8
-4.926919 -4.400337 40.894272 10 9 6
-3.602159 -3.023811 29.898531 13 9 6
-3.602159 -2.959360 29.898531 13 9 7
-3.594918 -2.889090 29.838434 14 9 8
-9.218926 -6.089290 76.518669 15 11 10
-9.290762 -5.970505 77.114914 15 11 10
-9.314957 -5.819387 77.315735 16 12 11
-9.195227 -5.580063 76.321960 17 13 12
-9.242747 -5.443526 76.716385 18 14 13
-9.339277 -5.333275 77.517601 20 15 14
-9.363726 -5.179698 77.720528 22 17 16
-9.363726 -5.012158 77.720528 26 20 18
-9.388303 -4.857335 77.924522 29 23 22
-9.388303 -4.689356 77.924522 32 26 25
-9.413009 -4.533275 78.129585 34 28 26
-9.437845 -4.376371 78.335732 35 30 28
-9.437845 -4.207505 78.335732 35 30 29
-9.437845 -4.038640 78.335732 32 28 27
-9.487913 -3.890304 78.751305 30 25 24
-9.487913 -3.720542 78.751305 28 24 23
-9.487913 -3.550781 78.751305 27 23 22
-9.487913 -3.381020 78.751305 27 23 22
-9.487913 -3.211259 78.751305 27 23 23
-9.487913 -3.041497 78.751305 27 23 23
-9.513147 -2.879374 78.960747 26 22 22
-9.462813 -2.694827 78.542969 24 20 21
-9.462813 -2.525515 78.542969 21 17 18
-9.462813 -2.356202 78.542969 20 16 16
-9.437845 -2.181120 78.335732 20 16 16
-9.437845 -2.012255 78.335732 20 16 16
-9.437845 -1.843389 78.335732 20 17 17
-9.413009 -1.670117 78.129585 21 18 17
-9.413009 -1.501696 78.129585 22 18 18
-9.413009 -1.333275 78.129585 23 18 18
-9.266693 -1.146747 76.915138 24 18 18
-9.171650 -0.970883 76.126259 25 19 19
-9.078536 -0.798590 75.353409 27 20 19
-9.148192 -0.641035 75.931564 29 21 20
-9.171650 -0.478576 76.126259 31 22 21
-9.124855 -0.312869 75.737862 33 24 23
-9.124855 -0.149603 75.737862 36 25 25
-9.101637 0.013627 75.545143 39 27 28
-9.055552 0.175583 75.162636 43 30 32
-9.055552 0.337609 75.162636 47 33 36
-9.101637 0.502177 75.545143 51 34 39
-9.078536 0.663339 75.353409 54 36 43
-9.078536 0.825775 75.353409 57 37 46
-9.124855 0.993254 75.737862 60 38 47
-9.101637 1.153576 75.545143 62 40 48
-9.055552 1.309761 75.162636 64 41 47
-9.055552 1.471786 75.162636 65 41 46
-9.009933 1.625581 74.783989 64 40 43
-9.009933 1.786790 74.783989 62 38 40
-9.078536 1.962831 75.353409 60 36 37
-9.055552 2.119887 75.162636 57 34 34
-9.009933 2.270417 74.783989 55 31 32
-8.964770 2.419437 74.409126 54 31 31
-8.875790 2.554232 73.670578 54 31 32
-9.218926 4.962256 76.518669 45 28 26
-9.195227 5.114024 76.321960 45 29 28
-9.218926 5.292153 76.518669 45 29 28
-9.124855 5.401417 75.737862 45 29 28
-9.009933 5.494598 74.783989 46 29 28
-9.055552 5.684444 75.162636 46 29 28
-8.920058 5.758991 74.038010 46 28 28
-8.853820 5.874642 73.488220 46 29 28
-8.831959 6.018162 73.306770 46 30 28
-8.875790 6.206837 73.670578 46 29 28
-8.875790 6.365646 73.670578 45 29 27
-8.831959 6.492236 73.306770 43 28 26
-8.875790 7.000882 73.670578 42 27 25
-8.831959 8.072483 73.306770 39 25 25
-8.831959 8.388532 73.306770 43 26 26
-8.810205 8.525506 73.126213 45 28 28
-8.920058 9.110612 74.038010 46 28 30
-9.009933 9.363616 74.783989 47 28 31
-8.942358 9.453388 74.223106 48 30 31
-3.765203 4.317216 31.251833 48 30 30
-3.741573 4.357066 31.055693 45 29 28
-3.368120 4.404290 27.955973 36 26 24
-3.321210 4.402373 27.566612 36 26 24
-3.308921 4.445287 27.464609 35 26 24
-3.284613 4.471401 27.262848 34 25 23
-3.260659 4.497134 27.064032 33 25 22
-3.231205 4.514323 26.819550 32 24 21
-8.092632 12.898994 67.170235 32 22 21
-8.092632 13.043791 67.170235 32 22 21
-8.074365 13.158816 67.018608 32 22 21
-8.038074 13.243495 66.717400 32 22 21
-8.074365 13.447755 67.018608 32 22 20
-5.502990 10.149777 45.675758 32 23 22
-5.486109 10.216803 45.535648 33 23 22
-11.391540 21.825974 94.551727 29 19 19
-9.908430 24.302923 82.241669 29 21 17
-9.719954 24.362379 80.677292 29 22 18
-9.589661 24.207388 79.595825 29 22 18
-9.641356 24.510391 80.024910 29 21 18
-9.589661 24.550550 79.595825 29 21 18
-6.673402 17.323425 55.390377 29 20 19
-6.748950 18.123312 56.017437 28 21 19
-6.698396 18.107407 55.597832 28 22 20
-6.761708 18.399538 56.123333 28 21 19
-6.685875 18.312815 55.493912 28 21 19
-6.673402 18.398050 55.390377 28 21 20
-8.344283 -8.956400 70.520767 14 14 11
-8.364151 -8.520582 70.688675 14 13 8
-8.344283 -8.348325 70.520767 12 12 7
-3.534148 -3.020769 29.868452 12 9 6
-3.537707 -2.959360 29.898531 13 9 7
-3.534148 -2.891997 29.868452 14 10 8
-9.053978 -6.089290 76.518669 15 11 11
-9.100889 -5.955038 76.915138 16 12 11
-9.124528 -5.804272 77.114914 17 12 11
-9.030703 -5.580063 76.321960 18 13 12
-9.077373 -5.443526 76.716385 19 14 13
-9.172175 -5.333275 77.517601 21 16 14
-9.196187 -5.179698 77.720528 23 18 16
-9.220324 -5.025314 77.924522 27 21 19
-9.220324 -4.857335 77.924522 32 26 24
-9.220324 -4.689356 77.924522 36 30 28
-9.244588 -4.533275 78.129585 35 31 29
-9.244588 -4.364854 78.129585 34 31 29
-9.268980 -4.207505 78.335732 33 30 28
-9.268980 -4.038640 78.335732 30 28 26
-9.293501 -3.880012 78.542969 28 25 24
-9.318152 -3.720542 78.751305 27 24 22
-9.318152 -3.550781 78.751305 26 23 21
-9.293501 -3.372076 78.542969 26 23 21
-9.293501 -3.202763 78.542969 27 24 22
-9.318152 -3.041497 78.751305 26 23 22
-9.318152 -2.871736 78.751305 25 22 21
-9.293501 -2.694827 78.542969 23 19 19
-9.293501 -2.525515 78.542969 20 17 17
-9.293501 -2.356202 78.542969 18 16 15
-9.293501 -2.186890 78.542969 19 16 15
-9.293501 -2.017578 78.542969 20 17 16
-9.293501 -1.848266 78.542969 20 17 17
-9.268980 -1.674524 78.335732 21 17 17
-9.268980 -1.505658 78.335732 21 17 17
-9.268980 -1.336793 78.335732 22 17 16
-9.077373 -1.143784 76.716385 23 17 17
-8.984509 -0.968400 75.931564 24 18 17
-8.893527 -0.796568 75.162636 25 19 18
-9.007547 -0.642678 76.126259 27 20 19
-8.984509 -0.477352 75.931564 29 21 19
-8.938787 -0.312073 75.545143 31 22 20
-8.938787 -0.149223 75.545143 33 23 22
-8.916100 0.013593 75.353409 36 25 25
-8.848723 0.174699 74.783989 39 28 29
-8.848723 0.335908 74.783989 42 30 33
-8.938787 0.502177 75.545143 46 32 37
-8.916100 0.663339 75.353409 50 34 41
-8.916100 0.825775 75.353409 54 36 44
-8.961590 0.993254 75.737862 58 39 47
-8.938787 1.153576 75.545143 63 41 49
-8.916100 1.313085 75.353409 66 43 50
-8.893527 1.471786 75.162636 67 43 49
-8.848723 1.625581 74.783989 66 42 46
-8.848723 1.786790 74.783989 65 39 43
-8.893527 1.957862 75.162636 63 37 39
-8.893527 2.119887 75.162636 60 35 36
-8.848723 2.270417 74.783989 58 33 35
-8.804369 2.419437 74.409126 57 32 34
-8.695404 2.547909 73.488220 56 32 34
-9.053978 4.962256 76.518669 47 29 27
-9.030703 5.114024 76.321960 47 29 28
-9.030703 5.278549 76.321960 47 29 30
-8.938787 5.387673 75.545143 47 30 30
-8.848723 5.494598 74.783989 47 30 30
-8.871069 5.670090 74.972832 47 29 29
-8.760457 5.758991 74.038010 46 29 28
-8.716981 5.889220 73.670578 47 30 29
-8.695404 6.033058 73.488220 48 30 29
-8.738665 6.222277 73.853836 47 30 29
-8.716981 6.365646 73.670578 46 30 28
-8.695404 6.508306 73.488220 45 29 27
-8.716981 7.000882 73.670578 43 28 27
-8.760457 7.195400 74.038010 42 27 27
-8.738665 7.973521 73.853836 40 25 26
-8.673934 8.072483 73.306770 40 25 25
-8.652570 8.210236 73.126213 41 25 25
-8.652570 8.367870 73.126213 44 26 26
-8.652570 8.525506 73.126213 46 28 28
-8.673934 8.704581 73.306770 46 28 29
-8.695404 8.884543 73.488220 47 29 30
-8.716981 9.065398 73.670578 47 29 31
-8.782358 9.293388 74.223106 48 29 32
-8.738665 9.406357 73.853836 48 31 32
-3.255740 4.394213 27.515516 37 26 24
-3.246713 4.441179 27.439226 35 26 24
-3.231779 4.479628 27.313011 34 26 23
-3.205240 4.501237 27.088724 33 25 22
-3.170527 4.510249 26.795345 32 25 21
-3.076133 4.488052 25.997585 33 24 21
-7.858934 12.468357 66.418884 35 23 22
-7.858934 12.611533 66.418884 34 22 22
-7.912035 12.840891 66.867661 33 22 22
-7.929895 13.014346 67.018608 33 23 22
-7.929895 13.158816 67.018608 32 23 22
-7.912035 13.273323 66.867661 32 23 21
-7.947835 13.478180 67.170235 32 22 21
-9.392897 24.484907 79.383003 30 21 19
-6.578546 17.388306 55.597832 29 20 20
-6.729776 18.278460 56.875942 29 21 20
-6.665926 18.226480 56.336323 29 22 20
-6.615713 18.209709 55.911945 29 22 20
-6.678599 18.504478 56.443428 29 22 20
-6.603277 18.416082 55.806847 29 22 20
-6.628195 18.606331 56.017437 29 22 20
-6.653302 18.798021 56.229626 30 23 21
-6.603277 18.776983 55.806847 30 23 22
-8.211770 -8.977725 70.688675 13 13 10
-8.211770 -8.520582 70.688675 13 13 8
-8.172852 -8.328542 70.353653 12 12 7
-3.476758 -3.026860 29.928671 12 10 7
-3.480266 -2.900751 29.958872 14 10 8
-8.889030 -6.089290 76.518669 15 11 11
-8.935086 -5.955038 76.915138 16 12 11
-8.958295 -5.804272 77.114914 18 13 12
-8.843445 -5.565755 76.126259 20 14 12
-8.911999 -5.443526 76.716385 21 15 13
-9.005075 -5.333275 77.517601 23 16 14
-9.028647 -5.179698 77.720528 25 18 16
-9.052344 -5.025314 77.924522 30 23 20
-9.052344 -4.857335 77.924522 36 30 27
-9.052344 -4.689356 77.924522 40 35 32
-9.076167 -4.533275 78.129585 39 34 31
-9.076167 -4.364854 78.129585 35 32 29
-9.100115 -4.207505 78.335732 33 29 27
-9.100115 -4.038640 78.335732 30 26 25
-9.124188 -3.880012 78.542969 27 24 23
-9.148391 -3.720542 78.751305 26 23 21
-9.148391 -3.550781 78.751305 25 23 20
-9.124188 -3.372076 78.542969 26 23 21
-9.124188 -3.202763 78.542969 27 24 21
-9.148391 -3.041497 78.751305 27 24 21
-9.124188 -2.864139 78.542969 25 22 20
-9.124188 -2.694827 78.542969 22 20 19
-9.124188 -2.525515 78.542969 20 17 17
-9.124188 -2.356202 78.542969 18 16 15
-9.124188 -2.186890 78.542969 19 16 15
-9.124188 -2.017578 78.542969 20 17 16
-9.124188 -1.848266 78.542969 20 17 17
-9.124188 -1.678954 78.542969 20 17 18
-9.100115 -1.505658 78.335732 21 17 18
-9.076167 -1.333275 78.129585 22 17 17
-8.843445 -1.134986 76.126259 22 16 17
-8.753663 -0.961027 75.353409 23 17 17
-8.622358 -0.786611 74.223106 25 18 17
-8.820827 -0.477352 75.931564 27 20 18
-8.753663 -0.311281 75.353409 29 21 19
-8.775937 -0.149223 75.545143 31 22 20
-8.753663 0.013593 75.353409 33 24 23
-8.665687 0.174260 74.596085 35 26 26
-8.643969 0.334224 74.409126 39 28 29
-8.775937 0.502177 75.545143 42 29 33
-8.753663 0.663339 75.353409 46 32 38
-8.753663 0.825775 75.353409 51 35 42
-8.798325 0.993254 75.737862 56 38 46
-8.775937 1.153576 75.545143 61 41 49
-8.753663 1.313085 75.353409 66 44 52
-8.731503 1.471786 75.162636 68 45 51
-8.687514 1.625581 74.783989 68 42 48
-8.687514 1.786790 74.783989 67 40 45
-8.731503 1.957862 75.162636 65 39 41
-8.731503 2.119887 75.162636 63 37 39
-8.687514 2.270417 74.783989 62 35 37
-8.643969 2.419437 74.409126 60 34 36
-8.558172 2.554232 73.670578 58 34 36
-8.536988 2.706326 73.488220 57 34 35
-8.889030 4.962256 76.518669 48 29 28
-8.866179 5.114024 76.321960 49 30 30
-8.843445 5.265014 76.126259 49 30 30
-8.775937 5.387673 75.545143 49 30 30
-8.665687 5.480793 74.596085 49 30 30
-8.709453 5.670090 74.972832 48 30 30
-8.600856 5.758991 74.038010 48 30 30
-8.558172 5.889220 73.670578 48 30 30
-8.536988 6.033058 73.488220 49 31 30
-8.600856 6.237794 74.038010 48 31 30
-8.579461 6.381481 73.853836 47 30 29
-8.536988 6.508306 73.488220 45 29 28
-8.515909 6.650260 73.306770 44 28 28
-8.579461 7.018297 73.853836 44 28 29
-8.579461 7.177501 73.853836 44 29 29
-8.643969 7.873071 74.409126 41 26 27
-8.579461 7.973521 73.853836 41 26 26
-8.515909 8.072483 73.306770 42 26 26
-8.494934 8.210236 73.126213 43 26 26
-8.515909 8.388532 73.306770 45 27 27
-8.515909 8.546556 73.306770 47 28 28
-8.536988 8.726128 73.488220 47 29 29
-8.558172 8.906590 73.670578 48 30 30
-8.579461 9.087949 73.853836 48 30 31
-8.600856 9.270213 74.038010 48 31 32
-8.579461 9.406357 73.853836 48 32 33
-3.638126 4.326324 31.317766 49 32 32
-3.199391 4.398289 27.541040 37 27 25
-3.190512 4.445287 27.464609 36 26 24
-3.172901 4.479628 27.313011 35 26 23
-3.143978 4.497134 27.064032 34 25 23
-3.115577 4.514323 26.819550 33 25 22
-7.681388 12.412818 66.123032 35 23 22
-7.698534 12.583383 66.270630 34 23 22
-7.750434 12.812035 66.717400 33 23 22
-7.750434 12.955855 66.717400 33 23 22
-7.750434 13.099675 66.717400 33 23 22
-7.750434 13.243495 66.717400 32 23 22
-7.803039 13.478180 67.170235 32 22 22
-7.785425 13.592224 67.018608 33 22 21
-8.330781 17.172356 71.713142 27 20 18
-6.619853 18.313541 56.985111 30 22 21
-6.581953 18.330832 56.658859 30 22 22
-6.544485 18.347923 56.336323 30 22 21
-6.607171 18.646275 56.875942 30 22 21
-6.569416 18.661629 56.550938 30 22 21
-6.581953 18.819380 56.658859 30 22 21
-6.594538 18.977736 56.767193 30 23 21
-6.507440 18.847841 56.017437 30 23 22
-8.059389 -8.520582 70.688675 12 12 7
-8.021193 -8.328542 70.353653 12 12 6
-7.945877 -8.100104 69.693054 11 11 6
-8.701653 -6.238161 76.321960 15 10 11
-8.701653 -6.073637 76.321960 15 11 11
-8.769283 -5.955038 76.915138 16 12 11
-8.792061 -5.804272 77.114914 18 13 12
-8.679342 -5.565755 76.126259 20 14 13
-8.746624 -5.443526 76.716385 22 15 14
-8.861108 -5.347237 77.720528 24 17 15
-8.884366 -5.193293 77.924522 28 20 17
-8.884366 -5.025314 77.924522 34 26 22
-8.884366 -4.857335 77.924522 41 34 30
-8.884366 -4.689356 77.924522 44 39 35
-8.931249 -4.545236 78.335732 42 37 33
-8.931249 -4.376371 78.335732 37 32 29
-8.931249 -4.207505 78.335732 33 29 26
-8.931249 -4.038640 78.335732 31 26 24
-8.978630 -3.890304 78.751305 28 25 23
-9.002509 -3.730438 78.960747 27 24 21
-8.978630 -3.550781 78.751305 27 24 21
-9.002509 -3.390012 78.960747 28 25 22
-9.002509 -3.219799 78.960747 28 25 22
-9.002509 -3.049587 78.960747 27 24 22
-8.978630 -2.871736 78.751305 24 22 20
-8.954877 -2.694827 78.542969 22 20 18
-8.954877 -2.525515 78.542969 19 17 15
-8.954877 -2.356202 78.542969 18 16 14
-8.954877 -2.186890 78.542969 19 16 15
-8.954877 -2.017578 78.542969 20 17 16
-8.954877 -1.848266 78.542969 20 17 17
-8.954877 -1.678954 78.542969 21 17 18
-8.931249 -1.505658 78.335732 21 17 18
-8.884366 -1.329776 77.924522 22 17 17
-8.613088 -1.126322 75.545143 22 16 17
-8.462358 -0.946611 74.223106 23 17 17
-8.337299 -0.774987 73.126213 24 17 17
-8.635059 -0.476134 75.737862 27 19 17
-8.569477 -0.310492 75.162636 28 20 18
-8.569477 -0.148467 75.162636 29 21 19
-8.569477 0.013558 75.162636 31 23 21
-8.483567 0.173823 74.409126 33 24 24
-8.441256 0.332557 74.038010 35 26 26
-8.591227 0.500902 75.353409 38 28 30
-8.591227 0.663339 75.353409 42 30 34
-8.591227 0.825775 75.353409 47 33 39
-8.613088 0.990726 75.545143 53 36 43
-8.591227 1.150648 75.353409 59 40 46
-8.591227 1.313085 75.353409 64 42 50
-8.569477 1.471786 75.162636 67 43 50
-8.547836 1.629686 74.972832 68 42 48
-8.547836 1.791302 74.972832 68 41 46
-8.569477 1.957862 75.162636 67 40 43
-8.569477 2.119887 75.162636 66 39 42
-8.526306 2.270417 74.783989 65 38 40
-8.504883 2.425516 74.596085 63 37 38
-8.420258 2.560586 73.853836 61 36 37
-8.399364 2.713041 73.670578 59 35 37
-8.462358 2.893389 74.223106 57 35 37
-8.724081 5.127205 76.518669 51 30 30
-8.679342 5.265014 76.126259 51 30 30
-8.613088 5.387673 75.545143 51 30 30
-8.504883 5.480793 74.596085 50 30 30
-8.569477 5.684444 75.162636 49 30 30
-8.441256 5.758991 74.038010 49 30 30
-8.399364 5.889220 73.670578 49 30 30
-8.399364 6.048028 73.670578 49 31 31
-8.462358 6.253389 74.223106 49 31 32
-8.441256 6.397395 74.038010 47 31 31
-8.378572 6.508306 73.488220 44 28 29
-8.357884 6.650260 73.306770 43 27 28
-8.420258 7.018297 73.853836 44 28 30
-8.441256 7.195400 74.038010 44 29 30
-8.483567 7.873071 74.409126 43 27 27
-8.420258 7.973521 73.853836 43 27 27
-8.357884 8.072483 73.306770 44 26 27
-8.357884 8.230507 73.306770 45 26 27
-8.378572 8.409296 73.488220 47 28 28
-8.399364 8.588971 73.670578 49 29 29
-8.420258 8.769541 73.853836 50 30 30
-8.441256 8.951011 74.038010 49 31 31
-8.420258 9.087949 73.853836 49 31 32
-8.441256 9.270213 74.038010 49 32 32
-8.420258 9.406357 73.853836 49 32 33
-8.337299 9.471319 73.126213 49 32 33
-3.131307 4.445287 27.464609 36 26 24
-3.108304 4.471401 27.262848 35 25 23
-3.082826 4.493038 27.039383 34 25 23
-3.057763 4.514323 26.819550 34 25 22
-7.623746 12.840891 66.867661 33 23 22
-7.606614 12.955855 66.717400 31 22 22
-7.572580 13.041063 66.418884 32 22 22
-7.589559 13.213801 66.567810 32 22 22
-7.640955 13.447755 67.018608 32 22 22
-7.623746 13.561611 66.867661 33 22 21
-8.176191 17.172356 71.713142 28 20 18
-6.509506 18.348761 57.094696 31 22 21
-6.472167 18.365881 56.767193 31 22 22
-6.509506 18.717991 57.094696 31 22 21
-6.484566 18.768881 56.875942 31 23 21
-6.484566 18.891485 56.875942 30 23 20
-6.509506 19.087221 57.094696 31 23 20
-6.423042 18.955133 56.336323 31 23 21
-7.869534 -8.328542 70.353653 12 12 7
-8.537129 -6.238161 76.321960 15 10 11
-8.537129 -6.073637 76.321960 15 11 10
-8.581249 -5.939650 76.716385 16 12 11
-8.603480 -5.789235 76.915138 18 13 12
-8.515240 -5.565755 76.126259 20 14 13
-8.581249 -5.443526 76.716385 23 15 15
-8.693569 -5.347237 77.720528 26 17 16
-8.693569 -5.179698 77.720528 31 22 19
-8.716387 -5.025314 77.924522 38 29 25
-8.739325 -4.870117 78.129585 46 38 34
-8.739325 -4.701696 78.129585 48 41 36
-8.785564 -4.557261 78.542969 43 38 33
-8.785564 -4.387949 78.542969 37 32 29
-8.808868 -4.229826 78.751305 34 28 26
-8.785564 -4.049324 78.542969 31 26 24
-8.855849 -3.911052 79.171310 30 25 23
-8.855849 -3.740386 79.171310 29 25 22
-8.855849 -3.569719 79.171310 29 26 23
-8.855849 -3.399052 79.171310 29 26 23
-8.855849 -3.228385 79.171310 28 25 23
-8.855849 -3.057719 79.171310 27 24 22
-8.832296 -2.879374 78.960747 24 22 20
-8.808868 -2.701975 78.751305 22 20 18
-8.785564 -2.525515 78.542969 20 18 15
-8.785564 -2.356202 78.542969 19 16 14
-8.785564 -2.186890 78.542969 19 16 15
-8.785564 -2.017578 78.542969 20 17 16
-8.785564 -1.848266 78.542969 21 17 16
-8.785564 -1.678954 78.542969 21 17 17
-8.693569 -1.326295 77.720528 22 17 17
-8.220157 -0.937239 73.488220 23 17 17
-8.179664 -0.774987 73.126213 24 17 17
-8.471794 -0.476134 75.737862 27 19 17
-8.386221 -0.309708 74.972832 28 20 18
-8.365097 -0.147719 74.783989 29 21 19
-8.386221 0.013524 74.972832 30 22 20
-8.323166 0.173823 74.409126 31 23 22
-8.302359 0.333389 74.223106 33 25 24
-8.407452 0.499634 75.162636 35 26 27
-8.428790 0.663339 75.353409 38 29 31
-8.407452 0.823685 75.162636 43 31 35
-8.428790 0.988212 75.353409 49 33 39
-8.428790 1.150648 75.353409 54 36 42
-8.407452 1.309761 75.162636 59 38 44
-8.407452 1.471786 75.162636 62 40 46
-8.386221 1.629686 74.972832 64 40 46
-8.386221 1.791302 74.972832 67 40 45
-8.407452 1.957862 75.162636 68 40 44
-8.407452 2.119887 75.162636 68 41 43
-8.386221 2.276150 74.972832 68 40 42
-8.365097 2.431626 74.783989 66 39 41
-8.281654 2.566971 74.038010 64 38 39
-8.261053 2.719790 73.853836 61 37 38
-8.323166 2.900640 74.409126 59 36 37
-8.386221 3.084231 74.972832 57 35 37
-8.625827 5.000923 77.114914 52 31 30
-8.581249 5.140453 76.716385 52 30 30
-8.537129 5.278549 76.321960 51 30 30
-8.365097 5.494598 74.783989 51 29 29
-8.428790 5.698872 75.353409 50 29 30
-8.302359 5.773389 74.223106 50 30 30
-8.281654 5.918592 74.038010 49 30 30
-8.302359 6.093389 74.223106 49 31 31
-8.365097 6.300643 74.783989 49 31 32
-8.323166 6.429462 74.409126 47 31 32
-8.261053 6.540685 73.853836 44 28 30
-8.323166 7.231467 74.409126 44 30 30
-8.281654 7.355001 74.038010 45 30 30
-8.323166 7.552269 74.409126 46 30 30
-8.323166 7.712670 74.409126 46 29 29
-8.323166 7.873071 74.409126 45 28 28
-8.261053 7.973521 73.853836 45 27 28
-8.220157 8.092464 73.488220 46 27 27
-8.220157 8.250880 73.488220 47 27 28
-8.261053 8.451133 73.853836 49 29 29
-8.261053 8.610337 73.853836 51 31 31
-8.281654 8.791410 74.038010 53 33 33
-8.281654 8.951011 74.038010 52 33 33
-8.261053 9.087949 73.853836 50 33 33
-8.240554 9.224207 73.670578 50 33 33
-8.240554 9.383016 73.670578 50 33 32
-8.179664 9.471319 73.126213 49 32 32
-3.046737 4.467299 27.237837 36 26 24
-3.019039 4.484869 26.990221 35 25 23
-7.513446 12.898994 67.170235 31 22 22
-7.462794 12.955855 66.717400 29 21 20
-7.446061 13.070304 66.567810 31 21 21
-7.446061 13.213801 66.567810 32 22 21
-7.513446 13.478180 67.170235 32 22 21
-7.479602 13.561611 66.867661 33 22 22
-8.041025 17.058971 71.886787 29 19 19
-8.021603 17.172356 71.713142 28 19 18
-8.060542 17.411057 72.061264 28 19 18
-4.209054 11.606280 37.628952 30 21 19
-6.349796 18.365881 56.767193 31 22 22
-6.337678 18.452969 56.658859 32 23 21
-6.398735 18.754057 57.204704 31 23 21
-6.374172 18.804905 56.985111 31 23 20
-6.374172 18.927746 56.985111 30 23 20
-6.386429 19.087221 57.094696 31 23 20
-6.325606 19.027344 56.550938 31 23 20
-8.372605 -6.238161 76.321960 16 12 12
-8.372605 -6.073637 76.321960 16 11 11
-8.394184 -5.924342 76.518669 17 12 11
-8.415874 -5.774275 76.716385 18 13 12
-8.351137 -5.565755 76.126259 21 14 14
-8.415874 -5.443526 76.716385 25 16 16
-8.526030 -5.347237 77.720528 28 18 17
-8.526030 -5.179698 77.720528 33 23 21
-8.548408 -5.025314 77.924522 41 32 28
-8.570904 -4.870117 78.129585 49 40 36
-8.570904 -4.701696 78.129585 49 42 37
-8.616252 -4.557261 78.542969 44 37 33
-8.639107 -4.399588 78.751305 37 31 28
-8.639107 -4.229826 78.751305 33 27 25
-8.639107 -4.060065 78.751305 31 26 24
-8.708405 -3.921510 79.383003 31 25 23
-8.731751 -3.760441 79.595825 30 25 22
-8.708405 -3.579263 79.383003 30 25 23
-8.731751 -3.417278 79.595825 29 25 23
-8.708405 -3.237017 79.383003 28 24 22
-8.708405 -3.065894 79.383003 26 23 21
-8.685183 -2.887052 79.171310 24 22 19
-8.662084 -2.709161 78.960747 22 20 18
-8.616252 -2.525515 78.542969 21 18 16
-8.616252 -2.356202 78.542969 20 17 15
-8.616252 -2.186890 78.542969 20 17 15
-8.616252 -2.017578 78.542969 21 17 15
-8.616252 -1.848266 78.542969 21 17 16
-8.308529 -0.476134 75.737862 26 18 18
-8.183275 -0.308152 74.596085 27 20 18
-8.101850 -0.145882 73.853836 28 21 19
-8.101850 0.013322 73.853836 28 21 20
-8.122053 0.172956 74.038010 29 22 21
-8.122053 0.332557 74.038010 31 24 23
-8.245426 0.499634 75.162636 33 25 26
-8.266354 0.663339 75.353409 36 27 29
-8.245426 0.823685 75.162636 39 29 32
-8.245426 0.985710 75.162636 44 30 35
-8.245426 1.147735 75.162636 49 32 37
-8.224605 1.306453 74.972832 54 33 39
-8.245426 1.471786 75.162636 57 35 41
-8.245426 1.633811 75.162636 60 37 42
-8.245426 1.795837 75.162636 64 38 43
-8.245426 1.957862 75.162636 67 40 44
-8.245426 2.119887 75.162636 69 41 44
-8.245426 2.281913 75.162636 69 42 43
-8.224605 2.437766 74.972832 68 41 42
-8.122053 2.566971 74.038010 66 40 41
-8.101850 2.719790 73.853836 63 39 40
-8.142359 2.893389 74.223106 61 37 38
-8.183275 3.068732 74.596085 59 36 38
-8.245426 3.254065 75.162636 58 35 37
-8.266354 3.424760 75.353409 57 34 36
-8.481624 4.680613 77.315735 54 34 34
-8.415874 4.809704 76.716385 53 33 32
-8.415874 4.975079 76.716385 53 31 31
-8.394184 5.127205 76.518669 52 30 30
-8.351137 5.265014 76.126259 52 29 30
-8.287388 5.713373 75.545143 51 28 29
-8.162766 5.787858 74.409126 50 29 29
-8.162766 5.948259 74.409126 50 30 31
-8.203888 6.461853 74.783989 47 31 32
-8.183275 7.249637 74.596085 44 30 29
-8.162766 7.391868 74.409126 45 30 30
-8.183275 7.571245 74.596085 46 30 30
-8.183275 7.732049 74.596085 46 30 30
-8.183275 7.892853 74.596085 47 29 30
-8.122053 7.993405 74.038010 47 29 29
-8.081745 8.112545 73.670578 48 28 29
-8.101850 8.291929 73.853836 50 29 29
-8.142359 8.493389 74.223106 51 30 30
-8.122053 8.631809 74.038010 53 32 33
-8.162766 8.835478 74.409126 54 34 35
-8.162766 8.995878 74.409126 54 34 35
-8.142359 9.133389 74.223106 52 34 34
-8.122053 9.270213 74.038010 51 33 33
-8.101850 9.406357 73.853836 50 33 33
-8.022028 9.471319 73.126213 50 33 32
-7.982704 9.581754 72.767754 49 32 31
-8.022028 9.786590 73.126213 48 31 31
-8.022028 9.944225 73.126213 47 30 30
-7.335458 12.985035 66.867661 31 22 22
-7.302564 13.070304 66.567810 32 23 22
-7.318974 13.243495 66.717400 32 24 22
-7.385359 13.508742 67.322548 33 24 23
-7.335458 13.561611 66.867661 34 24 23
-7.318974 13.674956 66.717400 34 24 23
-5.548455 10.802991 50.577927 32 23 22
-5.557924 11.258286 50.664234 33 22 21
-5.529615 11.309602 50.406185 34 22 22
-7.905202 17.100378 72.061264 29 20 19
-7.886061 17.213936 71.886787 29 20 19
-7.943764 17.495989 72.412788 29 20 18
-7.886061 17.523863 71.886787 29 20 18
-7.867013 17.636124 71.713142 30 20 18
-4.138429 11.635776 37.724579 31 21 19
-6.227425 18.365881 56.767193 31 22 22
-6.215541 18.452969 56.658859 31 22 21
-6.263352 18.717991 57.094696 32 23 21
-6.251331 18.804905 56.985111 31 23 20
-6.239355 18.891485 56.875942 31 23 19
-6.251331 19.050587 56.985111 31 23 19
-6.191907 18.991171 56.443428 31 23 19
-8.208080 -6.238161 76.321960 16 13 12
-8.208080 -6.073637 76.321960 16 12 11
-8.229236 -5.924342 76.518669 17 12 11
-8.250500 -5.774275 76.716385 18 13 12
-8.187035 -5.565755 76.126259 21 14 14
-8.250500 -5.443526 76.716385 24 16 16
-8.336667 -5.333275 77.517601 28 19 17
-8.336667 -5.166174 77.517601 33 24 21
-8.380428 -5.025314 77.924522 42 33 30
-8.402483 -4.870117 78.129585 49 41 37
-8.402483 -4.701696 78.129585 48 41 36
-8.446940 -4.557261 78.542969 42 36 31
-8.491871 -4.411289 78.960747 36 29 27
-8.491871 -4.241076 78.960747 32 26 24
-8.469346 -4.060065 78.751305 32 26 24
-8.583181 -3.942593 79.809792 31 25 24
-8.583181 -3.770550 79.809792 31 25 23
-8.583181 -3.598507 79.809792 30 25 23
-8.583181 -3.426464 79.809792 29 25 23
-8.560170 -3.245696 79.595825 28 24 22
-8.560170 -3.074114 79.595825 26 22 21
-8.537282 -2.894772 79.383003 24 21 19
-8.491871 -2.709161 78.960747 22 19 17
-8.446940 -2.525515 78.542969 21 18 16
-8.446940 -2.356202 78.542969 21 17 15
-8.469346 -2.192691 78.751305 21 17 15
-8.446940 -2.017578 78.542969 21 17 15
-3.099945 -0.616160 28.824507 21 18 17
-3.528114 -0.489110 32.805794 23 18 19
-3.493373 -0.414272 32.482761 24 18 19
-8.002364 -0.307380 74.409126 27 19 18
-7.883811 -0.144801 73.306770 28 20 19
-7.864392 0.013191 73.126213 27 21 20
-7.942645 0.172526 73.853836 28 22 21
-7.942645 0.331730 73.853836 29 23 22
-8.083401 0.499634 75.162636 31 24 25
-8.103917 0.663339 75.353409 33 25 27
-8.083401 0.823685 75.162636 36 26 29
-8.062988 0.983221 74.972832 40 27 31
-8.062988 1.144837 74.972832 45 28 33
-8.062988 1.306453 74.972832 49 30 34
-8.083401 1.471786 75.162636 53 32 36
-8.083401 1.633811 75.162636 57 34 38
-8.083401 1.795837 75.162636 61 36 40
-8.083401 1.957862 75.162636 65 39 42
-8.083401 2.119887 75.162636 67 41 43
-8.083401 2.281913 75.162636 69 43 43
-8.042679 2.431626 74.783989 69 43 44
-7.922936 2.554232 73.670578 68 42 43
-7.942645 2.719790 73.853836 66 41 42
-8.002364 2.900640 74.409126 63 39 40
-8.002364 3.061041 74.409126 62 38 39
-8.042679 3.237671 74.783989 61 36 39
-8.062988 3.407463 74.972832 60 35 38
-8.062988 3.569079 74.972832 59 34 37
-8.083401 3.740140 75.162636 57 33 36
-8.083401 3.902166 75.162636 57 33 35
-8.062988 4.053928 74.972832 58 35 36
-8.042679 4.204926 74.783989 58 36 36
-8.229236 4.632360 76.518669 56 35 35
-8.187035 4.772707 76.126259 55 33 33
-8.208080 4.949500 76.321960 53 31 31
-8.208080 5.114024 76.321960 52 30 30
-8.166096 5.251548 75.931564 53 29 30
-8.062988 5.346857 74.972832 53 29 30
-8.022470 5.802401 74.596085 50 30 30
-8.042679 5.978225 74.783989 51 31 32
-8.042679 7.267898 74.783989 44 30 29
-8.002364 7.391868 74.409126 45 30 30
-8.002364 7.552269 74.409126 46 30 31
-8.002364 7.712670 74.409126 46 30 31
-8.002364 7.873071 74.409126 47 29 30
-7.982358 8.013389 74.223106 48 29 30
-7.942645 8.132725 73.853836 50 30 30
-7.962452 8.312607 74.038010 51 30 31
-8.002364 8.514675 74.409126 52 31 32
-8.002364 8.675076 74.409126 53 32 33
-8.022470 8.857677 74.596085 54 34 34
-8.022470 9.018481 74.596085 53 34 34
-8.022470 9.179285 74.596085 52 34 34
-8.042679 9.363616 74.783989 51 34 34
-8.002364 9.477081 74.409126 51 34 34
-7.903325 9.518207 73.488220 50 33 34
-7.864392 9.628954 73.126213 49 32 33
-7.883811 9.810754 73.306770 48 31 32
-7.864392 9.944225 73.126213 48 31 31
-10.934737 18.867655 101.675484 35 26 25
-7.175154 13.099675 66.717400 33 25 24
-7.191314 13.273323 66.867661 34 25 24
-7.240234 13.508742 67.322548 34 25 24
-7.191314 13.561611 66.867661 35 25 25
-5.430176 10.784618 50.491909 32 23 22
-7.845070 17.153208 72.946541 30 21 20
-7.787667 17.183794 72.412788 30 21 20
-7.787667 17.339891 72.412788 29 21 20
-7.864392 17.668364 73.126213 29 21 19
-7.787667 17.652086 72.412788 30 21 19
-7.768719 17.764854 72.236603 30 21 19
-6.070234 18.382805 56.443428 31 22 21
-6.128490 18.682064 56.985111 32 23 21
-6.128490 18.804905 56.985111 32 23 20
-6.105054 18.855364 56.767193 32 23 20
-6.128490 19.050587 56.985111 32 23 19
-6.001773 18.776983 55.806847 32 23 19
-8.043556 -6.238161 76.321960 16 13 12
-8.043556 -6.073637 76.321960 16 13 11
-8.064287 -5.924342 76.518669 17 13 12
-8.106071 -5.789235 76.915138 18 13 13
-8.022932 -5.565755 76.126259 20 14 14
-8.085125 -5.443526 76.716385 22 16 15
-8.169565 -5.333275 77.517601 26 19 17
-8.169565 -5.166174 77.517601 31 23 21
-8.212450 -5.025314 77.924522 39 31 29
-8.234061 -4.870117 78.129585 46 38 35
-8.234061 -4.701696 78.129585 46 39 34
-8.277628 -4.557261 78.542969 40 33 30
-8.321658 -4.411289 78.960747 36 28 26
-8.321658 -4.241076 78.960747 33 26 24
-8.321658 -4.070863 78.960747 33 27 26
-8.433809 -3.953220 80.024910 34 28 27
-8.433809 -3.780713 80.024910 33 28 26
-8.433809 -3.608206 80.024910 31 27 25
-8.433809 -3.435699 80.024910 30 25 24
-8.388588 -3.245696 79.595825 28 24 23
-8.388588 -3.074114 79.595825 26 21 21
-8.388588 -2.902532 79.595825 24 20 19
-8.321658 -2.709161 78.960747 23 18 16
-8.277628 -2.525515 78.542969 22 17 15
-8.277628 -2.356202 78.542969 21 17 16
-8.277628 -2.186890 78.542969 22 17 16
-8.255787 -2.012255 78.335732 22 17 16
-3.423352 -0.414272 32.482761 25 18 19
-7.822359 -0.306611 74.223106 27 19 19
-7.706757 -0.144445 73.126213 27 20 20
-7.802851 0.332557 74.038010 28 22 22
-7.921376 0.499634 75.162636 29 23 23
-7.941481 0.663339 75.353409 31 24 25
-7.901372 0.821605 74.972832 34 24 27
-7.901372 0.983221 74.972832 37 25 28
-7.881469 1.141953 74.783989 41 25 29
-7.881469 1.303162 74.783989 45 27 30
-7.901372 1.468069 74.972832 48 29 33
-7.901372 1.629686 74.972832 53 31 35
-7.901372 1.791302 74.972832 57 34 38
-7.901372 1.952918 74.972832 61 37 40
-7.921376 2.119887 75.162636 64 39 42
-7.901372 2.276150 74.972832 67 42 43
-7.861667 2.425516 74.596085 69 44 45
-7.764127 2.554232 73.670578 69 44 44
-7.802851 2.726572 74.038010 67 43 43
-7.861667 2.907928 74.596085 66 41 42
-7.861667 3.068732 74.596085 65 40 42
-7.881469 3.237671 74.783989 64 38 41
-7.901372 3.407463 74.972832 63 36 40
-7.901372 3.569079 74.972832 62 35 39
-7.921376 3.740140 75.162636 60 34 37
-7.921376 3.902166 75.162636 59 34 37
-7.901372 4.053928 74.972832 59 36 37
-7.881469 4.204926 74.783989 60 37 37
-7.961688 4.410573 75.545143 58 36 36
-8.002413 4.596817 75.931564 57 35 35
-7.981998 4.748356 75.737862 56 33 33
-8.002413 4.924183 75.931564 54 31 32
-8.002413 5.087866 75.931564 54 31 32
-7.981998 5.238152 75.737862 54 31 32
-7.841963 5.306655 74.409126 54 31 32
-7.706757 5.372797 73.126213 54 31 32
-7.901372 5.993322 74.972832 53 32 33
-7.841963 7.231467 74.409126 45 30 29
-7.783441 7.336705 73.853836 45 30 30
-7.783441 7.495909 73.853836 46 30 31
-7.744909 7.617217 73.488220 47 29 31
-7.783441 8.291929 73.853836 53 31 33
-7.822359 8.493389 74.223106 54 32 34
-7.841963 8.675076 74.409126 54 33 34
-7.881469 8.879989 74.783989 54 34 35
-7.881469 9.041198 74.783989 53 35 35
-7.881469 9.202407 74.783989 52 35 35
-7.921376 9.411027 75.162636 52 35 36
-7.901372 9.548878 74.972832 52 35 37
-7.802851 9.589416 74.038010 51 34 37
-7.725786 9.652730 73.306770 51 34 35
-7.725786 9.810754 73.306770 50 32 34
-7.725786 9.968779 73.306770 49 31 32
-10.789460 18.777088 102.376694 35 26 24
-10.678988 18.803261 101.328468 35 26 25
-7.063077 13.303286 67.018608 35 25 24
-7.111235 13.539444 67.475548 36 25 24
-7.063077 13.592224 67.018608 36 25 25
-5.321332 10.784618 50.491909 32 23 22
-7.631569 17.183794 72.412788 31 22 21
-7.631569 17.339891 72.412788 30 22 20
-7.706757 17.668364 73.126213 30 22 20
-7.631569 17.652086 72.412788 30 21 20
-7.613001 17.764854 72.236603 31 22 19
-7.594523 18.343096 72.061264 32 22 18
-5.994144 18.768881 56.875942 32 23 21
-5.971266 18.819380 56.658859 33 23 20
-6.005650 19.050587 56.985111 33 23 20
-7.879032 -6.238161 76.321960 16 14 11
-7.899339 -6.089290 76.518669 16 14 11
-7.919750 -5.939650 76.716385 16 14 12
-7.981623 -5.819387 77.315735 17 14 13
-7.879032 -5.580063 76.321960 19 15 14
-7.940268 -5.457628 76.915138 21 16 16
-8.023412 -5.347237 77.720528 24 19 17
-8.023412 -5.179698 77.720528 28 22 21
-8.065640 -5.038538 78.129585 33 26 25
-8.065640 -4.870117 78.129585 38 31 29
-8.086922 -4.714102 78.335732 39 32 29
-8.129824 -4.569349 78.751305 37 29 26
-8.173182 -4.423052 79.171310 34 26 24
-8.173182 -4.252386 79.171310 34 26 25
-8.173182 -4.081719 79.171310 36 29 28
-8.306080 -3.974646 80.458649 38 32 31
-8.283630 -3.790931 80.241196 37 32 30
-8.261303 -3.608206 80.024910 35 30 28
-8.261303 -3.435699 80.024910 32 28 26
-8.217007 -3.245696 79.595825 29 24 23
-8.217007 -3.074114 79.595825 27 22 21
-8.195036 -2.894772 79.383003 25 20 18
-8.151445 -2.709161 78.960747 23 18 16
-8.086922 -2.518851 78.335732 22 17 15
-8.086922 -2.349986 78.335732 22 17 16
-8.086922 -2.181120 78.335732 22 17 16
-8.044471 -2.001692 77.924522 22 17 16
-7.739756 0.498372 74.972832 30 22 22
-7.779044 0.663339 75.353409 31 23 24
-7.739756 0.821605 74.972832 33 23 25
-7.700863 0.978280 74.596085 35 23 25
-7.681562 1.136229 74.409126 38 24 26
-7.662358 1.293389 74.223106 41 25 27
-7.700863 1.460692 74.596085 44 27 30
-7.720260 1.625581 74.783989 48 29 32
-7.720260 1.786790 74.783989 52 31 35
-7.720260 1.947999 74.783989 57 34 37
-7.739756 2.114534 74.972832 60 37 40
-7.739756 2.276150 74.972832 64 41 42
-7.720260 2.431626 74.783989 67 43 44
-7.605319 2.554232 73.670578 68 44 45
-7.662358 2.733389 74.223106 69 44 45
-7.739756 2.922615 74.972832 69 43 45
-7.720260 3.076462 74.783989 68 41 44
-7.759350 3.254065 75.162636 68 40 44
-7.759350 3.416090 75.162636 67 39 43
-7.759350 3.578115 75.162636 66 38 42
-7.779044 3.749633 75.353409 65 37 40
-7.779044 3.912070 75.353409 63 37 40
-7.759350 4.064191 75.162636 63 37 39
-7.759350 4.226216 75.162636 61 37 38
-7.798838 4.410573 75.545143 60 36 36
-7.838730 4.596817 75.931564 58 35 35
-7.818733 4.748356 75.737862 57 34 34
-7.818733 4.911621 75.737862 57 33 35
-7.798838 5.061973 75.545143 57 34 35
-7.818733 5.238152 75.737862 57 34 35
-7.720260 5.333389 74.783989 58 34 36
-7.643250 5.439789 74.038010 57 34 35
-7.798838 6.039073 75.545143 54 32 34
-7.720260 6.623062 74.783989 49 30 31
-7.643250 7.035799 74.038010 45 30 29
-7.643250 7.195400 74.038010 44 30 29
-7.567761 7.282359 73.306770 45 30 30
-7.567761 7.440384 73.306770 46 30 31
-7.624237 8.451133 73.853836 54 32 35
-7.643250 8.631809 74.038010 54 33 35
-7.700863 8.857677 74.596085 54 35 36
-7.739756 9.064029 74.972832 54 35 36
-7.739756 9.225645 74.972832 53 37 37
-7.798838 9.458920 75.545143 53 37 38
-7.779044 9.597349 75.353409 54 38 41
-7.662358 9.613389 74.223106 53 37 40
-7.586493 9.676622 73.488220 53 35 38
-7.567761 9.810754 73.306770 52 33 36
-7.549121 9.944225 73.126213 50 32 33
-6.918608 13.303286 67.018608 37 25 24
-6.965780 13.539444 67.475548 36 25 25
-6.934261 13.622976 67.170235 36 25 25
-5.212489 10.784618 50.491909 31 23 21
-7.530573 16.995960 72.946541 31 23 22
-7.493749 17.069328 72.589836 31 23 22
-7.457283 17.141985 72.236603 31 22 22
-7.530573 17.624952 72.946541 31 22 22
-5.761172 16.972473 55.806847 32 22 19
-5.860312 18.732994 56.767193 33 22 22
-5.849129 18.819380 56.658859 33 23 21
-5.894122 19.087221 57.094696 33 23 21
-8.598692 -10.437377 85.069466 15 11 10
-8.574124 -10.224699 84.826408 15 10 10
-8.648252 -10.128658 85.559776 15 10 10
-8.698386 -10.001868 86.055771 15 11 10
-7.714508 -6.238161 76.321960 16 14 11
-7.754375 -6.105025 76.716385 16 14 11
-7.814957 -5.986053 77.315735 17 15 12
-7.876492 -5.865209 77.924522 17 15 13
-7.734390 -5.594445 76.518669 19 15 14
-7.794658 -5.471804 77.114914 20 16 16
-7.876492 -5.361272 77.924522 22 18 17
-7.876492 -5.193293 77.924522 24 20 18
-7.918056 -5.051833 78.335732 27 22 20
-7.939003 -4.895885 78.542969 30 24 22
-7.939003 -4.726573 78.542969 31 26 23
-8.002516 -4.593719 79.171310 31 26 23
-8.045424 -4.446768 79.595825 32 26 24
-8.023912 -4.263755 79.383003 35 28 26
-8.045424 -4.103605 79.595825 39 32 30
-8.199299 -4.007226 81.118149 42 36 34
-8.154737 -3.811534 80.677292 42 36 34
-8.132638 -3.627763 80.458649 39 33 31
-8.110658 -3.444985 80.241196 35 29 28
-8.067052 -3.254421 79.809792 31 25 24
-8.067052 -3.082378 79.809792 28 22 21
-8.045424 -2.902532 79.595825 25 19 18
-7.960062 -2.701975 78.751305 24 18 16
-7.897219 -2.512223 78.129585 22 17 15
-7.876492 -2.337650 77.924522 22 17 15
-7.855873 -2.163991 77.720528 21 17 15
-7.794658 -1.980895 77.114914 21 17 15
-7.597325 0.661659 75.162636 31 22 23
-7.540059 0.817476 74.596085 33 23 23
-7.502358 0.973389 74.223106 34 23 24
-7.465033 1.127750 73.853836 36 23 24
-7.409737 1.277421 73.306770 38 24 25
-7.446509 1.442569 73.670578 41 26 27
-7.540059 1.621496 74.596085 44 27 29
-7.540059 1.782300 74.596085 48 29 32
-7.521161 1.938234 74.409126 52 31 34
-7.540059 2.103908 74.596085 55 35 37
-7.559052 2.270417 74.783989 59 38 40
-7.540059 2.425516 74.596085 63 41 43
-7.465033 2.560586 73.853836 66 44 45
-7.521161 2.740239 74.409126 69 44 46
-7.578140 2.922615 74.972832 71 44 47
-7.559052 3.076462 74.783989 72 43 47
-7.597325 3.254065 75.162636 72 43 47
-7.597325 3.416090 75.162636 72 43 47
-7.616608 3.587197 75.353409 73 44 47
-7.616608 3.749633 75.353409 71 42 46
-7.616608 3.912070 75.353409 68 40 43
-7.597325 4.064191 75.162636 66 39 41
-7.597325 4.226216 75.162636 64 38 39
-7.635988 4.410573 75.545143 62 37 37
-7.655468 4.585091 75.737862 61 36 36
-7.635988 4.736273 75.545143 60 35 36
-7.635988 4.899123 75.545143 60 35 37
-7.635988 5.061973 75.545143 60 36 38
-7.655468 5.238152 75.737862 60 36 38
-7.559052 5.333389 74.783989 60 37 39
-7.559052 5.494598 74.783989 59 36 37
-7.616608 5.698872 75.353409 56 34 34
-7.655468 5.891213 75.737862 55 32 33
-7.655468 6.054478 75.737862 55 32 34
-7.675047 6.233646 75.931564 55 31 34
-7.655468 6.381009 75.737862 54 31 34
-7.578140 6.639787 74.972832 50 31 32
-7.465033 7.018297 73.853836 45 29 29
-7.465033 7.177501 73.853836 45 30 30
-7.409737 7.282359 73.306770 45 30 30
-7.391486 7.422058 73.126213 46 30 32
-7.446509 8.430162 73.670578 54 32 35
-7.483649 8.631809 74.038010 55 33 36
-7.521161 8.835478 74.409126 55 35 37
-7.559052 9.041198 74.783989 55 36 38
-7.559052 9.202407 74.783989 55 38 39
-7.635988 9.458920 75.545143 56 39 41
-7.616608 9.597349 75.353409 56 40 44
-7.521161 9.637483 74.409126 55 38 43
-7.428078 9.676622 73.488220 54 36 41
-7.409737 9.810754 73.306770 53 34 39
-7.391486 9.944225 73.126213 51 32 35
-7.355253 10.052341 72.767754 50 31 32
-7.337270 10.184243 72.589836 49 29 30
-7.301565 10.290402 72.236603 48 29 30
-7.248655 10.370424 71.713142 51 31 31
-6.835862 13.570286 67.629250 36 25 24
-5.112339 10.802991 50.577927 31 24 20
-5.640871 16.852173 55.806847 33 22 20
-5.630288 16.940630 55.702145 33 22 20
-5.619744 17.028755 55.597832 33 23 20
-5.748934 18.768881 56.875942 34 22 23
-5.737941 18.855364 56.767193 34 22 22
-5.771045 19.087221 57.094696 34 22 21
-8.415311 -10.253996 85.069466 16 11 11
-6.798480 -6.802418 68.725098 18 15 14
-6.767150 -6.623605 68.408394 18 15 15
-6.720694 -6.431681 67.938766 18 14 14
-6.659736 -6.228219 67.322548 17 14 13
-7.569442 -6.254239 76.518669 17 14 11
-7.608662 -6.120841 76.915138 17 14 12
-7.668260 -6.001683 77.517601 17 15 12
-7.728798 -5.880643 78.129585 18 15 13
-7.589001 -5.608901 76.716385 19 15 14
-7.668260 -5.500377 77.517601 20 16 15
-7.708513 -5.361272 77.924522 21 17 15
-7.728798 -5.206959 78.129585 22 18 16
-7.769691 -5.065197 78.542969 24 19 17
-7.790301 -4.908872 78.751305 26 20 19
-7.790301 -4.739110 78.751305 27 21 19
-7.895009 -4.630765 79.809792 29 23 20
-7.937685 -4.482823 80.241196 32 25 22
-7.916289 -4.298233 80.024910 36 29 25
-7.959196 -4.148088 80.458649 40 33 30
-8.068525 -4.029243 81.563850 43 36 34
-8.046420 -3.842862 81.340393 42 36 34
-8.024435 -3.657499 81.118149 39 33 31
-7.980824 -3.463708 80.677292 35 29 27
-7.916289 -3.263193 80.024910 31 25 23
-7.916289 -3.090686 80.024910 28 22 20
-7.873843 -2.902532 79.595825 25 19 17
-7.790301 -2.701975 78.751305 23 17 15
-7.708513 -2.505629 77.924522 21 16 14
-7.608662 -2.307369 76.915138 21 16 13
-7.648290 -2.152720 77.315735 21 16 13
-7.379255 0.817476 74.596085 32 22 22
-7.305829 0.968546 73.853836 34 23 22
-7.269662 1.122167 73.488220 35 23 23
-7.198390 1.268028 72.767754 36 24 24
-7.216077 1.428392 72.946541 39 25 26
-7.324048 1.609365 74.038010 42 26 28
-7.342359 1.773389 74.223106 44 28 30
-7.324048 1.928567 74.038010 47 30 32
-7.342359 2.093389 74.223106 50 33 35
-7.379255 2.264712 74.596085 54 36 38
-7.379255 2.425516 74.596085 59 39 41
-7.287701 2.554232 73.670578 63 42 45
-7.342359 2.733389 74.223106 68 44 47
-7.397842 2.915253 74.783989 72 45 49
-7.397842 3.076462 74.783989 74 46 51
-7.435300 3.254065 75.162636 76 47 52
-7.435300 3.416090 75.162636 79 49 54
-7.454171 3.587197 75.353409 81 50 55
-7.454171 3.749633 75.353409 77 48 52
-7.435300 3.902166 75.162636 72 44 47
-7.435300 4.064191 75.162636 69 41 43
-7.416523 4.215544 74.972832 67 40 42
-7.454171 4.399379 75.353409 64 39 40
-7.473138 4.573423 75.545143 63 37 39
-7.454171 4.724252 75.353409 63 37 39
-7.454171 4.886689 75.353409 63 37 39
-7.435300 5.036343 75.162636 62 38 40
-7.473138 5.224823 75.545143 62 38 40
-7.379255 5.319989 74.596085 62 38 40
-7.379255 5.480793 74.596085 61 37 39
-7.435300 5.684444 75.162636 57 35 35
-7.511364 5.906280 75.931564 56 33 34
-7.511364 6.069963 75.931564 56 32 35
-7.530624 6.249629 76.126259 56 32 35
-7.511364 6.397328 75.931564 55 32 35
-7.473138 6.527622 75.545143 54 32 34
-7.324048 7.035799 74.038010 46 29 29
-7.305829 7.177501 73.853836 46 30 30
-7.269662 7.300385 73.488220 46 30 31
-7.233850 7.422058 73.126213 46 31 32
-7.233850 7.579693 73.126213 47 31 32
-7.233850 7.737329 73.126213 49 30 32
-7.233850 7.894964 73.126213 50 30 32
-7.251712 8.072483 73.306770 52 31 33
-7.251712 8.230507 73.306770 54 31 35
-7.269662 8.409296 73.488220 55 32 36
-7.287701 8.588971 73.670578 55 33 37
-7.342359 8.813389 74.223106 56 34 38
-7.360760 8.995878 74.409126 56 37 40
-7.360760 9.156280 74.409126 56 39 42
-7.454171 9.434913 75.353409 58 41 44
-7.454171 9.597349 75.353409 58 41 46
-7.379255 9.661697 74.596085 56 39 44
-7.287701 9.700634 73.670578 55 37 43
-7.251712 9.810754 73.306770 54 34 40
-7.233850 9.944225 73.126213 52 33 36
-7.198390 10.052341 72.767754 51 31 33
-7.180790 10.184243 72.589836 50 29 31
-7.145848 10.290402 72.236603 49 29 30
-7.111243 10.395534 71.886787 51 31 32
-6.720694 13.632392 67.938766 36 25 23
-5.003311 10.802991 50.577927 32 24 20
-4.969447 10.838165 50.235603 32 24 20
-5.572948 16.890617 56.336323 32 22 21
-5.520570 16.852173 55.806847 33 23 21
-5.510213 16.940630 55.702145 33 23 20
-5.489614 16.996925 55.493912 33 23 20
-3.854256 12.605453 38.962261 35 23 24
-6.574241 -6.578134 67.938766 19 16 14
-6.441577 -6.158396 66.567810 19 14 13
-7.481623 -6.319387 77.315735 18 14 12
-7.481623 -6.152720 77.315735 18 14 12
-7.540534 -6.033188 77.924522 18 15 13
-7.580326 -5.896160 78.335732 18 15 13
-7.442858 -5.623431 76.915138 18 15 13
-7.501158 -5.500377 77.517601 19 16 14
-7.560377 -5.375381 78.129585 20 17 14
-7.560377 -5.206959 78.129585 20 17 14
-7.620539 -5.078633 78.751305 22 17 15
-7.640807 -4.921927 78.960747 23 18 16
-7.681667 -4.777124 79.383003 25 19 17
-7.806911 -4.681099 80.677292 27 21 18
-7.849572 -4.531816 81.118149 30 24 20
-7.828184 -4.345080 80.897118 33 27 23
-7.871078 -4.193547 81.340393 36 30 27
-7.914444 -4.040343 81.788544 38 32 30
-7.892702 -3.853419 81.563850 38 32 30
-7.892702 -3.677595 81.563850 35 30 28
-7.849572 -3.482635 81.118149 32 27 25
-7.785754 -3.280879 80.458649 29 24 22
-7.785754 -3.107438 80.458649 25 21 19
-7.722966 -2.910335 79.809792 23 18 16
-7.620539 -2.701975 78.751305 22 16 14
-7.520794 -2.499069 77.720528 21 16 12
-7.366521 -2.283704 76.126259 20 15 12
-7.442858 -2.141566 76.915138 20 16 12
-7.128892 0.966143 73.670578 32 22 21
-7.093688 1.119396 73.306770 33 22 22
-7.024312 1.264928 72.589836 34 23 23
-7.111246 1.597414 73.488220 39 26 27
-7.128892 1.760187 73.670578 41 27 29
-7.111246 1.914246 73.488220 43 29 30
-7.146625 2.082974 73.853836 46 31 33
-7.218451 2.264712 74.596085 49 34 36
-7.218451 2.425516 74.596085 54 37 38
-7.146625 2.560586 73.853836 60 40 43
-7.182358 2.733389 74.223106 66 43 47
-7.236633 2.915253 74.783989 71 46 51
-7.236633 3.076462 74.783989 77 49 54
-7.273274 3.254065 75.162636 81 51 57
-7.273274 3.416090 75.162636 86 55 61
-7.273274 3.578115 75.162636 88 56 62
-7.291734 3.749633 75.353409 82 52 56
-7.273274 3.902166 75.162636 75 45 49
-7.273274 4.064191 75.162636 71 42 45
-7.254908 4.215544 74.972832 69 42 44
-7.291734 4.399379 75.353409 67 40 42
-7.291734 4.561816 75.353409 66 40 41
-7.273274 4.712292 75.162636 65 39 41
-7.273274 4.874318 75.162636 65 39 41
-7.273274 5.036343 75.162636 65 39 42
-7.291734 5.211562 75.353409 64 39 42
-7.218451 5.319989 74.596085 63 38 40
