ply
format ascii 1.0
element vertex 1167
property float x
property float y
property float z
property uchar red
property uchar green
property uchar blue
end_header
-2.310242 6.746562 53.882473 136 104 118
-2.331398 8.097721 54.375900 134 104 115
-2.327136 8.199919 54.276493 137 108 120
-2.327136 8.316920 54.276493 140 110 123
-2.322889 8.418531 54.177448 141 111 124
-2.322889 8.535320 54.177448 141 111 125
-2.335676 8.699735 54.475674 141 110 125
-2.327136 8.784927 54.276493 139 108 124
-2.331398 9.152666 54.375900 134 104 120
-2.327136 9.252935 54.276493 133 103 118
-2.331398 9.387098 54.375900 132 102 117
-2.335676 9.521753 54.475674 134 104 118
-2.331398 9.621531 54.375900 135 107 120
-2.335676 9.756616 54.475674 136 108 122
-2.331398 9.855963 54.375900 136 108 123
-2.327136 9.954946 54.276493 134 106 121
-2.331398 10.090395 54.375900 129 101 117
-2.344279 10.264007 54.676319 125 98 113
-2.344279 10.381870 54.676319 124 97 112
-2.331398 10.442043 54.375900 122 94 110
-2.335676 10.578634 54.475674 122 93 109
-2.339969 10.715727 54.575813 124 94 110
-2.335676 10.813497 54.475674 127 97 113
-2.335676 10.930927 54.475674 133 103 118
-2.335676 11.048359 54.475674 140 110 126
-2.344279 11.206916 54.676319 141 112 128
-2.339969 11.303963 54.575813 137 108 124
-2.335676 11.400652 54.475674 131 103 119
-2.322889 11.455029 54.177448 127 99 116
-2.318658 11.550738 54.078766 123 96 114
-2.327136 11.709973 54.276493 120 94 112
-2.318658 11.783890 54.078766 117 93 110
-2.314442 11.878828 53.980442 115 92 109
-2.314442 11.995192 53.980442 114 91 109
-2.314442 12.111555 53.980442 113 90 108
-2.318658 12.250192 54.078766 112 88 108
-2.318658 12.366768 54.078766 112 88 107
-2.327136 12.762990 54.276493 118 92 109
-2.327136 12.879992 54.276493 119 94 108
-2.327136 12.996994 54.276493 120 93 106
-2.322889 13.090065 54.177448 120 92 104
-2.318658 13.182796 54.078766 119 90 102
-2.318658 13.299373 54.078766 118 88 99
-2.318658 13.415948 54.078766 120 87 99
-2.306057 13.458978 53.784859 121 88 102
-2.301887 13.550371 53.687599 123 88 104
-2.306057 13.690862 53.784859 124 89 107
-2.306057 13.806804 53.784859 127 92 110
-2.306057 13.922746 53.784859 130 95 115
-2.306057 14.038688 53.784859 136 101 120
-2.306057 14.154630 53.784859 142 107 126
-2.301887 14.591963 53.687599 108 76 90
-2.301887 14.707695 53.687599 106 75 87
-2.297732 14.796671 53.590691 104 74 85
-2.170455 -2.862916 53.302052 103 64 74
-2.170455 -2.748015 53.302052 104 66 76
-2.178276 -2.642603 53.494129 105 68 78
-2.178276 -2.527287 53.494129 106 69 80
-2.178276 -2.411972 53.494129 108 71 83
-2.178276 -2.296657 53.494129 109 73 87
-2.178276 -2.181341 53.494129 109 74 90
-2.178276 -2.066026 53.494129 109 75 93
-2.178276 -1.950711 53.494129 108 74 93
-2.174359 -1.832094 53.397919 108 75 94
-2.166565 -1.710832 53.206528 108 76 94
-2.178276 -1.604765 53.494129 108 77 94
-2.186154 -1.494836 53.687599 108 79 95
-1.772644 0.477061 43.532612 141 118 135
-1.754635 0.565102 43.090336 141 119 136
-1.736988 0.651373 42.656956 141 120 137
-1.717249 0.734880 42.172218 140 121 137
-1.381649 2.419835 33.930561 133 96 113
-1.057693 2.188412 25.974840 135 95 104
-1.056769 2.242444 25.952135 137 97 105
-1.055846 2.296380 25.929470 138 98 106
-2.210134 5.157871 54.276493 136 99 108
-2.210134 5.274873 54.276493 135 98 107
-2.210134 5.391875 54.276493 133 97 106
-2.222322 5.539257 54.575813 132 95 105
-2.226415 5.667321 54.676319 130 93 104
-2.230523 5.795859 54.777199 129 93 104
-2.226415 5.903049 54.676319 129 93 105
-2.226415 6.020913 54.676319 129 94 107
-2.230523 6.150102 54.777199 130 96 110
-2.226415 6.256640 54.676319 132 99 113
-2.214182 6.339479 54.375900 134 102 116
-2.202083 6.421412 54.078766 136 104 117
-2.206101 6.549919 54.177448 137 105 119
-2.202083 6.654564 54.078766 137 106 120
-2.190115 6.734340 53.784859 137 105 121
-0.956443 3.143477 23.488325 131 100 112
-2.210134 8.082917 54.276493 129 101 113
-2.206101 8.184956 54.177448 134 107 119
-2.206101 8.301744 54.177448 140 112 126
-2.206101 8.418531 54.177448 143 115 129
-2.206101 8.535320 54.177448 145 115 131
-2.218245 8.699735 54.475674 144 114 130
-2.214182 8.801018 54.375900 143 112 128
-2.206101 8.885685 54.177448 141 110 125
-2.214182 9.152666 54.375900 137 107 122
-2.214182 9.269882 54.375900 136 105 120
-2.214182 9.387098 54.375900 135 104 119
-2.218245 9.521753 54.475674 136 106 120
-2.214182 9.621531 54.375900 138 108 122
-2.218245 9.756616 54.475674 140 110 125
-2.218245 9.874046 54.475674 140 110 125
-2.214182 9.973179 54.375900 138 109 123
-2.218245 10.108909 54.475674 133 105 119
-2.226415 10.264007 54.676319 129 101 116
-2.226415 10.381870 54.676319 126 98 113
-2.210134 10.422954 54.276493 124 95 111
-2.218245 10.578634 54.475674 123 94 110
-2.222322 10.715727 54.575813 123 94 109
-2.218245 10.813497 54.475674 126 96 112
-2.218245 10.930927 54.475674 130 101 116
-2.218245 11.048359 54.475674 135 106 122
-2.226415 11.206916 54.676319 137 109 125
-2.218245 11.283221 54.475674 134 107 123
-2.214182 11.379772 54.375900 131 103 120
-2.206101 11.455029 54.177448 127 100 117
-2.202083 11.550738 54.078766 124 97 115
-2.210134 11.709973 54.276493 120 94 112
-2.202083 11.783890 54.078766 116 92 110
-2.198079 11.878828 53.980442 114 91 108
-2.194090 11.973422 53.882473 114 90 109
-2.198079 12.111555 53.980442 114 90 108
-2.202083 12.250192 54.078766 112 88 107
-2.202083 12.366768 54.078766 112 86 106
-2.202083 12.716495 54.078766 122 95 111
-2.206101 12.856488 54.177448 124 97 112
-2.202083 12.949646 54.078766 123 96 109
-2.202083 13.066221 54.078766 122 94 106
-2.198079 13.158828 53.980442 120 91 102
-2.198079 13.275191 53.980442 118 87 98
-2.198079 13.391556 53.980442 118 86 98
-2.186154 13.434639 53.687599 120 87 100
-2.182208 13.525912 53.590691 122 89 103
-2.186154 13.666104 53.687599 124 90 105
-2.190115 13.806804 53.784859 126 92 109
-2.190115 13.922746 53.784859 130 96 113
-2.190115 14.038688 53.784859 135 100 118
-2.194090 14.180319 53.882473 142 107 124
-2.194090 14.296471 53.882473 140 104 121
-2.194090 14.412623 53.882473 126 92 108
-2.190115 14.502456 53.784859 115 82 97
-2.190115 14.618398 53.784859 109 78 92
-2.186154 14.707695 53.687599 106 76 90
-2.182208 14.796671 53.590691 104 75 88
-2.178276 14.885325 53.494129 103 74 86
-2.070422 -2.999357 53.687599 103 63 74
-2.059251 -2.868066 53.397919 104 65 74
-2.055554 -2.748015 53.302052 105 66 75
-2.062961 -2.642603 53.494129 107 68 77
-2.062961 -2.527287 53.494129 108 69 79
-2.062961 -2.411972 53.494129 110 72 83
-2.062961 -2.296657 53.494129 113 76 89
-2.062961 -2.181341 53.494129 114 78 94
-2.062961 -2.066026 53.494129 111 76 95
-2.062961 -1.950711 53.494129 109 75 93
-2.059251 -1.832094 53.397919 108 74 93
-2.051870 -1.710832 53.206528 108 75 93
-2.062961 -1.604765 53.494129 109 77 93
-1.683740 0.478464 43.660652 141 118 133
-1.659338 0.564283 43.027885 141 119 135
-1.642673 0.650438 42.595757 140 120 135
-1.617152 0.730728 41.933956 140 120 135
-1.311504 2.352068 34.008297 134 98 115
-1.307013 2.417073 33.891830 133 97 113
-1.001700 2.188412 25.974840 135 96 105
-1.000825 2.242444 25.952135 138 98 107
-0.999951 2.296380 25.929470 140 100 110
-2.089313 5.148459 54.177448 138 100 112
-2.093132 5.274873 54.276493 136 99 112
-2.093132 5.391875 54.276493 135 98 111
-2.104675 5.539257 54.575813 133 97 110
-2.112442 5.677778 54.777199 131 95 108
-2.112442 5.795859 54.777199 130 94 107
-2.112442 5.913940 54.777199 129 93 107
-2.112442 6.032021 54.777199 129 95 109
-2.116346 6.161470 54.878452 130 97 111
-2.112442 6.268184 54.777199 132 99 113
-2.104675 6.362786 54.575813 134 101 116
-2.093132 6.444891 54.276493 135 104 118
-2.093132 6.561893 54.276493 137 105 120
-2.089313 6.666707 54.177448 137 106 121
-0.912305 3.064028 23.656767 138 107 120
-0.905810 3.092844 23.488325 137 106 118
-0.905810 3.143477 23.488325 134 104 115
-2.089313 8.068167 54.177448 126 99 112
-2.089313 8.184956 54.177448 132 105 118
-2.085507 8.286622 54.078766 139 112 125
-2.085507 8.403197 54.078766 144 116 130
-2.085507 8.519773 54.078766 146 116 132
-2.096966 8.683802 54.375900 145 115 130
-2.096966 8.801018 54.375900 145 114 129
-2.089313 8.885685 54.177448 144 114 129
-2.096966 9.152666 54.375900 144 113 128
-2.096966 9.269882 54.375900 141 109 124
-2.096966 9.387098 54.375900 138 107 121
-2.100813 9.521753 54.475674 136 106 120
-2.096966 9.621531 54.375900 137 107 121
-2.100813 9.756616 54.475674 139 109 124
-2.104675 9.892198 54.575813 141 112 126
-2.100813 9.991478 54.475674 141 111 126
-2.104675 10.127492 54.575813 137 108 122
-2.112442 10.282944 54.777199 133 104 117
-2.108551 10.381870 54.676319 129 100 114
-2.093132 10.422954 54.276493 126 97 112
-2.100813 10.578634 54.475674 124 95 110
-2.104675 10.715727 54.575813 124 94 110
-2.100813 10.813497 54.475674 124 95 111
-2.100813 10.930927 54.475674 127 98 114
-2.100813 11.048359 54.475674 130 102 118
-2.100813 11.165790 54.475674 131 104 120
-2.096966 11.262556 54.375900 131 104 120
-2.089313 11.338240 54.177448 130 102 119
-2.085507 11.434163 54.078766 127 100 117
-2.081715 11.529737 53.980442 124 97 114
-2.089313 11.688605 54.177448 120 94 112
-2.081715 11.762465 53.980442 116 91 109
-2.081715 11.878828 53.980442 115 89 108
-2.077937 11.973422 53.882473 115 90 109
-2.081715 12.111555 53.980442 115 90 110
-2.085507 12.250192 54.078766 114 87 108
-2.085507 12.366768 54.078766 112 85 105
-2.085507 12.716495 54.078766 126 98 114
-2.085507 12.833070 54.078766 130 102 116
-2.085507 12.949646 54.078766 129 101 114
-2.085507 13.066221 54.078766 127 98 109
-2.081715 13.158828 53.980442 124 94 105
-2.081715 13.275191 53.980442 121 91 102
-2.081715 13.391556 53.980442 120 89 100
-2.070422 13.434639 53.687599 120 89 101
-2.066685 13.525912 53.590691 122 90 103
-2.070422 13.666104 53.687599 123 91 105
-2.074173 13.806804 53.784859 125 92 107
-2.074173 13.922746 53.784859 128 94 109
-2.074173 14.038688 53.784859 131 97 112
-2.077937 14.180319 53.882473 137 102 117
-2.077937 14.296471 53.882473 137 103 118
-2.077937 14.412623 53.882473 128 94 109
-2.074173 14.502456 53.784859 117 85 100
-2.074173 14.618398 53.784859 111 80 94
-2.074173 14.734340 53.784859 108 77 92
-2.066685 14.796671 53.590691 105 75 90
-1.958231 -3.004791 53.784859 102 64 75
-1.944143 -2.868066 53.397919 104 65 74
-1.940652 -2.748015 53.302052 105 67 75
-1.947646 -2.642603 53.494129 106 68 75
-1.944143 -2.522742 53.397919 107 68 77
-1.947646 -2.411972 53.494129 112 72 83
-1.947646 -2.296657 53.494129 119 81 94
-1.947646 -2.181341 53.494129 121 84 100
-1.947646 -2.066026 53.494129 115 79 98
-1.947646 -1.950711 53.494129 109 75 94
-1.944143 -1.832094 53.397919 108 74 92
-1.937174 -1.710832 53.206528 109 75 93
-1.947646 -1.604765 53.494129 109 77 93
-1.591964 0.479169 43.724953 140 119 133
-1.562057 0.562652 42.903530 140 119 134
-1.544205 0.647651 42.413204 141 120 134
-1.520314 0.727645 41.757023 141 120 135
-0.945707 2.244406 25.974840 137 100 111
-0.944881 2.298388 25.952135 139 102 113
-1.968931 5.139081 54.078766 139 103 118
-1.976130 5.274873 54.276493 138 102 118
-1.976130 5.391875 54.276493 137 101 117
-1.990688 5.549458 54.676319 134 99 115
-1.998047 5.688272 54.878452 131 96 111
-2.001747 5.817325 54.980080 130 94 109
-1.998047 5.924871 54.878452 129 94 109
-2.001747 6.054362 54.980080 128 94 109
-2.005461 6.184333 55.082081 129 95 110
-2.005461 6.303071 55.082081 131 98 113
-1.994360 6.386265 54.777199 133 101 116
-1.983382 6.468542 54.475674 135 103 118
-1.983382 6.585973 54.475674 136 105 120
-1.976130 6.678895 54.276493 137 106 120
-0.860624 3.061589 23.637932 140 109 122
-0.855177 3.092844 23.488325 140 109 120
-0.855177 3.143477 23.488325 137 106 117
-1.965352 7.573374 53.980442 133 102 111
-1.968931 7.703744 54.078766 131 102 111
-1.968931 7.820320 54.078766 129 100 111
-1.968931 7.936895 54.078766 127 99 110
-1.972524 8.068167 54.177448 127 99 112
-1.968931 8.170047 54.078766 131 103 117
-1.968931 8.286622 54.078766 137 109 123
-1.968931 8.403197 54.078766 142 113 127
-1.968931 8.519773 54.078766 143 114 128
-1.976130 8.667926 54.276493 143 115 128
-1.979750 8.801018 54.375900 144 115 128
-1.976130 8.901930 54.276493 146 117 130
-1.979750 9.035450 54.375900 149 119 133
-1.983382 9.169459 54.475674 149 119 133
-1.983382 9.286891 54.475674 146 114 128
-1.983382 9.404322 54.475674 140 108 123
-1.987028 9.539256 54.575813 136 105 119
-1.979750 9.621531 54.375900 136 105 119
-1.987028 9.774550 54.575813 138 108 122
-1.987028 9.892198 54.575813 141 111 126
-1.987028 10.009845 54.575813 142 112 127
-1.990688 10.146143 54.676319 140 111 125
-1.994360 10.282944 54.777199 136 107 120
-1.990688 10.381870 54.676319 132 103 117
-1.976130 10.422954 54.276493 129 100 114
-1.983382 10.578634 54.475674 126 97 112
-1.983382 10.696065 54.475674 125 96 111
-1.983382 10.813497 54.475674 125 96 111
-1.983382 10.930927 54.475674 125 97 112
-1.983382 11.048359 54.475674 127 100 115
-1.983382 11.165790 54.475674 129 101 118
-1.976130 11.241966 54.276493 129 102 119
-1.968931 11.317587 54.078766 129 102 118
-1.965352 11.413374 53.980442 127 100 116
-1.965352 11.529737 53.980442 124 98 114
-1.968931 11.667315 54.078766 121 95 111
-1.965352 11.762465 53.980442 117 91 108
-1.965352 11.878828 53.980442 115 88 106
-1.961785 11.973422 53.882473 116 89 108
-1.961785 12.089575 53.882473 117 91 111
-1.965352 12.227919 53.980442 116 89 109
-1.968931 12.366768 54.078766 113 86 106
-1.968931 12.483343 54.078766 114 86 105
-1.968931 12.599919 54.078766 118 90 108
-1.968931 12.716495 54.078766 125 96 113
-1.968931 12.833070 54.078766 131 101 116
-1.968931 12.949646 54.078766 133 103 116
-1.972524 13.090065 54.177448 133 102 115
-1.968931 13.182796 54.078766 132 101 112
-1.965352 13.275191 53.980442 129 98 109
-1.965352 13.391556 53.980442 126 95 106
-1.958231 13.458978 53.784859 124 93 105
-1.951161 13.525912 53.590691 124 92 106
-1.954690 13.666104 53.687599 124 92 106
-1.958231 13.806804 53.784859 124 92 106
-1.958231 13.922746 53.784859 125 92 106
-1.958231 14.038688 53.784859 126 93 106
-1.961785 14.180319 53.882473 129 95 109
-1.961785 14.296471 53.882473 131 98 111
-1.958231 14.386514 53.784859 128 95 109
-1.958231 14.502456 53.784859 121 88 103
-1.958231 14.618398 53.784859 114 82 97
-1.842289 -3.004791 53.784859 102 65 75
-1.829035 -2.868066 53.397919 103 66 75
-1.825751 -2.748015 53.302052 105 67 75
-1.832330 -2.642603 53.494129 105 67 74
-1.829035 -2.522742 53.397919 106 67 76
-1.832330 -2.411972 53.494129 112 73 84
-1.832330 -2.296657 53.494129 122 84 98
-1.832330 -2.181341 53.494129 125 88 104
-1.832330 -2.066026 53.494129 117 81 99
-1.832330 -1.950711 53.494129 109 75 94
-1.829035 -1.832094 53.397919 108 74 93
-1.822479 -1.710832 53.206528 110 76 94
-1.829035 -1.601879 53.397919 110 77 94
-1.467451 0.561840 42.841618 141 120 135
-1.448637 0.645806 42.292366 141 120 134
-0.804544 0.814363 23.488325 140 116 130
-1.845632 4.191208 53.882473 133 98 110
-1.845632 5.120427 53.882473 140 104 122
-1.852356 5.255657 54.078766 139 104 123
-1.855736 5.382036 54.177448 138 103 122
-1.865951 5.529093 54.475674 136 101 120
-1.879747 5.688272 54.878452 133 98 116
-1.883228 5.817325 54.980080 129 95 112
-1.883228 5.935843 54.980080 127 94 110
-1.886722 6.065595 55.082081 126 93 109
-1.893749 6.207366 55.287228 127 94 110
-1.890229 6.314787 55.184464 130 97 112
-1.883228 6.409917 54.980080 133 100 115
-1.872824 6.492367 54.676319 135 102 117
-1.869381 6.598080 54.575813 136 104 119
-1.862534 6.691127 54.375900 136 105 119
-1.852356 6.771139 54.078766 136 105 119
-0.804544 3.092844 23.488325 141 109 121
-0.804544 3.143477 23.488325 140 108 119
-1.845632 7.443476 53.882473 138 107 116
-1.848988 7.573374 53.980442 137 106 115
-1.848988 7.689737 53.980442 136 105 114
-1.852356 7.820320 54.078766 133 103 114
-1.852356 7.936895 54.078766 130 101 112
-1.852356 8.053471 54.078766 128 99 112
-1.852356 8.170047 54.078766 131 102 116
-1.852356 8.286622 54.078766 135 106 121
-1.852356 8.403197 54.078766 138 110 124
-1.852356 8.519773 54.078766 140 113 126
-1.855736 8.652108 54.177448 142 115 127
-1.859129 8.784927 54.276493 144 116 128
-1.862534 8.918234 54.375900 147 118 130
-1.865951 9.052029 54.475674 150 121 132
-1.865951 9.169459 54.475674 152 122 133
-1.869381 9.303963 54.575813 149 118 130
-1.869381 9.421609 54.575813 143 111 124
-1.869381 9.539256 54.575813 137 105 119
-1.862534 9.621531 54.375900 136 105 119
-1.869381 9.774550 54.575813 138 107 121
-1.869381 9.892198 54.575813 141 109 125
-1.869381 10.009845 54.575813 142 112 126
-1.869381 10.127492 54.575813 141 111 126
-1.872824 10.264007 54.676319 138 108 122
-1.869381 10.362785 54.575813 135 106 119
-1.859129 10.422954 54.276493 132 103 116
-1.862534 10.559259 54.375900 129 99 113
-1.862534 10.676476 54.375900 127 98 112
-1.862534 10.793692 54.375900 125 97 111
-1.865951 10.930927 54.475674 124 97 111
-1.865951 11.048359 54.475674 126 99 114
-1.862534 11.145340 54.375900 128 101 116
-1.855736 11.221452 54.177448 128 101 117
-1.852356 11.317587 54.078766 128 102 116
-1.848988 11.413374 53.980442 127 101 115
-1.848988 11.529737 53.980442 125 99 113
-1.852356 11.667315 54.078766 121 96 110
-1.848988 11.762465 53.980442 117 91 106
-1.845632 11.857269 53.882473 114 88 104
-1.845632 11.973422 53.882473 115 89 106
-1.845632 12.089575 53.882473 117 91 110
-1.848988 12.227919 53.980442 118 91 110
-1.852356 12.366768 54.078766 116 88 107
-1.848988 12.460647 53.980442 116 88 106
-1.848988 12.577010 53.980442 119 90 108
-1.848988 12.693374 53.980442 123 93 110
-1.848988 12.809737 53.980442 128 98 113
-1.852356 12.949646 54.078766 133 102 117
-1.852356 13.066221 54.078766 138 107 121
-1.852356 13.182796 54.078766 139 109 121
-1.848988 13.275191 53.980442 136 106 118
-1.848988 13.391556 53.980442 132 102 114
-1.842289 13.458978 53.784859 130 99 112
-1.835638 13.525912 53.590691 128 97 111
-1.835638 13.641436 53.590691 127 95 109
-1.842289 13.806804 53.784859 126 94 107
-1.842289 13.922746 53.784859 125 92 105
-1.842289 14.038688 53.784859 124 91 104
-1.842289 14.154630 53.784859 124 91 104
-1.838957 14.244766 53.687599 126 93 106
-1.838957 14.360498 53.687599 128 95 109
-1.710850 -2.748015 53.302052 103 67 75
-1.713927 -2.637850 53.397919 104 66 75
-1.713927 -2.522742 53.397919 106 66 77
-1.717015 -2.411972 53.494129 110 72 85
-1.713927 -2.292526 53.397919 119 80 96
-1.717015 -2.181341 53.494129 122 84 102
-1.717015 -2.066026 53.494129 115 79 98
-1.717015 -1.950711 53.494129 109 74 93
-1.713927 -1.832094 53.397919 109 75 93
-1.707784 -1.710832 53.206528 110 76 95
-1.713927 -1.601879 53.397919 111 78 96
-1.723225 -1.494836 53.687599 112 80 98
-0.753911 0.814363 23.488325 140 115 129
-1.735780 4.089900 54.078766 133 100 111
-1.726347 4.183615 53.784859 133 100 112
-1.723225 4.291782 53.687599 133 99 112
-1.723225 4.407515 53.687599 132 98 111
-1.726347 4.531441 53.784859 132 98 111
-1.726347 5.111151 53.784859 140 106 126
-1.729480 5.236580 53.882473 141 107 128
-1.735780 5.372232 54.078766 141 106 127
-1.742127 5.508876 54.276493 138 104 124
-1.761448 5.688272 54.878452 135 101 120
-1.764710 5.817325 54.980080 131 97 116
-1.764710 5.935843 54.980080 127 94 112
-1.771270 6.076869 55.184464 125 93 109
-1.774569 6.207366 55.287228 126 94 110
-1.774569 6.326547 55.287228 129 96 112
-1.771270 6.433746 55.184464 132 99 114
-1.761448 6.516369 54.878452 134 101 116
-1.758198 6.622427 54.777199 135 103 118
-1.745317 6.691127 54.375900 136 104 118
-1.738948 6.783495 54.177448 136 104 118
-1.732624 6.875192 53.980442 136 104 118
-1.726347 7.314050 53.784859 142 110 120
-1.729480 7.443476 53.882473 143 111 120
-1.729480 7.559629 53.882473 143 111 120
-1.732624 7.689737 53.980442 142 109 119
-1.732624 7.806101 53.980442 139 108 118
-1.732624 7.922464 53.980442 135 104 115
-1.735780 8.053471 54.078766 130 100 113
-1.732624 8.155191 53.980442 131 101 115
-1.735780 8.286622 54.078766 134 105 119
-1.735780 8.403197 54.078766 136 109 122
-1.735780 8.519773 54.078766 139 112 124
-1.738948 8.652108 54.177448 142 114 126
-1.742127 8.784927 54.276493 144 117 127
-1.748520 8.934597 54.475674 147 119 129
-1.751734 9.068668 54.575813 150 121 131
-1.751734 9.186316 54.575813 152 122 133
-1.754960 9.321096 54.676319 152 120 132
-1.754960 9.438960 54.676319 147 114 127
-1.751734 9.539256 54.575813 141 108 122
-1.745317 9.621531 54.375900 139 106 121
-1.748520 9.756616 54.475674 140 107 122
-1.748520 9.874046 54.475674 140 107 123
-1.748520 9.991478 54.475674 140 109 124
-1.748520 10.108909 54.475674 140 109 124
-1.751734 10.245139 54.575813 138 108 122
-1.745317 10.324827 54.375900 136 107 121
-1.738948 10.403934 54.177448 134 105 118
-1.742127 10.539955 54.276493 131 102 116
-1.742127 10.656957 54.276493 129 100 114
-1.748520 10.930927 54.475674 125 98 112
-1.748520 11.048359 54.475674 126 99 113
-1.748520 11.165790 54.475674 127 100 115
-1.738948 11.221452 54.177448 128 102 116
-1.735780 11.317587 54.078766 129 103 117
-1.732624 11.413374 53.980442 128 104 116
-1.732624 11.529737 53.980442 126 101 114
-1.735780 11.667315 54.078766 122 97 110
-1.732624 11.762465 53.980442 118 92 106
-1.732624 11.878828 53.980442 114 88 104
-1.732624 11.995192 53.980442 114 88 106
-1.729480 12.089575 53.882473 117 91 110
-1.732624 12.227919 53.980442 119 93 111
-1.735780 12.366768 54.078766 119 91 109
-1.735780 12.483343 54.078766 119 91 108
-1.732624 12.577010 53.980442 119 91 107
-1.732624 12.693374 53.980442 121 91 107
-1.732624 12.809737 53.980442 123 92 108
-1.732624 12.926101 53.980442 130 99 114
-1.735780 13.066221 54.078766 142 110 125
-1.735780 13.182796 54.078766 147 116 130
-1.732624 13.275191 53.980442 144 113 127
-1.732624 13.391556 53.980442 138 107 121
-1.726347 13.458978 53.784859 134 104 118
-1.720114 13.525912 53.590691 133 102 117
-1.720114 13.641436 53.590691 131 100 114
-1.726347 13.806804 53.784859 129 98 111
-1.726347 13.922746 53.784859 127 95 109
-1.726347 14.038688 53.784859 125 94 106
-1.726347 14.154630 53.784859 124 93 105
-1.601700 -2.411972 53.494129 108 70 84
-1.601700 -2.296657 53.494129 113 75 92
-1.601700 -2.181341 53.494129 116 79 97
-1.601700 -2.066026 53.494129 113 77 96
-1.601700 -1.950711 53.494129 109 74 93
-1.598819 -1.832094 53.397919 108 74 93
-1.593089 -1.710832 53.206528 109 77 96
-1.598819 -1.601879 53.397919 111 80 98
-1.607493 -1.494836 53.687599 114 82 102
-0.853113 2.032011 28.492556 129 96 109
-1.607493 4.176050 53.687599 133 100 113
-1.607493 4.291782 53.687599 133 100 113
-1.604591 4.399559 53.590691 131 99 113
-1.607493 4.523247 53.687599 130 97 112
-1.610405 4.647383 53.784859 130 97 112
-1.607493 4.986176 53.687599 140 106 125
-1.607493 5.101909 53.687599 142 108 129
-1.610405 5.227093 53.784859 144 110 132
-1.616261 5.362464 53.980442 144 109 131
-1.622159 5.498824 54.177448 142 107 129
-1.640117 5.677778 54.777199 138 104 124
-1.646191 5.817325 54.980080 133 100 119
-1.643149 5.924871 54.878452 128 96 114
-1.652311 6.076869 55.184464 126 93 111
-1.655388 6.207366 55.287228 126 93 110
-1.655388 6.326547 55.287228 127 94 111
-1.652311 6.433746 55.184464 130 97 113
-1.646191 6.528436 54.980080 132 100 114
-1.637096 6.610231 54.676319 134 102 116
-1.625125 6.678895 54.276493 135 104 117
-1.622159 6.783495 54.177448 135 104 117
-1.619205 6.887715 54.078766 134 104 116
-1.613327 6.978867 53.882473 135 105 117
-1.610405 7.314050 53.784859 143 110 121
-1.613327 7.443476 53.882473 145 112 122
-1.616261 7.573374 53.980442 146 113 122
-1.613327 7.675781 53.882473 146 113 123
-1.616261 7.806101 53.980442 145 112 123
-1.616261 7.922464 53.980442 140 108 120
-1.616261 8.038828 53.980442 134 103 116
-1.616261 8.155191 53.980442 132 102 116
-1.616261 8.271555 53.980442 134 105 119
-1.619205 8.403197 54.078766 136 108 122
-1.619205 8.519773 54.078766 139 112 124
-1.622159 8.652108 54.177448 142 115 126
-1.625125 8.784927 54.276493 145 117 127
-1.628101 8.918234 54.375900 147 119 128
-1.634087 9.068668 54.575813 150 121 131
-1.637096 9.203233 54.676319 153 122 133
-1.637096 9.321096 54.676319 155 122 135
-1.637096 9.438960 54.676319 152 119 132
-1.634087 9.539256 54.575813 145 112 127
-1.625125 9.603941 54.276493 141 108 123
-1.625125 9.720942 54.276493 140 107 123
-1.628101 9.855963 54.375900 139 107 122
-1.628101 9.973179 54.375900 138 107 122
-1.625125 10.071948 54.276493 137 107 122
-1.628101 10.207611 54.375900 137 108 122
-1.622159 10.287145 54.177448 137 108 122
-1.619205 10.384983 54.078766 136 108 121
-1.619205 10.501558 54.078766 133 105 118
-1.631089 10.930927 54.475674 127 100 113
-1.631089 11.048359 54.475674 126 99 113
-1.631089 11.165790 54.475674 128 101 115
-1.622159 11.221452 54.177448 130 104 117
-1.619205 11.317587 54.078766 131 106 118
-1.616261 11.413374 53.980442 130 105 117
-1.619205 11.550738 54.078766 126 102 114
-1.619205 11.667315 54.078766 122 97 110
-1.619205 11.783890 54.078766 117 92 105
-1.619205 11.900465 54.078766 113 88 102
-1.619205 12.017041 54.078766 114 87 103
-1.616261 12.111555 53.980442 118 91 108
-1.616261 12.227919 53.980442 121 94 111
-1.619205 12.366768 54.078766 121 94 110
-1.619205 12.483343 54.078766 121 93 109
-1.616261 12.577010 53.980442 120 90 107
-1.616261 12.693374 53.980442 119 89 105
-1.616261 12.809737 53.980442 117 86 103
-1.616261 12.926101 53.980442 123 91 108
-1.619205 13.066221 54.078766 137 106 122
-1.619205 13.182796 54.078766 147 116 131
-1.616261 13.275191 53.980442 145 114 129
-1.616261 13.391556 53.980442 140 110 125
-1.613327 13.483404 53.882473 138 108 123
-1.607493 13.550371 53.687599 138 107 122
-1.604591 13.641436 53.590691 136 105 120
-1.610405 13.806804 53.784859 133 102 116
-1.486384 -2.181341 53.494129 113 76 94
-1.486384 -2.066026 53.494129 111 76 94
-1.486384 -1.950711 53.494129 109 74 92
-1.483711 -1.832094 53.397919 109 76 94
-1.478393 -1.710832 53.206528 110 78 97
-1.483711 -1.601879 53.397919 112 81 101
-1.489067 -1.492138 53.590691 115 84 105
-0.793215 2.035919 28.547348 128 95 107
-1.491760 4.176050 53.687599 132 100 113
-1.489067 4.284035 53.590691 132 99 114
-1.489067 4.399559 53.590691 132 99 114
-1.494463 4.531441 53.784859 130 98 113
-1.494463 4.647383 53.784859 131 98 114
-1.497175 4.771970 53.882473 133 100 117
-1.494463 4.879267 53.784859 138 104 122
-1.494463 4.995209 53.784859 142 107 126
-1.491760 5.101909 53.687599 144 110 130
-1.494463 5.227093 53.784859 147 112 133
-1.499897 5.362464 53.980442 148 113 135
-1.505371 5.498824 54.177448 146 110 132
-1.519233 5.667321 54.676319 141 106 127
-1.524849 5.806572 54.878452 136 101 121
-1.522036 5.913940 54.777199 131 98 116
-1.530507 6.065595 55.082081 128 95 113
-1.533352 6.195828 55.184464 126 93 110
-1.533352 6.314787 55.184464 126 93 110
-1.530507 6.421810 55.082081 129 95 111
-1.522036 6.504346 54.777199 131 98 113
-1.510885 6.573911 54.375900 133 101 115
-1.502629 6.654564 54.078766 134 104 117
-1.497175 6.862714 53.882473 134 104 116
-1.494463 6.966224 53.784859 135 104 116
-1.491760 7.069359 53.687599 136 105 117
-1.491760 7.185091 53.687599 139 106 119
-1.494463 7.314050 53.784859 142 109 120
-1.497175 7.443476 53.882473 145 111 122
-1.497175 7.559629 53.882473 147 114 123
-1.497175 7.675781 53.882473 149 115 125
-1.497175 7.791934 53.882473 148 115 126
-1.499897 7.922464 53.980442 144 111 123
-1.499897 8.038828 53.980442 137 105 119
-1.499897 8.155191 53.980442 134 103 117
-1.499897 8.271555 53.980442 134 104 117
-1.502629 8.403197 54.078766 136 107 120
-1.502629 8.519773 54.078766 139 111 123
-1.505371 8.652108 54.177448 142 114 125
-1.505371 8.768897 54.177448 145 116 126
-1.510885 8.918234 54.375900 147 118 127
-1.513658 9.052029 54.475674 151 121 131
-1.519233 9.203233 54.676319 155 123 134
-1.519233 9.321096 54.676319 158 125 137
-1.519233 9.438960 54.676319 156 123 137
-1.513658 9.521753 54.475674 151 117 132
-1.505371 9.586415 54.177448 145 112 127
-1.505371 9.703203 54.177448 142 109 124
-1.508123 9.837944 54.276493 140 108 123
-1.508123 9.954946 54.276493 138 107 122
-1.505371 10.053569 54.177448 137 107 122
-1.505371 10.170357 54.177448 138 108 121
-1.502629 10.268407 54.078766 138 109 122
-1.499897 10.366101 53.980442 138 109 123
-1.502629 10.501558 54.078766 135 106 119
-1.499897 10.598828 53.980442 131 102 115
-1.510885 10.910908 54.375900 127 99 112
-1.513658 11.048359 54.475674 126 99 112
-1.510885 11.145340 54.375900 129 102 114
-1.505371 11.221452 54.177448 132 106 118
-1.502629 11.317587 54.078766 133 108 119
-1.502629 11.434163 54.078766 131 106 118
-1.505371 11.571816 54.177448 128 103 115
-1.505371 11.688605 54.177448 123 98 110
-1.502629 11.783890 54.078766 117 92 105
-1.502629 11.900465 54.078766 113 87 101
-1.502629 12.017041 54.078766 114 88 102
-1.502629 12.133616 54.078766 118 91 107
-1.499897 12.227919 53.980442 122 94 111
-1.502629 12.366768 54.078766 123 95 111
-1.502629 12.483343 54.078766 123 93 109
-1.502629 12.599919 54.078766 122 91 107
-1.502629 12.716495 54.078766 119 87 103
-1.499897 12.809737 53.980442 116 83 100
-1.499897 12.926101 53.980442 119 86 103
-1.502629 13.066221 54.078766 129 97 113
-1.499897 13.158828 53.980442 136 105 120
-1.499897 13.275191 53.980442 136 105 121
-1.499897 13.391556 53.980442 136 105 121
-1.497175 13.483404 53.882473 138 108 123
-1.491760 13.550371 53.687599 139 110 125
-1.368603 -1.832094 53.397919 110 78 96
-1.366146 -1.713904 53.302052 111 79 98
-1.368603 -1.601879 53.397919 113 81 102
-1.373544 -1.492138 53.590691 115 84 106
-1.373544 -1.376615 53.590691 116 86 108
-1.588608 0.545627 61.981716 141 120 138
-1.568955 0.670836 61.214931 141 120 137
-0.743109 1.817730 28.993401 134 101 118
-0.743835 1.882068 29.021742 132 99 114
-0.740938 1.937055 28.908707 128 95 109
-0.738063 1.991615 28.796549 127 93 106
-1.378521 4.067673 53.784859 130 97 110
-1.373544 4.168512 53.590691 132 99 112
-1.373544 4.284035 53.590691 133 100 114
-1.376028 4.407515 53.687599 133 101 115
-1.381022 4.539665 53.882473 132 101 114
-1.381022 4.655818 53.882473 132 101 115
-1.381022 4.771970 53.882473 135 103 118
-1.381022 4.888123 53.882473 140 107 122
-1.378521 4.995209 53.784859 144 109 126
-1.376028 5.101909 53.687599 146 110 128
-1.378521 5.227093 53.784859 147 111 131
-1.383533 5.362464 53.980442 149 113 133
-1.386053 5.488808 54.078766 147 111 131
-1.396226 5.646524 54.475674 142 106 127
-1.401369 5.785185 54.676319 138 102 122
-1.398793 5.892198 54.575813 134 100 119
-1.409154 6.054362 54.980080 130 97 115
-1.411769 6.184333 55.082081 128 94 112
-1.409154 6.291399 54.980080 128 94 110
-1.409154 6.409917 54.980080 129 96 111
-1.401369 6.492367 54.676319 131 99 113
-1.388583 6.549919 54.177448 133 102 115
-1.376028 6.837894 53.687599 135 104 115
-1.376028 6.953627 53.687599 135 104 115
-1.373544 7.056598 53.590691 135 104 116
-1.373544 7.172122 53.590691 138 106 117
-1.376028 7.300824 53.687599 141 107 118
-1.381022 7.443476 53.882473 144 111 120
-1.381022 7.559629 53.882473 147 113 123
-1.381022 7.675781 53.882473 150 115 125
-1.381022 7.791934 53.882473 150 116 127
-1.383533 7.922464 53.980442 147 113 125
-1.383533 8.038828 53.980442 140 107 120
-1.383533 8.155191 53.980442 134 102 115
-1.383533 8.271555 53.980442 132 101 113
-1.383533 8.387919 53.980442 135 105 117
-1.386053 8.519773 54.078766 138 110 121
-1.386053 8.636349 54.078766 141 112 123
-1.391121 8.784927 54.276493 143 114 124
-1.393669 8.918234 54.375900 146 117 126
-1.398793 9.068668 54.575813 150 120 130
-1.403955 9.220213 54.777199 156 124 135
-1.403955 9.338294 54.777199 161 128 140
-1.401369 9.438960 54.676319 162 128 141
-1.396226 9.521753 54.475674 157 123 137
-1.388583 9.586415 54.177448 150 117 131
-1.388583 9.703203 54.177448 146 113 128
-1.391121 9.837944 54.276493 143 110 125
-1.391121 9.954946 54.276493 140 109 124
-1.386053 10.035255 54.078766 138 108 122
-1.388583 10.170357 54.177448 137 108 120
-1.383533 10.249737 53.980442 138 109 121
-1.381022 10.347287 53.882473 138 109 121
-1.383533 10.482465 53.980442 135 107 118
-1.381022 10.579593 53.882473 132 103 114
-1.383533 10.715192 53.980442 129 101 112
-1.391121 10.890961 54.276493 127 99 110
-1.393669 11.028124 54.375900 125 98 110
-1.393669 11.145340 54.375900 128 101 113
-1.388583 11.221452 54.177448 132 106 118
-1.386053 11.317587 54.078766 135 108 120
-1.386053 11.434163 54.078766 133 107 119
-1.388583 11.571816 54.177448 129 104 116
-1.388583 11.688605 54.177448 124 100 112
-1.386053 11.783890 54.078766 120 94 108
-1.388583 11.922181 54.177448 116 90 104
-1.388583 12.038970 54.177448 115 89 104
-1.386053 12.133616 54.078766 118 91 106
-1.383533 12.227919 53.980442 123 94 110
-1.386053 12.366768 54.078766 126 96 111
-1.386053 12.483343 54.078766 126 96 110
-1.386053 12.599919 54.078766 125 93 108
-1.386053 12.716495 54.078766 121 89 104
-1.381022 12.786489 53.882473 118 85 101
-1.383533 12.926101 53.980442 118 85 102
-1.383533 13.042464 53.980442 123 91 107
-1.381022 13.134947 53.882473 125 94 110
-1.381022 13.251099 53.882473 125 94 110
-1.258021 -1.492138 53.590691 114 82 104
-1.461097 0.547915 62.241596 140 119 136
-1.439966 0.672222 61.341408 141 119 135
-0.760855 1.403226 32.411835 139 109 127
-0.681941 1.821287 29.050138 133 99 117
-0.682609 1.885755 29.078592 131 97 113
-0.679945 1.940835 28.965115 129 94 109
-0.676644 1.993549 28.824507 127 93 107
-1.264870 3.958903 53.882473 128 95 106
-1.262579 4.067673 53.784859 130 97 109
-1.258021 4.168512 53.590691 132 100 112
-1.258021 4.284035 53.590691 135 103 115
-1.258021 4.399559 53.590691 136 105 116
-1.262579 4.531441 53.784859 135 104 114
-1.262579 4.647383 53.784859 134 103 114
-1.264870 4.771970 53.882473 137 105 116
-1.262579 4.879267 53.784859 142 108 121
-1.260295 4.986176 53.687599 146 111 125
-1.258021 5.092700 53.590691 145 109 125
-1.260295 5.217641 53.687599 142 106 123
-1.260295 5.333374 53.687599 142 105 123
-1.264870 5.468884 53.882473 141 104 123
-1.271794 5.615612 54.177448 140 103 123
-1.276453 5.753398 54.375900 138 102 121
-1.274119 5.859882 54.276493 136 101 119
-1.288250 6.398069 54.878452 130 98 111
-1.281146 6.480433 54.575813 132 100 113
-1.271794 6.549919 54.177448 133 102 114
-1.260295 6.837894 53.687599 135 104 114
-1.258021 6.941075 53.590691 135 104 114
-1.258021 7.056598 53.590691 135 104 115
-1.260295 7.185091 53.687599 137 105 116
-1.262579 7.314050 53.784859 139 107 117
-1.264870 7.443476 53.882473 143 110 120
-1.264870 7.559629 53.882473 146 113 122
-1.262579 7.661876 53.784859 149 115 125
-1.262579 7.777818 53.784859 151 116 127
-1.267170 7.922464 53.980442 149 115 127
-1.267170 8.038828 53.980442 143 109 121
-1.264870 8.140391 53.882473 134 102 113
-1.267170 8.271555 53.980442 131 99 110
-1.267170 8.387919 53.980442 133 103 113
-1.269478 8.519773 54.078766 137 107 118
-1.269478 8.636349 54.078766 140 109 120
-1.274119 8.784927 54.276493 142 111 122
-1.281146 8.951021 54.575813 144 114 124
-1.283505 9.085369 54.676319 149 118 129
-1.288250 9.237256 54.878452 155 124 135
-1.288250 9.355556 54.878452 160 128 139
-1.288250 9.473855 54.878452 162 129 141
-1.281146 9.539256 54.575813 158 125 138
-1.274119 9.603941 54.276493 152 120 133
-1.271794 9.703203 54.177448 148 116 129
-1.274119 9.837944 54.276493 144 113 126
-1.274119 9.954946 54.276493 141 111 124
-1.269478 10.035255 54.078766 138 109 122
-1.269478 10.151832 54.078766 137 107 119
-1.267170 10.249737 53.980442 138 108 119
-1.264870 10.347287 53.882473 139 110 120
-1.264870 10.463440 53.882473 136 108 118
-1.264870 10.579593 53.882473 133 104 114
-1.267170 10.715192 53.980442 130 101 112
-1.274119 10.890961 54.276493 127 98 108
-1.276453 11.028124 54.375900 124 96 108
-1.274119 11.124965 54.276493 127 99 111
-1.271794 11.221452 54.177448 132 105 117
-1.271794 11.338240 54.177448 137 110 121
-1.269478 11.434163 54.078766 137 110 121
-1.271794 11.571816 54.177448 132 106 118
-1.274119 11.709973 54.276493 127 101 114
-1.269478 11.783890 54.078766 122 97 110
-1.271794 11.922181 54.177448 119 94 108
-1.271794 12.038970 54.177448 117 92 105
-1.269478 12.133616 54.078766 119 92 105
-1.267170 12.227919 53.980442 124 96 109
-1.267170 12.344283 53.980442 129 99 112
-1.267170 12.460647 53.980442 130 99 112
-1.267170 12.577010 53.980442 129 96 110
-1.267170 12.693374 53.980442 124 91 106
-1.264870 12.786489 53.882473 120 86 102
-1.264870 12.902641 53.882473 119 85 102
-0.964853 -0.869885 45.257992 117 93 109
-0.956108 -0.765324 44.847797 118 95 110
-1.313161 0.675011 61.595940 140 119 134
-0.697074 1.415590 32.697403 139 109 126
-0.694779 1.481181 32.589729 137 108 125
-0.689481 1.539603 32.341221 136 107 124
-0.624205 1.520074 29.279331 136 107 124
-0.624205 1.583191 29.279331 136 107 124
-0.621142 1.638229 29.135664 137 107 124
-0.620533 1.824858 29.107100 133 99 116
-0.620533 1.887603 29.107100 131 96 112
-0.618109 1.942730 28.993401 129 94 110
-0.615105 1.995486 28.852520 128 93 108
-1.148718 3.958903 53.882473 129 96 108
-1.146636 4.067673 53.784859 131 99 110
-1.142497 4.168512 53.590691 135 103 113
-1.142497 4.284035 53.590691 138 107 115
-1.142497 4.399559 53.590691 140 109 117
-1.144563 4.523247 53.687599 139 109 116
-1.144563 4.638979 53.687599 138 107 114
-1.146636 4.763325 53.784859 139 107 115
-1.144563 4.870444 53.687599 143 110 119
-1.142497 4.977176 53.590691 146 112 122
-1.142497 5.092700 53.590691 144 108 121
-1.140438 5.198839 53.494129 138 101 116
-1.142497 5.323746 53.590691 134 97 113
-1.144563 5.449106 53.687599 135 98 115
-1.146636 5.574919 53.784859 136 99 117
-1.155006 5.732400 54.177448 137 101 118
-1.161364 6.468542 54.475674 132 102 113
-1.152902 6.537988 54.078766 133 103 114
-1.146636 6.850282 53.784859 137 106 116
-1.144563 6.953627 53.687599 136 106 115
-1.144563 7.069359 53.687599 136 106 115
-1.144563 7.185091 53.687599 137 106 116
-1.146636 7.314050 53.784859 139 107 117
-1.148718 7.443476 53.882473 141 109 119
-1.146636 7.545934 53.784859 145 112 122
-1.146636 7.661876 53.784859 148 115 125
-1.146636 7.777818 53.784859 151 118 128
-1.148718 7.908086 53.882473 151 117 128
-1.148718 8.024239 53.882473 146 112 123
-1.148718 8.140391 53.882473 137 105 115
-1.150806 8.271555 53.980442 132 100 110
-1.148718 8.372696 53.882473 132 101 111
-1.150806 8.504283 53.980442 135 104 115
-1.150806 8.620646 53.980442 138 107 118
-1.157118 8.784927 54.276493 140 108 120
-1.165642 8.967505 54.676319 142 111 123
-1.167792 9.102132 54.777199 147 116 128
-1.169951 9.237256 54.878452 153 122 134
-1.172117 9.372881 54.980080 156 126 137
-1.169951 9.473855 54.878452 157 126 137
-1.165642 9.556824 54.676319 156 124 136
-1.159237 9.621531 54.375900 154 122 134
-1.157118 9.720942 54.276493 150 119 130
-1.157118 9.837944 54.276493 146 115 127
-1.159237 9.973179 54.375900 142 112 124
-1.155006 10.053569 54.177448 138 109 120
-1.152902 10.151832 54.078766 136 106 117
-1.150806 10.249737 53.980442 137 108 118
-1.148718 10.347287 53.882473 140 111 120
-1.148718 10.463440 53.882473 139 110 119
-1.148718 10.579593 53.882473 134 105 115
-1.150806 10.715192 53.980442 131 102 112
-1.155006 10.871087 54.177448 127 98 109
-1.157118 11.007962 54.276493 124 96 107
-1.157118 11.124965 54.276493 127 99 111
-1.155006 11.221452 54.177448 133 105 118
-1.155006 11.338240 54.177448 138 111 123
-1.152902 11.434163 54.078766 139 112 124
-1.155006 11.571816 54.177448 134 108 120
-1.157118 11.709973 54.276493 129 103 115
-1.152902 11.783890 54.078766 125 99 112
-1.152902 11.900465 54.078766 121 96 109
-1.155006 12.038970 54.177448 118 92 105
-1.152902 12.133616 54.078766 119 93 105
-1.150806 12.227919 53.980442 126 99 110
-1.150806 12.344283 53.980442 132 103 115
-1.150806 12.460647 53.980442 133 103 115
-1.150806 12.577010 53.980442 131 98 112
-0.632159 1.357062 32.988049 139 109 125
-0.628667 1.491001 32.805794 137 108 123
-0.621796 1.544651 32.447258 136 107 122
-0.560535 1.518577 29.250484 135 107 122
-0.560535 1.581631 29.250484 135 106 121
-0.558335 1.638229 29.135664 136 106 121
-0.557241 1.697704 29.078592 136 104 119
-0.556696 1.758665 29.050138 134 102 118
-0.557241 1.823071 29.078592 133 100 115
-0.557241 1.885755 29.078592 131 97 112
-0.555067 1.940835 28.965115 129 95 111
-0.552372 1.993549 28.824507 128 95 110
-1.030694 3.951731 53.784859 130 97 110
-1.028831 4.060318 53.687599 133 100 111
-1.025123 4.161001 53.494129 137 104 114
-1.025123 4.276316 53.494129 141 109 116
-1.025123 4.391632 53.494129 144 112 118
-1.026974 4.515082 53.590691 145 114 118
-1.026974 4.630606 53.590691 145 113 117
-1.026974 4.746129 53.590691 144 112 116
-1.026974 4.861652 53.590691 145 113 118
-1.025123 4.968208 53.494129 147 113 120
-1.025123 5.083523 53.494129 144 109 118
-1.025123 5.198839 53.494129 136 101 112
-1.025123 5.314154 53.494129 132 95 109
-1.026974 5.439270 53.590691 131 96 110
-1.026974 5.554793 53.590691 133 97 112
-1.032565 5.701190 53.882473 134 99 114
-1.030694 6.734340 53.784859 140 110 119
-1.028831 6.837894 53.687599 141 111 120
-1.028831 6.953627 53.687599 140 110 119
-1.030694 7.082166 53.784859 138 108 118
-1.030694 7.198108 53.784859 138 107 117
-1.030694 7.314050 53.784859 138 107 118
-1.032565 7.443476 53.882473 140 109 119
-1.030694 7.545934 53.784859 143 111 122
-1.030694 7.661876 53.784859 147 114 125
-1.030694 7.777818 53.784859 150 117 128
-1.034442 7.922464 53.980442 151 118 129
-1.032565 8.024239 53.882473 147 114 125
-1.032565 8.140391 53.882473 140 108 118
-1.034442 8.271555 53.980442 133 101 111
-1.032565 8.372696 53.882473 131 100 110
-1.032565 8.488849 53.882473 133 102 113
-1.032565 8.605000 53.882473 136 105 116
-1.036327 8.752924 54.078766 138 107 120
-1.045852 8.951021 54.575813 141 110 123
-1.047778 9.085369 54.676319 145 115 128
-1.049711 9.220213 54.777199 149 119 132
-1.051651 9.355556 54.878452 151 122 133
-1.051651 9.473855 54.878452 152 122 133
-1.049711 9.574456 54.777199 154 124 134
-1.042021 9.621531 54.375900 156 126 136
-1.040116 9.720942 54.276493 153 123 133
-1.040116 9.837944 54.276493 147 117 127
-1.042021 9.973179 54.375900 142 113 124
-1.038218 10.053569 54.177448 138 110 120
-1.036327 10.151832 54.078766 135 106 116
-1.034442 10.249737 53.980442 136 107 116
-1.032565 10.347287 53.882473 139 111 119
-1.032565 10.463440 53.882473 138 111 119
-1.032565 10.579593 53.882473 135 107 116
-1.032565 10.695745 53.882473 131 105 115
-1.038218 10.871087 54.177448 127 100 111
-1.040116 11.007962 54.276493 124 97 109
-1.040116 11.124965 54.276493 127 100 112
-1.038218 11.221452 54.177448 133 106 119
-1.038218 11.338240 54.177448 138 111 124
-1.036327 11.434163 54.078766 139 112 125
-1.038218 11.571816 54.177448 136 109 122
-1.040116 11.709973 54.276493 132 105 118
-1.036327 11.783890 54.078766 128 102 115
-1.036327 11.900465 54.078766 123 97 110
-1.038218 12.038970 54.177448 119 93 105
-1.036327 12.133616 54.078766 120 93 104
-1.034442 12.227919 53.980442 126 100 110
-0.675058 0.777213 39.691502 140 119 133
-0.562925 1.361600 33.098373 138 108 124
-0.560425 1.426588 32.951435 137 108 123
-0.558566 1.492650 32.842083 137 108 122
-0.554274 1.551433 32.589729 136 107 121
-0.497972 1.520074 29.279331 134 106 118
-0.496991 1.580074 29.221695 134 105 117
-0.495528 1.638229 29.135664 134 105 117
-0.494558 1.697704 29.078592 135 104 117
-0.493109 1.755230 28.993401 135 103 117
-0.493591 1.819507 29.021742 134 101 116
-0.494074 1.883909 29.050138 132 99 114
-0.492148 1.938943 28.936884 130 97 113
-0.914752 3.951731 53.784859 131 98 112
-0.913098 4.060318 53.687599 134 101 113
-0.909808 4.161001 53.494129 138 105 116
-0.909808 4.276316 53.494129 143 110 118
-0.908172 4.383733 53.397919 147 114 120
-0.909808 4.506947 53.494129 151 118 122
-0.909808 4.622262 53.494129 152 119 122
-0.909808 4.737577 53.494129 150 117 120
-0.909808 4.852893 53.494129 148 116 119
-0.908172 4.959272 53.397919 147 114 119
-0.908172 5.074380 53.397919 143 109 116
-0.908172 5.189488 53.397919 137 102 111
-0.909808 5.314154 53.494129 132 98 108
-0.909808 5.429469 53.494129 131 96 108
-0.909808 5.544785 53.494129 131 98 110
-0.913098 5.680571 53.687599 132 99 111
-0.916413 6.746562 53.882473 147 118 127
-0.914752 6.850282 53.784859 149 118 128
-0.914752 6.966224 53.784859 144 114 124
-0.916413 7.095019 53.882473 139 110 120
-0.916413 7.211172 53.882473 138 108 119
-0.916413 7.327324 53.882473 138 107 119
-0.918079 7.457010 53.980442 137 107 120
-0.916413 7.559629 53.882473 139 109 121
-0.914752 7.661876 53.784859 143 111 124
-0.916413 7.791934 53.882473 146 114 126
-0.918079 7.922464 53.980442 148 115 127
-0.916413 8.024239 53.882473 147 113 125
-0.916413 8.140391 53.882473 141 108 119
-0.918079 8.271555 53.980442 135 103 113
-0.916413 8.372696 53.882473 132 100 110
-0.916413 8.488849 53.882473 133 102 112
-0.914752 8.589412 53.784859 135 104 116
-0.918079 8.737010 53.980442 137 107 120
-0.923114 8.901930 54.276493 139 110 123
-0.926502 9.052029 54.475674 142 114 127
-0.929914 9.203233 54.676319 145 117 130
-0.931630 9.338294 54.777199 146 119 130
-0.933352 9.473855 54.878452 148 120 130
-0.929914 9.556824 54.676319 152 124 133
-0.924805 9.621531 54.375900 157 129 137
-0.923114 9.720942 54.276493 156 127 135
-0.923114 9.837944 54.276493 149 120 129
-0.924805 9.973179 54.375900 144 115 125
-0.921430 10.053569 54.177448 140 112 122
-0.919751 10.151832 54.078766 137 109 118
-0.918079 10.249737 53.980442 136 108 117
-0.916413 10.347287 53.882473 137 110 119
-0.916413 10.463440 53.882473 137 110 119
-0.916413 10.579593 53.882473 136 109 119
-0.916413 10.695745 53.882473 134 109 119
-0.919751 10.851285 54.078766 129 103 115
-0.921430 10.987875 54.177448 124 98 111
-0.921430 11.104663 54.177448 126 100 113
-0.921430 11.221452 54.177448 131 105 118
-0.921430 11.338240 54.177448 136 110 123
-0.919751 11.434163 54.078766 139 112 125
-0.921430 11.571816 54.177448 138 110 123
-0.921430 11.688605 54.177448 135 107 121
-0.919751 11.783890 54.078766 131 104 117
-0.919751 11.900465 54.078766 126 99 112
-0.605691 0.007356 40.781925 135 114 132
-0.603206 0.094878 40.614559 140 119 135
-0.599923 0.268511 40.393528 143 123 137
-0.595065 0.352706 40.066452 142 123 136
-0.586361 0.773079 39.480373 140 119 133
-0.579426 0.848036 39.013458 140 118 133
-0.495442 1.228489 33.358700 140 110 128
-0.494886 1.298940 33.321259 138 108 125
-0.493778 1.367699 33.246632 138 109 123
-0.490482 1.429761 33.024742 138 109 122
-0.488309 1.494303 32.878452 137 109 121
-0.485086 1.554847 32.661434 136 108 119
-0.435715 1.523079 29.337196 133 105 115
-0.433999 1.580074 29.221695 132 104 114
-0.433147 1.639838 29.164286 133 104 114
-0.432297 1.699368 29.107100 135 104 115
-0.430609 1.755230 28.993401 136 104 116
-0.431451 1.821287 29.050138 136 104 117
-0.431874 1.885755 29.078592 136 103 116
-0.797366 3.944585 53.687599 132 100 115
-0.795927 4.052988 53.590691 135 102 116
-0.793064 4.153517 53.397919 139 106 119
-0.794493 4.276316 53.494129 144 110 121
-0.793064 4.383733 53.397919 148 114 122
-0.793064 4.498841 53.397919 152 119 125
-0.793064 4.613949 53.397919 154 122 126
-0.793064 4.729057 53.397919 152 120 123
-0.794493 4.852893 53.494129 149 117 120
-0.793064 4.959272 53.397919 145 113 117
-0.791640 5.065270 53.302052 141 108 114
-0.791640 5.180171 53.302052 138 105 112
-0.793064 5.304596 53.397919 135 102 111
-0.793064 5.419704 53.397919 132 100 109
-0.793064 5.534812 53.397919 130 99 108
-0.795927 5.670317 53.590691 131 100 110
-0.380780 2.933813 25.638378 134 109 117
-0.800260 6.746562 53.882473 160 130 140
-0.798810 6.850282 53.784859 161 130 140
-0.798810 6.966224 53.784859 151 120 131
-0.801715 7.107919 53.980442 140 111 121
-0.800260 7.211172 53.882473 137 107 119
-0.800260 7.327324 53.882473 136 106 119
-0.801715 7.457010 53.980442 135 106 119
-0.800260 7.559629 53.882473 137 107 121
-0.798810 7.661876 53.784859 140 109 122
-0.798810 7.777818 53.784859 142 111 123
-0.800260 7.908086 53.882473 144 111 124
-0.800260 8.024239 53.882473 143 110 123
-0.798810 8.125644 53.784859 140 107 119
-0.800260 8.256543 53.882473 136 104 114
-0.798810 8.357528 53.784859 135 103 113
-0.798810 8.473470 53.784859 135 103 114
-0.797366 8.573879 53.687599 135 105 116
-0.800260 8.721153 53.882473 136 107 120
-0.804641 8.885685 54.177448 138 110 123
-0.807589 9.035450 54.375900 140 112 125
-0.809070 9.169459 54.475674 142 115 127
-0.812050 9.321096 54.676319 144 117 128
-0.812050 9.438960 54.676319 144 118 127
