ply
format ascii 1.0
element vertex 1231
property float x
property float y
property float z
property uchar red
property uchar green
property uchar blue
end_header
-10.770077 5.736383 61.765293 81 48 54
-8.564456 -10.282561 49.731087 67 51 59
-8.581659 -10.195796 49.830975 67 49 58
-8.598960 -10.108716 49.931435 67 47 56
-8.616381 -10.021342 50.032597 68 47 56
-8.633944 -9.933695 50.134575 69 48 57
-8.651672 -9.845798 50.237518 69 48 58
-8.669594 -9.757673 50.341587 70 49 60
-8.687730 -9.669339 50.446896 71 51 62
-8.706105 -9.580813 50.553593 73 53 65
-8.724734 -9.492105 50.661766 75 54 68
-8.743632 -9.403218 50.771500 77 56 70
-8.762805 -9.314152 50.882835 77 57 71
-8.782256 -9.224897 50.995781 75 56 70
-8.801981 -9.135440 51.110317 74 55 68
-8.821974 -9.045763 51.226406 72 54 68
-8.842217 -8.955840 51.343956 71 55 68
-8.862697 -8.865645 51.462872 70 55 68
-8.883389 -8.775150 51.583031 69 56 67
-8.904274 -8.684322 51.704296 67 55 65
-8.925322 -8.593130 51.826515 65 54 63
-8.946510 -8.501544 51.949551 65 54 61
-8.967812 -8.409534 52.073242 65 54 61
-8.989197 -8.317068 52.197422 64 54 60
-9.010641 -8.224120 52.321941 66 55 62
-9.032117 -8.130664 52.446640 69 57 64
-9.053596 -8.036673 52.571362 70 57 64
-9.075051 -7.942124 52.695946 70 57 64
-9.096456 -7.846993 52.820236 70 55 63
-9.117783 -7.751261 52.944073 70 54 61
-9.139004 -7.654906 53.067299 69 53 60
-9.160089 -7.557909 53.189735 69 52 59
-9.181013 -7.460252 53.311234 68 52 58
-9.201744 -7.361917 53.431614 67 53 57
-9.222258 -7.262892 53.550732 67 53 58
-9.242522 -7.163160 53.668400 67 53 58
-9.262514 -7.062713 53.784485 66 52 58
-9.282205 -6.961539 53.898819 66 52 58
-9.301573 -6.859635 54.011284 65 53 58
-9.320596 -6.756995 54.121746 65 53 58
-9.339256 -6.653622 54.230099 64 53 58
-9.357537 -6.549515 54.336258 63 52 58
-9.375431 -6.444685 54.440159 62 51 58
-9.392928 -6.339139 54.541759 63 51 58
-9.410027 -6.232890 54.641041 64 52 59
-9.426728 -6.125957 54.738026 64 51 58
-9.443041 -6.018356 54.832748 62 49 55
-9.458978 -5.910112 54.925285 63 48 54
-9.474552 -5.801249 55.015720 65 49 56
-9.489791 -5.691793 55.104210 67 50 57
-9.504719 -5.581773 55.190887 68 50 57
-9.519367 -5.471220 55.275951 69 50 56
-9.533773 -5.360163 55.359600 68 50 55
-9.547976 -5.248633 55.442070 66 51 55
-9.562017 -5.136662 55.523605 65 51 54
-9.575944 -5.024279 55.604473 64 51 54
-9.589799 -4.911510 55.684925 62 51 55
-9.603631 -4.798383 55.765240 62 51 56
-9.617483 -4.684920 55.845680 62 51 56
-9.631400 -4.571141 55.926491 63 50 57
-9.645420 -4.457061 56.007900 64 50 58
-9.659577 -4.342691 56.090107 64 49 59
-9.673902 -4.228040 56.173283 64 50 59
-9.688413 -4.113111 56.257545 64 51 59
-9.703125 -3.997900 56.342972 64 52 60
-9.718043 -3.882403 56.429596 63 53 62
-9.733163 -3.766611 56.517395 63 53 64
-9.748472 -3.650512 56.606289 62 54 66
-9.763947 -3.534089 56.696152 62 55 66
-9.779563 -3.417328 56.786823 62 54 66
-9.795283 -3.300211 56.878105 61 53 65
-9.811069 -3.182722 56.969765 60 53 64
-9.826875 -3.064844 57.061550 60 54 64
-9.842660 -2.946564 57.153206 61 54 64
-9.858378 -2.827869 57.244480 62 55 65
-9.873990 -2.708752 57.335129 65 57 67
-9.889458 -2.589207 57.424950 68 58 69
-9.904753 -2.469231 57.513760 72 61 73
-9.919848 -2.348825 57.601418 75 65 77
-9.934730 -2.227993 57.687828 79 69 80
-9.949387 -2.106741 57.772938 82 73 83
-9.963819 -1.985078 57.856735 85 75 86
-9.978031 -1.863012 57.939266 87 76 88
-9.992036 -1.740554 58.020584 88 76 88
-10.005851 -1.617714 58.100807 88 75 87
-10.019500 -1.494504 58.180061 89 73 86
-10.033009 -1.370934 58.258503 89 71 85
-10.046408 -1.247011 58.336308 91 70 85
-10.059730 -1.122745 58.413662 92 68 85
-10.073008 -0.998140 58.490765 92 66 84
-10.086280 -0.873203 58.567829 91 64 81
-10.099579 -0.747935 58.645058 89 62 77
-10.112944 -0.622339 58.722660 87 60 73
-10.126410 -0.496413 58.800850 85 58 68
-10.140010 -0.370154 58.879826 81 57 63
-10.153775 -0.243559 58.959755 77 54 58
-10.167732 -0.116622 59.040802 73 52 53
-10.181901 0.010665 59.123074 70 49 50
-10.196293 0.138310 59.206642 69 46 47
-10.210911 0.266320 59.291527 68 45 46
-10.225746 0.394706 59.377670 69 45 47
-10.240779 0.523472 59.464954 71 45 47
-10.255974 0.652626 59.553192 73 46 48
-10.271286 0.782168 59.642105 73 47 48
-10.286655 0.912099 59.731350 74 47 49
-10.302013 1.042414 59.820526 74 48 50
-10.317282 1.173103 59.909184 75 49 52
-10.332376 1.304152 59.996830 75 50 53
-10.347212 1.435543 60.082981 75 51 55
-10.361706 1.567254 60.167141 76 51 56
-10.375777 1.699259 60.248852 76 51 56
-10.389358 1.831529 60.327709 77 50 57
-10.402389 1.964036 60.403374 78 50 58
-10.414825 2.096749 60.475590 79 50 59
-10.426641 2.229640 60.544201 78 49 57
-10.437824 2.362685 60.609138 78 47 56
-10.448381 2.495859 60.670441 78 47 55
-10.458336 2.629147 60.728241 78 47 55
-10.467724 2.762534 60.782753 78 48 54
-10.476592 2.896013 60.834251 78 48 54
-10.485000 3.029580 60.883068 77 48 53
-10.493009 3.163238 60.929573 77 47 51
-10.500685 3.296992 60.974148 77 47 50
-10.508092 3.430850 61.017162 78 47 49
-10.515294 3.564824 61.058983 79 47 48
-10.522346 3.698926 61.099934 81 48 47
-10.529299 3.833167 61.140301 82 48 46
-10.536192 3.967561 61.180328 83 48 47
-10.543059 4.102117 61.220207 83 48 47
-10.549926 4.236845 61.260078 82 48 48
-10.556808 4.371751 61.300045 83 48 49
-10.563718 4.506841 61.340160 83 48 50
-10.570657 4.642117 61.380451 82 48 52
-10.577625 4.777580 61.420918 81 48 53
-10.584617 4.913229 61.461517 81 48 54
-10.591625 5.049059 61.502209 81 47 54
-10.598638 5.185069 61.542934 81 46 54
-10.605643 5.321249 61.583614 81 46 54
-10.612626 5.457593 61.624161 81 47 54
-10.619569 5.594092 61.664474 82 48 54
-10.626451 5.730731 61.704433 82 48 54
-8.448152 -10.164408 49.677570 68 50 58
-8.465185 -10.077597 49.777725 68 49 57
-8.482332 -9.990490 49.878559 69 49 57
-8.499618 -9.903108 49.980198 70 49 58
-8.517062 -9.815471 50.082779 70 49 59
-8.534693 -9.727605 50.186455 71 49 60
-8.552532 -9.639526 50.291355 73 51 62
-8.570601 -9.551251 50.397610 74 53 65
-8.588919 -9.462792 50.505318 76 54 68
-8.607498 -9.374154 50.614571 78 56 70
-8.626347 -9.285335 50.725407 78 56 71
-8.645468 -9.196327 50.837845 76 56 70
-8.664859 -9.107119 50.951866 75 55 68
-8.684513 -9.017692 51.067440 73 54 68
-8.704416 -8.928022 51.184475 72 55 68
-8.724552 -8.838084 51.302883 70 55 68
-8.744902 -8.747848 51.422543 69 56 67
-8.765442 -8.657286 51.543327 67 55 65
-8.786149 -8.566364 51.665085 66 54 63
-8.806996 -8.475054 51.787678 66 54 61
-8.827959 -8.383324 51.910946 65 54 61
-8.849010 -8.291144 52.034729 65 54 61
-8.870121 -8.198488 52.158867 66 55 62
-8.891267 -8.105329 52.283215 67 56 63
-8.912421 -8.011640 52.407608 69 57 65
-8.933556 -7.917397 52.531883 70 57 65
-8.954644 -7.822578 52.655891 71 55 64
-8.975659 -7.727162 52.779465 70 54 63
-8.996574 -7.631127 52.902447 70 54 61
-9.017360 -7.534455 53.024677 69 53 60
-9.037987 -7.437125 53.145966 69 53 58
-9.058429 -7.339122 53.266171 68 53 57
-9.078658 -7.240431 53.385124 68 53 57
-9.098644 -7.141037 53.502651 67 53 57
-9.118362 -7.040930 53.618603 67 53 58
-9.137789 -6.940100 53.732830 67 53 57
-9.156897 -6.838541 53.845196 66 53 58
-9.175668 -6.736249 53.955574 66 53 58
-9.194082 -6.633224 54.063854 65 53 58
-9.212125 -6.529469 54.169949 64 53 58
-9.229786 -6.424991 54.273800 64 52 59
-9.247055 -6.319798 54.375347 64 52 61
-9.263930 -6.213902 54.474583 66 53 62
-9.280415 -6.107321 54.571514 66 52 61
-9.296513 -6.000073 54.666176 64 49 58
-9.312237 -5.892181 54.758640 63 47 57
-9.327601 -5.783667 54.848984 66 49 58
-9.342628 -5.674558 54.937351 68 50 59
-9.357346 -5.564883 55.023888 69 50 58
-9.371780 -5.454672 55.108772 69 50 57
-9.385970 -5.343956 55.192211 68 51 56
-9.399954 -5.232764 55.274437 67 51 55
-9.413774 -5.121129 55.355701 66 52 55
-9.427475 -5.009080 55.436272 65 52 55
-9.441102 -4.896646 55.516399 64 52 56
-9.454703 -4.783854 55.596382 63 52 57
-9.468327 -4.670727 55.676487 63 51 58
-9.482013 -4.557285 55.756969 64 51 59
-9.495805 -4.443546 55.838070 64 50 59
-9.509740 -4.329522 55.920010 64 49 58
-9.523849 -4.215221 56.002972 64 50 58
-9.538155 -4.100649 56.087097 64 51 59
-9.552673 -3.985802 56.172470 64 52 60
-9.567411 -3.870675 56.259136 63 53 62
-9.582370 -3.755262 56.347095 63 54 64
-9.597534 -3.639547 56.436268 62 54 67
-9.612887 -3.523517 56.526550 62 54 67
-9.628402 -3.407155 56.617779 62 54 67
-9.644046 -3.290443 56.709766 61 54 67
-9.659781 -3.173365 56.802292 60 54 65
-9.675560 -3.055902 56.895081 60 54 64
-9.691345 -2.938041 56.987900 61 55 64
-9.707088 -2.819768 57.080471 62 56 64
-9.722748 -2.701072 57.172562 65 57 66
-9.738289 -2.581948 57.263947 67 58 68
-9.753676 -2.462391 57.354431 71 61 72
-9.768887 -2.342401 57.443871 74 64 75
-9.783898 -2.221980 57.532139 77 67 78
-9.798699 -2.101135 57.619179 81 72 82
-9.813288 -1.979870 57.704964 85 75 86
-9.827665 -1.858196 57.789505 88 77 88
-9.841841 -1.736122 57.872856 89 77 88
-9.855827 -1.613658 57.955105 91 77 87
-9.869647 -1.490813 58.036369 91 75 87
-9.883322 -1.367599 58.116783 92 73 87
-9.896880 -1.244023 58.196507 94 72 87
-9.910351 -1.120093 58.275715 94 71 88
-9.923765 -0.995817 58.354595 94 69 87
-9.937157 -0.871198 58.433346 93 67 85
-9.950561 -0.746240 58.512165 92 65 82
-9.964010 -0.620946 58.591255 90 63 78
-9.977542 -0.495315 58.670822 87 62 74
-9.991186 -0.369345 58.751057 83 60 68
-10.004976 -0.243032 58.832142 80 58 63
-10.018937 -0.116372 58.914238 76 55 58
-10.033089 0.010642 58.997452 73 51 53
-10.047446 0.138018 59.081882 70 48 50
-10.062014 0.265763 59.167542 69 46 48
-10.076785 0.393886 59.254398 70 46 49
-10.091742 0.522393 59.342350 72 46 49
-10.106855 0.651289 59.431225 73 47 50
-10.122083 0.780577 59.520767 74 48 50
-10.137369 0.910256 59.610653 75 49 51
-10.152651 1.040322 59.700512 76 49 52
-10.167852 1.170767 59.789906 77 50 54
-10.182897 1.301577 59.878368 77 52 56
-10.197702 1.432735 59.965431 77 53 57
-10.212189 1.564219 60.050613 78 54 58
-10.226281 1.696005 60.133476 77 53 58
-10.239910 1.828065 60.213623 79 52 59
-10.253020 1.960372 60.290718 80 53 60
-10.265570 2.092897 60.364510 81 52 60
-10.277530 2.225613 60.434837 80 50 59
-10.288889 2.358494 60.501633 80 49 58
-10.299650 2.491518 60.564911 79 49 58
-10.309835 2.624669 60.624805 80 49 57
-10.319478 2.757932 60.681503 80 49 56
-10.328620 2.891300 60.735260 79 49 55
-10.337315 3.024769 60.786392 78 49 54
-10.345623 3.158340 60.835243 78 49 52
-10.353603 3.292018 60.882172 78 49 52
-10.361316 3.425810 60.927525 79 49 51
-10.368820 3.559725 60.971653 80 49 50
-10.376167 3.693775 61.014854 82 49 49
-10.383405 3.827971 61.057411 83 49 49
-10.390569 3.962322 61.099537 84 49 48
-10.397692 4.096838 61.141422 84 49 49
-10.404797 4.231528 61.183201 84 49 50
-10.411899 4.366397 61.224964 84 49 51
-10.419008 4.501449 61.266773 84 49 52
-10.426129 4.636686 61.308643 83 49 53
-10.433262 4.772110 61.350590 82 49 54
-10.440403 4.907718 61.392578 82 48 54
-10.447545 5.043507 61.434578 82 47 55
-10.454680 5.179474 61.476536 82 47 55
-10.461800 5.315614 61.518398 82 47 55
-10.468889 5.451920 61.560089 82 47 55
-10.475936 5.588381 61.601524 82 48 55
-10.482922 5.724988 61.642601 82 49 54
-10.489827 5.861728 61.683208 82 49 54
-8.332226 -10.046663 49.624931 68 50 59
-8.349097 -9.959814 49.725410 69 50 59
-8.366098 -9.872687 49.826672 70 49 60
-8.383256 -9.785304 49.928856 71 49 61
-8.400593 -9.697688 50.032112 73 50 62
-8.418131 -9.609857 50.136562 74 51 64
-8.435893 -9.521828 50.242352 75 51 65
-8.453897 -9.433612 50.349575 76 53 68
-8.472156 -9.345216 50.458321 78 55 70
-8.490678 -9.256639 50.568638 78 56 71
-8.509469 -9.167874 50.680553 77 55 70
-8.528525 -9.078910 50.794048 76 55 69
-8.547842 -8.989730 50.909092 74 54 68
-8.567406 -8.900311 51.025612 72 54 67
-8.587201 -8.810628 51.143505 71 55 67
-8.607209 -8.720652 51.262676 69 55 66
-8.627408 -8.630353 51.382977 68 55 64
-8.647776 -8.539701 51.504276 67 54 62
-8.668284 -8.448664 51.626423 67 54 62
-8.688911 -8.357215 51.749275 66 53 61
-8.709628 -8.265321 51.872658 66 53 61
-8.730411 -8.172956 51.996433 67 54 62
-8.751231 -8.080092 52.120434 68 55 64
-8.772062 -7.986705 52.244503 69 56 66
-8.792879 -7.892770 52.368484 70 56 66
-8.813654 -7.798262 52.492214 71 55 65
-8.834361 -7.703162 52.615540 71 54 64
-8.854971 -7.607447 52.738289 71 54 63
-8.875457 -7.511098 52.860298 71 54 62
-8.895791 -7.414096 52.981400 70 55 60
-8.915945 -7.316425 53.101437 70 55 59
-8.935892 -7.218068 53.220238 69 55 59
-8.955604 -7.119012 53.337631 68 54 58
-8.975053 -7.019245 53.453468 68 54 58
-8.994215 -6.918758 53.567596 68 54 58
-9.013069 -6.817546 53.679886 68 54 58
-9.031590 -6.715602 53.790195 68 54 58
-9.049764 -6.612928 53.898430 67 54 59
-9.067572 -6.509525 54.004490 66 54 59
-9.085003 -6.405400 54.108307 66 53 60
-9.102050 -6.300561 54.209835 66 54 62
-9.118709 -6.195020 54.309055 67 54 64
-9.134979 -6.088793 54.405956 67 52 63
-9.150869 -5.981900 54.500595 65 50 61
-9.166386 -5.874358 54.593006 65 48 60
-9.181545 -5.766194 54.683292 66 49 61
-9.196367 -5.657434 54.771568 68 50 61
-9.210877 -5.548105 54.857990 68 50 60
-9.225106 -5.438238 54.942730 68 50 59
-9.239085 -5.327861 55.025990 68 51 58
-9.252855 -5.217007 55.107998 67 52 56
-9.266458 -5.105708 55.189011 66 52 56
-9.279937 -4.993993 55.269295 66 52 57
-9.293342 -4.881892 55.349125 65 52 58
-9.306717 -4.769433 55.428791 64 52 59
-9.320111 -4.656640 55.508564 65 52 60
-9.333571 -4.543534 55.588726 65 52 60
-9.347138 -4.430133 55.669529 64 50 59
-9.360853 -4.316453 55.751213 64 49 58
-9.374747 -4.202500 55.833961 64 50 58
-9.388846 -4.088281 55.917934 64 51 59
-9.403172 -3.973794 56.003250 63 53 60
-9.417728 -3.859035 56.089951 63 54 61
-9.432520 -3.743995 56.178043 63 54 64
-9.447537 -3.628662 56.267487 62 54 67
-9.462764 -3.513021 56.358170 62 54 68
-9.478173 -3.397055 56.449944 62 54 68
-9.493732 -3.280745 56.542614 61 55 67
-9.509408 -3.164074 56.635975 60 55 66
-9.525154 -3.047023 56.729755 60 55 65
-9.540928 -2.929576 56.823700 61 55 64
-9.556686 -2.811719 56.917549 62 56 65
-9.572385 -2.693442 57.011051 64 57 66
-9.587986 -2.574734 57.103966 67 58 67
-9.603455 -2.455593 57.196095 70 61 71
-9.618764 -2.336015 57.287273 73 64 74
-9.633893 -2.216003 57.377377 76 67 77
-9.648824 -2.095560 57.466305 81 71 82
-9.663554 -1.974692 57.554031 85 75 86
-9.678081 -1.853407 57.640549 89 78 88
-9.692410 -1.731713 57.725891 91 78 88
-9.706552 -1.609621 57.810116 93 78 88
-9.720526 -1.487139 57.893341 94 76 88
-9.734350 -1.364278 57.975681 94 75 88
-9.748051 -1.241047 58.057278 95 74 89
-9.761653 -1.117452 58.138290 96 74 90
-9.775187 -0.993501 58.218891 96 72 90
-9.788683 -0.869199 58.299274 95 70 89
-9.802174 -0.744550 58.379623 93 69 86
-9.815692 -0.619556 58.460136 91 67 83
-9.829271 -0.494219 58.541008 89 65 78
-9.842944 -0.368536 58.622444 85 64 72
-9.856741 -0.242505 58.704609 82 62 67
-9.870687 -0.116122 58.787678 79 58 61
-9.884806 0.010620 58.871761 75 54 56
-9.899110 0.137726 58.956955 72 50 52
-9.913609 0.265205 59.043304 71 48 49
-9.928296 0.393064 59.130775 72 48 49
-9.943158 0.521310 59.219292 73 49 50
-9.958170 0.649946 59.308701 74 49 51
-9.973291 0.778977 59.398762 75 50 51
-9.988472 0.908401 59.489178 77 51 52
-10.003654 1.038215 59.579594 78 51 54
-10.018767 1.168411 59.669605 79 52 55
-10.033738 1.298977 59.758770 79 53 57
-10.048490 1.429896 59.846622 80 54 58
-10.062944 1.561148 59.932716 81 55 59
-10.077033 1.692709 60.016621 81 55 60
-10.090689 1.824554 60.097954 81 54 61
-10.103858 1.956655 60.176388 82 55 62
-10.116498 2.088985 60.251671 82 54 61
-10.128583 2.221518 60.323643 81 53 60
-10.140100 2.354229 60.392231 80 52 60
-10.151050 2.487097 60.457451 80 51 59
-10.161451 2.620105 60.519398 80 51 58
-10.171333 2.753240 60.578259 81 51 57
-10.180738 2.886492 60.634270 80 50 56
-10.189713 3.019860 60.687721 80 50 55
-10.198312 3.153340 60.738934 79 50 54
-10.206592 3.286939 60.788246 79 50 53
-10.214607 3.420663 60.835987 80 50 52
-10.222411 3.554518 60.882469 81 50 52
-10.230055 3.688516 60.927986 83 50 52
-10.237577 3.822665 60.972790 84 49 51
-10.245015 3.956975 61.017090 85 49 51
-10.252398 4.091453 61.061054 86 49 51
-10.259746 4.226107 61.104820 86 49 52
-10.267073 4.360941 61.148460 86 50 53
-10.274389 4.495958 61.192039 86 50 55
-10.281699 4.631160 61.235573 85 50 56
-10.289004 4.766548 61.279083 84 49 56
-10.296302 4.902119 61.322540 83 48 56
-10.303585 5.037870 61.365917 82 48 56
-10.310849 5.173800 61.409184 82 48 56
-10.318088 5.309902 61.452293 82 47 55
-10.325290 5.446172 61.495190 83 48 55
-10.332445 5.582601 61.537804 83 48 55
-10.339539 5.719179 61.580051 83 49 54
-10.346554 5.855896 61.621834 82 50 54
-8.200161 -10.016017 49.473557 69 52 60
-8.216750 -9.929416 49.573643 70 51 61
-8.233466 -9.842535 49.674496 71 51 62
-8.250332 -9.755396 49.776249 72 51 64
-8.267371 -9.668021 49.879051 74 51 65
-8.284606 -9.580429 49.983036 74 51 66
-8.302057 -9.492637 50.088322 74 50 66
-8.319746 -9.404658 50.195042 75 51 67
-8.337684 -9.316498 50.303265 77 54 69
-8.355881 -9.228158 50.413052 78 55 70
-8.374342 -9.139632 50.524429 77 55 70
-8.393065 -9.050910 50.637394 76 54 69
-8.412045 -8.961973 50.751907 74 54 68
-8.431272 -8.872803 50.867905 73 54 67
-8.450729 -8.783373 50.985298 71 55 66
-8.470400 -8.693654 51.103970 70 55 64
-8.490261 -8.603618 51.223801 69 55 63
-8.510293 -8.513235 51.344658 68 54 63
-8.530468 -8.422473 51.466377 68 54 62
-8.550763 -8.331303 51.588825 67 53 62
-8.571152 -8.239695 51.711834 67 53 62
-8.591608 -8.147621 51.835255 68 54 63
-8.612106 -8.055054 51.958920 68 55 64
-8.632620 -7.961968 52.082687 70 56 66
-8.653123 -7.868339 52.206383 71 56 67
-8.673589 -7.774143 52.329861 72 56 66
-8.693990 -7.679357 52.452942 72 56 66
-8.714300 -7.583962 52.575478 72 56 66
-8.734490 -7.487936 52.697296 72 56 64
-8.754535 -7.391262 52.818226 72 56 63
-8.774405 -7.293920 52.938103 71 56 61
-8.794072 -7.195897 53.056763 70 56 60
-8.813511 -7.097178 53.174042 70 55 60
-8.832694 -6.997751 53.289783 70 54 59
-8.851598 -6.897607 53.403831 69 54 58
-8.870199 -6.796739 53.516060 69 54 59
-8.888476 -6.695143 53.626328 69 54 59
-8.906411 -6.592819 53.734535 69 54 60
-8.923987 -6.489768 53.840576 68 54 60
-8.941195 -6.385995 53.944389 67 53 60
-8.958024 -6.281510 54.045929 67 53 62
-8.974470 -6.176324 54.145149 67 53 64
-8.990534 -6.070452 54.242069 67 52 64
-9.006219 -5.963911 54.336700 67 50 64
-9.021535 -5.856722 54.429104 66 49 63
-9.036493 -5.748908 54.519352 67 49 63
-9.051117 -5.640495 54.607582 68 50 63
-9.065428 -5.531512 54.693920 69 50 62
-9.079454 -5.421987 54.778545 69 50 61
-9.093228 -5.311949 54.861649 68 51 59
-9.106791 -5.201432 54.943470 67 52 58
-9.120181 -5.090466 55.024261 66 52 57
-9.133446 -4.979084 55.104290 66 52 57
-9.146631 -4.867314 55.183838 65 52 58
-9.159784 -4.755185 55.263199 64 52 60
-9.172956 -4.642722 55.342667 65 52 61
-9.186193 -4.529950 55.422527 65 52 61
-9.199538 -4.416884 55.503040 64 50 60
-9.213035 -4.303543 55.584465 63 49 59
-9.226714 -4.189934 55.667000 64 50 59
-9.240610 -4.076064 55.750835 64 52 60
-9.254739 -3.961932 55.836075 63 53 61
-9.269113 -3.847535 55.922802 63 54 62
-9.283737 -3.732865 56.011032 62 54 64
-9.298603 -3.617908 56.100723 62 55 67
-9.313696 -3.502650 56.191784 62 55 68
-9.328994 -3.387073 56.284077 61 55 68
-9.344464 -3.271159 56.377411 61 55 68
-9.360071 -3.154889 56.471577 61 56 67
-9.375772 -3.038244 56.566307 60 56 66
-9.391527 -2.921206 56.661354 61 56 65
-9.407287 -2.803760 56.756435 61 57 65
-9.423012 -2.685895 56.851307 63 57 66
-9.438659 -2.567599 56.945709 65 59 68
-9.454194 -2.448867 57.039444 68 61 71
-9.469588 -2.329697 57.132317 72 64 75
-9.484817 -2.210087 57.224194 76 67 79
-9.499862 -2.090041 57.314964 81 71 83
-9.514715 -1.969564 57.404579 85 75 86
-9.529373 -1.848662 57.493011 89 78 88
-9.543838 -1.727345 57.580280 92 78 89
-9.558119 -1.605620 57.666443 94 78 89
-9.572227 -1.483497 57.751564 95 77 89
-9.586185 -1.360986 57.835770 96 76 90
-9.600008 -1.238094 57.919170 96 76 91
-9.613724 -1.114831 58.001923 97 76 92
-9.627358 -0.991202 58.084183 97 75 92
-9.640941 -0.867214 58.166130 96 74 92
-9.654501 -0.742871 58.247940 94 73 90
-9.668071 -0.618175 58.329807 92 71 87
-9.681681 -0.493129 58.411926 90 69 82
-9.695364 -0.367732 58.494480 87 67 77
-9.709151 -0.241981 58.577656 85 65 71
-9.723067 -0.115873 58.661617 83 62 65
-9.737134 0.010597 58.746487 79 58 61
-9.751369 0.137435 58.832371 76 54 56
-9.765779 0.264648 58.919315 74 51 52
-9.780365 0.392244 59.007313 74 51 52
-9.795115 0.520227 59.096298 75 51 53
-9.810005 0.648603 59.186134 75 52 53
-9.825001 0.777375 59.276608 77 52 54
-9.840056 0.906542 59.367443 79 52 55
-9.855118 1.036102 59.458309 80 52 55
-9.870121 1.166047 59.548824 81 53 57
-9.884995 1.296364 59.638565 82 54 58
-9.899670 1.427040 59.727104 83 55 59
-9.914072 1.558055 59.813995 85 57 61
-9.928134 1.689387 59.898838 85 57 63
-9.941794 1.821011 59.981251 85 57 63
-9.955000 1.952901 60.060921 85 57 63
-9.967711 2.085031 60.137615 84 56 62
-9.979900 2.217375 60.211155 83 54 61
-9.991555 2.349911 60.281471 82 53 60
-10.002676 2.482618 60.348564 81 52 60
-10.013277 2.615478 60.412525 81 52 59
-10.023388 2.748480 60.473522 81 52 58
-10.033042 2.881613 60.531769 82 52 57
-10.042285 3.014874 60.587536 82 52 57
-10.051167 3.148263 60.641121 81 51 56
-10.059738 3.281780 60.692833 81 51 55
-10.068050 3.415434 60.742985 81 51 54
-10.076152 3.549229 60.791862 82 51 54
-10.084087 3.683174 60.839737 84 50 54
-10.091895 3.817277 60.886845 85 50 54
-10.099608 3.951546 60.933380 86 50 53
-10.107251 4.085988 60.979488 87 50 54
-10.114843 4.220607 61.025299 87 50 55
-10.122399 4.355409 61.070889 87 50 56
-10.129928 4.490394 61.116302 87 51 57
-10.137431 4.625564 61.161579 86 51 58
-10.144914 4.760919 61.206718 85 50 58
-10.152371 4.896457 61.251713 84 49 58
-10.159801 5.032175 61.296539 83 49 57
-10.167199 5.168070 61.341175 83 49 57
-10.174562 5.304139 61.385593 83 49 56
-10.181880 5.440376 61.429745 83 49 55
-10.189146 5.576775 61.473583 83 49 55
-10.196348 5.713327 61.517040 83 50 54
-10.203474 5.850022 61.560028 83 51 54
-10.210505 5.986848 61.602451 82 52 53
-8.101783 -9.812737 49.524113 70 52 64
-8.118355 -9.725833 49.625408 72 52 65
-8.135093 -9.638689 49.727726 74 53 67
-8.152021 -9.551328 49.831203 74 53 68
-8.169162 -9.463765 49.935982 74 52 68
-8.186533 -9.376015 50.042164 74 52 69
-8.204150 -9.288085 50.149853 76 53 70
-8.222021 -9.199976 50.259098 77 54 70
-8.240153 -9.111685 50.369934 77 54 70
-8.258546 -9.023199 50.482361 76 54 69
-8.277193 -8.934504 50.596344 74 54 68
-8.296085 -8.845579 50.711830 73 54 66
-8.315208 -8.756399 50.828724 72 54 65
-8.334545 -8.666938 50.946922 71 54 64
-8.354074 -8.577164 51.066303 70 54 64
-8.373775 -8.487048 51.186722 70 54 64
-8.393621 -8.396562 51.308044 69 53 64
-8.413590 -8.305672 51.430111 69 53 64
-8.433657 -8.214351 51.552773 69 53 64
-8.453794 -8.122567 51.675861 69 54 65
-8.473976 -8.030297 51.799229 69 55 65
-8.494178 -7.937514 51.922718 71 55 67
-8.514373 -7.844191 52.046162 72 56 68
-8.534534 -7.750305 52.169403 73 56 68
-8.554634 -7.655835 52.292274 73 57 68
-8.574649 -7.560758 52.414616 73 58 67
-8.594549 -7.465055 52.536266 73 58 66
-8.614307 -7.368705 52.657036 73 57 65
-8.633897 -7.271694 52.776787 72 57 63
-8.653291 -7.174003 52.895332 72 56 63
-8.672461 -7.075619 53.012516 71 55 62
-8.691382 -6.976530 53.128181 71 54 61
-8.710031 -6.876726 53.242168 71 54 61
-8.728383 -6.776202 53.354355 71 54 61
-8.746419 -6.674953 53.464603 71 55 62
-8.764119 -6.572976 53.572800 71 55 62
-8.781468 -6.470274 53.678856 70 55 62
-8.798455 -6.366853 53.782688 69 54 61
-8.815071 -6.262720 53.884258 67 53 62
-8.831309 -6.157886 53.983513 68 52 64
-8.847170 -6.052366 54.080467 68 52 65
-8.862657 -5.946177 54.175133 68 51 66
-8.877776 -5.839339 54.267555 68 51 66
-8.892541 -5.731874 54.357811 68 51 65
-8.906971 -5.623807 54.446014 69 51 65
-8.921087 -5.515167 54.532307 69 51 64
-8.934918 -5.405982 54.616852 69 51 63
-8.948494 -5.296282 54.699841 68 51 61
-8.961855 -5.186099 54.781506 67 52 59
-8.975040 -5.075465 54.862106 66 52 59
-8.988096 -4.964412 54.941910 65 52 59
-9.001067 -4.852969 55.021202 65 52 60
-9.014007 -4.741168 55.100296 64 52 61
-9.026959 -4.629032 55.179478 64 52 62
-9.039977 -4.516588 55.259048 65 52 62
-9.053104 -4.403853 55.339291 64 51 62
-9.066384 -4.290845 55.420467 63 50 62
-9.079854 -4.177575 55.502808 63 51 62
-9.093544 -4.064048 55.586491 63 52 62
-9.107478 -3.950266 55.671665 63 54 62
-9.121669 -3.836225 55.758408 63 55 64
-9.136122 -3.721916 55.846756 63 55 66
-9.150833 -3.607329 55.936684 63 55 68
-9.165789 -3.492447 56.028103 63 55 69
-9.180967 -3.377253 56.120884 63 56 69
-9.196340 -3.261727 56.214855 62 56 69
-9.211870 -3.145851 56.309788 61 56 69
-9.227518 -3.029603 56.405437 61 57 68
-9.243238 -2.912966 56.501534 60 57 66
-9.258988 -2.795924 56.597805 61 58 66
-9.274722 -2.678462 56.693985 62 58 67
-9.290401 -2.560570 56.789825 64 60 69
-9.305987 -2.442241 56.885101 67 62 71
-9.321448 -2.323470 56.979610 71 64 75
-9.336759 -2.204255 57.073200 75 67 79
-9.351898 -2.084599 57.165741 80 71 83
-9.366856 -1.964506 57.257172 85 75 87
-9.381626 -1.843982 57.347458 89 77 89
-9.396206 -1.723034 57.436584 93 78 90
-9.410604 -1.601671 57.524593 95 78 91
-9.424828 -1.479901 57.611542 96 78 91
-9.438896 -1.357733 57.697536 97 78 92
-9.452824 -1.235177 57.782677 97 78 93
-9.466634 -1.112239 57.867088 97 78 94
-9.480350 -0.988928 57.950932 97 78 95
-9.494000 -0.865249 58.034374 97 77 95
-9.507611 -0.741208 58.117577 95 76 94
-9.521214 -0.616807 58.200726 94 75 90
-9.534839 -0.492049 58.284008 92 73 86
-9.548516 -0.366934 58.367619 90 70 81
-9.562276 -0.241461 58.451725 88 68 75
-9.576144 -0.115626 58.536499 87 65 70
-9.590144 0.010574 58.622074 84 62 65
-9.604293 0.137146 58.708565 81 59 61
-9.618600 0.264095 58.796017 79 56 58
-9.633067 0.391427 58.884453 78 55 57
-9.647685 0.519149 58.973808 78 55 57
-9.662436 0.647264 59.063976 78 54 57
-9.677287 0.775777 59.154762 80 54 57
-9.692200 0.904687 59.245914 81 54 57
-9.707120 1.033990 59.337120 83 53 57
-9.721992 1.163681 59.428032 84 54 58
-9.736750 1.293749 59.518242 85 55 59
-9.751327 1.424179 59.607346 86 56 60
-9.765655 1.554954 59.694927 88 58 62
-9.779670 1.686052 59.780598 89 58 63
-9.793313 1.817451 59.863995 88 58 63
-9.806534 1.949125 59.944813 88 58 63
-9.819295 2.081051 60.022816 86 57 63
-9.831569 2.213203 60.097847 85 55 62
-9.843343 2.345559 60.169819 84 54 61
-9.854616 2.478100 60.238728 83 53 60
-9.865401 2.610808 60.304657 82 53 59
-9.875724 2.743672 60.367752 82 53 59
-9.885613 2.876683 60.428207 83 53 59
-9.895113 3.009835 60.486275 83 53 58
-9.904266 3.143128 60.542225 83 53 58
-9.913120 3.276563 60.596348 83 53 57
-9.921722 3.410145 60.648930 83 53 57
-9.930114 3.543879 60.700226 84 52 57
-9.938337 3.677771 60.750496 85 51 57
-9.946427 3.811829 60.799946 86 51 57
-9.954413 3.946059 60.848759 86 51 56
-9.962316 4.080465 60.897068 87 51 57
-9.970155 4.215053 60.944984 88 51 58
-9.977941 4.349823 60.992577 88 52 59
-9.985682 4.484780 61.039894 88 52 60
-9.993382 4.619921 61.086967 87 52 60
-10.001043 4.755247 61.133797 86 51 60
-10.008665 4.890755 61.180386 84 51 60
-10.016244 5.026443 61.226719 84 50 59
-10.023780 5.162308 61.272781 84 50 58
-10.031267 5.298346 61.318550 83 50 57
-10.038704 5.434554 61.364010 83 50 56
-10.046082 5.570926 61.409107 83 51 55
-10.053393 5.707454 61.453800 83 51 54
-10.060626 5.844129 61.498016 83 52 54
-10.067768 5.980941 61.541672 82 52 54
-10.074800 6.117874 61.584656 82 52 54
-7.987372 -9.696689 49.476700 71 54 67
-8.003807 -9.609766 49.578506 72 55 69
-8.020428 -9.522625 49.681461 73 55 70
-8.037255 -9.435284 49.785694 73 53 71
-8.054309 -9.347754 49.891331 73 53 71
-8.071604 -9.260047 49.998463 74 53 71
-8.089150 -9.172163 50.107155 75 53 70
-8.106956 -9.084101 50.217449 75 53 69
-8.125020 -8.995849 50.329342 75 53 68
-8.143337 -8.907392 50.442806 74 53 67
-8.161900 -8.818709 50.557785 74 53 66
-8.180692 -8.729778 50.674194 74 54 65
-8.199701 -8.640573 50.791943 73 54 65
-8.218904 -8.551061 50.910889 72 54 65
-8.238279 -8.461214 51.030910 71 54 65
-8.257805 -8.371001 51.151859 71 54 66
-8.277454 -8.280393 51.273579 70 53 66
-8.297205 -8.189358 51.395916 70 53 66
-8.317030 -8.097868 51.518723 70 54 67
-8.336904 -8.005896 51.641823 70 55 67
-8.356800 -7.913414 51.765068 71 56 68
-8.376692 -7.820397 51.888290 72 56 69
-8.396556 -7.726822 52.011333 73 57 69
-8.416364 -7.632667 52.134029 74 57 69
-8.436089 -7.537909 52.256214 74 58 69
-8.455704 -7.442526 52.377716 74 58 68
-8.475181 -7.346501 52.498367 74 58 67
-8.494495 -7.249817 52.618008 73 57 66
-8.513618 -7.152456 52.736465 73 56 66
-8.532525 -7.054405 52.853577 72 55 65
-8.551188 -6.955651 52.969181 72 54 65
-8.569585 -6.856186 53.083138 72 54 65
-8.587692 -6.756002 53.195305 73 54 65
-8.605491 -6.655096 53.305553 73 55 65
-8.622960 -6.553463 53.413765 72 55 65
-8.640087 -6.451109 53.519855 72 55 64
-8.656858 -6.348037 53.623745 70 54 63
-8.673264 -6.244253 53.725365 69 54 63
-8.689299 -6.139770 53.824692 69 53 64
-8.704961 -6.034599 53.921707 69 52 65
-8.720254 -5.928759 54.016438 69 52 67
-8.735183 -5.822269 54.108917 70 52 68
-8.749761 -5.715150 54.199211 70 52 67
-8.764002 -5.607427 54.287426 70 52 66
-8.777930 -5.499127 54.373707 69 51 65
-8.791572 -5.390279 54.458206 69 51 64
-8.804956 -5.280913 54.541115 68 51 62
-8.818121 -5.171062 54.622665 67 51 60
-8.831108 -5.060756 54.703110 66 51 59
-8.843962 -4.950028 54.782726 65 51 60
-8.856728 -4.838910 54.861809 64 51 60
-8.869456 -4.727431 54.940651 64 51 61
-8.882198 -4.615619 55.019581 64 51 62
-8.895001 -4.503497 55.098892 65 52 64
-8.907915 -4.391088 55.178883 65 51 64
-8.920983 -4.278409 55.259834 64 51 64
-8.934245 -4.165470 55.341980 64 52 64
-8.947734 -4.052280 55.425533 64 53 63
-8.961473 -3.938840 55.510635 64 54 63
-8.975478 -3.825147 55.597393 64 55 64
-8.989759 -3.711193 55.685856 64 55 66
-9.004313 -3.596967 55.776001 64 55 68
-9.019125 -3.482452 55.867756 65 56 68
-9.034179 -3.367631 55.961002 64 56 69
-9.049445 -3.252485 56.055569 64 57 69
-9.064889 -3.136993 56.151234 62 57 69
-9.080470 -3.021133 56.247746 61 57 68
-9.096144 -2.904888 56.344837 60 58 67
-9.111869 -2.788239 56.442245 61 58 67
-9.127599 -2.671172 56.539684 61 59 68
-9.143291 -2.553674 56.636883 63 60 70
-9.158909 -2.435738 56.733624 66 62 72
-9.174417 -2.317357 56.829697 70 64 76
-9.189790 -2.198529 56.924919 74 67 80
-9.205004 -2.079254 57.019157 79 71 85
-9.220045 -1.959537 57.112328 85 74 88
-9.234904 -1.839381 57.204369 90 77 91
-9.249578 -1.718795 57.295273 94 78 92
-9.264071 -1.597785 57.385040 96 78 93
-9.278389 -1.476361 57.473732 97 79 94
-9.292546 -1.354530 57.561428 98 79 95
-9.306557 -1.232302 57.648216 98 79 96
-9.320439 -1.109685 57.734207 98 80 97
-9.334218 -0.986686 57.819557 98 80 98
-9.347916 -0.863312 57.904404 97 80 98
-9.361559 -0.739567 57.988918 96 80 96
-9.375176 -0.615456 58.073269 95 79 94
-9.388798 -0.490982 58.157642 93 77 90
-9.402452 -0.366146 58.242222 92 74 85
-9.416168 -0.240946 58.327187 91 71 80
-9.429974 -0.115381 58.412701 90 68 74
-9.443890 0.010552 58.498905 88 66 70
-9.457936 0.136859 58.585915 86 63 66
-9.472124 0.263546 58.673798 84 61 64
-9.486457 0.390617 58.762577 83 60 62
-9.500929 0.518078 58.852222 82 59 62
-9.515523 0.645935 58.942627 82 58 61
-9.530214 0.774188 59.033630 83 57 61
-9.544964 0.902840 59.124996 84 56 60
-9.559727 1.031887 59.216442 86 55 60
-9.574450 1.161324 59.307640 87 56 61
-9.589072 1.291140 59.398216 88 56 61
-9.603531 1.421322 59.487782 89 57 62
-9.617764 1.551854 59.575947 90 58 63
-9.631711 1.682717 59.662338 91 58 64
-9.645317 1.813887 59.746616 90 59 64
-9.658533 1.945343 59.828484 90 59 64
-9.671324 2.077060 59.907715 90 58 64
-9.683663 2.209016 59.984150 88 57 63
-9.695538 2.341188 60.057701 87 56 63
-9.706945 2.473559 60.128365 86 56 62
-9.717896 2.606113 60.196205 85 55 61
-9.728414 2.738837 60.261349 85 55 60
-9.738524 2.871721 60.323982 85 55 60
-9.748267 3.004762 60.384327 85 55 60
-9.757680 3.137958 60.442635 85 55 59
-9.766807 3.271308 60.499165 85 55 59
-9.775687 3.404818 60.554180 85 54 59
-9.784362 3.538489 60.607914 86 53 59
-9.792868 3.672329 60.660603 86 52 59
-9.801235 3.806342 60.712433 87 52 59
-9.809488 3.940533 60.763554 87 52 59
-9.817649 4.074906 60.814102 88 52 60
-9.825731 4.209463 60.864170 88 53 61
-9.833747 4.344207 60.913818 89 53 62
-9.841701 4.479136 60.963089 89 54 63
-9.849598 4.614252 61.012009 88 54 63
-9.857440 4.749552 61.060585 86 53 62
-9.865227 4.885034 61.108818 85 53 61
-9.872957 5.020695 61.156704 85 52 61
-9.880630 5.156533 61.204235 84 52 60
-9.888246 5.292544 61.251408 84 51 58
-9.895800 5.428726 61.298199 83 51 57
-9.903289 5.565073 61.344589 83 51 55
-9.910707 5.701578 61.390537 83 52 55
-9.918044 5.838235 61.435989 83 52 55
-9.925291 5.975033 61.480881 83 52 55
-9.932431 6.111959 61.525108 83 53 56
-9.939443 6.248994 61.568542 83 53 57
-7.873549 -9.581311 49.431702 71 57 70
-7.889859 -9.494380 49.534096 71 56 71
-7.906372 -9.407248 49.637768 72 56 71
-7.923108 -9.319932 49.742836 72 55 71
-7.940081 -9.232439 49.849400 73 55 71
-7.957304 -9.144774 49.957531 74 54 70
-7.974784 -9.056934 50.067272 74 53 68
-7.992521 -8.968910 50.178631 75 53 68
-8.010512 -8.880688 50.291584 75 53 67
-8.028749 -8.792247 50.406075 75 53 67
-8.047218 -8.703564 50.522026 75 54 68
-8.065903 -8.614612 50.639336 74 55 67
-8.084785 -8.525362 50.757885 74 55 67
-8.103845 -8.435784 50.877537 73 55 68
-8.123055 -8.345847 50.998146 72 54 68
-8.142394 -8.255520 51.119560 71 54 68
-8.161837 -8.164773 51.241623 70 54 68
-8.181356 -8.073576 51.364174 70 54 69
-8.200929 -7.981902 51.487057 70 56 69
-8.220529 -7.889724 51.610104 71 57 70
-8.240128 -7.797015 51.733150 73 57 70
-8.259701 -7.703752 51.856037 74 57 70
-8.279222 -7.609910 51.978592 75 57 70
-8.298664 -7.515469 52.100655 75 58 70
-8.318001 -7.420408 52.222054 75 58 69
-8.337204 -7.324706 52.342621 75 58 69
-8.356248 -7.228346 52.462181 75 57 68
-8.375107 -7.131313 52.580578 74 56 68
-8.393753 -7.033592 52.697643 74 55 68
-8.412163 -6.935172 52.813225 74 55 68
-8.430313 -6.836041 52.927170 74 55 68
-8.448179 -6.736195 53.039345 74 55 68
-8.465744 -6.635627 53.149616 74 55 68
-8.482987 -6.534337 53.257874 73 55 67
-8.499895 -6.432325 53.364021 72 55 66
-8.516454 -6.329597 53.467983 71 54 65
-8.532653 -6.226159 53.569687 71 54 64
-8.548489 -6.122022 53.669106 70 53 64
-8.563958 -6.017198 53.766220 69 52 66
-8.579061 -5.911703 53.861042 70 53 67
-8.593804 -5.805557 53.953606 71 53 68
-8.608199 -5.698781 54.043976 71 53 68
-8.622260 -5.591398 54.132256 70 52 67
-8.636006 -5.483436 54.218555 69 52 66
-8.649465 -5.374922 54.303051 69 52 64
-8.662665 -5.265887 54.385925 68 51 62
-8.675643 -5.156363 54.467403 67 51 60
-8.688438 -5.046381 54.547733 65 50 60
-8.701097 -4.935976 54.627205 64 50 60
-8.713663 -4.825176 54.706100 64 51 61
-8.726189 -4.714015 54.784740 64 51 63
-8.738726 -4.602520 54.863449 64 51 65
-8.751322 -4.490717 54.942532 65 51 66
-8.764028 -4.378628 55.022301 65 51 66
-8.776889 -4.266270 55.103046 64 52 65
-8.789948 -4.153657 55.185028 65 53 66
-8.803235 -4.040796 55.268452 65 53 66
-8.816781 -3.927690 55.353497 64 54 65
-8.830603 -3.814337 55.440269 64 55 65
-8.844709 -3.700729 55.528835 64 55 66
-8.859100 -3.586854 55.619186 65 56 67
-8.873766 -3.472697 55.711258 65 56 67
-8.888687 -3.358240 55.804939 65 56 67
-8.903839 -3.243462 55.900063 65 57 67
-8.919187 -3.128344 55.996414 63 58 67
-8.934689 -3.012861 56.093742 62 58 67
-8.950304 -2.896997 56.191784 61 58 67
-8.965988 -2.780731 56.290253 60 59 68
-8.981697 -2.664047 56.388870 61 60 69
-8.997385 -2.546932 56.487362 62 61 72
-9.013016 -2.429378 56.585495 65 62 75
-9.028551 -2.311376 56.683029 69 64 78
-9.043964 -2.192924 56.779797 74 67 82
-9.059230 -2.074021 56.875637 79 70 87
-9.074330 -1.954669 56.970440 85 74 90
-9.089256 -1.834873 57.064148 91 77 93
-9.104001 -1.714639 57.156719 94 78 95
-9.118566 -1.593974 57.248158 97 79 96
-9.132955 -1.472887 57.338493 98 79 97
-9.147178 -1.351385 57.427792 98 80 98
-9.161247 -1.229479 57.516125 99 80 99
-9.175182 -1.107175 57.603607 98 81 100
-9.189001 -0.984481 57.690365 98 82 100
-9.202725 -0.861405 57.776531 98 83 100
-9.216382 -0.737952 57.862270 97 83 99
-9.229996 -0.614126 57.947739 96 82 97
-9.243594 -0.489931 58.033115 95 80 93
-9.257209 -0.365369 58.118587 95 78 89
-9.270865 -0.240439 58.204327 94 75 84
-9.284591 -0.115140 58.290501 94 72 79
-9.298409 0.010530 58.377251 93 69 75
-9.312340 0.136576 58.464710 91 67 72
-9.326393 0.263003 58.552944 89 65 70
-9.340576 0.389815 58.641987 88 64 69
-9.354887 0.517018 58.731831 86 64 68
-9.369311 0.644617 58.822388 86 62 67
-9.383826 0.772613 58.913517 87 61 66
-9.398398 0.901008 59.005005 88 60 66
-9.412987 1.029799 59.096596 89 58 65
-9.427544 1.158981 59.187984 91 58 66
-9.442012 1.288545 59.278820 91 58 66
-9.456336 1.418478 59.368748 92 58 66
-9.470455 1.548766 59.457394 92 59 66
-9.484316 1.679391 59.544411 92 59 66
-9.497864 1.810331 59.629471 92 59 66
-9.511057 1.941565 59.712296 92 59 66
-9.523857 2.073071 59.792660 92 59 66
-9.536242 2.204827 59.870419 91 59 66
-9.548198 2.336813 59.945477 90 58 65
-9.559721 2.469012 60.017822 89 58 64
-9.570822 2.601407 60.087513 89 57 63
-9.581517 2.733988 60.154659 88 57 62
-9.591834 2.866744 60.219433 87 57 62
-9.601804 2.999672 60.282024 87 57 62
-9.611463 3.132768 60.342667 87 57 61
-9.620849 3.266032 60.401592 87 56 61
-9.629999 3.399468 60.459038 87 55 61
-9.638947 3.533077 60.515221 87 54 61
-9.647727 3.666865 60.570343 87 54 61
-9.656364 3.800833 60.624565 87 53 62
-9.664881 3.934987 60.678032 88 53 63
-9.673294 4.069328 60.730854 89 54 63
-9.681618 4.203857 60.783112 89 54 64
-9.689859 4.338575 60.834854 89 55 65
-9.698025 4.473481 60.886120 89 57 66
-9.706118 4.608574 60.936928 88 57 65
-9.714140 4.743851 60.987293 86 55 63
-9.722092 4.879310 61.037216 86 55 63
-9.729973 5.014947 61.086693 86 55 62
-9.737783 5.150762 61.135735 86 54 61
-9.745525 5.286749 61.184338 85 53 60
-9.753196 5.422907 61.232494 84 52 58
-9.760794 5.559231 61.280193 84 52 57
-9.768314 5.695715 61.327412 84 52 57
-9.775752 5.832354 61.374107 84 53 58
-9.783097 5.969137 61.420219 84 53 58
-9.790336 6.106053 61.465664 84 53 59
-9.797451 6.243086 61.510334 84 54 60
-7.760333 -9.466631 49.389324 70 58 71
-7.776530 -9.379700 49.492405 70 58 71
-7.792946 -9.292586 49.596886 71 58 71
-7.809598 -9.205300 49.702866 72 57 70
-7.826499 -9.117847 49.810432 73 55 69
-7.843656 -9.030225 49.919617 74 54 68
-7.861069 -8.942424 50.030445 75 54 68
-7.878738 -8.854432 50.142895 76 54 68
-7.896653 -8.766229 50.256912 77 54 69
-7.914803 -8.677791 50.372421 77 55 70
-7.933172 -8.589093 50.489330 77 56 70
-7.951741 -8.500104 50.607510 75 56 70
-7.970489 -8.410795 50.726830 74 56 70
-7.989393 -8.321135 50.847137 72 56 71
-8.008430 -8.231091 50.968292 71 55 71
-8.027572 -8.140633 51.090122 71 55 70
-8.046797 -8.049731 51.212475 70 56 71
-8.066076 -7.958357 51.335178 70 56 71
-8.085387 -7.866483 51.458080 71 57 71
-8.104701 -7.774083 51.580997 73 57 71
-8.123993 -7.681131 51.703773 74 57 71
-8.143234 -7.587604 51.826233 75 57 70
-8.162401 -7.493481 51.948219 76 57 70
-8.181466 -7.398739 52.069557 76 57 69
-8.200401 -7.303359 52.190067 76 57 70
-8.219181 -7.207322 52.309589 76 57 70
-8.237782 -7.110615 52.427963 76 57 70
-8.256173 -7.013221 52.545017 76 56 70
-8.274334 -6.915130 52.660599 76 56 71
-8.292240 -6.816330 52.774559 75 56 71
-8.309872 -6.716817 52.886768 75 56 71
-8.327206 -6.616584 52.997089 74 56 70
-8.344226 -6.515631 53.105415 73 56 69
-8.360918 -6.413959 53.211651 73 56 67
-8.377268 -6.311571 53.315704 72 55 66
-8.393267 -6.208474 53.417526 71 54 65
-8.408907 -6.104679 53.517067 70 53 64
-8.424186 -6.000196 53.614304 69 52 65
-8.439106 -5.895044 53.709259 70 53 66
-8.453669 -5.789238 53.801945 71 53 67
-8.467886 -5.682800 53.892426 71 54 68
-8.481771 -5.575754 53.980793 70 53 67
-8.495341 -5.468124 54.067165 69 53 65
-8.508624 -5.359941 54.151695 69 52 63
-8.521646 -5.251233 54.234573 68 52 61
-8.534444 -5.142032 54.316021 66 51 61
-8.547056 -5.032371 54.396290 65 51 61
-8.559526 -4.922282 54.475655 64 51 61
-8.571902 -4.811798 54.554420 63 51 62
-8.584233 -4.700950 54.632896 64 51 64
-8.596572 -4.589767 54.711422 64 51 66
-8.608968 -4.478276 54.790318 65 51 67
-8.621472 -4.366500 54.869904 65 51 67
-8.634133 -4.254457 54.950478 65 52 66
-8.646991 -4.142162 55.032310 66 53 67
-8.660083 -4.029623 55.115627 66 54 67
-8.673437 -3.916843 55.200623 65 54 66
-8.687075 -3.803820 55.287418 64 55 66
-8.701006 -3.690548 55.376083 64 55 65
-8.715234 -3.577016 55.466633 64 56 65
-8.729748 -3.463206 55.558998 65 56 65
-8.744531 -3.349101 55.653084 65 57 66
-8.759559 -3.234681 55.748726 65 57 66
-8.774798 -3.119925 55.845718 63 58 65
-8.790211 -3.004808 55.943806 62 58 65
-8.805753 -2.889312 56.042725 61 57 66
-8.821382 -2.773417 56.142189 60 58 68
-8.837049 -2.657104 56.241905 60 59 71
-8.852715 -2.540361 56.341610 62 61 74
-8.868337 -2.423176 56.441029 65 62 77
-8.883880 -2.305542 56.539948 69 64 81
-8.899310 -2.187453 56.638149 74 67 85
-8.914603 -2.068910 56.735485 79 70 89
-8.929741 -1.949913 56.831825 85 73 92
-8.944709 -1.830465 56.927082 90 77 95
-8.959499 -1.710574 57.021214 94 79 97
-8.974111 -1.590244 57.114204 97 79 99
-8.988544 -1.469485 57.206070 98 80 100
-9.002810 -1.348305 57.296864 98 80 101
-9.016917 -1.226711 57.386646 98 81 101
-9.030880 -1.104713 57.475506 98 82 102
-9.044718 -0.982318 57.563572 98 83 102
-9.058449 -0.859533 57.650963 99 85 102
-9.072097 -0.736365 57.737827 99 86 101
-9.085688 -0.612818 57.824322 99 85 99
-9.099248 -0.488897 57.910622 99 83 96
-9.112804 -0.364604 57.996902 98 81 93
-9.126386 -0.239939 58.083336 97 78 88
-9.140018 -0.114902 58.170090 97 75 84
-9.153723 0.010509 58.257320 96 73 80
-9.167521 0.136297 58.345142 94 71 78
-9.181429 0.262467 58.433647 93 70 76
-9.195451 0.389023 58.522888 91 68 75
-9.209586 0.515971 58.612850 90 67 74
-9.223825 0.643314 58.703476 89 66 72
-9.238151 0.771054 58.794647 90 64 72
-9.252531 0.899193 58.886169 91 63 72
-9.266932 1.027729 58.977818 93 62 71
-9.281306 1.156657 59.069305 94 61 71
-9.295607 1.285969 59.160313 94 60 70
-9.309778 1.415653 59.250504 94 60 69
-9.323768 1.545696 59.339539 94 60 69
-9.337523 1.676082 59.427086 94 60 68
-9.350997 1.806790 59.512836 95 60 68
-9.364146 1.937801 59.596523 95 60 68
-9.376939 2.069093 59.677940 95 60 67
-9.389351 2.200648 59.756935 95 60 67
-9.401370 2.332446 59.833424 94 60 67
-9.412991 2.464469 59.907387 93 59 67
-9.424222 2.596704 59.978867 92 59 66
-9.435080 2.729138 60.047966 91 59 65
-9.445584 2.861764 60.114826 90 59 65
-9.455768 2.994576 60.179630 89 59 64
-9.465658 3.127572 60.242580 89 58 64
-9.475291 3.260749 60.303886 89 58 64
-9.484698 3.394110 60.363758 89 57 63
-9.493911 3.527657 60.422386 89 57 63
-9.502954 3.661392 60.479942 89 56 65
-9.511853 3.795317 60.536579 89 56 66
-9.520625 3.929434 60.592407 89 55 67
-9.529285 4.063744 60.647526 90 56 67
-9.537845 4.198247 60.702000 90 56 68
-9.546309 4.332942 60.755871 90 58 69
-9.554683 4.467827 60.809162 90 59 69
-9.562969 4.602900 60.861900 88 59 67
-9.571170 4.738157 60.914089 86 57 65
-9.579285 4.873596 60.965736 86 57 64
-9.587315 5.009213 61.016842 87 57 64
-9.595262 5.145006 61.067417 88 56 63
-9.603127 5.280972 61.117474 87 55 63
-9.610911 5.417108 61.167019 87 54 62
-9.618613 5.553411 61.216038 87 54 61
-9.626233 5.689875 61.264530 87 54 61
-9.633763 5.826496 61.312458 86 54 62
-9.641199 5.963264 61.359779 85 55 62
-9.648527 6.100168 61.406418 85 55 63
-9.655732 6.237194 61.452274 85 55 64
-9.662795 6.374323 61.497227 86 56 64
-7.647732 -9.352663 49.349747 70 60 70
-7.663829 -9.265742 49.453613 72 60 71
-7.680160 -9.178654 49.558990 73 59 70
-7.696739 -9.091406 49.665977 73 57 69
-7.713573 -9.003992 49.774605 74 56 68
-7.730666 -8.916409 49.884903 75 55 69
-7.748016 -8.828645 49.996861 76 55 69
-7.765614 -8.740676 50.110416 77 55 71
-7.783450 -8.652482 50.225510 77 56 72
-7.801508 -8.564036 50.342041 77 56 72
-7.819771 -8.475309 50.459885 76 56 72
-7.838216 -8.386270 50.578907 74 57 72
-7.856822 -8.296885 50.698967 73 57 72
-7.875562 -8.207126 50.819897 72 57 71
-7.894415 -8.116960 50.941551 71 57 71
-7.913352 -8.026354 51.063751 70 57 71
-7.932349 -7.935282 51.186333 70 57 72
-7.951378 -7.843713 51.309128 72 57 72
-7.970416 -7.751623 51.431973 74 58 72
-7.989433 -7.658983 51.554688 76 58 72
-8.008404 -7.565771 51.677105 77 58 71
-8.027304 -7.471965 51.799065 78 57 70
-8.046103 -7.377541 51.920376 78 57 69
-8.064777 -7.282481 52.040878 78 57 70
-8.083300 -7.186767 52.160400 78 57 70
-8.101646 -7.090383 52.278786 78 57 70
-8.119789 -6.993313 52.395859 77 57 71
-8.137706 -6.895547 52.511475 77 57 71
-8.155374 -6.797075 52.625481 76 56 72
-8.172771 -6.697891 52.737751 74 56 72
-8.189880 -6.597990 52.848152 74 56 71
-8.206682 -6.497369 52.956570 73 57 70
-8.223162 -6.396030 53.062908 73 57 68
-8.239307 -6.293978 53.167099 73 56 67
-8.255108 -6.191218 53.269054 72 55 65
-8.270557 -6.087760 53.368748 71 54 64
-8.285651 -5.983615 53.466148 70 53 63
-8.300390 -5.878799 53.561256 70 53 65
-8.314778 -5.773329 53.654099 70 54 66
-8.328823 -5.667226 53.744728 70 54 66
-8.342538 -5.560512 53.833229 70 54 65
-8.355941 -5.453212 53.919712 69 54 64
-8.369054 -5.345355 54.004330 69 53 62
-8.381905 -5.236969 54.087257 67 53 61
-8.394529 -5.128087 54.168720 66 52 62
-8.406965 -5.018742 54.248970 65 52 62
-8.419256 -4.908966 54.328281 64 51 63
-8.431449 -4.798791 54.406956 64 51 64
-8.443594 -4.688252 54.485329 64 52 65
-8.455742 -4.577376 54.563717 65 51 67
-8.467946 -4.466191 54.642467 65 51 68
-8.480255 -4.354722 54.721901 66 51 68
-8.492720 -4.242987 54.802330 66 52 67
-8.505383 -4.131003 54.884048 67 53 67
-8.518284 -4.018777 54.967293 67 54 67
-8.531450 -3.906315 55.052254 66 54 66
-8.544906 -3.793614 55.139076 65 55 65
-8.558661 -3.680669 55.227840 64 55 64
-8.572721 -3.567467 55.318565 64 56 63
-8.587078 -3.453994 55.411213 65 57 62
-8.601717 -3.340230 55.505676 66 57 63
-8.616614 -3.226156 55.601803 66 57 64
-8.631737 -3.111749 55.699387 64 57 63
-8.647048 -2.996987 55.798183 63 57 64
-8.662502 -2.881846 55.897911 60 56 66
-8.678058 -2.766308 55.998291 59 56 68
-8.693670 -2.650354 56.099033 60 58 72
-8.709292 -2.533969 56.199844 62 60 76
-8.724886 -2.417141 56.300468 65 62 80
-8.740412 -2.299861 56.400650 69 64 84
-8.755836 -2.182125 56.500183 73 66 88
-8.771134 -2.063929 56.598900 78 69 91
-8.786283 -1.945275 56.696648 84 73 95
-8.801268 -1.826165 56.793346 89 77 98
-8.816079 -1.706605 56.888920 94 79 100
-8.830711 -1.586601 56.983341 96 80 102
-8.845167 -1.466160 57.076622 97 81 103
-8.859449 -1.345291 57.168785 97 81 103
-8.873569 -1.224002 57.259895 97 82 103
-8.887537 -1.102301 57.350029 97 83 103
-8.901370 -0.980197 57.439293 98 84 102
-8.915087 -0.857697 57.527805 99 86 102
-8.928708 -0.734807 57.615700 100 87 102
-8.942257 -0.611534 57.703129 101 87 101
-8.955760 -0.487881 57.790260 101 85 99
-8.969243 -0.363851 57.877266 101 83 96
-8.982733 -0.239447 57.964317 100 81 92
-8.996256 -0.114668 58.051579 99 78 88
-9.009835 0.010487 58.139202 98 76 85
-9.023491 0.136022 58.227322 97 74 83
-9.037238 0.261939 58.316029 96 72 82
-9.051085 0.388242 58.405384 94 71 80
-9.065035 0.514937 58.495399 93 69 78
-9.079079 0.642027 58.586021 92 67 77
-9.093202 0.769513 58.677155 93 65 77
-9.107379 0.897399 58.768639 95 64 77
-9.121577 1.025681 58.860260 96 63 77
-9.135757 1.154355 58.951763 97 63 76
-9.149875 1.283415 59.042858 97 62 75
-9.163880 1.412851 59.133236 96 61 73
-9.177725 1.542650 59.222569 95 61 72
-9.191360 1.672795 59.310555 95 61 71
-9.204741 1.803270 59.396908 96 61 70
-9.217833 1.934057 59.481380 96 61 70
-9.230599 2.065135 59.563763 97 62 69
-9.243021 2.196486 59.643917 98 62 70
-9.255085 2.328093 59.721764 97 62 70
-9.266786 2.459939 59.797268 96 61 69
-9.278131 2.592011 59.870476 94 61 69
-9.289132 2.724298 59.941467 93 60 69
-9.299810 2.856792 60.010372 92 60 69
-9.310190 2.989487 60.077351 92 60 68
-9.320298 3.122380 60.142578 92 60 68
-9.330164 3.255469 60.206238 92 60 67
-9.339815 3.388756 60.268520 91 59 66
-9.349278 3.522239 60.329582 91 59 67
-9.358576 3.655921 60.389576 90 59 67
