ply
format ascii 1.0
element vertex 1184
property float x
property float y
property float z
property uchar red
property uchar green
property uchar blue
end_header
-3.716895 17.665787 45.506950 74 56 62
-3.663907 -3.964508 46.074215 107 117 134
-3.660794 -3.861904 46.035069 108 118 136
-3.657526 -3.759309 45.993977 109 118 137
-3.654125 -3.656759 45.951218 110 117 137
-3.650612 -3.554283 45.907040 111 116 137
-3.647007 -3.451910 45.861698 112 116 138
-3.643328 -3.349666 45.815441 113 116 139
-3.639594 -3.247571 45.768482 114 116 139
-3.635821 -3.145645 45.721027 115 116 139
-3.632022 -3.043902 45.673256 115 117 139
-3.628211 -2.942356 45.625340 115 117 139
-3.624401 -2.841016 45.577427 115 117 139
-3.620602 -2.739891 45.529648 115 118 138
-3.616822 -2.638987 45.482124 114 118 137
-3.613072 -2.538308 45.434963 114 118 136
-3.609358 -2.437858 45.388264 113 118 135
-3.605688 -2.337636 45.342106 113 118 135
-3.602066 -2.237644 45.296562 112 118 134
-3.598497 -2.137879 45.251678 112 117 132
-3.594985 -2.038341 45.207508 112 116 131
-3.591530 -1.939023 45.164062 113 115 131
-3.588132 -1.839923 45.121342 114 114 131
-3.584792 -1.741034 45.079342 114 113 132
-3.581508 -1.642352 45.038036 114 114 133
-3.578276 -1.543871 44.997391 113 114 132
-3.575093 -1.445584 44.957363 112 113 131
-3.571955 -1.347488 44.917908 111 112 129
-3.568860 -1.249576 44.878990 111 111 128
-3.565805 -1.151845 44.840576 110 110 126
-3.562789 -1.054292 44.802650 109 110 124
-3.559813 -0.956912 44.765217 107 110 123
-3.556877 -0.859704 44.728298 106 110 122
-3.553985 -0.762664 44.691933 106 109 121
-3.551143 -0.665791 44.656189 105 109 121
-3.548356 -0.569080 44.621151 104 108 120
-3.545633 -0.472529 44.586903 103 108 120
-3.542982 -0.376133 44.553562 102 108 121
-3.540410 -0.279887 44.521225 103 109 121
-3.537927 -0.183786 44.490002 104 109 122
-3.535540 -0.087821 44.459984 104 109 122
-3.533254 0.008015 44.431236 106 110 122
-3.531073 0.103729 44.403812 107 111 124
-3.528999 0.199332 44.377731 109 111 125
-3.527032 0.294831 44.352989 109 111 126
-3.525166 0.390234 44.329529 109 110 127
-3.523396 0.485550 44.307274 109 110 128
-3.521712 0.580784 44.286095 109 109 128
-3.520102 0.675941 44.265842 108 108 126
-3.518550 0.771023 44.246330 107 107 125
-3.517040 0.866031 44.227352 106 106 123
-3.515555 0.960965 44.208672 105 105 120
-3.514075 1.055819 44.190060 104 105 118
-3.512582 1.150588 44.171276 103 105 116
-3.511055 1.245266 44.152088 102 105 116
-3.509481 1.339841 44.132282 103 106 116
-3.507842 1.434306 44.111671 102 105 116
-3.506127 1.528648 44.090107 102 104 115
-3.504326 1.622857 44.067463 105 106 118
-3.502434 1.716924 44.043667 108 107 120
-3.500448 1.810840 44.018696 111 109 122
-3.498370 1.904598 43.992565 113 111 123
-3.496205 1.998194 43.965336 115 112 124
-3.493959 2.091624 43.937103 117 112 125
-3.491646 2.184891 43.908012 118 111 124
-3.489278 2.277995 43.878227 118 110 122
-3.486870 2.370944 43.847950 119 108 119
-3.484439 2.463747 43.817383 119 107 118
-3.482003 2.556415 43.786755 118 108 117
-3.479582 2.648960 43.756298 122 113 121
-3.477192 2.741400 43.726254 133 125 134
-3.474854 2.833753 43.696850 134 129 138
-3.472586 2.926038 43.668331 120 116 127
-3.470407 3.018276 43.640926 111 108 120
-3.468334 3.110492 43.614861 113 109 123
-3.466385 3.202710 43.590347 113 111 125
-3.464575 3.294955 43.567585 114 111 127
-3.462919 3.387252 43.546764 113 110 127
-3.461431 3.479628 43.528049 112 110 126
-3.460122 3.572109 43.511585 113 111 126
-3.459001 3.664718 43.497494 114 112 126
-3.458075 3.757478 43.485851 115 113 127
-3.457348 3.850409 43.476707 118 116 129
-3.456821 3.943529 43.470085 120 119 131
-3.456492 4.036851 43.465942 122 120 133
-3.456355 4.130385 43.464218 123 120 134
-3.456401 4.224136 43.464802 123 119 134
-3.456620 4.318104 43.467548 123 117 133
-3.456996 4.412287 43.472286 123 115 133
-3.457515 4.506675 43.478809 122 114 132
-3.458159 4.601257 43.486912 121 112 132
-3.458911 4.696021 43.496361 120 112 132
-3.459751 4.790947 43.506924 120 111 131
-3.460662 4.886021 43.518387 119 111 130
-3.461628 4.981221 43.530529 117 111 129
-3.462633 5.076532 43.543171 115 111 127
-3.463664 5.171936 43.556133 114 110 125
-3.464710 5.267418 43.569286 114 110 124
-3.465762 5.362967 43.582516 114 110 123
-3.466815 5.458573 43.595749 113 109 123
-3.467863 5.554231 43.608940 113 109 123
-3.468908 5.649938 43.622070 114 110 123
-3.469949 5.745697 43.635166 114 110 124
-3.470991 5.841512 43.648266 115 111 124
-3.472040 5.937398 43.661461 116 112 125
-3.473104 6.033365 43.674839 116 112 125
-3.474193 6.129435 43.688534 115 112 125
-3.475318 6.225629 43.702690 113 112 125
-3.476494 6.321975 43.717472 112 111 124
-3.477733 6.418501 43.733051 111 109 123
-3.479049 6.515241 43.749607 111 108 122
-3.480458 6.612227 43.767323 110 106 122
-3.481974 6.709495 43.786385 110 105 121
-3.483609 6.807079 43.806950 109 104 122
-3.485377 6.905014 43.829174 109 103 123
-3.487287 7.003332 43.853199 108 104 123
-3.489349 7.102061 43.879128 108 104 123
-3.491569 7.201228 43.907040 107 104 123
-3.493951 7.300855 43.937000 106 104 122
-3.496498 7.400958 43.969021 105 104 121
-3.499209 7.501552 44.003113 106 104 119
-3.502082 7.602645 44.039242 106 104 118
-3.505114 7.704243 44.077370 107 104 117
-3.508299 7.806347 44.117424 107 103 116
-3.511632 7.908957 44.159344 107 102 114
-3.515106 8.012067 44.203022 105 100 112
-3.518713 8.115673 44.248383 104 97 111
-3.522446 8.219768 44.295322 102 95 110
-3.526296 8.324342 44.343735 101 93 108
-3.530254 8.429383 44.393513 99 90 105
-3.534312 8.534882 44.444546 98 89 104
-3.538461 8.640821 44.496719 97 87 103
-3.542691 8.747184 44.549908 97 86 102
-3.546989 8.853948 44.603962 97 85 102
-3.551346 8.961091 44.658741 97 84 102
-3.555746 9.068584 44.714085 96 83 101
-3.560178 9.176395 44.769814 95 82 99
-3.564627 9.284491 44.825752 94 81 97
-3.569076 9.392829 44.881706 94 80 94
-3.573511 9.501370 44.937473 94 79 91
-3.577916 9.610073 44.992870 95 79 89
-3.582276 9.718891 45.047695 96 78 88
-3.586577 9.827784 45.101780 96 77 86
-3.590804 9.936706 45.154938 96 75 83
-3.594946 10.045618 45.207020 95 73 81
-3.598991 10.154484 45.257893 94 72 79
-3.602931 10.263267 45.307434 94 70 78
-3.606757 10.371937 45.355549 94 69 78
-3.610462 10.480464 45.402145 95 69 78
-3.614043 10.588825 45.447163 95 70 80
-3.617493 10.696998 45.490559 96 72 82
-3.620812 10.804964 45.532291 98 74 85
-3.623996 10.912704 45.572330 98 75 87
-3.627044 11.020204 45.610661 96 74 87
-3.629954 11.127443 45.647247 95 72 87
-3.632724 11.234410 45.682083 94 71 87
-3.635352 11.341085 45.715137 93 69 86
-3.637837 11.447453 45.746391 92 68 86
-3.640176 11.553489 45.775799 91 66 85
-3.642363 11.659166 45.803299 90 65 84
-3.644394 11.764461 45.828846 89 64 83
-3.646265 11.869341 45.852367 89 64 81
-3.647968 11.973774 45.873783 88 63 80
-3.649497 12.077721 45.893005 89 62 79
-3.650843 12.181144 45.909943 89 62 78
-3.652001 12.284003 45.924496 89 62 78
-3.652963 12.386265 45.936600 88 61 77
-3.653724 12.487890 45.946171 88 61 76
-3.654280 12.588850 45.953167 88 61 75
-3.654629 12.689119 45.957546 88 61 75
-3.654769 12.788679 45.959309 88 61 74
-3.654703 12.887518 45.958473 87 61 74
-3.654434 12.985635 45.955097 88 61 74
-3.653968 13.083030 45.949238 89 61 74
-3.653312 13.179714 45.940987 89 61 74
-3.652475 13.275702 45.930454 89 61 74
-3.651463 13.371011 45.917736 89 62 73
-3.650287 13.465653 45.902943 89 62 73
-3.648955 13.559654 45.886192 89 62 73
-3.647473 13.653025 45.867565 89 62 74
-3.645852 13.745786 45.847172 89 62 75
-3.644098 13.837957 45.825119 90 62 75
-3.642221 13.929562 45.801514 90 62 74
-3.640230 14.020627 45.776478 90 62 73
-3.638139 14.111193 45.750175 90 62 72
-3.635962 14.201312 45.722801 90 63 72
-3.633719 14.291055 45.694599 90 63 72
-3.631434 14.380508 45.665863 90 63 72
-3.629136 14.469788 45.636971 90 64 71
-3.626858 14.559022 45.608326 89 64 72
-3.624638 14.648364 45.580402 88 64 72
-3.622514 14.737981 45.553699 89 65 73
-3.620530 14.828052 45.528744 88 64 74
-3.618724 14.918751 45.506031 88 63 73
-3.617137 15.010262 45.486080 87 63 73
-3.615806 15.102753 45.469337 87 62 72
-3.614758 15.196365 45.456165 87 62 71
-3.614018 15.291222 45.446854 87 61 70
-3.613598 15.387402 45.441574 87 61 69
-3.613502 15.484945 45.440365 88 61 69
-3.613723 15.583855 45.443150 88 61 69
-3.614244 15.684076 45.449699 87 61 69
-3.615038 15.785516 45.459682 86 61 69
-3.616066 15.888032 45.472618 86 61 69
-3.617285 15.991440 45.487934 86 62 69
-3.618639 16.095518 45.504959 86 62 70
-3.620069 16.200016 45.522953 86 63 70
-3.621514 16.304651 45.541119 85 63 70
-3.622905 16.409126 45.558617 85 63 70
-3.624178 16.513132 45.574619 83 63 69
-3.625265 16.616360 45.588291 82 63 68
-3.626104 16.718498 45.598835 81 62 67
-3.626634 16.819256 45.605511 79 61 65
-3.626803 16.918352 45.607632 78 60 65
-3.626564 17.015547 45.604630 79 60 65
-3.625879 17.110622 45.596016 79 60 65
-3.624720 17.203411 45.581440 79 59 64
-3.623071 17.293795 45.560696 78 58 64
-3.620926 17.381716 45.533730 78 56 63
-3.618295 17.467169 45.500645 77 56 62
-3.615200 17.550228 45.461723 76 56 62
-3.611677 17.631029 45.417419 73 55 60
-3.554905 -3.953741 45.949081 109 119 136
-3.551975 -3.851513 45.911205 110 120 138
-3.548892 -3.749286 45.871353 111 120 140
-3.545675 -3.647094 45.829777 111 120 140
-3.542345 -3.544969 45.786736 112 119 140
-3.538922 -3.442938 45.742493 114 118 141
-3.535424 -3.341026 45.697273 115 118 142
-3.531867 -3.239257 45.651306 116 117 142
-3.528269 -3.137648 45.604794 117 117 142
-3.524643 -3.036215 45.557922 117 117 141
-3.521001 -2.934972 45.510853 117 118 141
-3.517356 -2.833930 45.463737 117 118 140
-3.513718 -2.733095 45.416714 117 119 139
-3.510096 -2.632476 45.369896 115 118 137
-3.506499 -2.532076 45.323399 114 118 135
-3.502933 -2.431898 45.277313 114 119 135
-3.499406 -2.331945 45.231728 113 119 134
-3.495923 -2.232217 45.186703 112 119 133
-3.492488 -2.132712 45.142307 112 118 132
-3.489104 -2.033429 45.098572 112 117 130
-3.485773 -1.934363 45.055515 112 116 130
-3.482496 -1.835511 45.013161 113 115 130
-3.479272 -1.736869 44.971485 113 114 131
-3.476100 -1.638430 44.930477 114 114 131
-3.472976 -1.540190 44.890110 113 114 130
-3.469900 -1.442143 44.850342 113 113 129
-3.466866 -1.344285 44.811134 112 112 128
-3.463874 -1.246610 44.772457 111 112 127
-3.460922 -1.149115 44.734295 110 111 126
-3.458007 -1.051797 44.696625 109 110 124
-3.455132 -0.954652 44.659462 107 110 123
-3.452299 -0.857677 44.622841 106 110 122
-3.449510 -0.760870 44.586800 106 109 122
-3.446773 -0.664228 44.551411 105 109 122
-3.444092 -0.567749 44.516758 104 109 122
-3.441476 -0.471427 44.482944 103 110 123
-3.438932 -0.375259 44.450066 104 110 124
-3.436469 -0.279240 44.418232 105 110 124
-3.434095 -0.183362 44.387550 105 110 124
-3.431817 -0.087620 44.358101 105 110 124
-3.429640 0.007996 44.329960 107 111 125
-3.427567 0.103494 44.303169 109 112 126
-3.425600 0.198883 44.277737 110 112 127
-3.423736 0.294171 44.253654 110 111 127
-3.421972 0.389366 44.230854 110 110 127
-3.420301 0.484476 44.209248 110 110 128
-3.418711 0.579507 44.188705 109 109 127
-3.417191 0.674463 44.169056 108 107 125
-3.415725 0.769346 44.150105 106 105 123
-3.414296 0.864157 44.131634 104 104 120
-3.412886 0.958894 44.113407 103 103 118
-3.411475 1.053552 44.095173 101 103 117
-3.410045 1.148124 44.076683 100 103 116
-3.408576 1.242603 44.057697 100 104 115
-3.407052 1.336979 44.038002 102 106 117
-3.405459 1.431241 44.017406 102 105 118
-3.403783 1.525376 43.995750 103 105 118
-3.402016 1.619375 43.972912 107 107 121
-3.400153 1.713227 43.948830 110 109 124
-3.398192 1.806923 43.923477 112 111 125
-3.396134 1.900456 43.896877 114 111 126
-3.393985 1.993820 43.869099 116 112 127
-3.391753 2.087014 43.840256 117 112 126
-3.389451 2.180038 43.810490 118 111 124
-3.387091 2.272895 43.779991 119 110 122
-3.384691 2.365592 43.748966 119 109 119
-3.382267 2.458139 43.717636 119 108 117
-3.379837 2.550546 43.686237 118 108 117
-3.377422 2.642829 43.655014 123 114 123
-3.375039 2.735003 43.624218 141 134 143
-3.372710 2.827090 43.594105 146 141 151
-3.370450 2.919107 43.564903 126 122 134
-3.368280 3.011079 43.536858 112 108 121
-3.366218 3.103028 43.510201 113 110 123
-3.364280 3.194981 43.485146 115 112 126
-3.362482 3.286963 43.461903 115 112 127
-3.360838 3.378999 43.440655 114 112 127
-3.359361 3.471116 43.421566 113 112 127
-3.358062 3.563340 43.404778 113 112 127
-3.356950 3.655696 43.390408 114 113 126
-3.356031 3.748204 43.378532 116 115 128
-3.355309 3.840887 43.369190 119 118 130
-3.354783 3.933760 43.362400 121 121 133
-3.354451 4.026836 43.358109 123 122 135
-3.354307 4.120125 43.356251 124 123 137
-3.354343 4.213631 43.356705 124 122 137
-3.354546 4.307353 43.359325 124 120 136
-3.354902 4.401289 43.363930 123 117 135
-3.355395 4.495428 43.370308 123 116 134
-3.356009 4.589760 43.378246 122 115 134
-3.356726 4.684268 43.387508 121 114 134
-3.357527 4.778938 43.397861 121 114 133
-3.358395 4.873749 43.409081 119 114 132
-3.359314 4.968683 43.420959 118 114 130
-3.360269 5.063723 43.433300 115 112 128
-3.361246 5.158851 43.445938 113 111 125
-3.362236 5.254053 43.458736 113 111 125
-3.363231 5.349317 43.471588 113 111 125
-3.364224 5.444634 43.484425 112 110 125
-3.365212 5.539998 43.497192 113 110 125
-3.366194 5.635408 43.509892 113 110 126
-3.367173 5.730866 43.522541 113 111 126
-3.368152 5.826380 43.535191 114 111 126
-3.369137 5.921958 43.547924 115 112 126
-3.370137 6.017618 43.560848 115 112 126
-3.371161 6.113379 43.574089 114 112 126
-3.372221 6.209262 43.587795 113 112 126
-3.373331 6.305296 43.602135 112 111 125
-3.374502 6.401510 43.617275 111 109 124
-3.375750 6.497936 43.633404 111 108 123
-3.377088 6.594607 43.650700 111 107 123
-3.378531 6.691561 43.669346 111 106 124
-3.380090 6.788829 43.689495 110 105 124
-3.381778 6.886446 43.711319 110 105 125
-3.383605 6.984445 43.734932 109 105 125
-3.385579 7.082852 43.760448 108 105 124
-3.387707 7.181695 43.787949 107 105 124
-3.389991 7.280994 43.817482 106 105 122
-3.392435 7.380767 43.849068 105 105 121
-3.395038 7.481027 43.882713 106 105 119
-3.397798 7.581781 43.918385 107 105 118
-3.400711 7.683035 43.956036 107 104 117
-3.403773 7.784793 43.995617 107 104 116
-3.406978 7.887053 44.037041 107 102 115
-3.410319 7.989810 44.080235 106 100 113
-3.413791 8.093061 44.125103 105 97 112
-3.417385 8.196801 44.171558 103 95 110
-3.421094 8.301022 44.219505 101 92 108
-3.424911 8.405712 44.268845 100 90 105
-3.428829 8.510863 44.319477 99 88 104
-3.432837 8.616462 44.371284 98 87 103
-3.436928 8.722493 44.424160 97 86 102
-3.441090 8.828937 44.477959 97 85 102
-3.445313 8.935769 44.532551 96 84 101
-3.449586 9.042966 44.587772 96 84 101
-3.453894 9.150496 44.643452 95 83 99
-3.458223 9.258323 44.699413 95 82 97
-3.462559 9.366408 44.755459 95 81 95
-3.466886 9.474711 44.811386 96 81 92
-3.471188 9.583187 44.866997 97 80 90
-3.475451 9.691792 44.922089 98 79 89
-3.479658 9.800478 44.976467 98 78 87
-3.483796 9.909202 45.029953 98 76 85
-3.487851 10.017920 45.082375 96 74 82
-3.491813 10.126592 45.133583 95 72 80
-3.495671 10.235179 45.183441 94 70 79
-3.499415 10.343648 45.231846 94 69 79
-3.503040 10.451968 45.278698 95 68 79
-3.506539 10.560112 45.323929 95 70 81
-3.509909 10.668056 45.367481 96 72 83
-3.513146 10.775782 45.409321 97 74 86
-3.516248 10.883270 45.449413 97 75 88
-3.519214 10.990506 45.487751 96 74 89
-3.522042 11.097474 45.524307 95 72 89
-3.524732 11.204160 45.559074 94 71 89
-3.527282 11.310549 45.592045 92 70 87
-3.529694 11.416628 45.623211 92 68 87
-3.531963 11.522379 45.652538 91 66 86
-3.534087 11.627779 45.679996 90 65 85
-3.536063 11.732807 45.705536 89 64 83
-3.537887 11.837436 45.729115 89 64 82
-3.539554 11.941637 45.750664 88 63 80
-3.541058 12.045376 45.770103 89 62 79
-3.542393 12.148619 45.787357 89 62 78
-3.543553 12.251331 45.802349 89 62 78
-3.544532 12.353476 45.814999 89 61 77
-3.545324 12.455023 45.825245 89 61 76
-3.545927 12.555941 45.833035 89 61 74
-3.546337 12.656204 45.838333 89 61 73
-3.546553 12.755795 45.841133 88 61 72
-3.546578 12.854703 45.841450 88 61 71
-3.546414 12.952921 45.839325 89 61 72
-3.546064 13.050449 45.834812 90 61 73
-3.545537 13.147297 45.827988 90 61 73
-3.544837 13.243471 45.818943 90 62 74
-3.543972 13.338985 45.807762 90 62 74
-3.542949 13.433853 45.794540 90 62 74
-3.541775 13.528087 45.779366 90 62 73
-3.540456 13.621698 45.762321 90 62 73
-3.539000 13.714702 45.743496 90 62 74
-3.537412 13.807112 45.722973 90 62 74
-3.535700 13.898947 45.700848 91 62 74
-3.533875 13.990234 45.677250 91 63 74
-3.531945 14.081008 45.652313 91 63 73
-3.529928 14.171321 45.626240 91 64 72
-3.527841 14.261237 45.599258 91 64 72
-3.525707 14.350849 45.571678 91 64 73
-3.523554 14.440264 45.543854 91 65 73
-3.521415 14.529614 45.516205 90 65 73
-3.519326 14.619054 45.489201 89 65 74
-3.517326 14.708751 45.463352 89 65 74
-3.515456 14.798882 45.439178 89 65 75
-3.513755 14.889626 45.417194 88 64 74
-3.512263 14.981164 45.397903 88 63 73
-3.511014 15.073667 45.381767 88 63 73
-3.510038 15.167277 45.369152 88 62 72
-3.509357 15.262115 45.360348 88 62 71
-3.508984 15.358263 45.355522 88 61 70
-3.508922 15.455762 45.354725 88 60 70
-3.509165 15.554609 45.357864 88 60 70
-3.509696 15.654755 45.364731 88 60 70
-3.510489 15.756103 45.374977 88 60 70
-3.511506 15.858509 45.388123 88 61 70
-3.512703 15.961792 45.403599 87 62 70
-3.514029 16.065727 45.420734 86 62 70
-3.515425 16.170063 45.438786 86 62 70
-3.516831 16.274519 45.456955 85 63 70
-3.518182 16.378798 45.474415 84 63 70
-3.519413 16.482594 45.490334 83 63 70
-3.520462 16.585594 45.503887 82 63 69
-3.521266 16.687496 45.514278 81 62 68
-3.521769 16.788006 45.520775 80 62 67
-3.521919 16.886852 45.522713 79 61 66
-3.521671 16.983789 45.519516 78 60 65
-3.520990 17.078611 45.510712 78 60 65
-3.519849 17.171150 45.495964 78 59 65
-3.518232 17.261292 45.475067 78 57 64
-3.516137 17.348982 45.447979 78 56 63
-3.513571 17.434219 45.414810 76 56 62
-3.510556 17.517078 45.375851 75 55 61
-3.507129 17.597694 45.331547 72 55 59
-3.446570 -3.943119 45.825638 111 120 137
-3.443813 -3.841259 45.788979 112 121 139
-3.440904 -3.739392 45.750301 113 122 141
-3.437862 -3.637552 45.709858 113 122 142
-3.434708 -3.535769 45.667915 113 121 142
-3.431459 -3.434073 45.624714 115 120 143
-3.428133 -3.332489 45.580502 116 119 143
-3.424748 -3.231039 45.535500 117 119 143
-3.421320 -3.129744 45.489906 118 119 142
-3.417860 -3.028617 45.443913 118 119 142
-3.414383 -2.927674 45.397678 119 119 142
-3.410899 -2.826925 45.351360 120 120 142
-3.407419 -2.726378 45.305088 120 120 140
-3.403952 -2.626040 45.258984 117 119 137
-3.400505 -2.525917 45.213158 115 118 135
-3.397086 -2.426011 45.167702 114 119 135
-3.393702 -2.326324 45.122696 114 120 135
-3.390356 -2.226858 45.078217 113 120 134
-3.387055 -2.127610 45.034321 113 120 132
-3.383800 -2.028581 44.991047 113 119 131
-3.380594 -1.929765 44.948414 113 117 131
-3.377437 -1.831159 44.906441 113 117 131
-3.374329 -1.732761 44.865120 113 116 131
-3.371269 -1.634563 44.824440 113 115 131
-3.368256 -1.536562 44.784370 113 115 130
-3.365286 -1.438752 44.744881 112 113 128
-3.362358 -1.341129 44.705952 111 112 127
-3.359469 -1.243689 44.667542 111 112 127
-3.356619 -1.146427 44.629646 110 111 125
-3.353807 -1.049341 44.592255 108 110 124
-3.351034 -0.952427 44.555389 107 110 124
-3.348303 -0.855683 44.519077 106 109 123
-3.345618 -0.759105 44.483383 105 109 123
-3.342985 -0.662692 44.448368 105 109 123
-3.340410 -0.566440 44.414127 104 110 123
-3.337900 -0.470344 44.380760 104 111 125
-3.335464 -0.374401 44.348373 105 111 126
-3.333110 -0.278604 44.317074 106 111 126
-3.330845 -0.182947 44.286957 106 110 126
-3.328676 -0.087422 44.258114 107 111 126
-3.326607 0.007979 44.230606 109 111 126
-3.324642 0.103264 44.204479 110 112 127
-3.322780 0.198443 44.179729 110 111 127
-3.321021 0.293524 44.156338 110 110 127
-3.319359 0.388515 44.134235 111 110 128
-3.317786 0.483425 44.113316 111 110 129
-3.316291 0.578257 44.093441 110 109 128
-3.314861 0.673018 44.074429 108 106 125
-3.313480 0.767707 44.056076 106 104 122
-3.312132 0.862326 44.038147 103 102 120
-3.310796 0.956872 44.020393 101 101 118
-3.309455 1.051339 44.002556 100 102 117
-3.308088 1.145720 43.984375 99 102 116
-3.306677 1.240006 43.965618 99 103 115
-3.305205 1.334187 43.946041 101 105 117
-3.303657 1.428251 43.925461 103 105 120
-3.302021 1.522185 43.903713 106 107 122
-3.300289 1.615979 43.880684 108 109 125
-3.298456 1.709620 43.856308 111 110 128
-3.296520 1.803101 43.830566 113 112 129
-3.294483 1.896412 43.803486 115 111 129
-3.292352 1.989550 43.775150 116 112 128
-3.290135 2.082511 43.745674 117 112 126
-3.287846 2.175298 43.715233 117 111 124
-3.285497 2.267912 43.684006 118 110 123
-3.283107 2.360361 43.652225 119 110 121
-3.280692 2.452656 43.620125 119 110 120
-3.278273 2.544808 43.587955 118 110 120
-3.275867 2.636832 43.555969 123 116 125
-3.273495 2.728747 43.524433 138 132 142
-3.271176 2.820572 43.493599 144 139 149
-3.268930 2.912328 43.463730 128 124 135
-3.266773 3.004038 43.435059 115 112 124
-3.264725 3.095727 43.407825 115 112 124
-3.262802 3.187421 43.382256 116 113 126
-3.261019 3.279146 43.358551 115 114 128
-3.259390 3.370928 43.336895 115 114 128
-3.257928 3.462794 43.317455 115 114 129
-3.256643 3.554769 43.300369 115 115 129
-3.255543 3.646878 43.285740 115 115 129
-3.254634 3.739142 43.273651 117 117 130
-3.253918 3.831582 43.264130 120 120 132
-3.253395 3.924215 43.257183 121 122 134
-3.253063 4.017052 43.252762 123 124 137
-3.252914 4.110102 43.250778 126 126 139
-3.252939 4.203369 43.251118 127 125 141
-3.253127 4.296853 43.253620 125 122 139
-3.253464 4.390547 43.258095 123 120 137
-3.253933 4.484444 43.264336 123 119 136
-3.254518 4.578530 43.272110 122 118 136
-3.255200 4.672790 43.281185 121 117 135
-3.255963 4.767206 43.291328 120 116 134
-3.256789 4.861761 43.302307 119 116 133
-3.257662 4.956434 43.313919 118 116 131
-3.258568 5.051208 43.325958 115 114 128
-3.259494 5.146066 43.338268 112 113 126
-3.260429 5.240993 43.350708 112 112 125
-3.261367 5.335977 43.363178 112 111 125
-3.262302 5.431010 43.375610 111 110 126
-3.263231 5.526086 43.387962 111 110 126
-3.264153 5.621203 43.400215 112 110 127
-3.265070 5.716365 43.412415 112 111 127
-3.265988 5.811580 43.424610 112 111 127
-3.266910 5.906857 43.436878 113 111 127
-3.267847 6.002214 43.449337 113 112 126
-3.268808 6.097668 43.462112 113 112 126
-3.269804 6.193244 43.475357 113 112 126
-3.270848 6.288970 43.489235 112 110 125
-3.271953 6.384874 43.503925 111 109 124
-3.273132 6.480989 43.519604 112 108 124
-3.274400 6.577349 43.536457 111 107 124
-3.275769 6.673987 43.554661 111 106 124
-3.277251 6.770940 43.574375 111 106 125
-3.278859 6.868240 43.595753 110 106 125
-3.280602 6.965919 43.618927 109 105 125
-3.282487 7.064003 43.643993 108 105 124
-3.284521 7.162520 43.671032 107 105 124
-3.286707 7.261489 43.700092 106 105 122
-3.289047 7.360928 43.731201 106 105 121
-3.291539 7.460848 43.764347 107 105 119
-3.294184 7.561259 43.799511 107 105 118
-3.296977 7.662166 43.836639 107 105 117
-3.299913 7.763571 43.875679 108 105 117
-3.302987 7.865474 43.916557 108 102 116
-3.306194 7.967872 43.959198 107 100 114
-3.309528 8.070763 44.003525 106 97 113
-3.312981 8.174140 44.049442 104 94 110
-3.316548 8.277999 44.096863 103 92 108
-3.320222 8.382331 44.145710 102 90 106
-3.323995 8.487127 44.195873 100 88 104
-3.327860 8.592380 44.247269 99 86 103
-3.331809 8.698071 44.299770 98 85 102
-3.335832 8.804184 44.353264 98 85 102
-3.339920 8.910701 44.407616 98 84 102
-3.344060 9.017593 44.462666 97 84 101
-3.348241 9.124833 44.518253 96 83 100
-3.352448 9.232385 44.574184 97 83 99
-3.356667 9.340211 44.630280 97 83 97
-3.360882 9.448269 44.686321 98 82 94
-3.365077 9.556513 44.742111 99 81 92
-3.369238 9.664897 44.797428 99 80 90
-3.373348 9.773373 44.852077 99 78 88
-3.377393 9.881894 44.905861 99 77 86
-3.381359 9.990415 44.958595 98 74 83
-3.385234 10.098889 45.010117 96 72 81
-3.389007 10.207279 45.060280 95 70 80
-3.392668 10.315547 45.108959 95 68 80
-3.396211 10.423659 45.156063 95 68 81
-3.399628 10.531587 45.201496 95 70 83
-3.402915 10.639304 45.245205 96 72 86
-3.406071 10.746793 45.287159 97 75 89
-3.409091 10.854032 45.327312 98 76 91
-3.411975 10.961008 45.365662 97 75 91
-3.414723 11.067707 45.402195 94 73 90
-3.417334 11.174116 45.436913 93 72 89
-3.419809 11.280227 45.469822 92 71 88
-3.422147 11.386024 45.500912 92 69 87
-3.424349 11.491497 45.530182 91 67 86
-3.426412 11.596627 45.557610 90 66 84
-3.428334 11.701395 45.583172 89 65 83
-3.430113 11.805779 45.606823 88 64 81
-3.431745 11.909756 45.628521 89 63 80
-3.433225 12.013296 45.648205 89 63 79
-3.434548 12.116365 45.665794 90 63 78
-3.435709 12.218935 45.681236 90 62 78
-3.436703 12.320972 45.694450 90 62 76
-3.437526 12.422445 45.705383 89 61 75
-3.438172 12.523325 45.713978 89 61 73
-3.438640 12.623589 45.720203 89 61 72
-3.438930 12.723217 45.724056 89 61 70
-3.439040 12.822195 45.725525 89 60 70
-3.438975 12.920518 45.724655 90 61 71
-3.438737 13.018184 45.721489 91 61 72
-3.438331 13.115195 45.716091 91 61 73
-3.437762 13.211558 45.708530 91 62 74
-3.437037 13.307281 45.698883 90 62 74
-3.436160 13.402373 45.687229 90 62 74
-3.435138 13.496842 45.673634 90 62 74
-3.433975 13.590696 45.658169 90 62 74
-3.432676 13.683944 45.640907 90 62 75
-3.431248 13.776596 45.621918 90 63 75
-3.429697 13.868670 45.601295 91 63 75
-3.428030 13.960183 45.579136 91 64 75
-3.426259 14.051171 45.555580 92 64 75
-3.424397 14.141684 45.530819 92 64 74
-3.422461 14.231784 45.505085 92 64 74
-3.420474 14.321559 45.478668 92 65 74
-3.418464 14.411120 45.451939 92 65 74
-3.416461 14.500599 45.425308 91 65 74
-3.414501 14.590145 45.399246 91 65 75
-3.412622 14.679930 45.374268 90 65 75
-3.410865 14.770132 45.350906 90 65 75
-3.409267 14.860928 45.329659 90 64 74
-3.407868 14.952504 45.311054 89 63 74
-3.406702 15.045028 45.295544 89 63 73
-3.405796 15.138645 45.283508 88 62 72
-3.405173 15.233475 45.275223 88 62 71
-3.404846 15.329601 45.270882 88 61 71
-3.404819 15.427065 45.270512 88 60 71
-3.405084 15.525864 45.274044 88 60 71
-3.405627 15.625948 45.281254 88 60 72
-3.406420 15.727220 45.291798 89 61 72
-3.407428 15.829538 45.305206 88 61 71
-3.408608 15.932717 45.320896 87 62 71
-3.409910 16.036535 45.338203 86 62 71
-3.411277 16.140739 45.356384 86 62 71
-3.412651 16.245052 45.374649 85 62 71
-3.413969 16.349174 45.392170 85 62 70
-3.415168 16.452803 45.408115 84 62 70
-3.416187 16.555626 45.421669 82 62 69
-3.416967 16.657343 45.432041 81 62 69
-3.417453 16.757662 45.438499 81 62 68
-3.417595 16.856312 45.440388 80 61 67
-3.417351 16.953054 45.437141 79 60 66
-3.416686 17.047684 45.428299 79 59 66
-3.415575 17.140038 45.413525 79 58 65
-3.414003 17.230000 45.392624 78 57 64
-3.411967 17.317518 45.365555 78 57 63
-3.409476 17.402597 45.332439 77 56 62
-3.406553 17.485312 45.293564 75 55 60
-3.403229 17.565796 45.249378 73 55 59
-3.338860 -3.932606 45.703465 113 120 137
-3.336267 -3.831107 45.667965 114 122 140
-3.333523 -3.729593 45.630409 114 123 141
-3.330648 -3.628097 45.591053 115 123 142
-3.327660 -3.526652 45.550159 115 122 142
-3.324578 -3.425286 45.507969 115 122 143
-3.321420 -3.324025 45.464733 116 120 143
-3.318200 -3.222891 45.420666 117 120 143
-3.314935 -3.121905 45.375977 117 119 142
-3.311639 -3.021082 45.330845 118 120 142
-3.308322 -2.920436 45.285446 118 120 142
-3.304996 -2.819978 45.239922 119 121 141
-3.301671 -2.719717 45.194408 119 121 140
-3.298356 -2.619660 45.149025 117 120 137
-3.295058 -2.519812 45.103882 116 120 136
-3.291784 -2.420177 45.059071 115 120 136
-3.288541 -2.320755 45.014675 115 121 135
-3.285333 -2.221550 44.970764 115 121 134
-3.282164 -2.122559 44.927395 115 120 133
-3.279039 -2.023781 44.884609 115 119 133
-3.275957 -1.925214 44.842426 115 119 132
-3.272921 -1.826855 44.800869 115 118 131
-3.269930 -1.728698 44.759930 115 116 131
-3.266984 -1.630740 44.719604 114 115 130
-3.264081 -1.532976 44.679863 113 114 129
-3.261219 -1.435402 44.640686 112 113 128
-3.258397 -1.338012 44.602055 111 111 127
-3.255612 -1.240804 44.563938 111 111 127
-3.252866 -1.143774 44.526340 110 111 126
-3.250156 -1.046917 44.489258 109 111 126
-3.247486 -0.950232 44.452705 108 110 125
-3.244858 -0.853716 44.416737 107 110 125
-3.242277 -0.757365 44.381405 107 109 126
-3.239748 -0.661178 44.346790 106 110 126
-3.237279 -0.565150 44.312984 105 111 125
-3.234876 -0.469277 44.280090 105 111 127
-3.232547 -0.373555 44.248219 106 111 127
-3.230301 -0.277978 44.217472 106 111 127
-3.228144 -0.182538 44.187950 107 111 127
-3.226084 -0.087228 44.159740 108 111 127
-3.224123 0.007961 44.132904 109 111 127
-3.222265 0.103037 44.107464 110 111 127
-3.220509 0.198010 44.083431 110 111 127
-3.218853 0.292888 44.060768 110 110 127
-3.217291 0.387680 44.039391 111 109 128
-3.215816 0.482393 44.019196 111 108 128
-3.214415 0.577032 44.000019 109 106 126
-3.213075 0.671601 43.981682 107 104 124
-3.211780 0.766102 43.963947 105 103 121
-3.210512 0.860534 43.946587 102 101 119
-3.209251 0.954893 43.929333 100 101 117
-3.207979 1.049173 43.911915 99 101 117
-3.206675 1.143368 43.894070 99 102 117
-3.205321 1.237466 43.875542 101 103 118
-3.203901 1.331456 43.856098 102 105 120
-3.202399 1.425327 43.835537 104 106 123
-3.200804 1.519065 43.813709 107 108 126
-3.199108 1.612657 43.790485 109 109 127
-3.197305 1.706093 43.765812 110 110 129
-3.195395 1.799362 43.739674 112 110 129
-3.193382 1.892457 43.712112 112 110 129
-3.191271 1.985372 43.683212 114 111 127
-3.189072 2.078105 43.653107 115 111 126
-3.186798 2.170657 43.621983 116 111 125
-3.184464 2.263033 43.590034 118 112 125
-3.182087 2.355239 43.557499 120 113 124
-3.179686 2.447287 43.524632 120 113 124
-3.177279 2.539188 43.491695 121 115 126
-3.174888 2.630960 43.458958 123 118 129
-3.172531 2.722620 43.426693 129 124 135
-3.170228 2.814188 43.395168 130 126 137
-3.167998 2.905689 43.364643 123 120 130
-3.165859 2.997144 43.335373 117 114 125
-3.163830 3.088579 43.307594 116 114 125
-3.161926 3.180021 43.281528 116 115 126
-3.160162 3.271495 43.257389 116 115 127
-3.158553 3.363029 43.235352 117 116 129
-3.157109 3.454650 43.215588 118 118 131
-3.155840 3.546383 43.198223 118 117 131
-3.154754 3.638252 43.183365 118 117 131
-3.153857 3.730279 43.171082 119 119 132
-3.153150 3.822484 43.161400 120 121 134
-3.152632 3.914883 43.154316 121 123 136
-3.152301 4.007488 43.149776 123 124 137
-3.152148 4.100306 43.147686 126 126 140
-3.152165 4.193339 43.147915 127 126 141
-3.152339 4.286589 43.150303 125 123 139
-3.152657 4.380048 43.154655 124 121 137
-3.153103 4.473707 43.160751 123 120 136
-3.153659 4.567553 43.168362 122 119 136
-3.154308 4.661569 43.177254 121 118 135
-3.155033 4.755738 43.187183 120 117 135
-3.155818 4.850040 43.197918 119 117 134
-3.156646 4.944457 43.209248 117 118 132
-3.157503 5.038970 43.220985 115 116 130
-3.158378 5.133562 43.232960 113 115 128
-3.159260 5.228218 43.245037 111 113 127
-3.160143 5.322927 43.257126 111 112 126
-3.161021 5.417679 43.269142 110 110 126
-3.161892 5.512471 43.281063 110 110 127
-3.162755 5.607300 43.292877 110 110 128
-3.163613 5.702171 43.304615 111 110 128
-3.164469 5.797090 43.316338 111 111 128
-3.165331 5.892070 43.328136 112 111 127
-3.166206 5.987126 43.340118 112 111 126
-3.167104 6.082278 43.352417 112 111 126
-3.168037 6.177550 43.365181 111 110 125
-3.169016 6.272969 43.378586 111 109 124
-3.170055 6.368565 43.392803 110 107 123
-3.171166 6.464370 43.408009 111 106 122
-3.172363 6.560418 43.424393 111 106 122
-3.173658 6.656744 43.442127 111 105 124
-3.175064 6.753381 43.461372 111 106 125
-3.176591 6.850362 43.482273 110 106 125
-3.178249 6.947719 43.504967 109 105 125
-3.180045 7.045479 43.529545 107 105 124
-3.181983 7.143667 43.556084 106 106 123
-3.184069 7.242303 43.584633 106 106 121
-3.186302 7.341403 43.615204 106 106 120
-3.188684 7.440980 43.647804 107 106 118
-3.191212 7.541043 43.682404 107 106 117
-3.193882 7.641597 43.718960 108 106 117
-3.196691 7.742644 43.757408 108 105 117
-3.199634 7.844184 43.797691 108 102 116
-3.202705 7.946217 43.839729 107 99 115
-3.205899 8.048740 43.883453 106 97 114
-3.209211 8.151750 43.928783 106 95 111
-3.212634 8.255240 43.975632 104 93 109
-3.216162 8.359208 44.023930 103 91 107
-3.219790 8.463644 44.073586 101 89 106
-3.223510 8.568542 44.124512 100 87 105
-3.227315 8.673887 44.176605 99 86 104
-3.231198 8.779665 44.229744 98 85 103
-3.235147 8.885858 44.283806 97 85 102
-3.239153 8.992439 44.338642 96 85 101
-3.243204 9.099383 44.394089 97 85 101
-3.247285 9.206655 44.449955 97 85 100
-3.251384 9.314215 44.506062 98 85 98
-3.255484 9.422020 44.562180 98 84 96
-3.259569 9.530026 44.618107 99 82 93
-3.263625 9.638185 44.673618 100 80 91
-3.267634 9.746445 44.728497 100 79 89
-3.271583 9.854758 44.782551 100 77 87
-3.275456 9.963076 44.835567 99 75 85
-3.279241 10.071350 44.887375 98 72 84
-3.282926 10.179540 44.937820 97 70 83
-3.286501 10.287602 44.986763 97 69 83
-3.289959 10.395504 45.034092 96 69 85
-3.293293 10.503214 45.079723 97 71 87
-3.296497 10.610704 45.123585 98 73 90
-3.299569 10.717956 45.165638 98 74 92
-3.302507 10.824947 45.205853 98 75 93
-3.305310 10.931667 45.244225 97 75 92
-3.307978 11.038100 45.280743 95 74 91
-3.310512 11.144238 45.315418 94 73 90
-3.312912 11.250072 45.348270 93 73 89
-3.315179 11.355596 45.379311 92 71 87
-3.317315 11.460796 45.408543 92 70 86
-3.319318 11.565661 45.435963 90 68 84
-3.321188 11.670177 45.461559 89 67 83
-3.322923 11.774324 45.485310 88 66 82
-3.324520 11.878083 45.507179 89 65 80
-3.325977 11.981430 45.527119 89 64 79
-3.327289 12.084336 45.545078 90 63 78
-3.328451 12.186769 45.560982 90 63 77
-3.329459 12.288705 45.574783 90 62 76
-3.330309 12.390110 45.586414 89 62 74
-3.330997 12.490959 45.595833 89 62 73
-3.331520 12.591227 45.602997 90 61 71
-3.331878 12.690894 45.607895 90 61 70
-3.332071 12.789948 45.610531 90 61 70
-3.332099 12.888379 45.610920 91 61 71
-3.331966 12.986183 45.609100 92 61 72
-3.331676 13.083361 45.605125 92 61 73
-3.331232 13.179914 45.599049 91 62 74
-3.330639 13.275846 45.590935 91 62 75
-3.329902 13.371164 45.580837 90 62 75
-3.329024 13.465870 45.568821 89 63 76
-3.328009 13.559968 45.554935 89 63 76
-3.326863 13.653461 45.539238 90 63 76
-3.325588 13.746361 45.521790 90 63 77
-3.324190 13.838673 45.502663 91 64 77
-3.322678 13.930419 45.481953 91 65 77
-3.321059 14.021629 45.459801 92 65 77
-3.319347 14.112348 45.436371 92 65 76
-3.317559 14.202639 45.411892 93 65 75
-3.315717 14.292588 45.386669 93 65 75
-3.313846 14.382306 45.361057 93 65 75
-3.311976 14.471921 45.335468 93 65 75
-3.310144 14.561587 45.310383 92 65 75
-3.308385 14.651472 45.286308 92 65 75
-3.306739 14.741757 45.263783 91 65 75
-3.305243 14.832619 45.243309 91 64 74
-3.303936 14.924243 45.225414 90 64 73
-3.302851 15.016799 45.210560 88 63 72
-3.302015 15.110434 45.199120 88 62 72
-3.301451 15.205268 45.191395 87 61 71
-3.301170 15.301385 45.187553 87 61 72
-3.301178 15.398829 45.187653 88 61 72
-3.301466 15.497593 45.191605 88 61 72
-3.302021 15.597631 45.199196 88 61 73
-3.302816 15.698846 45.210083 88 61 73
-3.303818 15.801095 45.223801 88 61 72
-3.304985 15.904196 45.239765 87 61 72
-3.306267 16.007925 45.257317 86 62 72
-3.307611 16.112030 45.275707 86 62 72
-3.308958 16.216234 45.294159 85 62 72
-3.310250 16.320240 45.311836 85 62 71
-3.311424 16.423744 45.327915 84 62 71
-3.312423 16.526438 45.341587 83 62 70
-3.313189 16.628021 45.352062 82 62 70
-3.313668 16.728203 45.358624 81 61 69
-3.313813 16.826717 45.360607 81 61 68
-3.313583 16.923326 45.357464 80 60 67
-3.312945 17.017826 45.348732 80 59 66
-3.311875 17.110054 45.334084 80 58 65
-3.310358 17.199898 45.313324 79 58 64
-3.308393 17.287308 45.286415 79 57 64
-3.305987 17.372288 45.253487 78 56 63
-3.303162 17.454910 45.214817 76 56 61
-3.299950 17.535313 45.170856 75 56 60
-3.231735 -3.922164 45.582111 115 120 138
-3.229296 -3.821019 45.547714 115 122 139
-3.226710 -3.719852 45.511234 116 123 140
-3.223994 -3.618696 45.472923 116 123 141
-3.221166 -3.517584 45.433037 116 123 142
-3.218244 -3.416544 45.391834 116 122 142
-3.215246 -3.315603 45.349545 116 122 143
-3.212187 -3.214783 45.306400 116 121 143
-3.209082 -3.114104 45.262600 116 120 142
-3.205943 -3.013583 45.218330 116 120 142
-3.202783 -2.913233 45.173759 117 121 141
-3.199612 -2.813066 45.129032 117 121 140
-3.196440 -2.713090 45.084290 117 121 139
-3.193274 -2.613313 45.039642 117 121 138
-3.190124 -2.513740 44.995201 116 121 137
-3.186994 -2.414375 44.951061 116 122 137
-3.183891 -2.315219 44.907299 117 122 137
-3.180820 -2.216275 44.863983 117 122 136
-3.177785 -2.117541 44.821171 116 121 135
-3.174788 -2.019015 44.778904 116 119 134
-3.171832 -1.920697 44.737209 117 119 134
-3.168918 -1.822582 44.696102 117 118 133
-3.166045 -1.724668 44.655582 116 116 131
-3.163213 -1.626949 44.615643 115 115 130
-3.160422 -1.529422 44.576267 114 114 129
-3.157669 -1.432082 44.537441 113 113 129
-3.154953 -1.334925 44.499138 113 113 128
-3.152274 -1.237948 44.461349 112 112 127
-3.149631 -1.141147 44.424072 111 112 127
-3.147025 -1.044518 44.387321 110 111 127
-3.144459 -0.948060 44.351120 110 111 127
-3.141934 -0.851770 44.315514 110 111 128
-3.139457 -0.755644 44.280575 109 111 128
-3.137033 -0.659681 44.246384 109 112 128
-3.134669 -0.563875 44.213036 108 112 128
-3.132372 -0.468223 44.180641 107 112 128
-3.130150 -0.372720 44.149307 107 113 129
-3.128011 -0.277360 44.119137 107 113 129
-3.125963 -0.182134 44.090240 108 113 129
-3.124009 -0.087036 44.062691 109 113 128
-3.122155 0.007943 44.036545 110 113 128
-3.120403 0.102814 44.011829 110 112 127
-3.118752 0.197584 43.988541 111 111 127
-3.117199 0.292263 43.966629 111 110 128
-3.115737 0.386858 43.946014 111 109 128
-3.114358 0.481378 43.926567 110 108 128
-3.113050 0.575827 43.908123 108 106 126
-3.111799 0.670209 43.890476 107 104 124
-3.110589 0.764524 43.873398 105 103 122
-3.109400 0.858772 43.856628 102 101 119
-3.108213 0.952948 43.839893 100 101 117
-3.107009 1.047047 43.822918 99 102 117
-3.105768 1.141058 43.805412 101 104 119
-3.104472 1.234972 43.787128 103 105 121
-3.103104 1.328777 43.767826 105 107 124
-3.101648 1.422458 43.747299 106 107 126
-3.100095 1.516002 43.725384 107 107 127
-3.098435 1.609398 43.701973 109 108 128
-3.096665 1.702631 43.677010 110 109 128
-3.094784 1.795693 43.650478 111 109 128
-3.092795 1.888574 43.622433 111 109 128
-3.090707 1.981270 43.592976 112 110 126
-3.088528 2.073779 43.562244 113 111 126
-3.086273 2.166102 43.530437 115 112 126
-3.083957 2.258243 43.497772 117 113 127
-3.081598 2.350211 43.464497 119 115 128
-3.079215 2.442015 43.430885 121 117 129
-3.076827 2.533671 43.397202 123 119 131
-3.074454 2.625195 43.363731 124 121 132
-3.072116 2.716605 43.330769 123 120 132
-3.069834 2.807925 43.298576 122 119 130
-3.067626 2.899175 43.267433 120 117 128
-3.065511 2.990381 43.237595 118 115 127
-3.063504 3.081569 43.209297 118 116 127
-3.061624 3.172765 43.182774 118 116 127
-3.059884 3.263996 43.158230 118 117 128
-3.058297 3.355290 43.135849 119 118 130
-3.056875 3.446672 43.115788 121 120 133
-3.055626 3.538170 43.098175 121 120 134
-3.054558 3.629806 43.083115 120 119 134
-3.053675 3.721602 43.070660 120 120 135
-3.052979 3.813578 43.060841 122 122 137
-3.052468 3.905750 43.053635 122 124 138
-3.052139 3.998127 43.048988 123 124 138
-3.051983 4.090718 43.046795 124 125 139
-3.051992 4.183525 43.046921 125 124 139
-3.052154 4.276546 43.049202 124 123 138
-3.052454 4.369774 43.053429 124 122 137
-3.052876 4.463200 43.059383 123 121 136
-3.053403 4.556809 43.066830 122 120 136
-3.054020 4.650586 43.075523 121 119 135
-3.054708 4.744511 43.085232 120 119 134
-3.055451 4.838565 43.095711 119 119 134
-3.056235 4.932729 43.106762 117 119 132
-3.057045 5.026985 43.118187 115 118 131
-3.057869 5.121315 43.129818 113 116 129
-3.058700 5.215703 43.141529 111 114 128
-3.059528 5.310140 43.153214 109 112 126
-3.060351 5.404616 43.164818 109 110 126
-3.061165 5.499127 43.176296 109 109 127
-3.061970 5.593672 43.187653 109 109 128
-3.062769 5.688254 43.198921 110 109 128
-3.063566 5.782881 43.210167 111 110 128
-3.064368 5.877565 43.221478 112 111 127
-3.065182 5.972323 43.232967 112 110 127
-3.066019 6.067175 43.244766 111 109 126
-3.066889 6.162144 43.257038 110 109 124
-3.067804 6.257258 43.269947 110 107 123
-3.068777 6.352547 43.283665 110 106 122
-3.069820 6.448043 43.298374 110 105 122
-3.070946 6.543780 43.314266 110 105 122
-3.072168 6.639791 43.331497 110 105 124
-3.073497 6.736112 43.350239 110 105 124
-3.074943 6.832773 43.370628 109 105 124
-3.076514 6.929806 43.392799 108 105 124
-3.078219 7.027238 43.416847 107 105 124
-3.080062 7.125094 43.442841 106 106 123
-3.082047 7.223393 43.470829 105 106 120
-3.084173 7.322150 43.500828 104 106 119
-3.086443 7.421380 43.532837 104 106 116
-3.088853 7.521090 43.566822 106 106 116
-3.091400 7.621285 43.602753 107 106 116
-3.094081 7.721969 43.640564 108 106 117
-3.096891 7.823142 43.680202 108 103 117
-3.099826 7.924805 43.721596 107 100 115
-3.102880 8.026955 43.764675 107 98 114
-3.106049 8.129590 43.809364 107 96 114
-3.109327 8.232708 43.855602 105 94 111
-3.112710 8.336305 43.903313 103 92 108
-3.116191 8.440376 43.952419 101 91 107
-3.119766 8.544913 44.002838 100 89 106
-3.123427 8.649907 44.054474 99 88 105
-3.127167 8.755344 44.107224 98 87 104
-3.130977 8.861208 44.160961 97 86 103
-3.134847 8.967475 44.215546 96 86 102
-3.138765 9.074117 44.270813 97 86 101
-3.142719 9.181101 44.326584 98 86 100
-3.146694 9.288388 44.382652 98 86 99
-3.150676 9.395936 44.438812 99 85 97
-3.154648 9.503698 44.494843 100 84 96
-3.158595 9.611624 44.550507 101 83 93
-3.162501 9.719664 44.605595 101 81 91
-3.166349 9.827763 44.659874 101 78 89
-3.170126 9.935871 44.713142 100 76 87
-3.173817 10.043940 44.765205 100 73 87
-3.177412 10.151923 44.815907 99 71 87
-3.180899 10.259778 44.865089 98 70 87
-3.184269 10.367466 44.912628 98 70 88
-3.187517 10.474955 44.958435 98 72 91
-3.190636 10.582216 45.002434 98 73 93
-3.193624 10.689228 45.044582 98 74 94
-3.196480 10.795973 45.084854 97 74 93
-3.199202 10.902435 45.123241 96 74 92
-3.201790 11.008605 45.159748 95 74 91
-3.204246 11.114474 45.194393 95 74 90
-3.206572 11.220037 45.227196 94 74 89
-3.208770 11.325289 45.258198 92 73 87
-3.210841 11.430223 45.287407 91 72 85
-3.212785 11.534828 45.314835 90 70 83
-3.214604 11.639096 45.340485 89 69 83
-3.216296 11.743014 45.364353 89 67 82
-3.217861 11.846563 45.386421 88 67 81
-3.219295 11.949724 45.406647 89 65 80
-3.220595 12.052472 45.424984 89 64 79
-3.221757 12.154778 45.441383 89 64 78
-3.222778 12.256618 45.455780 89 63 76
-3.223654 12.357962 45.468132 89 63 74
-3.224381 12.458785 45.478386 89 62 72
-3.224956 12.559061 45.486500 90 62 70
-3.225379 12.658774 45.492466 90 62 70
-3.225648 12.757907 45.496265 91 62 69
-3.225766 12.856449 45.497921 92 61 70
-3.225732 12.954392 45.497448 92 61 71
-3.225551 13.051737 45.494896 92 62 72
-3.225225 13.148479 45.490295 92 62 73
-3.224758 13.244622 45.483707 91 62 74
-3.224153 13.340165 45.475166 90 63 76
-3.223412 13.435108 45.464725 90 63 77
-3.222540 13.529451 45.452419 90 64 78
-3.221538 13.623194 45.438282 90 64 78
-3.220410 13.716340 45.422375 90 64 79
-3.219161 13.808897 45.404755 91 65 79
-3.217796 13.900881 45.385513 91 65 79
-3.216325 13.992316 45.364765 92 66 79
-3.214760 14.083249 45.342682 93 66 79
-3.213116 14.173740 45.319496 94 66 78
-3.211414 14.263875 45.295490 94 66 77
-3.209679 14.353759 45.271023 94 66 76
-3.207942 14.443525 45.246513 94 66 76
-3.206234 14.533323 45.222439 94 65 75
-3.204594 14.623322 45.199299 92 65 74
-3.203058 14.713703 45.177643 91 64 73
-3.201664 14.804645 45.157982 91 64 73
-3.200449 14.896333 45.140839 91 64 72
-3.199445 14.988935 45.126671 88 63 71
-3.198679 15.082604 45.115875 88 62 71
-3.198173 15.177458 45.108738 88 62 71
-3.197939 15.273580 45.105438 88 62 72
-3.197982 15.371016 45.106037 88 62 73
-3.198295 15.469764 45.110455 88 62 74
-3.198863 15.569773 45.118469 88 61 74
-3.199663 15.670951 45.129753 88 61 74
-3.200661 15.773153 45.143829 88 61 74
-3.201817 15.876200 45.160133 87 62 74
-3.203083 15.979867 45.177990 86 62 74
-3.204408 16.083902 45.196671 86 62 73
-3.205734 16.188032 45.215389 85 62 73
-3.207006 16.291962 45.233326 85 62 72
-3.208163 16.395384 45.249645 84 62 71
-3.209150 16.497997 45.263554 83 62 71
-3.209909 16.599495 45.274265 82 62 70
-3.210390 16.699596 45.281052 82 62 69
-3.210548 16.798033 45.283279 82 61 68
-3.210342 16.894566 45.280380 82 60 67
-3.209742 16.988995 45.271904 82 60 66
-3.208722 17.081158 45.257523 81 58 65
-3.207270 17.170946 45.237049 80 57 65
-3.205384 17.258305 45.210442 80 57 64
-3.203071 17.343243 45.177822 79 56 63
-3.200353 17.425827 45.139481 78 56 62
-3.197260 17.506197 45.095852 77 56 62
-3.125158 -3.911753 45.461117 117 121 138
-3.122866 -3.810958 45.427776 118 122 139
-3.120429 -3.710133 45.392326 117 123 140
-3.117864 -3.609314 45.355022 116 123 140
-3.115190 -3.508532 45.316120 116 123 140
-3.112423 -3.407816 45.275875 116 122 142
-3.109581 -3.307193 45.234520 116 122 142
-3.106677 -3.206686 45.192280 116 121 142
-3.103727 -3.106314 45.149364 115 122 142
-3.100743 -3.006094 45.105957 116 122 142
-3.097736 -2.906040 45.062218 116 122 141
-3.094718 -2.806164 45.018311 116 122 140
-3.091696 -2.706475 44.974350 116 122 139
-3.088679 -2.606978 44.930462 116 122 138
-3.085674 -2.507682 44.886753 116 122 138
-3.082687 -2.408587 44.843307 116 122 138
-3.079724 -2.309698 44.800205 117 122 139
-3.076790 -2.211015 44.757523 118 122 138
-3.073888 -2.112539 44.715309 118 121 137
-3.071021 -2.014267 44.673595 118 120 137
-3.068191 -1.916198 44.632427 119 119 136
-3.065398 -1.818330 44.591808 119 118 135
-3.062644 -1.720657 44.551743 118 116 133
-3.059928 -1.623178 44.512234 117 116 131
-3.057249 -1.525888 44.473263 116 115 130
-3.054606 -1.428782 44.434814 115 114 129
-3.051999 -1.331858 44.396885 114 114 129
-3.049426 -1.235111 44.359455 112 113 129
-3.046888 -1.138538 44.322540 112 113 129
-3.044386 -1.042138 44.286152 111 112 129
-3.041924 -0.945906 44.250324 111 112 129
-3.039503 -0.849840 44.215115 111 112 130
-3.037130 -0.753938 44.180595 111 112 130
-3.034811 -0.658197 44.146851 110 113 130
-3.032551 -0.562612 44.113987 109 113 129
-3.030360 -0.467179 44.082119 109 114 129
-3.028245 -0.371893 44.051342 109 114 130
-3.026213 -0.276748 44.021782 109 114 130
-3.024270 -0.181735 43.993526 109 114 130
-3.022424 -0.086846 43.966660 110 114 129
-3.020676 0.007926 43.941235 112 114 129
-3.019028 0.102593 43.917263 112 113 129
-3.017480 0.197162 43.894741 112 111 128
-3.016027 0.291644 43.873611 111 110 128
-3.014664 0.386046 43.853779 111 109 128
-3.013380 0.480376 43.835106 110 108 128
-3.012164 0.574637 43.817417 109 107 127
-3.011000 0.668835 43.800488 107 105 125
-3.009872 0.762968 43.784077 105 104 123
-3.008761 0.857035 43.767918 103 103 121
-3.007648 0.951032 43.751724 102 103 119
-3.006512 1.044951 43.735195 102 103 119
-3.005333 1.138783 43.718052 103 105 120
-3.004094 1.232516 43.700024 105 107 122
-3.002777 1.326137 43.680870 107 108 125
-3.001369 1.419632 43.660381 106 107 126
-2.999857 1.512986 43.638390 106 106 126
-2.998235 1.606187 43.614796 109 108 128
-2.996499 1.699221 43.589542 110 109 129
-2.994649 1.792078 43.562626 111 109 128
-2.992688 1.884750 43.534107 111 110 127
-2.990625 1.977231 43.504097 112 111 127
-2.988471 2.069519 43.472755 113 113 127
-2.986239 2.161616 43.440289 115 114 128
-2.983946 2.253527 43.406929 117 116 130
-2.981609 2.345260 43.372940 119 117 131
-2.979248 2.436826 43.338596 120 118 132
-2.976884 2.528241 43.304199 121 120 133
-2.974535 2.619522 43.270035 122 121 133
-2.972223 2.710690 43.236404 121 119 131
-2.969967 2.801764 43.203587 120 118 130
-2.967787 2.892771 43.171864 120 118 130
-2.965699 2.983735 43.141495 120 118 130
-2.963721 3.074682 43.112724 121 119 129
-2.961869 3.165639 43.085789 121 119 129
-2.960157 3.256634 43.060883 121 120 130
-2.958597 3.347693 43.038189 122 121 132
-2.957200 3.438845 43.017868 123 122 135
