ply
format ascii 1.0
element vertex 1177
property float x
property float y
property float z
property uchar red
property uchar green
property uchar blue
end_header
-6.013978 13.765599 46.583111 73 67 72
-6.021541 13.883455 46.641697 75 67 74
-6.029206 14.001800 46.701069 75 67 75
-6.036962 14.120612 46.761143 76 66 76
-6.044798 14.239873 46.821842 76 66 76
-6.052706 14.359568 46.883099 76 65 77
-6.060679 14.479681 46.944859 76 65 76
-6.068711 14.600201 47.007069 75 64 75
-6.076797 14.721120 47.069702 75 62 73
-6.084934 14.842435 47.132732 73 61 71
-6.093120 14.964141 47.196136 73 61 70
-6.101355 15.086241 47.259922 72 61 69
-6.109637 15.208735 47.324074 71 60 68
-6.117968 15.331628 47.388607 71 61 67
-6.126349 15.454924 47.453522 71 62 67
-6.134783 15.578634 47.518848 71 63 67
-6.143272 15.702768 47.584606 71 64 67
-6.151822 15.827342 47.650829 70 64 67
-6.160440 15.952378 47.717587 70 64 67
-6.169136 16.077904 47.784943 69 63 67
-6.177924 16.203962 47.853012 68 63 66
-6.186820 16.330597 47.921917 68 62 65
-6.195847 16.457880 47.991840 69 62 66
-6.205031 16.585882 48.062973 70 62 67
-6.214405 16.714703 48.135582 70 63 67
-6.224004 16.844446 48.209938 71 63 68
-6.233871 16.975241 48.286369 72 64 68
-6.244051 17.107220 48.365223 72 64 69
-6.254595 17.240540 48.446888 73 65 71
-6.265550 17.375355 48.531742 73 66 71
-6.276967 17.511826 48.620178 73 66 72
-6.288896 17.650114 48.712578 73 67 72
-6.301383 17.790377 48.809303 73 68 72
-6.314469 17.932756 48.910664 73 69 74
-5.310856 -8.559843 41.835411 155 127 138
-5.307648 -8.464544 41.810143 156 127 138
-5.304713 -8.369783 41.787018 158 129 138
-5.302061 -8.275566 41.766129 161 131 139
-5.299702 -8.181890 41.747547 163 132 140
-5.297643 -8.088753 41.731323 165 133 141
-5.295887 -7.996144 41.717499 167 134 141
-5.294437 -7.904050 41.706074 169 135 143
-5.293291 -7.812453 41.697041 169 135 143
-5.292441 -7.721329 41.690350 169 135 143
-5.291881 -7.630651 41.685936 169 135 143
-5.291597 -7.540386 41.683701 170 135 143
-5.291576 -7.450500 41.683533 170 136 143
-5.291800 -7.360956 41.685299 170 137 143
-5.292250 -7.271715 41.688843 169 136 142
-5.292906 -7.182738 41.694012 169 136 143
-5.293747 -7.093987 41.700642 170 137 144
-5.294755 -7.005427 41.708576 172 138 146
-5.295908 -6.917025 41.717663 176 142 150
-5.297193 -6.828751 41.727776 179 146 154
-5.298591 -6.740579 41.738796 177 146 154
-5.300089 -6.652484 41.750595 174 143 151
-5.301675 -6.564448 41.763092 172 142 150
-5.303339 -6.476453 41.776196 173 142 150
-5.305070 -6.388482 41.789833 175 143 151
-5.306858 -6.300519 41.803913 178 145 153
-5.308692 -6.212552 41.818367 184 149 158
-5.310562 -6.124562 41.833096 190 154 163
-5.312454 -6.036533 41.848000 195 157 165
-5.314353 -5.948448 41.862953 197 159 166
-5.316241 -5.860287 41.877827 200 160 166
-5.318099 -5.772030 41.892471 200 161 166
-5.319908 -5.683656 41.906712 199 159 165
-5.321643 -5.595143 41.920380 199 158 165
-5.323282 -5.506473 41.933292 199 159 166
-5.324802 -5.417625 41.945267 199 160 167
-5.326179 -5.328583 41.956116 199 161 167
-5.327393 -5.239334 41.965675 198 161 168
-5.328421 -5.149863 41.973774 199 162 169
-5.329246 -5.060165 41.980274 199 164 170
-5.329852 -4.970235 41.985050 200 166 172
-5.330226 -4.880072 41.987991 200 167 174
-5.330356 -4.789677 41.989017 201 169 175
-5.330236 -4.699057 41.988071 201 170 177
-5.329860 -4.608220 41.985111 202 171 177
-5.329226 -4.517177 41.980122 202 172 177
-5.328337 -4.425943 41.973114 203 172 178
-5.327195 -4.334534 41.964115 203 173 178
-5.325806 -4.242967 41.953175 204 173 180
-5.324180 -4.151262 41.940365 205 174 181
-5.322328 -4.059441 41.925777 206 173 183
-5.320265 -3.967525 41.909531 207 174 185
-5.318009 -3.875537 41.891754 209 174 187
-5.315578 -3.783502 41.872608 209 175 189
-5.312994 -3.691443 41.852249 209 175 190
-5.310279 -3.599385 41.830868 208 176 190
-5.307461 -3.507349 41.808662 209 177 191
-5.304563 -3.415357 41.785835 211 178 192
-5.301612 -3.323431 41.762592 212 181 194
-5.298635 -3.231590 41.739143 211 180 193
-5.295658 -3.139849 41.715687 209 178 192
-5.292704 -3.048223 41.692417 210 178 192
-5.289796 -2.956722 41.669510 212 180 193
-5.286955 -2.865357 41.647137 215 183 195
-5.284200 -2.774134 41.625427 219 188 199
-5.281544 -2.683054 41.604507 224 195 205
-5.279001 -2.592120 41.584480 226 197 208
-5.276582 -2.501331 41.565418 219 192 201
-5.274292 -2.410684 41.547386 212 186 195
-5.272139 -2.320174 41.530426 212 186 195
-5.270124 -2.229796 41.514553 214 188 197
-5.268250 -2.139543 41.499786 217 192 201
-5.266516 -2.049409 41.486130 220 195 205
-5.264924 -1.959386 41.473587 221 195 206
-5.263471 -1.869467 41.462143 219 193 204
-5.262158 -1.779645 41.451801 214 188 200
-5.260985 -1.689912 41.442558 209 183 196
-5.259953 -1.600262 41.434425 206 181 194
-5.259062 -1.510687 41.427414 206 181 194
-5.258317 -1.421182 41.421543 206 181 195
-5.257721 -1.331741 41.416851 206 182 195
-5.257281 -1.242356 41.413383 206 181 194
-5.257002 -1.153021 41.411182 205 180 192
-5.256891 -1.063730 41.410313 204 180 192
-5.256958 -0.974476 41.410839 205 181 193
-5.257212 -0.885251 41.412834 205 180 193
-5.257660 -0.796047 41.416370 205 178 192
-5.258312 -0.706855 41.421505 205 177 192
-5.259175 -0.617665 41.428303 205 176 193
-5.260255 -0.528468 41.436806 204 176 193
-5.261556 -0.439253 41.447052 203 175 194
-5.263078 -0.350008 41.459045 201 174 194
-5.264820 -0.260723 41.472767 198 171 193
-5.266776 -0.171385 41.488174 196 170 193
-5.268937 -0.081984 41.505196 196 171 194
-5.271289 0.007490 41.523727 195 170 194
-5.273817 0.097048 41.543636 194 169 192
-5.276501 0.186697 41.564781 195 170 191
-5.279319 0.276444 41.586987 196 171 191
-5.282250 0.366295 41.610069 196 171 190
-5.285269 0.456253 41.633854 195 170 188
-5.288355 0.546320 41.658165 195 169 187
-5.291488 0.636498 41.682838 195 169 186
-5.294649 0.726786 41.707737 197 169 187
-5.297825 0.817184 41.732765 198 170 188
-5.301009 0.907691 41.757839 200 171 189
-5.304195 0.998306 41.782944 201 172 190
-5.307388 1.089031 41.808094 201 173 190
-5.310594 1.179868 41.833344 201 173 189
-5.313824 1.270819 41.858791 200 172 187
-5.317097 1.361891 41.884575 200 173 188
-5.320432 1.453091 41.910847 203 175 191
-5.323853 1.544428 41.937790 207 179 193
-5.327382 1.635916 41.965588 208 179 193
-5.331044 1.727566 41.994438 207 177 191
-5.334863 1.819395 42.024521 206 175 188
-5.338860 1.911416 42.056007 205 173 185
-5.343054 2.003648 42.089046 203 170 181
-5.347462 2.096105 42.123768 200 166 177
-5.352095 2.188805 42.160263 200 164 175
-5.356962 2.281761 42.198601 202 164 175
-5.362068 2.374989 42.238827 203 164 175
-5.367415 2.468500 42.280941 205 165 177
-5.372999 2.562307 42.324932 205 163 176
-5.378815 2.656417 42.370743 203 161 175
-5.384853 2.750839 42.418312 204 160 174
-5.391101 2.845577 42.467529 205 160 174
-5.397542 2.940631 42.518261 206 160 174
-5.404155 3.036001 42.570354 207 160 172
-5.410916 3.131682 42.623615 206 158 169
-5.417797 3.227663 42.677818 201 153 163
-5.424766 3.323932 42.732716 195 146 155
-5.431786 3.420470 42.788017 192 143 152
-5.438819 3.517255 42.843414 195 145 154
-5.445821 3.614258 42.898575 198 148 156
-5.452751 3.711450 42.953167 198 148 157
-5.459564 3.808795 43.006832 198 148 156
-5.466218 3.906259 43.059250 197 146 156
-5.472674 4.003803 43.110107 197 146 156
-5.478900 4.101395 43.159149 197 146 156
-5.484868 4.199000 43.206161 196 145 155
-5.490561 4.296593 43.251007 194 144 154
-5.495970 4.394153 43.293617 192 143 153
-5.501098 4.491666 43.334015 189 142 150
-5.505958 4.589130 43.372292 185 140 147
-5.510571 4.686550 43.408638 182 139 145
-5.514970 4.783940 43.443287 179 138 143
-5.519195 4.881325 43.476566 175 137 142
-5.523289 4.978736 43.508816 173 137 143
-5.527300 5.076210 43.540409 172 137 144
-5.531276 5.173789 43.571735 169 137 144
-5.535265 5.271513 43.603153 164 137 144
-5.539309 5.369427 43.635014 158 136 143
-5.543447 5.467570 43.667606 152 135 143
-5.547708 5.565978 43.701172 145 132 143
-5.552116 5.664681 43.735901 135 125 137
-5.556687 5.763701 43.771904 121 115 128
-5.561426 5.863055 43.809235 112 108 123
-5.566332 5.962748 43.847878 110 107 123
-5.571398 6.062783 43.887787 110 107 124
-5.576611 6.163151 43.928848 110 107 124
-5.581951 6.263839 43.970913 113 109 125
-5.587397 6.364829 44.013817 116 109 125
-5.592925 6.466099 44.057362 114 105 121
-5.598510 6.567624 44.101353 111 101 115
-5.604126 6.669376 44.145599 113 101 114
-5.609751 6.771328 44.189907 117 105 117
-5.615361 6.873454 44.234100 116 103 116
-5.620937 6.975728 44.278023 108 95 109
-5.626462 7.078125 44.321541 102 88 104
-5.631920 7.180627 44.364536 99 86 105
-5.637300 7.283214 44.406921 98 85 106
-5.642595 7.385870 44.448627 97 85 106
-5.647798 7.488585 44.489616 96 85 106
-5.652905 7.591349 44.529850 96 84 105
-5.657917 7.694156 44.569328 96 83 104
-5.662832 7.797000 44.608047 96 83 103
-5.667653 7.899879 44.646023 95 82 102
-5.672381 8.002791 44.683270 95 82 100
-5.677019 8.105736 44.719799 96 85 100
-5.681569 8.208711 44.755642 97 87 101
-5.686033 8.311713 44.790806 96 87 99
-5.690412 8.414742 44.825298 93 85 96
-5.694706 8.517794 44.859127 90 84 94
-5.698916 8.620864 44.892292 89 82 92
-5.703042 8.723948 44.924793 87 80 91
-5.707083 8.827041 44.956627 86 79 89
-5.711040 8.930140 44.987793 86 78 88
-5.714913 9.033239 45.018303 86 76 87
-5.718704 9.136341 45.048168 85 75 86
-5.722417 9.239444 45.077415 86 74 86
-5.726057 9.342554 45.106087 87 73 86
-5.729630 9.445678 45.134232 88 72 86
-5.733145 9.548828 45.161926 88 71 85
-5.736613 9.652017 45.189243 88 70 85
-5.740047 9.755265 45.216293 88 69 84
-5.743459 9.858593 45.243168 88 69 83
-5.746863 9.962022 45.269981 88 69 81
-5.750273 10.065578 45.296844 87 69 81
-5.753703 10.169286 45.323864 86 69 79
-5.757165 10.273168 45.351143 85 70 79
-5.760674 10.377248 45.378773 83 70 77
-5.764236 10.481547 45.406837 81 70 76
-5.767862 10.586084 45.435402 79 70 73
-5.771558 10.690874 45.464516 77 68 71
-5.775330 10.795932 45.494232 77 67 71
-5.779180 10.901264 45.524559 77 67 71
-5.783113 11.006884 45.555534 78 67 71
-5.787126 11.112794 45.587151 79 66 70
-5.791225 11.219005 45.619438 79 66 70
-5.795409 11.325521 45.652397 83 69 73
-5.799680 11.432352 45.686043 91 76 81
-5.804042 11.539508 45.720406 91 77 82
-5.808499 11.647003 45.755516 83 69 75
-5.813057 11.754853 45.791420 78 64 70
-5.817723 11.863077 45.828171 78 63 70
-5.822504 11.971699 45.865833 77 63 70
-5.827411 12.080742 45.904488 77 63 71
-5.832453 12.190234 45.944202 78 63 72
-5.837639 12.300202 45.985058 78 65 72
-5.842979 12.410673 46.027122 78 66 73
-5.848482 12.521673 46.070469 79 66 74
-5.854154 12.633225 46.115150 80 67 74
-5.860000 12.745350 46.161201 81 67 74
-5.866024 12.858062 46.208652 80 67 73
-5.872224 12.971369 46.257500 79 67 72
-5.878602 13.085280 46.307735 78 66 71
-5.885151 13.199793 46.359325 77 67 70
-5.891865 13.314901 46.412212 76 66 70
-5.898736 13.430595 46.466343 75 67 70
-5.905755 13.546861 46.521629 75 67 71
-5.912910 13.663681 46.577995 75 68 72
-5.920191 13.781034 46.635345 75 68 73
-5.927586 13.898904 46.693596 76 68 75
-5.935084 14.017268 46.752663 76 68 76
-5.942676 14.136111 46.812469 77 67 77
-5.950352 14.255413 46.872936 77 67 77
-5.958107 14.375165 46.934025 77 66 77
-5.965932 14.495352 46.995667 77 65 77
-5.973825 14.615970 47.057838 78 65 76
-5.981780 14.737009 47.120502 78 64 75
-5.989796 14.858471 47.183651 77 63 73
-5.997872 14.980353 47.247269 76 62 71
-6.006007 15.102657 47.311348 74 61 69
-6.014202 15.225390 47.375900 73 61 68
-6.022457 15.348556 47.440929 71 61 66
-6.030772 15.472157 47.506435 71 62 66
-6.039152 15.596204 47.572441 71 63 67
-6.047597 15.720710 47.638973 71 65 68
-6.056113 15.845683 47.706051 70 65 68
-6.064705 15.971148 47.773731 69 65 68
-6.073381 16.097128 47.842079 69 65 68
-6.082155 16.223663 47.911194 68 64 67
-6.091041 16.350796 47.981190 69 64 67
-6.100059 16.478590 48.052231 71 64 67
-6.109234 16.607115 48.124504 71 64 68
-6.118597 16.736465 48.198257 72 64 68
-6.128182 16.866745 48.273762 73 65 69
-6.138028 16.998075 48.351326 74 65 69
-6.148180 17.130590 48.431297 75 65 70
-6.158685 17.264441 48.514046 74 66 71
-6.169591 17.399776 48.599957 74 67 72
-6.180948 17.536766 48.689423 74 67 73
-6.192803 17.675560 48.782806 74 67 73
-6.205204 17.816324 48.880493 74 68 73
-6.218190 17.959200 48.982784 74 70 75
-5.217246 -8.644347 41.807945 155 126 138
-5.213867 -8.548684 41.780872 155 125 136
-5.210750 -8.453561 41.755894 155 125 135
-5.207906 -8.358985 41.733105 157 126 136
-5.205346 -8.264957 41.712589 160 128 137
-5.203077 -8.171476 41.694408 162 130 138
-5.201108 -8.078538 41.678627 164 132 139
-5.199440 -7.986131 41.665260 167 134 141
-5.198075 -7.894242 41.654320 169 136 143
-5.197010 -7.802851 41.645790 169 135 144
-5.196241 -7.711935 41.639626 169 135 143
-5.195757 -7.621465 41.635754 169 135 143
-5.195549 -7.531409 41.634079 169 135 143
-5.195599 -7.441733 41.634483 169 134 142
-5.195893 -7.352398 41.636837 169 134 142
-5.196411 -7.263367 41.640984 169 134 142
-5.197132 -7.174599 41.646767 169 134 142
-5.198039 -7.086059 41.654034 171 136 144
-5.199110 -6.997708 41.662613 173 138 146
-5.200327 -6.909515 41.672371 176 141 149
-5.201674 -6.821450 41.683167 179 145 153
-5.203135 -6.733486 41.694874 178 146 154
-5.204697 -6.645600 41.707390 176 143 152
-5.206347 -6.557772 41.720612 175 142 151
-5.208075 -6.469982 41.734459 176 143 152
-5.209871 -6.382217 41.748852 177 144 153
-5.211724 -6.294459 41.763702 180 145 154
-5.213624 -6.206692 41.778923 184 148 157
-5.215559 -6.118901 41.794430 189 150 161
-5.217516 -6.031068 41.810112 193 153 163
-5.219479 -5.943175 41.825844 196 156 165
-5.221431 -5.855201 41.841484 199 158 166
-5.223351 -5.767126 41.856873 200 160 167
-5.225219 -5.678926 41.871838 199 159 166
-5.227011 -5.590581 41.886200 198 158 165
-5.228704 -5.502070 41.899765 198 158 165
-5.230273 -5.413372 41.912338 198 160 166
-5.231695 -5.324471 41.923733 199 161 167
-5.232947 -5.235350 41.933769 199 162 168
-5.234009 -5.145999 41.942276 199 163 169
-5.234862 -5.056409 41.949112 200 164 170
-5.235489 -4.966576 41.954140 201 166 172
-5.235878 -4.876500 41.957256 201 168 174
-5.236019 -4.786182 41.958382 202 169 176
-5.235904 -4.695631 41.957462 202 170 177
-5.235530 -4.604856 41.954464 202 171 177
-5.234896 -4.513870 41.949387 202 171 177
-5.234004 -4.422688 41.942242 202 171 177
-5.232861 -4.331328 41.933075 203 172 177
-5.231473 -4.239810 41.921955 204 173 179
-5.229851 -4.148154 41.908962 206 174 181
-5.228010 -4.056383 41.894203 207 173 183
-5.225964 -3.964521 41.877808 207 173 185
-5.223732 -3.872592 41.859921 209 174 188
-5.221333 -3.780619 41.840698 209 176 190
-5.218790 -3.688627 41.820320 209 175 190
-5.216126 -3.596640 41.798973 209 176 190
-5.213366 -3.504680 41.776855 210 177 191
-5.210535 -3.412769 41.754173 211 178 193
-5.207659 -3.320927 41.731121 212 180 194
-5.204762 -3.229171 41.707905 212 180 194
-5.201869 -3.137519 41.684727 211 179 193
-5.199004 -3.045982 41.661766 212 179 193
-5.196187 -2.954571 41.639198 213 181 194
-5.193439 -2.863296 41.617172 215 184 195
-5.190775 -2.772161 41.595821 217 187 197
-5.188210 -2.681169 41.575272 220 190 201
-5.185756 -2.590321 41.555607 221 192 203
-5.183424 -2.499616 41.536915 217 188 198
-5.181219 -2.409051 41.519249 211 184 194
-5.179147 -2.318622 41.502647 211 185 194
-5.177212 -2.228323 41.487137 215 189 198
-5.175415 -2.138149 41.472736 219 194 203
-5.173757 -2.048091 41.459454 222 196 206
-5.172239 -1.958144 41.447285 220 193 205
-5.170861 -1.868300 41.436241 217 190 201
-5.169622 -1.778551 41.426315 213 187 199
-5.168523 -1.688890 41.417507 210 184 197
-5.167565 -1.599312 41.409836 208 182 196
-5.166750 -1.509808 41.403309 207 181 196
-5.166081 -1.420373 41.397945 206 181 195
-5.165561 -1.330999 41.393776 206 180 195
-5.165195 -1.241680 41.390846 206 180 194
-5.164990 -1.152409 41.389198 205 180 194
-5.164950 -1.063180 41.388878 205 181 193
-5.165083 -0.973984 41.389950 206 181 194
-5.165398 -0.884816 41.392471 205 179 193
-5.165901 -0.795665 41.396500 205 178 192
-5.166600 -0.706523 41.402100 206 177 194
-5.167500 -0.617382 41.409309 207 177 194
-5.168605 -0.528231 41.418171 206 176 194
-5.169920 -0.439059 41.428703 204 175 194
-5.171443 -0.349855 41.440914 201 173 194
-5.173172 -0.260610 41.454769 199 171 193
-5.175101 -0.171311 41.470222 197 170 192
-5.177219 -0.081949 41.487202 196 170 192
-5.179516 0.007487 41.505600 195 169 191
-5.181973 0.097005 41.525291 195 169 190
-5.184573 0.186613 41.546127 197 171 191
-5.187296 0.276318 41.567944 198 172 191
-5.190119 0.366123 41.590569 198 171 189
-5.193023 0.456033 41.613838 197 170 188
-5.195985 0.546050 41.637577 198 170 187
-5.198989 0.636174 41.661644 199 170 187
-5.202018 0.726406 41.685925 200 171 188
-5.205063 0.816745 41.710323 201 171 189
-5.208117 0.907190 41.734798 203 172 189
-5.211180 0.997742 41.759338 203 172 190
-5.214255 1.088403 41.783981 204 173 190
-5.217354 1.179176 41.808811 203 174 189
-5.220489 1.270064 41.833939 202 174 188
-5.223681 1.361076 41.859516 203 175 189
-5.226951 1.452219 41.885719 205 177 192
-5.230323 1.543506 41.912743 208 179 194
-5.233822 1.634949 41.940777 210 179 194
-5.237472 1.726562 41.970028 210 178 192
-5.241297 1.818362 42.000679 209 177 190
-5.245318 1.910366 42.032898 208 174 186
-5.249553 2.002591 42.066841 205 170 182
-5.254017 2.095053 42.102612 201 165 176
-5.258722 2.187769 42.140308 202 164 175
-5.263673 2.280755 42.179989 204 164 176
-5.268876 2.374025 42.221680 207 165 177
-5.274329 2.467592 42.265377 210 167 179
-5.280029 2.561466 42.311050 210 165 178
-5.285968 2.655659 42.358646 207 162 176
-5.292137 2.750175 42.408077 206 161 175
-5.298521 2.845021 42.459236 207 161 174
-5.305103 2.940197 42.511986 208 161 174
-5.311864 3.035702 42.566162 210 161 173
-5.318778 3.131531 42.621567 209 159 170
-5.325817 3.227674 42.677967 204 155 164
-5.332948 3.324119 42.735115 197 147 156
-5.340134 3.420845 42.792702 194 144 152
-5.347336 3.517830 42.850418 197 147 154
-5.354510 3.615044 42.907902 201 150 158
-5.361611 3.712456 42.964802 201 151 159
-5.368592 3.810028 43.020748 200 150 158
-5.375411 3.907723 43.075386 199 149 157
-5.382024 4.005501 43.128384 199 149 158
-5.388396 4.103323 43.179443 199 149 159
-5.394497 4.201155 43.228336 198 148 158
-5.400308 4.298967 43.274902 196 147 156
-5.405817 4.396733 43.319042 194 147 155
-5.411024 4.494440 43.360771 192 146 153
-5.415942 4.592081 43.400177 189 144 150
-5.420591 4.689659 43.437435 186 143 148
-5.425004 4.787189 43.472801 183 141 146
-5.429221 4.884696 43.506588 179 139 145
-5.433287 4.982210 43.539169 177 138 145
-5.437253 5.079771 43.570953 175 137 145
-5.441168 5.177421 43.602329 171 137 144
-5.445083 5.275206 43.633701 168 137 144
-5.449045 5.373172 43.665447 163 137 145
-5.453093 5.471361 43.697884 157 137 145
-5.457261 5.569814 43.731289 152 135 145
-5.461576 5.668561 43.765862 142 130 142
-5.466054 5.767632 43.801750 127 119 132
-5.470705 5.867041 43.839020 114 110 123
-5.475529 5.966800 43.877678 109 106 121
-5.480521 6.066912 43.917675 108 104 121
-5.485667 6.167368 43.958912 109 105 122
-5.490949 6.268160 44.001247 117 112 128
-5.496347 6.369267 44.044502 123 115 131
-5.501836 6.470667 44.088486 118 109 124
-5.507391 6.572336 44.132999 113 102 116
-5.512986 6.674246 44.177837 117 104 117
-5.518598 6.776369 44.222801 121 107 120
-5.524202 6.878677 44.267715 118 105 117
-5.529780 6.981145 44.312412 110 97 111
-5.535313 7.083748 44.356747 104 91 106
-5.540785 7.186464 44.400604 100 88 106
-5.546186 7.289275 44.443882 99 86 105
-5.551506 7.392165 44.486511 98 86 105
-5.556739 7.495121 44.528442 98 86 104
-5.561881 7.598134 44.569649 98 85 103
-5.566930 7.701196 44.610111 98 84 102
-5.571887 7.804303 44.649830 98 84 101
-5.576751 7.907450 44.688812 98 83 101
-5.581524 8.010635 44.727062 98 83 99
-5.586209 8.113856 44.764603 98 84 99
-5.590806 8.217111 44.801445 97 84 99
-5.595317 8.320395 44.837589 96 84 98
-5.599743 8.423707 44.873055 93 84 96
-5.604082 8.527040 44.907825 91 83 95
-5.608335 8.630391 44.941906 90 82 94
-5.612501 8.733754 44.975292 88 80 93
-5.616579 8.837121 45.007965 87 79 92
-5.620567 8.940488 45.039928 86 78 90
-5.624469 9.043852 45.071194 85 78 89
-5.628284 9.147210 45.101761 86 77 88
-5.632015 9.250564 45.131664 87 76 87
-5.635668 9.353915 45.160938 88 75 87
-5.639250 9.457274 45.189644 89 74 86
-5.642770 9.560653 45.217850 89 72 86
-5.646238 9.664062 45.245636 89 71 85
-5.649666 9.767523 45.273109 89 70 84
-5.653068 9.871058 45.300369 88 70 83
-5.656458 9.974687 45.327534 88 70 82
-5.659850 10.078438 45.354713 87 71 81
-5.663257 10.182333 45.382015 86 71 80
-5.666693 10.286398 45.409550 85 71 79
-5.670169 10.390656 45.437408 84 71 78
-5.673697 10.495130 45.465675 82 71 76
-5.677283 10.599834 45.494419 80 70 74
-5.680936 10.704788 45.523689 78 68 72
-5.684660 10.810004 45.553532 77 67 71
-5.688458 10.915490 45.583969 77 66 71
-5.692334 11.021257 45.615025 79 67 72
-5.696288 11.127312 45.646709 79 66 71
-5.700321 11.233660 45.679031 79 65 70
-5.704435 11.340305 45.711994 85 70 76
-5.708632 11.447261 45.745625 96 80 87
-5.712914 11.554535 45.779942 96 81 88
-5.717286 11.662139 45.814976 84 70 76
-5.721754 11.770090 45.850777 78 63 70
-5.726323 11.878408 45.887394 78 64 71
-5.731003 11.987115 45.924900 78 64 71
-5.735803 12.096236 45.963360 78 64 72
-5.740732 12.205798 46.002861 78 65 73
-5.745800 12.315826 46.043468 79 66 73
-5.751016 12.426351 46.085266 79 67 74
-5.756388 12.537395 46.128311 80 68 75
-5.761923 12.648983 46.172668 81 68 75
-5.767626 12.761134 46.218369 81 69 75
-5.773501 12.873866 46.265450 80 68 74
-5.779549 12.987188 46.313911 80 68 73
-5.785767 13.101107 46.363743 78 68 72
-5.792152 13.215620 46.414909 77 67 71
-5.798699 13.330726 46.467373 76 66 70
-5.805400 13.446414 46.521069 76 67 71
-5.812246 13.562672 46.575928 76 67 72
-5.819226 13.679483 46.631866 76 68 73
-5.826332 13.796832 46.688805 76 68 75
-5.833553 13.914702 46.746674 77 68 76
-5.840880 14.033074 46.805382 77 68 76
-5.848303 14.151934 46.864868 77 68 77
-5.855816 14.271269 46.925072 78 68 77
-5.863412 14.391068 46.985947 79 67 77
-5.871088 14.511325 47.047451 80 66 77
-5.878837 14.632031 47.109550 80 66 76
-5.886660 14.753188 47.172237 80 65 75
-5.894553 14.874795 47.235493 80 64 74
-5.902517 14.996853 47.299309 79 63 72
-5.910552 15.119368 47.363693 77 63 71
-5.918657 15.242341 47.428642 75 62 68
-5.926834 15.365781 47.494171 72 62 66
-5.935083 15.489691 47.560272 71 63 66
-5.943407 15.614082 47.626976 70 64 67
-5.951807 15.738963 47.694286 70 65 68
-5.960285 15.864343 47.762230 69 65 68
-5.968848 15.990242 47.830849 68 65 68
-5.977502 16.116682 47.900196 68 65 68
-5.986259 16.243698 47.970364 69 65 69
-5.995130 16.371332 48.041451 70 66 69
-6.004136 16.499641 48.113621 72 66 69
-6.013298 16.628695 48.187038 73 65 69
-6.022645 16.758579 48.261944 74 65 69
-6.032209 16.889395 48.338589 75 65 70
-6.042030 17.021263 48.417282 76 65 71
-6.052147 17.154312 48.498360 76 66 72
-6.062608 17.288687 48.582180 76 66 72
-6.073458 17.424543 48.669132 75 67 73
-6.084747 17.562040 48.759594 75 67 73
-6.096521 17.701336 48.853943 75 68 74
-6.108826 17.842588 48.952549 75 68 75
-6.121701 17.985941 49.055721 75 70 76
-5.127531 -8.825298 41.811279 155 127 138
-5.123753 -8.728732 41.780476 156 127 139
-5.120211 -8.632695 41.751591 156 126 138
-5.116919 -8.537201 41.724751 156 125 136
-5.113889 -8.442254 41.700043 156 124 135
-5.111133 -8.347861 41.677567 157 125 135
-5.108659 -8.254022 41.657398 159 127 136
-5.106477 -8.160735 41.639603 162 129 137
-5.104592 -8.067995 41.624229 164 131 138
-5.103007 -7.975790 41.611305 167 134 141
-5.101722 -7.884104 41.600830 169 136 144
-5.100736 -7.792920 41.592785 169 135 144
-5.100041 -7.702211 41.587124 169 135 143
-5.099631 -7.611950 41.583775 169 134 142
-5.099492 -7.522105 41.582645 169 134 142
-5.099611 -7.432640 41.583611 169 134 142
-5.099970 -7.343517 41.586540 169 134 142
-5.100552 -7.254698 41.591286 170 134 143
-5.101337 -7.166144 41.597687 170 134 143
-5.102305 -7.077816 41.605583 173 136 145
-5.103437 -6.989680 41.614815 175 138 147
-5.104716 -6.901701 41.625244 177 140 149
-5.106124 -6.813850 41.636726 178 142 151
-5.107647 -6.726101 41.649147 178 143 152
-5.109272 -6.638430 41.662388 178 144 152
-5.110984 -6.550815 41.676357 179 144 153
-5.112776 -6.463240 41.690964 179 144 153
-5.114636 -6.375687 41.706131 180 144 154
-5.116553 -6.288139 41.721767 182 146 155
-5.118518 -6.200582 41.737793 184 147 157
-5.120519 -6.112997 41.754105 187 148 159
-5.122540 -6.025367 41.770588 191 151 162
-5.124567 -5.937672 41.787113 196 154 165
-5.126582 -5.849892 41.803539 198 157 166
-5.128563 -5.762003 41.819698 199 159 167
-5.130489 -5.673985 41.835407 200 160 168
-5.132337 -5.585812 41.850468 199 160 167
-5.134080 -5.497464 41.864689 198 159 166
-5.135696 -5.408920 41.877865 199 161 167
-5.137160 -5.320161 41.889805 199 162 168
-5.138449 -5.231173 41.900307 200 162 168
-5.139540 -5.141942 41.909210 200 164 169
-5.140416 -5.052460 41.916348 200 165 170
-5.141060 -4.962725 41.921600 201 166 172
-5.141460 -4.872735 41.924862 202 168 174
-5.141604 -4.782493 41.926041 202 169 176
-5.141490 -4.692010 41.925102 203 170 177
-5.141111 -4.601295 41.922016 203 170 177
-5.140470 -4.510363 41.916790 203 171 177
-5.139570 -4.419230 41.909454 203 171 177
-5.138419 -4.327918 41.900066 202 171 177
-5.137025 -4.236446 41.888702 204 172 179
-5.135403 -4.144839 41.875473 207 174 182
-5.133566 -4.053119 41.860493 207 174 184
-5.131531 -3.961311 41.843899 207 173 185
-5.129318 -3.869441 41.825855 208 174 187
-5.126948 -3.777532 41.806530 209 176 190
-5.124444 -3.685610 41.786106 209 175 190
-5.121828 -3.593698 41.764778 208 175 190
-5.119125 -3.501818 41.742741 209 176 191
-5.116362 -3.409993 41.720203 210 177 192
-5.113561 -3.318240 41.697361 211 178 193
-5.110746 -3.226578 41.674416 212 179 194
-5.107942 -3.135021 41.651550 211 179 193
-5.105170 -3.043582 41.628948 211 179 193
-5.102450 -2.952270 41.606762 212 180 193
-5.099799 -2.861093 41.585148 212 181 193
-5.097234 -2.770055 41.564232 213 183 194
-5.094768 -2.679160 41.544121 215 185 195
-5.092411 -2.588407 41.524906 215 186 196
-5.090174 -2.497795 41.506660 213 184 194
-5.088062 -2.407322 41.489441 211 184 193
-5.086081 -2.316982 41.473286 212 185 194
-5.084234 -2.226770 41.458221 215 188 198
-5.082523 -2.136681 41.444275 219 191 202
-5.080950 -2.046708 41.431446 219 192 203
-5.079515 -1.956843 41.419746 217 188 200
-5.078219 -1.867079 41.409180 214 186 198
-5.077063 -1.777410 41.399750 212 184 197
-5.076046 -1.687828 41.391460 210 183 197
-5.075171 -1.598327 41.384327 209 182 197
-5.074439 -1.508898 41.378353 209 181 197
-5.073853 -1.419536 41.373573 208 181 197
-5.073414 -1.330234 41.369999 207 181 197
-5.073130 -1.240985 41.367680 207 180 196
-5.073002 -1.151781 41.366642 205 179 194
-5.073038 -1.062616 41.366932 204 178 193
-5.073243 -0.973482 41.368603 204 178 193
-5.073624 -0.884372 41.371708 205 178 192
-5.074185 -0.795276 41.376289 206 177 193
-5.074934 -0.706187 41.382389 208 178 195
-5.075874 -0.617095 41.390057 208 178 196
-5.077009 -0.527990 41.399311 206 176 194
-5.078341 -0.438862 41.410172 203 174 193
-5.079868 -0.349701 41.422626 200 172 192
-5.081587 -0.260496 41.436642 199 171 191
-5.083491 -0.171237 41.452171 198 170 191
-5.085572 -0.081913 41.469135 197 170 190
-5.087814 0.007484 41.487423 195 168 188
-5.090205 0.096962 41.506916 195 169 188
-5.092725 0.186529 41.527466 198 171 190
-5.095356 0.276191 41.548923 200 172 190
-5.098078 0.365952 41.571114 199 171 188
-5.100871 0.455815 41.593884 200 170 187
-5.103716 0.545782 41.617088 200 170 187
-5.106597 0.635853 41.640583 201 171 187
-5.109502 0.726029 41.664268 202 171 188
-5.112422 0.816309 41.688084 203 171 188
-5.115355 0.906694 41.711990 204 172 188
-5.118299 0.997185 41.736004 205 173 189
-5.121265 1.087784 41.760185 205 174 190
-5.124263 1.178494 41.784634 205 174 190
-5.127310 1.269322 41.809479 204 175 189
-5.130427 1.360275 41.834896 205 176 191
-5.133636 1.451365 41.861069 207 177 192
-5.136964 1.542602 41.888206 208 177 192
-5.140436 1.634003 41.916512 210 178 193
-5.144076 1.725582 41.946194 211 179 193
-5.147908 1.817356 41.977440 211 178 190
-5.151953 1.909345 42.010426 209 174 187
-5.156228 2.001565 42.045284 207 170 181
-5.160746 2.094033 42.082130 205 166 178
-5.165518 2.186768 42.121040 206 165 177
-5.170549 2.279785 42.162060 208 166 177
-5.175841 2.373099 42.205212 209 166 177
-5.181392 2.466722 42.250477 212 167 179
-5.187196 2.560665 42.297806 213 167 179
-5.193247 2.654938 42.347145 211 164 177
-5.199532 2.749548 42.398396 209 161 175
-5.206037 2.844498 42.451439 209 162 175
-5.212745 2.939792 42.506138 210 162 174
-5.219634 3.035428 42.562317 212 162 173
-5.226681 3.131400 42.619778 212 161 171
-5.233856 3.227699 42.678288 208 157 166
-5.241127 3.324310 42.737572 201 150 158
-5.248457 3.421216 42.797344 198 145 154
-5.255805 3.518392 42.857265 201 149 156
-5.263127 3.615808 42.916965 204 152 161
-5.270376 3.713430 42.976082 205 153 162
-5.277505 3.811220 43.034210 204 153 162
-5.284468 3.909138 43.090984 202 153 161
-5.291219 4.007141 43.146042 201 153 160
-5.297722 4.105188 43.199062 200 153 160
-5.303943 4.203241 43.249794 200 152 160
-5.309860 4.301266 43.298046 199 152 159
-5.315460 4.399236 43.343704 197 151 157
-5.320741 4.497134 43.386768 195 150 156
-5.325714 4.594952 43.427315 193 148 154
-5.330398 4.692691 43.465515 190 146 151
-5.334827 4.790365 43.501633 186 144 149
-5.339040 4.887996 43.535984 183 142 148
-5.343085 4.985620 43.568966 182 140 148
-5.347013 5.083273 43.600994 179 139 147
-5.350875 5.181003 43.632492 175 138 145
-5.354726 5.278856 43.663891 172 138 145
-5.358613 5.376881 43.695591 167 138 146
-5.362581 5.475125 43.727943 162 137 146
-5.366665 5.573629 43.761250 156 136 146
-5.370894 5.672431 43.795734 149 134 145
-5.375289 5.771558 43.831570 135 125 135
-5.379859 5.871031 43.868832 120 113 125
-5.384607 5.970862 43.907547 111 105 120
-5.389529 6.071056 43.947681 106 101 117
-5.394613 6.171609 43.989140 108 103 120
-5.399840 6.272508 44.031769 119 113 129
-5.405192 6.373736 44.075409 126 118 133
-5.410643 6.475271 44.119854 120 110 125
-5.416168 6.577088 44.164909 116 105 119
-5.421742 6.679159 44.210358 119 106 119
-5.427339 6.781456 44.256001 120 107 119
-5.432937 6.883950 44.301647 115 102 115
-5.438514 6.986614 44.347126 110 98 111
-5.444053 7.089424 44.392288 106 94 108
-5.449537 7.192357 44.437008 102 90 106
-5.454955 7.295393 44.481186 100 88 104
-5.460297 7.398518 44.524742 99 87 103
-5.465556 7.501717 44.567631 99 87 102
-5.470729 7.604980 44.609810 99 86 101
-5.475812 7.708301 44.651264 99 86 100
-5.480807 7.811672 44.691990 99 85 100
-5.485712 7.915090 44.731987 99 85 99
-5.490529 8.018552 44.771263 99 84 99
-5.495258 8.122054 44.809830 99 84 98
-5.499902 8.225594 44.847694 98 83 98
-5.504459 8.329166 44.884861 96 83 97
-5.508932 8.432770 44.921329 94 82 97
-5.513318 8.536395 44.957092 93 82 97
-5.517616 8.640038 44.992138 91 81 97
-5.521824 8.743690 45.026455 90 80 96
-5.525943 8.847346 45.060040 88 80 94
-5.529970 8.950998 45.092876 87 79 93
-5.533905 9.054642 45.124966 87 80 92
-5.537751 9.158277 45.156326 89 80 91
-5.541509 9.261899 45.186970 89 79 90
-5.545185 9.365516 45.216942 89 77 88
-5.548785 9.469131 45.246300 90 75 87
-5.552318 9.572759 45.275112 90 74 86
-5.555794 9.676411 45.303455 89 73 85
-5.559227 9.780109 45.331448 89 72 84
-5.562628 9.883872 45.359180 88 72 83
-5.566012 9.987723 45.386776 87 72 82
-5.569393 10.091688 45.414345 86 72 81
-5.572785 10.195791 45.442001 85 72 80
-5.576200 10.300058 45.469852 84 72 79
-5.579652 10.404511 45.497997 83 72 78
-5.583149 10.509173 45.526516 82 71 76
-5.586701 10.614061 45.555477 80 70 75
-5.590313 10.719191 45.584934 78 68 73
-5.593993 10.824576 45.614941 77 66 72
-5.597741 10.930225 45.645500 77 66 72
-5.601561 11.036148 45.676655 79 67 74
-5.605455 11.142352 45.708408 80 66 74
-5.609423 11.248841 45.740765 80 66 74
-5.613467 11.355623 45.773739 86 70 79
-5.617589 11.462706 45.807343 94 78 87
-5.621790 11.570099 45.841606 94 78 87
-5.626077 11.677814 45.876556 85 70 78
-5.630453 11.785869 45.912243 80 65 73
-5.634926 11.894281 45.948715 80 66 73
-5.639503 12.003075 45.986042 79 66 73
-5.644195 12.112272 46.024296 79 66 73
-5.649009 12.221902 46.063557 78 67 73
-5.653956 12.331990 46.103897 79 68 74
-5.659045 12.442563 46.145393 79 68 75
-5.664284 12.553648 46.188114 79 69 76
-5.669680 12.665267 46.232109 80 70 76
-5.675238 12.777441 46.277431 80 70 76
-5.680961 12.890186 46.324100 79 69 76
-5.686851 13.003513 46.372128 79 69 75
-5.692906 13.117428 46.421501 78 69 74
-5.699123 13.231933 46.472202 78 69 74
-5.705498 13.347022 46.524181 77 68 73
-5.712023 13.462692 46.577389 77 67 73
-5.718690 13.578929 46.631756 77 68 74
-5.725492 13.695722 46.687222 77 68 75
-5.732419 13.813054 46.743698 77 68 76
-5.739460 13.930910 46.801121 77 68 76
-5.746611 14.049278 46.859428 77 68 76
-5.753861 14.168145 46.918552 78 68 77
-5.761207 14.287502 46.978451 79 68 77
-5.768643 14.407344 47.039085 80 67 77
-5.776165 14.527662 47.100418 81 66 77
-5.783770 14.648457 47.162434 82 66 76
-5.791458 14.769729 47.225124 83 65 76
-5.799227 14.891480 47.288475 84 65 75
-5.807077 15.013715 47.352489 84 66 75
-5.815010 15.136439 47.417171 81 66 74
-5.823025 15.259658 47.482529 77 64 70
-5.831123 15.383378 47.548561 73 63 67
-5.839305 15.507606 47.615280 71 63 66
-5.847571 15.632346 47.682682 70 64 67
-5.855923 15.757608 47.750790 70 65 68
-5.864363 15.883401 47.819607 68 65 69
-5.872894 16.009741 47.889175 68 65 69
-5.881522 16.136646 47.959534 68 65 69
-5.890258 16.264153 48.030766 69 65 69
-5.899111 16.392292 48.102955 71 66 69
-5.908101 16.521122 48.176258 72 66 70
-5.917244 16.650705 48.250820 74 65 70
-5.926571 16.781126 48.326874 75 65 70
-5.936111 16.912483 48.404663 76 65 70
-5.945900 17.044888 48.484486 76 65 71
-5.955976 17.178469 48.566654 77 65 72
-5.966387 17.313370 48.651543 77 66 73
-5.977176 17.449743 48.739513 77 66 73
-5.988389 17.587744 48.830956 77 67 74
-6.000074 17.727530 48.926235 77 69 76
-6.012274 17.869257 49.025715 76 70 77
-5.034308 -8.909959 41.785622 154 128 137
-5.030387 -8.813013 41.753075 155 129 138
-5.026690 -8.716597 41.722389 156 129 138
-5.023231 -8.620721 41.693676 156 127 137
-5.020022 -8.525394 41.667046 156 126 136
-5.017076 -8.430623 41.642593 156 124 135
-5.014403 -8.336412 41.620407 157 125 135
-5.012013 -8.242762 41.600567 159 126 136
-5.009912 -8.149667 41.583130 162 128 137
-5.008107 -8.057123 41.568142 164 130 138
-5.006599 -7.965118 41.555630 166 133 141
-5.005390 -7.873636 41.545597 169 135 143
-5.004477 -7.782658 41.538013 169 135 144
-5.003853 -7.692157 41.532841 169 134 143
-5.003511 -7.602106 41.529995 168 133 142
-5.003438 -7.512472 41.529388 169 133 142
-5.003620 -7.423218 41.530899 169 133 142
-5.004041 -7.334309 41.534397 169 133 142
-5.004683 -7.245705 41.539726 170 134 143
-5.005527 -7.157366 41.546734 171 135 144
-5.006554 -7.069255 41.555256 173 135 145
-5.007745 -6.981337 41.565144 175 137 146
-5.009082 -6.893576 41.576241 177 139 149
-5.010550 -6.805945 41.588417 178 141 151
-5.012132 -6.718415 41.601555 179 143 152
-5.013816 -6.630964 41.615536 180 144 152
-5.015590 -6.543570 41.630257 180 144 153
-5.017444 -6.456213 41.645641 180 144 153
-5.019366 -6.368878 41.661594 181 144 154
-5.021347 -6.281549 41.678040 182 145 156
-5.023376 -6.194206 41.694874 185 146 158
-5.025439 -6.106833 41.712006 189 148 160
-5.027524 -6.019412 41.729305 193 151 163
-5.029613 -5.931922 41.746647 196 155 167
-5.031688 -5.844341 41.763874 198 157 168
-5.033728 -5.756645 41.780804 198 158 168
-5.035711 -5.668811 41.797260 200 160 169
-5.037611 -5.580815 41.813030 200 160 168
-5.039403 -5.492635 41.827911 199 160 167
-5.041063 -5.404247 41.841690 200 161 168
-5.042565 -5.315634 41.854156 201 163 169
-5.043886 -5.226779 41.865116 201 163 168
-5.045003 -5.137670 41.874390 201 164 169
-5.045898 -5.048298 41.881817 201 165 171
-5.046555 -4.958660 41.887268 202 167 172
-5.046960 -4.868756 41.890629 203 168 174
-5.047105 -4.778591 41.891834 203 169 175
-5.046984 -4.688174 41.890831 203 169 176
-5.046597 -4.597518 41.887615 204 170 177
-5.045944 -4.506640 41.882198 204 171 177
-5.045031 -4.415557 41.874622 204 172 178
-5.043868 -4.324293 41.864967 204 172 178
-5.042465 -4.232868 41.853321 205 173 180
-5.040837 -4.141309 41.839809 207 173 183
-5.039000 -4.049640 41.824562 208 174 185
-5.036973 -3.957888 41.807743 208 174 186
-5.034778 -3.866079 41.789520 209 175 188
-5.032435 -3.774237 41.770069 209 176 189
-5.029967 -3.682389 41.749588 208 175 189
-5.027399 -3.590556 41.728271 208 175 190
-5.024755 -3.498763 41.706326 209 176 191
-5.022059 -3.407030 41.683949 209 176 192
-5.019335 -3.315374 41.661339 210 177 192
-5.016606 -3.223812 41.638691 210 177 193
-5.013894 -3.132359 41.616180 210 177 192
-5.011219 -3.041025 41.593979 210 177 192
-5.008600 -2.949820 41.572239 210 178 192
-5.006053 -2.858750 41.551098 210 179 192
-5.003593 -2.767819 41.530682 211 180 192
-5.001232 -2.677029 41.511082 211 181 192
-4.998980 -2.586380 41.492390 211 182 192
-4.996845 -2.495870 41.474667 211 182 192
-4.994834 -2.405496 41.457977 211 182 193
-4.992951 -2.315253 41.442345 212 184 194
-4.991199 -2.225137 41.427811 214 186 196
-4.989583 -2.135141 41.414394 215 187 199
-4.988102 -2.045258 41.402100 215 187 199
-4.986758 -1.955482 41.390945 214 185 198
-4.985552 -1.865806 41.380936 212 183 197
-4.984485 -1.776222 41.372078 211 182 196
-4.983557 -1.686724 41.364376 210 182 196
-4.982770 -1.597304 41.357849 210 181 197
-4.982127 -1.507956 41.352505 209 181 197
-4.981628 -1.418672 41.348366 209 181 198
-4.981277 -1.329445 41.345455 209 182 199
-4.981078 -1.240268 41.343800 209 181 198
-4.981034 -1.151135 41.343437 206 178 195
-4.981150 -1.062037 41.344398 204 176 193
-4.981431 -0.972967 41.346725 204 177 193
-4.981880 -0.883917 41.350452 206 178 194
-4.982503 -0.794879 41.355633 206 178 194
-4.983305 -0.705844 41.362286 208 178 196
-4.984288 -0.616803 41.370445 207 178 195
-4.985456 -0.527745 41.380131 204 175 194
-4.986806 -0.438663 41.391346 202 173 192
-4.988340 -0.349544 41.404076 199 171 191
-4.990052 -0.260380 41.418285 198 169 189
-4.991934 -0.171161 41.433910 198 169 190
-4.993979 -0.081877 41.450878 198 169 189
-4.996172 0.007480 41.469086 196 168 186
-4.998499 0.096919 41.488400 197 168 186
-5.000944 0.186445 41.508694 199 170 187
-5.003488 0.276064 41.529808 200 170 187
-5.006113 0.365780 41.551594 201 169 186
-5.008800 0.455596 41.573898 201 169 186
-5.011533 0.545513 41.596584 202 170 187
-5.014299 0.635531 41.619541 203 170 187
-5.017086 0.725652 41.642670 204 171 186
-5.019889 0.815875 41.665936 205 171 187
-5.022706 0.906201 41.689316 206 172 187
-5.025540 0.996632 41.712845 206 172 188
-5.028403 1.087169 41.736603 207 173 189
-5.031307 1.177819 41.760708 207 174 190
-5.034271 1.268588 41.785313 206 175 191
-5.037318 1.359485 41.810600 207 176 192
-5.040472 1.450523 41.836781 208 176 192
-5.043760 1.541714 41.864071 208 177 192
-5.047206 1.633074 41.892677 210 178 192
-5.050838 1.724620 41.922821 212 178 192
-5.054678 1.816372 41.954693 212 177 190
-5.058746 1.908346 41.988457 210 174 186
-5.063058 2.000563 42.024254 208 171 183
-5.067628 2.093041 42.062180 208 168 181
-5.072463 2.185796 42.102306 209 168 180
-5.077566 2.278845 42.144669 210 167 179
-5.082940 2.372202 42.189270 211 166 178
-5.088580 2.465881 42.236080 212 166 178
-5.094479 2.559892 42.285046 213 166 179
-5.100627 2.654244 42.336082 213 165 179
-5.107015 2.748945 42.389099 211 164 176
-5.113625 2.843997 42.443962 211 163 175
-5.120440 2.939404 42.500526 212 163 174
-5.127438 3.035164 42.558617 213 162 172
-5.134596 3.131271 42.618031 214 162 172
-5.141885 3.227717 42.678532 212 160 168
-5.149273 3.324487 42.739845 204 152 160
-5.156721 3.421562 42.801666 200 148 156
-5.164190 3.518917 42.863663 203 151 159
-5.171634 3.616523 42.925449 208 156 164
-5.179007 3.714343 42.986645 209 158 167
-5.186259 3.812339 43.046837 207 157 165
-5.193343 3.910467 43.105633 204 156 164
-5.200212 4.008684 43.162651 203 156 163
-5.206827 4.106945 43.217556 202 157 164
-5.213152 4.205210 43.270054 204 159 164
-5.219163 4.303442 43.319946 204 159 165
-5.224844 4.401611 43.367100 203 159 165
-5.230192 4.499697 43.411491 202 158 164
-5.235216 4.597689 43.453190 201 157 162
-5.239936 4.695590 43.492367 197 154 160
-5.244383 4.793409 43.529274 191 148 154
-5.248598 4.891171 43.564259 187 144 152
-5.252628 4.988909 43.597710 186 143 152
-5.256526 5.086663 43.630066 183 140 150
-5.260347 5.184480 43.661777 178 138 147
-5.264144 5.282411 43.693298 175 138 146
-5.267970 5.380506 43.725048 171 138 146
-5.271869 5.478816 43.757416 166 137 145
-5.275882 5.577383 43.790722 160 136 144
-5.280037 5.676249 43.825211 153 134 143
-5.284358 5.775443 43.861073 141 127 136
-5.288857 5.874990 43.898415 126 115 126
-5.293538 5.974904 43.937271 114 105 118
-5.298397 6.075190 43.977604 108 100 114
-5.303426 6.175847 44.019341 109 101 116
-5.308604 6.276861 44.062325 117 108 123
-5.313914 6.378217 44.106396 122 113 127
-5.319331 6.479894 44.151356 120 109 123
-5.324828 6.581865 44.196987 119 108 121
-5.330381 6.684103 44.243080 121 108 121
-5.335966 6.786578 44.289429 117 104 117
-5.341557 6.889262 44.335831 112 99 112
-5.347132 6.992126 44.382114 109 97 109
-5.352675 7.095147 44.428123 106 95 107
-5.358170 7.198300 44.473728 103 92 105
-5.363602 7.301565 44.518814 101 90 103
-5.368963 7.404927 44.563316 100 89 102
-5.374247 7.508372 44.607166 100 88 101
-5.379447 7.611889 44.650333 100 88 100
-5.384562 7.715469 44.692791 101 88 99
-5.389592 7.819108 44.734535 101 87 99
-5.394535 7.922801 44.775566 101 87 99
-5.399394 8.026545 44.815891 101 86 99
-5.404166 8.130333 44.855507 100 86 99
-5.408856 8.234165 44.894428 98 84 98
-5.413460 8.338035 44.932648 96 82 99
-5.417980 8.441936 44.970165 95 82 100
-5.422414 8.545865 45.006962 94 82 100
-5.426759 8.649811 45.043030 92 81 100
-5.431014 8.753767 45.078346 91 81 99
-5.435178 8.857725 45.112904 89 81 97
-5.439248 8.961680 45.146690 88 80 95
-5.443224 9.065623 45.179691 90 83 95
-5.447107 9.169553 45.211926 92 83 95
-5.450900 9.273466 45.243401 92 82 93
-5.454607 9.377368 45.274166 91 80 91
-5.458233 9.481263 45.304268 91 77 89
-5.461789 9.585164 45.333782 90 76 88
-5.465283 9.689083 45.362785 89 74 86
-5.468728 9.793039 45.391380 88 74 85
-5.472137 9.897055 45.419678 87 73 84
-5.475525 10.001151 45.447792 86 73 83
-5.478903 10.105352 45.475834 85 73 81
-5.482287 10.209684 45.503922 84 73 80
-5.485689 10.314172 45.532158 83 73 79
-5.489121 10.418839 45.560646 82 73 78
-5.492593 10.523705 45.589462 82 72 77
-5.496114 10.628788 45.618687 80 70 76
-5.499691 10.734107 45.648373 79 69 75
-5.503327 10.839673 45.678558 78 68 75
-5.507028 10.945496 45.709274 79 67 75
-5.510795 11.051584 45.740540 80 67 76
-5.514629 11.157943 45.772366 81 67 77
-5.518532 11.264581 45.804764 82 67 77
-5.522507 11.371503 45.837749 84 69 80
-5.526552 11.478717 45.871326 88 72 83
-5.530673 11.586232 45.905529 87 72 82
-5.534873 11.694063 45.940392 83 69 78
-5.539157 11.802223 45.975952 82 68 76
-5.543532 11.910732 46.012264 81 68 75
-5.548007 12.019612 46.049404 80 68 74
-5.552588 12.128889 46.087437 79 68 74
-5.557287 12.238585 46.126434 78 68 74
-5.562112 12.348731 46.166485 78 68 75
-5.567072 12.459352 46.207657 78 69 76
-5.572176 12.570474 46.250019 78 69 77
-5.577431 12.682120 46.293629 79 70 77
-5.582840 12.794311 46.338528 79 71 78
-5.588409 12.907063 46.384750 79 71 78
-5.594138 13.020388 46.432304 79 71 79
-5.600027 13.134292 46.481182 79 70 79
-5.606072 13.248776 46.531361 79 70 78
-5.612271 13.363842 46.582809 79 70 78
-5.618616 13.479482 46.635475 79 69 78
-5.625101 13.595687 46.689304 78 68 77
-5.631719 13.712447 46.744236 78 68 77
-5.638462 13.829748 46.800194 78 68 77
-5.645321 13.947582 46.857132 77 68 76
-5.652292 14.065937 46.914989 78 68 76
-5.659367 14.184803 46.973713 78 67 76
-5.666542 14.304174 47.033268 79 67 76
-5.673814 14.424050 47.093628 81 67 76
-5.681180 14.544427 47.154774 82 66 76
-5.688640 14.665306 47.216682 83 66 76
-5.696190 14.786690 47.279354 85 66 75
-5.703834 14.908587 47.342796 87 68 77
-5.711570 15.031001 47.407009 89 71 80
-5.719399 15.153939 47.471996 87 71 78
-5.727323 15.277409 47.537762 79 67 72
-5.735341 15.401414 47.604309 73 64 68
-5.743453 15.525963 47.671646 70 64 67
-5.751660 15.651060 47.739765 70 65 68
-5.759963 15.776711 47.808674 69 65 68
-5.768361 15.902925 47.878384 68 65 69
-5.776858 16.029713 47.948914 68 65 69
-5.785459 16.157091 48.020294 68 65 69
-5.794169 16.285089 48.092598 69 65 70
-5.803001 16.413744 48.165905 71 65 70
-5.811969 16.543098 48.240341 72 66 71
-5.821092 16.673218 48.316059 74 66 72
-5.830394 16.804180 48.393265 76 65 72
-5.839903 16.936077 48.472195 76 65 72
-5.849654 17.069021 48.553135 76 65 72
-5.859686 17.203136 48.636395 77 65 73
-5.870040 17.338562 48.722336 77 66 74
-5.880760 17.475447 48.811314 78 67 75
-5.891891 17.613945 48.903702 78 68 77
-5.903478 17.754211 48.999878 78 70 78
-5.915565 17.896406 49.100204 78 72 80
-4.941214 -8.994538 41.760105 153 130 137
-4.937159 -8.897211 41.725838 154 129 137
-4.933316 -8.800409 41.693363 155 130 138
-4.929699 -8.704145 41.662792 155 130 138
-4.926320 -8.608429 41.634232 155 128 136
-4.923191 -8.513270 41.607792 156 127 135
-4.920326 -8.418674 41.583572 156 126 135
-4.917732 -8.324644 41.561653 157 126 136
-4.915420 -8.231180 41.542114 158 126 136
-4.913397 -8.138278 41.525013 160 127 137
-4.911666 -8.045929 41.510391 162 130 138
-4.910233 -7.954124 41.498272 165 132 140
-4.909094 -7.862844 41.488651 167 134 142
-4.908249 -7.772070 41.481506 169 135 144
-4.907691 -7.681777 41.476791 169 134 143
-4.907412 -7.591935 41.474434 168 133 142
-4.907400 -7.502512 41.474331 169 133 143
-4.907641 -7.413472 41.476372 170 133 143
-4.908120 -7.324777 41.480419 170 133 143
-4.908818 -7.236389 41.486320 171 133 143
-4.909718 -7.148268 41.493919 172 134 144
-4.910800 -7.060377 41.503067 174 135 145
-4.912045 -6.972679 41.513596 175 136 146
-4.913438 -6.885140 41.525360 177 139 148
-4.914961 -6.797732 41.538235 179 141 150
-4.916600 -6.710427 41.552086 181 143 151
-4.918342 -6.623199 41.566803 182 144 152
-4.920174 -6.536029 41.582291 182 144 152
-4.922086 -6.448898 41.598454 181 144 153
-4.924068 -6.361787 41.615208 182 144 154
-4.926110 -6.274679 41.632462 183 145 156
-4.928200 -6.187557 41.650120 186 146 158
-4.930324 -6.100402 41.668072 191 149 161
-4.932468 -6.013194 41.686199 195 152 165
-4.934618 -5.925913 41.704357 198 156 168
-4.936750 -5.838535 41.722385 199 157 168
-4.938846 -5.751036 41.740093 199 157 168
-4.940881 -5.663391 41.757294 200 159 168
-4.942830 -5.575575 41.773769 200 160 168
-4.944668 -5.487565 41.789299 199 160 168
-4.946368 -5.399336 41.803665 201 162 169
-4.947904 -5.310870 41.816647 202 163 169
-4.949253 -5.222151 41.828045 202 164 168
-4.950392 -5.133165 41.837673 202 164 169
-4.951301 -5.043903 41.845360 202 166 169
-4.951966 -4.954364 41.850975 203 167 171
-4.952373 -4.864547 41.854416 204 168 173
-4.952514 -4.774459 41.855606 204 168 174
-4.952384 -4.684110 41.854511 204 168 175
-4.951983 -4.593514 41.851128 205 169 176
-4.951316 -4.502690 41.845486 205 170 176
-4.950388 -4.411658 41.837639 206 171 178
-4.949209 -4.320441 41.827682 206 172 180
-4.947795 -4.229066 41.815727 207 172 181
-4.946159 -4.137558 41.801907 208 173 183
-4.944322 -4.045943 41.786377 209 174 185
-4.942303 -3.954250 41.769310 210 176 187
-4.940123 -3.862505 41.750889 210 177 188
-4.937807 -3.770735 41.731312 209 176 188
-4.935377 -3.678965 41.710773 209 175 188
-4.932857 -3.587219 41.689480 208 175 189
-4.930273 -3.495518 41.667637 208 176 190
-4.927647 -3.403883 41.645447 209 176 190
-4.925002 -3.312330 41.623093 209 177 191
-4.922361 -3.220877 41.600780 210 177 191
-4.919744 -3.129535 41.578663 210 177 192
-4.917171 -3.038316 41.556919 210 177 191
-4.914659 -2.947226 41.535679 210 178 191
-4.912220 -2.856272 41.515072 210 178 191
-4.909871 -2.765456 41.495216 210 179 191
-4.907620 -2.674779 41.476200 210 180 191
-4.905478 -2.584242 41.458092 210 180 191
-4.903452 -2.493842 41.440971 210 181 192
