ply
format ascii 1.0
element vertex 1122
property float x
property float y
property float z
property uchar red
property uchar green
property uchar blue
end_header
-19.759449 -10.366588 65.060081 163 170 196
-19.755098 -10.224089 65.045761 162 169 195
-19.751492 -10.082030 65.033882 161 167 194
-19.748512 -9.940339 65.024071 160 165 193
-19.746054 -9.798949 65.015976 159 163 193
-19.744005 -9.657795 65.009232 158 163 193
-19.742266 -9.516819 65.003502 158 162 193
-19.740744 -9.375969 64.998489 158 161 192
-19.739349 -9.235203 64.993904 157 160 191
-19.738014 -9.094482 64.989502 157 160 190
-19.736671 -8.953778 64.985085 157 159 189
-19.735275 -8.813068 64.980484 156 158 189
-19.733780 -8.672336 64.975563 155 157 188
-19.732159 -8.531569 64.970230 153 156 186
-19.730391 -8.390763 64.964401 152 155 185
-19.728462 -8.249915 64.958054 151 154 184
-19.726368 -8.109027 64.951157 150 154 182
-19.724110 -7.968102 64.943726 150 153 181
-19.721689 -7.827144 64.935753 150 152 180
-19.719114 -7.686161 64.927277 150 150 178
-19.716402 -7.545162 64.918343 150 149 176
-19.713564 -7.404153 64.908997 151 148 175
-19.710615 -7.263145 64.899292 152 146 173
-19.707579 -7.122147 64.889290 153 146 172
-19.704475 -6.981168 64.879074 153 145 170
-19.701334 -6.840219 64.868729 153 144 169
-19.698181 -6.699312 64.858353 152 142 168
-19.695051 -6.558457 64.848045 152 141 167
-19.691982 -6.417667 64.837944 152 141 167
-19.689014 -6.276951 64.828163 151 141 167
-19.686188 -6.136323 64.818863 149 140 167
-19.683550 -5.995791 64.810173 147 139 168
-19.681143 -5.855367 64.802254 145 139 169
-19.679014 -5.715057 64.795242 145 138 170
-19.677206 -5.574868 64.789284 144 138 170
-19.675755 -5.434803 64.784508 143 138 170
-19.674698 -5.294865 64.781029 144 138 169
-19.674061 -5.155052 64.778931 145 137 169
-19.673862 -5.015360 64.778275 145 137 168
-19.674116 -4.875782 64.779114 146 138 167
-19.674820 -4.736310 64.781433 147 138 166
-19.675972 -4.596932 64.785225 148 138 166
-19.677553 -4.457635 64.790428 148 138 165
-19.679543 -4.318406 64.796982 148 138 165
-19.681910 -4.179228 64.804771 148 138 165
-19.684618 -4.040086 64.813690 147 138 166
-19.687632 -3.900967 64.823616 148 139 167
-19.690910 -3.761856 64.834412 149 140 168
-19.694412 -3.622739 64.845940 149 141 168
-19.698103 -3.483605 64.858093 148 141 168
-19.701950 -3.344446 64.870758 148 141 167
-19.705925 -3.205253 64.883842 148 141 166
-19.710007 -3.066020 64.897285 147 140 165
-19.714186 -2.926744 64.911049 147 141 165
-19.718452 -2.787421 64.925095 151 144 169
-19.722807 -2.648049 64.939438 153 146 171
-19.727259 -2.508628 64.954094 153 147 171
-19.731821 -2.369156 64.969116 154 148 171
-19.736506 -2.229634 64.984543 155 148 171
-19.741333 -2.090060 65.000427 156 149 171
-19.746315 -1.950433 65.016838 156 150 172
-19.751471 -1.810752 65.033813 156 151 174
-19.756805 -1.671012 65.051376 157 151 175
-19.762327 -1.531211 65.069557 158 151 176
-19.768026 -1.391344 65.088326 158 151 177
-19.773897 -1.251407 65.107651 158 152 177
-19.779915 -1.111395 65.127472 157 153 178
-19.786055 -0.971304 65.147682 157 155 180
-19.792284 -0.831129 65.168190 157 156 182
-19.798555 -0.690867 65.188843 158 158 183
-19.804829 -0.550516 65.209503 160 160 185
-19.811062 -0.410075 65.230019 161 162 186
-19.817204 -0.269545 65.250244 161 162 186
-19.823219 -0.128927 65.270050 161 163 186
-19.829071 0.011777 65.289322 161 163 186
-19.834734 0.152562 65.307968 162 162 185
-19.840191 0.293425 65.325935 162 162 185
-19.845438 0.434361 65.343208 162 162 184
-19.850481 0.575365 65.359810 162 161 183
-19.855341 0.716434 65.375816 161 161 182
-19.860044 0.857565 65.391304 160 160 182
-19.864637 0.998758 65.406425 160 159 181
-19.869167 1.140012 65.421341 156 155 178
-19.873695 1.281330 65.436249 152 151 174
-19.878283 1.422717 65.451347 150 148 172
-19.882994 1.564179 65.466866 147 146 170
-19.887899 1.705724 65.483017 145 143 168
-19.893066 1.847363 65.500031 143 142 167
-19.898561 1.989108 65.518120 143 141 166
-19.904448 2.130973 65.537498 143 141 166
-19.910784 2.272974 65.558372 143 139 166
-19.917627 2.415125 65.580902 143 138 166
-19.925034 2.557446 65.605286 143 138 166
-19.933052 2.699955 65.631683 143 136 165
-19.941727 2.842672 65.660255 143 136 163
-19.951111 2.985617 65.691147 142 135 161
-19.961243 3.128813 65.724503 141 134 159
-19.972170 3.272283 65.760490 140 134 158
-19.983936 3.416052 65.799232 140 135 157
-19.996586 3.560145 65.840874 138 134 155
-20.010157 3.704589 65.885567 136 133 153
-20.024691 3.849410 65.933418 134 132 151
-20.040222 3.994636 65.984558 132 132 150
-20.056782 4.140295 66.039078 132 133 149
-20.074392 4.286413 66.097061 132 136 151
-20.093063 4.433015 66.158546 133 137 152
-20.112801 4.580125 66.223526 133 138 153
-20.133585 4.727761 66.291962 134 139 155
-20.155386 4.875938 66.363747 135 140 158
-20.178158 5.024667 66.438721 136 141 160
-20.201822 5.173947 66.516647 136 142 162
-20.226297 5.323777 66.597229 136 143 163
-20.251465 5.474141 66.680099 135 143 163
-20.277195 5.625019 66.764816 135 142 163
-20.303337 5.776379 66.850891 135 142 163
-20.329725 5.928181 66.937775 134 142 163
-20.356176 6.080377 67.024864 134 142 163
-20.382502 6.232911 67.111549 133 143 164
-20.408506 6.385717 67.197166 133 144 164
-20.433996 6.538729 67.281105 133 144 163
-20.458784 6.691871 67.362717 133 144 163
-20.482689 6.845071 67.441422 133 144 163
-20.505547 6.998253 67.516685 132 144 165
-20.527212 7.151345 67.588028 135 147 167
-20.547564 7.304276 67.655029 140 149 170
-20.566504 7.456985 67.717392 144 150 171
-20.583967 7.609416 67.774895 146 151 171
-20.599909 7.761523 67.827385 148 151 171
-20.614317 7.913267 67.874825 149 152 172
-20.627211 8.064623 67.917282 149 153 172
-20.638626 8.215574 67.954865 149 154 173
-19.621876 -10.648533 65.068947 165 173 199
-19.615751 -10.504988 65.048645 165 172 198
-19.610579 -10.362031 65.031487 164 170 196
-19.606260 -10.219594 65.017166 164 169 195
-19.602686 -10.077601 65.005310 163 168 194
-19.599751 -9.935984 64.995583 162 166 193
-19.597343 -9.794673 64.987602 160 164 193
-19.595360 -9.653604 64.981018 159 163 193
-19.593699 -9.512719 64.975510 159 161 192
-19.592264 -9.371969 64.970757 158 161 192
-19.590977 -9.231306 64.966484 158 160 191
-19.589756 -9.090694 64.962440 158 159 191
-19.588547 -8.950105 64.958427 157 159 190
-19.587294 -8.809512 64.954269 157 158 189
-19.585955 -8.668900 64.949829 156 157 188
-19.584503 -8.528259 64.945015 154 156 187
-19.582914 -8.387579 64.939751 153 156 185
-19.581179 -8.246860 64.933990 152 155 184
-19.579287 -8.106100 64.927719 151 155 182
-19.577242 -7.965306 64.920937 151 154 181
-19.575045 -7.824480 64.913651 150 153 179
-19.572704 -7.683629 64.905891 151 152 177
-19.570232 -7.542761 64.897690 152 150 175
-19.567644 -7.401885 64.889114 153 149 174
-19.564955 -7.261007 64.880188 153 148 173
-19.562183 -7.120139 64.871002 153 147 171
-19.559351 -6.979288 64.861603 153 146 170
-19.556480 -6.838465 64.852089 153 145 168
-19.553602 -6.697680 64.842545 153 144 167
-19.550745 -6.556943 64.833076 154 144 167
-19.547943 -6.416265 64.823784 155 143 168
-19.545233 -6.275657 64.814796 153 141 168
-19.542654 -6.135128 64.806244 150 140 168
-19.540247 -5.994689 64.798256 148 139 168
-19.538055 -5.854349 64.790985 147 138 168
-19.536118 -5.714115 64.784561 146 138 169
-19.534475 -5.573993 64.779121 144 138 169
-19.533167 -5.433987 64.774780 144 137 168
-19.532223 -5.294098 64.771645 144 137 169
-19.531666 -5.154325 64.769806 145 137 168
-19.531523 -5.014667 64.769325 145 136 167
-19.531799 -4.875115 64.770241 146 136 166
-19.532501 -4.735662 64.772575 147 137 165
-19.533625 -4.596299 64.776299 148 138 165
-19.535158 -4.457013 64.781380 149 139 165
-19.537079 -4.317791 64.787750 149 138 165
-19.539366 -4.178619 64.795334 148 137 165
-19.541985 -4.039484 64.804016 147 137 166
-19.544905 -3.900371 64.813705 148 138 167
-19.548092 -3.761267 64.824272 148 140 168
-19.551514 -3.622162 64.835617 148 140 168
-19.555136 -3.483043 64.847626 148 141 168
-19.558933 -3.343903 64.860222 148 141 168
-19.562881 -3.204733 64.873322 148 141 167
-19.566967 -3.065528 64.886864 148 140 166
-19.571180 -2.926284 64.900833 148 141 165
-19.575512 -2.786996 64.915207 151 144 168
-19.579971 -2.647664 64.929985 153 146 168
-19.584560 -2.508285 64.945206 153 146 168
-19.589294 -2.368857 64.960907 154 146 167
-19.594187 -2.229380 64.977127 155 147 167
-19.599253 -2.089851 64.993927 156 149 169
-19.604502 -1.950268 65.011337 156 150 171
-19.609949 -1.810629 65.029404 156 151 173
-19.615597 -1.670928 65.048126 157 151 174
-19.621447 -1.531163 65.067528 157 150 175
-19.627489 -1.391328 65.087563 156 151 175
-19.633705 -1.251417 65.108177 156 151 175
-19.640074 -1.111426 65.129295 156 152 176
-19.646563 -0.971350 65.150810 156 153 178
-19.653130 -0.831185 65.172592 157 155 180
-19.659735 -0.690927 65.194496 158 157 182
-19.666328 -0.550574 65.216362 160 158 183
-19.672865 -0.410126 65.238037 160 159 184
-19.679296 -0.269583 65.259369 159 160 184
-19.685583 -0.128947 65.280212 160 160 184
-19.691689 0.011779 65.300461 160 160 185
-19.697588 0.152591 65.320023 161 161 184
-19.703262 0.293483 65.338837 161 161 184
-19.708710 0.434452 65.356903 161 160 183
-19.713936 0.575492 65.374237 160 160 182
-19.718962 0.716599 65.390900 160 160 182
-19.723818 0.857771 65.407005 159 159 181
-19.728546 0.999006 65.422684 158 157 180
-19.733194 1.140304 65.438095 156 155 177
-19.737823 1.281667 65.453445 153 152 175
-19.742491 1.423099 65.468925 151 149 173
-19.747267 1.564606 65.484764 148 146 171
-19.752218 1.706197 65.501183 146 144 169
-19.757406 1.847881 65.518387 146 144 168
-19.762897 1.989669 65.536598 145 143 167
-19.768757 2.131576 65.556030 145 142 167
-19.775042 2.273615 65.576866 144 140 166
-19.781805 2.415803 65.599297 144 139 166
-19.789104 2.558156 65.623505 144 138 166
-19.796988 2.700694 65.649651 144 136 165
-19.805508 2.843436 65.677895 143 136 163
-19.814711 2.986402 65.708420 142 135 161
-19.824644 3.129615 65.741356 141 134 159
-19.835356 3.273099 65.776878 140 135 157
-19.846895 3.416878 65.815147 140 135 156
-19.859306 3.560979 65.856308 138 134 154
-19.872641 3.705430 65.900520 136 133 153
-19.886936 3.850257 65.947929 134 133 151
-19.902239 3.995490 65.998672 133 133 150
-19.918579 4.141158 66.052856 133 134 150
-19.935984 4.287289 66.110573 133 136 151
-19.954466 4.433908 66.171867 133 137 152
-19.974031 4.581039 66.236748 134 138 154
-19.994665 4.728703 66.305176 135 139 156
-20.016338 4.876915 66.377045 135 140 158
-20.038998 5.025685 66.452187 136 142 160
-20.062572 5.175014 66.530365 136 143 162
-20.086971 5.324900 66.611275 136 144 164
-20.112080 5.475326 66.694534 136 144 164
-20.137758 5.626272 66.779694 135 144 165
-20.163858 5.777705 66.866241 136 143 165
-20.190207 5.929584 66.953613 135 143 164
-20.216619 6.081859 67.041206 134 143 164
-20.242905 6.234473 67.128372 134 144 164
-20.268864 6.387360 67.214455 134 145 164
-20.294300 6.540449 67.298805 133 145 163
-20.319023 6.693667 67.380791 133 144 163
-20.342854 6.846938 67.459816 132 144 164
-20.365623 7.000185 67.535324 132 144 164
-20.387190 7.153336 67.606842 137 147 168
-20.407427 7.306319 67.673950 142 150 172
-20.426241 7.459071 67.736343 145 150 172
-20.443562 7.611537 67.793777 146 151 172
-20.459351 7.763669 67.846138 148 151 172
-20.473597 7.915430 67.893379 149 152 172
-20.486311 8.066792 67.935539 149 152 172
-20.497538 8.217739 67.972771 148 153 173
-20.507341 8.368265 68.005280 148 155 174
-19.480301 -10.788076 65.064583 164 175 200
-19.473181 -10.643927 65.040794 164 174 199
-19.467093 -10.500437 65.020470 165 172 197
-19.461954 -10.357540 65.003304 165 170 195
-19.457670 -10.215166 64.988991 164 168 194
-19.454138 -10.073242 64.977196 164 167 193
-19.451250 -9.931699 64.967552 163 166 193
-19.448900 -9.790468 64.959702 162 164 193
-19.446985 -9.649487 64.953308 161 162 193
-19.445402 -9.508695 64.948021 160 161 192
-19.444061 -9.368043 64.943542 159 160 192
-19.442877 -9.227485 64.939583 159 159 191
-19.441778 -9.086983 64.935913 158 159 191
-19.440697 -8.946506 64.932304 158 158 190
-19.439589 -8.806031 64.928596 157 158 190
-19.438406 -8.665540 64.924652 156 157 188
-19.437120 -8.525021 64.920357 155 156 187
-19.435711 -8.384466 64.915649 154 156 186
-19.434162 -8.243873 64.910477 152 155 184
-19.432468 -8.103241 64.904816 152 155 182
-19.430628 -7.962574 64.898674 151 155 180
-19.428646 -7.821877 64.892052 150 154 178
-19.426529 -7.681154 64.884987 151 152 176
-19.424290 -7.540415 64.877502 153 152 175
-19.421940 -7.399665 64.869652 154 152 175
-19.419491 -7.258913 64.861473 154 150 173
-19.416969 -7.118169 64.853050 154 149 171
-19.414387 -6.977439 64.844429 154 148 169
-19.411770 -6.836735 64.835686 154 146 168
-19.409142 -6.696064 64.826912 154 145 167
-19.406532 -6.555438 64.818192 156 146 169
-19.403971 -6.414865 64.809639 158 146 171
-19.401493 -6.274356 64.801361 157 145 171
-19.399134 -6.133920 64.793480 154 143 170
-19.396929 -5.993566 64.786118 151 141 169
-19.394918 -5.853302 64.779404 149 139 169
-19.393145 -5.713137 64.773476 148 139 169
-19.391642 -5.573075 64.768456 146 138 168
-19.390442 -5.433120 64.764450 145 137 168
-19.389580 -5.293274 64.761566 146 137 168
-19.389078 -5.153537 64.759895 146 137 167
-19.388960 -5.013906 64.759499 146 136 165
-19.389235 -4.874375 64.760414 146 136 164
-19.389908 -4.734938 64.762665 147 136 164
-19.390980 -4.595586 64.766243 149 138 165
-19.392441 -4.456307 64.771126 149 139 165
-19.394272 -4.317090 64.777245 149 139 165
-19.396456 -4.177922 64.784531 147 137 164
-19.398966 -4.038792 64.792923 147 137 165
-19.401775 -3.899685 64.802307 147 138 167
-19.404856 -3.760590 64.812592 148 139 168
-19.408176 -3.621495 64.823685 148 140 168
-19.411716 -3.482392 64.835503 148 140 168
-19.415449 -3.343271 64.847977 148 140 168
-19.419357 -3.204126 64.861031 148 140 167
-19.423431 -3.064950 64.874634 149 140 166
-19.427660 -2.925739 64.888756 149 141 166
-19.432045 -2.786490 64.903404 151 142 166
-19.436588 -2.647199 64.918579 152 143 166
-19.441298 -2.507864 64.934311 153 144 166
-19.446188 -2.368483 64.950645 153 144 166
-19.451267 -2.229053 64.967613 154 144 166
-19.456551 -2.089572 64.985252 155 147 168
-19.462046 -1.950037 65.003609 156 150 170
-19.467760 -1.810442 65.022697 156 150 172
-19.473698 -1.670784 65.042526 156 150 173
-19.479849 -1.531058 65.063065 156 150 174
-19.486202 -1.391258 65.084290 155 150 174
-19.492739 -1.251378 65.106125 154 149 173
-19.499426 -1.111412 65.128464 155 150 174
-19.506229 -0.971356 65.151184 156 151 176
-19.513105 -0.831205 65.174149 157 153 178
-19.520010 -0.690956 65.197212 159 155 180
-19.526892 -0.550606 65.220192 160 156 181
-19.533699 -0.410157 65.242935 161 157 182
-19.540388 -0.269607 65.265274 160 158 182
-19.546915 -0.128960 65.287071 159 158 182
-19.553246 0.011781 65.308212 160 158 183
-19.559349 0.152611 65.328606 160 158 183
-19.565216 0.293525 65.348198 160 159 182
-19.570837 0.434519 65.366974 160 159 182
-19.576225 0.575586 65.384972 159 159 181
-19.581398 0.716724 65.402252 159 159 181
-19.586390 0.857927 65.418915 158 157 180
-19.591238 0.999196 65.435112 157 156 179
-19.595993 1.140529 65.450996 156 154 177
-19.600716 1.281928 65.466766 154 151 175
-19.605463 1.423397 65.482628 152 149 173
-19.610302 1.564941 65.498787 149 147 172
-19.615297 1.706569 65.515472 148 146 170
-19.620512 1.848290 65.532890 148 145 168
-19.626011 1.990114 65.551254 147 144 167
-19.631851 2.132055 65.570763 146 143 167
-19.638092 2.274126 65.591606 145 141 166
-19.644789 2.416343 65.613976 145 140 166
-19.651995 2.558723 65.638046 145 138 165
-19.659761 2.701284 65.663986 145 137 164
-19.668139 2.844044 65.691963 144 136 162
-19.677176 2.987026 65.722145 143 136 161
-19.686920 3.130250 65.754692 142 135 160
-19.697430 3.273742 65.789795 141 135 158
-19.708752 3.417526 65.827606 140 135 156
-19.720938 3.561629 65.868309 138 134 154
-19.734037 3.706079 65.912064 136 133 153
-19.748100 3.850905 65.959038 135 133 152
-19.763172 3.996138 66.009377 134 134 151
-19.779289 4.141807 66.063210 133 135 151
-19.796480 4.287941 66.120628 134 136 152
-19.814764 4.434566 66.181694 134 137 153
-19.834146 4.581709 66.246429 135 138 154
-19.854616 4.729390 66.314804 136 139 156
-19.876139 4.877624 66.386688 137 141 158
-19.898668 5.026422 66.461937 137 142 161
-19.922129 5.175787 66.540291 137 143 162
-19.946426 5.325713 66.621445 136 144 164
-19.971445 5.476186 66.705009 136 144 165
-19.997046 5.627184 66.790520 136 144 166
-20.023073 5.778674 66.877457 136 144 166
-20.049355 5.930613 66.965233 135 144 166
-20.075703 6.082951 67.053238 134 144 165
-20.101921 6.235628 67.140800 134 145 164
-20.127810 6.388578 67.227272 134 145 164
-20.153172 6.541729 67.311981 133 145 164
-20.177813 6.695007 67.394279 133 145 164
-20.201553 6.848335 67.473572 133 145 164
-20.224222 7.001633 67.549294 133 145 165
-20.245678 7.154830 67.620956 137 147 169
-20.265799 7.307852 67.688156 142 150 172
-20.284483 7.460638 67.750565 145 150 173
-20.301668 7.613130 67.807968 146 150 173
-20.317312 7.765279 67.860214 148 151 172
-20.331402 7.917050 67.907272 148 151 172
-20.343954 8.068414 67.949196 148 152 172
-20.355009 8.219353 67.986122 147 152 172
-20.364632 8.369864 68.018265 148 154 174
-20.372910 8.519949 68.045914 150 157 177
-19.339947 -10.928278 65.064255 164 175 200
-19.331778 -10.783465 65.036774 164 174 199
-19.324707 -10.639375 65.012985 164 173 197
-19.318665 -10.495946 64.992661 165 171 196
-19.313570 -10.353112 64.975517 165 169 194
-19.309330 -10.210806 64.961258 164 167 194
-19.305845 -10.068954 64.949532 164 166 193
-19.303013 -9.927487 64.940002 164 165 193
-19.300726 -9.786340 64.932312 163 164 193
-19.298882 -9.645446 64.926102 162 162 193
-19.297384 -9.504749 64.921066 161 161 192
-19.296139 -9.364196 64.916870 160 160 192
-19.295061 -9.223742 64.913254 160 159 191
-19.294083 -9.083350 64.909958 159 158 191
-19.293137 -8.942987 64.906769 159 158 191
-19.292170 -8.802629 64.903519 158 158 190
-19.291142 -8.662258 64.900063 157 157 189
-19.290024 -8.521862 64.896301 155 156 187
-19.288788 -8.381431 64.892143 154 155 186
-19.287424 -8.240961 64.887550 154 155 184
-19.285923 -8.100455 64.882507 153 155 182
-19.284285 -7.959914 64.876991 152 154 179
-19.282509 -7.819342 64.871025 150 152 176
-19.280605 -7.678743 64.864616 151 152 174
-19.278585 -7.538127 64.857819 153 152 174
-19.276459 -7.397499 64.850662 154 152 175
-19.274240 -7.256868 64.843201 154 151 173
-19.271946 -7.116241 64.835487 154 150 171
-19.269596 -6.975626 64.827576 154 149 170
-19.267210 -6.835033 64.819550 154 147 169
-19.264811 -6.694471 64.811478 155 146 168
-19.262423 -6.553947 64.803444 158 147 171
-19.260077 -6.413471 64.795547 160 149 174
-19.257801 -6.273053 64.787895 160 149 175
-19.255630 -6.132700 64.780594 159 148 174
-19.253599 -5.992423 64.773766 155 144 171
-19.251743 -5.852229 64.767517 150 141 169
-19.250101 -5.712124 64.761993 149 140 168
-19.248705 -5.572114 64.757294 148 139 168
-19.247585 -5.432204 64.753532 147 138 168
-19.246777 -5.292395 64.750809 147 138 167
-19.246302 -5.152687 64.749214 147 137 165
-19.246181 -5.013078 64.748802 147 137 164
-19.246428 -4.873564 64.749634 147 137 163
-19.247049 -4.734138 64.751724 147 137 163
-19.248045 -4.594793 64.755074 148 138 164
-19.249411 -4.455519 64.759666 149 138 164
-19.251131 -4.316305 64.765457 149 138 164
-19.253195 -4.177140 64.772400 148 137 164
-19.255577 -4.038013 64.780418 147 137 165
-19.258261 -3.898911 64.789444 147 137 167
-19.261219 -3.759824 64.799393 148 138 168
-19.264427 -3.620741 64.810188 148 139 168
-19.267870 -3.481655 64.821770 148 139 168
-19.271524 -3.342555 64.834068 148 140 168
-19.275381 -3.203435 64.847038 149 140 167
-19.279428 -3.064290 64.860657 149 140 167
-19.283663 -2.925114 64.874901 150 140 166
-19.288084 -2.785905 64.889778 151 141 166
-19.292700 -2.646657 64.905304 152 142 166
-19.297518 -2.507369 64.921509 153 142 165
-19.302544 -2.368037 64.938423 153 142 164
-19.307795 -2.228658 64.956085 153 143 165
-19.313278 -2.089228 64.974533 155 146 167
-19.318998 -1.949742 64.993782 156 149 170
-19.324963 -1.810196 65.013847 156 149 171
-19.331163 -1.670584 65.034706 155 149 172
-19.337595 -1.530900 65.056343 154 149 173
-19.344236 -1.391138 65.078682 153 149 173
-19.351063 -1.251292 65.101654 153 148 173
-19.358042 -1.111355 65.125130 154 149 173
-19.365131 -0.971323 65.148987 156 150 176
-19.372288 -0.831191 65.173058 158 151 177
-19.379461 -0.690955 65.197189 159 152 179
-19.386597 -0.550615 65.221199 161 154 180
-19.393648 -0.410169 65.244919 162 155 182
-19.400562 -0.269619 65.268181 161 156 182
-19.407299 -0.128968 65.290848 160 156 181
-19.413822 0.011781 65.312790 159 156 181
-19.420105 0.152623 65.333931 159 156 181
-19.426136 0.293552 65.354218 159 156 181
-19.431910 0.434563 65.373642 159 157 180
-19.437435 0.575650 65.392227 159 157 180
-19.442736 0.716809 65.410065 158 157 180
-19.447842 0.858037 65.427238 158 156 179
-19.452797 0.999330 65.443909 157 155 178
-19.457647 1.140689 65.460228 155 153 176
-19.462454 1.282116 65.476395 153 151 174
-19.467276 1.423614 65.492615 152 149 173
-19.472174 1.565188 65.509102 150 147 172
-19.477213 1.706845 65.526054 149 146 170
-19.482456 1.848594 65.543694 149 145 168
-19.487963 1.990447 65.562218 148 144 167
-19.493792 2.132415 65.581825 147 143 166
-19.500000 2.274511 65.602715 146 141 165
-19.506641 2.416751 65.625053 146 140 165
-19.513763 2.559151 65.649017 146 139 164
-19.521421 2.701728 65.674782 145 137 162
-19.529667 2.844501 65.702522 144 137 162
-19.538549 2.987492 65.732399 144 136 161
-19.548120 3.130722 65.764595 143 136 160
-19.558434 3.274215 65.799301 142 136 159
-19.569546 3.417997 65.836685 140 135 157
-19.581511 3.562095 65.876938 138 134 155
-19.594383 3.706538 65.920242 137 134 154
-19.608215 3.851357 65.966774 135 134 153
-19.623055 3.996582 66.016701 135 134 153
-19.638945 4.142243 66.070160 135 135 153
-19.655918 4.288371 66.127258 136 136 154
-19.673994 4.434994 66.188072 136 137 155
-19.693180 4.582137 66.252617 137 138 156
-19.713469 4.729823 66.320869 137 140 158
-19.734825 4.878067 66.392715 138 141 159
-19.757200 5.026881 66.467995 138 142 161
-19.780521 5.176266 66.546455 137 143 163
-19.804695 5.326219 66.627785 137 144 164
-19.829599 5.476725 66.711563 137 145 165
-19.855095 5.627759 66.797340 137 145 166
-19.881025 5.779289 66.884567 136 145 166
-19.907211 5.931271 66.972664 135 145 166
-19.933466 6.083655 67.060997 134 145 165
-19.959591 6.236379 67.148888 134 145 164
-19.985386 6.389376 67.235672 133 145 164
-20.010651 6.542574 67.320663 133 146 165
-20.035191 6.695896 67.403221 133 146 165
-20.058825 6.849264 67.482727 133 145 165
-20.081381 7.002600 67.558617 134 146 166
-20.102718 7.155829 67.630402 138 148 170
-20.122715 7.308880 67.697678 143 150 172
-20.141272 7.461688 67.760101 145 151 173
-20.158321 7.614196 67.817459 146 151 173
-20.173822 7.766355 67.869614 147 151 173
-20.187767 7.918128 67.916527 148 152 174
-20.200169 8.069489 67.958252 149 153 173
-20.211069 8.220416 67.994919 149 153 174
-20.220531 8.370908 68.026756 150 156 176
-20.228642 8.520967 68.054039 152 158 178
-20.235498 8.670607 68.077103 150 157 178
-19.200773 -11.069160 65.067924 164 174 200
-19.191542 -10.923640 65.036644 164 173 199
-19.183447 -10.778895 65.009209 164 173 198
-19.176439 -10.634871 64.985458 164 171 196
-19.170454 -10.491508 64.965179 165 170 195
-19.165415 -10.348744 64.948105 165 168 194
-19.161228 -10.206509 64.933914 165 167 193
-19.157803 -10.064733 64.922302 165 165 193
-19.155031 -9.923347 64.912910 165 164 193
-19.152813 -9.782284 64.905396 164 164 193
-19.151049 -9.641480 64.899414 164 162 193
-19.149639 -9.500880 64.894638 163 160 192
-19.148491 -9.360429 64.890755 161 159 192
-19.147528 -9.220081 64.887482 160 158 191
-19.146671 -9.079800 64.884583 159 158 191
-19.145857 -8.939550 64.881828 159 158 191
-19.145037 -8.799310 64.879044 158 158 190
-19.144165 -8.659059 64.876091 157 157 189
-19.143211 -8.518783 64.872856 156 156 188
-19.142149 -8.378474 64.869263 155 155 186
-19.140966 -8.238129 64.865250 154 155 185
-19.139654 -8.097746 64.860802 154 155 182
-19.138208 -7.957327 64.855904 152 153 179
-19.136633 -7.816876 64.850571 152 152 177
-19.134935 -7.676399 64.844810 152 152 175
-19.133121 -7.535901 64.838669 153 153 174
-19.131207 -7.395390 64.832176 154 153 174
-19.129200 -7.254873 64.825378 154 151 173
-19.127121 -7.114358 64.818329 154 150 171
-19.124983 -6.973852 64.811081 155 150 170
-19.122805 -6.833363 64.803703 155 149 170
-19.120611 -6.692900 64.796272 155 148 170
-19.118422 -6.552470 64.788849 158 148 172
-19.116262 -6.412084 64.781532 160 150 175
-19.114162 -6.271748 64.774422 161 150 176
-19.112154 -6.131471 64.767609 161 150 177
-19.110266 -5.991262 64.761215 157 146 173
-19.108534 -5.851129 64.755341 152 142 169
-19.106993 -5.711077 64.750122 150 141 168
-19.105671 -5.571112 64.745644 150 141 168
-19.104607 -5.431240 64.742035 149 140 167
-19.103821 -5.291461 64.739372 148 139 165
-19.103346 -5.151776 64.737762 148 138 164
-19.103197 -5.012184 64.737251 148 138 163
-19.103390 -4.872681 64.737907 148 138 163
-19.103933 -4.733263 64.739754 148 137 163
-19.104832 -4.593922 64.742798 149 137 163
-19.106081 -4.454649 64.747032 149 137 163
-19.107674 -4.315436 64.752434 149 137 164
-19.109600 -4.176273 64.758957 148 137 164
-19.111841 -4.037148 64.766556 148 136 165
-19.114384 -3.898052 64.775162 148 137 165
-19.117203 -3.758973 64.784721 148 138 166
-19.120289 -3.619903 64.795181 149 139 167
-19.123623 -3.480833 64.806473 149 139 167
-19.127188 -3.341755 64.818558 149 139 167
-19.130980 -3.202663 64.831413 149 139 167
-19.134991 -3.063550 64.845001 150 139 167
-19.139219 -2.924412 64.859329 151 140 167
-19.143671 -2.785245 64.874413 152 140 166
-19.148344 -2.646044 64.890251 152 140 165
-19.153255 -2.506805 64.906898 152 140 164
-19.158409 -2.367524 64.924362 152 141 163
-19.163816 -2.228198 64.942688 152 143 164
-19.169483 -2.088821 64.961891 154 147 167
-19.175413 -1.949388 64.981979 155 148 169
-19.181604 -1.809893 65.002968 155 149 171
-19.188053 -1.670330 65.024818 154 149 173
-19.194740 -1.530691 65.047478 153 149 173
-19.201647 -1.390971 65.070885 153 149 174
-19.208740 -1.251162 65.094925 153 148 174
-19.215984 -1.111259 65.119476 155 148 175
-19.223335 -0.971254 65.144386 157 149 176
-19.230745 -0.831145 65.169495 158 149 177
-19.238157 -0.690928 65.194611 159 149 178
-19.245522 -0.550601 65.219566 161 151 179
-19.252783 -0.410164 65.244179 162 153 180
-19.259895 -0.269619 65.268280 161 153 180
-19.266813 -0.128969 65.291718 160 153 179
-19.273502 0.011782 65.314384 159 153 178
-19.279938 0.152628 65.336197 158 153 178
-19.286106 0.293565 65.357101 157 153 178
-19.292007 0.434586 65.377098 157 154 178
-19.297649 0.575685 65.396225 157 155 178
-19.303057 0.716858 65.414543 157 155 178
-19.308260 0.858101 65.432182 157 155 178
-19.313305 0.999412 65.449280 156 153 177
-19.318239 1.140790 65.465996 155 152 175
-19.323120 1.282237 65.482536 154 150 174
-19.328005 1.423755 65.499092 152 148 172
-19.332958 1.565350 65.515877 151 147 171
-19.338039 1.707028 65.533096 150 146 169
-19.343309 1.848799 65.550949 150 145 167
-19.348827 1.990673 65.569656 149 144 165
-19.354649 2.132660 65.589378 147 143 164
-19.360826 2.274775 65.610321 146 141 163
-19.367416 2.417031 65.632645 146 140 163
-19.374464 2.559444 65.656532 146 139 163
-19.382025 2.702031 65.682152 146 138 162
-19.390146 2.844811 65.709671 146 138 161
-19.398882 2.987805 65.739281 145 137 161
-19.408285 3.131033 65.771149 144 137 161
-19.418413 3.274522 65.805466 143 136 160
-19.429323 3.418295 65.842438 142 135 159
-19.441071 3.562382 65.882248 140 135 157
-19.453718 3.706812 65.925110 138 134 156
-19.467319 3.851615 65.971199 136 134 155
-19.481928 3.996824 66.020706 136 135 155
-19.497587 4.142469 66.073776 136 135 156
-19.514334 4.288583 66.130524 137 136 157
-19.532194 4.435193 66.191048 138 137 158
-19.551172 4.582327 66.255363 139 139 159
-19.571262 4.730007 66.323448 139 140 159
-19.592436 4.878249 66.395195 139 142 160
-19.614639 5.027066 66.470444 139 143 162
-19.637800 5.176459 66.548935 139 144 163
-19.661825 5.326424 66.630348 139 145 164
-19.686590 5.476946 66.714272 138 146 165
-19.711954 5.628002 66.800224 138 146 165
-19.737757 5.779556 66.887665 137 146 165
-19.763823 5.931566 66.975998 136 145 165
-19.789959 6.083979 67.064568 135 144 164
-19.815968 6.236733 67.152710 134 145 163
-19.841646 6.389761 67.239723 133 145 164
-19.866791 6.542989 67.324936 134 146 165
-19.891211 6.696340 67.407692 135 147 166
-19.914721 6.849734 67.487358 134 146 166
-19.937153 7.003094 67.563385 135 146 167
-19.958364 7.156343 67.635262 139 148 170
-19.978228 7.309409 67.702576 143 151 172
-19.996651 7.462228 67.765007 145 152 174
-20.013565 7.614742 67.822327 146 152 174
-20.028931 7.766903 67.874397 148 152 174
-20.042736 7.918672 67.921188 149 153 175
-20.054996 8.070021 67.962730 150 154 175
-20.065754 8.220932 67.999184 151 155 176
-20.075071 8.371401 68.030762 152 156 178
-20.083031 8.521430 68.057739 152 157 178
-20.089735 8.671033 68.080452 150 156 177
-20.095297 8.820232 68.099304 148 155 176
-19.062700 -11.210713 65.075409 165 174 201
-19.052422 -11.064463 65.040314 165 173 200
-19.043289 -10.919022 65.009140 164 172 199
-19.035282 -10.774352 64.981812 164 171 197
-19.028353 -10.630402 64.958153 164 170 196
-19.022440 -10.487114 64.937965 165 169 195
-19.017466 -10.344424 64.920990 165 168 194
-19.013346 -10.202266 64.906921 165 166 193
-19.009987 -10.060570 64.895454 165 165 193
-19.007286 -9.919268 64.886230 165 164 193
-19.005146 -9.778295 64.878929 165 163 193
-19.003468 -9.637586 64.873199 164 162 193
-19.002151 -9.497084 64.868706 164 160 192
-19.001110 -9.356735 64.865150 162 159 192
-19.000261 -9.216496 64.862251 161 158 191
-18.999531 -9.076326 64.859756 159 157 191
-18.998854 -8.936193 64.857452 158 157 190
-18.998180 -8.796069 64.855148 157 156 190
-18.997465 -8.655937 64.852707 157 156 189
-18.996674 -8.515782 64.850014 156 156 188
-18.995785 -8.375596 64.846977 155 155 187
-18.994780 -8.235372 64.843544 155 155 185
-18.993650 -8.095110 64.839691 155 155 182
-18.992395 -7.954812 64.835403 154 154 180
-18.991013 -7.814479 64.830681 154 153 178
-18.989510 -7.674119 64.825554 154 154 177
-18.987896 -7.533736 64.820038 155 154 176
-18.986177 -7.393337 64.814178 155 154 175
-18.984371 -7.252930 64.808014 153 151 172
-18.982487 -7.112519 64.801575 152 149 170
-18.980543 -6.972115 64.794937 154 150 171
-18.978556 -6.831723 64.788155 155 150 171
-18.976542 -6.691352 64.781288 155 149 171
-18.974527 -6.551010 64.774406 157 149 173
-18.972530 -6.410703 64.767586 158 149 174
-18.970581 -6.270442 64.760933 159 149 175
-18.968704 -6.130233 64.754532 160 150 176
-18.966932 -5.990084 64.748482 157 147 174
-18.965296 -5.850003 64.742889 154 145 171
-18.963827 -5.709997 64.737877 152 143 169
-18.962555 -5.570070 64.733536 151 142 168
-18.961512 -5.430228 64.729973 150 141 166
-18.960726 -5.290473 64.727287 149 140 164
-18.960220 -5.150805 64.725563 148 139 163
-18.960018 -5.011225 64.724876 148 138 163
-18.960133 -4.871730 64.725266 148 138 163
-18.960579 -4.732315 64.726791 149 138 163
-18.961359 -4.592975 64.729446 150 138 163
-18.962475 -4.453702 64.733261 150 137 163
-18.963923 -4.314488 64.738205 150 136 163
-18.965693 -4.175324 64.744247 149 136 163
-18.967777 -4.036201 64.751366 148 136 163
-18.970165 -3.897110 64.759514 148 136 163
-18.972837 -3.758039 64.768639 149 137 164
-18.975788 -3.618983 64.778709 149 138 165
-18.979002 -3.479931 64.789680 149 138 165
-18.982470 -3.340876 64.801521 149 138 166
-18.986189 -3.201813 64.814217 150 138 167
-18.990154 -3.062736 64.827751 152 139 167
-18.994370 -2.923637 64.842140 152 139 167
-18.998837 -2.784514 64.857391 152 139 166
-19.003561 -2.645361 64.873520 152 139 165
-19.008554 -2.506174 64.890564 152 140 164
-19.013823 -2.366948 64.908554 151 141 163
-19.019373 -2.227677 64.927498 152 144 164
-19.025209 -2.088356 64.947426 154 147 167
-19.031332 -1.948978 64.968323 154 148 169
-19.037739 -1.809537 64.990189 153 149 171
-19.044413 -1.670025 65.012978 153 149 173
-19.051338 -1.530436 65.036621 153 149 174
-19.058489 -1.390761 65.061028 152 149 175
-19.065826 -1.250992 65.086075 153 148 175
-19.073315 -1.111125 65.111641 155 148 175
-19.080900 -0.971152 65.137543 157 147 176
-19.088535 -0.831070 65.163597 158 147 176
-19.096163 -0.690875 65.189644 158 147 176
-19.103727 -0.550566 65.215462 160 148 177
-19.111176 -0.410144 65.240883 162 150 178
-19.118456 -0.269609 65.265739 162 150 178
-19.125528 -0.128966 65.289886 160 150 177
-19.132357 0.011781 65.313202 159 150 176
-19.138922 0.152627 65.335602 158 150 175
-19.145205 0.293565 65.357056 157 151 175
-19.151209 0.434589 65.377556 156 152 176
-19.156946 0.575693 65.397133 155 152 176
-19.162441 0.716873 65.415894 155 152 176
-19.167725 0.858124 65.433937 155 152 176
-19.172844 0.999445 65.451408 155 151 175
-19.177847 1.140833 65.468491 154 150 175
-19.182789 1.282292 65.485359 154 149 174
-19.187731 1.423823 65.502228 153 148 172
-19.192730 1.565431 65.519302 152 147 170
-19.197849 1.707124 65.536774 151 146 169
-19.203142 1.848909 65.554840 150 145 166
-19.208672 1.990796 65.573715 149 144 164
-19.214485 2.132796 65.593559 148 142 163
-19.220638 2.274922 65.614571 147 141 161
-19.227179 2.417187 65.636894 146 139 162
-19.234158 2.559607 65.660721 147 139 162
-19.241625 2.702198 65.686211 147 139 161
-19.249630 2.844979 65.713539 146 138 161
-19.258226 2.987968 65.742882 146 138 161
-19.267467 3.131190 65.774437 146 138 161
-19.277414 3.274667 65.808388 144 137 161
-19.288128 3.418426 65.844955 142 136 160
-19.299664 3.562495 65.884338 140 135 159
-19.312088 3.706905 65.926758 138 134 158
-19.325460 3.851686 65.972404 137 134 157
-19.339834 3.996871 66.021477 137 135 157
-19.355261 4.142492 66.074135 137 136 157
-19.371777 4.288582 66.130516 138 136 158
-19.389410 4.435171 66.190712 139 138 159
-19.408171 4.582285 66.254761 140 139 160
-19.428053 4.729949 66.322632 141 141 161
-19.449026 4.878178 66.394226 141 142 162
-19.471039 5.026985 66.469376 141 143 162
-19.494020 5.176373 66.547829 141 144 163
-19.517874 5.326337 66.629257 140 145 163
-19.542477 5.476862 66.713242 140 146 164
-19.567684 5.627923 66.799301 139 147 165
-19.593338 5.779488 66.886871 139 146 166
-19.619257 5.931509 66.975357 138 145 165
-19.645250 6.083936 67.064095 136 145 164
-19.671120 6.236705 67.152397 135 144 163
-19.696657 6.389748 67.239578 134 145 164
-19.721664 6.542990 67.324951 135 146 165
-19.745943 6.696353 67.407837 136 147 167
-19.769316 6.849760 67.487617 136 147 167
-19.791609 7.003129 67.563721 137 147 168
-19.812681 7.156385 67.635658 139 149 170
-19.832407 7.309455 67.702995 142 151 171
-19.850693 7.462274 67.765419 144 152 173
-19.867470 7.614784 67.822693 146 152 174
-19.882700 7.766935 67.874687 148 152 174
-19.896372 7.918692 67.921356 149 153 175
-19.908499 8.070024 67.962753 151 154 177
-19.919123 8.220913 67.999023 151 155 178
-19.928307 8.371353 68.030373 152 156 178
-19.936132 8.521349 68.057091 151 156 178
-19.942699 8.670913 68.079514 150 156 177
-19.948122 8.820066 68.098022 148 155 176
-19.952522 8.968842 68.113045 146 154 175
-18.925600 -11.352901 65.086342 166 172 201
-18.914316 -11.205912 65.047539 165 172 200
-18.904171 -11.059755 65.012642 165 172 199
-18.895157 -10.914404 64.981651 165 171 199
-18.887255 -10.769819 64.954468 165 170 198
-18.880419 -10.625952 64.930962 164 169 196
-18.874590 -10.482745 64.910919 164 168 194
-18.869696 -10.340137 64.894089 165 167 193
-18.865654 -10.198064 64.880188 165 166 193
-18.862373 -10.056454 64.868904 165 164 193
-18.859753 -9.915241 64.859894 165 163 193
-18.857700 -9.774361 64.852837 164 162 193
-18.856113 -9.633750 64.847374 164 161 192
-18.854900 -9.493349 64.843201 164 160 192
-18.853970 -9.353108 64.840004 162 159 192
-18.853241 -9.212978 64.837502 161 158 191
-18.852640 -9.072922 64.835434 160 158 191
-18.852106 -8.932905 64.833595 158 157 190
-18.851580 -8.792900 64.831779 157 156 189
-18.851021 -8.652888 64.829865 157 156 189
-18.850395 -8.512855 64.827713 157 156 189
-18.849678 -8.372788 64.825241 157 156 188
-18.848848 -8.232685 64.822388 156 156 186
-18.847900 -8.092543 64.819130 156 155 184
-18.846828 -7.952363 64.815445 155 155 181
-18.845631 -7.812146 64.811325 155 154 179
-18.844316 -7.671900 64.806808 156 154 178
-18.842890 -7.531628 64.801895 156 154 177
-18.841358 -7.391336 64.796631 156 154 176
-18.839737 -7.251032 64.791054 153 151 173
-18.838036 -7.110722 64.785202 152 150 171
-18.836266 -6.970412 64.779121 154 151 172
-18.834450 -6.830112 64.772873 155 151 173
-18.832598 -6.689826 64.766502 155 150 173
-18.830732 -6.549562 64.760086 156 150 174
-18.828876 -6.409329 64.753708 156 150 174
-18.827051 -6.269134 64.747429 157 149 174
-18.825281 -6.128984 64.741341 157 149 174
-18.823599 -5.988888 64.735550 157 147 174
-18.822029 -5.848853 64.730156 155 145 171
-18.820604 -5.708884 64.725258 153 143 170
-18.819355 -5.568989 64.720963 152 142 168
-18.818310 -5.429171 64.717369 151 141 166
-18.817497 -5.289433 64.714569 150 140 164
-18.816938 -5.149778 64.712654 149 140 163
-18.816660 -5.010205 64.711693 149 140 163
-18.816677 -4.870713 64.711754 150 139 164
-18.817003 -4.731297 64.712875 151 139 164
-18.817646 -4.591956 64.715088 151 139 164
-18.818611 -4.452680 64.718399 151 137 163
-18.819897 -4.313463 64.722824 151 136 162
-18.821501 -4.174298 64.728340 151 136 162
-18.823416 -4.035177 64.734932 150 136 162
-18.825636 -3.896090 64.742561 150 136 162
-18.828152 -3.757028 64.751213 150 137 163
-18.830956 -3.617985 64.760857 150 138 164
-18.834042 -3.478953 64.771469 150 138 165
-18.837404 -3.339923 64.783035 150 138 166
-18.841042 -3.200891 64.795540 151 138 167
-18.844955 -3.061849 64.808998 153 138 167
-18.849146 -2.922793 64.823410 153 138 167
-18.853622 -2.783716 64.838806 153 139 167
-18.858389 -2.644614 64.855202 152 139 166
-18.863455 -2.505481 64.872620 153 141 165
-18.868826 -2.366311 64.891098 153 142 165
-18.874508 -2.227098 64.910637 153 144 166
-18.880501 -2.087836 64.931244 153 146 167
-18.886805 -1.948516 64.952927 153 147 169
-18.893406 -1.809132 64.975632 153 148 171
-18.900291 -1.669674 64.999306 152 149 174
-18.907438 -1.530136 65.023880 153 149 175
-18.914812 -1.390509 65.049240 153 149 176
-18.922375 -1.250784 65.075256 154 149 176
-18.930082 -1.110956 65.101761 155 147 175
-18.937883 -0.971019 65.128586 156 146 175
-18.945721 -0.830967 65.155540 157 146 176
-18.953539 -0.690799 65.182426 158 146 176
-18.961281 -0.550512 65.209053 160 146 176
-18.968889 -0.410108 65.235214 161 147 177
-18.976315 -0.269588 65.260757 161 148 177
-18.983519 -0.128957 65.285530 160 148 176
-18.990463 0.011781 65.309410 159 148 175
-18.997129 0.152619 65.332336 158 148 175
-19.003504 0.293552 65.354263 156 149 174
-19.009592 0.434573 65.375198 155 150 174
-19.015404 0.575676 65.395187 154 150 174
-19.020966 0.716856 65.414314 153 149 174
-19.026314 0.858108 65.432709 152 148 173
-19.031492 0.999431 65.450516 152 148 173
-19.036551 1.140823 65.467911 153 148 172
-19.041544 1.282286 65.485085 153 148 171
-19.046532 1.423823 65.502235 153 147 170
-19.051571 1.565438 65.519562 152 147 169
-19.056719 1.707137 65.537270 151 146 167
-19.062035 1.848929 65.555550 150 145 165
-19.067570 1.990823 65.574585 150 143 163
-19.073376 2.132828 65.594551 148 142 161
-19.079502 2.274959 65.615623 147 140 160
-19.085999 2.417227 65.637962 146 139 160
-19.092911 2.559647 65.661736 147 139 161
-19.100286 2.702235 65.687103 147 139 161
-19.108181 2.845009 65.714249 147 138 161
-19.116642 2.987990 65.743347 146 138 161
-19.125731 3.131198 65.774605 145 137 161
-19.135500 3.274658 65.808205 144 137 161
-19.146019 3.418396 65.844376 142 136 160
-19.157347 3.562441 65.883339 141 135 160
-19.169554 3.706824 65.925316 138 134 159
-19.182695 3.851575 65.970512 137 134 159
-19.196836 3.996730 66.019150 138 136 160
-19.212027 4.142320 66.071388 138 136 160
-19.228308 4.288378 66.127373 138 137 160
-19.245708 4.434937 66.187218 139 138 161
-19.264242 4.582022 66.250961 141 140 162
-19.283903 4.729659 66.318573 141 142 162
-19.304663 4.877865 66.389961 142 143 163
-19.326471 5.026651 66.464966 142 145 163
-19.349257 5.176023 66.543327 142 146 163
-19.372919 5.325973 66.624702 142 146 164
-19.397335 5.476487 66.708672 142 147 165
-19.422367 5.627541 66.794754 142 147 166
-19.447847 5.779100 66.882385 141 147 166
-19.473598 5.931119 66.970947 140 146 165
-19.499426 6.083544 67.059769 138 145 164
-19.525131 6.236312 67.148170 136 144 163
-19.550510 6.389355 67.235451 136 145 164
-19.575359 6.542597 67.320908 136 146 165
-19.599482 6.695960 67.403870 138 147 167
-19.622698 6.849363 67.483711 138 148 167
-19.644838 7.002728 67.559853 139 149 168
-19.665762 7.155977 67.631805 140 150 170
-19.685341 7.309038 67.699142 142 151 171
-19.703484 7.461845 67.761536 144 151 172
-19.720121 7.614341 67.818756 146 151 172
-19.735216 7.766476 67.870667 146 152 173
-19.748755 7.918211 67.917229 149 152 175
-19.760754 8.069516 67.958488 152 155 178
-19.771252 8.220377 67.994591 152 156 179
-19.780310 8.370784 68.025749 151 156 179
-19.788013 8.520741 68.052238 151 156 178
-19.794456 8.670261 68.074402 149 156 177
-19.799753 8.819366 68.092613 148 156 177
-19.804028 8.968087 68.107315 146 155 176
-19.807411 9.116461 68.118950 144 154 174
-18.777094 -11.347944 65.057922 165 170 200
-18.765982 -11.201069 65.019424 165 170 199
-18.755987 -11.055018 64.984802 165 170 199
-18.747110 -10.909767 64.954041 166 170 198
-18.739330 -10.765278 64.927086 166 170 198
-18.732603 -10.621503 64.903778 164 168 196
-18.726873 -10.478387 64.883926 164 166 194
-18.722076 -10.335870 64.867302 165 165 193
-18.718124 -10.193886 64.853615 165 165 193
-18.714931 -10.052368 64.842552 165 163 193
-18.712406 -9.911252 64.833801 165 163 193
-18.710449 -9.770470 64.827019 164 161 193
-18.708963 -9.629961 64.821869 164 160 192
-18.707859 -9.489666 64.818047 163 160 191
-18.707047 -9.349534 64.815231 162 158 191
-18.706444 -9.209517 64.813141 160 157 191
-18.705976 -9.069576 64.811523 160 158 191
-18.705585 -8.929677 64.810165 160 158 191
-18.705210 -8.789792 64.808868 158 156 189
-18.704809 -8.649901 64.807480 157 156 189
-18.704348 -8.509988 64.805885 158 156 189
-18.703798 -8.370043 64.803978 158 156 189
-18.703144 -8.230060 64.801712 157 156 187
-18.702374 -8.090035 64.799042 157 155 185
-18.701481 -7.949970 64.795944 156 155 182
-18.700464 -7.809868 64.792427 156 155 180
-18.699329 -7.669732 64.788490 156 154 178
-18.698080 -7.529567 64.784164 156 154 177
-18.696726 -7.389379 64.779472 156 154 177
-18.695278 -7.249174 64.774452 154 153 175
-18.693741 -7.108958 64.769135 154 153 174
-18.692135 -6.968739 64.763565 154 153 173
-18.690470 -6.828522 64.757797 154 152 174
-18.688761 -6.688314 64.751877 155 151 174
-18.687027 -6.548123 64.745865 156 151 175
-18.685287 -6.407957 64.739838 156 151 175
-18.683563 -6.267821 64.733864 156 150 175
-18.681879 -6.127724 64.728027 156 149 175
-18.680260 -5.987673 64.722420 156 147 174
-18.678736 -5.847676 64.717140 155 145 172
-18.677332 -5.707739 64.712280 154 144 171
-18.676081 -5.567868 64.707939 153 143 169
-18.675009 -5.428068 64.704231 152 142 167
-18.674145 -5.288343 64.701233 151 141 166
-18.673513 -5.148695 64.699051 151 141 165
-18.673140 -5.009125 64.697746 150 141 164
-18.673037 -4.869632 64.697395 150 140 164
-18.673225 -4.730214 64.698051 151 140 165
-18.673717 -4.590868 64.699753 152 139 165
-18.674515 -4.451587 64.702515 152 137 163
-18.675625 -4.312366 64.706367 152 136 162
-18.677050 -4.173200 64.711296 152 136 162
-18.678785 -4.034079 64.717308 152 136 162
-18.680830 -3.894996 64.724396 152 137 163
-18.683178 -3.755944 64.732536 151 138 163
-18.685827 -3.616916 64.741714 151 138 164
-18.688778 -3.477903 64.751938 150 137 165
-18.692026 -3.338900 64.763191 151 137 166
-18.695576 -3.199900 64.775490 152 137 167
-18.699429 -3.060897 64.788834 153 138 167
-18.703590 -2.921884 64.803253 153 138 168
-18.708065 -2.782856 64.818764 153 139 168
-18.712866 -2.643807 64.835396 153 140 167
-18.717995 -2.504730 64.853165 153 141 166
-18.723459 -2.365618 64.872101 153 143 166
-18.729263 -2.226466 64.892204 153 144 166
-18.735401 -2.087264 64.913467 153 146 167
-18.741869 -1.948005 64.935883 152 147 168
-18.748653 -1.808679 64.959389 152 147 171
-18.755735 -1.669279 64.983925 152 148 174
-18.763084 -1.529795 65.009384 153 149 175
-18.770664 -1.390218 65.035652 153 149 176
-18.778435 -1.250540 65.062569 154 149 176
-18.786345 -1.110755 65.089973 154 146 175
-18.794338 -0.970856 65.117668 154 144 173
-18.802359 -0.830839 65.145462 154 143 172
-18.810345 -0.690700 65.173134 156 144 173
-18.818239 -0.550440 65.200485 158 145 174
-18.825987 -0.410058 65.227325 160 146 175
-18.833536 -0.269558 65.253487 161 147 175
-18.840847 -0.128944 65.278816 160 147 175
-18.847887 0.011780 65.303207 160 148 175
-18.854635 0.152606 65.326584 159 148 175
-18.861082 0.293528 65.348923 157 149 174
-18.867233 0.434540 65.370232 155 148 173
-18.873100 0.575635 65.390564 153 147 172
-18.878714 0.716809 65.410019 151 146 171
-18.884109 0.858056 65.428711 150 145 171
-18.889332 0.999374 65.446808 150 145 171
-18.894432 1.140764 65.464478 151 145 171
-18.899466 1.282224 65.481918 153 146 170
-18.904490 1.423760 65.499321 152 147 169
-18.909559 1.565374 65.516884 152 146 168
-18.914732 1.707073 65.534805 152 145 166
-18.920063 1.848865 65.553276 151 144 165
-18.925600 1.990758 65.572464 150 143 163
-18.931398 2.132763 65.592552 149 142 162
-18.937498 2.274892 65.613686 148 140 161
-18.943947 2.417156 65.636032 147 139 160
-18.950794 2.559569 65.659752 147 139 161
-18.958086 2.702149 65.685020 147 139 161
-18.965870 2.844912 65.711990 147 138 161
-18.974203 2.987876 65.740860 146 138 161
-18.983137 3.131065 65.771812 145 137 161
-18.992737 3.274502 65.805077 143 136 161
-19.003065 3.418214 65.840866 142 136 161
-19.014191 3.562229 65.879410 141 138 162
-19.026178 3.706578 65.920944 139 135 160
-19.039095 3.851294 65.965691 138 135 160
-19.053003 3.996411 66.013885 140 138 163
-19.067957 4.141963 66.065689 139 138 163
-19.084000 4.287983 66.121277 139 138 162
-19.101164 4.434503 66.180748 140 139 162
-19.119463 4.581552 66.244148 141 141 163
-19.138893 4.729152 66.311470 142 143 163
-19.159430 4.877326 66.382622 143 144 163
-19.181017 5.026081 66.457420 143 145 163
-19.203590 5.175424 66.535629 143 146 163
-19.227045 5.325349 66.616898 143 146 164
-19.251261 5.475841 66.700798 143 147 165
-19.276094 5.626874 66.786835 143 147 166
-19.301382 5.778415 66.874458 142 147 166
-19.326944 5.930417 66.963020 141 146 165
-19.352587 6.082826 67.051865 139 144 164
-19.378109 6.235580 67.140297 137 143 163
-19.403307 6.388608 67.227600 136 143 163
-19.427977 6.541836 67.313072 137 144 164
-19.451927 6.695183 67.396049 139 146 166
-19.474972 6.848571 67.475899 140 147 168
-19.496946 7.001918 67.552040 141 149 168
-19.517708 7.155148 67.623970 142 150 170
-19.537130 7.308188 67.691261 143 151 171
-19.555124 7.460973 67.753609 144 152 172
-19.571617 7.613442 67.810753 146 152 172
-19.586573 7.765549 67.862572 146 152 172
-19.599979 7.917253 67.909019 150 153 176
-19.611851 8.068526 67.950150 152 156 178
-19.622229 8.219351 67.986107 151 157 179
-19.631168 8.369718 68.017082 151 157 179
-19.638756 8.519631 68.043373 150 157 179
-19.645086 8.669103 68.065300 148 156 178
-19.650270 8.818155 68.083267 147 156 176
-19.654430 8.966818 68.097679 145 156 175
-19.657696 9.115128 68.108994 142 155 172
-18.640583 -11.490489 65.070961 167 170 201
-18.628582 -11.342909 65.029060 166 169 200
-18.617659 -11.196160 64.990929 166 169 199
-18.607838 -11.050229 64.956642 166 169 199
-18.599113 -10.905089 64.926193 166 170 198
-18.591471 -10.760707 64.899513 166 169 198
-18.584871 -10.617035 64.876472 165 167 196
-18.579258 -10.474019 64.856880 164 165 194
-18.574568 -10.331600 64.840508 164 164 193
-18.570721 -10.189715 64.827080 164 164 193
-18.567631 -10.048298 64.816292 164 163 193
-18.565208 -9.907283 64.807831 164 162 193
-18.563356 -9.766605 64.801369 164 161 193
