ply
format ascii 1.0
element vertex 1174
property float x
property float y
property float z
property uchar red
property uchar green
property uchar blue
end_header
10.350820 8.987227 63.088570 209 194 191
10.344213 9.117403 63.048306 221 210 209
10.338035 9.247787 63.010647 195 183 185
10.332273 9.378386 62.975521 169 152 156
10.326906 9.509198 62.942814 192 175 179
10.321903 9.640209 62.912323 216 200 201
10.317222 9.771394 62.883789 200 178 176
10.312807 9.902711 62.856884 179 156 149
10.308593 10.034107 62.831196 185 166 157
10.304505 10.165518 62.806282 201 185 176
10.300461 10.296864 62.781631 201 186 178
10.296371 10.428057 62.756699 197 184 177
10.292142 10.559001 62.730927 204 192 189
10.287685 10.689597 62.703762 205 194 193
10.282914 10.819745 62.674686 192 180 181
10.277750 10.949348 62.643208 170 156 159
10.272122 11.078318 62.608906 151 136 139
10.265976 11.206571 62.571442 162 144 148
10.259268 11.334044 62.530556 191 171 176
10.251971 11.460681 62.486084 194 171 175
10.244073 11.586447 62.437943 179 156 159
10.235574 11.711317 62.386139 160 136 139
10.226485 11.835282 62.330746 136 111 115
10.216826 11.958342 62.271877 129 102 106
10.206623 12.080503 62.209686 139 109 114
10.195902 12.201775 62.144341 145 114 118
10.184690 12.322173 62.076004 144 112 115
10.173016 12.441710 62.004848 146 113 114
10.160903 12.560397 61.931019 151 117 116
10.148378 12.678253 61.854683 148 115 111
10.135471 12.795298 61.776016 140 108 101
10.122216 12.911557 61.695221 140 108 100
10.108654 13.027075 61.612564 150 118 111
10.094845 13.141912 61.528397 152 120 115
10.080857 13.256154 61.443142 141 108 106
10.066790 13.369920 61.357395 126 91 94
10.052756 13.483364 61.271862 111 75 84
10.038898 13.596676 61.187397 105 68 83
10.025377 13.710085 61.104988 121 82 102
10.012376 13.823856 61.025745 144 105 127
10.000090 13.938282 60.950855 149 109 133
9.988724 14.053681 60.881584 133 94 118
9.978487 14.170383 60.819187 113 74 97
9.969572 14.288713 60.764854 102 63 85
9.962159 14.408979 60.719673 105 66 85
9.956402 14.531466 60.684578 113 76 91
9.952411 14.656405 60.660255 118 82 92
9.950256 14.783968 60.647125 116 81 85
9.949951 14.914246 60.645264 115 81 79
9.951449 15.047240 60.654392 118 85 78
9.954636 15.182852 60.673817 120 88 78
9.959332 15.320868 60.702442 126 94 81
9.965290 15.460965 60.738750 132 101 86
9.972197 15.602703 60.780846 126 94 78
9.979683 15.745539 60.826481 113 81 64
9.987332 15.888829 60.873100 105 74 55
9.994691 16.031855 60.917953 101 72 51
10.001291 16.173847 60.958183 102 75 54
10.006662 16.314009 60.990921 119 95 75
10.010357 16.451557 61.013435 152 130 114
10.548770 -9.154227 63.461273 128 90 90
10.545920 -9.014991 63.444134 119 82 81
10.543631 -8.876298 63.430355 99 63 63
10.541745 -8.738001 63.419010 90 58 59
10.540086 -8.599937 63.409031 99 72 77
10.538445 -8.461932 63.399162 110 88 98
10.536599 -8.323807 63.388058 106 88 104
10.534312 -8.185386 63.374294 87 72 95
10.531339 -8.046500 63.356407 70 57 85
10.527439 -7.906996 63.332947 80 68 99
10.522384 -7.766740 63.302536 105 93 125
10.515961 -7.625624 63.263893 100 86 117
10.507987 -7.483569 63.215923 84 66 95
10.498313 -7.340533 63.157726 96 74 100
10.486835 -7.196509 63.088673 108 79 102
10.473493 -7.051529 63.008408 95 63 82
10.458284 -6.905662 62.916916 96 59 75
10.441260 -6.759013 62.814495 112 74 86
10.422532 -6.611726 62.701832 113 74 84
10.402269 -6.463971 62.579929 100 62 69
10.380696 -6.315944 62.450150 91 55 61
10.358088 -6.167860 62.314133 88 53 58
10.334764 -6.019946 62.173817 90 57 61
10.311077 -5.872429 62.031315 101 69 72
10.287408 -5.725538 61.888927 108 77 80
10.264151 -5.579484 61.749012 104 74 76
10.241699 -5.434460 61.613941 102 74 75
10.220437 -5.290635 61.486027 112 86 87
10.200728 -5.148145 61.367462 119 95 96
10.182904 -5.007093 61.260231 112 90 95
10.167249 -4.867542 61.166050 104 84 93
10.153997 -4.729517 61.086330 102 82 95
10.143331 -4.593005 61.022156 107 85 103
10.135366 -4.457958 60.974243 116 91 110
10.130165 -4.324298 60.942951 118 89 108
10.127725 -4.191916 60.928268 114 82 97
10.127990 -4.060681 60.929863 109 75 83
10.130855 -3.930449 60.947102 103 67 68
10.136175 -3.801062 60.979111 97 60 53
10.143776 -3.672364 61.024837 102 65 53
10.153463 -3.544196 61.083115 131 94 76
10.165037 -3.416411 61.152744 161 126 105
10.178300 -3.288872 61.232533 154 120 99
10.193069 -3.161456 61.321377 115 83 63
10.209183 -3.034057 61.418324 107 76 61
10.226511 -2.906585 61.522572 137 107 96
10.244954 -2.778965 61.633522 156 127 118
10.264439 -2.651137 61.750744 158 129 120
10.284924 -2.523048 61.873981 160 131 120
10.306387 -2.394656 62.003098 164 135 122
10.328815 -2.265918 62.138031 163 133 117
10.352201 -2.136797 62.278721 168 138 119
10.376526 -2.007250 62.425056 197 173 155
10.401747 -1.877234 62.576782 218 197 182
10.427796 -1.746704 62.733498 190 162 151
10.454569 -1.615609 62.894566 158 124 117
10.481920 -1.483901 63.059109 151 119 114
10.509666 -1.351535 63.226028 132 100 98
10.537585 -1.218469 63.393990 105 75 73
10.565427 -1.084672 63.561485 96 67 65
10.592926 -0.950121 63.726917 86 57 55
10.619814 -0.814810 63.888676 78 50 47
10.645834 -0.678747 64.045212 80 50 48
10.670752 -0.541952 64.195114 75 44 42
10.694377 -0.404463 64.337250 65 35 32
10.716571 -0.266325 64.470764 63 33 30
10.737256 -0.127594 64.595207 64 35 31
10.756416 0.011673 64.710472 61 33 29
10.774100 0.151415 64.816864 59 32 28
10.790419 0.291579 64.915031 59 33 30
10.805530 0.432119 65.005936 59 33 32
10.819629 0.572996 65.090759 58 32 33
10.832934 0.714187 65.170807 57 31 34
10.845668 0.855678 65.247414 57 30 35
10.858042 0.997466 65.321846 58 31 37
10.870236 1.139557 65.395218 59 32 39
10.882395 1.281959 65.468361 61 33 42
10.894605 1.424683 65.541817 64 34 45
10.906893 1.567736 65.615738 70 38 49
10.919219 1.711113 65.689896 85 47 59
10.931481 1.854799 65.763664 96 53 62
10.943515 1.998761 65.836052 94 47 50
10.955106 2.142948 65.905785 90 41 34
10.965996 2.287291 65.971306 88 43 24
10.975907 2.431698 66.030930 83 45 16
10.984549 2.576065 66.082909 103 77 43
10.991637 2.720272 66.125557 165 153 120
10.996915 2.864191 66.157310 206 204 179
11.000163 3.007692 66.176849 188 190 175
11.001218 3.150649 66.183197 147 151 150
10.999976 3.292946 66.175728 114 120 129
10.996399 3.434481 66.154205 106 110 125
10.990520 3.575175 66.118843 140 143 158
10.982437 3.714971 66.070213 201 202 212
10.972305 3.853837 66.009262 240 240 245
10.960330 3.991770 65.937218 249 248 252
10.946754 4.128788 65.855545 251 251 253
10.931842 4.264932 65.765831 253 253 253
10.915871 4.400263 65.669746 253 253 253
10.899115 4.534853 65.568947 254 254 254
10.881835 4.668784 65.464989 255 255 255
10.864267 4.802139 65.359306 254 254 254
10.846621 4.935003 65.253136 253 253 253
10.829072 5.067455 65.147568 250 250 250
10.811764 5.199567 65.043442 251 251 251
10.794803 5.331402 64.941406 253 254 253
10.778263 5.463011 64.841904 254 254 254
10.762194 5.594435 64.745232 254 254 254
10.746617 5.725705 64.651520 254 254 254
10.731540 5.856843 64.560822 254 254 254
10.716952 5.987864 64.473061 254 254 254
10.702834 6.118775 64.388123 254 254 254
10.689159 6.249578 64.305855 254 254 254
10.675898 6.380274 64.226074 251 251 253
10.663018 6.510860 64.148590 244 244 249
10.650494 6.641333 64.073242 242 241 248
10.638296 6.771689 63.999866 247 246 250
10.626402 6.901926 63.928307 251 250 252
10.614790 7.032042 63.858452 253 252 253
10.603445 7.162035 63.790195 254 253 254
10.592356 7.291912 63.723484 254 254 254
10.581517 7.421676 63.658279 252 253 253
10.570927 7.551337 63.594570 244 244 245
10.560591 7.680907 63.532387 228 227 229
10.550516 7.810404 63.471779 217 215 218
10.540715 7.939845 63.412819 224 220 223
10.531206 8.069256 63.355610 234 228 229
10.522007 8.198661 63.300270 233 223 223
10.513142 8.328093 63.246937 233 219 217
10.504631 8.457580 63.195736 239 223 220
10.496502 8.587158 63.146832 240 223 219
10.488777 8.716861 63.100357 223 206 201
10.481476 8.846722 63.056431 204 187 182
10.474614 8.976769 63.015152 213 198 194
10.468202 9.107030 62.976574 224 212 211
10.462238 9.237522 62.940704 191 177 179
10.456719 9.368257 62.907501 161 143 147
10.451625 9.499232 62.876850 189 173 176
10.446925 9.630442 62.848579 219 205 206
10.442577 9.761858 62.822422 206 185 183
10.438528 9.893444 62.798061 182 157 152
10.434711 10.025148 62.775097 176 154 146
10.431049 10.156905 62.753071 184 165 155
10.427457 10.288635 62.731457 195 179 169
10.423841 10.420248 62.709705 203 190 180
10.420105 10.551646 62.687229 205 194 186
10.416154 10.682726 62.663460 205 194 188
10.411896 10.813384 62.637840 196 185 181
10.407243 10.943519 62.609852 171 158 158
10.402122 11.073032 62.579041 148 133 134
10.396469 11.201841 62.545036 154 137 138
10.390237 11.329871 62.507538 183 164 166
10.383390 11.457063 62.466354 191 170 173
10.375914 11.583372 62.421375 175 154 157
10.367804 11.708772 62.372581 154 131 135
10.359067 11.833247 62.320026 135 111 117
10.349723 11.956793 62.263809 134 106 115
10.339794 12.079413 62.204082 145 115 123
10.329310 12.201121 62.141010 150 117 125
10.318302 12.321930 62.074783 145 112 118
10.306798 12.441854 62.005573 140 106 110
10.294829 12.560915 61.933571 139 104 106
10.282429 12.679132 61.858971 138 104 102
10.269633 12.796535 61.781994 135 103 97
10.256484 12.913160 61.702885 140 108 100
10.243033 13.029062 61.621967 155 123 114
10.229346 13.144311 61.539623 163 131 123
10.215502 13.259001 61.456337 153 120 115
10.201607 13.373264 61.372742 133 100 100
10.187781 13.487261 61.289570 116 81 88
10.174173 13.601190 61.207706 108 72 85
10.160950 13.715282 61.128151 123 85 104
10.148293 13.829805 61.052010 143 105 128
10.136399 13.945051 60.980457 145 107 132
10.125474 14.061332 60.914730 132 93 119
10.115718 14.178969 60.856041 118 78 104
10.107321 14.298275 60.805523 110 71 95
10.100452 14.419546 60.764202 111 73 94
10.095254 14.543045 60.732929 116 79 95
10.091826 14.668983 60.712311 115 80 89
10.090225 14.797509 60.702675 109 75 78
10.090449 14.928696 60.704025 107 74 70
10.092437 15.062519 60.715981 111 81 70
10.096061 15.198857 60.737782 121 91 76
10.101126 15.337479 60.768253 136 107 89
10.107374 15.478043 60.805840 151 122 103
10.114482 15.620097 60.848602 150 120 102
10.122074 15.763089 60.894279 133 103 85
10.129727 15.906374 60.940319 115 85 68
10.136989 16.049238 60.984005 105 75 59
10.143393 16.190922 61.022533 106 77 63
10.148475 16.330643 61.053104 124 96 84
10.670824 -9.141594 63.373692 127 89 85
10.666823 -9.001605 63.349930 114 77 72
10.663379 -8.862182 63.329475 102 67 62
10.660346 -8.723184 63.311466 96 64 61
10.657551 -8.584454 63.294861 101 74 75
10.654790 -8.445822 63.278465 112 88 94
10.651843 -8.307117 63.260963 110 89 101
10.648475 -8.168164 63.240963 91 72 89
10.644443 -8.028796 63.217010 72 54 75
10.639503 -7.888860 63.187683 81 63 87
10.633427 -7.748220 63.151592 109 92 116
10.625998 -7.606769 63.107468 108 89 112
10.617025 -7.464422 63.054184 88 65 86
10.606357 -7.321135 62.990822 94 66 85
10.593880 -7.176895 62.916725 102 69 86
10.579529 -7.031730 62.831493 95 59 73
10.563293 -6.885702 62.735065 104 63 75
10.545216 -6.738914 62.627705 122 80 89
10.525404 -6.591503 62.510044 123 80 86
10.504021 -6.443635 62.383053 112 69 73
10.481289 -6.295505 62.248051 105 65 66
10.457481 -6.147324 62.106659 100 62 62
10.432920 -5.999320 61.960789 99 63 61
10.407963 -5.851721 61.812569 112 77 76
10.382996 -5.704756 61.664291 121 88 87
10.358420 -5.558641 61.518337 110 79 78
10.334642 -5.413572 61.377121 103 73 73
10.312058 -5.269723 61.242992 117 89 89
10.291045 -5.127234 61.118202 122 97 98
10.271949 -4.986215 61.004784 111 88 92
10.255068 -4.846730 60.904530 102 79 89
10.240652 -4.708812 60.818916 102 80 93
10.228897 -4.572453 60.749104 105 82 100
10.219933 -4.437605 60.695862 112 86 106
10.213832 -4.304194 60.659630 118 88 107
10.210603 -4.172113 60.640453 113 81 96
10.210198 -4.041233 60.638050 104 69 78
10.212520 -3.911407 60.651840 98 62 65
10.217429 -3.782479 60.680992 96 59 55
10.224752 -3.654289 60.724491 102 64 55
10.234300 -3.526678 60.781189 127 90 77
10.245870 -3.399493 60.849903 157 121 106
10.259264 -3.272593 60.929447 147 112 96
10.274294 -3.145852 61.018711 107 75 60
10.290797 -3.019158 61.116726 103 74 61
10.308635 -2.892416 61.222664 134 107 97
10.327701 -2.765546 61.335892 151 126 117
10.347912 -2.638480 61.455925 161 136 128
10.369219 -2.511161 61.582466 181 156 146
10.391587 -2.383541 61.715313 190 165 153
10.414996 -2.255573 61.854340 173 148 133
10.439425 -2.127214 61.999416 159 134 118
10.464840 -1.998417 62.150360 180 157 143
10.491190 -1.869137 62.306854 205 183 170
10.518395 -1.739323 62.468422 194 167 156
10.546336 -1.608925 62.634361 183 153 144
10.574856 -1.477892 62.803741 186 156 147
10.603760 -1.346178 62.975399 159 130 121
10.632815 -1.213741 63.147961 123 95 84
10.661761 -1.080549 63.319874 114 86 74
10.690326 -0.946581 63.489513 110 83 71
10.718230 -0.811833 63.655239 113 85 73
10.745214 -0.676312 63.815491 120 91 81
10.771040 -0.540042 63.968872 105 74 64
10.795516 -0.403061 64.114235 77 45 36
10.818503 -0.265416 64.250755 70 38 28
10.839927 -0.127164 64.377983 75 44 34
10.859775 0.011634 64.495865 74 44 33
10.878103 0.150920 64.604721 71 42 32
10.895032 0.290637 64.705254 71 44 36
10.910726 0.430740 64.798462 72 45 40
10.925393 0.571190 64.885567 68 42 40
10.939259 0.711964 64.967918 63 36 38
10.952558 0.853049 65.046898 60 34 39
10.965509 0.994442 65.123817 60 34 41
10.978306 1.136152 65.199814 62 36 43
10.991096 1.278188 65.275780 63 37 44
11.003972 1.420563 65.352249 65 38 45
11.016967 1.563284 65.429420 72 42 51
11.030042 1.706351 65.507072 89 56 64
11.043094 1.849748 65.584587 102 64 72
11.055958 1.993446 65.660988 98 56 60
11.068414 2.137394 65.734962 92 48 45
11.080200 2.281523 65.804962 89 47 35
11.091029 2.425745 65.869278 85 48 29
11.100600 2.569953 65.926125 108 81 57
11.108623 2.714028 65.973770 171 157 133
11.114824 2.857839 66.010597 217 213 194
11.118976 3.001256 66.035255 222 222 211
11.120901 3.144150 66.046692 203 205 205
11.120485 3.286402 66.044220 166 169 178
11.117681 3.427906 66.027557 141 144 158
11.112509 3.568578 65.996841 165 167 182
11.105059 3.708358 65.952599 215 215 225
11.095483 3.847209 65.895729 244 243 248
11.083980 3.985122 65.827415 249 248 252
11.070790 4.122113 65.749084 251 250 253
11.056181 4.258219 65.662315 253 253 254
11.040429 4.393497 65.568764 254 254 254
11.023813 4.528016 65.470085 254 254 254
11.006600 4.661857 65.367859 254 254 254
10.989033 4.795102 65.263527 254 254 254
10.971330 4.927836 65.158386 250 250 250
10.953675 5.060141 65.053535 242 243 242
10.936220 5.192087 64.949875 244 245 244
10.919083 5.323741 64.848091 251 252 251
10.902346 5.455158 64.748695 254 254 254
10.886065 5.586380 64.652008 254 254 254
10.870275 5.717442 64.558228 254 254 254
10.854986 5.848371 64.467422 253 254 254
10.840196 5.979183 64.379585 252 253 253
10.825889 6.109889 64.294617 253 254 254
10.812043 6.240495 64.212387 254 254 254
10.798631 6.371002 64.132736 253 253 253
10.785626 6.501412 64.055504 244 243 247
10.773000 6.631721 63.980511 236 234 239
10.760726 6.761929 63.907616 241 240 243
10.748778 6.892032 63.836662 251 251 252
10.737138 7.022029 63.767525 254 254 254
10.725784 7.151920 63.700100 254 254 254
10.714707 7.281708 63.634315 254 254 254
10.703899 7.411399 63.570129 254 254 254
10.693357 7.540999 63.507511 252 252 252
10.683081 7.670522 63.446487 239 239 241
10.673079 7.799982 63.387081 222 220 223
10.663361 7.929397 63.329369 219 214 218
10.653945 8.058791 63.273445 227 220 222
10.644848 8.188190 63.219418 231 221 221
10.636092 8.317622 63.167423 236 224 223
10.627704 8.447123 63.117599 244 233 230
10.619706 8.576724 63.070107 244 234 231
10.612125 8.706463 63.025085 227 214 211
10.604985 8.836374 62.982677 208 193 191
10.598302 8.966489 62.942986 216 202 201
10.592089 9.096837 62.906086 224 212 212
10.586349 9.227439 62.872002 190 174 176
10.581079 9.358309 62.840702 161 142 145
10.576262 9.489450 62.812096 191 175 178
10.571870 9.620854 62.786007 228 213 214
10.567862 9.752501 62.762199 224 203 202
10.564182 9.884352 62.740353 207 182 178
10.560764 10.016357 62.720055 196 174 166
10.557531 10.148453 62.700851 194 175 164
10.554393 10.280558 62.682213 202 185 173
10.551252 10.412580 62.663559 209 196 183
10.548009 10.544419 62.644295 210 198 186
10.544562 10.675970 62.623829 209 198 187
10.540813 10.807122 62.601562 201 190 182
10.536672 10.937770 62.576965 176 164 159
10.532053 11.067812 62.549538 147 133 130
10.526891 11.197157 62.518879 145 129 128
10.521130 11.325725 62.484665 170 153 153
10.514731 11.453451 62.446663 187 169 171
10.507673 11.580286 62.404743 180 162 164
10.499949 11.706198 62.358868 160 140 144
10.491563 11.831165 62.309063 141 120 126
10.482532 11.955183 62.255428 140 116 124
10.472879 12.078254 62.198109 151 124 134
10.462637 12.200388 62.137280 159 129 139
10.451837 12.321603 62.073135 155 123 132
10.440513 12.441916 62.005882 144 110 117
10.428702 12.561356 61.935741 135 101 104
10.416445 12.679947 61.862946 131 98 97
10.403784 12.797728 61.787750 130 98 93
10.390770 12.914746 61.710461 135 104 96
10.377463 13.031064 61.631432 153 123 112
10.363940 13.146766 61.551117 170 140 130
10.350286 13.261953 61.470020 164 134 126
10.336612 13.376767 61.388817 142 110 109
10.323050 13.491377 61.308277 122 89 94
10.309752 13.605988 61.229298 113 78 90
10.296885 13.720831 61.152882 123 88 106
10.284635 13.836176 61.080128 142 106 129
10.273196 13.952309 61.012196 144 107 133
10.262772 14.069538 60.950279 133 96 122
10.253554 14.188172 60.895538 124 86 112
10.245728 14.308513 60.849056 120 82 106
10.239450 14.430836 60.811775 120 82 104
10.234851 14.555385 60.784462 121 84 101
10.232020 14.682354 60.767651 117 81 91
10.230996 14.811866 60.761570 107 72 76
10.231764 14.943969 60.766129 101 68 64
10.234246 15.078617 60.780869 105 75 63
10.238300 15.215665 60.804947 122 93 76
10.243720 15.354864 60.837135 147 119 98
10.250233 15.495853 60.875813 162 135 112
10.257508 15.638173 60.919022 163 137 114
10.265162 15.781261 60.964481 150 123 103
10.272769 15.924473 61.009659 128 100 85
10.279879 16.067101 61.051876 112 83 72
10.286025 16.208393 61.088387 111 82 74
10.290754 16.347591 61.116470 129 99 95
10.791928 -9.128477 63.282757 128 89 85
10.786701 -8.987705 63.252106 121 84 79
10.782032 -8.847523 63.224724 113 78 73
10.777782 -8.707798 63.199806 104 72 68
10.773786 -8.568382 63.176365 102 73 72
10.769846 -8.429111 63.153263 109 82 84
10.765747 -8.289819 63.129234 109 84 92
10.761256 -8.150332 63.102901 96 71 84
10.756134 -8.010489 63.072861 79 55 70
10.750137 -7.870135 63.037701 83 59 75
10.743033 -7.729136 62.996040 106 81 97
10.734603 -7.587379 62.946606 110 83 97
10.724653 -7.444780 62.888264 95 65 78
10.713023 -7.301288 62.820065 95 63 74
10.699594 -7.156887 62.741318 100 64 74
10.684293 -7.011596 62.651596 99 59 67
10.667100 -6.865475 62.550774 107 63 70
10.648050 -6.718616 62.439068 118 74 78
10.627244 -6.571154 62.317062 120 74 77
10.604837 -6.423248 62.185677 118 72 73
10.581049 -6.275089 62.046181 121 77 75
10.556149 -6.126885 61.900166 116 74 71
10.530457 -5.978863 61.749516 108 69 65
10.504336 -5.831251 61.596344 117 80 75
10.478175 -5.684278 61.442940 124 90 86
10.452384 -5.538163 61.291702 112 80 77
10.427378 -5.393105 61.145065 102 71 69
10.403563 -5.249280 61.005421 112 82 81
10.381330 -5.106837 60.875053 118 90 90
10.361040 -4.965886 60.756073 110 84 87
10.343005 -4.826500 60.650314 103 77 85
10.327489 -4.688715 60.559334 102 77 90
10.314701 -4.552525 60.484344 106 80 96
10.304784 -4.417889 60.426189 114 85 104
10.297822 -4.284734 60.385368 119 88 106
10.293836 -4.152956 60.361992 111 78 93
10.292787 -4.022425 60.355843 97 62 72
10.294583 -3.892998 60.366375 93 58 62
10.299093 -3.764517 60.392822 98 61 59
10.306147 -3.636819 60.434181 103 67 60
10.315556 -3.509745 60.489357 124 88 78
10.327121 -3.383139 60.557171 147 112 100
10.340641 -3.256856 60.636456 136 103 89
10.355927 -3.130766 60.726093 108 77 63
10.372811 -3.004751 60.825096 118 91 78
10.391149 -2.878713 60.932625 147 122 111
10.410824 -2.752565 61.048000 152 129 119
10.431750 -2.626234 61.170708 159 136 126
10.453864 -2.499659 61.300381 183 161 150
10.477121 -2.372783 61.436764 195 173 162
10.501490 -2.245557 61.579651 179 156 144
10.526934 -2.117931 61.728851 161 138 126
10.553409 -1.989856 61.884098 168 145 135
10.580850 -1.861282 62.045010 182 159 151
10.609161 -1.732156 62.211025 183 159 150
10.638212 -1.602426 62.381382 188 163 154
10.667832 -1.472040 62.555073 193 168 157
10.697816 -1.340951 62.730888 171 146 132
10.727917 -1.209117 62.907394 149 125 106
10.757867 -1.076507 63.083023 150 125 105
10.787384 -0.943102 63.256111 153 128 107
10.816188 -0.808897 63.425011 163 136 117
10.844009 -0.673903 63.588154 174 145 128
10.870612 -0.538145 63.744148 142 112 96
10.895805 -0.401663 63.891876 91 59 45
10.919452 -0.264506 64.030540 81 49 33
10.941483 -0.126733 64.159721 93 61 44
10.961893 0.011595 64.279411 93 62 45
10.980748 0.150418 64.389977 89 59 42
10.998175 0.289680 64.492165 91 62 48
11.014353 0.429334 64.587029 95 67 56
11.029498 0.569344 64.675842 87 60 54
11.043850 0.709685 64.760002 72 46 45
11.057651 0.850347 64.840927 65 40 43
11.071131 0.991330 64.919968 64 40 45
11.084489 1.132640 64.998306 65 42 47
11.097883 1.274292 65.076843 67 44 48
11.111408 1.416300 65.156151 68 45 48
11.125100 1.558673 65.236443 75 51 53
11.138923 1.701412 65.317497 94 66 68
11.152771 1.844505 65.398705 107 75 79
11.166477 1.987923 65.479073 104 69 72
11.179816 2.131617 65.557289 100 61 62
11.192520 2.275519 65.631790 95 56 54
11.204293 2.419541 65.700821 91 55 49
11.214827 2.563578 65.762589 123 95 85
11.223815 2.707508 65.815292 186 168 156
11.230980 2.851203 65.857307 225 215 206
11.236078 2.994528 65.887207 235 231 226
11.238924 3.137353 65.903893 229 228 230
11.239389 3.279555 65.906616 199 200 207
11.237415 3.421027 65.895050 172 173 184
11.233017 3.561680 65.869255 184 185 197
11.226274 3.701448 65.829712 222 222 230
11.217332 3.840293 65.777275 247 247 250
11.206383 3.978200 65.713074 253 252 254
11.193667 4.115181 65.638512 253 253 254
11.179450 4.251269 65.555138 252 252 252
11.164009 4.386517 65.464600 249 249 249
11.147626 4.520992 65.368530 250 250 250
11.130572 4.654773 65.268532 252 252 252
11.113097 4.787941 65.166054 252 252 252
11.095425 4.920579 65.062431 248 249 248
11.077748 5.052770 64.958771 241 242 241
11.060228 5.184586 64.856033 242 243 241
11.042987 5.316094 64.754936 250 250 249
11.026120 5.447351 64.656036 254 254 254
11.009691 5.578403 64.559692 254 254 254
10.993740 5.709289 64.466164 254 254 254
10.978286 5.840034 64.375534 252 254 254
10.963332 5.970663 64.287849 251 253 253
10.948868 6.101186 64.203033 252 254 254
10.934877 6.231613 64.120995 253 253 254
10.921335 6.361947 64.041580 253 252 253
10.908217 6.492192 63.964661 244 243 245
10.895497 6.622347 63.890072 232 232 234
10.883150 6.752411 63.817669 237 236 238
10.871150 6.882384 63.747303 250 249 250
10.859477 7.012264 63.678852 254 254 254
10.848111 7.142051 63.612206 254 254 254
10.837041 7.271749 63.547291 254 254 254
10.826256 7.401363 63.484047 254 254 254
10.815751 7.530899 63.422451 254 254 254
10.805530 7.660370 63.362511 249 248 249
10.795593 7.789789 63.304249 238 238 239
10.785954 7.919174 63.247726 234 232 234
10.776627 8.048548 63.193027 238 233 235
10.767629 8.177938 63.140266 239 232 232
10.758985 8.307372 63.089577 243 235 233
10.750716 8.436883 63.041088 249 243 241
10.742852 8.566507 62.994980 247 242 242
10.735419 8.696282 62.951389 231 222 225
10.728441 8.826243 62.910477 217 204 207
10.721940 8.956427 62.872353 222 211 213
10.715929 9.086861 62.837101 225 213 216
10.710415 9.217571 62.804771 195 178 183
10.705397 9.348575 62.775341 175 156 162
10.700858 9.479877 62.748726 204 186 191
10.696774 9.611471 62.724777 235 218 220
10.693102 9.743340 62.703251 235 214 213
10.689791 9.875447 62.683826 225 202 198
10.686769 10.007742 62.666107 221 201 193
10.683957 10.140162 62.649624 220 202 191
10.681265 10.272624 62.633839 215 199 185
10.678592 10.405036 62.618160 212 199 183
10.675831 10.537295 62.601974 215 204 188
10.672879 10.669292 62.584660 219 208 194
10.669630 10.800916 62.565613 213 202 190
10.665987 10.932052 62.544250 191 180 171
10.661862 11.062596 62.520061 164 152 145
10.657180 11.192451 62.492603 152 138 134
10.651879 11.321530 62.461525 162 146 145
10.645919 11.449766 62.426575 177 161 162
10.639270 11.577101 62.387581 182 166 168
10.631924 11.703501 62.344501 172 155 160
10.623881 11.828940 62.297344 155 136 143
10.615160 11.953411 62.246201 145 124 133
10.605783 12.076916 62.191216 153 129 140
10.595784 12.199467 62.132584 169 141 152
10.585197 12.321080 62.070503 172 143 153
10.574063 12.441784 62.005219 158 127 136
10.562425 12.561604 61.936974 142 110 115
10.550330 12.680583 61.866047 134 102 103
10.537828 12.798761 61.792740 130 99 96
10.524981 12.916199 61.717403 129 100 92
10.511855 13.032968 61.640438 146 116 106
10.498538 13.149163 61.562344 169 139 129
10.485121 13.264896 61.483665 167 139 130
10.471724 13.380317 61.405109 146 115 113
10.458483 13.495600 61.327465 128 96 100
10.445554 13.610954 61.251652 121 87 99
10.433106 13.726615 61.178658 126 91 110
10.421326 13.842847 61.109577 140 105 129
10.410404 13.959933 61.045536 145 110 136
10.400539 14.078174 60.987690 139 103 130
10.391917 14.197863 60.937130 130 93 120
10.384712 14.319287 60.894878 124 87 112
10.379071 14.442707 60.861801 122 85 107
10.375112 14.568345 60.838585 121 86 103
10.372908 14.696369 60.825661 117 83 94
10.372483 14.826883 60.823174 106 73 77
10.373807 14.959906 60.830933 96 65 63
10.376787 15.095372 60.848408 101 72 61
10.381267 15.233114 60.874676 131 102 85
10.387026 15.372863 60.908447 161 134 112
10.393780 15.514242 60.948051 171 144 120
10.401192 15.656782 60.991512 175 148 125
10.408869 15.799913 61.036533 167 141 120
10.416386 15.942993 61.080616 144 117 103
10.423292 16.085320 61.121113 121 94 86
10.429129 16.226158 61.155338 115 86 84
10.433450 16.364765 61.180676 128 98 101
10.905616 -8.973358 63.151142 136 100 93
10.899660 -8.832399 63.116650 124 91 84
10.894135 -8.691934 63.084660 111 79 74
10.888883 -8.551819 63.054241 104 74 72
10.883715 -8.411901 63.024315 104 75 76
10.878422 -8.272017 62.993664 106 76 81
10.872774 -8.132000 62.960964 101 71 78
10.866536 -7.991690 62.924843 89 58 66
10.859467 -7.850934 62.883904 86 54 62
10.851332 -7.709598 62.836800 99 66 73
10.841911 -7.567567 62.782246 109 74 80
10.831006 -7.424754 62.719097 104 69 72
10.818450 -7.281103 62.646389 100 63 67
10.804117 -7.136591 62.563393 101 62 65
10.787927 -6.991232 62.469639 103 62 65
10.769848 -6.845078 62.364948 108 64 65
10.749908 -6.698217 62.249489 110 64 64
10.728200 -6.550772 62.123775 109 62 61
10.704869 -6.402899 61.988674 116 70 67
10.680128 -6.254783 61.845409 129 84 79
10.654243 -6.106629 61.695518 127 83 77
10.627535 -5.958660 61.540859 115 74 67
10.600362 -5.811102 61.383503 113 76 68
10.573119 -5.664186 61.225750 116 81 75
10.546221 -5.518129 61.069992 111 77 72
10.520091 -5.373137 60.918682 102 70 67
10.495146 -5.229388 60.774235 104 73 70
10.471790 -5.087033 60.638985 108 78 77
10.450393 -4.946188 60.515079 107 78 79
10.431283 -4.806932 60.404423 104 75 81
10.414738 -4.669303 60.308613 104 75 86
10.400978 -4.533300 60.228935 110 79 94
10.390162 -4.398888 60.166302 117 85 102
10.382385 -4.265994 60.121265 118 85 100
10.377676 -4.134517 60.094002 107 72 86
10.376009 -4.004331 60.084343 94 58 67
10.377298 -3.875291 60.091812 93 57 61
10.381418 -3.747241 60.115669 101 65 63
10.388205 -3.620016 60.154964 111 75 70
10.397472 -3.493456 60.208630 128 91 83
10.409022 -3.367404 60.275517 139 105 95
10.422654 -3.241710 60.354454 130 98 85
10.438177 -3.116240 60.444344 116 88 73
10.455419 -2.990875 60.544186 132 107 92
10.474230 -2.865508 60.653111 154 130 117
10.494487 -2.740049 60.770416 150 129 117
10.516095 -2.614421 60.895542 149 128 117
10.538980 -2.488554 61.028065 168 147 137
10.563088 -2.362390 61.167667 185 164 155
10.588373 -2.235872 61.314079 182 160 152
10.614785 -2.108948 61.467030 164 143 135
10.642268 -1.981562 61.626175 155 135 129
10.670740 -1.853663 61.791046 162 142 137
10.700094 -1.725195 61.961021 170 151 146
10.730182 -1.596104 62.135254 180 161 153
10.760822 -1.466336 62.312683 181 163 151
10.791795 -1.335845 62.492035 175 157 139
10.822845 -1.204589 62.671841 181 164 140
10.853696 -1.072538 62.850487 189 170 144
10.884058 -0.939675 63.026306 185 165 138
10.913644 -0.805997 63.197628 192 170 144
10.942186 -0.671516 63.362911 199 174 152
10.969448 -0.536259 63.520771 164 136 116
10.995239 -0.400269 63.670120 112 82 64
11.019429 -0.263596 63.810196 104 73 55
11.041956 -0.126301 63.940643 117 86 66
11.062823 0.011556 64.061485 117 85 64
11.082108 0.149912 64.173157 110 79 58
11.099949 0.288711 64.276459 110 81 62
11.116533 0.427908 64.372498 118 90 74
11.132092 0.567467 64.462601 113 86 76
11.146875 0.707364 64.548195 95 70 65
11.161133 0.847591 64.630760 82 58 58
11.175107 0.988149 64.711685 76 54 56
11.189004 1.129048 64.792160 77 56 58
11.202984 1.270303 64.873108 82 62 62
11.217149 1.411931 64.955132 84 65 63
11.231535 1.553942 65.038437 89 69 66
11.246106 1.696341 65.122818 105 83 80
11.260756 1.839117 65.207649 118 92 91
11.275312 1.982242 65.291939 121 91 93
11.289544 2.125669 65.374352 124 90 95
11.303179 2.269331 65.453308 117 81 87
11.315911 2.413141 65.527039 113 80 84
11.327422 2.556994 65.593689 152 126 127
11.337399 2.700769 65.651466 207 189 186
11.345551 2.844335 65.698677 227 213 211
11.351625 2.987558 65.733849 231 223 223
11.355424 3.130305 65.755844 232 229 231
11.356810 3.272451 65.763863 210 208 213
11.355712 3.413887 65.757515 184 183 190
11.352139 3.554519 65.736824 191 190 200
11.346161 3.694278 65.702202 222 222 228
11.337915 3.833123 65.654457 245 245 247
11.327592 3.971033 65.594681 252 252 253
11.315427 4.108016 65.524231 254 254 254
11.301681 4.244102 65.444633 250 250 250
11.286634 4.379341 65.357506 243 242 242
11.270570 4.513796 65.264481 245 244 243
11.253763 4.647543 65.167160 249 249 248
11.236466 4.780663 65.066994 248 248 247
11.218908 4.913236 64.965324 247 247 245
11.201292 5.045344 64.863312 246 246 245
11.183784 5.177063 64.761925 246 247 245
11.166514 5.308458 64.661926 249 250 249
11.149586 5.439589 64.563896 253 253 253
11.133071 5.570503 64.468262 254 254 254
11.117015 5.701241 64.375282 254 254 254
11.101444 5.831832 64.285118 253 254 254
11.086370 5.962302 64.197830 253 254 254
11.071785 6.092665 64.113373 253 254 254
11.057677 6.222933 64.031685 253 253 254
11.044027 6.353112 63.952641 250 251 252
11.030813 6.483205 63.876122 243 244 245
11.018012 6.613217 63.801991 237 238 239
11.005598 6.743147 63.730106 242 242 243
10.993549 6.872994 63.660332 251 251 251
10.981843 7.002760 63.592552 254 254 254
10.970463 7.132446 63.526649 254 254 254
10.959395 7.262054 63.462563 254 254 254
10.948628 7.391589 63.400215 254 254 254
10.938159 7.521060 63.339584 255 253 255
10.927984 7.650476 63.280670 253 252 253
10.918111 7.779851 63.223495 251 251 251
10.908546 7.909205 63.168110 250 250 250
10.899304 8.038558 63.114594 250 249 249
10.890405 8.167937 63.063053 249 246 246
10.881869 8.297372 63.013630 249 245 245
10.873722 8.426893 62.966450 251 247 247
10.865992 8.556541 62.921688 244 241 245
10.858706 8.686352 62.879505 231 224 233
10.851892 8.816362 62.840046 227 216 225
10.845572 8.946610 62.803444 233 223 230
10.839763 9.077129 62.769806 227 217 224
10.834473 9.207944 62.739174 207 191 201
10.829702 9.339074 62.711548 203 185 195
10.825438 9.470528 62.686848 221 205 211
10.821653 9.602303 62.664940 230 212 216
10.818311 9.734379 62.645584 219 199 199
10.815355 9.866726 62.628468 209 189 185
10.812716 9.999291 62.613186 218 200 194
10.810314 10.132012 62.599274 232 216 206
10.808053 10.264808 62.586182 226 211 197
10.805830 10.397584 62.573311 218 204 187
10.803535 10.530233 62.560020 222 211 193
10.801058 10.662646 62.545677 223 212 197
10.798290 10.794707 62.529648 214 204 190
10.795128 10.926299 62.511333 201 190 180
10.791476 11.057311 62.490189 191 180 173
10.787255 11.187641 62.465752 183 170 168
10.782400 11.317201 62.437634 176 162 163
10.776861 11.445912 62.405563 176 161 164
10.770608 11.573718 62.369350 180 165 170
10.763628 11.700578 62.328934 178 163 170
10.755921 11.826464 62.284302 166 149 159
10.747502 11.951366 62.235554 152 134 145
10.738399 12.075288 62.182835 153 133 144
10.728642 12.198241 62.126343 172 149 160
10.718275 12.320248 62.066307 186 159 169
10.707341 12.441337 62.002995 176 147 156
10.695891 12.561547 61.936687 155 126 131
10.683979 12.680923 61.867706 142 112 113
10.671664 12.799519 61.796398 133 105 101
10.659016 12.917402 61.723156 127 100 92
10.646111 13.034657 61.648430 137 109 99
10.633044 13.151388 61.572758 158 131 121
10.619914 13.267715 61.496723 162 135 127
10.606849 13.383795 61.421070 144 116 112
10.593987 13.499809 61.346592 132 101 104
10.581488 13.615968 61.274212 132 99 110
10.569522 13.732508 61.204922 136 102 119
10.558274 13.849690 61.139786 141 107 129
10.547932 13.967792 61.079899 144 109 134
10.538685 14.087099 61.026352 141 106 132
10.530713 14.207895 60.980190 134 98 124
10.524179 14.330452 60.942356 124 88 113
10.519218 14.455007 60.913631 117 82 106
10.515935 14.581761 60.894611 116 82 102
10.514385 14.710862 60.885643 115 82 97
10.514581 14.842387 60.886772 106 74 82
10.516473 14.976333 60.897728 93 63 63
10.519955 15.112610 60.917892 97 68 61
10.524855 15.251028 60.946266 138 109 96
10.530939 15.391301 60.981499 166 138 120
10.537914 15.533038 61.021893 171 144 122
10.545433 15.675757 61.065434 181 155 133
10.553102 15.818889 61.109837 181 154 136
10.560491 15.961789 61.152622 159 131 120
10.567152 16.103765 61.191200 132 104 99
10.572636 16.244099 61.222954 119 91 93
11.023646 -8.958648 63.047611 139 107 98
11.016356 -8.816903 63.005917 126 96 88
11.009510 -8.675689 62.966759 115 84 79
11.002959 -8.534872 62.929291 108 78 76
10.996523 -8.394305 62.892483 105 73 75
10.990001 -8.253832 62.855183 107 73 77
10.983170 -8.113291 62.816109 107 71 75
10.975797 -7.972525 62.773941 99 60 63
10.967644 -7.831384 62.727314 92 51 53
10.958477 -7.689732 62.674885 99 58 57
10.948075 -7.547456 62.615395 113 71 69
10.936237 -7.404463 62.547688 112 70 67
10.922790 -7.260692 62.470776 104 63 59
10.907600 -7.116117 62.383904 105 63 60
10.890577 -6.970742 62.286549 110 68 65
10.871684 -6.824613 62.178490 111 68 65
10.850936 -6.677809 62.059826 105 61 57
10.828415 -6.530447 61.931023 98 54 49
10.804259 -6.382674 61.792870 109 64 58
10.778672 -6.234669 61.646526 124 81 73
10.751915 -6.086633 61.493496 123 81 73
10.724302 -5.938783 61.335571 113 73 64
10.696195 -5.791345 61.174812 109 72 63
10.667987 -5.644548 61.013481 110 75 67
10.640097 -5.498610 60.853970 109 75 69
10.612955 -5.353738 60.698742 105 72 67
10.586988 -5.210113 60.550228 103 70 67
10.562610 -5.067890 60.410797 104 72 69
10.540201 -4.927190 60.282635 104 72 71
10.520103 -4.788094 60.167690 104 71 76
10.502606 -4.650644 60.067619 108 74 82
10.487944 -4.514847 59.983761 116 80 93
10.476287 -4.380668 59.917095 118 81 95
10.467743 -4.248039 59.868225 111 75 88
10.462350 -4.116861 59.837379 104 68 78
10.460091 -3.987011 59.824463 99 63 69
10.460890 -3.858345 59.829033 99 63 66
10.464627 -3.730706 59.850410 109 73 72
10.471145 -3.603932 59.887684 125 90 85
10.480260 -3.477859 59.939812 136 101 93
10.491776 -3.352328 60.005676 137 103 94
10.505494 -3.227190 60.084137 132 102 90
10.521220 -3.102306 60.174080 126 100 85
10.538780 -2.977553 60.274513 131 107 92
10.558020 -2.852820 60.384548 141 119 105
10.578811 -2.728013 60.503460 143 122 109
10.601048 -2.603048 60.630638 143 122 112
10.624648 -2.477852 60.765617 155 134 126
10.649546 -2.352362 60.908009 173 152 146
10.675681 -2.226515 61.057487 180 159 155
10.702992 -2.100255 61.213692 164 145 142
10.731409 -1.973525 61.376213 147 129 128
10.760835 -1.846267 61.544506 148 133 133
10.791144 -1.718425 61.717861 159 146 145
10.822181 -1.589942 61.895367 165 154 150
10.853747 -1.460765 62.075909 169 158 148
10.885612 -1.330845 62.258148 185 175 159
10.917510 -1.200144 62.440586 202 192 170
10.949157 -1.068632 62.621578 195 184 157
10.980255 -0.936293 62.799438 184 169 142
11.010517 -0.803126 62.972519 186 169 143
11.039673 -0.669146 63.139271 187 167 144
11.067489 -0.534382 63.298355 165 142 123
11.093778 -0.398877 63.448708 140 115 97
11.118417 -0.262685 63.589630 138 111 93
11.141352 -0.125866 63.720802 145 116 96
11.162599 0.011516 63.842319 146 116 95
11.182242 0.149401 63.954666 138 109 86
11.200434 0.287733 64.058708 128 99 78
11.217377 0.426466 64.155609 136 107 90
11.233307 0.565566 64.246719 149 122 109
11.248489 0.705012 64.333557 144 119 110
11.263183 0.844796 64.417587 126 103 98
11.277635 0.984920 64.500244 110 90 87
11.292059 1.125399 64.582741 108 89 86
11.306623 1.266248 64.666031 117 101 96
11.321425 1.407487 64.750694 120 106 98
11.336508 1.549129 64.836960 121 106 97
11.351830 1.691178 64.924591 135 118 110
11.367285 1.833626 65.012985 147 125 121
11.382695 1.976448 65.101120 154 128 129
11.397824 2.119598 65.187653 163 133 139
11.412393 2.263009 65.270966 154 121 131
11.426086 2.406596 65.349289 148 118 129
11.438581 2.550252 65.420746 185 164 171
11.449553 2.693859 65.483498 227 214 217
11.458700 2.837284 65.535812 231 220 223
11.465763 2.980393 65.576210 222 213 217
11.470531 3.123051 65.603477 225 220 223
11.472858 3.265133 65.616791 216 213 217
11.472667 3.406524 65.615700 195 193 199
11.469954 3.547130 65.600182 195 193 201
11.464783 3.686879 65.570602 211 209 216
11.457286 3.825724 65.527725 223 222 226
11.447645 3.963641 65.472588 237 237 239
11.436091 4.100636 65.406509 250 250 250
11.422887 4.236732 65.330986 248 248 247
11.408310 4.371978 65.247612 238 237 236
11.392641 4.506432 65.158005 240 239 238
11.376160 4.640168 65.063736 248 248 246
11.359121 4.773263 64.966293 247 248 245
11.341761 4.905799 64.866997 248 248 246
11.324283 5.037856 64.767036 250 250 249
11.306863 5.169507 64.667412 247 247 246
11.289637 5.300820 64.568893 243 244 243
11.272717 5.431856 64.472115 248 248 248
11.256177 5.562662 64.377525 253 253 253
11.240074 5.693282 64.285423 254 254 254
11.224439 5.823748 64.195999 254 254 254
11.209288 5.954084 64.109344 254 254 254
11.194620 6.084311 64.025459 254 254 254
11.180429 6.214441 63.944302 253 254 253
11.166699 6.344482 63.865772 250 251 251
11.153411 6.474441 63.789772 245 248 247
11.140543 6.604322 63.716179 245 247 246
11.128075 6.734128 63.644867 249 250 249
11.115984 6.863859 63.575714 253 253 253
11.104251 6.993517 63.508610 253 253 253
11.092857 7.123105 63.443451 253 253 253
11.081792 7.252625 63.380161 254 254 254
11.071042 7.382083 63.318680 254 254 254
11.060605 7.511489 63.258984 254 253 254
11.050477 7.640851 63.201061 252 250 252
11.040663 7.770184 63.144932 249 246 248
11.031170 7.899506 63.090641 249 248 249
11.022013 8.028837 63.038265 251 251 252
11.013209 8.158205 62.987919 248 247 248
11.004783 8.287640 62.939724 243 241 243
10.996756 8.417172 62.893814 242 241 244
10.989159 8.546842 62.850365 242 239 246
10.982021 8.676686 62.809540 235 229 242
10.975369 8.806746 62.771496 233 225 240
10.969227 8.937055 62.736366 237 228 241
10.963614 9.067652 62.704269 227 217 229
10.958541 9.198563 62.675251 219 206 218
10.954010 9.329810 62.649334 228 216 225
10.950007 9.461402 62.626442 236 223 228
10.946510 9.593339 62.606445 224 207 210
10.943480 9.725605 62.589115 200 180 180
10.940863 9.858167 62.574142 181 163 159
10.938586 9.990977 62.561127 197 182 175
10.936570 10.123971 62.549595 228 215 204
10.934715 10.257067 62.538982 232 218 204
10.932917 10.390170 62.528694 225 213 196
10.931060 10.523174 62.518078 226 216 199
10.929031 10.655965 62.506477 215 207 191
10.926718 10.788423 62.493244 196 188 175
10.924008 10.920428 62.477749 189 180 170
10.920806 11.051868 62.459431 197 187 182
10.917023 11.182634 62.437794 205 193 194
10.912589 11.312634 62.412441 200 186 190
10.907453 11.441786 62.383060 190 176 182
10.901578 11.570027 62.349461 185 170 177
10.894949 11.697314 62.311546 180 164 174
10.887565 11.823619 62.269318 174 158 168
10.879443 11.948930 62.222862 166 147 158
10.870607 12.073248 62.172329 162 142 153
10.861096 12.196589 62.117931 175 153 164
10.850953 12.318980 62.059925 190 165 175
10.840231 12.440455 61.998600 185 159 166
10.828985 12.561059 61.934284 167 139 143
10.817279 12.680845 61.867329 151 123 124
10.805180 12.799878 61.798130 139 113 109
10.792766 12.918236 61.727135 129 104 97
10.780123 13.036010 61.654823 130 105 96
10.767352 13.153316 61.581783 147 122 112
10.754561 13.270283 61.508629 157 132 124
10.741882 13.387074 61.436115 146 120 115
10.729459 13.503873 61.365063 137 108 110
10.717451 13.620894 61.296383 145 113 122
10.706030 13.738372 61.231060 152 120 135
10.695374 13.856562 61.170124 150 116 135
10.685671 13.975732 61.114624 143 108 131
10.677099 14.096158 61.065598 137 103 127
10.669830 14.218109 61.024029 131 97 121
10.664015 14.341836 60.990768 122 87 111
10.659776 14.467557 60.966518 114 80 102
10.657201 14.595454 60.951794 112 79 98
10.656334 14.725647 60.946835 111 79 94
10.657167 14.858191 60.951603 104 72 82
10.659638 14.993057 60.965736 91 60 64
10.663625 15.130135 60.988533 94 63 61
10.668941 15.269214 61.018940 129 99 91
10.675341 15.409988 61.055542 151 121 108
10.682520 15.552055 61.096603 154 125 109
10.690125 15.694924 61.140099 168 140 124
10.697757 15.838021 61.183750 176 148 135
10.704988 15.980707 61.225101 161 134 125
10.711373 16.122299 61.261623 136 109 107
10.716470 16.262093 61.290771 120 94 97
11.140888 -8.943662 62.942146 135 105 99
11.132233 -8.801136 62.893242 125 95 90
11.124033 -8.659177 62.846916 116 87 84
11.116152 -8.517661 62.802391 112 81 82
11.108418 -8.376449 62.758701 109 75 78
11.100641 -8.235393 62.714760 111 73 76
11.092605 -8.094337 62.669357 111 70 71
11.084081 -7.953126 62.621201 105 60 58
11.074836 -7.811615 62.568970 98 51 47
11.064638 -7.669669 62.511360 107 58 52
11.053266 -7.527171 62.447105 123 74 65
11.040514 -7.384027 62.375065 118 71 61
11.026206 -7.240173 62.294231 105 60 51
11.010201 -7.095573 62.203812 108 66 57
10.992403 -6.950229 62.103252 118 76 68
10.972760 -6.804175 61.992279 115 74 66
10.951281 -6.657483 61.870926 103 62 55
10.928033 -6.510261 61.739586 93 53 45
10.903149 -6.362649 61.598995 101 60 51
10.876820 -6.214818 61.450249 114 73 64
10.849298 -6.066963 61.294765 114 73 64
10.820899 -5.919297 61.134315 110 71 62
10.791974 -5.772041 60.970898 109 71 62
10.762919 -5.625422 60.806751 111 74 67
10.734158 -5.479661 60.644260 111 77 70
10.706122 -5.334962 60.485870 110 75 69
10.679248 -5.191510 60.334034 108 74 69
10.653954 -5.049462 60.191132 107 73 69
10.630634 -4.908943 60.059387 106 70 68
10.609641 -4.770036 59.940784 106 70 72
10.591278 -4.632792 59.837036 113 75 80
10.575788 -4.497216 59.749519 119 80 88
10.563353 -4.363280 59.679272 114 75 83
10.554091 -4.230919 59.626945 103 66 73
10.548055 -4.100037 59.592838 103 66 71
10.545232 -3.970512 59.576893 108 72 74
10.545556 -3.842202 59.578724 116 81 81
10.548915 -3.714953 59.597698 129 94 92
10.555155 -3.588602 59.632950 140 106 102
10.564097 -3.462986 59.683475 138 104 98
10.575550 -3.337943 59.748180 132 99 91
10.589314 -3.213323 59.825943 137 107 96
10.605197 -3.088984 59.915672 138 111 98
10.623020 -2.964801 60.016373 127 103 90
10.642627 -2.840659 60.127136 125 104 92
10.663881 -2.716459 60.247223 135 113 103
10.686672 -2.592114 60.375980 142 120 112
10.710908 -2.467547 60.512901 149 126 122
10.736509 -2.342688 60.657543 162 140 138
10.763408 -2.217473 60.809509 174 153 153
10.791526 -2.091838 60.968369 165 146 149
10.820780 -1.965725 61.133644 146 131 135
10.851059 -1.839074 61.304707 141 130 135
10.882226 -1.711824 61.480789 146 138 142
10.914106 -1.583919 61.660904 149 143 144
10.946493 -1.455305 61.843880 166 160 157
10.979142 -1.325933 62.028336 200 195 187
11.011782 -1.195765 62.212738 205 199 185
11.044118 -1.064773 62.395424 177 168 149
11.075850 -0.932942 62.574703 168 156 136
11.106689 -0.800274 62.748928 174 160 141
11.136364 -0.666786 62.916580 172 156 140
11.164644 -0.532507 63.076355 166 148 135
11.191351 -0.397485 63.227242 166 146 134
11.216367 -0.261772 63.368572 171 148 137
11.239649 -0.125430 63.500107 175 149 137
11.261221 0.011476 63.621983 179 152 138
11.281182 0.148887 63.734756 171 144 127
11.299693 0.286748 63.839336 153 125 108
11.316969 0.425013 63.936939 162 136 119
11.333258 0.563649 64.028961 191 167 153
11.348831 0.702638 64.116951 198 176 164
11.363957 0.841974 64.202408 178 157 148
11.378891 0.981661 64.286781 157 138 131
11.393850 1.121714 64.371292 153 137 131
11.409002 1.262153 64.456894 165 151 144
11.424452 1.402998 64.544182 166 154 145
11.440237 1.544264 64.633362 163 151 141
11.456317 1.685958 64.724205 175 161 153
11.472579 1.828073 64.816078 186 170 165
11.488841 1.970584 64.907959 194 175 174
11.504864 2.113447 64.998482 199 176 180
11.520360 2.256597 65.086029 184 157 167
11.535009 2.399949 65.168793 176 150 163
11.548477 2.543397 65.244881 205 187 197
11.560435 2.686822 65.312439 237 228 235
11.570572 2.830093 65.369705 239 231 237
11.578619 2.973074 65.415169 219 210 218
11.584356 3.115630 65.447586 212 204 212
11.587633 3.257634 65.466095 218 212 219
11.588361 3.398971 65.470207 218 213 220
11.586528 3.539542 65.459846 213 210 216
11.582192 3.679275 65.435356 196 194 201
11.575478 3.818116 65.397423 185 184 189
11.566564 3.956042 65.347061 206 206 208
11.555674 4.093051 65.285538 238 238 238
11.543069 4.229167 65.214325 246 245 245
11.529022 4.364429 65.134964 237 236 235
11.513819 4.498898 65.049072 239 238 237
11.497735 4.632641 64.958199 249 248 248
11.481029 4.765734 64.863815 251 251 250
11.463939 4.898257 64.767265 251 251 250
11.446675 5.030287 64.669731 251 251 250
11.429417 5.161899 64.572227 243 244 243
11.412307 5.293159 64.475563 235 237 236
11.395460 5.424127 64.380386 240 242 241
11.378961 5.554855 64.287170 251 251 251
11.362868 5.685385 64.196259 254 254 254
11.347223 5.815752 64.107864 254 254 254
11.332044 5.945982 64.022110 254 254 254
11.317337 6.076097 63.939018 255 255 255
11.303099 6.206110 63.858578 254 254 254
11.289319 6.336033 63.780724 252 253 252
11.275982 6.465876 63.705376 249 252 250
11.263069 6.595641 63.632423 250 252 251
11.250563 6.725335 63.561768 253 254 253
11.238443 6.854960 63.493294 253 253 253
11.226692 6.984520 63.426907 251 250 251
11.215293 7.114016 63.362503 252 251 252
11.204233 7.243454 63.300022 254 253 254
11.193504 7.372841 63.239407 254 254 254
11.183101 7.502184 63.180630 254 252 254
11.173020 7.631495 63.123680 245 242 244
11.163266 7.760787 63.068569 233 228 231
11.153846 7.890079 63.015350 234 231 234
11.144774 8.019391 62.964100 245 244 245
11.136067 8.148749 62.914909 237 237 239
11.127748 8.278184 62.867912 220 219 225
11.119842 8.407727 62.823238 222 222 229
11.112376 8.537417 62.781063 237 235 245
11.105382 8.667294 62.741543 239 234 249
11.098887 8.797396 62.704853 232 225 246
11.092917 8.927761 62.671124 228 218 240
11.087492 9.058427 62.640472 219 207 228
11.082624 9.189423 62.612972 220 209 225
11.078317 9.320770 62.588634 238 231 238
11.074559 9.452483 62.567410 244 235 238
11.071330 9.584561 62.549164 228 212 214
11.068588 9.716990 62.533676 198 180 179
11.066281 9.849738 62.520641 168 153 148
11.064339 9.982759 62.509666 179 165 157
11.062677 10.115990 62.500278 218 206 194
11.061195 10.249346 62.491909 233 223 209
11.059788 10.382735 62.483952 234 225 210
11.058334 10.516048 62.475742 234 226 212
11.056721 10.649170 62.466625 214 208 194
11.054825 10.781979 62.455917 181 175 165
11.052536 10.914352 62.442986 166 159 153
11.049749 11.046172 62.427238 176 166 166
11.046373 11.177328 62.408169 192 180 185
11.042335 11.307723 62.385349 198 184 193
11.037575 11.437274 62.358459 196 179 191
11.032057 11.565912 62.327282 188 169 183
11.025763 11.693593 62.291725 179 159 173
11.018690 11.820286 62.251766 177 157 170
11.010854 11.945978 62.207493 174 153 165
11.002283 12.070674 62.159077 169 146 158
10.993019 12.194391 62.106735 174 149 160
