ply
format ascii 1.0
element vertex 1239
property float x
property float y
property float z
property uchar red
property uchar green
property uchar blue
end_header
-1.619960 1.351290 69.009018 58 32 31
-1.619518 1.499641 68.990211 58 32 30
-1.618966 1.647798 68.966675 57 31 29
-1.618297 1.795726 68.938194 57 32 30
-1.617507 1.943383 68.904518 57 32 31
-1.616588 2.090730 68.865387 57 32 33
-1.615535 2.237722 68.820534 58 33 35
-1.614342 2.384314 68.769707 59 33 37
-1.613004 2.530460 68.712723 60 33 37
-1.611518 2.676113 68.649414 60 32 37
-1.609881 2.821230 68.579689 60 32 36
-1.608094 2.965767 68.503532 61 32 36
-1.606157 3.109689 68.421036 62 32 36
-1.604076 3.252961 68.332375 62 32 36
-1.601857 3.395558 68.237846 62 32 36
-1.599509 3.537464 68.137833 62 32 35
-1.597044 3.678667 68.032806 61 32 35
-1.594474 3.819168 67.923347 60 32 35
-1.591816 3.958977 67.810120 60 32 34
-1.589086 4.098113 67.693832 60 33 35
-1.586303 4.236605 67.575264 60 34 35
-1.583485 4.374489 67.455215 59 33 34
-1.580651 4.511812 67.334511 58 32 34
-1.577821 4.648624 67.213943 58 32 34
-1.575013 4.784984 67.094322 57 31 34
-1.572244 4.920949 66.976364 57 31 33
-1.569530 5.056584 66.860756 57 32 34
-1.566885 5.191948 66.748070 57 33 35
-1.564320 5.327100 66.638802 57 33 36
-1.561844 5.462090 66.533310 57 34 37
-1.559462 5.596967 66.431862 58 34 36
-1.557178 5.731765 66.334572 58 35 37
-1.554992 5.866511 66.241432 58 35 38
-1.552900 6.001221 66.152321 58 35 38
-1.550897 6.135900 66.067001 58 35 38
-1.548976 6.270540 65.985153 58 36 38
-1.547127 6.405127 65.906387 59 37 39
-1.545339 6.539635 65.830254 60 38 41
-1.543604 6.674038 65.756310 61 37 41
-1.541910 6.808306 65.684143 60 36 39
-1.540248 6.942410 65.613365 58 35 37
-1.538612 7.076328 65.543686 57 33 35
-1.536998 7.210046 65.474922 55 32 33
-1.535405 7.343565 65.407036 54 31 33
-1.533833 7.476900 65.340088 54 32 33
-1.532289 7.610083 65.274315 54 31 33
-1.530781 7.743166 65.210083 54 31 33
-1.529321 7.876218 65.147888 55 31 32
-1.527923 8.009323 65.088310 55 31 31
-1.526601 8.142582 65.032005 55 30 30
-1.525373 8.276104 64.979675 54 30 29
-1.524254 8.410005 64.932007 54 29 29
-1.523260 8.544401 64.889671 54 29 30
-1.522405 8.679408 64.853256 54 30 30
-1.521700 8.815127 64.823235 54 30 31
-1.521154 8.951649 64.799957 54 30 31
-1.520770 9.089042 64.783607 54 30 31
-1.520549 9.227353 64.774200 54 30 32
-1.520487 9.366603 64.771561 54 31 33
-1.520576 9.506783 64.775337 55 32 34
-1.520802 9.647853 64.784981 55 32 35
-1.521149 9.789742 64.799774 55 33 35
-1.521597 9.932350 64.818848 56 34 36
-1.522121 10.075549 64.841187 58 34 37
-1.522696 10.219180 64.865646 58 35 37
-1.523291 10.363061 64.891022 58 35 37
-1.523878 10.506989 64.916023 58 34 36
-1.524425 10.650746 64.939316 59 34 36
-1.524900 10.794099 64.959564 59 34 36
-1.525274 10.936806 64.975456 59 34 36
-1.525515 11.078626 64.985756 60 34 36
-1.525598 11.219319 64.989265 60 34 36
-1.525496 11.358656 64.984924 59 34 36
-1.525187 11.496416 64.971786 57 34 35
-1.524654 11.632406 64.949074 57 34 34
-1.523882 11.766451 64.916176 56 33 34
-1.522860 11.898407 64.872658 55 33 33
-1.521584 12.028164 64.818306 55 33 33
-1.520053 12.155645 64.753075 55 33 34
-1.518270 12.280812 64.677139 56 33 35
-1.516245 12.403664 64.590843 57 34 36
-1.513988 12.524233 64.494720 58 34 36
-1.511517 12.642593 64.389450 58 34 36
-1.508851 12.758852 64.275887 57 33 35
-1.506013 12.873145 64.154961 57 33 36
-1.503026 12.985636 64.027725 56 34 36
-1.499917 13.096513 63.895290 56 35 36
-1.496713 13.205982 63.758812 56 35 36
-1.493443 13.314267 63.619492 55 35 36
-1.490133 13.421602 63.478512 53 34 35
-1.486813 13.528232 63.337078 52 33 36
-1.483510 13.634408 63.196377 52 33 36
-1.480251 13.740382 63.057522 52 32 36
-1.477061 13.846408 62.921627 52 31 35
-1.473965 13.952738 62.789738 52 30 34
-1.470986 14.059621 62.662846 52 30 33
-1.468146 14.167300 62.541885 52 30 31
-1.465466 14.276011 62.427719 52 30 30
-1.462964 14.385982 62.321133 51 30 30
-1.460656 14.497418 62.222820 51 30 30
-1.458557 14.610518 62.133377 50 30 30
-1.456677 14.725454 62.053303 51 32 31
-1.455026 14.842376 61.982960 51 33 33
-1.453609 14.961410 61.922615 51 33 33
-1.452430 15.082654 61.872402 51 33 33
-1.451490 15.206178 61.832336 50 33 32
-1.450786 15.332023 61.802334 51 33 33
-1.450312 15.460205 61.782177 52 33 33
-1.450064 15.590718 61.771606 52 33 34
-1.450033 15.723537 61.770271 53 33 34
-1.450210 15.858625 61.777802 52 32 34
-1.450585 15.995934 61.793777 53 33 34
-1.451149 16.135414 61.817818 56 36 37
-1.451894 16.277021 61.849537 61 40 41
-1.452811 16.420712 61.888596 60 38 40
-1.453893 16.566452 61.934689 55 33 33
-1.455134 16.714218 61.987564 52 31 32
-1.456529 16.863998 62.047001 53 32 33
-1.458074 17.015778 62.112808 55 35 35
-1.459764 17.169546 62.184784 60 40 41
-1.461593 17.325287 62.262737 65 46 46
-1.463558 17.482973 62.346432 64 46 46
-1.465651 17.642559 62.435574 57 41 41
-1.467863 17.803978 62.529800 53 37 35
-1.470183 17.967136 62.628670 52 37 34
-1.472601 18.131903 62.731636 52 37 34
-1.475100 18.298132 62.838093 52 37 34
-1.477664 18.465631 62.947323 52 37 34
-1.480275 18.634197 63.058563 51 37 34
-1.482914 18.803596 63.170990 52 37 34
-1.407026 -5.109860 65.998848 55 32 34
-1.410950 -4.981443 66.182899 54 32 34
-1.414752 -4.851816 66.361267 54 31 33
-1.418422 -4.720975 66.533379 53 31 33
-1.421946 -4.588925 66.698685 52 30 32
-1.425315 -4.455678 66.856720 52 30 32
-1.428520 -4.321254 67.007080 53 30 32
-1.431556 -4.185685 67.149475 54 31 33
-1.434417 -4.049010 67.283691 54 31 33
-1.437103 -3.911277 67.409645 55 31 33
-1.439613 -3.772543 67.527390 55 31 33
-1.441951 -3.632868 67.637070 56 31 34
-1.444124 -3.492318 67.738976 56 31 34
-1.446138 -3.350963 67.833450 56 31 34
-1.448004 -3.208872 67.920975 56 31 33
-1.449733 -3.066114 68.002075 56 30 33
-1.451337 -2.922755 68.077316 56 30 33
-1.452829 -2.778857 68.147308 56 29 33
-1.454222 -2.634478 68.212646 56 30 33
-1.455528 -2.489669 68.273933 56 31 34
-1.456760 -2.344476 68.331703 55 31 35
-1.457928 -2.198937 68.386482 54 31 35
-1.459041 -2.053085 68.438675 54 31 34
-1.460106 -1.906945 68.488647 54 31 34
-1.461129 -1.760540 68.536652 54 31 33
-1.462115 -1.613886 68.582886 54 30 32
-1.463065 -1.466997 68.627434 54 30 31
-1.463979 -1.319883 68.670319 54 29 31
-1.464856 -1.172556 68.711479 55 29 31
-1.465694 -1.025023 68.750793 56 30 32
-1.466490 -0.877295 68.788101 59 33 35
-1.467238 -0.729384 68.823212 63 38 40
-1.467935 -0.581300 68.855911 60 36 39
-1.468576 -0.433059 68.885979 55 32 36
-1.469157 -0.284676 68.913223 53 31 34
-1.469674 -0.136171 68.937462 53 30 33
-1.470123 0.012439 68.958542 53 29 33
-1.470502 0.161132 68.976326 54 29 32
-1.470809 0.309886 68.990700 55 29 32
-1.471041 0.458679 69.001602 55 30 31
-1.471198 0.607488 69.008934 56 31 31
-1.471277 0.756289 69.012642 58 32 32
-1.471276 0.905056 69.012619 59 33 32
-1.471195 1.053766 69.008789 59 33 32
-1.471029 1.202390 69.001015 59 33 32
-1.470775 1.350900 68.989120 60 33 31
-1.470429 1.499265 68.972893 59 33 31
-1.469986 1.647450 68.952110 58 32 30
-1.469440 1.795420 68.926476 57 32 30
-1.468784 1.943135 68.895699 58 33 32
-1.468011 2.090551 68.859474 58 33 34
-1.467116 2.237623 68.817482 59 33 36
-1.466092 2.384305 68.769455 60 33 37
-1.464934 2.530548 68.715134 60 32 37
-1.463638 2.676305 68.654343 61 32 37
-1.462202 2.821530 68.586983 61 32 36
-1.460626 2.966179 68.513023 61 32 36
-1.458910 3.110213 68.432571 62 32 35
-1.457061 3.253600 68.345810 62 33 35
-1.455083 3.396316 68.253067 62 33 35
-1.452987 3.538342 68.154747 61 33 35
-1.450784 3.679672 68.051392 60 33 35
-1.448486 3.820308 67.943619 59 32 34
-1.446110 3.960263 67.832130 58 32 34
-1.443670 4.099559 67.717705 59 33 35
-1.441185 4.238228 67.601158 59 33 35
-1.438674 4.376313 67.483337 58 32 34
-1.436153 4.513861 67.365097 57 31 34
-1.433641 4.650928 67.247261 57 31 34
-1.431154 4.787572 67.130623 57 31 34
-1.428709 4.923855 67.015915 57 31 33
-1.426318 5.059839 66.903786 58 32 34
-1.423994 5.195581 66.794769 58 33 35
-1.421746 5.331138 66.689316 58 33 36
-1.419580 5.466557 66.587708 58 34 36
-1.417499 5.601876 66.490128 58 34 36
-1.415506 5.737124 66.396599 59 35 37
-1.413596 5.872320 66.307014 58 35 38
-1.411765 6.007467 66.221169 58 35 38
-1.410008 6.142560 66.138725 58 36 38
-1.408314 6.277583 66.059265 58 36 38
-1.406674 6.412508 65.982338 61 38 40
-1.405077 6.547302 65.907425 64 41 44
-1.403513 6.681929 65.834053 65 42 45
-1.401971 6.816351 65.761757 64 40 43
-1.400445 6.950535 65.690155 61 37 39
-1.398928 7.084458 65.618988 59 35 36
-1.397416 7.218104 65.548096 57 33 34
-1.395911 7.351476 65.477486 55 32 34
-1.394415 7.484592 65.407310 55 31 34
-1.392935 7.617493 65.337875 55 31 34
-1.391480 7.750237 65.269638 56 31 33
-1.390063 7.882902 65.203178 56 31 32
-1.388699 8.015584 65.139191 56 31 31
-1.387403 8.148392 65.078407 56 30 30
-1.386192 8.281446 65.021614 56 30 30
-1.385083 8.414873 64.969597 55 30 30
-1.384091 8.548800 64.923073 55 30 31
-1.383230 8.683346 64.882683 56 31 31
-1.382511 8.818623 64.848946 56 31 32
-1.381942 8.954725 64.822227 56 31 33
-1.381526 9.091725 64.802742 56 32 33
-1.381265 9.229674 64.790497 55 32 33
-1.381155 9.368592 64.785324 55 31 34
-1.381187 9.508472 64.786850 55 32 34
-1.381351 9.649273 64.794525 55 32 35
-1.381630 9.790923 64.807594 56 32 35
-1.382004 9.933321 64.825172 57 32 36
-1.382453 10.076333 64.846230 58 34 36
-1.382951 10.219802 64.869598 59 35 37
-1.383473 10.363542 64.894035 59 35 37
-1.383989 10.507350 64.918251 59 35 37
-1.384471 10.651005 64.940887 59 34 36
-1.384892 10.794271 64.960602 60 34 36
-1.385221 10.936910 64.976074 60 35 37
-1.385434 11.078675 64.986046 61 35 37
-1.385504 11.219332 64.989334 63 37 38
-1.385409 11.358645 64.984863 62 37 38
-1.385128 11.496401 64.971695 59 36 36
-1.384646 11.632404 64.949066 57 35 35
-1.383948 11.766484 64.916359 57 35 35
-1.383027 11.898499 64.873161 57 35 35
-1.381878 12.028339 64.819252 57 35 35
-1.380500 12.155935 64.754623 57 35 36
-1.378898 12.281252 64.679451 58 35 36
-1.377079 12.404291 64.594116 59 35 37
-1.375054 12.525093 64.499146 59 35 37
-1.372839 12.643735 64.395264 59 34 36
-1.370453 12.760328 64.283325 58 34 35
-1.367915 12.875014 64.164284 57 33 36
-1.365248 12.987961 64.039185 57 34 36
-1.362476 13.099360 63.909180 57 36 37
-1.359625 13.209421 63.775414 57 36 37
-1.356718 13.318366 63.639076 55 35 36
-1.353782 13.426431 63.501350 53 34 35
-1.350842 13.533860 63.363434 53 33 36
-1.347922 13.640903 63.226479 52 32 36
-1.345046 13.747804 63.091579 53 32 36
-1.342237 13.854809 62.959805 53 31 35
-1.339516 13.962166 62.832165 53 31 34
-1.336903 14.070111 62.709599 53 30 33
-1.334417 14.178880 62.593002 53 31 33
-1.332075 14.288694 62.483177 52 30 32
-1.329894 14.399768 62.380856 52 31 31
-1.327886 14.512299 62.286682 52 31 31
-1.326064 14.626468 62.201210 51 32 31
-1.324437 14.742440 62.124882 51 33 32
-1.323012 14.860353 62.058037 51 33 33
-1.321794 14.980325 62.000896 52 34 33
-1.320785 15.102445 61.953590 52 34 33
-1.319986 15.226778 61.916107 52 34 33
-1.319394 15.353364 61.888355 53 34 34
-1.319006 15.482215 61.870136 53 34 35
-1.318815 15.613328 61.861191 54 34 35
-1.318815 15.746679 61.861187 54 34 35
-1.318998 15.882236 61.869774 54 34 35
-1.319356 16.019955 61.886570 55 34 36
-1.319882 16.159792 61.911213 57 36 37
-1.320567 16.301710 61.943348 59 37 39
-1.321405 16.445669 61.982658 58 36 37
-1.322390 16.591646 62.028877 56 33 35
-1.323518 16.739618 62.081760 55 33 35
-1.324783 16.889574 62.141106 55 34 36
-1.326182 17.041508 62.206730 57 36 38
-1.327711 17.195406 62.278446 61 41 42
-1.329365 17.351254 62.356060 65 46 47
-1.331141 17.509024 62.439335 64 46 46
-1.333031 17.668671 62.527981 58 41 40
-1.335027 17.830122 62.621624 53 37 36
-1.337120 17.993282 62.719810 52 36 34
-1.339299 18.158024 62.822006 52 37 34
-1.341550 18.324192 62.927589 52 37 35
-1.343858 18.491602 63.035854 52 37 35
-1.346207 18.660046 63.146034 51 37 34
-1.348579 18.829292 63.257320 51 37 34
-1.350957 18.999094 63.368855 52 37 35
-1.265942 -5.114659 66.060829 55 32 33
-1.269376 -4.985742 66.240021 54 31 33
-1.272706 -4.855654 66.413765 54 31 33
-1.275919 -4.724387 66.581467 53 30 32
-1.279006 -4.591942 66.742538 53 30 32
-1.281956 -4.458327 66.896477 53 30 32
-1.284761 -4.323561 67.042862 53 31 32
-1.287415 -4.187672 67.181358 54 31 33
-1.289914 -4.050699 67.311760 55 32 34
-1.292257 -3.912689 67.433983 55 32 33
-1.294443 -3.773698 67.548058 56 32 33
-1.296476 -3.633785 67.654160 56 31 33
-1.298361 -3.493018 67.752548 56 31 33
-1.300107 -3.351466 67.843620 56 30 33
-1.301720 -3.209196 67.927834 56 30 33
-1.303213 -3.066279 68.005730 56 30 32
-1.304596 -2.922780 68.077888 57 29 32
-1.305880 -2.778760 68.144920 57 30 33
-1.307078 -2.634277 68.207428 57 30 34
-1.308201 -2.489381 68.266014 57 31 35
-1.309259 -2.344116 68.321205 57 32 35
-1.310261 -2.198520 68.373505 56 32 35
-1.311216 -2.052625 68.423340 55 32 35
-1.312130 -1.906455 68.471046 55 32 35
-1.313008 -1.760032 68.516884 55 32 35
-1.313854 -1.613372 68.561020 55 31 34
-1.314669 -1.466486 68.603554 55 30 33
-1.315454 -1.319387 68.644501 55 30 32
-1.316207 -1.172084 68.683807 56 30 32
-1.316927 -1.024584 68.721352 57 30 32
-1.317610 -0.876899 68.756989 59 32 35
-1.318253 -0.729037 68.790535 60 34 38
-1.318852 -0.581012 68.821808 58 34 38
-1.319404 -0.432837 68.850609 55 31 36
-1.319905 -0.284526 68.876770 54 31 35
-1.320353 -0.136097 68.900131 54 30 34
-1.320745 0.012432 68.920586 54 29 33
-1.321078 0.161042 68.937996 55 29 32
-1.321352 0.309714 68.952286 55 29 32
-1.321565 0.458425 68.963402 56 30 31
-1.321716 0.607157 68.971268 57 32 32
-1.321803 0.755885 68.975822 58 33 32
-1.321825 0.904589 68.976959 59 33 32
-1.321779 1.053244 68.974586 59 33 32
-1.321664 1.201824 68.968544 60 34 32
-1.321474 1.350303 68.958633 60 34 32
-1.321205 1.498650 68.944611 60 33 32
-1.320852 1.646832 68.926201 59 33 31
-1.320409 1.794811 68.903084 59 33 31
-1.319870 1.942549 68.874924 59 33 32
-1.319226 2.090000 68.841347 59 34 34
-1.318473 2.237120 68.802025 60 34 35
-1.317603 2.383860 68.756622 60 33 37
-1.316611 2.530171 68.704872 61 33 37
-1.315494 2.676002 68.646568 61 32 37
-1.314248 2.821308 68.581589 61 31 36
-1.312875 2.966043 68.509895 62 31 35
-1.311374 3.110169 68.431602 62 32 35
-1.309751 3.253652 68.346909 62 33 35
-1.308012 3.396469 68.256142 62 33 35
-1.306165 3.538603 68.159775 61 33 35
-1.304222 3.680049 68.058365 60 33 35
-1.302194 3.820811 67.952560 58 32 34
-1.300097 3.960905 67.843132 57 32 34
-1.297946 4.100356 67.730881 57 33 34
-1.295758 4.239202 67.616676 57 33 34
-1.293548 4.377484 67.501396 56 32 33
-1.291336 4.515257 67.385925 56 31 33
-1.289135 4.652577 67.271103 57 31 34
-1.286962 4.789505 67.157722 57 31 34
-1.284831 4.926103 67.046509 57 31 34
-1.282754 5.062433 66.938087 58 31 34
-1.280739 5.198551 66.832954 58 32 35
-1.278794 5.334509 66.731491 59 33 36
-1.276925 5.470350 66.633919 59 33 36
-1.275131 5.606106 66.540344 59 34 36
-1.273414 5.741799 66.450699 59 35 37
-1.271768 5.877438 66.364807 59 35 37
-1.270187 6.013016 66.282341 58 35 36
-1.268665 6.148520 66.202888 58 35 36
-1.267190 6.283920 66.125961 57 34 35
-1.265754 6.419182 66.051018 61 38 39
-1.264346 6.554263 65.977501 68 44 45
-1.262954 6.689117 65.904877 70 46 47
-1.261570 6.823702 65.832672 68 43 45
-1.260187 6.957980 65.760521 64 39 41
-1.258801 7.091924 65.688141 61 36 38
-1.257407 7.225519 65.615440 58 34 35
-1.256009 7.358770 65.542458 56 32 34
-1.254609 7.491700 65.469421 56 32 35
-1.253216 7.624352 65.396706 56 32 35
-1.251839 7.756794 65.324860 56 32 35
-1.250491 7.889113 65.254555 57 32 34
-1.249188 8.021412 65.186554 57 31 33
-1.247945 8.153811 65.121689 57 31 33
-1.246779 8.286439 65.060822 57 30 32
-1.245705 8.419431 65.004791 57 30 32
-1.244739 8.552922 64.954384 57 31 32
-1.243894 8.687039 64.910286 57 32 33
-1.243181 8.821900 64.873047 57 32 33
-1.242606 8.957604 64.843071 57 33 33
-1.242175 9.094226 64.820557 57 33 34
-1.241887 9.231818 64.805542 56 32 33
-1.241740 9.370404 64.797852 56 32 33
-1.241725 9.509975 64.797096 55 31 34
-1.241833 9.650492 64.802704 55 31 34
-1.242048 9.791880 64.813927 55 31 34
-1.242353 9.934037 64.829849 56 31 34
-1.242728 10.076830 64.849426 58 33 35
-1.243151 10.220098 64.871483 59 36 37
-1.243597 10.363656 64.894753 60 36 38
-1.244041 10.507298 64.917931 59 35 38
-1.244457 10.650805 64.939674 59 34 37
-1.244820 10.793942 64.958618 60 35 36
-1.245105 10.936467 64.973450 61 35 37
-1.245286 11.078141 64.982910 62 37 38
-1.245342 11.218724 64.985817 64 39 40
-1.245251 11.357988 64.981110 63 39 40
-1.244997 11.495720 64.967850 60 37 37
-1.244565 11.631727 64.945290 57 35 36
-1.243943 11.765842 64.912819 58 36 36
-1.243123 11.897926 64.870041 58 37 37
-1.242102 12.027877 64.816757 58 37 37
-1.240880 12.155626 64.752975 59 37 37
-1.239460 12.281143 64.678879 59 37 37
-1.237850 12.404436 64.594864 59 37 37
-1.236060 12.525547 64.501488 59 36 36
-1.234105 12.644561 64.399475 58 35 36
-1.232001 12.761590 64.289680 58 34 35
-1.229767 12.876781 64.173080 57 33 36
-1.227422 12.990304 64.050743 58 35 37
-1.224989 13.102352 63.923775 58 37 38
-1.222490 13.213136 63.793350 58 37 37
-1.219947 13.322879 63.660637 56 35 36
-1.217382 13.431812 63.526802 54 33 35
-1.214818 13.540178 63.393013 53 32 35
-1.212277 13.648221 63.260399 53 32 35
-1.209779 13.756180 63.130024 53 32 36
-1.207342 13.864292 63.002895 54 32 35
-1.204987 13.972794 62.879990 53 31 35
-1.202730 14.081913 62.762199 53 31 34
-1.200586 14.191871 62.650352 53 30 33
-1.198571 14.302877 62.545197 53 31 32
-1.196698 14.415133 62.447418 52 31 31
-1.194976 14.528821 62.357601 52 32 31
-1.193417 14.644114 62.276249 51 33 31
-1.192028 14.761158 62.203758 51 33 31
-1.190815 14.880086 62.140438 51 33 31
-1.189781 15.001001 62.086475 51 33 32
-1.188928 15.123991 62.041977 52 34 34
-1.188256 15.249113 62.006924 53 34 34
-1.187764 15.376404 61.981228 54 34 35
-1.187447 15.505876 61.964691 54 35 35
-1.187301 15.637527 61.957066 55 35 36
-1.187320 15.771338 61.958061 55 34 35
-1.187498 15.907282 61.967342 55 34 36
-1.187828 16.045322 61.984573 56 35 37
-1.188304 16.185423 62.009411 57 36 37
-1.188920 16.327555 62.041553 58 36 38
-1.189670 16.471687 62.080719 58 36 37
-1.190551 16.617800 62.126659 56 34 36
-1.191557 16.765884 62.179173 56 34 36
-1.192686 16.915932 62.238083 57 34 37
-1.193934 17.067940 62.303215 58 36 38
-1.195298 17.221897 62.374393 60 39 41
-1.196774 17.377792 62.451435 62 42 43
-1.198359 17.535599 62.534103 62 42 43
-1.200045 17.695267 62.622097 58 39 40
-1.201826 17.856724 62.715050 54 37 37
-1.203694 18.019871 62.812492 52 36 35
-1.205637 18.184580 62.913883 52 36 35
-1.207643 18.350691 63.018589 52 37 35
-1.209700 18.518017 63.125900 52 37 35
-1.211791 18.686350 63.235046 51 37 34
-1.213902 18.855453 63.345211 51 36 34
-1.216017 19.025087 63.455551 51 36 34
-1.121434 -5.247221 65.937134 55 31 34
-1.124479 -5.118947 66.116211 55 31 34
-1.127447 -4.989558 66.290726 55 31 34
-1.130327 -4.859036 66.460030 55 30 33
-1.133106 -4.727367 66.623459 54 30 32
-1.135776 -4.594548 66.780411 54 29 32
-1.138326 -4.460584 66.930336 54 30 32
-1.140749 -4.325491 67.072792 53 31 32
-1.143039 -4.189298 67.207443 54 32 33
-1.145192 -4.052041 67.334053 55 33 34
-1.147207 -3.913766 67.452538 56 33 34
-1.149085 -3.774529 67.562943 56 32 34
-1.150828 -3.634391 67.665428 56 32 33
-1.152441 -3.493418 67.760292 56 31 33
-1.153932 -3.351678 67.847923 56 30 32
-1.155307 -3.209242 67.928810 56 30 32
-1.156578 -3.066178 68.003494 56 29 32
-1.157752 -2.922551 68.072571 57 29 33
-1.158842 -2.778423 68.136658 57 30 34
-1.159858 -2.633849 68.196358 58 31 35
-1.160809 -2.488879 68.252266 58 32 35
-1.161704 -2.343557 68.304924 58 33 35
-1.162553 -2.197919 68.354820 57 33 35
-1.163361 -2.051995 68.402359 57 34 36
-1.164136 -1.905810 68.447876 57 33 37
-1.164879 -1.759383 68.491615 57 33 36
-1.165596 -1.612730 68.533745 57 32 35
-1.166286 -1.465862 68.574333 57 32 34
-1.166951 -1.318789 68.613396 57 31 33
-1.167588 -1.171522 68.650879 58 31 33
-1.168197 -1.024067 68.686668 58 31 34
-1.168774 -0.876435 68.720619 58 32 35
-1.169318 -0.728635 68.752571 58 33 37
-1.169824 -0.580679 68.782326 57 33 37
-1.170290 -0.432580 68.809746 56 32 37
-1.170714 -0.284352 68.834663 55 31 36
-1.171093 -0.136012 68.856956 55 30 34
-1.171426 0.012424 68.876526 55 30 33
-1.171711 0.160938 68.893288 56 30 33
-1.171947 0.309511 68.907173 56 30 32
-1.172134 0.458125 68.918144 57 31 33
-1.172270 0.606759 68.926140 57 33 33
-1.172354 0.755395 68.931122 58 33 33
-1.172386 0.904012 68.932976 58 33 32
-1.172363 1.052587 68.931610 58 32 32
-1.172282 1.201098 68.926842 60 33 33
-1.172139 1.349517 68.918465 60 34 33
-1.171931 1.497815 68.906204 60 33 33
-1.171651 1.645961 68.889763 59 34 32
-1.171294 1.793917 68.868774 59 34 32
-1.170853 1.941645 68.842873 59 34 33
-1.170322 2.089099 68.811653 60 35 34
-1.169695 2.236233 68.774734 60 35 35
-1.168964 2.382999 68.731766 60 34 36
-1.168125 2.529345 68.682442 61 33 36
-1.167174 2.675221 68.626534 61 32 36
-1.166109 2.820580 68.563904 62 31 35
-1.164929 2.965377 68.494507 62 31 34
-1.163635 3.109571 68.418457 62 32 34
-1.162232 3.253131 68.335953 63 33 35
-1.160725 3.396032 68.247360 63 33 35
-1.159123 3.538259 68.153152 62 34 36
-1.157435 3.679809 68.053917 60 34 35
-1.155674 3.820687 67.950356 58 33 35
-1.153852 3.960912 67.843254 57 33 35
-1.151985 4.100513 67.733467 56 33 35
-1.150087 4.239528 67.621880 56 32 34
-1.148175 4.378004 67.509415 55 32 34
-1.146262 4.515996 67.396957 55 32 34
-1.144364 4.653564 67.285378 56 31 34
-1.142495 4.790770 67.175461 56 31 34
-1.140666 4.927676 67.067924 57 31 34
-1.138887 5.064343 66.963348 58 31 34
-1.137167 5.200828 66.862213 58 32 35
-1.135511 5.337175 66.764839 59 32 35
-1.133922 5.473426 66.671387 59 33 35
-1.132399 5.609606 66.581879 59 33 35
-1.130942 5.745728 66.496178 59 33 35
-1.129544 5.881795 66.414009 59 34 35
-1.128200 6.017792 66.334976 59 34 35
-1.126901 6.153693 66.258583 59 34 35
-1.125637 6.289462 66.184273 59 34 35
-1.124398 6.425054 66.111427 62 37 38
-1.123174 6.560417 66.039452 67 42 44
-1.121955 6.695501 65.967773 69 43 46
-1.120733 6.830256 65.895905 68 42 44
-1.119500 6.964640 65.823456 65 39 41
-1.118254 7.098624 65.750206 62 36 38
-1.116993 7.232194 65.676048 59 34 36
-1.115719 7.365354 65.601097 57 33 35
-1.114435 7.498132 65.525635 57 33 36
-1.113150 7.630578 65.450104 57 33 36
-1.111875 7.762764 65.375130 58 33 36
-1.110622 7.894783 65.301453 58 33 37
-1.109406 8.026750 65.229927 59 33 36
-1.108241 8.158789 65.161446 59 32 35
-1.107144 8.291039 65.096939 58 31 34
-1.106130 8.423643 65.037308 58 32 34
-1.105213 8.556742 64.983391 58 32 34
-1.104405 8.690468 64.935898 58 33 34
-1.103717 8.824944 64.895424 58 33 34
-1.103155 8.960273 64.862381 58 34 34
-1.102723 9.096533 64.836998 57 33 34
-1.102422 9.233777 64.819298 57 33 34
-1.102249 9.372031 64.809105 56 32 33
-1.102196 9.511287 64.806030 55 31 33
-1.102255 9.651503 64.809494 55 30 33
-1.102412 9.792606 64.818733 55 30 33
-1.102652 9.934494 64.832832 55 30 33
-1.102957 10.077032 64.850723 58 32 35
-1.103305 10.220059 64.871231 61 36 38
-1.103677 10.363392 64.893097 61 37 39
-1.104050 10.506825 64.915009 60 36 39
-1.104400 10.650141 64.935616 60 35 37
-1.104706 10.793103 64.953568 60 35 37
-1.104944 10.935475 64.967560 61 36 37
-1.105093 11.077020 64.976334 62 37 38
-1.105134 11.217501 64.978729 63 39 40
-1.105048 11.356692 64.973694 63 39 40
-1.104820 11.494387 64.960312 60 37 38
-1.104438 11.630395 64.937843 57 36 36
-1.103891 11.764553 64.905701 58 37 37
-1.103174 11.896729 64.863510 58 38 38
-1.102282 12.026823 64.811073 59 38 38
-1.101217 12.154772 64.748421 59 38 38
-1.099981 12.280551 64.675758 59 38 38
-1.098581 12.404170 64.593483 59 38 38
-1.097028 12.525678 64.502159 59 37 37
-1.095334 12.645160 64.402527 58 35 36
-1.093512 12.762733 64.295441 58 34 36
-1.091581 12.878548 64.181885 58 34 36
-1.089558 12.992771 64.062904 59 36 38
-1.087461 13.105598 63.939613 59 39 39
-1.085310 13.217238 63.813160 58 39 39
-1.083125 13.327913 63.684696 56 36 36
-1.080925 13.437850 63.555359 54 34 35
-1.078730 13.547286 63.426292 53 33 34
-1.076558 13.656458 63.298576 53 32 35
-1.074426 13.765596 63.173237 54 33 35
-1.072352 13.874929 63.051239 54 32 35
-1.070349 13.984684 62.933502 54 32 35
-1.068433 14.095074 62.820854 54 32 34
-1.066617 14.206307 62.714081 54 31 34
-1.064913 14.318582 62.613873 53 31 33
-1.063331 14.432081 62.520844 52 31 32
-1.061880 14.546979 62.435535 51 32 31
-1.060568 14.663431 62.358402 51 32 30
-1.059401 14.781573 62.289791 51 32 31
-1.058384 14.901526 62.229977 51 32 31
-1.057519 15.023385 62.179119 51 33 32
-1.056808 15.147228 62.137299 52 33 34
-1.056250 15.273109 62.104504 53 34 34
-1.055844 15.401063 62.080627 54 34 35
-1.055586 15.531103 62.065502 54 34 35
-1.055474 15.663230 62.058903 54 34 35
-1.055502 15.797428 62.060555 55 34 35
-1.055666 15.933678 62.070168 56 34 35
-1.055960 16.071951 62.087444 57 35 36
-1.056379 16.212225 62.112091 58 36 37
-1.056919 16.354475 62.143848 60 38 39
-1.057576 16.498684 62.182472 60 37 38
-1.058346 16.644846 62.227772 58 35 37
-1.059227 16.792953 62.279568 57 35 37
-1.060216 16.943010 62.337711 57 34 37
-1.061311 17.095018 62.402058 57 35 38
-1.062508 17.248972 62.472454 59 38 39
-1.063805 17.404863 62.548717 60 40 41
-1.065198 17.562662 62.630611 60 40 41
-1.066681 17.722322 62.717846 57 39 39
-1.068249 17.883768 62.810032 54 37 37
-1.069893 18.046896 62.906693 53 36 37
-1.071604 18.211575 63.007275 53 36 37
-1.073370 18.377638 63.111126 53 37 37
-1.075180 18.544899 63.217533 52 37 35
-1.077019 18.713139 63.325699 52 36 35
-1.078875 18.882124 63.434807 51 36 34
-1.080732 19.051603 63.543995 51 36 35
-1.082576 19.221313 63.652382 51 37 35
-0.980096 -5.251510 65.991035 57 31 35
-0.982686 -5.122757 66.165421 56 30 34
-0.985212 -4.992928 66.335495 56 30 34
-0.987663 -4.861998 66.500534 56 30 34
-0.990029 -4.729950 66.659859 55 30 33
-0.992301 -4.596777 66.812820 55 30 32
-0.994470 -4.462483 66.958832 55 30 32
-0.996528 -4.327081 67.097443 54 31 33
-0.998472 -4.190598 67.228287 55 32 34
-1.000296 -4.053069 67.351135 56 34 34
-1.002001 -3.914541 67.465889 56 34 34
-1.003586 -3.775069 67.572617 57 33 34
-1.005054 -3.634717 67.671494 57 32 34
-1.006410 -3.493548 67.762817 56 31 33
-1.007661 -3.351633 67.847008 56 30 32
-1.008813 -3.209042 67.924561 55 29 31
-1.009874 -3.065842 67.996033 56 29 32
-1.010855 -2.922099 68.062042 56 29 33
-1.011763 -2.777875 68.123215 57 30 33
-1.012609 -2.633223 68.180145 58 31 34
-1.013400 -2.488193 68.233437 58 32 35
-1.014146 -2.342827 68.283630 58 33 35
-1.014852 -2.197160 68.331200 57 34 35
-1.015525 -2.051221 68.376534 58 35 36
-1.016170 -1.905033 68.419960 59 35 38
-1.016790 -1.758615 68.461700 59 35 38
-1.017387 -1.611981 68.501907 59 35 37
-1.017963 -1.465142 68.540642 59 34 36
-1.018516 -1.318107 68.577904 59 33 35
-1.019047 -1.170886 68.613625 60 32 35
-1.019553 -1.023486 68.647697 60 32 35
-1.020032 -0.875916 68.679970 59 32 35
-1.020482 -0.728187 68.710297 59 32 36
-1.020901 -0.580309 68.738487 58 32 36
-1.021286 -0.432295 68.764420 57 32 37
-1.021636 -0.284159 68.787949 57 32 37
-1.021948 -0.135917 68.808983 57 32 36
-1.022222 0.012415 68.827431 57 32 35
-1.022457 0.160821 68.843254 58 32 34
-1.022652 0.309283 68.856407 58 32 34
-1.022808 0.457784 68.866859 58 32 35
-1.022923 0.606306 68.874596 59 33 35
-1.022996 0.754830 68.879562 59 33 34
-1.023028 0.903339 68.881683 58 33 33
-1.023015 1.051812 68.880836 58 32 32
-1.022956 1.200227 68.876862 60 33 33
-1.022847 1.348559 68.869530 60 33 33
-1.022684 1.496780 68.858566 60 33 33
-1.022463 1.644858 68.843628 60 34 33
-1.022176 1.792760 68.824341 60 35 33
-1.021819 1.940444 68.800301 60 35 34
-1.021385 2.087867 68.771088 60 36 34
-1.020868 2.234982 68.736275 61 36 35
-1.020262 2.381741 68.695488 61 35 36
-1.019563 2.528091 68.648399 61 34 36
-1.018767 2.673983 68.594765 61 33 35
-1.017870 2.819367 68.534416 62 32 34
-1.016873 2.964199 68.467308 62 32 34
-1.015778 3.108439 68.393539 62 32 34
-1.014587 3.252054 68.313332 63 33 34
-1.013305 3.395021 68.227043 63 34 35
-1.011941 3.537325 68.135170 62 34 35
-1.010502 3.678965 68.038322 61 35 35
-1.009001 3.819948 67.937225 59 35 35
-1.007448 3.960295 67.832687 58 34 35
-1.005858 4.100037 67.725601 57 34 36
-1.004243 4.239213 67.616867 56 33 35
-1.002617 4.377875 67.507423 55 33 35
-1.000995 4.516079 67.398193 55 32 34
-0.999389 4.653886 67.290031 55 31 34
-0.997810 4.791359 67.183723 56 31 34
-0.996269 4.928562 67.079971 57 31 34
-0.994774 5.065553 66.979340 57 32 34
-0.993332 5.202385 66.882248 58 32 34
-0.991947 5.339106 66.788986 58 32 34
-0.990620 5.475746 66.699654 59 32 34
-0.989351 5.612329 66.614197 59 32 34
-0.988137 5.748860 66.532425 59 32 34
-0.986972 5.885334 66.453972 59 33 34
-0.985849 6.021729 66.378372 60 33 34
-0.984760 6.158009 66.305061 60 34 35
-0.983696 6.294132 66.233414 61 35 36
-0.982646 6.430042 66.162758 63 37 38
-0.981602 6.565683 66.092453 66 39 41
-0.980555 6.700995 66.021904 67 40 42
-0.979496 6.835926 65.950607 66 39 42
-0.978420 6.970428 65.878166 64 38 40
-0.977324 7.104473 65.804375 61 36 38
-0.976207 7.238044 65.729179 59 34 36
-0.975071 7.371149 65.652710 58 33 36
-0.973922 7.503817 65.575310 58 34 36
-0.972766 7.636102 65.497482 59 35 38
-0.971614 7.768082 65.419914 61 36 39
-0.970478 7.899857 65.343422 61 36 40
-0.969371 8.031547 65.268906 61 35 39
-0.968308 8.163282 65.197334 61 34 38
-0.967303 8.295210 65.129692 60 33 36
-0.966371 8.427478 65.066917 60 33 36
-0.965524 8.560231 65.009895 61 34 36
-0.964774 8.693609 64.959366 60 34 35
-0.964129 8.827736 64.915955 60 34 35
-0.963596 8.962716 64.880074 59 34 34
-0.963179 9.098634 64.851974 58 33 34
-0.962877 9.235541 64.831680 57 32 33
-0.962689 9.373466 64.819016 56 32 33
-0.962609 9.512397 64.813591 56 31 33
-0.962627 9.652298 64.814835 56 30 33
-0.962733 9.793094 64.821960 56 30 33
-0.962913 9.934682 64.834061 56 30 33
-0.963150 10.076930 64.850067 58 32 35
-0.963429 10.219677 64.868805 61 36 38
-0.963729 10.362742 64.889038 63 38 40
-0.964032 10.505923 64.909431 62 37 40
-0.964318 10.649002 64.928680 61 36 38
-0.964567 10.791751 64.945427 61 35 38
-0.964759 10.933932 64.958389 61 36 38
-0.964877 11.075315 64.966339 62 37 38
-0.964904 11.215670 64.968124 62 38 39
-0.964823 11.354773 64.962708 62 38 40
-0.964623 11.492422 64.949211 60 38 39
-0.964292 11.628435 64.926903 59 37 38
-0.963821 11.762654 64.895226 58 38 38
-0.963206 11.894951 64.853813 58 38 38
-0.962444 12.025230 64.802490 58 38 38
-0.961535 12.153436 64.741302 59 38 39
-0.960483 12.279545 64.670464 60 38 39
-0.959293 12.403573 64.590370 60 38 39
-0.957975 12.525570 64.501610 60 38 38
-0.956539 12.645625 64.404900 59 37 37
-0.954997 12.763857 64.301102 59 36 37
-0.953365 12.880413 64.191185 59 36 37
-0.951657 12.995464 64.076180 60 38 39
-0.949889 13.109200 63.957188 60 40 40
-0.948079 13.221829 63.835323 59 40 40
-0.946244 13.333567 63.711708 57 37 37
-0.944398 13.444635 63.587452 55 35 35
-0.942559 13.555264 63.463646 54 33 35
-0.940743 13.665685 63.341343 54 33 36
-0.938963 13.776114 63.221504 54 34 36
-0.937234 13.886772 63.105053 55 34 36
-0.935567 13.997871 62.992844 54 33 36
-0.933975 14.109614 62.885666 54 33 35
-0.932469 14.222197 62.784225 54 33 34
-0.931057 14.335798 62.689159 54 32 34
-0.929748 14.450593 62.601036 53 32 33
-0.928549 14.566735 62.520329 51 32 32
-0.927467 14.684371 62.447449 50 32 31
-0.926505 14.803624 62.382713 50 31 31
-0.925668 14.924601 62.326336 50 31 31
-0.924957 15.047390 62.278469 50 32 32
-0.924374 15.172063 62.239178 51 33 33
-0.923917 15.298670 62.208435 52 33 34
-0.923586 15.427241 62.186150 53 33 35
-0.923378 15.557794 62.172165 53 33 35
-0.923291 15.690329 62.166271 54 33 34
-0.923320 15.824842 62.168251 54 33 35
-0.923463 15.961318 62.177841 56 34 36
-0.923715 16.099743 62.194801 58 36 38
-0.924072 16.240099 62.218884 61 39 41
-0.924533 16.382380 62.249882 65 43 45
-0.925093 16.526581 62.287613 65 42 44
-0.925751 16.672703 62.331917 61 37 40
-0.926505 16.820755 62.382671 58 35 38
-0.927353 16.970747 62.439762 56 34 37
-0.928293 17.122690 62.503075 57 36 38
-0.929324 17.276585 62.572464 60 39 41
-0.930442 17.432426 62.647774 61 41 43
-0.931645 17.590187 62.728767 60 40 41
-0.932928 17.749819 62.815151 56 38 39
-0.934285 17.911242 62.906521 54 36 37
-0.935709 18.074350 63.002396 53 37 38
-0.937191 18.239008 63.102192 53 37 38
-0.938722 18.405045 63.205250 53 37 38
-0.940289 18.572262 63.310814 53 37 37
-0.941883 18.740438 63.418087 52 37 35
-0.943489 18.909332 63.526218 52 37 35
-0.945094 19.078690 63.634338 51 37 35
-0.946687 19.248240 63.741547 51 37 35
-0.836247 -5.383501 65.865463 59 32 36
-0.838448 -5.255312 66.038811 58 31 35
-0.840606 -5.126115 66.208786 57 31 35
-0.842712 -4.995875 66.374649 57 31 35
-0.844756 -4.864564 66.535645 56 31 34
-0.846729 -4.732162 66.691032 56 31 33
-0.848622 -4.598657 66.840134 56 31 33
-0.850428 -4.464050 66.982353 56 31 34
-0.852140 -4.328355 67.117195 56 32 34
-0.853753 -4.191596 67.244301 56 33 34
-0.855266 -4.053808 67.363419 57 34 35
-0.856676 -3.915040 67.474487 57 34 34
-0.857985 -3.775345 67.577553 58 34 34
-0.859194 -3.634788 67.672829 58 33 34
-0.860309 -3.493435 67.760620 57 32 34
-0.861334 -3.351355 67.841377 56 31 33
-0.862277 -3.208619 67.915611 56 30 32
-0.863144 -3.065295 67.983902 56 29 32
-0.863943 -2.921448 68.046875 57 29 33
-0.864683 -2.777139 68.105171 58 30 34
-0.865372 -2.632421 68.159401 58 31 35
-0.866016 -2.487344 68.210152 58 32 35
-0.866623 -2.341946 68.257957 58 33 35
-0.867199 -2.196262 68.303299 59 34 36
-0.867748 -2.050321 68.346535 60 36 37
-0.868274 -1.904142 68.387978 61 37 39
-0.868780 -1.757745 68.427841 62 38 40
-0.869268 -1.611141 68.466240 62 37 39
-0.869737 -1.464342 68.503227 62 36 38
-0.870189 -1.317355 68.538788 62 35 37
-0.870621 -1.170190 68.572838 63 34 37
-0.871032 -1.022853 68.605247 62 34 37
-0.871421 -0.875354 68.635872 61 33 37
-0.871786 -0.727702 68.664566 60 33 37
-0.872123 -0.579909 68.691162 58 32 36
-0.872432 -0.431987 68.715523 59 34 37
-0.872712 -0.283951 68.737534 59 34 37
-0.872961 -0.135814 68.757126 60 34 37
-0.873178 0.012406 68.774239 60 34 36
-0.873364 0.160694 68.788857 59 33 35
-0.873517 0.309034 68.800949 59 33 36
-0.873639 0.457409 68.810532 59 34 37
-0.873728 0.605804 68.817589 60 34 36
-0.873786 0.754201 68.822098 60 34 36
-0.873810 0.902583 68.824005 60 33 35
-0.873800 1.050932 68.823196 60 33 34
-0.873753 1.199227 68.819511 60 33 33
-0.873667 1.347446 68.812729 61 33 33
-0.873537 1.495562 68.802544 61 33 34
-0.873361 1.643544 68.788628 61 34 34
-0.873132 1.791359 68.770576 61 35 35
-0.872845 1.938968 68.747978 61 36 35
-0.872494 2.086328 68.720375 61 36 35
-0.872075 2.233391 68.687332 61 36 35
-0.871581 2.380110 68.648453 61 36 35
-0.871009 2.526433 68.603371 61 35 35
-0.870354 2.672309 68.551834 61 34 35
-0.869616 2.817691 68.493652 62 33 35
-0.868792 2.962532 68.428787 62 33 35
-0.867885 3.106793 68.357315 63 33 35
-0.866896 3.250441 68.279457 63 33 35
-0.865831 3.393455 68.195580 63 34 35
-0.864696 3.535820 68.106178 63 34 36
-0.863499 3.677536 68.011887 62 35 36
-0.862249 3.818611 67.913437 60 35 36
-0.860957 3.959068 67.811668 59 36 36
-0.859634 4.098939 67.707481 58 35 36
-0.858292 4.238268 67.601791 57 34 35
-0.856944 4.377106 67.495560 56 33 35
-0.855600 4.515510 67.389702 55 32 35
-0.854271 4.653543 67.285072 55 32 34
-0.852968 4.791270 67.182465 55 32 33
-0.851700 4.928752 67.082558 56 32 34
-0.850473 5.066048 66.985886 57 32 34
-0.849291 5.203210 66.892845 57 32 34
-0.848159 5.340279 66.803658 58 32 34
-0.847076 5.477284 66.718384 58 32 34
-0.846042 5.614244 66.636925 58 32 34
-0.845053 5.751157 66.559006 59 32 35
-0.844103 5.888011 66.484200 59 32 35
-0.843186 6.024778 66.411987 60 32 35
-0.842294 6.161416 66.341743 61 33 36
-0.841419 6.297872 66.272766 62 35 36
-0.840550 6.434086 66.204369 64 36 38
-0.839680 6.569994 66.135857 65 37 40
-0.838801 6.705533 66.066620 65 38 41
-0.837906 6.840644 65.996124 65 37 40
-0.836991 6.975278 65.924004 63 36 39
-0.836052 7.109404 65.850052 61 35 38
-0.835089 7.243005 65.774231 60 34 37
-0.834105 7.376091 65.696724 60 33 36
-0.833104 7.508692 65.617912 60 34 36
-0.832094 7.640867 65.538353 62 36 39
-0.831084 7.772696 65.458778 65 39 42
-0.830084 7.904286 65.380058 66 39 43
-0.829108 8.035759 65.303139 65 38 41
-0.828167 8.167253 65.229042 64 37 39
-0.827275 8.298918 65.158798 63 35 37
-0.826445 8.430905 65.093384 62 35 36
-0.825687 8.563366 65.033699 62 35 36
-0.825012 8.696439 64.980515 62 35 36
-0.824427 8.830255 64.934479 62 35 36
-0.823939 8.964918 64.896019 61 34 35
-0.823550 9.100513 64.865379 59 33 35
-0.823261 9.237096 64.842590 58 33 34
-0.823069 9.374691 64.827499 57 33 34
-0.822970 9.513294 64.819702 57 32 34
-0.822956 9.652864 64.818634 57 31 34
-0.823018 9.793329 64.823517 57 31 34
-0.823145 9.934589 64.833450 57 31 34
-0.823321 10.076512 64.847382 59 33 36
-0.823534 10.218944 64.864151 62 36 39
-0.823767 10.361700 64.882507 64 38 42
-0.824005 10.504587 64.901184 63 38 41
-0.824229 10.647390 64.918854 62 36 39
-0.824424 10.789886 64.934212 62 35 39
-0.824573 10.931845 64.945992 62 36 38
-0.824662 11.073041 64.952995 62 37 39
-0.824676 11.213247 64.954094 62 38 39
-0.824603 11.352253 64.948296 61 38 39
-0.824430 11.489859 64.934723 60 39 40
-0.824151 11.625889 64.912689 59 38 39
-0.823756 11.760192 64.881645 58 38 39
-0.823244 11.892646 64.841248 57 38 38
-0.822610 12.023162 64.791351 58 38 38
-0.821856 12.151687 64.731987 59 38 39
-0.820985 12.278202 64.663391 60 39 40
-0.820002 12.402727 64.585968 61 39 40
-0.818915 12.525312 64.500282 61 39 40
-0.817731 12.646049 64.407051 61 38 39
-0.816462 12.765055 64.307137 61 38 38
-0.815121 12.882475 64.201462 61 38 39
-0.813719 12.998477 64.091034 62 40 41
-0.812270 13.113250 63.976944 61 41 41
-0.810789 13.226994 63.860256 59 40 40
-0.809288 13.339918 63.742058 57 38 38
-0.807782 13.452239 63.623413 56 36 36
-0.806283 13.564178 63.505371 55 35 35
-0.804805 13.675951 63.388927 55 35 36
-0.803358 13.787770 63.274998 55 35 37
-0.801954 13.899842 63.164444 55 35 37
-0.800604 14.012364 63.058067 55 35 36
-0.799315 14.125528 62.956593 55 34 35
-0.798098 14.239514 62.860676 55 34 35
-0.796958 14.354489 62.770893 55 34 35
-0.795902 14.470612 62.687759 54 33 34
-0.794936 14.588022 62.611691 52 33 33
-0.794065 14.706853 62.543060 51 32 32
-0.793291 14.827215 62.482128 50 31 32
-0.792618 14.949207 62.429096 50 31 32
-0.792047 15.072906 62.384079 51 32 33
-0.791578 15.198380 62.347134 51 32 34
-0.791211 15.325670 62.318230 52 33 35
-0.790945 15.454812 62.297287 52 33 35
-0.790778 15.585819 62.284161 52 32 34
-0.790708 15.718700 62.278683 52 32 34
-0.790734 15.853457 62.280666 53 33 35
-0.790851 15.990086 62.289906 54 34 37
-0.791058 16.128580 62.306206 58 37 41
-0.791352 16.268942 62.329384 66 44 48
-0.791732 16.411173 62.359287 73 51 54
-0.792195 16.555285 62.395790 71 49 51
-0.792741 16.701292 62.438797 62 40 43
-0.793369 16.849216 62.488228 57 35 38
-0.794077 16.999081 62.544006 55 34 37
-0.794865 17.150904 62.606060 59 37 40
-0.795731 17.304693 62.674267 64 43 45
-0.796673 17.460447 62.748478 65 45 47
-0.797689 17.618145 62.828472 61 42 43
-0.798774 17.777731 62.913937 56 38 39
-0.799923 17.939133 63.004475 53 36 37
-0.801131 18.102230 63.099575 54 37 38
-0.802388 18.266886 63.198639 54 38 39
-0.803688 18.432919 63.300968 54 38 39
-0.805019 18.600122 63.405788 54 39 38
-0.806370 18.768269 63.512268 53 38 38
-0.807732 18.937109 63.619530 53 38 37
-0.809093 19.106377 63.726681 53 38 37
-0.810440 19.275791 63.832790 53 39 37
-0.811763 19.445078 63.936966 53 39 37
-0.694750 -5.387276 65.911644 60 34 37
-0.696532 -5.258642 66.080650 59 33 37
-0.698280 -5.129035 66.246498 59 33 37
-0.699987 -4.998416 66.408401 59 34 37
-0.701643 -4.866752 66.565559 59 33 36
-0.703241 -4.734018 66.717194 59 33 36
-0.704774 -4.600202 66.862595 59 33 36
-0.706234 -4.465302 67.001137 59 33 35
-0.707617 -4.329330 67.132317 59 33 35
-0.708918 -4.192309 67.255753 59 34 35
-0.710135 -4.054277 67.371216 59 35 36
-0.711267 -3.915280 67.478630 59 35 36
-0.712316 -3.775375 67.578079 59 35 35
-0.713282 -3.634624 67.669777 58 34 35
-0.714171 -3.493097 67.754074 57 32 35
-0.714986 -3.350863 67.831421 56 31 34
-0.715734 -3.207993 67.902367 56 31 33
-0.716421 -3.064556 67.967522 56 30 33
-0.717053 -2.920617 68.027512 57 31 34
-0.717638 -2.776235 68.082993 58 31 35
-0.718182 -2.631464 68.134590 58 32 35
-0.718691 -2.486350 68.182892 58 33 35
-0.719171 -2.340932 68.228416 59 34 36
-0.719626 -2.195245 68.271637 60 35 37
-0.720061 -2.049312 68.312904 62 37 39
-0.720478 -1.903155 68.352501 63 39 41
-0.720880 -1.756789 68.390610 64 39 41
-0.721267 -1.610226 68.427338 64 39 41
-0.721640 -1.463476 68.462708 64 37 40
-0.721998 -1.316546 68.496681 65 36 39
-0.722340 -1.169444 68.529144 65 35 39
-0.722665 -1.022178 68.559975 65 35 38
-0.722971 -0.874756 68.589005 64 34 38
-0.723257 -0.727189 68.616089 61 33 37
-0.723520 -0.579486 68.641052 59 33 36
-0.723760 -0.431662 68.663788 60 34 36
-0.723975 -0.283730 68.684174 61 35 37
-0.724164 -0.135706 68.702179 62 35 38
-0.724328 0.012396 68.717751 61 35 37
-0.724467 0.160559 68.730896 60 34 36
-0.724580 0.308767 68.741631 60 34 36
-0.724668 0.457007 68.749977 60 34 37
-0.724731 0.605261 68.755966 60 34 37
-0.724770 0.753516 68.759598 60 34 37
-0.724782 0.901754 68.760818 60 33 36
-0.724769 1.049960 68.759552 60 33 34
-0.724728 1.198115 68.755653 61 32 34
-0.724657 1.346196 68.748894 61 33 34
-0.724552 1.494180 68.738976 61 34 34
-0.724411 1.642038 68.725578 61 34 35
-0.724229 1.789737 68.708282 62 35 36
-0.724001 1.937239 68.686668 62 36 36
-0.723723 2.084503 68.660271 62 37 36
-0.723389 2.231482 68.628624 62 36 36
-0.722996 2.378129 68.591324 62 36 36
-0.722539 2.524393 68.547997 61 35 35
-0.722016 2.670224 68.498352 61 35 35
-0.721424 2.815574 68.442207 61 34 35
-0.720763 2.960397 68.379486 62 34 35
-0.720033 3.104655 68.310280 63 34 35
-0.719238 3.248315 68.234787 63 34 36
-0.718380 3.391356 68.153381 63 35 36
-0.717465 3.533764 68.066559 63 35 36
-0.716499 3.675539 67.974960 62 35 36
-0.715491 3.816693 67.879318 61 35 36
-0.714449 3.957247 67.780472 60 35 36
-0.713383 4.097236 67.679344 59 35 36
-0.712303 4.236705 67.576859 58 34 36
-0.711218 4.375705 67.473961 57 33 35
-0.710139 4.514296 67.371582 56 32 35
-0.709074 4.652541 67.270576 55 33 34
-0.708032 4.790503 67.171715 56 33 34
-0.707020 4.928245 67.075661 56 33 34
-0.706042 5.065825 66.982933 56 33 34
-0.705104 5.203290 66.893883 57 33 34
-0.704206 5.340682 66.808701 57 33 34
-0.703349 5.478024 66.727386 57 33 35
-0.702531 5.615329 66.649811 57 33 35
-0.701749 5.752594 66.575623 58 32 35
-0.700998 5.889798 66.504379 59 32 35
-0.700272 6.026908 66.435471 60 33 36
-0.699563 6.163876 66.368225 61 34 36
-0.698864 6.300643 66.301926 62 35 37
-0.698167 6.437143 66.235832 63 36 38
-0.697465 6.573308 66.169212 64 37 40
-0.696751 6.709068 66.101448 64 37 40
-0.696019 6.844363 66.032005 64 36 40
-0.695265 6.979141 65.960510 62 35 38
-0.694488 7.113368 65.886765 61 34 37
-0.693687 7.247029 65.810776 60 33 36
-0.692865 7.380134 65.732735 60 33 36
-0.692025 7.512714 65.653061 61 34 36
-0.691174 7.644830 65.572350 64 36 39
-0.690320 7.776567 65.491379 68 40 43
-0.689474 7.908031 65.411034 70 43 45
-0.688644 8.039351 65.332329 69 41 43
-0.687843 8.170667 65.256310 66 38 39
-0.687081 8.302130 65.184013 65 36 37
-0.686369 8.433895 65.116463 64 35 36
-0.685716 8.566115 65.054573 64 36 36
-0.685132 8.698932 64.999138 65 37 37
-0.684623 8.832476 64.950806 64 37 37
-0.684193 8.966853 64.910019 63 36 36
-0.683845 9.102148 64.877029 61 34 36
-0.683580 9.238418 64.851875 59 34 35
-0.683395 9.375690 64.834396 58 33 35
-0.683288 9.513956 64.824219 58 33 36
-0.683252 9.653182 64.820763 58 33 36
-0.683279 9.793297 64.823303 58 33 36
-0.683359 9.934200 64.830917 59 33 36
-0.683482 10.075768 64.842590 60 35 38
-0.683636 10.217845 64.857178 63 37 40
-0.683807 10.360258 64.873474 64 38 42
-0.683984 10.502813 64.890221 64 37 41
-0.684152 10.645305 64.906136 63 36 40
-0.684297 10.787517 64.919952 62 36 39
-0.684408 10.929226 64.930428 63 36 39
-0.684471 11.070212 64.936401 63 38 39
-0.684475 11.210260 64.936790 63 39 40
-0.684410 11.349164 64.930626 62 39 40
-0.684267 11.486734 64.917068 60 39 40
-0.684039 11.622801 64.895447 59 39 40
-0.683721 11.757220 64.865250 57 38 39
-0.683309 11.889876 64.826149 57 37 38
-0.682801 12.020685 64.778000 57 37 38
-0.682199 12.149599 64.720871 58 37 38
-0.681504 12.276602 64.654961 59 38 40
-0.680721 12.401714 64.580696 62 39 42
-0.679856 12.524990 64.498619 63 39 42
-0.678916 12.646516 64.409431 63 38 40
-0.677910 12.766410 64.313957 62 38 39
-0.676847 12.884813 64.213112 63 39 41
-0.675737 13.001889 64.107864 65 42 44
-0.674592 13.117819 63.999237 64 42 43
-0.673423 13.232797 63.888275 61 40 40
-0.672239 13.347024 63.776012 58 37 38
-0.671053 13.460708 63.663467 56 35 36
-0.669874 13.574055 63.551620 55 35 35
-0.668713 13.687277 63.441425 56 36 36
-0.667578 13.800570 63.333740 56 36 37
-0.666477 13.914127 63.229362 56 36 37
-0.665420 14.028137 63.129047 55 35 37
-0.664412 14.142774 63.033451 55 35 36
-0.663461 14.258204 62.943180 55 35 36
-0.662571 14.374580 62.858749 56 35 36
-0.661747 14.492048 62.780624 55 35 36
-0.660994 14.610736 62.709179 53 35 35
-0.660315 14.730760 62.644722 52 33 34
-0.659712 14.852221 62.587505 51 32 33
-0.659187 14.975208 62.537678 51 32 34
-0.658740 15.099791 62.495350 52 33 34
-0.658374 15.226027 62.460552 52 33 35
-0.658086 15.353960 62.433262 52 34 36
-0.657877 15.483621 62.413414 51 33 35
-0.657745 15.615028 62.400887 51 32 34
-0.657688 15.748196 62.395542 51 32 35
-0.657706 15.883131 62.397240 51 33 36
-0.657797 16.019842 62.405827 53 34 39
-0.657958 16.158339 62.421162 59 40 45
-0.658190 16.298632 62.443130 71 51 55
-0.658491 16.440741 62.471642 81 60 64
-0.658859 16.584694 62.506634 76 54 58
-0.659296 16.730522 62.548077 63 41 44
-0.659801 16.878258 62.595932 56 34 37
-0.660373 17.027941 62.650188 55 34 37
-0.661011 17.179596 62.710796 61 40 42
-0.661716 17.333244 62.777672 67 47 49
-0.662486 17.488886 62.850674 68 48 50
-0.663318 17.646502 62.929592 62 43 45
-0.664209 17.806040 63.014114 55 37 38
-0.665154 17.967419 63.103821 52 36 37
-0.666149 18.130520 63.198181 54 38 39
-0.667186 18.295193 63.296574 55 39 40
-0.668258 18.461252 63.398270 55 40 40
-0.669356 18.628479 63.502453 56 41 40
-0.670471 18.796635 63.608253 56 41 40
-0.671594 18.965456 63.714764 56 40 39
-0.672714 19.134668 63.821041 55 40 38
-0.673822 19.303984 63.926147 54 40 38
-0.674908 19.473114 64.029160 54 40 38
-0.551601 -5.518688 65.784447 62 36 38
-0.553002 -5.390542 65.951607 62 35 38
-0.554386 -5.261502 66.116600 61 35 38
-0.555744 -5.131521 66.278610 61 35 39
-0.557071 -5.000554 66.436806 61 36 39
-0.558358 -4.868564 66.590347 62 36 39
-0.559600 -4.735524 66.738419 62 36 38
-0.560789 -4.601418 66.880280 62 35 37
-0.561921 -4.466245 67.015282 62 35 37
-0.562991 -4.330013 67.142906 62 35 37
-0.563996 -4.192747 67.262772 62 36 38
-0.564934 -4.054483 67.374649 61 37 38
-0.565805 -3.915271 67.478477 60 36 37
-0.566609 -3.775167 67.574356 59 35 36
-0.567348 -3.634235 67.662537 58 34 35
-0.568026 -3.492546 67.743378 57 33 35
-0.568646 -3.350169 67.817368 56 32 34
-0.569214 -3.207177 67.885086 56 32 33
-0.569735 -3.063638 67.947159 56 31 33
-0.570213 -2.919617 68.004242 57 32 34
-0.570656 -2.775174 68.056992 58 32 35
-0.571067 -2.630361 68.106049 58 32 35
-0.571452 -2.485223 68.152008 58 33 35
-0.571816 -2.339799 68.195381 59 34 36
-0.572162 -2.194118 68.236603 61 35 37
-0.572492 -2.048206 68.276031 63 36 39
-0.572810 -1.902081 68.313927 64 38 41
-0.573116 -1.755756 68.350426 65 39 41
-0.573411 -1.609244 68.385635 65 38 41
-0.573696 -1.462552 68.419518 65 37 40
-0.573968 -1.315688 68.452026 66 36 39
-0.574228 -1.168657 68.483032 66 35 39
-0.574474 -1.021469 68.512375 66 36 39
-0.574705 -0.874130 68.539886 65 36 38
-0.574919 -0.726651 68.565392 63 35 37
-0.575114 -0.579044 68.588730 61 34 36
-0.575291 -0.431323 68.609795 62 35 36
-0.575448 -0.283500 68.628479 62 36 37
-0.575584 -0.135593 68.644745 62 36 38
-0.575700 0.012385 68.658600 62 36 38
-0.575796 0.160416 68.670036 61 35 36
