ply
format ascii 1.0
element vertex 1154
property float x
property float y
property float z
property uchar red
property uchar green
property uchar blue
end_header
-1.577827 2.963017 52.696827 247 247 247
-1.576250 3.073539 52.644157 251 251 251
-1.574700 3.183887 52.592369 254 254 254
-1.573183 3.294082 52.541706 254 254 254
-1.571707 3.404149 52.492439 254 254 254
-1.570281 3.514114 52.444809 254 254 254
-1.568912 3.624003 52.399067 254 254 254
-1.567605 3.733846 52.355431 253 253 253
-1.566368 3.843671 52.314117 253 253 253
-1.565206 3.953508 52.275314 254 254 254
-1.564125 4.063385 52.239182 254 254 254
-1.563127 4.173333 52.205875 254 254 254
-1.562218 4.283377 52.175495 254 254 254
-1.561399 4.393546 52.148144 254 254 254
-1.560672 4.503863 52.123878 254 254 254
-1.560040 4.614355 52.102764 254 254 254
-1.559503 4.725043 52.084824 254 254 253
-1.559061 4.835950 52.070076 254 254 253
-1.558715 4.947098 52.058525 254 254 254
-1.558465 5.058507 52.050167 254 254 254
-1.558310 5.170196 52.044994 254 254 254
-1.558250 5.282184 52.042995 254 254 254
-1.558285 5.394490 52.044144 254 254 254
-1.558413 5.507133 52.048420 253 253 253
-1.558633 5.620126 52.055782 252 253 252
-1.558945 5.733488 52.066200 253 253 253
-1.559347 5.847231 52.079609 254 254 254
-1.559836 5.961366 52.095940 251 251 251
-1.560410 6.075903 52.115116 247 247 247
-1.561066 6.190849 52.137043 249 249 249
-1.561801 6.306207 52.161591 253 253 253
-1.562611 6.421977 52.188633 254 254 254
-1.563491 6.538159 52.218029 254 254 254
-1.564437 6.654746 52.249615 254 254 254
-1.565443 6.771731 52.283218 254 254 254
-1.566505 6.889105 52.318680 254 254 254
-1.567617 7.006856 52.355812 254 254 254
-1.568773 7.124971 52.394444 254 254 254
-1.569969 7.243433 52.434383 254 254 254
-1.571199 7.362227 52.475464 254 254 254
-1.572457 7.481333 52.517483 254 254 254
-1.573739 7.600730 52.560272 254 254 254
-1.575036 7.720395 52.603619 254 254 254
-1.576345 7.840299 52.647327 254 254 254
-1.577658 7.960414 52.691181 255 255 255
-1.578969 8.080709 52.734966 254 254 254
-1.580271 8.201140 52.778431 254 254 254
-1.581556 8.321675 52.821350 254 254 254
-1.582817 8.442268 52.863480 254 254 254
-1.584048 8.562878 52.904591 254 254 254
-1.585241 8.683459 52.944447 254 254 254
-1.586392 8.803973 52.982861 254 254 254
-1.587493 8.924380 53.019661 254 254 254
-1.588543 9.044648 53.054710 254 254 254
-1.589537 9.164748 53.087917 254 254 254
-1.590475 9.284665 53.119251 255 255 255
-1.591357 9.404384 53.148701 254 254 254
-1.592184 9.523903 53.176334 254 254 254
-1.592960 9.643226 53.202221 254 254 254
-1.593686 9.762364 53.226498 254 254 254
-1.594369 9.881333 53.249298 252 252 252
-1.595012 10.000154 53.270779 245 246 246
-1.595620 10.118844 53.291088 243 244 243
-1.596198 10.237425 53.310375 249 250 249
-1.596748 10.355910 53.328739 253 253 253
-1.597273 10.474315 53.346283 253 254 254
-1.597776 10.592643 53.363068 254 254 254
-1.598256 10.710898 53.379131 254 254 254
-1.598716 10.829077 53.394470 254 254 254
-1.599153 10.947172 53.409081 254 254 254
-1.599568 11.065170 53.422916 254 254 254
-1.599958 11.183061 53.435959 254 254 254
-1.600323 11.300829 53.448154 254 254 254
-1.600662 11.418462 53.459465 254 254 254
-1.600974 11.535953 53.469898 254 254 254
-1.601260 11.653294 53.479431 254 254 254
-1.476535 -5.488872 53.139660 254 194 219
-1.477415 -5.377523 53.171322 254 192 216
-1.478440 -5.266554 53.208202 254 197 219
-1.479602 -5.155906 53.250038 254 193 214
-1.480894 -5.045520 53.296551 254 190 212
-1.482308 -4.935338 53.347431 254 195 217
-1.483834 -4.825300 53.402336 254 200 223
-1.485461 -4.715347 53.460896 254 202 226
-1.487178 -4.605422 53.522705 254 202 226
-1.488974 -4.495466 53.587330 254 200 223
-1.490835 -4.385424 53.654301 254 197 220
-1.492747 -4.275240 53.723122 254 199 220
-1.494696 -4.164861 53.793259 254 204 222
-1.496667 -4.054240 53.864189 254 206 222
-1.498645 -3.943331 53.935364 254 205 220
-1.500614 -3.832094 54.006252 254 207 220
-1.502561 -3.720495 54.076313 254 210 221
-1.504470 -3.608505 54.145027 254 208 219
-1.506329 -3.496100 54.211922 254 208 218
-1.508124 -3.383264 54.276524 254 211 220
-1.509843 -3.269985 54.338387 254 209 217
-1.511475 -3.156257 54.397110 254 204 211
-1.513008 -3.042079 54.452312 255 207 213
-1.514434 -2.927455 54.503632 254 216 222
-1.515743 -2.812391 54.550720 255 225 230
-1.516924 -2.696899 54.593246 254 232 238
-1.517970 -2.580992 54.630878 254 231 239
-1.518871 -2.464689 54.663307 254 228 237
-1.519618 -2.348008 54.690201 254 234 243
-1.520204 -2.230973 54.711262 254 241 251
-1.520619 -2.113612 54.726227 254 230 245
-1.520859 -1.995955 54.734844 254 203 224
-1.520916 -1.878036 54.736919 254 183 208
-1.520788 -1.759893 54.732311 254 183 209
-1.520474 -1.641569 54.720982 254 184 213
-1.519973 -1.523107 54.702965 254 181 212
-1.519290 -1.404555 54.678391 254 176 209
-1.518433 -1.285961 54.647530 255 177 210
-1.517411 -1.167373 54.610744 254 177 210
-1.516237 -1.048838 54.568497 254 172 206
-1.514927 -0.930403 54.521366 254 172 206
-1.513500 -0.812107 54.469994 254 184 218
-1.511974 -0.693988 54.415089 254 191 225
-1.510371 -0.576076 54.357391 254 189 222
-1.508711 -0.458395 54.297649 254 180 211
-1.507015 -0.340964 54.236595 252 165 193
-1.505301 -0.223793 54.174923 248 155 181
-1.503587 -0.106889 54.113243 244 156 179
-1.501888 0.009750 54.052101 241 162 182
-1.500216 0.126128 53.991940 237 172 186
-1.498581 0.242252 53.933075 238 184 194
-1.496988 0.358132 53.875736 241 200 206
-1.495440 0.473780 53.820023 248 220 223
-1.493938 0.589205 53.765965 253 240 242
-1.492479 0.704418 53.713482 254 250 251
-1.491061 0.819427 53.662426 254 250 250
-1.489676 0.934236 53.612591 251 246 245
-1.488318 1.048850 53.563728 248 246 244
-1.486980 1.163269 53.515564 251 250 250
-1.485654 1.277490 53.467842 249 248 247
-1.484332 1.391509 53.420273 234 234 232
-1.483008 1.505322 53.372623 228 229 226
-1.481676 1.618919 53.324680 241 242 240
-1.480331 1.732296 53.276276 251 251 251
-1.478969 1.845442 53.227272 244 244 244
-1.477589 1.958353 53.177589 234 235 234
-1.476189 2.071021 53.127193 241 241 241
-1.474769 2.183443 53.076088 252 252 252
-1.473331 2.295617 53.024334 254 254 254
-1.471877 2.407542 52.972031 254 254 254
-1.470412 2.519221 52.919292 254 254 254
-1.468939 2.630660 52.866295 254 254 254
-1.467465 2.741866 52.813213 254 254 254
-1.465993 2.852851 52.760262 252 252 252
-1.464532 2.963627 52.707668 251 252 252
-1.463087 3.074212 52.655682 251 251 251
-1.461666 3.184623 52.604534 251 252 252
-1.460276 3.294884 52.554497 253 254 254
-1.458923 3.405016 52.505814 254 254 254
-1.457615 3.515046 52.458729 254 254 254
-1.456358 3.625001 52.413490 254 254 254
-1.455159 3.734908 52.370327 253 254 253
-1.454022 3.844797 52.329437 253 253 253
-1.452955 3.954696 52.291027 253 254 254
-1.451961 4.064635 52.255245 254 254 254
-1.451044 4.174643 52.222256 254 254 254
-1.450208 4.284746 52.192165 254 254 254
-1.449456 4.394973 52.165081 254 254 254
-1.448789 4.505349 52.141079 254 254 254
-1.448209 4.615900 52.120209 254 254 253
-1.447717 4.726648 52.102520 252 252 252
-1.447315 4.837618 52.088028 252 252 252
-1.447001 4.948831 52.076756 254 254 254
-1.446778 5.060308 52.068703 254 254 254
-1.446643 5.172071 52.063873 254 254 254
-1.446599 5.284139 52.062256 254 254 254
-1.446643 5.396532 52.063839 253 253 253
-1.446775 5.509267 52.068600 251 251 251
-1.446994 5.622363 52.076496 251 251 251
-1.447300 5.735834 52.087502 254 254 254
-1.447690 5.849693 52.101536 254 254 254
-1.448163 5.963953 52.118546 251 251 251
-1.448715 6.078621 52.138435 248 248 248
-1.449345 6.193704 52.161087 250 250 249
-1.450047 6.309204 52.186382 253 253 253
-1.450819 6.425119 52.214169 254 254 254
-1.451656 6.541446 52.244282 254 254 254
-1.452553 6.658177 52.276554 254 254 254
-1.453505 6.775304 52.310802 254 254 254
-1.454506 6.892813 52.346840 254 254 254
-1.455551 7.010691 52.384460 254 254 254
-1.456636 7.128922 52.423496 254 254 254
-1.457754 7.247488 52.463737 254 254 254
-1.458901 7.366372 52.505001 254 254 254
-1.460070 7.485552 52.547100 254 254 254
-1.461258 7.605007 52.589844 254 254 254
-1.462458 7.724712 52.633038 254 254 254
-1.463665 7.844641 52.676483 254 254 254
-1.464874 7.964765 52.719975 254 254 254
-1.466078 8.085052 52.763309 254 254 254
-1.467272 8.205467 52.806271 254 254 254
-1.468449 8.325974 52.848633 254 254 254
-1.469603 8.446533 52.890186 254 254 254
-1.470729 8.567106 52.930714 254 254 254
-1.471821 8.687654 52.970016 254 254 254
-1.472875 8.808140 53.007935 254 254 254
-1.473886 8.928529 53.044308 254 254 254
-1.474851 9.048795 53.079037 254 254 254
-1.475768 9.168915 53.112049 254 254 254
-1.476637 9.288871 53.143311 254 254 254
-1.477457 9.408656 53.172848 254 254 254
-1.478231 9.528269 53.200706 254 254 254
-1.478962 9.647715 53.226986 254 254 254
-1.479651 9.767006 53.251804 254 254 254
-1.480303 9.886155 53.275280 250 251 251
-1.480923 10.005181 53.297558 242 243 243
-1.481512 10.124103 53.318783 240 241 241
-1.482075 10.242932 53.339054 249 249 249
-1.482615 10.361684 53.358467 253 253 253
-1.483133 10.480365 53.377098 251 252 252
-1.483629 10.598976 53.394974 253 253 253
-1.484105 10.717517 53.412113 253 254 254
-1.484561 10.835979 53.428505 253 253 253
-1.484995 10.954351 53.444107 253 254 254
-1.485405 11.072618 53.458878 254 254 254
-1.485791 11.190767 53.472782 254 254 254
-1.486152 11.308782 53.485767 254 254 254
-1.486486 11.426647 53.497791 254 254 254
-1.486794 11.544359 53.508858 254 254 254
-1.487074 11.661904 53.518951 254 254 254
-1.487328 11.779284 53.528091 254 254 254
-1.359443 -5.592969 53.040520 254 201 222
-1.360145 -5.481460 53.067902 254 196 217
-1.360987 -5.370387 53.100758 254 191 212
-1.361964 -5.259691 53.138866 254 195 215
-1.363068 -5.149315 53.181973 254 195 216
-1.364294 -5.039200 53.229794 255 194 215
-1.365633 -4.929286 53.282024 254 198 221
-1.367075 -4.819513 53.338299 254 202 226
-1.368612 -4.709822 53.398251 254 202 226
-1.370231 -4.600151 53.461449 254 199 223
-1.371923 -4.490443 53.527454 255 195 220
-1.373674 -4.380640 53.595768 254 193 217
-1.375471 -4.270685 53.665878 254 196 218
-1.377300 -4.160525 53.737255 254 201 221
-1.379148 -4.050112 53.809341 254 204 222
-1.381000 -3.939399 53.881584 254 205 221
-1.382841 -3.828346 53.953430 254 205 220
-1.384659 -3.716921 54.024357 255 206 219
-1.386440 -3.605093 54.093838 254 206 218
-1.388171 -3.492841 54.161385 254 208 219
-1.389841 -3.380149 54.226551 254 210 219
-1.391439 -3.267007 54.288898 254 208 216
-1.392955 -3.153410 54.348045 254 206 213
-1.394380 -3.039359 54.403622 254 208 213
-1.395704 -2.924859 54.455299 255 214 219
-1.396920 -2.809918 54.502743 254 224 230
-1.398020 -2.694548 54.545654 254 233 240
-1.398996 -2.578764 54.583725 254 230 240
-1.399840 -2.462586 54.616669 254 224 236
-1.400545 -2.346032 54.644180 254 229 242
-1.401104 -2.229127 54.665993 254 234 249
-1.401511 -2.111898 54.681847 254 222 241
-1.401759 -1.994375 54.691525 254 200 223
-1.401843 -1.876591 54.694820 254 186 212
-1.401761 -1.758585 54.691628 254 185 212
-1.401512 -1.640396 54.681885 254 185 214
-1.401095 -1.522068 54.665634 254 183 214
-1.400515 -1.403646 54.643002 254 178 210
-1.399778 -1.285177 54.614231 254 175 208
-1.398892 -1.166708 54.579670 254 178 210
-1.397869 -1.048286 54.539772 254 175 207
-1.396724 -0.929954 54.495075 254 174 205
-1.395471 -0.811752 54.446198 254 183 214
-1.394128 -0.693717 54.393814 254 189 220
-1.392714 -0.575877 54.338646 254 187 217
-1.391247 -0.458258 54.281399 254 178 207
-1.389745 -0.340877 54.222786 251 159 187
-1.388224 -0.223746 54.163467 243 143 169
-1.386701 -0.106871 54.104034 233 137 160
-1.385188 0.009749 54.045010 224 135 155
-1.383697 0.126116 53.986820 223 144 159
-1.382235 0.242237 53.929779 231 164 175
-1.380808 0.358121 53.874107 241 186 193
-1.379419 0.473779 53.819904 249 209 213
-1.378068 0.589219 53.767200 254 231 233
-1.376754 0.704450 53.715927 254 243 244
-1.375473 0.819480 53.665943 254 245 245
-1.374220 0.934314 53.617065 253 245 245
-1.372989 1.048954 53.569054 252 247 247
-1.371775 1.163401 53.521671 253 251 250
-1.370570 1.277653 53.474651 251 250 249
-1.369368 1.391704 53.427746 240 239 237
-1.368163 1.505551 53.380741 233 233 230
-1.366950 1.619185 53.333427 241 242 240
-1.365726 1.732601 53.285660 251 251 250
-1.364486 1.845790 53.237297 246 246 246
-1.363230 1.958747 53.188290 236 237 236
-1.361957 2.071465 53.138592 239 240 239
-1.360665 2.183942 53.088219 250 251 250
-1.359358 2.296175 53.037220 254 254 254
-1.358038 2.408164 52.985706 254 254 254
-1.356707 2.519911 52.933784 254 254 254
-1.355370 2.631423 52.881611 252 252 252
-1.354031 2.742705 52.829361 252 252 252
-1.352695 2.853769 52.777248 253 253 253
-1.351369 2.964629 52.725491 253 253 253
-1.350057 3.075300 52.674316 250 250 250
-1.348766 3.185799 52.623962 250 250 250
-1.347504 3.296150 52.574688 253 253 253
-1.346274 3.406373 52.526730 254 254 254
-1.345085 3.516493 52.480328 254 254 254
-1.343942 3.626539 52.435726 254 254 254
-1.342850 3.736535 52.393139 254 254 254
-1.341816 3.846512 52.352783 253 254 253
-1.340844 3.956497 52.314838 253 254 253
-1.339937 4.066520 52.279476 254 254 254
-1.339101 4.176610 52.246857 254 254 254
-1.338338 4.286792 52.217087 254 254 254
-1.337651 4.397096 52.190285 254 254 254
-1.337042 4.507548 52.166527 254 254 254
-1.336513 4.618172 52.145874 254 254 254
-1.336065 4.728994 52.128384 252 252 252
-1.335698 4.840038 52.114086 252 252 252
-1.335414 4.951325 52.103004 254 254 254
-1.335213 5.062880 52.095158 254 254 254
-1.335095 5.174722 52.090561 254 254 254
-1.335061 5.286874 52.089207 254 254 254
-1.335109 5.399356 52.091087 253 253 253
-1.335239 5.512187 52.096184 250 251 250
-1.335452 5.625383 52.104473 251 251 251
-1.335745 5.738962 52.115910 254 254 253
-1.336117 5.852937 52.130432 254 254 254
-1.336567 5.967319 52.147968 253 253 253
-1.337090 6.082115 52.168407 253 253 252
-1.337686 6.197332 52.191639 253 253 252
-1.338349 6.312968 52.217518 254 254 253
-1.339076 6.429021 52.245880 254 254 254
-1.339862 6.545486 52.276550 254 254 254
-1.340703 6.662353 52.309341 254 254 254
-1.341592 6.779609 52.344044 255 255 254
-1.342525 6.897240 52.380455 254 254 254
-1.343497 7.015229 52.418373 254 254 254
-1.344502 7.133557 52.457581 254 254 254
-1.345535 7.252205 52.497879 254 254 254
-1.346591 7.371151 52.539066 254 254 254
-1.347664 7.490374 52.580952 254 254 254
-1.348751 7.609852 52.623348 254 254 254
-1.349845 7.729558 52.666050 254 254 254
-1.350943 7.849466 52.708881 255 255 255
-1.352039 7.969549 52.751644 254 254 254
-1.353128 8.089777 52.794147 254 254 254
-1.354206 8.210116 52.836193 254 254 254
-1.355267 8.330536 52.877594 254 254 254
-1.356307 8.451000 52.918156 254 254 254
-1.357320 8.571475 52.957706 254 254 254
-1.358304 8.691926 52.996067 254 254 254
-1.359253 8.812323 53.033112 254 254 254
-1.360166 8.932637 53.068718 254 254 254
-1.361039 9.052846 53.102798 254 254 254
-1.361873 9.172932 53.135319 254 254 254
-1.362666 9.292884 53.166271 254 254 254
-1.363420 9.412697 53.195683 254 254 254
-1.364136 9.532372 53.223614 254 254 254
-1.364816 9.651915 53.250160 253 253 253
-1.365464 9.771339 53.275429 252 253 252
-1.366082 9.890656 53.299538 249 249 249
-1.366673 10.009885 53.322617 242 242 242
-1.367241 10.129037 53.344769 242 243 242
-1.367787 10.248122 53.366077 250 250 250
-1.368313 10.367149 53.386612 251 252 252
-1.368821 10.486119 53.406406 251 252 251
-1.369309 10.605029 53.425472 252 253 252
-1.369779 10.723873 53.443790 252 253 252
-1.370228 10.842635 53.461323 250 251 251
-1.370656 10.961303 53.478020 252 253 252
-1.371061 11.079855 53.493816 254 254 254
-1.371442 11.198278 53.508671 254 254 254
-1.371797 11.316551 53.522514 254 254 254
-1.372125 11.434662 53.535313 254 254 254
-1.372426 11.552602 53.547066 254 254 254
-1.372700 11.670362 53.557766 254 254 254
-1.372948 11.787942 53.567432 254 254 254
-1.243440 -5.585487 52.969563 254 197 215
-1.244110 -5.474250 52.998100 254 197 215
-1.244909 -5.363447 53.032139 254 196 215
-1.245832 -5.253019 53.071461 254 199 218
-1.246873 -5.142910 53.115822 254 201 221
-1.248026 -5.033061 53.164944 254 201 222
-1.249284 -4.923410 53.218502 254 203 225
-1.250637 -4.813897 53.276142 254 204 227
-1.252076 -4.704460 53.337463 254 201 225
-1.253592 -4.595039 53.402046 254 197 221
-1.255173 -4.485574 53.469410 254 195 219
-1.256809 -4.376005 53.539059 254 194 218
-1.258485 -4.266275 53.610466 254 194 217
-1.260189 -4.156330 53.683060 254 199 220
-1.261908 -4.046119 53.756294 254 204 224
-1.263629 -3.935598 53.829594 254 205 225
-1.265338 -3.824726 53.902416 254 203 221
-1.267023 -3.713470 53.974197 254 202 218
-1.268672 -3.601801 54.044441 255 204 218
-1.270273 -3.489698 54.112648 254 206 219
-1.271816 -3.377147 54.178383 254 205 216
-1.273292 -3.264138 54.241226 254 204 212
-1.274690 -3.150670 54.300808 254 205 211
-1.276004 -3.036742 54.356781 254 209 214
-1.277226 -2.922363 54.408836 254 212 218
-1.278349 -2.807542 54.456665 254 221 228
-1.279366 -2.692292 54.499989 254 232 240
-1.280271 -2.576630 54.538540 254 231 242
-1.281058 -2.460574 54.572052 254 223 237
-1.281720 -2.344146 54.600250 255 225 241
-1.282251 -2.227369 54.622875 254 228 246
-1.282646 -2.110270 54.639698 254 216 237
-1.282899 -1.992879 54.650509 254 199 222
-1.283008 -1.875230 54.655125 254 190 216
-1.282968 -1.757357 54.653442 254 188 215
-1.282779 -1.639302 54.645393 254 187 215
-1.282442 -1.521104 54.631027 254 188 217
-1.281959 -1.402810 54.610451 254 185 215
-1.281336 -1.284463 54.583904 254 183 212
-1.280580 -1.166111 54.551704 254 185 214
-1.279702 -1.047796 54.514290 254 180 209
-1.278713 -0.929563 54.472164 254 174 202
-1.277627 -0.811450 54.425926 254 182 211
-1.276460 -0.693492 54.376217 254 191 218
-1.275228 -0.575719 54.323727 254 190 217
-1.273947 -0.458154 54.269123 254 187 213
-1.272631 -0.340816 54.213093 252 179 203
-1.271297 -0.223716 54.156273 246 166 189
-1.269958 -0.106861 54.099232 235 150 171
-1.268626 0.009748 54.042469 219 130 149
-1.267309 0.126115 53.986389 211 124 140
-1.266016 0.242244 53.931297 220 142 154
-1.264751 0.358143 53.877411 235 171 179
-1.263517 0.473822 53.824829 247 198 204
-1.262314 0.589289 53.773586 254 220 224
-1.261141 0.704551 53.723614 254 232 235
-1.259995 0.819615 53.674797 254 238 240
-1.258872 0.934487 53.626953 254 243 245
-1.257767 1.049166 53.579876 254 247 248
-1.256674 1.163655 53.533329 254 250 250
-1.255588 1.277950 53.487083 253 250 249
-1.254504 1.392047 53.440903 246 243 241
-1.253417 1.505941 53.394592 239 237 235
-1.252323 1.619626 53.347965 244 243 241
-1.251217 1.733096 53.300884 251 251 250
-1.250099 1.846342 53.253227 249 250 249
-1.248965 1.959360 53.204948 242 243 241
-1.247817 2.072145 53.156017 242 243 242
-1.246653 2.184692 53.106453 250 250 250
-1.245476 2.297001 53.056301 254 254 254
-1.244287 2.409070 53.005661 254 254 254
-1.243090 2.520904 52.954643 254 254 254
-1.241887 2.632507 52.903404 250 250 250
-1.240683 2.743886 52.852108 249 249 249
-1.239482 2.855051 52.800949 253 253 253
-1.238289 2.966015 52.750145 254 254 254
-1.237110 3.076794 52.699909 251 251 251
-1.235949 3.187404 52.650471 251 251 251
-1.234813 3.297867 52.602081 253 253 253
-1.233707 3.408204 52.554962 254 254 254
-1.232637 3.518438 52.509354 254 254 254
-1.231607 3.628597 52.465485 254 254 254
-1.230623 3.738706 52.423573 254 254 254
-1.229690 3.848793 52.383831 254 254 254
-1.228812 3.958886 52.346428 254 254 254
-1.227993 4.069014 52.311543 254 254 254
-1.227237 4.179205 52.279327 254 254 254
-1.226546 4.289486 52.249905 255 255 255
-1.225924 4.399885 52.223389 254 254 254
-1.225371 4.510428 52.199856 254 254 254
-1.224891 4.621141 52.179398 254 254 254
-1.224484 4.732050 52.162064 253 253 253
-1.224151 4.843178 52.147896 253 253 253
-1.223894 4.954550 52.136940 254 254 254
-1.223713 5.066189 52.129215 254 254 254
-1.223608 5.178118 52.124744 254 254 254
-1.223580 5.290359 52.123547 255 255 255
-1.223628 5.402934 52.125607 254 254 254
-1.223753 5.515862 52.130924 253 253 252
-1.223954 5.629162 52.139473 253 253 252
-1.224229 5.742850 52.151218 254 254 253
-1.224578 5.856940 52.166084 254 254 254
-1.224999 5.971442 52.183998 255 255 255
-1.225488 6.086364 52.204849 254 254 254
-1.226044 6.201709 52.228504 254 254 254
-1.226661 6.317477 52.254818 254 254 254
-1.227337 6.433663 52.283604 254 254 254
-1.228066 6.550258 52.314663 254 254 254
-1.228844 6.667250 52.347790 254 254 254
-1.229665 6.784624 52.382763 254 254 254
-1.230524 6.902362 52.419361 254 254 254
-1.231416 7.020444 52.457344 254 254 254
-1.232335 7.138849 52.496494 254 254 254
-1.233276 7.257554 52.536598 254 254 254
-1.234235 7.376535 52.577446 254 254 254
-1.235206 7.495769 52.618820 254 254 254
-1.236186 7.615232 52.660549 254 254 254
-1.237169 7.734896 52.702427 254 254 254
-1.238152 7.854739 52.744286 254 254 254
-1.239129 7.974731 52.785942 254 254 254
-1.240098 8.094846 52.827225 254 254 254
-1.241055 8.215054 52.867966 254 254 254
-1.241995 8.335325 52.907997 254 254 254
-1.242914 8.455633 52.947166 254 254 254
-1.243810 8.575947 52.985332 254 254 254
-1.244679 8.696239 53.022366 254 254 254
-1.245520 8.816484 53.058159 254 254 254
-1.246329 8.936665 53.092640 254 254 254
-1.247106 9.056760 53.125755 254 254 254
-1.247851 9.176761 53.157501 254 254 254
-1.248565 9.296661 53.187881 254 254 254
-1.249247 9.416459 53.216946 254 254 254
-1.249900 9.536160 53.244766 253 253 253
-1.250526 9.655772 53.271439 251 251 251
-1.251128 9.775307 53.297062 250 251 250
-1.251707 9.894777 53.321743 246 247 246
-1.252267 10.014196 53.345581 242 242 241
-1.252808 10.133574 53.368660 246 246 246
-1.253334 10.252914 53.391029 251 252 251
-1.253843 10.372220 53.412727 251 252 251
-1.254336 10.491487 53.433746 252 253 252
-1.254813 10.610706 53.454067 252 253 252
-1.255273 10.729863 53.473640 250 250 250
-1.255713 10.848938 53.492401 248 248 248
-1.256133 10.967912 53.510265 251 252 252
-1.256529 11.086761 53.527161 254 254 254
-1.256902 11.205467 53.543022 254 254 254
-1.257248 11.324008 53.557777 254 254 254
-1.257568 11.442369 53.571396 254 254 254
-1.257860 11.560542 53.583870 253 253 253
-1.258126 11.678521 53.595207 253 253 253
-1.258366 11.796303 53.605423 254 254 254
-1.258581 11.913892 53.614578 254 254 254
-1.127279 -5.689697 52.876869 254 195 212
-1.127790 -5.578240 52.900845 254 194 211
-1.128423 -5.467269 52.930519 254 199 215
-1.129173 -5.356729 52.965714 254 204 221
-1.130037 -5.246563 53.006233 254 207 225
-1.131009 -5.136714 53.051834 254 206 225
-1.132083 -5.027122 53.102219 254 203 224
-1.133253 -4.917728 53.157085 254 203 225
-1.134510 -4.808468 53.216057 255 202 224
-1.135847 -4.699281 53.278740 254 199 223
-1.137252 -4.590103 53.344677 254 197 221
-1.138717 -4.480875 53.413391 254 196 220
-1.140230 -4.371534 53.484360 254 196 220
-1.141780 -4.262024 53.557045 254 197 220
-1.143354 -4.152288 53.630867 254 199 222
-1.144940 -4.042278 53.705257 254 202 224
-1.146525 -3.931944 53.779625 254 202 223
-1.148098 -3.821249 53.853416 254 201 221
-1.149647 -3.710159 53.926079 254 200 219
-1.151161 -3.598645 53.997093 254 202 219
-1.152630 -3.486689 54.065987 254 203 218
-1.154044 -3.374275 54.132317 254 199 211
-1.155395 -3.261397 54.195679 254 195 204
-1.156675 -3.148054 54.255722 254 200 207
-1.157877 -3.034247 54.312122 254 211 216
-1.158996 -2.919986 54.364586 254 214 221
-1.160024 -2.805282 54.412834 254 215 224
-1.160958 -2.690150 54.456627 254 224 234
-1.161791 -2.574606 54.495705 254 227 240
-1.162519 -2.458670 54.529831 254 221 237
-1.163135 -2.342364 54.558758 254 222 241
-1.163636 -2.225712 54.582256 254 225 245
-1.164017 -2.108741 54.600109 254 214 237
-1.164273 -1.991480 54.612129 254 199 224
-1.164401 -1.873960 54.618137 254 193 219
-1.164399 -1.756219 54.618034 254 190 217
-1.164265 -1.638293 54.611763 254 187 216
-1.164001 -1.520223 54.599361 254 188 217
-1.163608 -1.402051 54.580925 254 189 217
-1.163091 -1.283823 54.556690 254 192 218
-1.162457 -1.165581 54.526943 254 195 221
-1.161714 -1.047370 54.492107 254 186 211
-1.160873 -0.929230 54.452663 253 175 199
-1.159946 -0.811200 54.409172 253 183 207
-1.158946 -0.693314 54.362240 254 196 220
-1.157886 -0.575600 54.312527 254 202 224
-1.156781 -0.458083 54.260685 254 207 229
-1.155644 -0.340780 54.207359 254 212 231
-1.154488 -0.223704 54.153149 252 210 226
-1.153325 -0.106860 54.098614 247 196 212
-1.152166 0.009749 54.044216 234 169 185
-1.151018 0.126124 53.990364 221 145 158
-1.149887 0.242271 53.937332 216 137 149
-1.148779 0.358196 53.885338 225 155 164
-1.147694 0.473907 53.834484 243 186 193
-1.146635 0.589411 53.784798 251 206 213
-1.145600 0.704716 53.736225 253 218 225
-1.144586 0.819827 53.688660 254 229 235
-1.143590 0.934748 53.641941 254 238 243
-1.142607 1.049479 53.595867 254 243 246
-1.141635 1.164022 53.550236 255 246 248
-1.140666 1.278374 53.504826 254 248 249
-1.139699 1.392530 53.459442 250 244 244
-1.138728 1.506486 53.413895 246 241 239
-1.137750 1.620235 53.368015 246 242 241
-1.136762 1.733772 53.321690 250 249 247
-1.135763 1.847091 53.274811 251 251 250
-1.134751 1.960185 53.227337 246 247 246
-1.133726 2.073050 53.179245 245 246 245
-1.132688 2.185684 53.130566 251 251 251
-1.131638 2.298085 53.081341 254 254 254
-1.130579 2.410252 53.031666 254 254 254
-1.129513 2.522190 52.981655 254 254 254
-1.128443 2.633902 52.931438 251 251 251
-1.127371 2.745396 52.881191 251 251 251
-1.126303 2.856681 52.831093 253 253 253
-1.125242 2.967769 52.781338 254 254 254
-1.124194 3.078676 52.732147 254 254 254
-1.123162 3.189418 52.683735 254 254 254
-1.122151 3.300014 52.636326 254 254 254
-1.121166 3.410485 52.590145 254 254 254
-1.120213 3.520855 52.545418 254 254 254
-1.119295 3.631148 52.502373 254 254 254
-1.118418 3.741390 52.461212 254 254 254
-1.117585 3.851608 52.422138 252 252 252
-1.116800 3.961829 52.385338 252 252 252
-1.116067 4.072081 52.350967 254 254 254
-1.115390 4.182391 52.319187 254 254 254
-1.114770 4.292788 52.290127 254 254 254
-1.114211 4.403298 52.263901 254 254 254
-1.113714 4.513948 52.240597 254 254 254
-1.113282 4.624764 52.220306 254 254 254
-1.112915 4.735772 52.203094 253 253 253
-1.112615 4.846997 52.189018 254 254 254
-1.112383 4.958464 52.178120 254 254 254
-1.112219 5.070197 52.170452 255 255 255
-1.112125 5.182220 52.166035 254 254 254
-1.112101 5.294557 52.164898 254 254 254
-1.112146 5.407229 52.167042 254 254 254
-1.112262 5.520258 52.172474 253 253 253
-1.112448 5.633664 52.181171 252 252 251
-1.112702 5.747462 52.193096 252 252 252
-1.113023 5.861666 52.208183 254 254 254
-1.113411 5.976288 52.226345 254 254 254
-1.113861 6.091333 52.247471 254 254 254
-1.114371 6.206804 52.271412 254 254 254
-1.114938 6.322699 52.298004 254 254 254
-1.115558 6.439010 52.327049 254 254 254
-1.116225 6.555726 52.358334 254 254 254
-1.116934 6.672833 52.391628 255 255 255
-1.117682 6.790312 52.426682 254 254 254
-1.118461 6.908142 52.463249 254 254 254
-1.119268 7.026299 52.501087 254 254 254
-1.120096 7.144758 52.539948 254 254 254
-1.120942 7.263493 52.579594 254 254 254
-1.121799 7.382480 52.619820 254 254 254
-1.122664 7.501691 52.660397 254 254 254
-1.123533 7.621101 52.701138 254 254 254
-1.124401 7.740683 52.741856 255 255 255
-1.125265 7.860413 52.782387 255 255 255
-1.126122 7.980264 52.822567 254 254 254
-1.126967 8.100211 52.862244 254 254 254
-1.127800 8.220230 52.901279 254 254 254
-1.128615 8.340297 52.939548 254 254 254
-1.129412 8.460386 52.976929 254 254 254
-1.130188 8.580476 53.013313 254 254 254
-1.130941 8.700547 53.048634 254 254 254
-1.131670 8.820582 53.082817 254 254 254
-1.132373 8.940568 53.115829 254 254 254
-1.133052 9.060494 53.147659 254 254 254
-1.133706 9.180357 53.178329 254 254 254
-1.134336 9.300158 53.207882 254 254 254
-1.134944 9.419898 53.236382 254 254 254
-1.135530 9.539588 53.263908 253 253 253
-1.136099 9.659238 53.290558 251 251 251
-1.136650 9.778857 53.316422 248 249 248
-1.137186 9.898459 53.341587 243 244 243
-1.137710 10.018056 53.366142 240 241 239
-1.138221 10.137649 53.390121 243 244 243
-1.138721 10.257239 53.413555 246 247 246
-1.139208 10.376822 53.436428 250 251 250
-1.139683 10.496388 53.458710 253 253 253
-1.140144 10.615920 53.480331 251 251 251
-1.140589 10.735394 53.501209 247 247 247
-1.141016 10.854788 53.521240 248 248 248
-1.141423 10.974073 53.540329 252 252 252
-1.141808 11.093225 53.558365 254 254 254
-1.142169 11.212217 53.575279 254 254 254
-1.142503 11.331029 53.590984 254 254 254
-1.142812 11.449643 53.605453 254 254 254
-1.143094 11.568050 53.618671 253 253 253
-1.143349 11.686246 53.630657 253 253 253
-1.143579 11.804228 53.641438 252 252 252
-1.143784 11.922002 53.651073 253 253 253
-1.012004 -5.682454 52.809547 254 197 212
-1.012485 -5.571258 52.834621 254 195 209
-1.013075 -5.460544 52.865406 254 200 215
-1.013771 -5.350257 52.901730 254 212 227
-1.014569 -5.240344 52.943398 254 217 234
-1.015466 -5.130746 52.990192 254 209 228
-1.016455 -5.021404 53.041813 254 201 221
-1.017531 -4.912257 53.097946 254 199 221
-1.018686 -4.803242 53.158218 254 199 222
-1.019912 -4.694296 53.222221 254 197 221
-1.021202 -4.585355 53.289497 254 196 220
-1.022544 -4.476357 53.359539 254 195 220
-1.023929 -4.367240 53.431828 254 195 220
-1.025347 -4.257945 53.505787 254 198 222
-1.026785 -4.148415 53.580837 254 200 224
-1.028232 -4.038599 53.656384 254 198 222
-1.029678 -3.928451 53.731838 254 196 221
-1.031112 -3.817930 53.806629 254 197 221
-1.032521 -3.707002 53.880192 254 196 220
-1.033898 -3.595641 53.952015 254 195 216
-1.035232 -3.483828 54.021626 254 193 212
-1.036515 -3.371550 54.088593 254 189 204
-1.037740 -3.258800 54.152515 255 187 198
-1.038900 -3.145578 54.213062 254 194 201
-1.039990 -3.031890 54.269924 254 211 217
-1.041004 -2.917745 54.322845 254 215 222
-1.041938 -2.803155 54.371567 253 205 215
-1.042787 -2.688136 54.415859 253 209 221
-1.043546 -2.572707 54.455513 254 218 232
-1.044213 -2.456888 54.490303 254 217 235
-1.044782 -2.340701 54.520008 254 221 241
-1.045250 -2.224169 54.544426 254 226 246
-1.045613 -2.107322 54.563362 254 214 236
-1.045867 -1.990185 54.576626 254 195 219
-1.046010 -1.872792 54.584076 254 186 212
-1.046039 -1.755176 54.585606 254 186 213
-1.045954 -1.637375 54.581158 254 185 212
-1.045755 -1.519427 54.570766 254 185 212
-1.045444 -1.401374 54.554535 254 188 215
-1.045025 -1.283258 54.532661 254 195 220
-1.044503 -1.165121 54.505432 254 201 225
-1.043886 -1.047007 54.473232 254 195 217
-1.043182 -0.928955 54.436523 253 182 203
-1.042403 -0.811001 54.395832 253 185 205
-1.041558 -0.693180 54.351749 254 199 219
-1.040660 -0.575520 54.304893 254 211 230
-1.039721 -0.458043 54.255878 254 222 239
-1.038752 -0.340767 54.205330 254 232 246
-1.037765 -0.223706 54.153812 254 237 249
-1.036769 -0.106866 54.101864 253 234 244
-1.035774 0.009750 54.049923 250 221 231
-1.034786 0.126143 53.998375 242 197 206
-1.033811 0.242317 53.947495 229 169 179
-1.032853 0.358277 53.897488 228 168 177
-1.031913 0.474030 53.848442 242 188 198
-1.030992 0.589582 53.800404 249 200 209
-1.030090 0.704940 53.753315 251 208 217
-1.029204 0.820109 53.707088 254 219 228
-1.028332 0.935090 53.661568 254 229 237
-1.027470 1.049885 53.616585 254 236 242
-1.026614 1.164494 53.571949 254 241 246
-1.025762 1.278915 53.527473 254 244 246
-1.024909 1.393142 53.482956 253 243 244
-1.024052 1.507172 53.438240 250 241 241
-1.023189 1.620999 53.393192 247 240 239
-1.022317 1.734618 53.347698 248 245 243
-1.021435 1.848022 53.301670 250 249 248
-1.020542 1.961206 53.255081 248 248 247
-1.019638 2.074168 53.207912 248 248 247
-1.018724 2.186903 53.160194 251 251 250
-1.017800 2.299411 53.111977 253 254 253
-1.016868 2.411693 53.063354 254 254 254
-1.015931 2.523750 53.014431 254 254 254
-1.014990 2.635588 52.965336 254 254 254
-1.014049 2.747214 52.916222 253 253 253
-1.013110 2.858637 52.867268 253 253 253
-1.012179 2.969868 52.818661 254 254 254
-1.011258 3.080921 52.770596 254 254 254
-1.010351 3.191812 52.723278 254 254 254
-1.009463 3.302560 52.676933 255 255 255
-1.008597 3.413184 52.631763 254 254 254
-1.007759 3.523708 52.587994 254 254 254
-1.006951 3.634154 52.545834 254 254 254
-1.006177 3.744547 52.505482 253 253 253
-1.005443 3.854914 52.467136 250 250 250
-1.004750 3.965280 52.430969 250 250 250
-1.004102 4.075674 52.397160 253 253 253
-1.003502 4.186121 52.365845 254 254 254
-1.002952 4.296649 52.337162 254 254 254
-1.002455 4.407286 52.311234 254 254 254
-1.002013 4.518057 52.288155 254 254 254
-1.001627 4.628990 52.268017 253 253 253
-1.001299 4.740109 52.250904 253 253 253
-1.001030 4.851443 52.236889 254 254 254
-1.000822 4.963015 52.226013 254 254 254
-1.000675 5.074851 52.218342 254 254 254
-1.000590 5.186977 52.213921 254 254 254
-1.000568 5.299417 52.212776 254 254 254
-1.000610 5.412193 52.214931 254 254 254
-1.000714 5.525328 52.220390 252 252 252
-1.000882 5.638842 52.229137 250 250 250
-1.001112 5.752753 52.241146 251 251 251
-1.001403 5.867073 52.256340 254 254 254
-1.001754 5.981814 52.274635 254 254 254
-1.002161 6.096979 52.295895 254 254 254
-1.002623 6.212572 52.319988 254 254 254
-1.003135 6.328588 52.346714 254 254 254
-1.003694 6.445016 52.375866 254 254 254
-1.004294 6.561845 52.407200 254 254 254
-1.004932 6.679055 52.440472 254 254 254
-1.005601 6.796623 52.475407 254 254 254
-1.006297 6.914526 52.511734 254 254 254
-1.007015 7.032737 52.549194 254 254 254
-1.007750 7.151227 52.587517 254 254 254
-1.008496 7.269967 52.626457 254 254 254
-1.009249 7.388927 52.665771 255 255 255
-1.010005 7.508080 52.705242 254 254 254
-1.010761 7.627399 52.744686 254 254 254
-1.011513 7.746855 52.783909 254 254 254
-1.012258 7.866426 52.822769 254 254 254
-1.012992 7.986085 52.861103 254 254 254
-1.013715 8.105814 52.898808 254 254 254
-1.014423 8.225589 52.935764 254 254 254
-1.015115 8.345391 52.971886 254 254 254
-1.015790 8.465203 53.007092 254 254 254
-1.016446 8.585011 53.041332 254 254 254
-1.017083 8.704802 53.074570 254 254 254
-1.017701 8.824567 53.106792 254 254 254
-1.018299 8.944301 53.138004 254 254 254
-1.018878 9.064004 53.168247 254 254 254
-1.019440 9.183679 53.197571 254 254 254
-1.019986 9.303332 53.226048 254 254 254
-1.020517 9.422974 53.253761 254 254 254
-1.021035 9.542614 53.280804 254 254 254
-1.021542 9.662267 53.307274 250 251 250
-1.022040 9.781945 53.333260 244 245 244
-1.022530 9.901657 53.358818 239 240 238
-1.023013 10.021410 53.384010 237 237 236
-1.023489 10.141206 53.408859 236 236 235
-1.023958 10.261038 53.433334 239 240 239
-1.024419 10.380892 53.457382 249 249 248
-1.024870 10.500751 53.480930 253 253 253
-1.025310 10.620591 53.503868 249 249 249
-1.025735 10.740384 53.526077 247 248 248
-1.026144 10.860095 53.547413 250 250 250
-1.026534 10.979692 53.567738 253 253 253
-1.026902 11.099144 53.586948 254 254 254
-1.027246 11.218423 53.604927 254 254 254
-1.027566 11.337502 53.621605 255 255 255
-1.027859 11.456364 53.636917 254 254 254
-1.028127 11.575002 53.650890 254 254 254
-1.028369 11.693407 53.663521 253 253 253
-1.028587 11.811584 53.674862 251 250 250
-1.028780 11.929537 53.684978 250 250 250
-1.028952 12.047277 53.693958 251 251 251
-0.897067 -5.675508 52.745003 254 199 214
-0.897512 -5.564564 52.771145 254 197 212
-0.898053 -5.454097 52.802990 254 203 218
-0.898689 -5.344054 52.840397 254 218 234
-0.899417 -5.234383 52.883175 254 225 242
-0.900232 -5.125025 52.931107 254 213 232
-0.901130 -5.015922 52.983906 254 199 219
-0.902106 -4.907012 53.041260 254 196 217
-0.903152 -4.798233 53.102787 254 199 221
-0.904262 -4.689520 53.168076 254 198 221
-0.905429 -4.580808 53.236645 254 197 220
-0.906642 -4.472034 53.308002 254 195 218
-0.907894 -4.363134 53.381584 254 195 218
-0.909173 -4.254048 53.456821 254 198 222
-0.910471 -4.144719 53.533104 254 199 225
-0.911776 -4.035095 53.609825 254 195 222
-0.913078 -3.925127 53.686382 254 192 220
-0.914367 -3.814778 53.762203 254 194 221
-0.915634 -3.704010 53.836708 254 190 218
-0.916870 -3.592800 53.909386 254 183 208
-0.918067 -3.481128 53.979763 254 181 203
-0.919218 -3.368983 54.047413 254 182 201
-0.920316 -3.256359 54.111950 254 183 197
-0.921355 -3.143257 54.173058 254 190 199
-0.922331 -3.029684 54.230446 254 207 214
-0.923239 -2.915651 54.283871 254 210 219
-0.924077 -2.801172 54.333111 252 195 206
-0.924840 -2.686264 54.377964 252 196 209
-0.925525 -2.570946 54.418228 254 208 225
-0.926128 -2.455239 54.453728 254 214 233
-0.926647 -2.339165 54.484245 254 221 241
-0.927079 -2.222750 54.509621 254 227 245
-0.927420 -2.106020 54.529663 254 211 231
-0.927667 -1.989003 54.544216 254 185 209
-0.927819 -1.871730 54.553131 254 175 200
-0.927873 -1.754234 54.556313 254 180 206
-0.927829 -1.636551 54.553711 254 184 210
-0.927687 -1.518719 54.545361 254 185 212
-0.927448 -1.400778 54.531338 254 189 215
-0.927117 -1.282768 54.511845 255 195 220
-0.926697 -1.164731 54.487144 254 201 224
-0.926194 -1.046707 54.457603 254 199 220
-0.925617 -0.928735 54.423649 254 189 208
-0.924973 -0.810852 54.385792 254 189 207
-0.924272 -0.693089 54.344578 254 201 218
-0.923524 -0.575474 54.300610 254 213 228
-0.922739 -0.458031 54.254459 255 223 236
-0.921927 -0.340776 54.206718 254 232 244
-0.921098 -0.223723 54.157936 254 240 250
-0.920259 -0.106880 54.108620 254 245 252
-0.919418 0.009751 54.059189 254 247 251
-0.918582 0.126170 54.010006 253 238 241
-0.917754 0.242379 53.961346 247 219 225
-0.916938 0.358382 53.913376 244 211 217
-0.916136 0.474186 53.866219 248 216 224
-0.915348 0.589796 53.819897 250 215 222
-0.914574 0.705217 53.774376 251 210 219
-0.913812 0.820452 53.729568 253 213 222
-0.913060 0.935504 53.685337 254 223 231
-0.912315 1.050374 53.641525 254 233 241
-0.911574 1.165060 53.597965 254 238 245
-0.910834 1.279560 53.554493 254 241 245
-0.910094 1.393871 53.510933 254 241 245
-0.909349 1.507988 53.467148 253 240 242
-0.908598 1.621905 53.423008 250 239 240
-0.907840 1.735617 53.378433 249 241 240
-0.907073 1.849120 53.333347 249 245 243
-0.906297 1.962409 53.287720 249 248 246
-0.905512 2.075479 53.241558 250 249 248
-0.904718 2.188330 53.194885 251 251 249
-0.903917 2.300960 53.147758 252 252 251
-0.903109 2.413370 53.100266 254 254 254
-0.902297 2.525563 53.052505 254 254 254
-0.901482 2.637542 53.004604 254 254 254
-0.900667 2.749316 52.956703 253 253 253
-0.899856 2.860891 52.908962 252 252 252
-0.899049 2.972280 52.861568 254 254 254
-0.898252 3.083496 52.814697 254 254 254
-0.897467 3.194552 52.768547 254 254 254
-0.896698 3.305468 52.723324 254 254 254
-0.895948 3.416262 52.679226 254 254 254
-0.895221 3.526955 52.636463 254 254 254
-0.894520 3.637570 52.595234 254 254 254
-0.893848 3.748131 52.555733 253 253 253
-0.893209 3.858662 52.518154 251 251 251
-0.892605 3.969190 52.482666 251 251 251
-0.892040 4.079740 52.449436 254 254 254
-0.891516 4.190339 52.418610 254 254 254
-0.891035 4.301014 52.390324 254 254 254
-0.890599 4.411791 52.364708 254 254 254
-0.890210 4.522698 52.341858 254 254 254
-0.889871 4.633760 52.321877 253 253 253
-0.889581 4.745004 52.304859 252 253 253
-0.889343 4.856458 52.290882 254 254 254
-0.889158 4.968146 52.280006 254 254 254
-0.889028 5.080096 52.272308 254 254 254
-0.888952 5.192333 52.267838 254 254 254
-0.888931 5.304883 52.266644 253 253 253
-0.888967 5.417771 52.268749 251 252 251
-0.889059 5.531018 52.274170 251 251 251
-0.889208 5.644645 52.282890 251 251 251
-0.889412 5.758671 52.294888 252 253 252
-0.889670 5.873108 52.310089 254 254 254
-0.889982 5.987966 52.328400 253 253 253
-0.890344 6.103251 52.349689 251 251 250
-0.890754 6.218961 52.373791 252 252 251
-0.891208 6.335091 52.400505 254 254 253
-0.891703 6.451628 52.429596 253 254 253
-0.892234 6.568557 52.460812 254 254 253
-0.892796 6.685855 52.493866 254 254 254
-0.893384 6.803497 52.528481 255 255 255
-0.893995 6.921455 52.564354 254 254 254
-0.894621 7.039697 52.601200 254 254 254
-0.895260 7.158192 52.638733 254 254 254
-0.895905 7.276905 52.676682 255 255 255
-0.896553 7.395807 52.714806 254 254 254
-0.897201 7.514866 52.752880 255 255 255
-0.897844 7.634053 52.790703 254 254 254
-0.898480 7.753342 52.828110 254 254 254
-0.899107 7.872707 52.864944 254 254 254
-0.899722 7.992128 52.901096 254 254 254
-0.900323 8.111586 52.936474 254 254 254
-0.900911 8.231063 52.970993 254 254 254
-0.901482 8.350546 53.004604 254 254 254
-0.902038 8.470025 53.037285 254 254 254
-0.902578 8.589495 53.069035 254 254 254
-0.903102 8.708949 53.099861 254 254 254
-0.903611 8.828389 53.129799 254 254 254
-0.904107 8.947821 53.158916 254 254 254
-0.904589 9.067248 53.187283 254 254 254
-0.905060 9.186687 53.214996 254 254 254
-0.905522 9.306149 53.242161 254 254 254
-0.905977 9.425651 53.268890 255 255 255
-0.906426 9.545205 53.295269 253 254 253
-0.906870 9.664829 53.321407 247 249 247
-0.907312 9.784536 53.347385 239 241 239
-0.907752 9.904333 53.373238 233 234 232
-0.908190 10.024224 53.399002 231 231 230
-0.908626 10.144205 53.424656 231 232 231
-0.909059 10.264262 53.450127 239 239 238
-0.909488 10.384377 53.475330 250 250 249
-0.909910 10.504521 53.500130 252 252 252
-0.910322 10.624664 53.524384 249 249 249
-0.910723 10.744765 53.547913 250 251 251
-0.911108 10.864787 53.570545 253 253 253
-0.911475 10.984691 53.592125 254 254 254
-0.911821 11.104436 53.612495 254 254 254
-0.912145 11.223991 53.631538 255 255 255
-0.912445 11.343330 53.649162 254 254 254
-0.912719 11.462431 53.665321 254 254 254
-0.912969 11.581286 53.680019 254 254 253
-0.913195 11.699891 53.693275 253 252 251
-0.913397 11.818249 53.705151 250 248 248
-0.913577 11.936371 53.715736 248 246 246
-0.913736 12.054270 53.725121 249 248 248
-0.913877 12.171961 53.733414 249 249 249
-0.782135 -5.780108 52.662094 254 198 215
-0.782453 -5.668889 52.683487 254 200 217
-0.782856 -5.558186 52.710651 254 200 217
-0.783344 -5.447952 52.743504 254 205 221
-0.783915 -5.338141 52.781929 254 219 234
-0.784566 -5.228698 52.825745 254 227 242
-0.785294 -5.119568 52.874748 254 216 233
-0.786094 -5.010692 52.928661 254 201 219
-0.786963 -4.902009 52.987179 254 197 216
-0.787895 -4.793454 53.049900 254 200 221
-0.788883 -4.684964 53.116421 254 202 223
-0.789920 -4.576472 53.186260 254 199 221
-0.790999 -4.467913 53.258888 254 196 219
-0.792111 -4.359224 53.333755 254 196 219
-0.793247 -4.250343 53.410259 254 197 222
-0.794398 -4.141210 53.487778 254 198 225
-0.795555 -4.031773 53.565697 254 193 223
-0.796709 -3.921984 53.643394 254 189 220
-0.797851 -3.811803 53.720280 254 189 220
-0.798973 -3.701194 53.795773 254 183 213
-0.800065 -3.590133 53.869362 254 175 204
-0.801123 -3.478600 53.940556 254 176 203
-0.802139 -3.366586 54.008957 254 181 203
-0.803107 -3.254085 54.074173 254 182 199
-0.804024 -3.141101 54.135899 254 186 200
-0.804885 -3.027641 54.193874 254 200 212
-0.805687 -2.913718 54.247868 254 202 215
-0.806427 -2.799345 54.297680 253 189 203
-0.807102 -2.684543 54.343136 253 190 206
-0.807710 -2.569331 54.384060 254 205 223
-0.808248 -2.453732 54.420300 254 216 235
-0.808714 -2.337767 54.451679 254 224 244
-0.809105 -2.221462 54.478027 254 223 242
-0.809420 -2.104843 54.499195 254 202 222
-0.809655 -1.987939 54.515041 255 178 201
-0.809809 -1.870779 54.525421 254 174 198
-0.809881 -1.753396 54.530258 254 183 207
-0.809870 -1.635825 54.529499 254 188 213
-0.809776 -1.518101 54.523167 254 189 215
-0.809600 -1.400264 54.511345 254 190 217
-0.809346 -1.282353 54.494213 254 193 219
-0.809016 -1.164407 54.472027 254 196 220
-0.808617 -1.046467 54.445114 254 196 217
-0.808153 -0.928569 54.413898 254 191 210
-0.807632 -0.810748 54.378849 254 192 209
-0.807063 -0.693037 54.340500 254 203 218
-0.806452 -0.575461 54.299397 254 213 225
-0.805809 -0.458045 54.256104 254 219 229
-0.805142 -0.340804 54.211178 254 227 236
-0.804458 -0.223753 54.165142 254 235 242
-0.803765 -0.106899 54.118469 254 243 248
-0.803069 0.009754 54.071571 254 250 252
-0.802374 0.126204 54.024780 254 252 253
-0.801684 0.242455 53.978367 254 246 248
-0.801003 0.358509 53.932499 253 240 244
-0.800331 0.474372 53.887272 253 240 245
-0.799670 0.590046 53.842731 253 236 241
-0.799018 0.705537 53.798840 253 224 231
-0.798375 0.820848 53.755516 253 218 227
-0.797738 0.935980 53.712646 254 224 233
-0.797106 1.050933 53.670090 254 234 243
-0.796476 1.165706 53.627693 254 238 246
-0.795847 1.280297 53.585316 254 238 245
-0.795215 1.394701 53.542797 254 239 245
-0.794580 1.508915 53.500031 254 238 243
-0.793940 1.622934 53.456898 253 238 240
-0.793293 1.736752 53.413334 251 237 238
-0.792638 1.850366 53.369270 250 239 239
-0.791976 1.963771 53.324703 249 244 242
-0.791307 2.076963 53.279633 249 247 245
-0.790630 2.189943 53.234085 249 249 247
-0.789948 2.302708 53.188129 251 252 250
-0.789260 2.415260 53.141842 254 254 254
-0.788569 2.527601 53.095322 254 254 254
-0.787877 2.639735 53.048676 254 254 254
-0.787184 2.751670 53.002045 253 253 253
-0.786494 2.863412 52.955585 253 253 253
-0.785809 2.974973 52.909458 254 254 254
-0.785131 3.086364 52.863834 254 254 254
-0.784464 3.197600 52.818897 255 255 255
-0.783810 3.308698 52.774837 254 254 254
-0.783171 3.419675 52.731850 253 253 253
-0.782552 3.530551 52.690132 253 253 253
-0.781954 3.641349 52.649860 254 254 254
-0.781380 3.752090 52.611252 254 254 254
-0.780834 3.862799 52.574463 254 254 254
-0.780317 3.973502 52.539680 254 254 254
-0.779833 4.084222 52.507053 254 254 254
-0.779382 4.194986 52.476742 254 254 254
-0.778969 4.305821 52.448879 254 254 254
-0.778593 4.416753 52.423592 254 254 254
-0.778257 4.527807 52.400986 254 254 254
-0.777963 4.639011 52.381180 253 254 253
-0.777712 4.750393 52.364262 253 253 253
-0.777505 4.861979 52.350330 254 254 254
-0.777343 4.973795 52.339455 254 254 254
-0.777228 5.085869 52.331718 254 254 254
-0.777161 5.198229 52.327187 254 254 254
-0.777142 5.310899 52.325909 252 252 252
-0.777172 5.423905 52.327923 248 248 248
-0.777251 5.537270 52.333256 249 249 249
-0.777380 5.651016 52.341892 253 253 253
-0.777557 5.765160 52.353813 254 254 254
-0.777781 5.879715 52.368935 254 254 254
-0.778052 5.994690 52.387165 252 252 252
-0.778367 6.110091 52.408360 248 248 248
-0.778723 6.225913 52.432339 249 250 249
-0.779117 6.342149 52.458885 252 252 251
-0.779546 6.458784 52.487751 251 252 251
-0.780005 6.575800 52.518658 252 253 252
-0.780490 6.693172 52.551311 254 254 254
-0.780996 6.810868 52.585384 254 254 254
-0.781519 6.928858 52.620575 254 254 254
-0.782053 7.047106 52.656559 254 254 254
-0.782595 7.165576 52.693043 254 254 254
-0.783140 7.284233 52.729729 254 254 254
-0.783684 7.403042 52.766376 254 254 254
-0.784224 7.521970 52.802750 254 254 254
-0.784757 7.640987 52.838650 254 254 254
-0.785281 7.760065 52.873917 254 254 254
-0.785794 7.879181 52.908417 254 254 254
-0.786293 7.998315 52.942051 254 254 254
-0.786779 8.117454 52.974766 254 254 254
-0.787251 8.236583 53.006516 255 255 255
-0.787708 8.355698 53.037304 254 254 254
-0.788151 8.474793 53.067142 254 254 254
-0.788581 8.593872 53.096081 254 254 254
-0.788998 8.712940 53.124195 254 254 254
-0.789405 8.832006 53.151569 254 254 254
-0.789802 8.951086 53.178314 254 254 254
-0.790192 9.070195 53.204567 253 253 253
-0.790576 9.189353 53.230438 252 253 252
-0.790957 9.308583 53.256088 253 254 253
-0.791337 9.427906 53.281639 254 254 254
-0.791716 9.547340 53.307198 252 252 252
-0.792097 9.666905 53.332859 245 246 245
-0.792481 9.786613 53.358707 234 237 235
-0.792868 9.906470 53.384754 226 228 226
-0.793258 10.026476 53.410999 226 226 225
-0.793650 10.146623 53.437386 234 234 233
-0.794042 10.266889 53.463802 245 245 245
-0.794433 10.387248 53.490112 252 252 252
-0.794819 10.507664 53.516136 253 253 253
-0.795198 10.628093 53.541660 252 252 252
-0.795567 10.748493 53.566486 253 253 253
-0.795922 10.868813 53.590393 254 254 254
-0.796261 10.989008 53.613190 254 254 254
-0.796580 11.109033 53.634689 254 254 254
-0.796878 11.228853 53.654766 254 253 253
-0.797154 11.348434 53.673306 254 253 253
-0.797405 11.467757 53.690258 254 253 253
-0.797634 11.586816 53.705647 253 252 251
-0.797840 11.705602 53.719486 253 250 249
-0.798023 11.824125 53.731857 250 247 246
-0.798187 11.942400 53.742870 246 243 243
-0.798332 12.060444 53.752640 247 244 244
-0.798460 12.178276 53.761288 249 247 247
