ply
format ascii 1.0
element vertex 1177
property float x
property float y
property float z
property uchar red
property uchar green
property uchar blue
end_header
9.980995 2.324664 46.716938 145 125 144
9.993749 2.428469 46.776630 136 117 138
10.006672 2.532575 46.837120 127 107 130
10.019735 2.636978 46.898262 117 98 123
10.032900 2.741672 46.959881 113 95 120
10.046131 2.846651 47.021809 115 97 122
10.059387 2.951904 47.083862 119 102 125
10.072633 3.057422 47.145855 126 110 132
10.085828 3.163190 47.207615 137 122 141
10.098940 3.269199 47.268990 148 133 151
10.111940 3.375435 47.329838 156 141 157
10.124803 3.481885 47.390041 160 146 161
10.137506 3.588539 47.449501 164 151 165
10.150035 3.695385 47.508141 167 155 169
10.162380 3.802416 47.565929 170 158 172
10.174539 3.909624 47.622837 173 159 173
10.186511 4.017004 47.678875 175 160 173
10.198305 4.124554 47.734077 177 160 173
10.209934 4.232273 47.788506 178 159 171
10.221413 4.340163 47.842236 178 158 168
10.232763 4.448228 47.895363 179 157 166
10.244009 4.556477 47.947998 177 156 163
10.255177 4.664917 48.000271 174 153 160
10.266294 4.773559 48.052307 168 147 155
10.277390 4.882414 48.104237 156 138 146
10.288487 4.991495 48.156181 142 128 137
10.299616 5.100814 48.208271 136 126 136
10.310797 5.210385 48.260601 136 129 142
10.322046 5.320217 48.313255 136 130 147
10.333381 5.430321 48.366310 132 124 143
10.344809 5.540703 48.419800 121 109 132
10.356336 5.651370 48.473755 131 113 136
10.367963 5.762325 48.528172 163 141 162
10.379686 5.873569 48.583050 166 138 157
10.391501 5.985104 48.638351 134 101 118
10.403398 6.096923 48.694031 125 86 102
10.415368 6.209027 48.750061 141 98 110
10.427403 6.321412 48.806389 149 103 113
10.439495 6.434074 48.862988 149 102 110
10.451640 6.547014 48.919834 151 102 109
10.463837 6.660232 48.976921 153 103 109
10.476092 6.773734 49.034286 156 106 111
10.488414 6.887527 49.091957 157 108 113
10.500819 7.001624 49.150021 158 110 114
10.513325 7.116040 49.208557 157 111 114
10.525957 7.230794 49.267681 156 111 113
10.538744 7.345912 49.327530 155 112 112
10.551714 7.461416 49.388237 154 112 112
10.564895 7.577334 49.449932 153 114 114
10.578315 7.693692 49.512745 154 119 118
10.591998 7.810515 49.576794 154 123 124
10.605964 7.927825 49.642162 149 124 128
10.620228 8.045643 49.708923 138 120 127
10.634795 8.163981 49.777107 123 111 123
10.649668 8.282851 49.846718 109 98 118
10.664840 8.402258 49.917732 100 87 114
10.680300 8.522200 49.990097 112 92 125
10.696031 8.642672 50.063725 142 112 148
10.712012 8.763667 50.138527 154 115 151
10.728222 8.885174 50.214401 138 90 126
10.744638 9.007182 50.291241 125 70 104
10.761242 9.129679 50.368954 129 69 99
10.778012 9.252653 50.447445 130 68 92
10.794935 9.376100 50.526653 125 64 82
10.812001 9.500013 50.606533 120 63 77
10.829206 9.624395 50.687065 117 67 76
10.846549 9.749249 50.768242 113 73 77
10.864038 9.874582 50.850094 109 81 80
10.881680 10.000413 50.932674 106 90 86
10.899492 10.126755 51.016045 102 97 92
10.917492 10.253633 51.100292 99 101 98
10.935699 10.381072 51.185509 99 103 103
10.954134 10.509097 51.271801 97 99 102
10.972822 10.637739 51.359272 91 85 91
10.991786 10.767029 51.448032 109 97 104
11.011047 10.896995 51.538189 159 145 150
11.030624 11.027666 51.629822 196 171 177
11.050538 11.159072 51.723026 196 162 169
11.070800 11.291234 51.817863 190 157 163
11.091418 11.424173 51.914375 184 152 158
11.112398 11.557904 52.012573 151 111 119
11.133734 11.692431 52.112431 117 73 83
11.155414 11.827756 52.213909 119 80 89
11.177420 11.963865 52.316910 128 93 101
11.199723 12.100740 52.421303 125 95 102
11.222286 12.238349 52.526909 119 93 99
11.245064 12.376649 52.633522 114 93 98
11.268000 12.515585 52.740879 117 99 103
11.291034 12.655093 52.848690 123 108 112
11.314095 12.795097 52.956635 126 114 117
11.337114 12.935518 53.064373 127 117 120
11.360011 13.076263 53.171543 127 119 122
11.382709 13.217238 53.277782 127 120 123
11.405130 13.358349 53.382729 127 120 123
11.427201 13.499498 53.486038 127 121 123
11.448854 13.640594 53.587383 127 121 122
11.470023 13.781546 53.686466 127 121 123
11.490655 13.922273 53.783031 128 121 124
11.510702 14.062703 53.876869 128 119 124
9.466982 -8.030158 43.868431 159 132 140
9.467636 -7.936141 43.871460 148 121 132
9.468504 -7.842288 43.875484 125 97 111
9.469584 -7.748592 43.880493 103 72 88
9.470869 -7.655038 43.886440 114 82 98
9.472343 -7.561611 43.893276 175 149 162
9.473988 -7.468288 43.900894 232 216 225
9.475775 -7.375043 43.909172 225 202 212
9.477671 -7.281846 43.917957 160 116 129
9.479634 -7.188663 43.927059 113 58 70
9.481624 -7.095460 43.936275 125 68 80
9.483589 -7.002200 43.945389 142 84 96
9.485481 -6.908846 43.954155 147 88 99
9.487249 -6.815366 43.962345 150 91 102
9.488847 -6.721730 43.969749 151 92 104
9.490229 -6.627911 43.976154 152 92 105
9.491360 -6.533892 43.981396 153 92 107
9.492212 -6.439661 43.985344 154 94 109
9.492770 -6.345216 43.987930 155 93 109
9.493026 -6.250562 43.989113 155 91 109
9.492988 -6.155711 43.988934 155 90 109
9.492672 -6.060684 43.987476 156 88 109
9.492109 -5.965508 43.984867 155 87 108
9.491335 -5.870213 43.981277 153 85 107
9.490393 -5.774831 43.976913 149 82 105
9.489330 -5.679396 43.971992 146 81 103
9.488196 -5.583940 43.966736 145 82 104
9.487039 -5.488492 43.961369 144 84 106
9.485897 -5.393077 43.956081 143 87 107
9.484809 -5.297715 43.951038 144 90 110
9.483802 -5.202419 43.946373 146 93 112
9.482894 -5.107196 43.942162 147 95 114
9.482096 -5.012050 43.938465 149 97 116
9.481406 -4.916975 43.935268 150 99 117
9.480821 -4.821968 43.932556 151 100 118
9.480324 -4.727017 43.930252 151 101 120
9.479901 -4.632112 43.928299 151 102 121
9.479537 -4.537242 43.926609 151 102 121
9.479214 -4.442400 43.925114 149 102 121
9.478925 -4.347580 43.923771 147 102 121
9.478662 -4.252778 43.922558 144 101 119
9.478435 -4.157995 43.921501 141 100 117
9.478255 -4.063239 43.920670 141 101 117
9.478151 -3.968517 43.920185 142 103 118
9.478160 -3.873843 43.920227 143 106 118
9.478330 -3.779234 43.921017 144 108 118
9.478718 -3.684705 43.922813 145 110 118
9.479388 -3.590276 43.925919 145 110 118
9.480412 -3.495965 43.930664 146 110 118
9.481862 -3.401785 43.937382 146 110 117
9.483809 -3.307750 43.946404 145 107 116
9.486325 -3.213869 43.958065 143 104 113
9.489474 -3.120145 43.972656 140 100 110
9.493313 -3.026579 43.990444 139 99 110
9.497887 -2.933163 44.011639 141 103 113
9.503232 -2.839886 44.036407 142 108 118
9.509370 -2.746732 44.064850 137 107 116
9.516309 -2.653677 44.097004 126 101 110
9.524043 -2.560699 44.132843 112 92 100
9.532553 -2.467766 44.172276 100 84 94
9.541805 -2.374848 44.215149 103 91 102
9.551753 -2.281912 44.261246 124 115 128
9.562343 -2.188924 44.310314 142 134 150
9.573507 -2.095850 44.362049 142 135 155
9.585174 -2.002657 44.416111 136 129 151
9.597262 -1.909316 44.472130 131 125 147
9.609694 -1.815798 44.529732 127 123 143
9.622383 -1.722078 44.588535 125 121 140
9.635247 -1.628134 44.648144 124 122 139
9.648207 -1.533948 44.708199 127 126 142
9.661185 -1.439506 44.768337 133 132 147
9.674115 -1.344798 44.828251 138 137 151
9.686934 -1.249817 44.887650 142 140 153
9.699588 -1.154561 44.946289 145 142 155
9.712037 -1.059029 45.003979 149 146 159
9.724251 -0.963226 45.060570 154 151 163
9.736208 -0.867155 45.115982 158 156 166
9.747899 -0.770825 45.170155 159 157 167
9.759325 -0.674243 45.223103 159 158 168
9.770498 -0.577417 45.274876 160 158 168
9.781435 -0.480357 45.325554 162 159 170
9.792161 -0.383070 45.375256 165 160 171
9.802705 -0.285563 45.424114 170 161 174
9.813099 -0.187843 45.472282 174 162 175
9.823376 -0.089915 45.519901 172 158 171
9.833565 0.008220 45.567116 167 149 164
9.843695 0.106557 45.614056 159 139 156
9.853789 0.205095 45.660831 152 132 148
9.863870 0.303835 45.707542 148 128 144
9.873950 0.402776 45.754257 150 129 145
9.884044 0.501920 45.801025 156 136 152
9.894157 0.601266 45.847889 165 146 160
9.904299 0.700816 45.894886 169 151 164
9.914474 0.800572 45.942036 168 151 162
9.924691 0.900534 45.989376 167 150 161
9.934958 1.000706 46.036953 166 151 160
9.945287 1.101090 46.084816 164 150 158
9.955692 1.201689 46.133034 162 149 156
9.966196 1.302509 46.181705 163 150 156
9.976818 1.403556 46.230927 164 151 158
9.987582 1.504836 46.280807 166 153 160
9.998513 1.606358 46.331455 167 153 160
10.009634 1.708130 46.382992 167 151 159
10.020965 1.810163 46.435497 166 150 158
10.032522 1.912466 46.489048 164 147 158
10.044314 2.015046 46.543694 163 145 157
10.056347 2.117913 46.599449 159 142 155
10.068615 2.221072 46.656300 156 136 153
10.081107 2.324527 46.714184 150 130 149
10.093803 2.428282 46.773018 142 121 143
10.106680 2.532335 46.832687 132 111 134
10.119705 2.636684 46.893040 121 100 125
10.132842 2.741324 46.953918 115 94 119
10.146056 2.846247 47.015148 113 93 117
10.159306 2.951446 47.076542 113 95 117
10.172553 3.056908 47.137928 120 103 123
10.185760 3.162622 47.199127 133 116 134
10.198892 3.268576 47.259979 144 128 145
10.211920 3.374758 47.320351 153 136 152
10.224816 3.481155 47.380108 158 142 157
10.237560 3.587757 47.439163 162 146 160
10.250134 3.694552 47.497429 164 150 163
10.262531 3.801533 47.554874 167 153 166
10.274747 3.908692 47.611481 171 156 168
10.286781 4.016025 47.667244 173 158 170
10.298643 4.123528 47.722210 175 159 171
10.310345 4.231204 47.776432 177 159 171
10.321905 4.339053 47.830002 179 158 169
10.333344 4.447082 47.883007 180 158 167
10.344687 4.555296 47.935574 180 157 165
10.355964 4.663707 47.987823 179 156 162
10.367199 4.772325 48.039886 174 152 158
10.378424 4.881162 48.091900 165 143 150
10.389664 4.990231 48.143986 153 134 142
10.400946 5.099544 48.196262 144 128 137
10.412292 5.209115 48.248840 140 126 136
10.423719 5.318955 48.301796 140 125 139
10.435243 5.429072 48.355190 140 124 141
10.446871 5.539475 48.409073 137 117 136
10.458606 5.650169 48.463451 136 111 132
10.470449 5.761157 48.518333 145 115 136
10.482394 5.872437 48.573685 148 113 133
10.494435 5.984012 48.629482 143 104 121
10.506562 6.095877 48.685673 146 102 118
10.518761 6.208026 48.742199 153 106 118
10.531023 6.320457 48.799023 152 104 113
10.543340 6.433167 48.856098 150 100 108
10.555705 6.546153 48.913395 150 99 106
10.568115 6.659413 48.970901 151 98 106
10.580576 6.772954 49.028641 152 100 107
10.593097 6.886784 49.086662 152 102 109
10.605691 7.000911 49.145020 153 104 110
10.618378 7.115353 49.203808 152 105 111
10.631181 7.230127 49.263138 152 106 111
10.644131 7.345258 49.323143 151 108 111
10.657257 7.460772 49.383968 149 110 111
10.670588 7.576692 49.445740 151 114 115
10.684154 7.693048 49.508602 154 120 121
10.697981 7.809866 49.572674 155 125 127
10.712090 7.927170 49.638058 151 127 130
10.726500 8.044980 49.704826 141 123 129
10.741216 8.163311 49.773022 130 117 127
10.756245 8.282177 49.842663 121 108 123
10.771583 8.401584 49.913734 114 99 120
10.787217 8.521532 49.986183 115 93 119
10.803136 8.642020 50.059948 123 92 122
10.819318 8.763039 50.134930 130 89 121
10.835742 8.884580 50.211040 129 80 111
10.852387 9.006633 50.288174 129 72 101
10.869233 9.129186 50.366230 131 69 95
10.886258 9.252228 50.445122 127 64 85
10.903449 9.375752 50.524780 120 57 74
10.920792 9.499753 50.605145 116 57 69
10.938281 9.624228 50.686188 115 63 72
10.955915 9.749183 50.767902 114 71 76
10.973698 9.874622 50.850300 111 79 80
10.991636 10.000560 50.933426 107 88 85
11.009745 10.127012 51.017338 103 94 91
11.028038 10.253998 51.102108 100 98 96
11.046536 10.381541 51.187824 100 101 101
11.065261 10.509668 51.274590 100 98 102
11.084235 10.638412 51.362514 97 87 94
11.103485 10.767799 51.451717 111 96 104
11.123033 10.897863 51.542294 153 133 141
11.142899 11.028634 51.634354 186 158 165
11.163107 11.160143 51.727993 191 154 163
11.183675 11.292419 51.823303 197 161 168
11.204614 11.425485 51.920330 201 168 175
11.225932 11.559358 52.019112 162 122 131
11.247627 11.694051 52.119648 112 68 79
11.269694 11.829566 52.221905 110 71 81
11.292118 11.965901 52.325813 125 90 99
11.314872 12.103037 52.431248 126 96 102
11.337922 12.240947 52.538059 122 96 101
11.361223 12.379591 52.646034 117 95 99
11.384722 12.518917 52.754921 118 98 102
11.408354 12.658862 52.864429 122 106 109
11.432051 12.799351 52.974236 126 112 114
11.455736 12.940300 53.083988 127 116 118
11.479326 13.081614 53.193302 127 118 120
11.502741 13.223197 53.301800 127 120 121
11.525895 13.364946 53.409092 126 120 121
11.548711 13.506763 53.514816 126 121 121
11.571108 13.648540 53.618603 126 122 121
11.593017 13.790186 53.720127 126 122 121
11.614376 13.931609 53.819099 127 122 123
11.635130 14.072727 53.915272 128 121 123
9.569260 -7.941994 43.903816 139 110 122
9.569862 -7.847847 43.906582 122 92 107
9.570681 -7.753861 43.910336 110 79 96
9.571707 -7.660027 43.915039 126 93 110
9.572926 -7.566324 43.920631 178 151 163
9.574318 -7.472733 43.927021 222 201 210
9.575857 -7.379227 43.934082 205 174 184
9.577509 -7.285777 43.941662 146 99 110
9.579236 -7.192350 43.949589 119 65 74
9.580993 -7.098911 43.957645 133 77 85
9.582731 -7.005424 43.965622 141 84 91
9.584400 -6.911852 43.973278 149 92 99
9.585951 -6.818163 43.980392 162 105 113
9.587333 -6.724326 43.986732 164 105 115
9.588502 -6.630314 43.992096 156 96 109
9.589423 -6.536110 43.996323 153 92 106
9.590068 -6.441701 43.999279 152 90 105
9.590417 -6.347085 44.000885 152 88 105
9.590466 -6.252265 44.001106 151 86 105
9.590221 -6.157257 43.999985 152 86 106
9.589700 -6.062078 43.997593 157 91 111
9.588931 -5.966756 43.994068 162 94 116
9.587955 -5.871322 43.989586 157 91 112
9.586813 -5.775807 43.984348 148 82 105
9.585557 -5.680248 43.978588 142 79 101
9.584236 -5.584675 43.972527 142 81 102
9.582902 -5.489120 43.966404 142 85 105
9.581595 -5.393609 43.960411 144 89 109
9.580358 -5.298160 43.954731 146 93 113
9.579218 -5.202789 43.949501 148 95 115
9.578197 -5.107504 43.944817 148 96 115
9.577306 -5.012308 43.940731 149 97 116
9.576548 -4.917197 43.937248 148 98 116
9.575913 -4.822164 43.934341 148 99 117
9.575393 -4.727200 43.931953 149 100 118
9.574967 -4.632291 43.930000 149 101 120
9.574617 -4.537427 43.928398 149 102 121
9.574327 -4.442598 43.927063 148 102 121
9.574083 -4.347795 43.925945 146 102 121
9.573876 -4.253013 43.924995 143 101 120
9.573707 -4.158252 43.924217 141 100 118
9.573586 -4.063516 43.923664 141 101 117
9.573536 -3.968810 43.923435 142 103 117
9.573590 -3.874148 43.923683 143 105 117
9.573792 -3.779543 43.924610 144 107 117
9.574195 -3.685011 43.926456 144 109 117
9.574862 -3.590571 43.929520 145 110 118
9.575861 -3.496238 43.934101 145 110 118
9.577266 -3.402030 43.940548 145 110 118
9.579148 -3.307959 43.949184 145 108 117
9.581579 -3.214035 43.960335 144 106 116
9.584625 -3.120263 43.974312 142 104 115
9.588347 -3.026644 43.991390 140 102 114
9.592797 -2.933174 44.011806 139 103 115
9.598012 -2.839843 44.035732 138 106 117
9.604019 -2.746634 44.063290 133 106 116
9.610830 -2.653529 44.094543 123 100 110
9.618446 -2.560504 44.129486 109 91 101
9.626853 -2.467530 44.168053 100 86 96
9.636018 -2.374577 44.210102 105 95 107
9.645902 -2.281613 44.255447 126 117 131
9.656451 -2.188604 44.303852 141 133 149
9.667603 -2.095517 44.355011 141 134 153
9.679284 -2.002319 44.408604 135 128 149
9.691419 -1.908979 44.464279 129 124 145
9.703925 -1.815469 44.521660 126 121 141
9.716718 -1.721762 44.580353 122 119 137
9.729716 -1.627837 44.639992 120 118 135
9.742837 -1.533673 44.700188 124 123 138
9.756002 -1.439257 44.760590 132 132 147
9.769141 -1.344577 44.820869 139 137 152
9.782191 -1.249625 44.880745 141 139 152
9.795094 -1.154398 44.939945 142 139 152
9.807811 -1.058896 44.998291 145 141 154
9.820304 -0.963120 45.055607 152 148 159
9.832553 -0.867075 45.111805 158 154 165
9.844543 -0.770768 45.166817 158 156 165
9.856274 -0.674206 45.220638 158 156 166
9.867755 -0.577397 45.273312 160 158 168
9.879000 -0.480350 45.324905 164 161 171
9.890032 -0.383072 45.375519 168 162 173
9.900876 -0.285571 45.425274 171 161 174
9.911564 -0.187852 45.474308 174 161 174
9.922125 -0.089920 45.522762 175 159 172
9.932584 0.008220 45.570747 172 154 167
9.942970 0.106567 45.618401 168 147 161
9.953305 0.205118 45.665817 162 141 155
9.963607 0.303872 45.713081 158 137 151
9.973888 0.402829 45.760250 157 136 150
9.984159 0.501989 45.807377 160 140 153
9.994429 0.601352 45.854492 166 146 160
10.004703 0.700919 45.901627 169 150 163
10.014984 0.800689 45.948799 168 149 162
10.025282 0.900665 45.996048 167 150 161
10.035607 1.000846 46.043419 166 150 160
10.045970 1.101236 46.090965 162 146 156
10.056389 1.201838 46.138763 157 142 151
10.066884 1.302656 46.186916 153 141 148
10.077480 1.403695 46.235531 155 143 150
10.088202 1.504963 46.284725 162 150 157
10.099077 1.606467 46.334621 166 154 161
10.110132 1.708217 46.385342 166 153 161
10.121390 1.810222 46.436989 165 151 160
10.132869 1.912490 46.489655 164 150 159
10.144581 2.015033 46.543388 163 148 159
10.156534 2.117857 46.598232 161 145 158
10.168726 2.220970 46.654171 159 140 155
10.181148 2.324377 46.711163 155 135 153
10.193781 2.428079 46.769119 149 127 148
10.206603 2.532079 46.827950 139 117 139
10.219584 2.636373 46.887505 128 105 129
10.232688 2.740957 46.947628 120 97 121
10.245878 2.845823 47.008141 115 94 117
10.259116 2.950965 47.068882 115 94 117
10.272363 3.056371 47.129654 120 100 121
10.285579 3.162030 47.190289 130 111 130
10.298730 3.267929 47.250629 141 123 140
10.311786 3.374057 47.310528 152 133 149
10.324718 3.480402 47.369862 159 141 155
10.337505 3.586953 47.428528 162 144 157
10.350131 3.693698 47.486454 161 144 157
10.362584 3.800631 47.543591 159 143 155
10.374862 3.907743 47.599922 159 143 155
10.386966 4.015031 47.655453 163 147 159
10.398902 4.122492 47.710217 168 151 163
10.410686 4.230127 47.764282 172 154 165
10.422336 4.337940 47.817730 175 155 166
10.433872 4.445935 47.870663 177 156 165
10.445322 4.554120 47.923191 178 156 163
10.456714 4.662505 47.975460 177 154 161
10.468077 4.771103 48.027592 175 151 157
10.479440 4.879926 48.079727 171 146 152
10.490830 4.988986 48.131985 164 140 147
10.502275 5.098299 48.184494 156 133 141
10.513796 5.207875 48.237350 150 126 136
10.525410 5.317726 48.290638 147 123 136
10.537130 5.427862 48.344410 147 121 137
10.548967 5.538291 48.398716 148 118 136
10.560921 5.649016 48.453560 147 113 133
10.572989 5.760040 48.508930 148 110 130
10.585169 5.871365 48.564812 150 109 128
10.597447 5.982986 48.621143 154 110 127
10.609814 6.094901 48.677883 159 111 126
10.622255 6.207104 48.734962 159 110 121
10.634760 6.319591 48.792336 156 104 113
10.647316 6.432357 48.849945 153 100 108
10.659918 6.545398 48.907757 152 98 106
10.672561 6.658715 48.965763 152 95 105
10.685247 6.772309 49.023972 151 95 105
10.697985 6.886188 49.082413 150 97 107
10.710790 7.000362 49.141159 150 99 108
10.723679 7.114845 49.200294 149 101 110
10.736676 7.229656 49.259930 148 103 110
10.749813 7.344820 49.320198 146 105 111
10.763117 7.460359 49.381237 146 107 112
10.776620 7.576302 49.443192 148 113 116
10.790353 7.692675 49.506199 153 121 122
10.804345 7.809507 49.570393 155 126 128
10.818617 7.926821 49.635868 152 127 129
10.833188 8.044640 49.702724 145 124 128
10.848069 8.162980 49.771000 138 120 127
10.863268 8.281857 49.840733 133 115 125
10.878781 8.401277 49.911903 128 107 121
10.894601 8.521243 49.984489 125 98 117
10.910713 8.641755 50.058411 126 91 112
10.927102 8.762807 50.133602 128 84 108
10.943745 8.884388 50.209957 130 79 103
10.960620 9.006491 50.287384 133 75 98
10.977708 9.129104 50.365784 133 71 91
10.994988 9.252217 50.445065 127 64 81
11.012443 9.375819 50.525143 120 57 70
11.030060 9.499907 50.605972 116 57 67
11.047829 9.624477 50.687496 118 63 71
11.065747 9.749530 50.769711 117 70 76
11.083818 9.875072 50.852619 115 78 80
11.102045 10.001113 50.936245 112 85 85
11.120440 10.127666 51.020634 108 91 90
11.139017 10.254753 51.105869 106 94 95
11.157795 10.382393 51.192024 105 96 99
11.176796 10.510613 51.279202 106 95 101
11.196042 10.639443 51.367500 108 91 99
11.215562 10.768917 51.457058 116 91 101
11.235377 10.899063 51.547970 132 101 111
11.255514 11.029917 51.640362 145 108 117
11.275999 11.161513 51.734344 151 108 118
11.296853 11.293883 51.830021 167 122 132
11.318090 11.427053 51.927460 184 141 151
11.339725 11.561049 52.026718 163 118 129
11.361762 11.695885 52.127823 121 77 88
11.384197 11.831573 52.230759 114 74 84
11.407020 11.968109 52.335468 125 89 98
11.430210 12.105487 52.441864 127 96 103
11.453732 12.243678 52.549782 124 97 103
11.477548 12.382651 52.659050 120 96 100
11.501601 12.522355 52.769405 118 97 100
11.525830 12.662727 52.880569 121 103 106
11.550165 12.803696 52.992218 126 110 112
11.574524 12.945172 53.103977 128 115 116
11.598824 13.087064 53.215462 128 118 118
11.622975 13.229268 53.326271 128 119 119
11.646892 13.371679 53.436001 127 120 120
11.670484 13.514189 53.544239 127 121 120
11.693667 13.656688 53.650608 127 121 120
11.716365 13.799072 53.754742 126 122 121
11.738504 13.941243 53.856319 127 122 122
9.671508 -7.853528 43.938370 130 98 114
9.672044 -7.759243 43.940807 131 97 114
9.672791 -7.665113 43.944199 143 107 124
9.673736 -7.571123 43.948490 171 136 151
9.674858 -7.477252 43.953590 190 156 168
9.676132 -7.383475 43.959377 170 127 138
9.677525 -7.289762 43.965702 136 84 93
9.678996 -7.196082 43.972389 133 78 84
9.680504 -7.102398 43.979240 139 84 88
9.681998 -7.008676 43.986027 138 81 85
9.683428 -6.914877 43.992523 158 103 107
9.684744 -6.820971 43.998505 186 131 137
9.685896 -6.726926 44.003738 181 123 132
9.686841 -6.632715 44.008030 160 100 111
9.687540 -6.538321 44.011208 150 88 103
9.687965 -6.443730 44.013138 147 84 100
9.688098 -6.348939 44.013741 145 81 99
9.687931 -6.253953 44.012985 144 79 98
9.687473 -6.158784 44.010902 147 81 101
9.686740 -6.063453 44.007572 155 89 109
9.685762 -5.967985 44.003128 162 96 117
9.684579 -5.872412 43.997753 157 92 113
9.683236 -5.776766 43.991653 145 83 104
9.681785 -5.681083 43.985058 140 80 101
9.680276 -5.585396 43.978207 140 82 103
9.678764 -5.489736 43.971336 141 85 106
9.677295 -5.394130 43.964657 144 90 110
9.675907 -5.298597 43.958359 147 94 114
9.674637 -5.203155 43.952587 148 95 115
9.673505 -5.107810 43.947445 147 96 115
9.672526 -5.012567 43.942997 147 96 115
9.671701 -4.917421 43.939251 146 96 115
9.671026 -4.822366 43.936184 145 97 115
9.670487 -4.727391 43.933735 146 98 117
9.670066 -4.632483 43.931820 146 99 119
9.669743 -4.537629 43.930347 146 99 119
9.669496 -4.442817 43.929230 145 99 119
9.669309 -4.348036 43.928383 145 99 119
9.669171 -4.253281 43.927753 143 99 119
9.669076 -4.158546 43.927322 141 99 118
9.669031 -4.063835 43.927120 141 100 117
9.669053 -3.969152 43.927219 141 101 116
9.669170 -3.874506 43.927750 142 104 117
9.669423 -3.779912 43.928898 143 106 117
9.669860 -3.685383 43.930885 143 107 116
9.670542 -3.590935 43.933979 144 108 117
9.671534 -3.496587 43.938488 144 108 117
9.672908 -3.402354 43.944733 144 108 117
9.674738 -3.308250 43.953045 144 107 117
9.677096 -3.214285 43.963760 143 106 116
9.680051 -3.120467 43.977184 142 105 116
9.683666 -3.026797 43.993607 140 104 116
9.687995 -2.933272 44.013275 137 103 116
9.693082 -2.839885 44.036385 133 102 115
9.698959 -2.746621 44.063084 127 100 113
9.705643 -2.653463 44.093449 118 97 109
9.713138 -2.560389 44.127499 109 92 103
9.721434 -2.467370 44.165188 104 92 103
9.730508 -2.374379 44.206409 112 103 114
9.740318 -2.281383 44.250980 126 119 132
9.750819 -2.188349 44.298687 136 129 145
9.761947 -2.095244 44.349239 136 129 146
9.773634 -2.002037 44.402336 130 125 144
9.785803 -1.908694 44.457623 126 122 141
9.798374 -1.815187 44.514732 122 118 137
9.811262 -1.721489 44.573284 118 116 134
9.824382 -1.627578 44.632889 118 116 133
9.837653 -1.533433 44.693180 122 121 137
9.850994 -1.439038 44.753792 132 131 146
9.864334 -1.344382 44.814392 138 137 151
9.877604 -1.249456 44.874683 140 137 151
9.890749 -1.154256 44.934399 140 137 150
9.903722 -1.058779 44.993336 141 137 150
9.916488 -0.963028 45.051331 148 144 155
9.929017 -0.867007 45.108253 155 151 161
9.941298 -0.770721 45.164043 156 154 162
9.953325 -0.674177 45.218689 157 155 164
9.965104 -0.577383 45.272198 160 158 166
9.976648 -0.480347 45.324646 165 161 170
9.987978 -0.383077 45.376118 168 163 173
9.999115 -0.285580 45.426716 170 161 173
10.010089 -0.187861 45.476570 172 160 172
10.020926 -0.089926 45.525799 175 160 172
10.031649 0.008221 45.574516 175 158 170
10.042285 0.106577 45.622837 173 154 166
10.052854 0.205140 45.670853 170 150 162
10.063370 0.303909 45.718628 168 149 160
10.073846 0.402882 45.766224 167 148 160
10.084291 0.502058 45.813675 167 149 161
10.094711 0.601438 45.861015 169 151 164
10.105111 0.701020 45.908260 169 151 164
10.115496 0.800805 45.955441 167 149 161
10.125873 0.900793 46.002583 166 150 160
10.136251 1.000984 46.049732 167 151 161
10.146646 1.101380 46.096958 164 148 159
10.157073 1.201983 46.144329 157 142 152
10.167558 1.302798 46.191959 146 133 142
10.178123 1.403830 46.239964 145 133 141
10.188799 1.505085 46.288460 158 146 154
10.199615 1.606570 46.337597 166 154 163
10.210599 1.708296 46.387497 165 154 162
10.221776 1.810272 46.438282 164 152 162
10.233171 1.912507 46.490047 165 151 161
10.244797 2.015010 46.542862 164 150 161
10.256664 2.117791 46.596779 163 147 160
10.268774 2.220857 46.651794 161 143 158
10.281116 2.324213 46.707870 158 138 155
10.293681 2.427863 46.764946 153 131 150
10.306441 2.531807 46.822918 145 121 143
10.319371 2.636044 46.881660 135 111 134
10.332435 2.740570 46.941010 125 102 125
10.345597 2.845379 47.000805 118 97 119
10.358819 2.950463 47.060875 118 98 120
10.372062 3.055812 47.121037 123 104 123
10.385285 3.161415 47.181114 131 112 129
10.398457 3.267260 47.240952 140 121 137
10.411541 3.373335 47.300392 151 132 146
10.424511 3.479628 47.359318 160 140 154
10.437346 3.586128 47.417625 164 143 156
10.450027 3.692826 47.475239 160 139 151
10.462543 3.799712 47.532101 151 130 143
10.474892 3.906781 47.588200 144 124 137
10.487073 4.014028 47.643539 145 127 139
10.499094 4.121450 47.698154 153 135 146
10.510970 4.229049 47.752110 160 142 153
10.522719 4.336829 47.805489 166 146 156
10.534365 4.444795 47.858395 170 149 158
10.545933 4.552956 47.910946 174 152 159
10.557452 4.661322 47.963284 176 152 159
10.568954 4.769906 48.015537 174 150 157
10.580466 4.878719 48.067833 173 147 154
10.592018 4.987777 48.120316 170 142 150
10.603636 5.097093 48.173096 165 136 145
10.615340 5.206678 48.226273 160 129 139
10.627151 5.316547 48.279930 156 124 136
10.639080 5.426706 48.334122 154 120 134
10.651134 5.537165 48.388885 154 117 132
10.663315 5.647927 48.444221 153 114 130
10.675621 5.758995 48.500130 153 111 128
10.688042 5.870367 48.556561 155 110 126
10.700569 5.982042 48.613472 159 112 127
10.713189 6.094015 48.670807 163 113 126
10.725885 6.206279 48.728485 161 109 119
10.738645 6.318829 48.786453 157 103 112
10.751456 6.431660 48.844658 155 99 108
10.764311 6.544768 48.903053 153 96 106
10.777202 6.658151 48.961620 152 93 105
10.790132 6.771811 49.020359 151 92 104
10.803108 6.885753 49.079311 149 93 105
10.816142 6.999987 49.138531 148 94 106
10.829255 7.114527 49.198101 147 96 108
10.842468 7.229392 49.258129 145 99 110
10.855812 7.344604 49.318752 144 102 110
10.869317 7.460188 49.380104 144 107 113
10.883014 7.576170 49.442333 148 114 118
10.896935 7.692579 49.505577 152 120 124
10.911111 7.809442 49.569977 155 125 128
10.925564 7.926784 49.635635 154 126 129
10.940315 8.044628 49.702656 150 124 129
10.955378 8.162994 49.771084 147 122 130
10.970759 8.281896 49.840965 145 119 129
10.986461 8.401342 49.912300 141 112 125
11.002477 8.521340 49.985058 138 103 119
11.018791 8.641888 50.059177 136 95 113
11.035393 8.762980 50.134598 135 88 107
11.052258 8.884612 50.211224 136 82 102
11.069368 9.006772 50.288952 136 77 96
11.086699 9.129450 50.367691 135 72 89
11.104234 9.252636 50.447350 129 67 80
11.121952 9.376321 50.527847 122 61 72
11.139838 9.500496 50.609104 120 61 69
11.157885 9.625159 50.691090 121 66 73
11.176085 9.750311 50.773773 121 72 77
11.194436 9.875952 50.857143 120 77 81
11.212943 10.002091 50.941227 118 82 85
11.231616 10.128742 51.026058 115 87 90
11.250467 10.255922 51.111698 113 90 93
11.269514 10.383652 51.198231 113 92 96
11.288776 10.511954 51.285744 114 92 98
11.308281 10.640862 51.374352 116 90 99
11.328054 10.770409 51.464184 119 87 98
11.348121 10.900622 51.555344 120 83 95
11.368511 11.031545 51.647984 120 77 90
11.389252 11.163210 51.742207 122 75 88
11.410370 11.295654 51.838146 134 86 99
11.431886 11.428910 51.935898 150 102 115
11.453816 11.563006 52.035530 147 102 114
11.476171 11.697964 52.137089 130 87 98
11.498954 11.833799 52.240589 124 84 95
11.522156 11.970517 52.346001 127 91 100
11.545761 12.108113 52.453243 127 95 103
11.569741 12.246568 52.562183 126 97 103
11.594056 12.385850 52.672649 122 97 102
11.618656 12.525915 52.784409 119 96 100
11.643476 12.666701 52.897167 121 101 104
11.668446 12.808138 53.010605 126 109 111
11.693484 12.950140 53.124355 129 115 116
11.718502 13.092609 53.238014 129 117 118
11.743408 13.235443 53.351166 129 119 119
11.768107 13.378530 53.463375 128 120 119
11.792507 13.521757 53.574226 127 120 119
11.816515 13.665009 53.683296 127 120 118
11.840045 13.808173 53.790195 127 121 119
9.773441 -7.859332 43.970837 151 112 130
9.773676 -7.764732 43.971897 155 115 134
9.774126 -7.670297 43.973919 151 108 127
9.774776 -7.576008 43.976849 150 104 122
9.775610 -7.481847 43.980598 150 101 117
9.776600 -7.387788 43.985054 142 89 102
9.777715 -7.293802 43.990067 137 81 90
9.778913 -7.199857 43.995461 142 85 90
9.780153 -7.105919 44.001041 138 81 83
9.781387 -7.011951 44.006588 135 78 80
9.782562 -6.917919 44.011875 168 111 114
9.783629 -6.823789 44.016674 199 143 148
9.784538 -6.729529 44.020767 185 126 134
9.785244 -6.635113 44.023941 158 96 108
9.785709 -6.540524 44.026035 146 84 98
9.785903 -6.445746 44.026905 143 79 96
9.785810 -6.350778 44.026485 140 76 94
9.785419 -6.255622 44.024731 140 74 94
9.784740 -6.160292 44.021675 141 76 96
9.783790 -6.064807 44.017395 147 83 103
9.782598 -5.969193 44.012035 153 89 109
9.781205 -5.873482 44.005768 150 88 108
9.779658 -5.777706 43.998810 143 83 103
9.778009 -5.681902 43.991394 141 82 103
9.776314 -5.586102 43.983765 141 84 105
9.774625 -5.490339 43.976166 142 86 106
9.772993 -5.394641 43.968822 144 89 108
9.771459 -5.299027 43.961922 146 92 111
9.770061 -5.203515 43.955631 146 93 112
9.768822 -5.108114 43.950058 146 93 112
9.767758 -5.012826 43.945271 145 93 112
9.766873 -4.917650 43.941292 145 93 113
9.766163 -4.822576 43.938095 145 94 114
9.765614 -4.727594 43.935623 145 95 115
9.765205 -4.632690 43.933784 145 96 117
9.764916 -4.537850 43.932487 144 96 116
9.764726 -4.443059 43.931625 143 95 115
9.764609 -4.348306 43.931107 143 95 116
9.764555 -4.253582 43.930862 143 95 116
9.764550 -4.158879 43.930840 142 96 116
9.764599 -4.064199 43.931061 141 97 115
9.764711 -3.969544 43.931564 140 99 115
9.764912 -3.874922 43.932465 141 101 115
9.765233 -3.780343 43.933910 141 103 115
9.765724 -3.685822 43.936123 142 104 115
9.766440 -3.591374 43.939342 143 106 116
9.767444 -3.497015 43.943859 143 107 116
9.768807 -3.402761 43.949993 143 107 116
9.770602 -3.308628 43.958069 142 104 116
9.772902 -3.214626 43.968414 141 103 115
9.775778 -3.120762 43.981350 139 102 115
9.779295 -3.027042 43.997173 137 100 114
9.783512 -2.933464 44.016151 134 99 114
9.788478 -2.840020 44.038490 129 98 112
9.794228 -2.746701 44.064362 121 95 109
9.800785 -2.653488 44.093857 114 93 106
9.808159 -2.560362 44.127033 110 94 105
9.816343 -2.467296 44.163857 112 100 111
9.825319 -2.374262 44.204239 119 111 122
9.835052 -2.281230 44.248028 128 121 134
9.845496 -2.188168 44.295013 132 126 140
9.856593 -2.095041 44.344944 130 125 141
9.868277 -2.001819 44.397507 126 122 139
9.880471 -1.908468 44.452370 123 119 137
9.893096 -1.814960 44.509167 119 116 133
9.906067 -1.721267 44.567524 116 114 131
9.919299 -1.627365 44.627056 117 116 132
9.932709 -1.533234 44.687386 123 122 138
9.946216 -1.438857 44.748154 129 128 143
9.959743 -1.344221 44.809017 134 133 147
9.973225 -1.249317 44.869671 137 135 149
9.986599 -1.154138 44.929840 138 135 148
9.999817 -1.058684 44.989307 140 136 148
10.012841 -0.962955 45.047905 145 141 152
10.025641 -0.866954 45.105492 150 147 156
10.038201 -0.770686 45.161999 154 151 159
10.050513 -0.674158 45.217392 157 155 163
10.062581 -0.577377 45.271687 160 157 165
10.074414 -0.480350 45.324921 163 159 168
10.086029 -0.383086 45.377178 166 161 171
10.097449 -0.285591 45.428558 167 160 171
10.108697 -0.187872 45.479160 168 158 169
10.119799 -0.089933 45.529106 170 158 169
10.130777 0.008222 45.578499 174 159 170
10.141653 0.106588 45.627430 175 159 168
10.152447 0.205163 45.675987 172 155 165
10.163169 0.303946 45.724232 169 153 162
10.173833 0.402934 45.772209 169 153 162
10.184444 0.502127 45.819946 170 155 164
10.195007 0.601523 45.867474 171 157 166
10.205529 0.701120 45.914806 170 155 165
10.216011 0.800919 45.961967 167 152 163
10.226461 0.900918 46.008984 166 152 163
10.236889 1.001118 46.055901 168 153 164
10.247311 1.101519 46.102783 167 153 164
10.257744 1.202124 46.149723 163 148 160
10.268212 1.302935 46.196819 149 137 147
10.278744 1.403959 46.244205 143 131 141
10.289371 1.505200 46.292011 154 143 152
10.300121 1.606667 46.340382 164 153 163
10.311030 1.708369 46.389458 164 154 163
10.322124 1.810314 46.439373 163 153 162
10.333428 1.912514 46.490231 165 153 162
10.344962 2.014978 46.542118 165 152 162
10.356736 2.117715 46.595093 164 149 161
10.368755 2.220732 46.649166 162 146 159
10.381015 2.324037 46.704323 160 141 156
10.393500 2.427632 46.760490 156 134 152
10.406193 2.531519 46.817596 148 125 145
10.419065 2.635698 46.875507 139 116 137
10.432083 2.740166 46.934078 129 107 128
10.445212 2.844916 46.993145 121 101 121
10.458415 2.949941 47.052544 120 102 121
10.471649 3.055232 47.112087 124 108 126
10.484879 3.160778 47.171608 131 114 131
10.498068 3.266568 47.230946 139 122 137
10.511184 3.372590 47.289955 150 131 146
10.524197 3.478833 47.348499 160 139 154
10.537083 3.585285 47.406475 164 143 156
10.549827 3.691936 47.463806 160 138 152
10.562414 3.798780 47.520439 151 129 142
10.574842 3.905808 47.576355 142 121 134
10.587112 4.013018 47.631554 141 120 133
10.599230 4.120406 47.686073 144 124 136
10.611210 4.227974 47.739971 148 129 139
10.623073 4.335727 47.793343 151 132 141
10.634840 4.443671 47.846287 157 137 145
10.646540 4.551813 47.898922 165 144 151
10.658200 4.660165 47.951382 172 149 156
10.669853 4.768741 48.003807 174 149 155
10.681527 4.877552 48.056332 173 146 153
10.693252 4.986612 48.109077 173 143 152
10.705054 5.095938 48.162182 171 139 148
10.716956 5.205540 48.215725 166 131 142
10.728973 5.315431 48.269791 162 125 137
10.741120 5.425620 48.324440 159 119 132
10.753403 5.536114 48.379700 157 116 129
10.765821 5.646918 48.435570 157 113 126
10.778373 5.758034 48.492039 156 109 123
10.791046 5.869460 48.549057 155 106 120
10.803833 5.981194 48.606583 158 108 120
10.816714 6.093230 48.664539 162 110 121
10.829677 6.205562 48.722858 159 105 115
10.842704 6.318183 48.781467 157 100 109
10.855783 6.431087 48.840305 156 97 107
10.868903 6.544271 48.899338 154 94 105
10.882056 6.657729 48.958515 153 91 104
10.895247 6.771464 49.017857 151 90 104
10.908477 6.885482 49.077381 149 90 104
10.921761 6.999790 49.137146 147 91 105
10.935116 7.114401 49.197227 145 93 107
10.948565 7.229334 49.257732 142 96 108
10.962136 7.344610 49.318794 141 100 110
10.975863 7.460255 49.380550 143 106 114
10.989774 7.576293 49.443134 147 114 120
11.003903 7.692754 49.506706 150 120 125
11.018282 7.809665 49.571396 153 124 128
11.032936 7.927053 49.637321 154 126 130
11.047884 8.044939 49.704575 152 126 130
11.063144 8.163345 49.773228 151 124 130
11.078724 8.282288 49.843327 150 121 129
11.094627 8.401776 49.914875 148 115 125
11.110848 8.521817 49.987854 145 108 120
11.127377 8.642411 50.062214 143 100 114
11.144197 8.763556 50.137890 141 92 108
11.161293 8.885245 50.214806 139 86 102
11.178639 9.007469 50.292847 138 79 95
11.196219 9.130219 50.371937 135 74 88
11.214008 9.253484 50.451973 131 70 81
11.231990 9.377254 50.532871 125 65 75
11.250146 9.501519 50.614555 123 65 72
11.268466 9.626277 50.696976 123 68 75
11.286942 9.751525 50.780098 124 72 79
11.305569 9.877264 50.863903 124 76 82
11.324350 10.003500 50.948402 123 80 86
11.343292 10.130244 51.033623 122 84 90
11.362409 10.257513 51.119625 121 86 92
11.381713 10.385324 51.206474 121 87 95
11.401226 10.513701 51.294266 122 88 96
11.420975 10.642678 51.383118 123 88 97
11.440985 10.772284 51.473141 124 86 97
11.461287 10.902555 51.564484 124 83 95
11.481911 11.033528 51.657269 122 79 91
11.502889 11.165246 51.751648 121 76 88
11.524251 11.297748 51.847755 125 78 90
11.546022 11.431069 51.945709 132 86 97
11.568228 11.565246 52.045605 134 91 101
11.590878 11.700302 52.147511 131 91 100
11.613984 11.836263 52.251465 128 91 100
11.637545 11.973140 52.357464 128 93 101
11.661547 12.110931 52.465450 127 95 101
11.685965 12.249625 52.575310 126 98 102
11.710763 12.389195 52.686878 123 98 102
11.735894 12.529601 52.799942 121 97 100
11.761294 12.670784 52.914215 122 101 104
11.786893 12.812676 53.029388 127 109 111
11.812609 12.955193 53.145084 131 115 116
11.838350 13.098236 53.260895 132 118 119
11.864022 13.241702 53.376389 131 119 119
11.889524 13.385474 53.491123 130 119 118
11.914757 13.529434 53.604645 128 119 118
11.939622 13.673464 53.716515 127 119 118
11.964024 13.817442 53.826302 127 120 118
9.875578 -7.770329 44.003590 167 121 140
9.875710 -7.675575 44.004181 150 100 120
9.876049 -7.580977 44.005688 137 84 103
9.876574 -7.486514 44.008030 136 80 96
9.877261 -7.392161 44.011093 138 81 94
9.878078 -7.297892 44.014732 143 84 93
9.878986 -7.203673 44.018780 145 85 89
9.879943 -7.109472 44.023041 137 77 80
9.880898 -7.015251 44.027298 139 78 80
9.881804 -6.920977 44.031330 165 104 107
9.882606 -6.826615 44.034904 185 125 130
9.883256 -6.732133 44.037804 172 109 118
9.883710 -6.637507 44.039825 152 89 101
9.883928 -6.542717 44.040798 144 80 96
9.883881 -6.447749 44.040588 141 77 93
9.883551 -6.352600 44.039116 139 74 93
9.882928 -6.257272 44.036339 138 74 94
9.882020 -6.161779 44.032299 139 76 96
9.880847 -6.066140 44.027069 142 79 99
9.879436 -5.970380 44.020786 144 82 102
9.877831 -5.874531 44.013634 144 84 103
9.876078 -5.778627 44.005821 143 84 103
9.874231 -5.682703 43.997593 142 85 104
9.872349 -5.586793 43.989201 142 86 106
9.870483 -5.490930 43.980892 142 87 107
9.868690 -5.395141 43.972900 143 88 108
9.867012 -5.299449 43.965427 144 89 109
9.865488 -5.203871 43.958637 144 89 110
9.864147 -5.108416 43.952656 144 89 110
9.863004 -5.013088 43.947563 143 89 110
9.862063 -4.917883 43.943375 143 89 111
9.861324 -4.822794 43.940079 144 91 113
9.860772 -4.727809 43.937618 144 92 114
9.860386 -4.632913 43.935902 144 92 116
9.860144 -4.538091 43.934822 144 92 115
9.860020 -4.443326 43.934265 143 92 115
9.859989 -4.348605 43.934132 143 93 115
9.860032 -4.253916 43.934322 143 93 115
9.860134 -4.159252 43.934776 142 94 115
9.860293 -4.064609 43.935486 141 95 115
9.860516 -3.969988 43.936478 140 96 114
9.860818 -3.875395 43.937824 140 98 113
9.861232 -3.780838 43.939667 139 98 112
9.861797 -3.686331 43.942188 140 100 113
9.862568 -3.591887 43.945621 141 103 114
9.863605 -3.497523 43.950237 143 105 116
9.864976 -3.403254 43.956352 143 104 116
9.866754 -3.309095 43.964272 141 102 114
9.869012 -3.215059 43.974335 139 100 113
9.871824 -3.121154 43.986866 137 99 112
9.875257 -3.027385 44.002167 134 97 111
9.879375 -2.933754 44.020512 130 96 111
9.884229 -2.840256 44.042137 125 94 109
9.889858 -2.746879 44.067223 117 90 105
9.896293 -2.653610 44.095894 111 91 103
9.903547 -2.560430 44.128216 113 97 109
9.911620 -2.467314 44.164192 120 107 119
9.920497 -2.374236 44.203743 125 116 128
9.930147 -2.281164 44.246742 129 122 135
9.940530 -2.188068 44.293003 130 124 139
9.951590 -2.094916 44.342281 129 124 139
9.963260 -2.001673 44.394287 126 122 138
9.975470 -1.908310 44.448689 124 120 136
9.988138 -1.814795 44.505135 121 118 134
10.001181 -1.721102 44.563255 118 117 133
10.014514 -1.627205 44.622665 120 119 135
10.028051 -1.533083 44.682983 124 123 139
10.041710 -1.438719 44.743843 127 127 141
10.055414 -1.344098 44.804905 130 130 143
10.069093 -1.249210 44.865852 133 133 145
10.082684 -1.154050 44.926411 135 134 145
10.096134 -1.058615 44.986347 139 136 147
10.109404 -0.962903 45.045475 142 139 149
10.122460 -0.866918 45.103653 146 143 152
10.135286 -0.770665 45.160797 151 148 156
10.147869 -0.674150 45.216866 157 154 161
10.160211 -0.577379 45.271858 160 157 165
10.172318 -0.480360 45.325802 161 158 166
10.184206 -0.383100 45.378777 163 159 168
10.195894 -0.285606 45.430855 164 159 169
10.207405 -0.187884 45.482147 165 157 167
10.218759 -0.089940 45.532738 167 157 167
10.229979 0.008222 45.582729 172 160 169
10.241084 0.106599 45.632214 174 161 170
10.252090 0.205187 45.681255 172 159 167
10.263010 0.303984 45.729908 168 155 162
10.273851 0.402987 45.778217 167 155 161
10.284620 0.502196 45.826202 169 158 164
10.295321 0.601607 45.873878 171 160 167
10.305954 0.701219 45.921261 171 159 168
10.316527 0.801031 45.968372 170 158 167
10.327044 0.901040 46.015236 169 157 167
10.337518 1.001248 46.061905 169 157 167
10.347961 1.101654 46.108440 169 156 168
10.358397 1.202259 46.154934 167 155 166
10.368846 1.303067 46.201492 160 148 159
10.379340 1.404082 46.248253 152 141 151
10.389911 1.505309 46.295357 154 144 154
10.400595 1.606756 46.342960 161 152 161
10.411422 1.708433 46.391205 163 155 162
10.422428 1.810348 46.440247 163 155 162
10.433637 1.912513 46.490192 165 154 161
10.445072 2.014936 46.541145 165 153 161
10.456748 2.117627 46.593170 165 151 160
10.468671 2.220595 46.646294 163 148 159
10.480838 2.323847 46.700512 162 143 157
10.493239 2.427386 46.755768 158 138 153
10.505857 2.531216 46.811989 152 130 148
10.518664 2.635336 46.869057 143 121 140
10.531631 2.739743 46.926834 132 112 132
10.544723 2.844433 46.985165 123 105 125
10.557900 2.949398 47.043884 121 104 124
10.571126 3.054630 47.102814 124 109 127
10.584361 3.160120 47.161785 130 115 132
10.597569 3.265855 47.220634 137 122 138
10.610717 3.371825 47.279221 148 131 146
10.623775 3.478018 47.337406 158 140 154
10.636719 3.584423 47.395084 164 144 157
10.649531 3.691032 47.452175 164 142 155
10.662201 3.797835 47.508625 160 138 151
10.674719 3.904827 47.564404 156 134 148
10.687089 4.012003 47.619522 154 132 145
10.699316 4.119363 47.674004 152 132 142
10.711416 4.226907 47.727921 148 127 137
10.723406 4.334639 47.781342 142 122 131
10.735311 4.442565 47.834385 144 123 131
10.747156 4.550696 47.887173 153 133 139
10.758973 4.659042 47.939823 166 143 149
10.770792 4.767616 47.992485 172 148 153
10.782643 4.876431 48.045292 173 145 153
10.794555 4.985502 48.098366 173 143 152
10.806555 5.094843 48.151836 173 139 149
10.818664 5.204468 48.205791 168 132 143
10.830901 5.314387 48.260319 164 125 137
10.843276 5.424612 48.315460 162 120 132
10.855796 5.535147 48.371246 160 115 128
10.868462 5.645998 48.427681 158 112 125
10.881266 5.757167 48.484737 156 108 121
10.894202 5.868652 48.542377 154 103 116
10.907255 5.980451 48.600536 154 102 114
10.920408 6.092555 48.659145 157 103 112
10.933645 6.204960 48.718128 155 100 109
10.946950 6.317658 48.777412 155 96 105
10.960307 6.430643 48.836929 155 95 104
10.973704 6.543908 48.896622 155 93 104
10.987135 6.657450 48.956463 154 91 103
11.000597 6.771271 49.016453 152 89 103
11.014097 6.885373 49.076603 149 89 103
11.027645 6.999765 49.136971 146 90 104
11.041259 7.114460 49.197632 143 91 105
11.054961 7.229474 49.258686 139 94 106
11.068780 7.344829 49.320259 137 96 107
11.082745 7.460547 49.382484 140 103 112
11.096890 7.576657 49.445515 145 112 120
11.111247 7.693185 49.509483 149 119 126
11.125848 7.810161 49.574543 151 123 128
11.140718 7.927608 49.640804 153 125 130
11.155882 8.045553 49.708366 153 126 130
11.171354 8.164015 49.777309 153 124 130
11.187147 8.283011 49.847683 152 121 130
11.203265 8.402555 49.919502 151 116 126
11.219706 8.522653 49.992752 148 110 121
11.236456 8.643305 50.067390 145 102 116
11.253507 8.764513 50.143364 143 95 109
11.270837 8.886269 50.220585 141 88 102
11.288428 9.008566 50.298969 138 82 95
11.306257 9.131392 50.378410 134 76 88
11.324305 9.254741 50.458828 131 72 83
11.342550 9.378600 50.540127 126 68 77
11.360975 9.502959 50.622223 124 68 75
11.379567 9.627813 50.705067 124 70 76
11.398314 9.753158 50.788601 124 72 79
11.417214 9.878994 50.872814 125 75 83
11.436265 10.005326 50.957699 126 78 86
11.455469 10.132159 51.043270 126 81 89
11.474841 10.259512 51.129589 126 82 92
11.494393 10.387400 51.216709 126 84 93
11.514146 10.515845 51.304722 126 86 95
11.534125 10.644879 51.393745 127 86 96
11.554359 10.774536 51.483906 128 87 97
11.574882 10.904852 51.575348 128 86 97
11.595721 11.035864 51.668205 128 86 96
11.616918 11.167621 51.762653 127 85 94
11.638503 11.300161 51.858833 127 85 94
11.660511 11.433531 51.956894 129 87 96
11.682966 11.567766 52.056953 129 89 97
11.705892 11.702903 52.159103 129 91 98
11.729300 11.838966 52.263401 128 93 99
11.753195 11.975978 52.369877 127 94 100
11.777570 12.113940 52.478485 127 96 100
11.802404 12.252849 52.589142 126 98 102
11.827668 12.392684 52.701714 125 100 102
11.853312 12.533406 52.815975 123 100 102
11.879279 12.674966 52.931683 123 103 104
11.905498 12.817296 53.048508 126 109 110
11.931885 12.960312 53.166080 130 115 116
11.958348 13.103918 53.283997 132 118 118
11.984788 13.248008 53.401810 131 119 119
12.011105 13.392467 53.519066 130 119 119
12.037189 13.537171 53.635296 128 118 118
12.062939 13.681996 53.750031 128 118 118
9.977540 -7.680942 44.034950 147 91 111
9.977546 -7.586022 44.034973 142 83 102
9.977744 -7.491246 44.035851 144 84 100
9.978110 -7.396592 44.037468 145 84 99
9.978612 -7.302029 44.039680 146 84 95
9.979212 -7.207527 44.042328 145 82 90
9.979866 -7.113053 44.045216 141 78 84
9.980528 -7.018572 44.048138 143 80 85
9.981145 -6.924047 44.050861 154 90 96
9.981668 -6.829446 44.053165 161 96 105
9.982045 -6.734737 44.054832 155 89 100
9.982234 -6.639895 44.055668 146 82 96
9.982193 -6.544899 44.055485 143 78 95
9.981894 -6.449737 44.054165 140 75 93
9.981316 -6.354403 44.051613 138 74 93
9.980453 -6.258901 44.047806 138 76 95
9.979311 -6.163243 44.042763 139 77 97
9.977907 -6.067449 44.036572 141 79 99
9.976274 -5.971543 44.029366 142 81 101
9.974453 -5.875558 44.021324 142 83 102
9.972490 -5.779526 44.012665 142 85 103
9.970446 -5.683483 44.003639 143 86 104
9.968374 -5.587465 43.994495 142 86 105
9.966335 -5.491505 43.985497 142 87 106
9.964382 -5.395629 43.976875 142 87 107
9.962563 -5.299861 43.968845 143 87 107
9.960917 -5.204220 43.961586 143 87 107
9.959477 -5.108715 43.955231 143 86 107
9.958259 -5.013349 43.949852 142 86 107
9.957270 -4.918119 43.945492 142 86 109
9.956509 -4.823020 43.942131 143 87 111
9.955962 -4.728035 43.939720 144 88 112
9.955608 -4.633151 43.938156 143 87 112
9.955421 -4.538350 43.937332 143 87 112
9.955376 -4.443616 43.937130 143 87 112
9.955444 -4.348932 43.937431 143 88 113
9.955600 -4.254284 43.938118 142 89 113
9.955827 -4.159663 43.939117 141 90 113
9.956115 -4.065063 43.940392 141 92 112
9.956466 -3.970482 43.941940 140 93 111
9.956891 -3.875924 43.943817 139 94 110
9.957417 -3.781396 43.946140 138 95 109
9.958079 -3.686908 43.949062 138 96 110
9.958928 -3.592474 43.952808 141 100 112
9.960019 -3.498110 43.957623 143 103 114
9.961421 -3.403831 43.963810 143 103 114
9.963202 -3.309652 43.971672 141 101 113
9.965441 -3.215586 43.981548 139 99 113
9.968206 -3.121643 43.993755 137 98 112
9.971572 -3.027829 44.008610 134 96 111
9.975603 -2.934147 44.026402 130 94 110
9.980356 -2.840594 44.047379 123 92 107
9.985875 -2.747161 44.071739 116 89 103
9.992195 -2.653835 44.099628 113 91 104
9.999333 -2.560600 44.131134 118 100 111
10.007297 -2.467431 44.166279 124 111 122
10.016074 -2.374304 44.205017 128 118 129
10.025640 -2.281190 44.247238 130 122 134
10.035956 -2.188056 44.292763 130 124 138
