ply
format ascii 1.0
element vertex 1261
property float x
property float y
property float z
property uchar red
property uchar green
property uchar blue
end_header
3.530500 9.460552 46.646744 90 44 51
3.535174 9.573765 46.708500 89 43 51
3.539925 9.687453 46.771263 88 43 51
3.544733 9.801570 46.834789 87 43 50
3.549578 9.916066 46.898811 85 42 50
3.554440 10.030884 46.963043 84 42 49
3.559295 10.145963 47.027203 83 41 48
3.564123 10.261235 47.090981 82 42 47
3.568898 10.376632 47.154072 81 41 47
3.573597 10.492078 47.216167 80 41 46
3.578198 10.607499 47.276958 79 40 45
3.582678 10.722820 47.336143 78 40 45
3.587016 10.837969 47.393463 78 39 46
3.591193 10.952872 47.448654 78 39 46
3.595193 11.067467 47.501492 79 40 47
3.599002 11.181699 47.551819 79 41 48
3.602610 11.295518 47.599499 79 41 49
3.606013 11.408894 47.644459 80 41 49
3.609209 11.521802 47.686687 81 41 48
3.612203 11.634241 47.726242 80 41 48
3.615004 11.746222 47.763245 80 41 47
3.617626 11.857780 47.797897 79 40 46
3.620091 11.968966 47.830463 78 40 46
3.622423 12.079847 47.861271 76 40 45
3.624652 12.190516 47.890720 76 39 45
3.626812 12.301082 47.919270 75 40 46
3.628943 12.411665 47.947414 75 41 46
3.631082 12.522403 47.975685 74 41 47
3.633274 12.633443 48.004642 74 41 47
3.635560 12.744938 48.034843 74 41 46
3.637981 12.857043 48.066841 73 41 46
3.640579 12.969913 48.101158 72 41 47
3.643389 13.083693 48.138283 72 41 47
3.646442 13.198515 48.178631 70 41 47
3.649767 13.314502 48.222561 69 40 47
3.653384 13.431752 48.270351 69 39 46
3.657307 13.550340 48.322178 68 38 45
3.661541 13.670315 48.378124 67 37 45
3.666085 13.791697 48.438164 66 37 45
3.670931 13.914479 48.502182 66 36 44
3.676061 14.038625 48.569965 67 36 44
3.518779 4.003416 45.204380 119 58 72
3.519489 4.101689 45.213501 118 56 71
3.520095 4.199877 45.221287 117 55 70
3.520607 4.297983 45.227856 115 54 68
3.521038 4.396018 45.233402 113 52 67
3.521409 4.493999 45.238163 112 50 66
3.521740 4.591949 45.242420 111 49 65
3.522058 4.689899 45.246498 111 48 65
3.522387 4.787884 45.250732 111 49 65
3.522757 4.885941 45.255478 111 50 64
3.523192 4.984113 45.261070 111 50 64
3.523719 5.082440 45.267838 111 52 65
3.524360 5.180965 45.276081 111 53 65
3.525135 5.279726 45.286037 109 52 64
3.526059 5.378757 45.297905 108 50 63
3.527142 5.478086 45.311813 108 50 63
3.528390 5.577735 45.327843 109 49 63
3.529803 5.677721 45.346004 110 48 63
3.531379 5.778049 45.366249 110 47 63
3.533109 5.878723 45.388477 111 47 63
3.534983 5.979734 45.412540 113 47 64
3.536985 6.081070 45.438263 115 49 66
3.539099 6.182713 45.465420 117 50 68
3.541308 6.284642 45.493801 117 51 69
3.543593 6.386830 45.523163 116 52 69
3.545938 6.489254 45.553284 115 52 69
3.548326 6.591887 45.583958 115 52 70
3.550742 6.694706 45.614994 114 52 69
3.553175 6.797691 45.646252 114 52 69
3.555616 6.900827 45.677616 114 52 68
3.558061 7.004105 45.709015 114 51 68
3.560506 7.107520 45.740433 114 51 67
3.562955 7.211076 45.771885 113 51 65
3.565412 7.314786 45.803452 112 51 63
3.567886 7.418667 45.835236 110 51 61
3.570389 7.522746 45.867390 109 51 60
3.572934 7.627054 45.900089 107 51 59
3.575537 7.731627 45.933525 106 50 59
3.578214 7.836507 45.967911 104 49 59
3.580980 7.941734 46.003456 103 48 58
3.583854 8.047355 46.040371 102 47 57
3.586848 8.153408 46.078838 101 47 58
3.589977 8.259938 46.119038 100 46 59
3.593251 8.366978 46.161091 99 45 59
3.596678 8.474560 46.205112 98 44 59
3.600264 8.582711 46.251183 98 44 58
3.604011 8.691450 46.299320 97 44 57
3.607919 8.800788 46.349522 96 44 56
3.611984 8.910732 46.401752 95 44 55
3.616201 9.021279 46.455929 94 44 54
3.620562 9.132421 46.511948 93 44 53
3.625055 9.244143 46.569668 92 44 53
3.629668 9.356421 46.628922 92 44 53
3.634386 9.469232 46.689537 91 44 52
3.639192 9.582534 46.751282 90 44 52
3.644070 9.696292 46.813942 88 44 51
3.648998 9.810458 46.877258 87 43 51
3.653958 9.924981 46.940971 84 42 50
3.658926 10.039803 47.004799 83 41 49
3.663881 10.154861 47.068447 82 41 48
3.668799 10.270092 47.131626 81 41 47
3.673656 10.385425 47.194031 80 41 46
3.678430 10.500786 47.255356 79 40 46
3.683097 10.616104 47.315311 79 40 46
3.687635 10.731307 47.373611 78 39 46
3.692025 10.846324 47.430004 78 39 46
3.696247 10.961087 47.484238 78 39 47
3.700286 11.075537 47.536129 78 40 48
3.704129 11.189619 47.585503 78 40 49
3.707769 11.303293 47.632259 79 41 50
3.711200 11.416528 47.676342 79 41 50
3.714423 11.529305 47.717747 80 41 49
3.717443 11.641627 47.756546 79 41 48
3.720272 11.753510 47.792877 79 41 47
3.722924 11.864987 47.826950 77 40 46
3.725422 11.976116 47.859039 77 40 46
3.727791 12.086967 47.889477 76 40 45
3.730063 12.197630 47.918663 75 40 45
3.732273 12.308214 47.947056 75 40 46
3.734460 12.418846 47.975155 75 41 47
3.736666 12.529659 48.003487 75 41 47
3.738931 12.640798 48.032589 74 41 47
3.741301 12.752416 48.063026 74 41 46
3.743815 12.864663 48.095329 73 40 46
3.746514 12.977690 48.130001 72 40 47
3.749434 13.091639 48.167519 72 40 47
3.752607 13.206637 48.208275 71 40 47
3.756058 13.322801 48.252617 70 40 47
3.759808 13.440220 48.300785 69 39 47
3.763868 13.558966 48.352940 68 38 46
3.768243 13.679079 48.409142 67 37 46
3.772929 13.800574 48.469345 67 37 46
3.777916 13.923438 48.533413 66 36 45
3.783185 14.047626 48.601105 67 37 44
3.788712 14.173065 48.672096 67 37 45
3.794462 14.299659 48.745975 67 37 45
3.616200 3.808500 45.204079 123 61 77
3.617084 3.906898 45.215118 122 61 77
3.617867 4.005234 45.224915 121 60 76
3.618551 4.103499 45.233459 120 58 74
3.619138 4.201690 45.240807 118 56 73
3.619639 4.299808 45.247063 116 55 71
3.620066 4.397864 45.252399 115 53 70
3.620438 4.495875 45.257053 114 52 69
3.620777 4.593864 45.261284 114 51 69
3.621106 4.691859 45.265408 113 51 68
3.621454 4.789896 45.269756 113 51 68
3.621848 4.888013 45.274673 114 51 67
3.622313 4.986251 45.280487 113 51 66
3.622876 5.084651 45.287529 112 53 67
3.623561 5.183255 45.296085 112 53 68
3.624385 5.282100 45.306396 110 52 66
3.625366 5.381221 45.318653 109 50 64
3.626513 5.480646 45.332989 109 50 65
3.627832 5.580398 45.349480 110 50 65
3.629324 5.680491 45.368137 111 49 64
3.630986 5.780935 45.388905 111 48 64
3.632809 5.881730 45.411690 111 47 63
3.634781 5.982868 45.436344 112 48 63
3.636888 6.084338 45.462681 116 51 66
3.639112 6.186122 45.490490 120 54 70
3.641436 6.288198 45.519539 120 55 71
3.643841 6.390540 45.549599 118 54 70
3.646308 6.493123 45.580441 118 54 70
3.648821 6.595921 45.611851 118 54 71
3.651365 6.698911 45.643646 118 54 71
3.653926 6.802072 45.675667 117 53 70
3.656497 6.905389 45.707806 116 52 69
3.659071 7.008850 45.739979 115 51 68
3.661646 7.112452 45.772171 115 51 67
3.664224 7.216198 45.804398 114 51 66
3.666810 7.320099 45.836727 112 51 64
3.669413 7.424175 45.869263 111 51 63
3.672045 7.528448 45.902157 109 51 61
3.674718 7.632952 45.935581 108 51 60
3.677450 7.737721 45.969730 106 50 59
3.680256 7.842796 46.004807 104 50 59
3.683154 7.948221 46.041031 103 49 58
3.686160 8.054036 46.078598 102 48 58
3.689288 8.160286 46.117706 101 47 59
3.692553 8.267009 46.158516 101 46 59
3.695964 8.374242 46.201164 100 46 59
3.699532 8.482015 46.245758 100 45 58
3.703260 8.590353 46.292358 99 44 57
3.707151 8.699274 46.341000 98 44 56
3.711204 8.808789 46.391663 97 44 56
3.715415 8.918904 46.444305 96 44 55
3.719778 9.029612 46.498840 95 44 54
3.724282 9.140903 46.555145 94 44 54
3.728917 9.252762 46.613087 93 45 54
3.733669 9.365162 46.672482 93 45 54
3.738522 9.478076 46.733147 92 44 53
3.743458 9.591464 46.794849 90 44 52
3.748459 9.705286 46.857365 89 44 52
3.753504 9.819493 46.920429 86 43 51
3.758572 9.934033 46.983788 84 42 50
3.763641 10.048848 47.047146 82 41 49
3.768687 10.163877 47.110237 80 41 48
3.773689 10.279054 47.172752 80 41 47
3.778621 10.394309 47.234406 79 40 46
3.783460 10.509573 47.294899 78 40 46
3.788184 10.624774 47.353951 78 39 46
3.792771 10.739843 47.411293 78 39 46
3.797203 10.854713 47.466686 78 40 47
3.801460 10.969319 47.519901 78 39 48
3.805528 11.083605 47.570759 78 40 49
3.809397 11.197523 47.619114 78 40 50
3.813057 11.311031 47.664871 78 41 50
3.816506 11.424107 47.707993 78 41 50
3.819746 11.536735 47.748493 79 41 49
3.822783 11.648919 47.786457 78 41 48
3.825630 11.760682 47.822041 77 40 47
3.828303 11.872058 47.855450 76 40 46
3.830825 11.983108 47.886978 76 40 46
3.833223 12.093902 47.916954 76 40 46
3.835530 12.204536 47.945801 75 41 46
3.837783 12.315119 47.973953 75 41 46
3.840020 12.425774 48.001919 75 41 47
3.842284 12.536636 48.030220 75 41 47
3.844618 12.647852 48.059395 74 41 47
3.847064 12.759566 48.089977 74 40 47
3.849666 12.871931 48.122501 73 40 46
3.852463 12.985094 48.157459 72 40 47
3.855489 13.099189 48.195297 72 40 47
3.858778 13.214343 48.236404 71 40 48
3.862353 13.330664 48.281094 70 39 48
3.866233 13.448237 48.329597 69 39 48
3.870429 13.567127 48.382046 69 38 47
3.874944 13.687370 48.438484 68 38 47
3.879772 13.808971 48.498837 68 38 46
3.884901 13.931914 48.562958 67 37 45
3.890311 14.056145 48.630581 67 38 45
3.895973 14.181586 48.701359 67 38 45
3.901854 14.308137 48.774879 67 38 45
3.907916 14.435672 48.850655 67 38 45
3.914117 14.564051 48.928169 66 38 44
3.714505 3.711915 45.214550 127 64 81
3.715427 3.810327 45.225769 126 63 80
3.716267 3.908702 45.235992 125 62 80
3.717020 4.007027 45.245155 123 61 79
3.717683 4.105293 45.253231 121 59 78
3.718259 4.203495 45.260242 119 57 76
3.718756 4.301636 45.266296 117 56 73
3.719187 4.399724 45.271538 116 54 72
3.719569 4.497776 45.276184 115 53 72
3.719923 4.595814 45.280502 115 53 72
3.720274 4.693867 45.284775 115 53 72
3.720649 4.791968 45.289337 115 53 71
3.721075 4.890156 45.294518 116 53 70
3.721578 4.988470 45.300640 116 53 70
3.722185 5.086953 45.308033 115 54 70
3.722919 5.185645 45.316971 114 54 70
3.723801 5.284583 45.327694 113 53 69
3.724844 5.383802 45.340397 112 53 69
3.726060 5.483331 45.355202 112 52 69
3.727455 5.583190 45.372177 112 51 69
3.729030 5.683398 45.391350 112 50 67
3.730781 5.783961 45.412663 112 49 65
3.732698 5.884879 45.436005 111 48 63
3.734772 5.986146 45.461239 111 49 63
3.736985 6.087751 45.488186 118 55 68
3.739322 6.189676 45.516628 125 62 76
3.741762 6.291898 45.546329 125 62 77
3.744287 6.394392 45.577065 121 57 73
3.746877 6.497133 45.608597 118 55 71
3.749516 6.600096 45.640720 119 55 72
3.752188 6.703255 45.673244 119 55 72
3.754880 6.806590 45.706005 118 53 71
3.757581 6.910085 45.738892 116 51 69
3.760287 7.013729 45.771824 116 51 68
3.762995 7.117519 45.804783 115 51 67
3.765705 7.221456 45.837772 114 51 65
3.768423 7.325551 45.870861 113 51 64
3.771158 7.429821 45.904148 112 52 63
3.773921 7.534292 45.937790 110 51 61
3.776728 7.638995 45.971947 108 51 60
3.779593 7.743964 46.006821 107 51 59
3.782533 7.849240 46.042606 105 50 59
3.785565 7.954865 46.079521 104 50 58
3.788707 8.060883 46.117767 103 49 58
3.791974 8.167333 46.157532 103 48 59
3.795379 8.274256 46.198978 102 47 59
3.798933 8.381687 46.242241 101 47 59
3.802644 8.489655 46.287415 101 46 57
3.806518 8.598186 46.334568 100 46 56
3.810556 8.707294 46.383720 99 45 55
3.814756 8.816990 46.434849 97 45 55
3.819115 8.927277 46.487907 96 45 55
3.823624 9.038147 46.542793 95 46 54
3.828274 9.149590 46.599388 94 46 54
3.833050 9.261584 46.657532 93 45 54
3.837940 9.374105 46.717052 93 45 54
3.842926 9.487120 46.777737 92 45 53
3.847989 9.600589 46.839371 91 45 53
3.853110 9.714469 46.901699 88 44 52
3.858267 9.828712 46.964481 85 43 50
3.863439 9.943262 47.027435 83 42 49
3.868603 10.058063 47.090286 81 42 48
3.873734 10.173051 47.152756 80 41 47
3.878812 10.288163 47.214558 79 40 47
3.883810 10.403329 47.275394 78 40 46
3.888706 10.518482 47.334991 78 40 46
3.893477 10.633553 47.393074 77 39 47
3.898104 10.748473 47.449394 78 40 47
3.902567 10.863182 47.503719 77 39 47
3.906849 10.977614 47.555836 77 39 49
3.910936 11.091720 47.605587 77 39 50
3.914818 11.205454 47.652843 77 40 51
3.918489 11.318780 47.697521 77 40 51
3.921946 11.431677 47.739605 77 40 51
3.925193 11.544136 47.779129 77 40 49
3.928237 11.656164 47.816181 77 40 49
3.931092 11.767786 47.850929 76 40 48
3.933776 11.879042 47.883602 75 40 47
3.936312 11.989990 47.914482 75 41 47
3.938732 12.100710 47.943928 75 41 47
3.941066 12.211292 47.972340 75 41 47
3.943352 12.321851 48.000175 74 41 47
3.945632 12.432507 48.027927 74 41 48
3.947949 12.543398 48.056122 74 41 48
3.950345 12.654666 48.085285 74 41 47
3.952863 12.766457 48.115948 73 40 47
3.955548 12.878918 48.148617 73 40 47
3.958437 12.992194 48.183792 73 40 47
3.961567 13.106417 48.221893 72 39 47
3.964968 13.221707 48.263287 71 39 48
3.968664 13.338168 48.308277 70 39 48
3.972673 13.455883 48.357075 69 38 48
3.977003 13.574906 48.409786 69 38 48
3.981657 13.695270 48.466438 69 38 47
3.986628 13.816973 48.526939 69 38 47
3.991899 13.939990 48.591110 68 38 46
3.997450 14.064266 48.658680 68 38 45
4.003251 14.189717 48.729282 68 39 45
4.009264 14.316232 48.802471 68 39 45
4.015450 14.443685 48.877769 67 39 44
4.021763 14.571926 48.954628 66 38 43
4.028160 14.700801 49.032490 65 38 42
3.811956 3.516965 45.214359 131 69 85
3.812917 3.615343 45.225754 130 68 84
3.813840 3.713733 45.236702 128 66 83
3.814710 3.812117 45.247017 127 64 83
3.815513 3.910478 45.256546 126 63 83
3.816242 4.008801 45.265194 124 62 83
3.816893 4.107078 45.272911 122 60 81
3.817467 4.205304 45.279716 120 58 78
3.817970 4.303479 45.285686 118 56 75
3.818414 4.401611 45.290951 117 55 74
3.818816 4.499717 45.295719 116 54 73
3.819196 4.597816 45.300228 116 54 73
3.819579 4.695939 45.304768 117 55 73
3.819990 4.794117 45.309647 117 55 73
3.820458 4.892388 45.315193 118 55 72
3.821008 4.990791 45.321720 118 55 72
3.821667 5.089368 45.329540 117 56 72
3.822459 5.188158 45.338932 116 56 73
3.823404 5.287199 45.350136 115 55 73
3.824516 5.386525 45.363327 115 55 73
3.825807 5.486164 45.378639 114 54 73
3.827282 5.586139 45.396141 113 52 72
3.828943 5.686465 45.415844 113 51 70
3.830786 5.787149 45.437698 113 50 67
3.832802 5.888195 45.461605 112 50 65
3.834978 5.989594 45.487419 111 50 63
3.837299 6.091334 45.514954 118 57 70
3.839748 6.193399 45.544003 129 68 81
3.842305 6.295766 45.574329 129 68 82
3.844950 6.398411 45.605705 122 60 76
3.847665 6.501308 45.637905 119 56 72
3.850430 6.604432 45.670704 119 56 73
3.853231 6.707757 45.703922 120 55 73
3.856053 6.811265 45.737400 119 53 71
3.858887 6.914937 45.771008 117 52 69
3.861726 7.018763 45.804676 116 51 68
3.864567 7.122739 45.838375 115 51 67
3.867411 7.226866 45.872108 114 52 65
3.870264 7.331155 45.905952 114 52 64
3.873134 7.435623 45.939995 112 52 64
3.876033 7.540294 45.974380 111 53 63
3.878975 7.645198 46.009281 109 52 62
3.881977 7.750372 46.044888 107 52 60
3.885055 7.855853 46.081398 106 51 59
3.888227 7.961685 46.119022 105 50 59
3.891510 8.067908 46.157963 104 49 59
3.894920 8.174566 46.198410 104 49 59
3.898470 8.281694 46.240513 104 49 59
3.902171 8.389330 46.284409 103 48 59
3.906030 8.497499 46.330185 102 48 57
3.910053 8.606227 46.377907 101 47 56
3.914242 8.715528 46.427586 100 47 55
3.918593 8.825411 46.479198 99 46 54
3.923102 8.935873 46.532673 97 46 54
3.927759 9.046910 46.587917 96 46 55
3.932554 9.158505 46.644791 95 46 55
3.937473 9.270638 46.703136 94 46 55
3.942500 9.383278 46.762764 93 46 55
3.947617 9.496392 46.823460 92 46 54
3.952805 9.609940 46.884991 90 46 53
3.958043 9.723876 46.947117 88 45 52
3.963308 9.838148 47.009567 85 43 50
3.968579 9.952703 47.072083 82 42 48
3.973831 10.067480 47.134380 81 42 47
3.979041 10.182420 47.196182 79 41 47
3.984186 10.297457 47.257210 78 41 47
3.989242 10.412524 47.317177 78 40 47
3.994186 10.527555 47.375816 77 40 48
3.998996 10.642481 47.432865 77 40 48
4.003652 10.757239 47.488091 77 40 48
4.008135 10.871770 47.541275 77 40 48
4.012431 10.986014 47.592228 77 40 49
4.016526 11.099923 47.640793 77 40 50
4.020411 11.213455 47.686871 76 40 51
4.024080 11.326582 47.730400 76 40 51
4.027534 11.439283 47.771370 76 40 51
4.030777 11.551556 47.809834 76 40 49
4.033817 11.663408 47.845894 76 40 49
4.036671 11.774871 47.879738 76 40 48
4.039356 11.885985 47.911591 75 41 47
4.041899 11.996815 47.941753 75 41 48
4.044330 12.107437 47.970585 75 41 48
4.046683 12.217950 47.998493 75 42 48
4.048996 12.328463 48.025932 74 42 47
4.051312 12.439101 48.053402 74 41 48
4.053674 12.549999 48.081413 74 41 48
4.056125 12.661300 48.110493 73 40 47
4.058711 12.773147 48.141159 73 40 47
4.061473 12.885686 48.173923 72 39 47
4.064451 12.999057 48.209248 72 39 47
4.067681 13.113391 48.247551 72 39 47
4.071191 13.228802 48.289185 71 38 47
4.075006 13.345390 48.334431 70 37 47
4.079141 13.463231 48.383480 70 37 47
4.083605 13.582378 48.436432 69 38 47
4.088398 13.702855 48.493282 69 38 47
4.093510 13.824656 48.553925 69 39 46
4.098926 13.947750 48.618156 69 38 46
4.104619 14.072073 48.685688 69 39 45
4.110559 14.197537 48.756134 68 39 44
4.116705 14.324027 48.829044 68 39 43
4.123017 14.451407 48.903904 67 39 43
4.129446 14.579527 48.980160 65 38 42
4.135945 14.708224 49.057251 64 38 41
4.142467 14.837334 49.134602 64 37 41
4.148966 14.966696 49.211693 63 37 40
3.910612 3.420537 45.228100 131 70 86
3.911488 3.518822 45.238239 131 71 86
3.912366 3.617153 45.248394 131 70 85
3.913227 3.715510 45.258347 129 68 84
3.914052 3.813875 45.267883 128 66 85
3.914827 3.912232 45.276852 127 64 85
3.915541 4.010566 45.285114 125 63 85
3.916190 4.108866 45.292614 123 61 83
3.916771 4.207126 45.299343 121 59 80
3.917292 4.305348 45.305359 118 57 77
3.917761 4.403538 45.310780 117 56 75
3.918194 4.501711 45.315792 117 55 74
3.918611 4.599886 45.320618 117 55 74
3.919036 4.698092 45.325539 117 55 74
3.919495 4.796360 45.330841 118 55 73
3.920015 4.894727 45.336853 118 56 73
3.920622 4.993231 45.343876 118 56 72
3.921343 5.091913 45.352211 118 56 73
3.922201 5.190813 45.362133 117 56 74
3.923216 5.289967 45.373871 117 56 75
3.924403 5.389408 45.387604 117 56 76
3.925774 5.489166 45.403461 116 56 76
3.927335 5.589262 45.421516 116 55 74
3.929087 5.689712 45.441772 115 54 72
3.931024 5.790523 45.464180 113 52 69
3.933140 5.891697 45.488647 112 52 67
3.935420 5.993228 45.515022 112 52 66
3.937850 6.095105 45.543129 116 57 70
3.940412 6.197309 45.572758 126 66 80
3.943086 6.299820 45.603680 127 67 83
3.945851 6.402614 45.635666 122 61 78
3.948689 6.505665 45.668484 119 57 75
3.951581 6.608947 45.701927 120 57 75
3.954509 6.712436 45.735802 121 56 74
3.957462 6.816113 45.769947 120 55 72
3.960428 6.919959 45.804249 118 53 70
3.963400 7.023964 45.838623 116 52 68
3.966375 7.128125 45.873035 115 52 66
3.969356 7.232441 45.907501 114 52 65
3.972345 7.336924 45.942078 114 52 65
3.975353 7.441590 45.976864 113 53 64
3.978390 7.546463 46.011993 113 54 64
3.981472 7.651572 46.047642 111 53 63
3.984615 7.756953 46.083984 108 52 61
3.987836 7.862645 46.121235 106 51 60
3.991152 7.968688 46.159592 106 51 60
3.994581 8.075125 46.199253 105 50 60
3.998139 8.181994 46.240395 105 50 60
4.001838 8.289336 46.283180 105 50 60
4.005691 8.397182 46.327732 105 50 59
4.009703 8.505561 46.374138 104 49 58
4.013880 8.614493 46.422451 103 48 56
4.018223 8.723992 46.472675 102 48 54
4.022728 8.834066 46.524780 100 47 54
4.027390 8.944711 46.578693 99 47 55
4.032197 9.055918 46.634300 97 46 55
4.037140 9.167669 46.691463 96 46 55
4.042202 9.279941 46.750008 94 46 55
4.047366 9.392703 46.809734 93 46 55
4.052614 9.505917 46.870422 91 46 54
4.057924 9.619542 46.931835 90 45 53
4.063275 9.733530 46.993729 88 44 51
4.068645 9.847829 47.055824 85 43 50
4.074008 9.962382 47.117867 83 42 48
4.079343 10.077131 47.179565 81 42 47
4.084626 10.192015 47.240658 79 41 46
4.089831 10.306968 47.300858 78 41 46
4.094936 10.421925 47.359898 77 40 47
4.099918 10.536821 47.417519 77 41 48
4.104755 10.651590 47.473469 77 41 49
4.109430 10.766174 47.527534 77 41 49
4.113924 10.880512 47.579506 77 41 49
4.118222 10.994553 47.629215 77 41 50
4.122313 11.108249 47.676529 77 41 50
4.126189 11.221565 47.721359 77 40 50
4.129847 11.334475 47.763660 77 40 50
4.133286 11.446962 47.803440 77 41 50
4.136514 11.559030 47.840767 76 41 49
4.139539 11.670689 47.875759 76 41 49
4.142380 11.781973 47.908615 76 40 48
4.145057 11.892928 47.939575 75 41 47
4.147597 12.003619 47.968948 75 41 48
4.150031 12.114129 47.997097 75 41 48
4.152394 12.224552 48.024429 75 42 48
4.154727 12.335001 48.051403 74 42 47
4.157071 12.445603 48.078522 74 41 47
4.159472 12.556492 48.106285 73 41 47
4.161973 12.667806 48.135216 73 40 47
4.164620 12.779692 48.165829 72 40 46
4.167455 12.892291 48.198616 72 39 47
4.170517 13.005742 48.234035 72 39 47
4.173842 13.120171 48.272491 71 38 47
4.177460 13.235689 48.314327 71 38 47
4.181391 13.352391 48.359791 70 37 47
4.185651 13.470351 48.409069 70 37 47
4.190248 13.589614 48.462234 69 38 47
4.195179 13.710197 48.519264 69 38 46
4.200434 13.832092 48.580040 70 39 46
4.205994 13.955261 48.644337 69 39 45
4.211832 14.079637 48.711853 68 38 44
4.217912 14.205119 48.782173 68 38 44
4.224194 14.331592 48.854832 67 38 42
4.230633 14.458913 48.929302 66 38 42
4.237179 14.586924 49.005013 65 38 41
4.243783 14.715459 49.081383 64 37 41
4.250393 14.844349 49.157837 63 37 40
4.256965 14.973431 49.233837 63 37 40
4.263454 15.102551 49.308895 63 37 39
4.008891 3.226174 45.236931 126 69 82
4.009552 3.324237 45.244385 128 70 83
4.010282 3.422392 45.252628 130 71 84
4.011059 3.520624 45.261402 132 72 85
4.011862 3.618916 45.270454 131 71 85
4.012668 3.717251 45.279552 129 68 85
4.013458 3.815609 45.288464 128 66 85
4.014214 3.913974 45.297001 126 65 85
4.014925 4.012329 45.305023 125 63 85
4.015583 4.110665 45.312447 123 62 84
4.016185 4.208974 45.319241 121 60 81
4.016735 4.307256 45.325439 119 58 78
4.017241 4.405518 45.331150 117 56 76
4.017718 4.503772 45.336536 117 55 74
4.018185 4.602037 45.341812 118 56 74
4.018665 4.700340 45.347225 118 56 74
4.019183 4.798712 45.353069 117 54 72
4.019766 4.897188 45.359646 117 55 71
4.020440 4.995805 45.367252 118 56 72
4.021232 5.094605 45.376186 118 56 73
4.022164 5.193624 45.386707 117 56 74
4.023257 5.292901 45.399044 119 56 76
4.024527 5.392468 45.413372 119 57 78
4.025984 5.492351 45.429813 119 57 78
4.027635 5.592575 45.448441 118 57 77
4.029480 5.693153 45.469265 116 56 74
4.031516 5.794095 45.492229 115 54 72
4.033732 5.895401 45.517250 114 54 70
4.036118 5.997066 45.544170 113 53 69
4.038658 6.099079 45.572823 115 56 72
4.041332 6.201423 45.603004 120 61 77
4.044121 6.304075 45.634480 123 62 80
4.047006 6.407015 45.667030 121 60 79
4.049966 6.510216 45.700432 120 58 78
4.052982 6.613652 45.734467 120 58 77
4.056038 6.717302 45.768951 121 57 76
4.059120 6.821143 45.803730 120 56 74
4.062218 6.925161 45.838684 118 55 71
4.065323 7.029343 45.873722 116 53 67
4.068434 7.133686 45.908825 115 53 66
4.071550 7.238191 45.943993 114 53 65
4.074678 7.342867 45.979286 113 53 65
4.077826 7.447731 46.014801 113 52 65
4.081005 7.552807 46.050674 111 52 64
4.084230 7.658124 46.087067 109 52 63
4.087517 7.763716 46.124161 107 51 61
4.090884 7.869622 46.162159 107 51 61
4.094349 7.975881 46.201256 107 51 61
4.097929 8.082537 46.241653 108 52 62
4.101639 8.189626 46.283520 108 52 62
4.105494 8.297187 46.327015 107 51 61
4.109502 8.405252 46.372246 106 51 60
4.113673 8.513845 46.419304 105 51 59
4.118008 8.622989 46.468231 104 50 57
4.122510 8.732695 46.519028 103 49 55
4.127173 8.842965 46.571644 102 49 55
4.131990 8.953797 46.626011 100 48 55
4.136952 9.065179 46.681995 98 47 55
4.142044 9.177092 46.739456 96 47 56
4.147250 9.289506 46.798195 94 46 56
4.152552 9.402392 46.858025 93 46 56
4.157929 9.515708 46.918701 91 45 55
4.163360 9.629412 46.979988 90 45 53
4.168822 9.743450 47.041622 88 44 51
4.174292 9.857773 47.103344 85 43 50
4.179745 9.972322 47.164871 83 43 48
4.185156 10.087036 47.225941 81 42 47
4.190503 10.201857 47.286274 80 42 47
4.195761 10.316717 47.345600 79 42 47
4.200906 10.431555 47.403660 78 41 48
4.205917 10.546306 47.460201 78 41 49
4.210773 10.660909 47.514999 78 41 49
4.215455 10.775304 47.567837 78 41 49
4.219947 10.889437 47.618526 78 41 50
4.224236 11.003258 47.666927 78 41 50
4.228312 11.116726 47.712910 78 41 50
4.232167 11.229810 47.756420 78 41 50
4.235800 11.342484 47.797413 78 41 50
4.239213 11.454742 47.835930 78 42 50
4.242414 11.566587 47.872047 78 42 50
4.245415 11.678038 47.905907 77 41 49
4.248233 11.789126 47.937706 76 41 48
4.250891 11.899905 47.967701 76 41 47
4.253418 12.010442 47.996212 75 41 47
4.255846 12.120819 48.023605 75 41 47
4.258211 12.231135 48.050293 75 42 47
4.260555 12.341506 48.076744 74 42 47
4.262920 12.452054 48.103443 74 42 47
4.265354 12.562915 48.130898 73 41 47
4.267900 12.674230 48.159626 72 40 47
4.270603 12.786139 48.190128 71 40 46
4.273506 12.898783 48.222885 71 39 46
4.276649 13.012299 48.258354 71 39 46
4.280067 13.126810 48.296925 71 38 47
4.283788 13.242424 48.338909 70 38 47
4.287834 13.359232 48.384563 70 37 47
4.292218 13.477300 48.434040 69 36 46
4.296947 13.596671 48.487404 68 37 45
4.302017 13.717359 48.544609 69 38 45
4.307415 13.839348 48.605522 70 39 45
4.313119 13.962593 48.669895 70 39 45
4.319102 14.087022 48.737404 68 39 44
4.325325 14.212530 48.807625 68 39 44
4.331745 14.338994 48.880066 67 38 42
4.338314 14.466267 48.954189 66 37 41
4.344979 14.594184 49.029404 65 37 40
4.351688 14.722573 49.105110 64 37 40
4.358389 14.851259 49.180717 64 37 40
4.365032 14.980075 49.255684 63 37 40
4.371575 15.108866 49.329510 63 37 40
4.377979 15.237495 49.401783 63 36 39
4.108459 3.130222 45.259537 122 66 80
4.108854 3.228097 45.263901 124 68 82
4.109371 3.326089 45.269588 126 70 83
4.109984 3.424186 45.276344 129 72 85
4.110671 3.522375 45.283913 133 75 88
4.111407 3.620640 45.292019 132 74 88
4.112169 3.718964 45.300419 128 69 85
4.112935 3.817327 45.308853 125 66 83
4.113685 3.915712 45.317116 124 64 84
4.114405 4.014102 45.325047 124 63 84
4.115085 4.112488 45.332542 123 62 84
4.115721 4.210860 45.339542 121 61 82
4.116313 4.309216 45.346069 120 59 80
4.116870 4.407564 45.352203 116 56 76
4.117404 4.505913 45.358089 115 53 73
4.117935 4.604282 45.363930 119 56 75
4.118482 4.702696 45.369957 118 56 74
4.119071 4.801186 45.376450 115 53 70
4.119728 4.899783 45.383690 116 53 69
4.120480 4.998528 45.391972 117 55 71
4.121353 5.097456 45.401581 117 55 72
4.122368 5.196607 45.412766 118 55 73
4.123548 5.296016 45.425762 120 56 76
4.124906 5.395716 45.440723 121 58 78
4.126454 5.495733 45.457787 121 58 79
4.128200 5.596090 45.477009 120 58 78
4.130142 5.696802 45.498405 118 57 76
4.132277 5.797878 45.521931 117 56 74
4.134597 5.899317 45.547485 115 55 72
4.137089 6.001117 45.574936 114 55 71
4.139737 6.103265 45.604107 116 55 73
4.142523 6.205747 45.634800 118 57 76
4.145427 6.308539 45.666790 120 59 79
4.148429 6.411622 45.699863 121 59 80
4.151509 6.514968 45.733795 121 59 80
4.154648 6.618556 45.768375 120 57 78
4.157830 6.722361 45.803421 120 58 76
4.161040 6.826364 45.838787 120 58 74
4.164268 6.930549 45.874344 118 56 71
4.167506 7.034904 45.910015 116 54 68
4.170751 7.139426 45.945763 115 54 66
4.174005 7.244116 45.981609 114 53 65
4.177272 7.348985 46.017601 113 53 65
4.180561 7.454047 46.053829 112 52 65
4.183883 7.559327 46.090431 111 51 64
4.187254 7.664854 46.127567 109 50 63
4.190690 7.770659 46.165417 108 50 62
4.194208 7.876783 46.204170 108 51 62
4.197826 7.983265 46.244030 109 52 64
4.201561 8.090143 46.285175 110 53 65
4.205430 8.197459 46.327789 110 53 65
4.209444 8.305246 46.372013 109 53 64
4.213614 8.413536 46.417953 108 52 62
4.217947 8.522353 46.465691 107 51 60
4.222447 8.631716 46.515259 106 51 59
4.227112 8.741633 46.566647 105 50 57
4.231937 8.852110 46.619808 103 50 56
4.236915 8.963136 46.674641 101 49 56
4.242033 9.074699 46.731022 99 48 56
4.247277 9.186778 46.788788 96 47 56
4.252628 9.299340 46.847736 95 47 57
4.258068 9.412354 46.907665 93 46 57
4.263575 9.525773 46.968327 91 45 56
4.269125 9.639555 47.029476 90 45 55
4.274696 9.753644 47.090839 89 44 53
4.280262 9.867990 47.152157 85 44 51
4.285799 9.982531 47.213154 83 43 49
4.291282 10.097206 47.273552 82 43 48
4.296686 10.211957 47.333092 81 42 48
4.301989 10.326719 47.391502 80 43 49
4.307166 10.441429 47.448532 79 42 49
4.312195 10.556026 47.503944 79 42 49
4.317059 10.670449 47.557522 79 42 49
4.321738 10.784643 47.609066 79 42 49
4.326218 10.898559 47.658417 78 41 49
4.330486 11.012148 47.705437 78 41 49
4.334534 11.125373 47.750023 78 42 50
4.338356 11.238208 47.792137 79 42 50
4.341953 11.350636 47.831760 79 43 51
4.345328 11.462646 47.868938 80 44 51
4.348491 11.574253 47.903774 80 43 51
4.351454 11.685476 47.936424 79 43 49
4.354239 11.796355 47.967098 78 42 48
4.356868 11.906941 47.996063 77 42 47
4.359372 12.017307 48.023647 76 42 46
4.361784 12.127538 48.050220 76 42 46
4.364143 12.237732 48.076210 75 42 47
4.366490 12.348006 48.102066 75 42 47
4.368871 12.458487 48.128292 74 42 47
4.371331 12.569307 48.155388 73 41 47
4.373915 12.680606 48.183853 72 40 46
4.376669 12.792524 48.214195 71 39 45
4.379637 12.905203 48.246887 71 39 46
4.382857 13.018772 48.282364 71 39 46
4.386364 13.133355 48.321003 71 38 47
4.390187 13.249054 48.363113 71 38 47
4.394346 13.365957 48.408924 70 37 47
4.398853 13.484129 48.458580 69 37 45
4.403714 13.603604 48.512127 68 36 44
4.408923 13.724394 48.569504 68 37 43
4.414464 13.846475 48.630550 69 39 44
4.420315 13.969798 48.695011 69 40 45
4.426445 14.094286 48.762539 68 39 44
4.432813 14.219827 48.832684 67 39 43
4.439372 14.346292 48.904942 67 39 42
4.446073 14.473527 48.978756 66 38 41
4.452859 14.601361 49.053516 65 38 40
4.459675 14.729618 49.128609 65 37 40
4.466467 14.858117 49.203430 64 37 41
4.473184 14.986686 49.277420 64 37 41
4.479779 15.115163 49.350071 64 37 40
4.486214 15.243409 49.420959 63 36 39
4.492461 15.371322 49.489784 62 36 39
4.498505 15.498829 49.556366 61 35 38
4.208544 3.034476 45.286667 120 63 80
4.208603 3.132143 45.287308 121 65 81
4.208834 3.229944 45.289783 123 66 82
4.209214 3.327873 45.293877 123 68 83
4.209720 3.425924 45.299320 127 71 85
4.210327 3.524082 45.305851 133 77 91
4.211008 3.622332 45.313183 134 78 92
4.211738 3.720657 45.321041 127 70 85
4.212493 3.819038 45.329163 121 63 80
4.213250 3.917456 45.337307 121 63 81
4.213993 4.015896 45.345299 122 64 83
4.214709 4.114345 45.353004 123 64 84
4.215392 4.212793 45.360355 123 63 84
4.216042 4.311239 45.367352 121 61 82
4.216664 4.409686 45.374039 117 55 77
4.217269 4.508145 45.380558 115 52 74
4.217875 4.606632 45.387081 117 54 75
4.218503 4.705171 45.393833 118 54 74
4.219175 4.803790 45.401070 115 51 70
4.219919 4.902524 45.409069 115 52 69
4.220759 5.001406 45.418110 116 53 70
4.221721 5.100474 45.428463 117 53 71
4.222829 5.199767 45.440384 118 54 73
4.224102 5.299317 45.454079 120 56 75
4.225555 5.399158 45.469719 122 58 78
4.227201 5.499316 45.487423 122 59 79
4.229044 5.599813 45.507259 122 59 79
4.231086 5.700663 45.529236 121 58 77
4.233324 5.801875 45.553310 119 57 75
4.235747 5.903450 45.579391 117 55 73
4.238345 6.005384 45.607342 116 55 73
4.241101 6.107668 45.637001 117 55 75
4.243998 6.210285 45.668171 119 56 77
4.247014 6.313213 45.700630 121 58 79
4.250131 6.416435 45.734173 123 60 81
4.253329 6.519924 45.768581 123 59 80
4.256588 6.623658 45.803654 120 57 77
4.259893 6.727614 45.839218 120 58 75
4.263228 6.831773 45.875107 120 59 74
4.266585 6.936121 45.911224 118 57 71
4.269954 7.040646 45.947483 115 55 69
4.273334 7.145343 45.983849 114 54 67
4.276724 7.250217 46.020336 113 54 67
4.280131 7.355276 46.056995 113 54 67
4.283563 7.460536 46.093922 113 53 66
4.287031 7.566020 46.131241 111 52 66
4.290551 7.671757 46.169113 110 51 65
4.294138 7.777779 46.207714 109 51 65
4.297811 7.884125 46.247234 109 52 65
4.301586 7.990832 46.287861 110 53 66
4.305482 8.097940 46.329784 111 53 67
4.309513 8.205487 46.373161 112 53 67
4.313693 8.313508 46.418140 111 53 66
4.318030 8.422029 46.464813 110 52 64
4.322532 8.531076 46.513256 108 51 62
4.327201 8.640666 46.563492 107 51 60
4.332034 8.750804 46.615501 106 50 59
4.337027 8.861492 46.669224 104 50 58
4.342168 8.972720 46.724548 103 50 57
4.347446 9.084472 46.781345 100 49 57
4.352844 9.196721 46.839428 98 49 57
4.358343 9.309436 46.898598 96 48 57
4.363922 9.422580 46.958630 94 46 57
4.369557 9.536107 47.019279 92 46 57
4.375226 9.649968 47.080280 91 45 56
4.380903 9.764110 47.141365 89 45 54
4.386563 9.878475 47.202267 86 44 52
4.392179 9.993007 47.262703 84 44 50
4.397727 10.107640 47.322403 83 44 49
4.403183 10.222317 47.381111 82 43 48
4.408522 10.336974 47.438564 81 43 49
4.413722 10.451549 47.494518 80 43 49
4.418762 10.565983 47.548752 80 42 49
4.423623 10.680217 47.601051 80 42 49
4.428288 10.794201 47.651257 80 42 49
4.432744 10.907885 47.699203 80 42 49
4.436979 11.021228 47.744774 80 42 49
4.440987 11.134199 47.787907 79 42 50
4.444764 11.246771 47.828548 80 43 50
4.448313 11.358934 47.866734 80 44 51
4.451637 11.470686 47.902512 81 44 51
4.454750 11.582039 47.936001 82 44 51
4.457665 11.693021 47.967373 81 44 50
4.460405 11.803673 47.996857 79 43 48
4.462995 11.914053 48.024727 78 43 47
4.465466 12.024232 48.051319 77 43 46
4.467855 12.134301 48.077023 77 42 46
4.470199 12.244361 48.102249 77 43 47
4.472543 12.354527 48.127468 76 43 47
4.474931 12.464926 48.153164 75 42 47
4.477411 12.575693 48.179852 73 41 46
4.480028 12.686964 48.208012 72 40 46
4.482829 12.798882 48.238155 71 39 45
4.485857 12.911581 48.270737 71 39 45
4.489151 13.025195 48.306183 71 39 46
4.492746 13.139841 48.344868 72 39 47
4.496668 13.255619 48.387077 71 39 47
4.500938 13.372612 48.433022 70 38 46
4.505569 13.490881 48.482845 69 37 44
4.510561 13.610458 48.536568 68 37 43
4.515909 13.731347 48.594116 68 37 43
4.521595 13.853521 48.655300 68 39 43
4.527595 13.976927 48.719860 68 40 44
4.533873 14.101479 48.787422 67 39 44
4.540388 14.227059 48.857521 67 39 43
4.547089 14.353534 48.929630 66 39 42
4.553923 14.480742 49.003170 66 38 41
4.560833 14.608508 49.077526 65 38 41
4.567759 14.736647 49.152050 65 38 41
4.574643 14.864972 49.226131 65 38 41
4.581433 14.993308 49.299194 65 38 41
4.588080 15.121489 49.370724 64 37 41
4.594544 15.249369 49.440277 63 37 40
4.600796 15.376842 49.507557 62 36 39
4.606822 15.503840 49.572392 61 35 38
4.612617 15.630342 49.634762 61 35 38
4.309231 2.938942 45.318890 120 62 79
4.308883 3.036390 45.315235 122 64 83
4.308755 3.133981 45.313892 122 64 84
4.308830 3.231719 45.314678 120 65 84
4.309085 3.329599 45.317356 121 66 84
4.309496 3.427614 45.321678 125 70 87
4.310035 3.525754 45.327351 131 77 93
4.310675 3.624002 45.334076 132 78 94
4.311386 3.722341 45.341557 125 70 86
4.312143 3.820753 45.349518 119 64 80
4.312922 3.919219 45.357704 120 63 81
4.313701 4.017721 45.365906 122 65 84
4.314468 4.116246 45.373974 124 65 85
4.315214 4.214786 45.381813 125 66 86
4.315935 4.313334 45.389397 123 63 84
4.316636 4.411895 45.396767 119 57 80
4.317327 4.510477 45.404030 116 53 76
4.318023 4.609095 45.411350 116 53 75
4.318743 4.707772 45.418926 117 53 74
4.319511 4.806535 45.427006 117 51 71
4.320352 4.905415 45.435848 116 51 69
4.321290 5.004446 45.445721 116 52 69
4.322352 5.103665 45.456886 117 52 70
4.323560 5.203108 45.469585 118 53 72
4.324933 5.302809 45.484024 120 55 75
4.326488 5.402799 45.500374 122 57 78
4.328234 5.503103 45.518745 122 58 79
4.330179 5.603743 45.539200 123 58 79
4.332324 5.704734 45.561756 123 58 78
4.334664 5.806085 45.586369 121 56 76
4.337193 5.907797 45.612953 119 55 74
4.339895 6.009867 45.641380 119 54 73
4.342758 6.112283 45.671486 119 55 75
4.345763 6.215033 45.703087 120 55 77
4.348889 6.318095 45.735970 122 57 79
4.352118 6.421452 45.769932 124 60 81
4.355431 6.525079 45.804768 124 60 80
4.358808 6.628953 45.840275 122 58 77
4.362232 6.733056 45.876293 120 57 74
4.365691 6.837366 45.912666 119 57 72
4.369174 6.941871 45.949287 118 56 70
4.372672 7.046561 45.986088 116 56 70
4.376185 7.151432 46.023026 115 56 69
4.379712 7.256485 46.060120 114 56 68
4.383259 7.361733 46.097424 113 55 69
4.386834 7.467188 46.135021 112 54 68
4.390450 7.572876 46.173046 112 53 68
4.394120 7.678824 46.211647 111 53 68
4.397862 7.785065 46.250999 111 53 68
4.401693 7.891635 46.291290 111 53 68
4.405631 7.998572 46.332695 112 54 68
4.409691 8.105914 46.375404 113 54 68
4.413890 8.213698 46.419567 113 54 67
4.418241 8.321958 46.465317 112 53 66
4.422751 8.430718 46.512753 110 52 64
4.427427 8.540003 46.561924 109 51 62
4.432270 8.649825 46.612850 107 50 61
4.437276 8.760192 46.665504 106 50 59
4.442440 8.871099 46.719810 105 50 58
4.447750 8.982534 46.775654 104 50 58
4.453191 9.094480 46.832882 102 50 58
4.458746 9.206906 46.891304 100 49 58
4.464395 9.319779 46.950703 98 48 58
4.470114 9.433058 47.010849 95 47 58
4.475879 9.546695 47.071480 93 47 57
4.481665 9.660638 47.132336 92 46 56
4.487447 9.774832 47.193134 90 46 54
4.493196 9.889218 47.253597 88 45 52
4.498888 10.003738 47.313461 87 45 50
4.504497 10.118328 47.372444 85 45 49
4.509996 10.232926 47.430286 83 44 48
4.515366 10.347473 47.486748 82 44 48
4.520580 10.461906 47.541588 81 43 48
4.525620 10.576169 47.594593 81 42 48
4.530468 10.690206 47.645576 81 42 48
4.535108 10.803967 47.694370 81 41 49
4.539528 10.917411 47.740856 81 41 49
4.543719 11.030499 47.784935 81 42 49
4.547675 11.143200 47.826538 81 42 50
4.551395 11.255498 47.865665 81 42 51
4.554883 11.367384 47.902340 81 43 51
4.558146 11.478862 47.936653 82 44 51
4.561196 11.589949 47.968735 82 44 50
4.564053 11.700675 47.998772 82 44 49
4.566737 11.811088 48.027004 81 44 49
4.569278 11.921247 48.053726 80 44 48
4.571707 12.031228 48.079277 79 43 47
4.574062 12.141122 48.104046 78 43 46
4.576385 12.251035 48.128468 78 43 47
4.578717 12.361081 48.153000 77 43 47
4.581107 12.471388 48.178127 75 42 47
4.583601 12.582089 48.204357 74 41 46
4.586246 12.693324 48.232182 72 40 45
4.589090 12.805231 48.262085 71 39 45
4.592175 12.917945 48.294525 71 39 45
4.595540 13.031595 48.329918 71 39 45
4.599220 13.146297 48.368618 72 40 47
4.603240 13.262145 48.410900 71 40 46
4.607622 13.379226 48.456978 70 38 45
4.612373 13.497588 48.506954 69 38 44
4.617498 13.617266 48.560844 69 38 43
4.622986 13.738255 48.618561 68 38 43
4.628818 13.860524 48.679893 68 39 43
4.634967 13.984015 48.744564 68 39 44
4.641397 14.108634 48.812180 67 39 44
4.648060 14.234264 48.882259 67 39 44
4.654906 14.360757 48.954254 66 39 43
4.661876 14.487948 49.027557 66 39 42
4.668911 14.615659 49.101547 65 38 42
4.675949 14.743693 49.175552 65 38 42
4.682928 14.871862 49.248947 65 38 42
4.689791 14.999980 49.321133 65 38 42
4.696491 15.127878 49.391586 64 38 42
4.702983 15.255411 49.459866 63 37 41
4.709239 15.382464 49.525658 63 37 40
4.715241 15.508967 49.588787 62 36 39
4.720990 15.634902 49.649239 61 36 39
4.726498 15.760296 49.707169 60 36 38
4.411690 2.746526 45.367916 120 59 76
4.410596 2.843618 45.356659 119 60 77
4.409775 2.940845 45.348221 122 63 83
4.409220 3.038218 45.342514 125 68 89
4.408917 3.135745 45.339397 124 68 90
4.408849 3.233432 45.338696 120 65 88
4.408992 3.331275 45.340168 119 65 87
4.409321 3.429269 45.343548 124 71 91
4.409806 3.527402 45.348537 130 78 97
4.410417 3.625661 45.354824 132 79 96
4.411125 3.724028 45.362099 127 73 90
4.411899 3.822484 45.370056 121 67 84
4.412713 3.921009 45.378426 122 67 84
4.413544 4.019588 45.386978 124 68 86
4.414376 4.118203 45.395538 125 68 88
4.415198 4.216846 45.403992 126 68 89
4.416006 4.315510 45.412296 125 66 88
4.416800 4.414197 45.420460 123 61 85
4.417589 4.512915 45.428577 120 57 81
4.418388 4.611677 45.436790 119 55 79
4.419214 4.710504 45.445282 120 54 77
4.420089 4.809421 45.454281 120 53 75
4.421037 4.908458 45.464035 119 52 73
4.422084 5.007648 45.474804 119 52 72
4.423254 5.107028 45.486832 118 52 71
4.424569 5.206629 45.500355 119 53 73
4.426049 5.306487 45.515575 121 54 75
4.427710 5.406631 45.532650 122 56 77
4.429561 5.507086 45.551693 122 57 78
4.431611 5.607874 45.572773 123 57 78
4.433860 5.709010 45.595905 124 57 78
4.436305 5.810501 45.621040 123 55 76
4.438936 5.912350 45.648102 122 54 74
4.441743 6.014552 45.676968 121 54 74
4.444711 6.117101 45.707481 121 54 75
4.447821 6.219980 45.739468 121 54 76
4.451055 6.323173 45.772724 123 56 78
4.454393 6.426660 45.807053 125 58 80
4.457817 6.530420 45.842258 125 59 80
4.461307 6.634430 45.878151 124 58 78
4.464848 6.738673 45.914566 121 57 74
4.468427 6.843130 45.951366 119 56 71
4.472033 6.947787 45.988449 119 57 71
4.475659 7.052637 46.025738 119 58 73
4.479303 7.157676 46.063213 118 58 72
4.482965 7.262907 46.100880 116 57 71
4.486652 7.368339 46.138786 114 56 70
4.490371 7.473989 46.177036 113 55 70
4.494135 7.579880 46.215748 112 54 70
4.497959 7.686039 46.255066 111 54 70
4.501859 7.792500 46.295166 112 54 70
4.505851 7.899296 46.336227 113 54 70
4.509954 8.006466 46.378422 114 54 70
4.514185 8.114046 46.421928 115 55 69
4.518557 8.222072 46.466888 114 54 68
4.523083 8.330575 46.513432 113 52 66
4.527771 8.439580 46.561642 111 52 65
4.532626 8.549109 46.611568 110 51 63
4.537648 8.659171 46.663216 108 50 61
4.542834 8.769772 46.716541 106 49 59
4.548174 8.880904 46.771454 105 49 57
4.553656 8.992554 46.827831 104 49 57
4.559265 9.104700 46.885509 102 48 58
4.564981 9.217309 46.944283 100 47 58
4.570780 9.330344 47.003925 98 47 58
4.576641 9.443762 47.064194 95 47 58
4.582536 9.557511 47.124817 94 47 57
4.588439 9.671539 47.185520 92 46 55
4.594323 9.785788 47.246025 91 46 54
4.600160 9.900196 47.306053 90 46 53
4.605923 10.014703 47.365318 89 46 51
4.611586 10.129246 47.423557 87 46 50
4.617125 10.243763 47.480511 86 45 49
4.622516 10.358195 47.535950 84 44 49
4.627736 10.472481 47.589638 83 43 48
4.632768 10.586566 47.641380 83 42 48
4.637592 10.700397 47.690994 83 42 48
4.642197 10.813929 47.738346 83 42 48
4.646571 10.927122 47.783321 83 42 49
4.650706 11.039943 47.825844 83 42 49
4.654598 11.152365 47.865871 83 41 50
4.658249 11.264377 47.903423 82 42 50
4.661664 11.375975 47.938541 82 42 50
4.664853 11.487166 47.971333 82 43 50
4.667830 11.597974 48.001953 82 43 50
4.670616 11.708433 48.030598 82 44 49
4.673235 11.818594 48.057529 82 44 49
4.675716 11.928520 48.083046 81 44 48
4.678095 12.038293 48.107510 80 43 47
4.680410 12.148004 48.131310 79 43 46
4.682701 12.257756 48.154873 78 43 46
4.685016 12.367673 48.178677 77 43 46
4.687401 12.477879 48.203201 75 42 46
4.689904 12.588507 48.228943 74 41 45
4.692574 12.699697 48.256397 72 40 44
4.695456 12.811585 48.286034 71 39 44
4.698594 12.924307 48.318310 71 39 44
4.702028 13.037988 48.353626 71 39 45
4.705792 13.152740 48.392326 72 40 45
4.709909 13.268659 48.434673 72 40 45
4.714401 13.385821 48.480865 71 39 44
4.719275 13.504277 48.530991 70 38 43
4.724533 13.624055 48.585056 69 38 43
4.730162 13.745145 48.642941 69 38 42
4.736143 13.867513 48.704441 68 39 43
4.742443 13.991092 48.769234 68 39 44
4.749026 14.115788 48.836929 67 39 44
4.755841 14.241471 48.907009 67 39 44
4.762833 14.367992 48.978920 66 39 43
4.769943 14.495180 49.052032 65 39 43
4.777106 14.622846 49.125690 65 38 42
4.784256 14.750790 49.199223 65 38 42
4.791331 14.878818 49.271980 66 38 42
4.798271 15.006735 49.343342 66 38 42
4.805023 15.134370 49.412781 65 38 42
4.811544 15.261570 49.479836 64 37 41
4.817802 15.388221 49.544193 63 36 40
4.823780 15.514249 49.605671 63 36 39
4.829478 15.639633 49.664265 62 36 39
4.834912 15.764409 49.720142 61 36 38
4.840113 15.888664 49.773632 60 36 38
4.514367 2.651593 45.417000 123 61 80
4.512709 2.748487 45.400318 121 60 77
4.511357 2.845503 45.386719 120 60 79
4.510311 2.942659 45.376194 124 65 86
4.509562 3.039970 45.368660 129 72 95
4.509099 3.137446 45.363995 127 72 97
4.508901 3.235094 45.362003 121 67 93
4.508946 3.332912 45.362457 118 65 90
4.509206 3.430897 45.365078 124 71 95
4.509652 3.529037 45.369560 131 79 101
4.510250 3.627320 45.375576 133 80 100
4.510967 3.725727 45.382793 129 76 94
4.511773 3.824240 45.390900 123 70 88
4.512637 3.922838 45.399593 123 69 88
4.513535 4.021504 45.408627 125 70 89
4.514447 4.120223 45.417805 125 69 90
4.515360 4.218981 45.426991 127 69 91
4.516267 4.317774 45.436115 128 70 92
4.517168 4.416599 45.445171 128 67 91
4.518068 4.515464 45.454235 126 62 88
4.518981 4.614380 45.463425 124 59 84
4.519924 4.713367 45.472908 123 57 81
4.520916 4.812448 45.482891 122 55 78
4.521983 4.911652 45.493618 122 54 76
4.523147 5.011010 45.505325 121 54 74
4.524432 5.110556 45.518253 120 54 74
4.525860 5.210322 45.532631 120 54 74
4.527453 5.310344 45.548653 121 55 75
4.529224 5.410646 45.566467 122 55 76
4.531184 5.511257 45.586185 122 55 76
4.533340 5.612195 45.607883 123 55 76
4.535695 5.713475 45.631565 124 54 75
4.538243 5.815107 45.657204 124 54 75
4.540977 5.917091 45.684711 123 54 74
4.543886 6.019426 45.713978 123 54 74
4.546956 6.122103 45.744862 124 54 75
4.550169 6.225109 45.777184 124 55 76
4.553506 6.328428 45.810764 125 56 78
4.556950 6.432040 45.845406 126 58 79
4.560480 6.535928 45.880924 126 58 79
4.564081 6.640069 45.917145 125 58 78
4.567734 6.744446 45.953903 122 57 75
4.571429 6.849043 45.991077 120 56 73
4.575156 6.953849 46.028568 121 59 74
4.578907 7.058853 46.066307 124 62 76
4.582681 7.164056 46.104271 122 61 75
4.586478 7.269460 46.142471 118 59 72
4.590304 7.375074 46.180965 116 58 72
4.594168 7.480917 46.219833 114 57 71
4.598082 7.587009 46.259212 112 56 71
4.602060 7.693379 46.299236 112 55 71
4.606120 7.800060 46.340080 113 55 71
4.610277 7.907083 46.381905 114 54 71
4.614550 8.014488 46.424892 116 55 71
4.618954 8.122310 46.469200 116 55 70
4.623504 8.230580 46.514977 116 54 69
4.628211 8.339333 46.562328 114 52 67
4.633081 8.448587 46.611332 112 51 65
4.638121 8.558365 46.662033 110 50 63
4.643328 8.668673 46.714413 108 49 61
4.648696 8.779512 46.768429 107 48 59
4.654217 8.890876 46.823967 105 48 57
4.659877 9.002746 46.880905 103 47 56
4.665656 9.115096 46.939045 101 46 56
4.671535 9.227893 46.998192 100 47 57
4.677488 9.341095 47.058090 98 46 57
4.683492 9.454656 47.118488 96 46 57
4.689517 9.568522 47.179108 95 46 56
4.695537 9.682636 47.239662 93 47 55
4.701521 9.796940 47.299870 92 47 55
4.707442 9.911369 47.359444 92 47 54
4.713274 10.025865 47.418106 91 47 53
4.718987 10.140359 47.475586 89 46 51
4.724558 10.254793 47.531635 87 45 50
4.729964 10.369105 47.586021 86 44 49
4.735184 10.483241 47.638535 85 43 48
4.740197 10.597142 47.688976 85 43 48
4.744990 10.710761 47.737190 86 42 48
4.749549 10.824057 47.783054 86 42 49
4.753865 10.936991 47.826481 86 42 49
4.757933 11.049535 47.867401 86 42 50
4.761750 11.161670 47.905807 85 41 50
4.765321 11.273385 47.941730 84 41 50
4.768652 11.384685 47.975246 83 42 50
4.771756 11.495581 48.006470 83 42 50
4.774649 11.606099 48.035580 83 43 50
4.777354 11.716281 48.062790 83 44 49
4.779897 11.826180 48.088375 83 44 49
4.782310 11.935865 48.112652 81 44 48
4.784629 12.045419 48.135986 80 43 47
4.786894 12.154935 48.158772 79 43 47
4.789149 12.264523 48.181454 78 43 47
4.791439 12.374301 48.204498 77 43 46
4.793814 12.484397 48.228386 75 42 45
4.796322 12.594947 48.253616 73 41 44
4.799011 12.706085 48.280674 72 40 44
4.801929 12.817951 48.310028 71 39 44
4.805119 12.930676 48.342117 71 39 44
4.808619 13.044381 48.377338 71 39 44
4.812465 13.159183 48.416031 72 39 44
4.816680 13.275168 48.458435 72 39 44
4.821282 13.392412 48.504738 72 39 44
4.826280 13.510962 48.555012 71 39 43
4.831671 13.630839 48.609249 70 38 42
4.837443 13.752033 48.667320 69 38 42
4.843573 13.874502 48.728989 68 38 43
4.850028 13.998177 48.793930 67 39 43
4.856766 14.122953 48.861721 67 39 43
4.863736 14.248700 48.931835 67 39 44
4.870878 14.375260 49.003693 66 39 44
4.878129 14.502454 49.076649 65 38 43
4.885422 14.630087 49.150021 65 38 42
4.892689 14.757957 49.223125 65 37 42
4.899861 14.885854 49.295284 66 37 42
4.906878 15.013588 49.365875 66 37 42
4.913685 15.140977 49.434353 65 37 41
4.920235 15.267866 49.500248 65 36 41
4.926495 15.394134 49.563229 63 35 39
4.932449 15.519709 49.623131 62 35 39
4.938096 15.644569 49.679939 62 36 38
4.943452 15.768748 49.733826 62 36 38
4.948553 15.892341 49.785149 60 36 37
4.953455 16.015509 49.834461 59 36 37
4.617891 2.556802 45.472343 125 65 82
4.615631 2.653525 45.450081 122 63 80
4.613701 2.750350 45.431080 121 62 80
4.612108 2.847301 45.415394 121 63 82
4.610850 2.944398 45.403015 125 68 91
