ply
format ascii 1.0
element vertex 1237
property float x
property float y
property float z
property uchar red
property uchar green
property uchar blue
end_header
9.766802 10.769873 46.655884 134 77 83
9.776895 10.881680 46.704094 135 78 84
9.786864 10.993557 46.751720 124 67 74
9.796723 11.105515 46.798817 110 54 62
9.806474 11.217549 46.845390 104 50 59
9.816109 11.329653 46.891418 105 51 61
9.825612 11.441802 46.936817 106 53 65
9.834967 11.553971 46.981503 107 55 70
9.844148 11.666128 47.025360 108 57 74
9.853129 11.778235 47.068264 109 60 78
9.861890 11.890262 47.110119 112 64 83
9.870408 12.002172 47.150806 112 64 85
9.878669 12.113943 47.190266 108 61 82
9.886663 12.225555 47.228458 107 60 79
9.894391 12.337000 47.265373 109 62 80
9.901857 12.448276 47.301041 110 63 81
9.909079 12.559393 47.335537 108 61 78
9.916075 12.670371 47.368958 104 56 74
9.922874 12.781241 47.401440 102 53 71
9.929509 12.892037 47.433132 103 53 71
9.936012 13.002796 47.464195 105 54 72
9.942419 13.113564 47.494801 105 54 71
9.948760 13.224376 47.525093 103 51 67
9.955064 13.335267 47.555206 101 49 63
9.961349 13.446264 47.585228 100 48 61
9.967629 13.557384 47.615231 100 49 60
9.973909 13.668633 47.645229 99 50 59
9.980180 13.779999 47.675186 98 50 58
9.986428 13.891462 47.705036 96 50 58
9.992631 14.002990 47.734665 93 50 57
9.998758 14.114540 47.763935 91 50 57
10.004778 14.226062 47.792690 90 50 56
10.010654 14.337503 47.820763 89 49 57
10.016356 14.448812 47.847996 88 50 58
10.021852 14.559943 47.874256 88 50 58
10.027128 14.670862 47.899456 86 50 58
10.032167 14.781542 47.923527 85 49 57
10.036974 14.891981 47.946487 84 49 57
10.041561 15.002192 47.968403 85 50 58
10.045956 15.112206 47.989399 87 51 58
10.050200 15.222082 48.009670 87 51 57
10.054344 15.331894 48.029465 85 50 55
10.058453 15.441737 48.049091 83 47 52
10.062595 15.551718 48.068882 81 44 48
10.066853 15.661961 48.089218 78 40 45
10.071299 15.772589 48.110458 77 38 43
10.076020 15.883741 48.133015 77 38 43
10.081098 15.995557 48.157269 79 40 46
10.086606 16.108164 48.183582 79 40 47
10.092619 16.221695 48.212303 77 40 46
10.099199 16.336269 48.243740 76 39 45
10.106404 16.451996 48.278156 74 39 45
10.114282 16.568972 48.315784 72 38 44
10.122868 16.687279 48.356804 71 38 44
8.395773 -2.987960 39.697708 117 62 72
8.384263 -2.898406 39.643284 116 60 72
8.372686 -2.809064 39.588543 116 59 72
8.361050 -2.719939 39.533524 123 64 78
8.349365 -2.631036 39.478271 135 76 91
8.337643 -2.542360 39.422848 140 80 96
8.325896 -2.453916 39.367306 128 69 86
8.314140 -2.365708 39.311722 118 59 76
8.302392 -2.277742 39.256168 119 61 77
8.290668 -2.190022 39.200737 121 64 80
8.278989 -2.102552 39.145515 124 67 83
8.267374 -2.015336 39.090595 130 73 88
8.255847 -1.928378 39.036091 134 76 91
8.244431 -1.841679 38.982113 131 71 88
8.233148 -1.755241 38.928761 123 60 80
8.222021 -1.669065 38.876152 117 53 74
8.211074 -1.583151 38.824394 117 53 75
8.200328 -1.497496 38.773582 124 60 81
8.189802 -1.412098 38.723816 132 70 89
8.179516 -1.326954 38.675175 134 72 90
8.169483 -1.242058 38.627739 132 71 86
8.159721 -1.157405 38.581585 129 69 82
8.150244 -1.072988 38.536770 126 65 77
8.141065 -0.988801 38.493366 123 62 73
8.132198 -0.904836 38.451447 125 63 75
8.123662 -0.821085 38.411083 133 69 83
8.115474 -0.737539 38.372368 137 72 87
8.107656 -0.654191 38.335407 136 70 85
8.100237 -0.571029 38.300323 133 67 83
8.093246 -0.488045 38.267265 130 66 81
8.086717 -0.405227 38.236397 130 67 81
8.080690 -0.322561 38.207897 130 68 82
8.075209 -0.240035 38.181980 130 68 83
8.070318 -0.157632 38.158855 128 66 83
8.066066 -0.075335 38.138752 124 62 81
8.062497 0.006877 38.121880 121 59 79
8.059661 0.089023 38.108467 122 59 82
8.057598 0.171128 38.098717 126 63 87
8.056353 0.253217 38.092823 129 65 92
8.055956 0.335316 38.090950 132 68 95
8.056439 0.417452 38.093239 132 69 96
8.057827 0.499655 38.099800 131 68 96
8.060136 0.581951 38.110710 129 66 95
8.063374 0.664372 38.126019 127 65 95
8.067542 0.746945 38.145733 129 66 98
8.072639 0.829698 38.169827 132 69 103
8.078650 0.912659 38.198257 137 73 108
8.085559 0.995852 38.230923 137 74 109
8.093341 1.079303 38.267719 137 74 108
8.101967 1.163033 38.308502 139 78 111
8.111402 1.247064 38.353111 140 80 111
8.121605 1.331413 38.401356 137 78 108
8.132532 1.416096 38.453026 133 75 103
8.144140 1.501128 38.507912 130 72 100
8.156376 1.586518 38.565762 129 70 100
8.169188 1.672275 38.626343 131 71 101
8.182524 1.758406 38.689400 133 72 102
8.196330 1.844915 38.754681 136 74 102
8.210552 1.931803 38.821926 134 73 98
8.225136 2.019071 38.890884 128 67 90
8.240032 2.106715 38.961319 126 66 87
8.255190 2.194732 39.032986 129 70 89
8.270562 2.283118 39.105675 132 73 90
8.286106 2.371866 39.179165 134 76 90
8.301778 2.460968 39.253269 134 76 89
8.317542 2.550419 39.327805 136 77 89
8.333363 2.640209 39.402611 138 79 90
8.349211 2.730330 39.477547 137 79 90
8.365060 2.820775 39.552483 133 77 88
8.380888 2.911536 39.627323 129 77 87
8.396679 3.002605 39.701988 126 78 88
8.412420 3.093979 39.776417 123 79 88
8.428108 3.185653 39.850597 121 82 88
8.443748 3.277628 39.924545 125 89 95
8.459349 3.369907 39.998310 136 103 107
8.474935 3.462498 40.072006 145 114 117
8.490538 3.555413 40.145779 151 120 122
8.506201 3.648673 40.219837 155 125 128
8.521978 3.742302 40.294441 170 140 145
8.537934 3.836332 40.369884 205 182 188
8.554144 3.930804 40.446526 234 211 221
8.570686 4.025764 40.524746 222 185 204
8.587647 4.121262 40.604942 174 123 149
8.605113 4.217352 40.687527 128 70 100
8.623170 4.314094 40.772903 111 50 79
8.641896 4.411546 40.861450 112 51 77
8.661362 4.509765 40.953484 113 54 74
8.681623 4.608803 41.049290 109 53 69
8.702725 4.708709 41.149067 104 52 64
8.724689 4.809520 41.252914 99 52 61
8.747518 4.911264 41.360859 94 51 59
8.771195 5.013960 41.472813 88 51 56
8.795686 5.117610 41.588612 83 49 53
8.820932 5.222208 41.707985 78 48 51
8.846863 5.327733 41.830593 75 47 50
8.873391 5.434151 41.956024 74 47 50
8.900420 5.541423 42.083828 73 47 51
8.927848 5.649497 42.213512 74 48 52
8.955568 5.758319 42.344585 75 49 54
8.983479 5.867830 42.476551 77 52 56
9.011479 5.977970 42.608948 79 54 58
9.039480 6.088681 42.741344 75 52 55
9.067403 6.199909 42.873367 70 47 49
9.095177 6.311604 43.004692 68 44 47
9.122750 6.423723 43.135067 68 43 47
9.150079 6.536230 43.264286 66 40 45
9.177133 6.649094 43.392208 64 38 43
9.203896 6.762296 43.518749 64 36 43
9.230356 6.875819 43.643860 65 35 43
9.256513 6.989651 43.767536 66 35 43
9.282366 7.103785 43.889778 69 35 43
9.307923 7.218216 44.010620 72 34 43
9.333188 7.332938 44.130081 75 34 43
9.358165 7.447946 44.248177 78 35 43
9.382854 7.563231 44.364914 82 35 43
9.407248 7.678779 44.480259 87 36 44
9.431338 7.794573 44.594162 91 38 47
9.455104 7.910586 44.706535 94 41 50
9.478520 8.026790 44.817257 97 44 53
9.501555 8.143142 44.926170 99 48 58
9.524171 8.259600 45.033104 100 51 63
9.546321 8.376111 45.137836 103 57 70
9.567960 8.492620 45.240154 113 69 82
9.589037 8.609066 45.339813 127 85 100
9.609506 8.725389 45.436592 139 96 112
9.629319 8.841527 45.530277 144 102 118
9.648437 8.957422 45.620667 146 103 120
9.666823 9.073023 45.707607 140 95 113
9.684458 9.188284 45.790989 130 84 103
9.701324 9.303168 45.870739 124 76 97
9.717425 9.417655 45.946873 125 75 97
9.732772 9.531731 46.019432 130 78 101
9.747392 9.645399 46.088558 134 79 103
9.761317 9.758673 46.154404 131 75 99
9.774599 9.871580 46.217205 124 68 93
9.787295 9.984160 46.277237 121 64 88
9.799468 10.096460 46.334793 123 65 89
9.811183 10.208531 46.390182 127 71 91
9.822506 10.320430 46.443722 130 75 92
9.833502 10.432213 46.495716 127 72 85
9.844231 10.543933 46.546444 122 66 77
9.854744 10.655639 46.596149 127 70 79
9.865085 10.767371 46.645046 137 79 86
9.875286 10.879161 46.693283 137 79 85
9.885372 10.991030 46.740974 123 67 72
9.895352 11.102985 46.788162 109 54 61
9.905230 11.215029 46.834866 103 50 58
9.914996 11.327146 46.881042 103 51 61
9.924638 11.439319 46.926632 104 53 65
9.934134 11.551518 46.971527 105 55 69
9.943459 11.663712 47.015621 106 57 73
9.952590 11.775867 47.058800 107 59 77
9.961506 11.887949 47.100952 110 62 82
9.970181 11.999925 47.141975 111 64 84
9.978605 12.111771 47.181805 110 64 84
9.986768 12.223471 47.220402 109 62 80
9.994668 12.335011 47.257751 109 62 79
10.002312 12.446394 47.293896 109 62 78
10.009713 12.557630 47.328892 107 60 76
10.016891 12.668735 47.362835 104 57 72
10.023875 12.779736 47.395855 102 54 69
10.030693 12.890667 47.428093 103 53 69
10.037378 13.001566 47.459702 105 53 71
10.043962 13.112468 47.490829 105 53 71
10.050474 13.223411 47.521626 103 51 67
10.056939 13.334423 47.552193 100 49 64
10.063375 13.445527 47.582619 99 48 62
10.069789 13.556735 47.612949 99 49 62
10.076183 13.668045 47.643181 99 50 61
10.082549 13.779449 47.673286 97 51 61
10.088870 13.890919 47.703167 96 50 60
10.095118 14.002417 47.732712 94 50 59
10.101264 14.113901 47.761772 92 50 58
10.107275 14.225319 47.790195 91 50 58
10.113115 14.336618 47.817810 90 50 58
10.118752 14.447746 47.844463 90 51 59
10.124161 14.558660 47.870037 89 51 59
10.129324 14.669328 47.894447 87 50 58
10.134230 14.779727 47.917645 85 48 56
10.138886 14.889860 47.939663 83 48 56
10.143312 14.999746 47.960587 84 48 57
10.147537 15.109424 47.980564 85 50 58
10.151608 15.218958 47.999817 84 50 57
10.155583 15.328429 48.018612 83 49 55
10.159533 15.437942 48.037281 82 47 53
10.163530 15.547609 48.056183 80 43 50
10.167661 15.657563 48.075714 77 40 46
10.172006 15.767933 48.096260 76 38 44
10.176654 15.878864 48.118237 76 38 43
10.181687 15.990498 48.142036 78 40 45
10.187188 16.102970 48.168049 78 40 46
10.193229 16.216413 48.196606 77 39 45
10.199874 16.330950 48.228031 76 39 45
10.207182 16.446688 48.262585 74 38 44
10.215201 16.563728 48.300499 72 38 43
10.223967 16.682150 48.341946 71 38 43
10.233504 16.802019 48.387043 70 38 43
8.487488 -2.990123 39.726440 118 64 73
8.475872 -2.900511 39.672073 117 62 72
8.464173 -2.811106 39.617321 117 60 72
8.452400 -2.721913 39.562214 121 63 76
8.440563 -2.632938 39.506809 129 70 86
8.428676 -2.544186 39.451168 132 73 90
8.416750 -2.455663 39.395348 122 63 83
8.404804 -2.367376 39.339436 116 57 77
8.392855 -2.279328 39.283504 117 59 78
8.380922 -2.191526 39.227657 120 61 81
8.369028 -2.103974 39.171982 124 66 85
8.357194 -2.016676 39.116592 131 72 91
8.345445 -1.929638 39.061596 133 73 91
8.333805 -1.842860 39.007118 127 66 86
8.322300 -1.756346 38.953266 119 57 78
8.310954 -1.670096 38.900162 114 50 72
8.299792 -1.584110 38.847916 116 52 73
8.288836 -1.498386 38.796638 125 61 81
8.278108 -1.412923 38.746422 133 71 88
8.267626 -1.327715 38.697357 132 72 87
8.257407 -1.242759 38.649532 129 70 81
8.247468 -1.158048 38.603012 126 67 77
8.237823 -1.073576 38.557865 123 64 73
8.228486 -0.989335 38.514164 122 61 71
8.219473 -0.905319 38.471977 125 63 73
8.210799 -0.821519 38.431381 132 67 80
8.202485 -0.737925 38.392464 134 69 83
8.194551 -0.654531 38.355331 134 68 82
8.187026 -0.571324 38.320103 132 67 80
8.179938 -0.488296 38.286934 130 66 78
8.173325 -0.405434 38.255974 129 66 77
8.167223 -0.322726 38.227417 129 66 77
8.161678 -0.240157 38.201462 128 66 78
8.156735 -0.157712 38.178326 127 65 79
8.152443 -0.075373 38.158234 125 63 79
8.148848 0.006880 38.141407 124 61 81
8.145996 0.089069 38.128063 126 63 84
8.143934 0.171217 38.118412 128 64 87
8.142702 0.253349 38.112644 131 67 92
8.142336 0.335492 38.110931 135 71 96
8.142866 0.417673 38.113411 135 71 96
8.144316 0.499922 38.120197 133 69 95
8.146702 0.582267 38.131363 131 67 93
8.150033 0.664737 38.146957 130 67 94
8.154312 0.747361 38.166985 132 67 98
8.159532 0.830167 38.191414 135 70 101
8.165681 0.913183 38.220200 137 72 104
8.172739 0.996433 38.253235 136 71 105
8.180680 1.079943 38.290405 137 72 106
8.189473 1.163733 38.331562 138 74 108
8.199081 1.247826 38.376534 138 75 108
8.209462 1.332237 38.425121 137 74 106
8.220569 1.416983 38.477108 134 73 103
8.232355 1.502077 38.532272 131 70 100
8.244767 1.587530 38.590370 130 68 99
8.257752 1.673349 38.651146 133 70 101
8.271255 1.759540 38.714348 134 71 101
8.285222 1.846107 38.779720 133 70 98
8.299599 1.933052 38.847012 132 69 94
8.314330 2.020373 38.915962 129 67 90
8.329366 2.108068 38.986340 128 68 88
8.344658 2.196134 39.057915 130 71 89
8.360158 2.284565 39.130466 132 73 90
8.375823 2.373356 39.203785 133 74 89
8.391614 2.462500 39.277695 134 75 88
8.407493 2.551989 39.352020 135 76 88
8.423427 2.641816 39.426598 137 78 88
8.439386 2.731973 39.501301 136 79 88
8.455346 2.822452 39.576000 133 78 87
8.471287 2.913246 39.650612 130 80 87
8.487190 3.004349 39.725048 127 83 88
8.503047 3.095756 39.799271 125 85 89
8.518854 3.187464 39.873253 123 88 92
8.534616 3.279475 39.947033 129 97 100
8.550345 3.371790 40.020657 140 111 113
8.566067 3.464419 40.094238 148 120 121
8.581812 3.557375 40.167934 159 130 131
8.597626 3.650679 40.241951 179 151 152
8.613564 3.744355 40.316555 205 179 182
8.629691 3.838437 40.392036 231 209 215
8.646083 3.932965 40.468761 237 211 221
8.662820 4.027985 40.547100 202 158 178
8.679986 4.123546 40.627449 145 87 115
8.697670 4.219704 40.710220 111 49 79
8.715955 4.316517 40.795803 112 48 77
8.734920 4.414042 40.884571 116 54 80
8.754633 4.512336 40.976837 114 54 75
8.775149 4.611451 41.072868 108 53 69
8.796512 4.711432 41.172855 103 52 64
8.818739 4.812315 41.276894 97 53 61
8.841834 4.914130 41.384991 93 53 59
8.865778 5.016892 41.497063 87 52 56
8.890532 5.120603 41.612930 82 50 53
8.916039 5.225255 41.732315 78 48 52
8.942225 5.330826 41.854885 76 48 51
8.969003 5.437284 41.980217 74 47 51
8.996274 5.544588 42.107861 74 48 52
9.023934 5.652685 42.237331 75 49 53
9.051879 5.761521 42.368126 76 51 55
9.080003 5.871037 42.499763 78 54 58
9.108208 5.981174 42.631779 79 55 59
9.136401 6.091872 42.763741 75 51 55
9.164504 6.203078 42.895279 69 46 49
9.192446 6.314740 43.026062 66 42 45
9.220173 6.426816 43.155838 66 42 45
9.247642 6.539269 43.284409 65 40 44
9.274820 6.652070 43.411625 63 37 42
9.301691 6.765194 43.537395 64 36 42
9.328243 6.878625 43.661674 66 35 42
9.354474 6.992352 43.784451 68 35 42
9.380386 7.106367 43.905735 70 35 43
9.405982 7.220663 44.025539 73 34 43
9.431273 7.335236 44.143909 76 34 43
9.456257 7.450079 44.260853 79 34 43
9.480939 7.565186 44.376381 83 35 44
9.505315 7.680543 44.490475 87 37 45
9.529375 7.796134 44.603088 91 40 48
9.553102 7.911934 44.714149 95 43 51
9.576474 8.027915 44.823544 98 47 55
9.599461 8.144040 44.931129 98 51 58
9.622025 8.260267 45.036743 99 54 63
9.644124 8.376547 45.140182 106 63 74
9.665714 8.492824 45.241238 124 82 94
9.686747 8.609041 45.339684 139 100 112
9.707174 8.725139 45.435295 143 104 117
9.726952 8.841059 45.527866 143 105 120
9.746039 8.956743 45.617207 144 104 120
9.764404 9.072141 45.703163 136 94 111
9.782022 9.187208 45.785625 125 81 99
9.798881 9.301909 45.864532 122 76 95
9.814979 9.416223 45.939880 125 77 97
9.830330 9.530136 46.011738 130 79 100
9.844960 9.643653 46.080215 132 80 101
9.858905 9.756786 46.145485 131 77 99
9.872213 9.869566 46.207775 128 72 95
9.884942 9.982028 46.267353 126 69 93
9.897156 10.094222 46.324520 126 69 92
9.908919 10.206199 46.379581 128 71 93
9.920300 10.318013 46.432846 131 75 94
9.931360 10.429722 46.484615 129 72 88
9.942162 10.541380 46.535175 123 66 80
9.952756 10.653034 46.584763 128 70 81
9.963185 10.764724 46.633575 137 79 87
9.973484 10.876481 46.681782 135 77 84
9.983673 10.988326 46.729473 123 66 71
9.993764 11.100266 46.776703 111 56 61
10.003758 11.212303 46.823483 105 52 59
10.013647 11.324422 46.869766 104 53 61
10.023417 11.436605 46.915501 104 54 65
10.033047 11.548823 46.960571 105 56 69
10.042514 11.661047 47.004879 106 57 73
10.051791 11.773240 47.048302 108 60 78
10.060857 11.885370 47.090740 109 61 82
10.069690 11.997406 47.132084 112 65 86
10.078276 12.109324 47.172268 111 65 85
10.086606 12.221104 47.211258 109 62 80
10.094679 12.332738 47.249046 108 62 78
10.102499 12.444223 47.285648 109 62 77
10.110081 12.555571 47.321133 108 61 75
10.117443 12.666798 47.355598 105 58 71
10.124612 12.777928 47.389153 103 55 68
10.131616 12.888992 47.421928 103 54 68
10.138483 13.000024 47.454071 105 54 70
10.145244 13.111055 47.485718 106 54 70
10.151927 13.222124 47.517002 103 51 67
10.158553 13.333251 47.548016 100 49 64
10.165137 13.444456 47.578831 99 48 63
10.171685 13.555747 47.609482 99 50 63
10.178196 13.667119 47.639954 99 51 63
10.184656 13.778555 47.670193 98 51 62
10.191048 13.890028 47.700108 96 51 62
10.197343 14.001496 47.729572 94 51 61
10.203511 14.112917 47.758446 93 51 59
10.209517 14.224235 47.786552 92 50 59
10.215324 14.335397 47.813736 91 50 59
10.220902 14.446351 47.839844 90 51 59
10.226228 14.557058 47.864769 90 50 59
10.231284 14.667488 47.888439 88 49 58
10.236066 14.777622 47.910820 85 47 56
10.240583 14.887469 47.931965 83 47 56
10.244858 14.997052 47.951973 83 47 56
10.248928 15.106419 47.971020 83 48 57
10.252843 15.215638 47.989346 83 48 57
10.256666 15.324799 48.007240 82 48 56
10.260473 15.434013 48.025059 81 47 55
10.264344 15.543402 48.043179 80 45 52
10.268368 15.653100 48.062012 77 42 49
10.272632 15.763248 48.081970 76 39 46
10.277225 15.873992 48.103470 76 39 44
10.282238 15.985480 48.126934 77 40 44
10.287752 16.097853 48.152740 77 40 44
10.293840 16.211243 48.181240 77 39 44
10.300572 16.325775 48.212749 76 38 44
10.308004 16.441559 48.247532 74 38 44
10.316183 16.558693 48.285816 73 38 44
10.325145 16.677256 48.327763 72 38 44
10.334913 16.797310 48.373482 70 38 44
8.579842 -2.992465 39.757568 119 65 73
8.568125 -2.902792 39.703274 117 63 71
8.556310 -2.813320 39.648525 117 60 71
8.544405 -2.724056 39.593365 118 62 74
8.532423 -2.635006 39.537838 123 65 81
8.520375 -2.546175 39.482010 125 66 85
8.508278 -2.457571 39.425953 120 61 81
8.496147 -2.369200 39.369743 116 57 78
8.484005 -2.281067 39.313477 117 58 79
8.471869 -2.193179 39.257244 120 62 83
8.459766 -2.105541 39.201160 126 67 88
8.447719 -2.018158 39.145332 131 71 91
8.435752 -1.931035 39.089882 130 70 89
8.423895 -1.844175 39.034939 125 63 84
8.412172 -1.757579 38.980618 118 55 76
8.400611 -1.671250 38.927044 114 51 71
8.389237 -1.585187 38.874344 116 53 72
8.378076 -1.499390 38.822620 125 62 79
8.367147 -1.413855 38.771980 131 70 85
8.356473 -1.328578 38.722515 130 71 83
8.346070 -1.243555 38.674313 127 68 78
8.335956 -1.158781 38.627441 124 65 75
8.326145 -1.074247 38.581982 122 62 71
8.316652 -0.989947 38.537991 122 61 70
8.307493 -0.905874 38.495552 127 63 74
8.298685 -0.822018 38.454735 132 67 78
8.290245 -0.738371 38.415627 133 68 79
8.282197 -0.654923 38.378334 133 68 79
8.274569 -0.571665 38.342983 133 68 78
8.267388 -0.488586 38.309711 130 66 76
8.260693 -0.405675 38.278683 129 66 75
8.254519 -0.322917 38.250080 128 67 75
8.248916 -0.240300 38.224113 128 67 76
8.243925 -0.157806 38.200989 127 66 77
8.239597 -0.075418 38.180931 126 65 78
8.235979 0.006884 38.164165 127 65 81
8.233118 0.089122 38.150909 129 66 85
8.231061 0.171320 38.141376 128 65 85
8.229847 0.253503 38.135754 130 67 88
8.229514 0.335697 38.134209 136 73 94
8.230092 0.417931 38.136887 137 74 94
8.231604 0.500233 38.143894 135 71 92
8.234067 0.582632 38.155308 132 68 90
8.237490 0.665159 38.171165 132 68 90
8.241874 0.747841 38.191483 134 69 95
8.247211 0.830706 38.216217 137 72 99
8.253490 0.913783 38.245312 137 72 100
8.260688 0.997096 38.278664 135 70 100
8.268778 1.080669 38.316151 136 71 102
8.277725 1.164524 38.357613 136 71 102
8.287493 1.248682 38.402874 136 71 102
8.298036 1.333159 38.451725 135 71 101
8.309306 1.417972 38.503952 134 71 100
8.321255 1.503132 38.559322 132 68 98
8.333828 1.588649 38.617584 131 67 96
8.346971 1.674532 38.678482 132 67 96
8.360625 1.760786 38.741760 132 67 94
8.374741 1.847414 38.807167 131 67 91
8.389259 1.934417 38.874443 129 67 88
8.404128 2.021794 38.943340 129 68 87
8.419295 2.109543 39.013626 128 69 86
8.434713 2.197660 39.085068 129 70 86
8.450336 2.286141 39.157459 130 72 87
8.466119 2.374979 39.230595 132 74 88
8.482024 2.464168 39.304298 134 75 89
8.498014 2.553700 39.378399 135 76 88
8.514058 2.643568 39.452740 135 76 87
8.530127 2.733764 39.527199 135 78 87
8.546195 2.824281 39.601654 133 80 87
8.562243 2.915113 39.676014 131 84 88
8.578255 3.006253 39.750214 131 89 92
8.594222 3.097696 39.824207 129 94 95
8.610143 3.189441 39.897980 127 98 98
8.626021 3.281488 39.971561 132 106 105
8.641873 3.373842 40.045013 143 119 118
8.657722 3.466511 40.118454 155 130 130
8.673603 3.559510 40.192043 175 149 150
8.689562 3.652860 40.265995 207 184 185
8.705654 3.746585 40.340565 233 212 215
8.721948 3.840721 40.416065 240 213 222
8.738517 3.935306 40.492844 221 183 199
8.755444 4.030386 40.571278 174 121 145
8.772812 4.126013 40.651764 126 63 93
8.790709 4.222241 40.734699 110 45 75
8.809220 4.319127 40.820473 116 51 79
8.828420 4.416728 40.909439 118 55 80
8.848377 4.515098 41.001919 113 55 74
8.869144 4.614289 41.098152 108 54 68
8.890761 4.714345 41.198322 101 53 64
8.913248 4.815303 41.302517 96 53 60
8.936603 4.917188 41.410740 91 53 59
8.960804 5.020013 41.522884 85 52 56
8.985813 5.123784 41.638775 81 50 53
9.011572 5.228487 41.758137 78 48 52
9.038003 5.334104 41.880615 76 47 51
9.065019 5.440598 42.005798 76 48 52
9.092521 5.547929 42.133240 77 49 53
9.120404 5.656046 42.262447 78 50 54
9.148561 5.764893 42.392921 79 52 56
9.176888 5.874411 42.524185 80 55 59
9.205286 5.984540 42.655777 80 55 60
9.233662 6.095223 42.787262 76 51 56
9.261933 6.206402 42.918270 69 45 49
9.290034 6.318031 43.048485 66 41 45
9.317905 6.430062 43.177635 66 40 44
9.345506 6.542460 43.305531 65 38 43
9.372801 6.655194 43.432011 64 36 41
9.399772 6.768239 43.556988 65 35 41
9.426408 6.881578 43.680420 66 35 41
9.452705 6.995199 43.802273 69 35 42
9.478665 7.109092 43.922569 72 35 42
9.504294 7.223253 44.041332 75 35 43
9.529598 7.337675 44.158585 78 35 43
9.554583 7.452353 44.274357 81 35 44
9.579249 7.567279 44.388660 85 36 45
9.603596 7.682442 44.501476 88 38 47
9.627616 7.797827 44.612782 92 41 49
9.651295 7.913413 44.722507 95 45 53
9.674610 8.029169 44.830547 98 48 56
9.697536 8.145065 44.936783 97 52 59
9.720038 8.261058 45.041054 98 55 63
9.742076 8.377101 45.143169 113 72 80
9.763605 8.493142 45.242935 140 101 110
9.784580 8.609126 45.340130 152 114 125
9.804956 8.724996 45.434547 147 109 121
9.824687 8.840692 45.525978 144 106 119
9.843733 8.956160 45.614235 143 104 120
9.862063 9.071349 45.699173 135 93 111
9.879654 9.186216 45.780682 123 80 98
9.896491 9.300728 45.858704 120 74 93
9.912575 9.414860 45.933235 124 76 95
9.927917 9.528603 46.004330 129 79 97
9.942547 9.641958 46.072117 131 80 98
9.956496 9.754943 46.136761 132 79 98
9.969815 9.867580 46.198479 132 77 97
9.982564 9.979913 46.257553 131 75 97
9.994802 10.091987 46.314266 129 72 94
10.006599 10.203854 46.368927 129 71 93
10.018021 10.315570 46.421852 131 74 94
10.029130 10.427190 46.473331 130 72 90
10.039989 10.538770 46.523651 124 66 81
10.050649 10.650354 46.573048 127 69 81
10.061152 10.761985 46.621716 135 77 86
10.071531 10.873693 46.669815 133 75 82
10.081811 10.985497 46.717445 122 65 71
10.092000 11.097408 46.764660 112 57 62
10.102098 11.209423 46.811455 107 55 60
10.112102 11.321532 46.857807 105 55 62
10.121991 11.433713 46.903633 105 56 66
10.131748 11.545940 46.948845 106 58 69
10.141347 11.658181 46.993328 107 59 74
10.150765 11.770404 47.036968 108 60 78
10.159979 11.882575 47.079662 111 64 83
10.168965 11.994663 47.121307 116 68 89
10.177711 12.106644 47.161831 115 68 88
10.186206 12.218499 47.201199 110 62 80
10.194450 12.330220 47.239399 108 59 75
10.202447 12.441805 47.276455 109 62 76
10.210210 12.553260 47.312424 110 63 76
10.217755 12.664603 47.347393 107 59 72
10.225109 12.775856 47.381466 104 56 68
10.232296 12.887046 47.414768 104 55 68
10.239346 12.998205 47.447433 105 55 69
10.246285 13.109365 47.479595 106 55 69
10.253139 13.220552 47.511353 104 53 67
10.259927 13.331790 47.542805 101 50 65
10.266659 13.443091 47.574001 100 50 64
10.273339 13.554460 47.604958 100 51 64
10.279965 13.665888 47.635662 99 52 64
10.286522 13.777356 47.666042 98 52 64
10.292986 13.888831 47.695999 96 52 63
10.299332 14.000273 47.725399 95 52 62
10.305524 14.111631 47.754093 93 50 61
10.311527 14.222855 47.781914 91 49 60
10.317309 14.333889 47.808708 91 50 59
10.322837 14.444683 47.834320 91 50 59
10.328089 14.555199 47.858658 90 50 59
10.333052 14.665410 47.881657 88 49 59
10.337724 14.775304 47.903305 87 48 57
10.342116 14.884890 47.923660 85 47 56
10.346258 14.994199 47.942852 84 47 56
10.350190 15.103286 47.961075 84 46 56
10.353969 15.212225 47.978580 83 46 56
10.357662 15.321114 47.995693 82 47 56
10.361351 15.430070 48.012787 82 47 56
10.365119 15.539218 48.030247 80 45 54
10.369061 15.648705 48.048519 77 43 50
10.373268 15.758672 48.068008 76 41 47
10.377833 15.869271 48.089165 76 39 44
10.382850 15.980657 48.112411 75 38 43
10.388400 16.092970 48.138130 75 38 43
10.394562 16.206347 48.166683 75 38 43
10.401403 16.320911 48.198383 75 38 43
10.408979 16.436775 48.233494 74 38 43
10.417338 16.554033 48.272224 73 38 43
10.426514 16.672764 48.314743 72 38 44
10.436530 16.793030 48.361156 70 38 44
8.684572 -3.084928 39.844860 118 65 72
8.672880 -2.994998 39.791218 117 64 72
8.661069 -2.905260 39.737030 117 62 71
8.649144 -2.815718 39.682320 116 61 72
8.637115 -2.726379 39.627129 117 61 75
8.624992 -2.637250 39.571514 119 62 79
8.612792 -2.548337 39.515537 120 62 81
8.600529 -2.459648 39.459274 118 59 80
8.588223 -2.371189 39.402809 116 57 78
8.575893 -2.282968 39.346241 117 57 79
8.563562 -2.194990 39.289669 121 61 83
8.551257 -2.107263 39.233212 127 67 88
8.539001 -2.019790 39.176983 130 70 90
8.526824 -1.932578 39.121117 129 68 87
8.514754 -1.845630 39.065739 125 63 82
8.502820 -1.758948 39.010983 119 57 75
8.491049 -1.672535 38.956978 116 53 70
8.479468 -1.586390 38.903847 117 54 71
8.468103 -1.500513 38.851704 123 61 76
8.456979 -1.414901 38.800663 129 68 81
8.446115 -1.329549 38.750816 128 68 79
8.435530 -1.244454 38.702255 125 65 76
8.425243 -1.159609 38.655060 124 64 74
8.415269 -1.075008 38.609299 122 61 71
8.405622 -0.990642 38.565037 123 60 71
8.396319 -0.906505 38.522358 128 64 75
8.387378 -0.822586 38.481331 132 67 79
8.378816 -0.738879 38.442051 132 67 79
8.370656 -0.655372 38.404613 132 67 78
8.362926 -0.572055 38.369148 131 67 77
8.355656 -0.488919 38.335793 129 66 75
8.348882 -0.405951 38.304710 128 66 75
8.342642 -0.323137 38.276085 129 67 76
8.336983 -0.240463 38.250122 128 67 78
8.331949 -0.157914 38.227024 127 66 78
8.327590 -0.075470 38.207027 127 65 79
8.323954 0.006889 38.190342 130 68 85
8.321087 0.089184 38.177193 131 68 86
8.319037 0.171439 38.167786 127 63 82
8.317844 0.253679 38.162315 130 66 85
8.317546 0.335932 38.160946 136 72 91
8.318172 0.418226 38.163818 137 73 90
8.319747 0.500589 38.171040 135 70 87
8.322285 0.583051 38.182686 132 67 85
8.325794 0.665640 38.198792 131 66 85
8.330276 0.748387 38.219357 135 70 90
8.335725 0.831318 38.244350 139 75 96
8.342123 0.914461 38.273705 136 72 95
8.349447 0.997842 38.307308 131 67 92
8.357671 1.081484 38.345039 132 67 94
8.366758 1.165408 38.386730 135 70 97
8.376668 1.249635 38.432198 136 70 97
8.387356 1.334183 38.481232 136 70 98
8.398771 1.419064 38.533607 136 69 97
8.410865 1.504292 38.589092 134 67 95
8.423581 1.589877 38.647434 132 65 93
8.436863 1.675826 38.708370 131 63 90
8.450656 1.762145 38.771652 130 63 87
8.464904 1.848835 38.837025 129 64 84
8.479552 1.935899 38.904232 128 65 82
8.494546 2.023335 38.973019 128 66 81
8.509835 2.111141 39.043171 127 68 80
8.525372 2.199312 39.114449 127 69 81
8.541109 2.287845 39.186653 129 70 83
8.557004 2.376734 39.259579 132 74 88
8.573019 2.465971 39.333054 134 76 90
8.589117 2.555549 39.406914 133 75 88
8.605267 2.645462 39.481007 132 75 86
8.621439 2.735701 39.555206 133 78 87
8.637610 2.826260 39.629402 131 81 88
8.653761 2.917132 39.703499 129 85 89
8.669876 3.008312 39.777439 130 92 94
8.685948 3.099794 39.851173 129 98 97
8.701975 3.191578 39.924709 127 101 99
8.717964 3.283664 39.998070 131 109 106
8.733932 3.376059 40.071323 146 125 123
8.749902 3.468770 40.144596 166 144 144
8.765912 3.561814 40.218052 197 173 175
8.782010 3.655211 40.291908 230 212 214
8.798252 3.748987 40.366428 245 225 231
8.814708 3.843178 40.441925 232 195 211
8.831451 3.937823 40.518745 193 141 164
8.848565 4.032968 40.597263 143 82 111
8.866135 4.128664 40.677872 114 49 81
8.884244 4.224964 40.760960 113 47 78
8.902978 4.321925 40.846912 119 54 81
8.922412 4.419603 40.936073 117 55 78
8.942611 4.518052 41.028744 111 55 72
8.963626 4.617322 41.125164 106 54 67
8.985496 4.717455 41.225502 100 54 63
9.008235 4.818487 41.329830 94 54 59
9.031843 4.920442 41.438145 89 54 58
9.056296 5.023332 41.550335 83 51 54
9.081553 5.127160 41.666218 78 48 51
9.107554 5.231915 41.785511 75 46 49
9.134221 5.337573 41.907856 75 46 50
9.161466 5.444102 42.032852 77 48 52
9.189186 5.551457 42.160038 79 50 54
9.217280 5.659590 42.288929 81 52 57
9.245639 5.768445 42.419041 82 55 59
9.274158 5.877961 42.549885 82 56 61
9.302736 5.988080 42.681004 81 54 60
9.331283 6.098743 42.811974 77 50 56
9.359715 6.209895 42.942421 71 45 50
9.387961 6.321485 43.072018 67 41 46
9.415969 6.433469 43.200516 66 38 43
9.443689 6.545810 43.327698 65 37 41
9.471092 6.658474 43.453423 66 36 41
9.498154 6.771438 43.577579 67 35 41
9.524864 6.884684 43.700130 69 35 41
9.551220 6.998197 43.821049 71 35 42
9.577222 7.111969 43.940346 74 35 42
9.602875 7.225993 44.058037 77 35 42
9.628185 7.340263 44.174164 80 35 42
9.653160 7.454775 44.288750 83 35 44
9.677802 7.569520 44.401806 86 36 45
9.702112 7.684491 44.513344 89 38 48
9.726084 7.799670 44.623325 92 41 51
9.749705 7.915039 44.731697 94 45 54
9.772958 8.030572 44.838379 95 49 57
9.795815 8.146236 44.943249 95 52 58
9.818246 8.261995 45.046165 98 58 63
9.840213 8.377802 45.146950 123 84 89
9.861674 8.493608 45.245411 159 122 128
9.882584 8.609357 45.341347 168 132 139
9.902899 8.724997 45.434551 153 117 126
9.922574 8.840467 45.524822 144 107 119
9.941571 8.955717 45.611980 143 103 119
9.959857 9.070695 45.695877 134 94 110
9.977409 9.185359 45.776409 124 81 98
9.994215 9.299675 45.853512 119 73 90
10.010273 9.413620 45.927185 121 73 89
10.025596 9.527185 45.997490 126 76 91
10.040210 9.640371 46.064533 130 79 93
10.054151 9.753195 46.128494 133 80 95
10.067467 9.865682 46.189590 134 80 96
10.080218 9.977873 46.248096 133 79 97
10.092467 10.089814 46.304295 130 75 95
10.104280 10.201558 46.358494 128 71 93
10.115726 10.313160 46.411003 131 74 95
10.126867 10.424675 46.462124 130 72 92
10.137766 10.536159 46.512123 124 67 83
10.148475 10.647658 46.561253 126 69 82
10.159035 10.759213 46.609707 133 76 86
10.169481 10.870854 46.657631 131 75 82
10.179834 10.982602 46.705132 122 67 72
10.190106 11.094467 46.752262 113 60 64
10.200297 11.206446 46.799019 108 57 61
10.210401 11.318528 46.845375 105 55 61
10.220400 11.430695 46.891251 105 55 64
10.230274 11.542916 46.936550 108 59 71
10.240000 11.655166 46.981174 110 61 75
10.249551 11.767406 47.024994 111 62 78
10.258905 11.879609 47.067909 115 66 84
10.268041 11.991741 47.109825 121 72 90
10.276943 12.103778 47.150669 120 71 89
10.285602 12.215703 47.190395 113 63 80
10.294015 12.327504 47.228992 108 59 74
10.302186 12.439180 47.266483 110 61 75
10.310126 12.550737 47.302914 112 64 76
10.317854 12.662189 47.338371 109 61 72
10.325392 12.773560 47.372952 104 56 67
10.332763 12.884871 47.406769 104 55 67
10.339993 12.996153 47.439945 105 55 68
10.347110 13.107432 47.472591 106 56 68
10.354133 13.218733 47.504814 105 54 68
10.361080 13.330075 47.536690 103 52 66
10.367960 13.441468 47.568253 101 52 66
10.374775 13.552912 47.599522 100 52 66
10.381517 13.664394 47.630455 100 53 66
10.388170 13.775893 47.660980 98 53 65
10.394711 13.887372 47.690990 98 53 65
10.401109 13.998789 47.720345 97 53 65
10.407331 14.110094 47.748890 94 51 62
10.413341 14.221231 47.776463 91 49 60
10.419106 14.332150 47.802910 91 49 60
10.424593 14.442801 47.828087 92 50 60
10.429784 14.553145 47.851906 91 50 60
10.434669 14.663163 47.874317 90 49 59
10.439247 14.772842 47.895325 88 48 59
10.443537 14.882201 47.915001 87 48 58
10.447567 14.991272 47.933491 85 47 57
10.451385 15.100118 47.951012 84 46 57
10.455053 15.208820 47.967842 83 45 56
10.458644 15.317481 47.984314 82 46 56
10.462240 15.426222 48.000816 82 46 56
10.465936 15.535180 48.017769 79 45 53
10.469825 15.644502 48.035614 77 43 50
10.474004 15.754336 48.054783 77 41 46
10.478571 15.864841 48.075737 75 39 44
10.483619 15.976169 48.098900 74 38 42
10.489233 16.088465 48.124657 74 38 42
10.495494 16.201870 48.153381 74 38 42
10.502468 16.316507 48.185379 74 37 42
10.510212 16.432486 48.220905 73 38 43
10.518772 16.549902 48.260181 73 38 43
10.528182 16.668833 48.303356 72 38 44
10.538462 16.789337 48.350517 70 38 44
8.778413 -3.087724 39.880978 117 63 72
8.766647 -2.997731 39.827522 117 63 72
8.754747 -2.907923 39.773460 116 62 73
8.742720 -2.818308 39.718819 117 61 74
8.730573 -2.728891 39.663635 118 60 76
8.718319 -2.639679 39.607964 119 60 78
8.705974 -2.550681 39.551876 120 60 80
8.693552 -2.461903 39.495445 119 59 80
8.681076 -2.373353 39.438766 119 58 81
8.668567 -2.285039 39.381931 120 59 82
8.656049 -2.196968 39.325062 123 62 85
8.643547 -2.109145 39.268269 127 66 88
8.631091 -2.021579 39.211681 129 67 88
8.618711 -1.934273 39.155434 128 66 85
8.606435 -1.847232 39.099667 125 63 80
8.594294 -1.760460 39.044506 121 58 74
8.582317 -1.673957 38.990101 119 55 70
8.570535 -1.587725 38.936569 120 57 69
8.558972 -1.501762 38.884037 124 62 74
8.547655 -1.416066 38.832623 127 65 77
8.536605 -1.330634 38.782425 127 65 76
8.525843 -1.245460 38.733528 127 64 75
8.515386 -1.160538 38.686020 126 64 75
8.505250 -1.075862 38.639973 125 62 73
8.495452 -0.991424 38.595463 125 61 72
8.486009 -0.907215 38.552559 129 64 76
8.476935 -0.823228 38.511341 132 67 79
8.468254 -0.739452 38.471901 132 67 78
8.459986 -0.655879 38.434338 131 66 77
8.452158 -0.572497 38.398773 129 64 75
8.444801 -0.489296 38.365353 126 62 72
8.437952 -0.406264 38.334236 126 63 73
8.431649 -0.323386 38.305603 129 67 78
8.425939 -0.240649 38.279655 129 67 80
8.420865 -0.158036 38.256611 126 64 79
8.416479 -0.075528 38.236683 126 65 82
8.412827 0.006894 38.220093 132 69 88
8.409960 0.089254 38.207066 131 67 86
8.407921 0.171573 38.197800 125 62 80
8.406752 0.253880 38.192490 126 64 82
8.406487 0.336199 38.191292 132 69 86
8.407162 0.418560 38.194355 133 70 86
8.408795 0.500992 38.201775 132 69 83
8.411404 0.583523 38.213627 130 67 81
8.414995 0.666183 38.229939 130 66 80
8.419568 0.749001 38.250717 134 71 85
8.425116 0.832004 38.275917 139 75 91
8.431620 0.915220 38.305470 135 72 90
8.439057 0.998674 38.339260 129 65 85
8.447398 1.082389 38.377151 130 65 87
8.456607 1.166388 38.418987 134 68 92
8.466640 1.250688 38.464569 136 70 94
8.477452 1.335308 38.513687 136 70 95
8.488994 1.420261 38.566120 136 69 95
8.501212 1.505561 38.621632 135 66 93
8.514050 1.591215 38.679958 132 63 89
8.527454 1.677233 38.740852 129 61 85
8.541368 1.763618 38.804058 127 60 81
8.555732 1.850373 38.869320 127 62 79
8.570496 1.937499 38.936390 128 64 78
8.585603 2.024996 39.005020 127 67 77
8.601003 2.112861 39.074986 126 67 76
8.616648 2.201090 39.146061 126 67 77
8.632491 2.289678 39.218040 127 69 81
8.648492 2.378620 39.290733 131 74 87
8.664610 2.467908 39.363960 133 76 91
8.680809 2.557536 39.437553 131 75 89
8.697059 2.647497 39.511375 130 74 87
8.713329 2.737782 39.585297 130 77 88
8.729598 2.828386 39.659203 127 81 89
8.745845 2.919301 39.733017 125 85 91
8.762057 3.010522 39.806671 124 90 93
8.778226 3.102046 39.880127 121 92 93
8.794353 3.193871 39.953392 121 97 96
8.810446 3.285999 40.026501 132 112 110
8.826521 3.378435 40.099533 149 130 128
8.842606 3.471191 40.172607 171 150 151
8.858741 3.564281 40.245911 207 185 189
8.874973 3.657728 40.319656 240 225 230
8.891362 3.751558 40.394112 246 226 234
8.907976 3.845807 40.469593 216 174 194
8.924892 3.940515 40.546444 163 104 133
8.942193 4.035727 40.625038 120 55 87
8.959963 4.131495 40.705769 110 43 77
8.978286 4.227871 40.789013 117 49 81
8.997245 4.324912 40.875141 118 54 81
9.016912 4.422671 40.964493 115 54 76
9.037353 4.521203 41.057358 109 54 69
9.058616 4.620554 41.153954 103 54 65
9.080734 4.720767 41.254444 97 54 61
9.103726 4.821876 41.358894 92 54 59
9.127584 4.923902 41.467281 88 54 57
9.152283 5.026857 41.579491 81 50 52
9.177781 5.130743 41.695332 76 46 49
9.204016 5.235547 41.814518 74 45 48
9.230909 5.341247 41.936699 76 46 49
9.258370 5.447807 42.061455 78 48 52
9.286301 5.555185 42.188347 81 51 56
9.314592 5.663331 42.316879 84 54 59
9.343141 5.772189 42.446575 87 58 63
9.371839 5.881700 42.576950 86 58 63
9.400586 5.991805 42.707554 82 54 60
9.429291 6.102445 42.837959 77 50 55
9.457870 6.213564 42.967796 72 45 51
9.486254 6.325114 43.096748 69 41 46
9.514384 6.437048 43.224545 67 38 43
9.542215 6.549328 43.350986 67 37 42
9.569714 6.661921 43.475910 68 36 41
9.596857 6.774802 43.599228 69 36 41
9.623634 6.887952 43.720875 71 35 41
9.650038 7.001357 43.840832 73 35 41
9.676072 7.115006 43.959106 76 35 41
9.701741 7.228893 44.075722 79 35 41
9.727051 7.343012 44.190708 82 35 42
9.752010 7.457359 44.304100 85 35 44
9.776622 7.571925 44.415913 88 37 46
9.800889 7.686703 44.526157 90 39 50
9.824807 7.801680 44.634823 92 42 53
9.848366 7.916835 44.741848 93 46 57
9.871549 8.032146 44.847168 93 49 58
9.894333 8.147584 44.950684 93 52 58
9.916689 8.263110 45.052246 101 63 67
9.938581 8.378684 45.151703 136 99 102
9.959968 8.494255 45.248863 177 142 145
9.980807 8.609774 45.343540 184 149 154
10.001056 8.725183 45.435528 162 127 133
10.020668 8.840430 45.524632 146 109 119
10.039608 8.955461 45.610676 139 100 114
10.057842 9.070226 45.693516 132 92 107
10.075349 9.184685 45.773048 125 82 98
10.092113 9.298802 45.849213 118 73 89
10.108134 9.412557 45.921993 118 69 85
10.123425 9.525937 45.991467 123 72 87
10.138013 9.638948 46.057735 129 78 90
10.151931 9.751603 46.120968 133 81 93
10.165229 9.863929 46.181381 134 82 95
10.177969 9.975966 46.239258 133 80 96
10.190210 10.087762 46.294876 129 76 94
10.202024 10.199368 46.348541 127 73 94
10.213474 10.310840 46.400566 128 74 96
10.224630 10.422235 46.451248 128 73 93
10.235551 10.533607 46.500858 124 68 86
10.246289 10.645003 46.549644 125 69 84
10.256888 10.756464 46.597797 131 76 87
10.267384 10.868022 46.645477 132 77 86
10.277795 10.979696 46.692776 125 72 78
10.288135 11.091497 46.739754 118 66 70
10.298404 11.203424 46.786404 112 60 65
10.308593 11.315465 46.832695 106 55 61
10.318689 11.427602 46.878567 105 55 63
10.328670 11.539806 46.923904 110 60 71
10.338511 11.652051 46.968616 114 63 77
10.348187 11.764299 47.012577 116 65 79
10.357677 11.876523 47.055683 120 69 84
10.366955 11.988689 47.097839 125 74 91
10.376008 12.100774 47.138966 124 73 89
10.384826 12.212760 47.179028 116 65 80
10.393404 12.324635 47.217999 110 59 74
10.401747 12.436395 47.255898 112 61 74
10.409864 12.548048 47.292778 114 64 76
10.417771 12.659604 47.328701 110 61 72
10.425490 12.771084 47.363766 105 55 66
10.433043 12.882510 47.398083 104 54 65
10.440453 12.993906 47.431744 105 55 67
10.447743 13.105299 47.464867 107 56 68
10.454935 13.216707 47.497536 106 56 68
10.462041 13.328149 47.529819 104 54 68
10.469069 13.439630 47.561749 103 54 67
10.476017 13.551144 47.593311 102 53 67
10.482875 13.662678 47.624474 101 53 67
10.489628 13.774207 47.655148 99 54 66
10.496248 13.885694 47.685226 99 53 66
10.502704 13.997090 47.714554 98 53 66
10.508963 14.108350 47.742989 96 52 63
10.514988 14.219416 47.770363 93 50 61
10.520745 14.330234 47.796516 93 50 61
10.526207 14.440761 47.821331 93 50 61
10.531355 14.550960 47.844719 92 50 60
10.536180 14.660811 47.866638 91 49 60
10.540687 14.770310 47.887115 89 48 60
10.544895 14.879478 47.906235 88 48 59
10.548841 14.988354 47.924160 86 47 58
10.552574 15.097003 47.941120 84 46 57
10.556162 15.205515 47.957417 83 45 56
10.559681 15.313998 47.973404 82 45 55
10.563218 15.422579 47.989479 81 45 54
10.566874 15.531400 48.006081 79 44 52
10.570743 15.640610 48.023663 77 42 49
10.574927 15.750365 48.042671 76 41 46
10.579528 15.860826 48.063572 75 39 43
10.584640 15.972148 48.086792 74 38 42
10.590348 16.084476 48.112728 73 37 41
10.596734 16.197954 48.141743 73 37 41
10.603868 16.312704 48.174149 73 37 42
10.611803 16.428839 48.210201 73 37 42
10.620585 16.546444 48.250099 72 38 43
10.630248 16.665606 48.293999 72 38 44
10.640809 16.786371 48.341980 70 38 44
10.652273 16.908777 48.394062 69 38 43
8.873013 -3.090730 39.919804 116 62 73
8.861179 -3.000669 39.866562 117 62 74
8.849198 -2.910789 39.812656 117 61 74
8.837074 -2.821096 39.758114 117 60 75
8.824818 -2.731597 39.702969 118 60 77
8.812439 -2.642300 39.647278 119 60 79
8.799955 -2.553211 39.591114 119 60 80
8.787385 -2.464341 39.534557 119 59 81
8.774747 -2.375696 39.477699 120 60 82
8.762066 -2.287285 39.420650 123 62 84
8.749368 -2.199116 39.363518 126 65 85
8.736679 -2.111195 39.306435 127 66 85
8.724030 -2.023530 39.249523 128 66 84
8.711452 -1.936126 39.192936 127 65 83
8.698977 -1.848987 39.136814 125 62 79
8.686637 -1.762118 39.081291 122 59 74
8.674461 -1.675520 39.026516 121 58 70
8.662481 -1.589195 38.972618 122 59 70
8.650726 -1.503140 38.919731 125 61 72
8.639222 -1.417355 38.867973 128 63 73
8.627991 -1.331835 38.817440 128 64 73
8.617053 -1.246576 38.768234 128 63 74
8.606430 -1.161571 38.720444 127 63 74
8.596138 -1.076813 38.674137 127 62 73
8.586192 -0.992295 38.629391 128 63 74
8.576611 -0.908009 38.586281 130 65 76
8.567410 -0.823945 38.544895 132 68 79
8.558612 -0.740094 38.505306 132 68 79
8.550239 -0.656447 38.467636 129 65 76
8.542316 -0.572992 38.431992 125 61 72
8.534877 -0.489719 38.398525 122 58 70
8.527957 -0.406615 38.367390 123 60 72
8.521595 -0.323666 38.338768 127 65 79
8.515837 -0.240858 38.312862 129 67 84
8.510729 -0.158173 38.289879 126 64 83
8.506319 -0.075594 38.270042 127 65 86
8.502657 0.006900 38.253567 131 68 90
8.499790 0.089332 38.240665 129 65 86
8.497763 0.171725 38.231548 124 60 81
8.496618 0.254105 38.226395 126 62 81
8.496390 0.336499 38.225372 129 67 84
8.497110 0.418936 38.228607 132 70 84
8.498799 0.501444 38.236210 131 69 82
8.501472 0.584052 38.248238 130 68 80
8.505137 0.666789 38.264725 130 68 79
8.509791 0.749685 38.285664 134 72 83
8.515426 0.832767 38.311012 136 74 86
8.522022 0.916062 38.340687 132 70 84
8.529556 0.999594 38.374588 128 65 81
8.537996 1.083388 38.412556 130 66 83
8.547306 1.167464 38.454441 134 69 89
8.557443 1.251842 38.500046 137 72 92
8.568358 1.336537 38.549156 138 72 94
8.580003 1.421566 38.601543 137 70 94
8.592323 1.506938 38.656975 135 67 92
8.605265 1.592665 38.715199 131 63 87
8.618770 1.678752 38.775955 128 60 82
8.632782 1.765206 38.839001 125 58 76
8.647248 1.852028 38.904079 125 60 74
8.662110 1.939219 38.970947 127 65 74
8.677316 2.026779 39.039356 128 67 75
8.692814 2.114705 39.109085 126 67 74
8.708557 2.202993 39.179913 125 67 75
8.724499 2.291639 39.251633 127 69 80
8.740596 2.380637 39.324055 131 74 88
8.756809 2.469980 39.396999 132 76 91
8.773104 2.559660 39.470306 129 75 90
8.789446 2.649671 39.543831 127 75 89
8.805807 2.740006 39.617443 126 78 91
8.822165 2.830656 39.691032 124 81 92
8.838500 2.921616 39.764530 122 85 93
8.854801 3.012882 39.837864 118 87 93
8.871059 3.104448 39.911011 113 86 89
8.887278 3.196316 39.983978 116 94 95
8.903466 3.288487 40.056808 136 116 116
8.919643 3.380968 40.129589 157 137 137
8.935838 3.473769 40.202450 176 153 156
8.952092 3.566909 40.275578 211 188 195
8.968455 3.660408 40.349197 242 226 234
8.984989 3.754296 40.423584 240 218 230
9.001761 3.848606 40.499043 196 151 174
9.018852 3.943381 40.575932 137 75 108
9.036341 4.038665 40.654617 108 42 77
9.054313 4.134510 40.735474 112 45 79
9.072852 4.230967 40.818878 117 51 82
9.092037 4.328092 40.905193 116 54 79
9.111942 4.425938 40.994747 112 55 74
9.132626 4.524556 41.087803 107 54 68
9.154137 4.623993 41.184582 100 54 63
9.176507 4.724290 41.285225 94 53 59
9.199747 4.825477 41.389782 89 53 56
9.223851 4.927576 41.498226 84 51 54
9.248792 5.030598 41.610435 79 48 51
9.274525 5.134542 41.726208 76 46 49
9.300985 5.239396 41.845257 76 46 49
9.328095 5.345135 41.967224 77 47 50
9.355765 5.451725 42.091709 80 49 53
9.383892 5.559124 42.218254 83 51 56
9.412372 5.667280 42.346382 86 54 59
9.441096 5.776138 42.475616 88 57 63
9.469960 5.885640 42.605476 87 58 63
9.498863 5.995727 42.735512 83 54 60
9.527714 6.106341 42.865311 78 49 55
9.556427 6.217425 42.994492 73 45 50
9.584934 6.328930 43.122746 69 41 46
9.613176 6.440810 43.249805 68 38 43
9.641107 6.553026 43.375465 68 37 42
9.668691 6.665545 43.499565 69 37 41
9.695906 6.778341 43.622005 71 36 40
9.722737 6.891394 43.742725 73 36 40
9.749184 7.004690 43.861706 76 35 41
9.775243 7.118217 43.978943 78 34 41
9.800920 7.231967 44.094467 81 35 41
9.826224 7.345937 44.208309 85 35 42
9.851161 7.460120 44.320503 88 36 45
9.875738 7.574511 44.431076 90 38 48
9.899959 7.689100 44.540043 91 40 53
9.923820 7.803877 44.647396 92 44 57
9.947312 7.918824 44.753090 93 48 61
9.970425 8.033919 44.857071 93 52 62
9.993133 8.149135 44.959236 95 57 63
10.015412 8.264436 45.059471 111 74 78
10.037227 8.379781 45.157612 148 113 114
10.058537 8.495124 45.253490 185 151 151
10.079304 8.610415 45.346916 189 155 156
10.099481 8.725600 45.437698 167 133 135
10.119028 8.840627 45.525642 147 111 117
10.137907 8.955441 45.610577 136 98 108
10.156083 9.069995 45.692352 132 91 103
10.173536 9.184248 45.770874 127 84 98
10.190250 9.298165 45.846069 120 74 89
10.206225 9.411725 45.917942 116 68 83
10.221475 9.524919 45.986546 121 70 84
10.236022 9.637748 46.051998 129 78 90
10.249904 9.750225 46.114449 134 83 95
10.263170 9.862381 46.174137 134 83 96
10.275880 9.974254 46.231319 131 81 97
10.288098 10.085891 46.286289 128 77 96
10.299893 10.197346 46.339352 126 75 96
10.311332 10.308674 46.390816 126 75 98
10.322482 10.419931 46.440979 125 73 95
10.333405 10.531176 46.490124 122 68 89
10.344154 10.642451 46.538486 123 69 86
10.354774 10.753801 46.586262 129 75 89
10.365298 10.865258 46.633614 133 79 90
10.375750 10.976841 46.680634 129 76 84
10.386141 11.088563 46.727383 124 71 77
10.396470 11.200419 46.773857 118 65 72
10.406733 11.312403 46.820023 110 58 66
10.416912 11.424496 46.865826 107 55 64
10.426987 11.536670 46.911148 112 59 71
10.436932 11.648894 46.955894 117 63 76
10.446724 11.761140 46.999947 119 65 79
10.456338 11.873373 47.043201 124 69 84
10.465753 11.985563 47.085556 130 76 91
10.474950 12.097686 47.126938 129 75 90
10.483921 12.209723 47.167297 121 67 82
10.492660 12.321662 47.206612 113 59 74
10.501170 12.433500 47.244900 112 59 73
10.509459 12.545239 47.282196 114 61 74
10.517543 12.656892 47.318565 110 59 71
10.525440 12.768476 47.354095 105 54 65
10.533171 12.880008 47.388874 104 53 64
10.540756 12.991511 47.423000 105 54 66
10.548220 13.103010 47.456577 107 56 68
10.555577 13.214521 47.489681 108 57 69
10.562840 13.326056 47.522358 106 55 67
10.570014 13.437619 47.554634 103 54 66
10.577096 13.549202 47.586491 101 53 66
10.584072 13.660787 47.617878 100 54 67
10.590926 13.772347 47.648716 99 53 66
10.597630 13.883844 47.678875 99 53 66
10.604151 13.995231 47.708214 98 52 65
10.610454 14.106453 47.736572 97 51 64
10.616504 14.217460 47.763790 95 50 62
10.622270 14.328199 47.789730 94 49 61
10.627723 14.438625 47.814262 93 49 61
10.632845 14.548706 47.837307 93 49 60
10.637633 14.658425 47.858849 91 49 60
10.642094 14.767782 47.878918 90 48 60
10.646249 14.876800 47.897610 89 47 60
10.650140 14.985526 47.915119 87 47 59
10.653820 15.094029 47.931679 85 46 57
10.657362 15.202405 47.947609 84 45 56
10.660843 15.310764 47.963272 83 45 55
10.664360 15.419242 47.979095 82 45 54
10.668011 15.527983 47.995518 79 44 51
10.671898 15.637141 48.013012 77 42 48
10.676126 15.746875 48.032028 75 41 45
10.680793 15.857347 48.053028 74 39 43
10.686001 15.968714 48.076454 73 38 42
10.691836 16.081129 48.102715 72 37 41
10.698380 16.194725 48.132149 73 37 41
10.705698 16.309633 48.165077 73 37 42
10.713849 16.425957 48.201744 72 37 42
