ply
format ascii 1.0
element vertex 1183
property float x
property float y
property float z
property uchar red
property uchar green
property uchar blue
end_header
6.218288 10.415541 42.352341 254 242 250
6.220458 10.510504 42.367119 254 236 245
6.222208 10.604815 42.379036 254 231 241
6.223499 10.698391 42.387833 254 227 237
6.224300 10.791153 42.393291 254 227 238
6.224591 10.883047 42.395271 254 228 240
6.224361 10.974031 42.393703 254 227 241
6.223609 11.064082 42.388584 254 225 239
6.222345 11.153191 42.379971 254 223 238
6.220584 11.241366 42.367981 254 221 237
6.218351 11.328629 42.352772 254 220 236
6.215673 11.415010 42.334534 254 218 234
6.212581 11.500545 42.313473 253 217 232
6.209109 11.585279 42.289822 252 215 230
6.205287 11.669254 42.263790 251 214 227
6.201143 11.752508 42.235569 251 212 226
6.196702 11.835072 42.205322 249 210 224
6.191984 11.916971 42.173183 248 209 222
6.187001 11.998219 42.139248 247 208 221
6.181759 12.078815 42.103546 246 207 220
6.176259 12.158749 42.066086 244 205 218
6.170495 12.237997 42.026829 242 203 216
6.164455 12.316525 41.985691 240 201 214
6.158125 12.394291 41.942574 237 198 211
6.151486 12.471247 41.897358 232 193 207
6.144521 12.547340 41.849922 228 189 204
6.137211 12.622520 41.800137 225 185 200
6.129540 12.696738 41.747890 222 181 198
6.121494 12.769946 41.693085 219 177 196
6.113061 12.842108 41.635651 216 173 192
6.104235 12.913188 41.575535 213 169 189
6.095011 12.983163 41.512711 210 165 185
6.085388 13.052011 41.447166 207 162 183
6.075366 13.119714 41.378906 205 161 182
6.064948 13.186262 41.307949 203 160 181
6.054137 13.251646 41.234322 201 160 180
6.042935 13.315850 41.158028 200 158 179
6.031347 13.378867 41.079098 198 157 177
6.019370 13.440675 40.997520 198 158 177
6.007008 13.501267 40.913326 200 160 178
5.994264 13.560632 40.826527 202 162 180
5.981139 13.618756 40.737137 201 160 178
5.967639 13.675635 40.645191 203 161 179
5.953773 13.731272 40.550747 205 162 179
5.939552 13.785679 40.453888 207 161 179
5.924994 13.838881 40.354736 208 160 177
5.910122 13.890919 40.253445 210 158 175
5.894966 13.941848 40.150219 211 158 175
5.879561 13.991737 40.045296 212 156 171
5.863945 14.040669 39.938931 212 153 167
5.848161 14.088739 39.831429 213 149 163
5.832254 14.136049 39.723095 215 147 161
5.816272 14.182706 39.614235 217 145 158
5.800256 14.228812 39.505154 218 143 155
5.784249 14.274469 39.396130 218 139 151
5.768288 14.319771 39.287418 213 133 145
5.752403 14.364795 39.179234 205 123 135
5.736622 14.409611 39.071747 195 112 126
5.720963 14.454272 38.965092 187 104 120
5.705439 14.498819 38.859360 183 102 119
5.690062 14.543285 38.754631 182 105 123
5.674838 14.587691 38.650936 181 109 127
5.659773 14.632063 38.548332 180 112 131
5.644874 14.676423 38.446857 178 115 135
5.428565 -0.071976 36.438595 254 136 156
5.430042 0.006575 36.448513 254 140 161
5.431705 0.085172 36.459679 253 145 167
5.433625 0.163824 36.472561 253 145 167
5.435862 0.242547 36.487576 252 146 168
5.438467 0.321355 36.505062 250 151 171
5.441483 0.400270 36.525311 249 153 173
5.444945 0.479311 36.548546 251 156 177
5.448874 0.558500 36.574921 253 166 188
5.453290 0.637860 36.604561 254 175 197
5.458202 0.717412 36.637535 254 180 203
5.463618 0.797181 36.673885 255 185 208
5.469538 0.877187 36.713623 254 189 212
5.475963 0.957452 36.756752 254 190 213
5.482890 1.037999 36.803246 254 191 215
5.490312 1.118847 36.853065 254 192 217
5.498222 1.200016 36.906162 254 194 219
5.506610 1.281525 36.962467 254 193 218
5.515462 1.363392 37.021885 254 190 214
5.524760 1.445632 37.084293 254 190 214
5.534481 1.528257 37.149544 254 193 217
5.544597 1.611279 37.217445 254 198 220
5.555075 1.694704 37.287781 254 204 224
5.565876 1.778535 37.360283 254 214 232
5.576958 1.862773 37.434666 254 223 239
5.588268 1.947411 37.510586 254 226 241
5.599757 2.032441 37.587704 254 227 241
5.611369 2.117850 37.665646 254 229 242
5.623047 2.203621 37.744034 254 231 244
5.634734 2.289733 37.822483 254 231 244
5.646377 2.376166 37.900635 254 231 243
5.657923 2.462892 37.978134 254 231 243
5.669326 2.549890 38.054680 254 231 243
5.680545 2.637131 38.129982 254 231 244
5.691544 2.724591 38.203808 254 237 248
5.702291 2.812246 38.275951 254 245 253
5.712767 2.900074 38.346268 254 247 254
5.722951 2.988053 38.414631 254 243 252
5.732837 3.076167 38.480988 254 239 250
5.742419 3.164399 38.545303 254 238 249
5.751698 3.252738 38.607594 254 240 249
5.760686 3.341175 38.667919 254 242 250
5.769394 3.429707 38.726372 254 245 252
5.777842 3.518332 38.783077 254 250 254
5.786056 3.607056 38.838211 254 253 254
5.794065 3.695886 38.891968 254 254 254
5.801904 3.784839 38.944592 254 254 254
5.809613 3.873930 38.996334 254 253 254
5.817233 3.963185 39.047485 254 253 254
5.824808 4.052629 39.098335 254 254 254
5.832385 4.142292 39.149193 254 253 254
5.840008 4.232209 39.200359 254 251 253
5.847721 4.322413 39.252132 254 251 253
5.855566 4.412940 39.304787 254 251 254
5.863581 4.503824 39.358589 254 253 254
5.871800 4.595100 39.413761 254 254 254
5.880253 4.686800 39.470501 254 254 254
5.888966 4.778956 39.528984 254 254 254
5.897957 4.871594 39.589340 254 254 254
5.907244 4.964740 39.651676 254 254 254
5.916835 5.058415 39.716057 254 254 254
5.926738 5.152639 39.782524 254 254 254
5.936956 5.247428 39.851109 254 254 254
5.947485 5.342792 39.921783 254 254 254
5.958320 5.438740 39.994514 254 254 254
5.969452 5.535277 40.069237 254 254 254
5.980865 5.632401 40.145847 254 254 254
5.992537 5.730102 40.224190 254 254 254
6.004440 5.828366 40.304089 254 254 254
6.016539 5.927168 40.385303 255 255 255
6.028792 6.026474 40.467552 254 254 254
6.041149 6.126238 40.550491 255 255 255
6.053552 6.226409 40.633751 254 254 254
6.065939 6.326922 40.716900 254 254 254
6.078242 6.427704 40.799480 254 254 254
6.090391 6.528677 40.881023 254 254 254
6.102312 6.629754 40.961044 255 255 255
6.113936 6.730849 41.039070 254 254 254
6.125196 6.831875 41.114655 254 254 254
6.136033 6.932748 41.187393 254 254 254
6.146392 7.033389 41.256927 254 254 254
6.156232 7.133727 41.322975 254 254 254
6.165520 7.233703 41.385323 254 254 254
6.174236 7.333267 41.443825 254 254 254
6.182369 7.432384 41.498421 254 254 254
6.189923 7.531031 41.549122 254 254 254
6.196908 7.629195 41.596004 254 254 254
6.203343 7.726879 41.639202 255 255 255
6.209259 7.824093 41.678913 254 254 254
6.214688 7.920859 41.715355 254 254 254
6.219671 8.017205 41.748798 254 254 254
6.224249 8.113169 41.779530 254 254 254
6.228467 8.208792 41.807850 254 254 254
6.232374 8.304121 41.834072 254 253 254
6.236015 8.399205 41.858509 254 250 254
6.239439 8.494099 41.881489 254 248 254
6.242692 8.588857 41.903328 254 248 254
6.245821 8.683537 41.924332 254 247 253
6.248871 8.778196 41.944805 254 246 252
6.251883 8.872889 41.965019 253 245 251
6.254894 8.967669 41.985229 250 241 247
6.257941 9.062587 42.005684 248 238 244
6.261050 9.157685 42.026554 248 241 245
6.264242 9.252995 42.047981 252 250 251
6.267530 9.348540 42.070053 254 254 254
6.270917 9.444330 42.092785 254 254 254
6.274396 9.540358 42.116138 254 254 254
6.277951 9.636603 42.140003 255 255 255
6.281556 9.733027 42.164196 254 253 254
6.285173 9.829577 42.188477 254 250 253
6.288758 9.926180 42.212543 254 245 252
6.292258 10.022751 42.236034 254 240 248
6.295617 10.119196 42.258579 254 237 246
6.298774 10.215412 42.279774 254 239 248
6.301669 10.311289 42.299202 254 243 251
6.304240 10.406717 42.316463 254 243 250
6.306435 10.501592 42.331196 254 239 247
6.308203 10.595814 42.343067 254 234 243
6.309505 10.689298 42.351807 254 230 239
6.310308 10.781965 42.357197 254 228 238
6.310591 10.873761 42.359093 254 228 239
6.310344 10.964643 42.357433 255 228 240
6.309566 11.054588 42.352211 254 225 239
6.308267 11.143591 42.343494 254 223 237
6.306464 11.231658 42.331390 254 221 235
6.304183 11.318815 42.316078 253 219 234
6.301452 11.405091 42.297749 253 217 232
6.298304 11.490526 42.276615 252 216 230
6.294773 11.575168 42.252914 251 214 228
6.290892 11.659060 42.226868 250 212 226
6.286691 11.742239 42.198666 250 211 224
6.282195 11.824742 42.168488 248 209 223
6.277423 11.906592 42.136456 246 207 221
6.272389 11.987804 42.102669 246 206 220
6.267099 12.068377 42.067162 246 206 220
6.261554 12.148300 42.029934 244 205 218
6.255745 12.227548 41.990944 241 202 216
6.249660 12.306085 41.950096 238 200 213
6.243284 12.383867 41.907299 235 197 210
6.236597 12.460844 41.862411 231 194 208
6.229579 12.536963 41.815308 226 188 203
6.222213 12.612171 41.765862 222 183 199
6.214479 12.686417 41.713951 218 179 196
6.206363 12.759652 41.659473 216 176 194
6.197854 12.831840 41.602360 215 173 192
6.188945 12.902946 41.542557 213 171 190
6.179634 12.972951 41.480057 210 168 187
6.169919 13.041833 41.414848 207 166 185
6.159803 13.109581 41.346951 206 165 184
6.149292 13.176189 41.276398 204 163 183
6.138391 13.241651 41.203220 202 162 182
6.127104 13.305961 41.127460 201 161 181
6.115438 13.369113 41.049152 200 160 180
6.103394 13.431097 40.968307 200 161 179
6.090978 13.491910 40.884968 203 163 181
6.078195 13.551543 40.799164 205 165 182
6.065049 13.609991 40.710918 205 164 182
6.051544 13.667251 40.620270 204 163 180
6.037691 13.723327 40.527283 205 162 179
6.023501 13.778232 40.432034 206 161 178
6.008991 13.831990 40.334641 206 159 176
5.994184 13.884640 40.235249 207 157 174
5.979106 13.936230 40.134041 210 158 174
5.963790 13.986824 40.031231 213 158 174
5.948272 14.036498 39.927067 213 155 170
5.932591 14.085338 39.821812 212 152 164
5.916790 14.133438 39.715755 213 149 161
5.900911 14.180892 39.609169 215 149 158
5.884994 14.227794 39.502323 219 148 156
5.869077 14.274235 39.395481 221 151 157
5.853192 14.320293 39.288853 220 149 155
5.837367 14.366042 39.182636 212 138 144
5.821624 14.411535 39.076962 201 123 132
5.805980 14.456817 38.971951 193 111 123
5.790443 14.501916 38.867661 190 109 124
5.775022 14.546856 38.764145 188 110 127
5.759720 14.591653 38.661434 184 111 129
5.744541 14.636320 38.559547 179 111 130
5.729490 14.680876 38.458519 175 111 131
5.500117 -0.150334 36.392296 254 147 165
5.501464 -0.071903 36.401211 254 153 171
5.502918 0.006568 36.410828 252 148 167
5.504560 0.085083 36.421700 251 143 163
5.506466 0.163652 36.434307 251 144 163
5.508698 0.242291 36.449081 252 149 170
5.511313 0.321015 36.466381 253 158 179
5.514354 0.399845 36.486500 253 161 181
5.517855 0.478801 36.509666 253 160 180
5.521842 0.557906 36.536049 254 166 188
5.526333 0.637184 36.565765 254 176 198
5.531340 0.716656 36.598888 254 180 203
5.536866 0.796345 36.635456 254 184 207
5.542914 0.876275 36.675468 254 188 210
5.549480 0.956467 36.718914 254 188 212
5.556560 1.036942 36.765762 254 188 212
5.564146 1.117720 36.815952 254 190 214
5.572227 1.198822 36.869427 254 191 217
5.580791 1.280264 36.926086 254 189 215
5.589820 1.362064 36.985832 254 185 210
5.599295 1.444237 37.048523 254 184 208
5.609190 1.526795 37.113998 254 187 210
5.619476 1.609747 37.182056 254 191 213
5.630118 1.693099 37.252468 254 197 217
5.641074 1.776854 37.324963 254 206 224
5.652301 1.861010 37.399246 254 215 231
5.663748 1.945562 37.474987 254 217 232
5.675362 2.030501 37.551834 254 217 231
5.687089 2.115813 37.629425 254 221 234
5.698872 2.201481 37.707386 254 226 239
5.710655 2.287485 37.785351 254 228 242
5.722384 2.373804 37.862961 254 229 242
5.734010 2.460412 37.939888 254 229 242
5.745487 2.547286 38.015827 254 229 242
5.756775 2.634401 38.090515 254 231 243
5.767839 2.721732 38.163719 254 238 247
5.778651 2.809256 38.235260 254 245 252
5.789191 2.896953 38.304996 254 246 254
5.799441 2.984801 38.372822 254 245 253
5.809395 3.072785 38.438683 254 243 252
5.819048 3.160889 38.502552 254 242 251
5.828405 3.249104 38.564461 254 243 251
5.837473 3.337420 38.624462 254 244 251
5.846267 3.425835 38.682652 254 246 252
5.854808 3.514348 38.739162 255 250 253
5.863120 3.602965 38.794163 254 253 254
5.871234 3.691694 38.847851 254 254 254
5.879186 3.780550 38.900459 254 253 254
5.887012 3.869550 38.952244 254 252 254
5.894756 3.958719 39.003487 254 252 254
5.902462 4.048082 39.054474 254 253 254
5.910177 4.137671 39.105515 255 252 253
5.917944 4.227518 39.156910 254 251 253
5.925808 4.317657 39.208942 254 252 253
5.933811 4.408124 39.261894 254 253 254
5.941992 4.498953 39.316029 254 254 254
5.950385 4.590180 39.371559 254 254 254
5.959019 4.681835 39.428688 254 254 254
5.967920 4.773951 39.487587 254 254 254
5.977109 4.866554 39.548382 254 254 254
5.986600 4.959670 39.611179 254 254 254
5.996402 5.053319 39.676041 255 255 255
6.006525 5.147521 39.743015 254 254 254
6.016967 5.242292 39.812111 254 254 254
6.027728 5.337643 39.883312 254 254 254
6.038800 5.433580 39.956570 254 254 254
6.050174 5.530109 40.031830 252 253 253
6.061832 5.627227 40.108971 252 253 253
6.073753 5.724925 40.187847 253 254 254
6.085907 5.823185 40.268265 254 254 254
6.098258 5.921985 40.349987 254 254 254
6.110764 6.021288 40.432732 254 254 254
6.123372 6.121050 40.516148 254 254 254
6.136024 6.221217 40.599865 254 254 254
6.148656 6.321724 40.683449 254 254 254
6.161200 6.422500 40.766445 254 254 254
6.173582 6.523463 40.848377 254 254 254
6.185731 6.624529 40.928761 254 254 254
6.197574 6.725610 41.007122 254 254 254
6.209045 6.826619 41.083019 254 254 254
6.220081 6.927471 41.156040 254 254 254
6.230628 7.028088 41.225834 254 254 254
6.240646 7.128398 41.292110 254 254 254
6.250098 7.228342 41.354656 254 254 254
6.258965 7.327870 41.413322 254 254 254
6.267236 7.426945 41.468048 254 254 254
6.274913 7.525543 41.518845 254 254 254
6.282007 7.623653 41.565784 255 255 255
6.288539 7.721274 41.609001 254 254 254
6.294537 7.818419 41.648685 254 254 254
6.300034 7.915107 41.685062 254 254 254
6.305072 8.011367 41.718399 254 254 254
6.309693 8.107235 41.748970 254 254 254
6.313943 8.202753 41.777096 254 254 254
6.317870 8.297968 41.803078 254 253 254
6.321522 8.392931 41.827244 254 250 254
6.324949 8.487695 41.849915 254 247 253
6.328197 8.582314 41.871410 254 247 253
6.331316 8.676849 41.892048 254 249 253
6.334353 8.771359 41.912140 253 247 253
6.337348 8.865898 41.931953 253 247 252
6.340343 8.960522 41.951775 253 248 252
6.343374 9.055284 41.971832 252 248 250
6.346471 9.150225 41.992317 252 249 251
6.349654 9.245380 42.013378 254 253 253
6.352938 9.340775 42.035107 254 254 254
6.356327 9.436420 42.057533 254 254 254
6.359816 9.532310 42.080612 254 254 254
6.363386 9.628425 42.104240 254 254 254
6.367013 9.724728 42.128235 254 252 254
6.370659 9.821162 42.152359 254 246 252
6.374277 9.917659 42.176304 254 242 251
6.377815 10.014131 42.199711 254 241 251
6.381213 10.110483 42.222195 254 239 250
6.384410 10.206611 42.243347 254 237 249
6.387342 10.302403 42.262753 254 238 249
6.389950 10.397750 42.280003 254 240 250
6.392174 10.492543 42.294720 254 241 249
6.393966 10.586683 42.306576 254 238 246
6.395283 10.680081 42.315292 254 231 240
6.396092 10.772661 42.320644 254 226 237
6.396372 10.864367 42.322498 254 228 239
6.396112 10.955153 42.320774 254 229 241
6.395311 11.044999 42.315475 254 227 239
6.393980 11.133900 42.306667 254 223 236
6.392137 11.221863 42.294476 254 220 234
6.389809 11.308916 42.279072 253 218 232
6.387026 11.395090 42.260658 252 217 230
6.383822 11.480428 42.239460 251 215 228
6.380234 11.564978 42.215714 251 214 227
6.376294 11.648783 42.189648 250 213 226
6.372036 11.731889 42.161469 249 211 223
6.367482 11.814325 42.131340 247 208 221
6.362656 11.896123 42.099407 245 206 219
6.357569 11.977293 42.065754 244 205 219
6.352230 12.057838 42.030426 244 205 219
6.346637 12.137744 41.993416 243 204 218
6.340781 12.216985 41.954666 240 202 216
6.334649 12.295524 41.914101 237 199 213
6.328225 12.373315 41.871590 233 196 210
6.321487 12.450307 41.827011 231 194 208
6.314416 12.526443 41.780224 226 189 204
6.306990 12.601669 41.731087 221 183 199
6.299190 12.675932 41.679478 216 178 194
6.291001 12.749184 41.625298 214 175 191
6.282413 12.821387 41.568470 213 174 191
6.273417 12.892509 41.508953 211 172 190
6.264014 12.962527 41.446728 210 170 188
6.254202 13.031428 41.381809 208 168 186
6.243987 13.099203 41.314217 206 167 185
6.233375 13.165849 41.244003 204 166 185
6.222374 13.231365 41.171219 203 165 184
6.210994 13.295755 41.095917 203 164 183
6.199242 13.359017 41.018154 202 164 183
6.187121 13.421147 40.937958 203 164 182
6.174643 13.482149 40.855392 204 164 182
6.161811 13.542020 40.770493 205 165 182
6.148633 13.600758 40.683296 205 165 182
6.135116 13.658363 40.593857 205 164 180
6.121268 13.714845 40.502235 205 163 179
6.107102 13.770213 40.408504 205 161 177
6.092635 13.824493 40.312778 203 158 174
6.077887 13.877719 40.215195 203 155 171
6.062883 13.929936 40.115917 205 156 171
6.047654 13.981205 40.015152 209 157 172
6.032231 14.031590 39.913109 211 156 169
6.016654 14.081173 39.810040 210 153 165
6.000959 14.130034 39.706192 209 151 160
5.985185 14.178261 39.601818 211 150 156
5.969368 14.225934 39.497162 215 150 154
5.953541 14.273134 39.392445 224 164 167
5.937734 14.319929 39.287853 231 175 178
5.921971 14.366379 39.183552 228 169 172
5.906267 14.412526 39.079651 218 148 154
5.890637 14.458405 38.976231 206 127 136
5.875086 14.504033 38.873337 196 117 130
5.859619 14.549425 38.770992 190 112 128
5.844235 14.594586 38.669209 183 109 128
5.828938 14.639524 38.567986 177 107 127
5.813728 14.684247 38.467350 171 106 127
5.798615 14.728781 38.367352 167 107 128
5.572618 -0.150174 36.353489 254 161 178
5.573916 -0.071825 36.361965 254 168 185
5.575325 0.006561 36.371151 251 154 171
5.576928 0.084989 36.381607 249 142 159
5.578803 0.163471 36.393841 252 145 164
5.581017 0.242019 36.408291 254 155 175
5.583629 0.320653 36.425323 254 164 184
5.586684 0.399393 36.445255 253 163 184
5.590219 0.478259 36.468315 252 159 181
5.594261 0.557275 36.494678 253 165 188
5.598826 0.636464 36.524467 254 177 199
5.603928 0.715850 36.557747 254 182 204
5.609569 0.795456 36.594547 254 184 206
5.615749 0.875305 36.634865 254 187 208
5.622465 0.955419 36.678673 254 189 211
5.629707 1.035818 36.725922 254 189 212
5.637467 1.116524 36.776539 254 190 214
5.645730 1.197554 36.830448 254 192 217
5.654481 1.278927 36.887535 254 192 215
5.663700 1.360659 36.947678 254 189 212
5.673364 1.442764 37.010723 254 189 210
5.683446 1.525252 37.076492 254 191 211
5.693913 1.608133 37.144775 254 192 212
5.704730 1.691411 37.215336 254 194 212
5.715851 1.775089 37.287888 254 199 216
5.727233 1.859164 37.362137 254 204 220
5.738824 1.943630 37.437752 254 206 221
5.750572 2.028477 37.514393 254 208 223
5.762421 2.113691 37.591686 254 216 230
5.774314 2.199256 37.669277 254 224 237
5.786198 2.285152 37.746803 254 228 242
5.798019 2.371356 37.823921 254 228 243
5.809729 2.457845 37.900307 255 227 242
5.821282 2.544595 37.975674 254 228 241
5.832641 2.631583 38.049774 254 233 244
5.843772 2.718785 38.122395 254 242 250
5.854650 2.806177 38.193352 254 248 252
5.865254 2.893741 38.262531 254 244 251
5.875570 2.981457 38.329826 254 241 249
5.885591 3.069309 38.395199 254 243 250
5.895314 3.157284 38.458633 254 245 253
5.904745 3.245371 38.520153 254 245 253
5.913892 3.333563 38.579826 254 245 252
5.922771 3.421858 38.637753 254 246 252
5.931402 3.510256 38.694054 254 249 253
5.939811 3.598762 38.748913 254 252 254
5.948028 3.687386 38.802517 254 254 254
5.956089 3.776141 38.855099 254 253 254
5.964031 3.865047 38.906914 254 251 253
5.971898 3.954126 38.958233 254 251 253
5.979734 4.043406 39.009354 254 252 254
5.987585 4.132915 39.060570 254 252 253
5.995497 4.222689 39.112183 254 252 253
6.003513 4.312760 39.164474 254 253 254
6.011676 4.403165 39.217728 254 254 254
6.020025 4.493937 39.272194 254 254 254
6.028594 4.585113 39.328094 254 254 254
6.037413 4.676722 39.385624 254 254 254
6.046507 4.768797 39.444954 254 254 254
6.055897 4.861364 39.506210 254 254 254
6.065598 4.954450 39.569492 254 254 254
6.075618 5.048074 39.634857 254 254 254
6.085964 5.142256 39.702354 255 255 255
6.096639 5.237010 39.771992 254 254 254
6.107638 5.332348 39.843746 254 254 254
6.118954 5.428277 39.917568 254 254 254
6.130577 5.524799 39.993389 251 252 252
6.142488 5.621913 40.071091 250 251 251
6.154663 5.719607 40.150517 253 253 253
6.167074 5.817867 40.231480 254 254 254
6.179682 5.916664 40.313736 254 254 254
6.192444 6.015965 40.396984 254 254 254
6.205307 6.115724 40.480896 255 255 255
6.218211 6.215887 40.565079 254 254 254
6.231091 6.316387 40.649097 254 254 254
6.243876 6.417153 40.732510 254 254 254
6.256495 6.518105 40.814823 254 254 254
6.268871 6.619155 40.895561 254 254 254
6.280933 6.720219 40.974251 254 254 254
6.292613 6.821207 41.050446 254 254 254
6.303847 6.922034 41.123737 254 254 254
6.314583 7.022621 41.193768 254 254 254
6.324774 7.122899 41.260258 254 254 254
6.334390 7.222806 41.322979 254 254 254
6.343405 7.322291 41.381794 254 254 254
6.351812 7.421319 41.436638 254 254 254
6.359611 7.519864 41.487511 254 254 254
6.366813 7.617914 41.534496 254 254 254
6.373439 7.715470 41.577721 254 254 254
6.379517 7.812541 41.617371 255 254 255
6.385082 7.909148 41.653679 255 254 255
6.390175 8.005319 41.686901 254 253 254
6.394839 8.101090 41.717327 254 251 254
6.399120 8.196502 41.745258 254 251 254
6.403069 8.291604 41.771011 254 252 254
6.406732 8.386443 41.794914 254 251 254
6.410161 8.481077 41.817287 254 248 253
6.413407 8.575561 41.838455 254 248 252
6.416517 8.669952 41.858749 253 248 252
6.419541 8.764314 41.878471 253 248 252
6.422521 8.858701 41.897915 253 248 252
6.425501 8.953170 41.917355 254 251 253
6.428518 9.047776 41.937035 254 253 254
6.431602 9.142563 41.957157 254 253 254
6.434778 9.237568 41.977875 254 254 254
6.438060 9.332815 41.999287 254 254 254
6.441453 9.428318 42.021420 255 254 254
6.444952 9.524074 42.044250 254 254 254
6.448542 9.620061 42.067661 254 254 254
6.452193 9.716243 42.091484 254 251 253
6.455870 9.812567 42.115471 254 244 251
6.459525 9.908960 42.139313 254 240 251
6.463103 10.005338 42.162655 254 239 252
6.466544 10.101602 42.185104 254 238 251
6.469785 10.197647 42.206245 254 236 250
6.472760 10.293360 42.225655 254 235 248
6.475406 10.388630 42.242916 254 236 248
6.477665 10.483348 42.257656 254 241 249
6.479485 10.577411 42.269524 254 242 249
6.480821 10.670731 42.278240 254 233 243
6.481640 10.763228 42.283585 254 227 239
6.481920 10.854845 42.285408 254 227 239
6.481649 10.945541 42.283646 254 230 242
6.480829 11.035295 42.278294 254 229 241
6.479468 11.124096 42.269417 254 224 237
6.477588 11.211960 42.257149 253 220 234
6.475214 11.298909 42.241661 253 219 232
6.472380 11.384983 42.223175 252 217 230
6.469121 11.470222 42.201912 252 216 229
6.465473 11.554678 42.178116 252 216 229
6.461474 11.638396 42.152027 251 216 229
6.457155 11.721421 42.123852 250 213 226
6.452543 11.803789 42.093765 247 210 223
6.447659 11.885527 42.061909 245 207 221
6.442519 11.966651 42.028374 244 206 220
6.437127 12.047158 41.993198 243 205 219
6.431482 12.127038 41.956375 242 204 218
6.425577 12.206264 41.917850 240 202 216
6.419396 12.284797 41.877529 237 199 213
6.412921 12.362587 41.835285 233 196 210
6.406130 12.439584 41.790989 231 193 208
6.399001 12.515727 41.744480 226 190 204
6.391511 12.590961 41.695621 221 185 199
6.383642 12.665230 41.644287 217 180 195
6.375377 12.738486 41.590366 214 176 192
6.366704 12.810690 41.533791 212 175 191
6.357618 12.881812 41.474514 211 173 190
6.348116 12.951831 41.412529 209 171 188
6.338201 13.020734 41.347847 208 170 187
6.327879 13.088515 41.280510 206 169 186
6.317159 13.155178 41.210575 205 168 186
6.306052 13.220729 41.138119 204 167 186
6.294569 13.285172 41.063206 204 167 186
6.282720 13.348516 40.985909 204 167 186
6.270514 13.410762 40.906277 205 166 185
6.257961 13.471919 40.824390 205 167 184
6.245070 13.531992 40.740299 206 166 183
6.231851 13.590983 40.654060 206 165 182
6.218309 13.648897 40.565720 205 165 181
6.204457 13.705743 40.475353 205 164 180
6.190306 13.761535 40.383038 204 161 177
6.175872 13.816297 40.288876 202 158 173
6.161174 13.870058 40.192993 201 155 171
6.146237 13.922864 40.095551 202 155 171
6.131087 13.974765 39.996719 204 155 170
6.115756 14.025824 39.896702 206 155 168
6.100277 14.076110 39.795723 206 154 164
6.084683 14.125695 39.693996 205 151 159
6.069010 14.174658 39.591755 206 149 154
6.053291 14.223069 39.489208 211 151 152
6.037553 14.270993 39.386539 224 171 170
6.021821 14.318493 39.283913 238 192 191
6.006115 14.365609 39.181454 244 195 195
5.990449 14.412380 39.079254 238 177 180
5.974830 14.458823 38.977360 223 149 156
5.959260 14.504950 38.875790 203 126 137
5.943741 14.550760 38.774548 189 112 127
5.928270 14.596252 38.673622 179 105 124
5.912846 14.641426 38.572998 173 103 124
5.897469 14.686284 38.472687 169 103 124
5.882146 14.730845 38.372730 164 105 125
5.643475 -0.228236 36.305183 254 155 170
5.644687 -0.150007 36.312988 254 172 187
5.645918 -0.071744 36.320904 254 174 189
5.647262 0.006553 36.329548 253 158 174
5.648808 0.084891 36.339500 252 149 165
5.650639 0.163279 36.351273 254 154 172
5.652823 0.241734 36.365326 254 164 183
5.655423 0.320272 36.382050 254 170 191
5.658486 0.398916 36.401752 252 165 188
5.662050 0.477686 36.424686 249 158 181
5.666144 0.556608 36.451019 250 166 190
5.670785 0.635704 36.480877 253 181 205
5.675984 0.715000 36.514324 254 186 208
5.681745 0.794518 36.551384 254 186 207
5.688064 0.874282 36.592037 254 188 208
5.694936 0.954313 36.636246 254 191 211
5.702351 1.034634 36.683945 254 193 213
5.710294 1.115264 36.735039 254 196 217
5.718750 1.196221 36.789436 254 199 219
5.727698 1.277522 36.847004 255 201 220
5.737118 1.359184 36.907604 254 202 220
5.746983 1.441218 36.971066 254 203 221
5.757261 1.523635 37.037189 254 204 222
5.767919 1.606443 37.105751 254 204 221
5.778919 1.689647 37.176514 254 202 218
5.790214 1.773246 37.249180 254 203 219
5.801759 1.857239 37.323452 254 205 220
5.813502 1.941617 37.398994 254 203 218
5.825390 2.026372 37.475468 254 204 220
5.837366 2.111488 37.552513 254 214 229
5.849377 2.196950 37.629776 254 228 240
5.861365 2.282736 37.706902 254 236 246
5.873282 2.368826 37.783562 254 237 247
5.885077 2.455195 37.859444 254 235 246
5.896709 2.541822 37.934277 255 235 246
5.908141 2.628681 38.007820 254 241 249
5.919342 2.715752 38.079872 254 248 253
5.930285 2.803012 38.150272 254 250 253
5.940954 2.890442 38.218906 254 243 250
5.951335 2.978024 38.285690 254 237 246
5.961422 3.065742 38.350582 255 238 248
5.971215 3.153585 38.413582 254 244 252
5.980719 3.241543 38.474720 254 247 253
5.989944 3.329609 38.534061 254 248 253
5.998905 3.417781 38.591717 254 249 252
6.007625 3.506061 38.647808 254 250 253
6.016128 3.594453 38.702511 254 251 254
6.024446 3.682967 38.756020 254 252 254
6.032613 3.771619 38.808563 254 253 254
6.040670 3.860426 38.860394 254 252 254
6.048658 3.949412 38.911785 254 252 254
6.056623 4.038603 38.963024 254 253 254
6.064612 4.128032 39.014412 254 253 254
6.072668 4.217729 39.066238 254 253 254
6.080837 4.307730 39.118793 254 254 254
6.089162 4.398070 39.172348 254 254 254
6.097682 4.488784 39.227158 254 254 254
6.106431 4.579906 39.283440 254 254 254
6.115438 4.671469 39.341385 254 254 254
6.124730 4.763503 39.401161 254 254 254
6.134327 4.856035 39.462898 254 254 254
6.144242 4.949090 39.526688 254 254 254
6.154487 5.042691 39.592594 254 254 254
6.165066 5.136853 39.660645 254 254 254
6.175979 5.231593 39.730854 254 254 254
6.187223 5.326920 39.803192 254 254 254
6.198791 5.422842 39.877605 254 254 254
6.210669 5.519360 39.954014 252 252 252
6.222838 5.616472 40.032307 251 252 252
6.235275 5.714165 40.112312 253 254 254
6.247948 5.812423 40.193840 254 254 254
6.260819 5.911220 40.276642 254 254 254
6.273842 6.010520 40.360420 254 254 254
6.286963 6.110275 40.444828 254 254 254
6.300122 6.210432 40.529480 254 254 254
6.313251 6.310925 40.613945 254 254 254
6.326281 6.411680 40.697765 254 254 254
6.339136 6.512617 40.780460 254 254 254
6.351740 6.613650 40.861546 255 255 255
6.364021 6.714691 40.940548 254 254 254
6.375909 6.815653 41.017025 254 254 254
6.387341 6.916451 41.090569 254 254 254
6.398261 7.017004 41.160820 253 253 253
6.408625 7.117244 41.227497 253 253 253
6.418400 7.217107 41.290375 253 253 253
6.427562 7.316545 41.349319 254 254 254
6.436102 7.415519 41.404255 254 254 254
6.444020 7.514006 41.455196 254 254 254
6.451328 7.611992 41.502209 254 254 254
6.458046 7.709477 41.545429 254 254 254
6.464204 7.806471 41.585041 254 253 254
6.469836 7.902994 41.621269 254 253 254
6.474982 7.999073 41.654377 254 252 254
6.479688 8.094745 41.684650 254 250 253
6.484001 8.190050 41.712399 255 249 253
6.487970 8.285037 41.737930 254 251 253
6.491645 8.379754 41.761574 254 252 254
6.495079 8.474257 41.783661 253 251 253
6.498321 8.568604 41.804520 251 247 250
6.501424 8.662855 41.824482 251 246 250
6.504436 8.757070 41.843857 253 248 251
6.507402 8.851306 41.862942 254 251 253
6.510367 8.945622 41.882015 254 253 254
6.513372 9.040075 41.901344 254 253 254
6.516446 9.134710 41.921120 254 250 253
6.519616 9.229567 41.941513 254 250 252
6.522897 9.324669 41.962624 254 252 253
6.526296 9.420032 41.984489 255 254 254
6.529808 9.515654 42.007080 254 254 254
6.533416 9.611515 42.030293 254 254 254
6.537095 9.707581 42.053959 254 251 253
6.540804 9.803795 42.077824 254 244 251
6.544499 9.900089 42.101589 254 239 249
6.548120 9.996374 42.124886 254 236 249
6.551607 10.092552 42.147312 254 234 248
6.554894 10.188518 42.168461 254 234 249
6.557915 10.284156 42.187897 254 234 248
6.560604 10.379353 42.205193 254 235 248
6.562900 10.473997 42.219963 254 240 250
6.564750 10.567987 42.231869 254 243 250
6.566109 10.661232 42.240608 254 236 245
6.566942 10.753653 42.245968 254 229 241
6.567224 10.845186 42.247784 255 227 240
6.566947 10.935796 42.245995 254 227 241
6.566108 11.025456 42.240604 254 227 241
6.564719 11.114161 42.231670 254 225 239
6.562802 11.201926 42.219334 253 222 235
6.560384 11.288775 42.203777 253 220 233
6.557498 11.374747 42.185215 252 218 232
6.554182 11.459887 42.163879 251 216 230
6.550475 11.544244 42.140034 252 216 230
6.546414 11.627872 42.113911 251 217 230
6.542033 11.710813 42.085724 250 214 227
6.537360 11.793104 42.055660 247 211 224
6.532416 11.874775 42.023857 245 208 222
6.527217 11.955842 41.990414 244 206 221
6.521770 12.036304 41.955368 242 205 220
6.516070 12.116149 41.918701 242 204 219
6.510111 12.195348 41.880363 240 203 218
6.503876 12.273862 41.840256 237 200 215
6.497346 12.351641 41.798244 235 197 212
6.490497 12.428629 41.754185 231 193 208
6.483306 12.504768 41.707928 227 190 205
6.475749 12.579996 41.659313 224 188 203
6.467806 12.654260 41.608215 221 185 200
6.459460 12.727507 41.554520 217 180 196
6.450698 12.799700 41.498158 213 177 193
6.441516 12.870808 41.439083 212 175 192
6.431910 12.940809 41.377289 210 173 190
6.421885 13.009697 41.312798 208 172 188
6.411449 13.077466 41.245659 207 171 187
6.400613 13.144125 41.175949 206 170 187
6.389390 13.209685 41.103756 205 169 187
6.377794 13.274156 41.029156 206 169 188
6.365839 13.337553 40.952248 207 170 189
6.353535 13.399883 40.873096 208 170 189
6.340898 13.461163 40.791798 207 169 187
6.327936 13.521400 40.708412 207 168 185
6.314662 13.580606 40.623016 206 167 184
6.301084 13.638785 40.535667 206 166 182
6.287214 13.695953 40.446442 206 165 181
6.273065 13.752124 40.355419 205 164 179
6.258653 13.807322 40.262703 204 161 177
6.243995 13.861573 40.168404 202 158 174
6.229113 13.914920 40.072674 201 155 171
6.214034 13.967408 39.975662 201 154 169
6.198784 14.019094 39.877560 201 153 167
6.183394 14.070037 39.778553 201 152 164
6.167894 14.120303 39.678844 201 151 159
6.152316 14.169956 39.578625 202 150 156
6.136686 14.219060 39.478077 208 153 155
6.121030 14.267668 39.377357 221 167 168
6.105367 14.315826 39.276600 235 184 184
6.089713 14.363571 39.175896 244 193 194
6.074076 14.410921 39.075298 245 187 189
6.058460 14.457890 38.974842 233 166 172
6.042864 14.504472 38.874512 209 137 147
6.027285 14.550661 38.774288 188 114 128
6.011717 14.596445 38.674133 176 104 120
5.996156 14.641816 38.574028 170 102 121
5.980601 14.686769 38.473961 168 104 124
5.965057 14.731320 38.373966 165 107 127
5.715202 -0.227976 36.263721 255 159 174
5.716325 -0.149833 36.270851 254 171 185
5.717470 -0.071659 36.278114 254 170 186
5.718733 0.006545 36.286133 254 160 177
5.720211 0.084788 36.295502 254 157 175
5.721985 0.163079 36.306763 254 163 182
5.724131 0.241435 36.320377 254 171 191
5.726711 0.319874 36.336754 254 175 197
5.729778 0.398417 36.356213 250 167 192
5.733371 0.477087 36.379005 245 156 181
5.737517 0.555910 36.405315 245 165 189
5.742236 0.634909 36.435253 252 185 208
5.747537 0.714110 36.468891 254 190 212
5.753422 0.793536 36.506233 254 188 209
5.759887 0.873212 36.547256 254 191 210
5.766923 0.953158 36.591904 254 195 212
5.774518 1.033397 36.640091 254 198 215
5.782653 1.113948 36.691711 254 201 219
5.791311 1.194829 36.746643 254 204 222
5.800467 1.276057 36.804737 254 208 225
5.810096 1.357646 36.865841 254 211 227
5.820169 1.439608 36.929756 254 215 230
5.830653 1.521952 36.996277 254 219 234
5.841510 1.604686 37.065166 254 221 235
5.852701 1.687813 37.136169 254 219 233
5.864177 1.771333 37.208988 254 220 233
5.875892 1.855242 37.283321 254 221 234
5.887792 1.939532 37.358833 254 219 232
5.899825 2.024193 37.435177 254 217 231
5.911933 2.109211 37.512009 254 221 236
5.924063 2.194568 37.588978 254 232 244
5.936161 2.280244 37.665741 254 240 249
5.948175 2.366218 37.741974 254 241 250
5.960060 2.452467 37.817379 254 241 250
5.971773 2.538969 37.891701 254 243 251
5.983280 2.625700 37.964714 254 247 252
5.994550 2.712639 38.036221 254 248 252
6.005560 2.799765 38.106083 254 247 252
6.016294 2.887060 38.174194 254 243 251
6.026740 2.974506 38.240471 254 240 249
6.036893 3.062090 38.304897 254 240 250
6.046754 3.149799 38.367466 254 243 252
6.056329 3.237625 38.428219 254 246 253
6.065629 3.325562 38.487232 254 249 254
6.074672 3.413609 38.544605 254 252 254
6.083477 3.501767 38.600479 254 251 254
6.092073 3.590042 38.655018 254 250 254
6.100489 3.678444 38.708424 254 251 254
6.108763 3.766989 38.760921 254 253 254
6.116933 3.855694 38.812759 254 253 254
6.125041 3.944583 38.864212 254 253 254
6.133136 4.033685 38.915569 254 254 254
6.141260 4.123028 38.967121 254 254 254
6.149462 4.212647 39.019165 254 254 254
6.157786 4.302575 39.071980 254 254 254
6.166275 4.392848 39.125843 254 254 254
6.174968 4.483502 39.181004 254 254 254
6.183900 4.574571 39.237679 254 254 254
6.193101 4.666087 39.296059 254 254 254
6.202597 4.758080 39.356308 254 254 254
6.212406 4.850578 39.418552 254 254 254
6.222544 4.943605 39.482880 254 254 254
6.233019 5.037182 39.549343 254 254 254
6.243837 5.131328 39.617985 254 254 254
6.254997 5.226055 39.688797 254 254 254
6.266495 5.321374 39.761749 254 254 254
6.278320 5.417291 39.836781 254 254 254
6.290460 5.513807 39.913815 253 254 254
6.302896 5.610919 39.992725 253 253 253
6.315601 5.708612 40.073338 254 254 254
6.328542 5.806872 40.155449 254 254 254
6.341681 5.905669 40.238815 254 254 254
6.354970 6.004967 40.323135 254 254 254
6.368353 6.104720 40.408054 254 254 254
6.381770 6.204870 40.493183 254 254 254
6.395151 6.305354 40.578091 254 254 254
6.408425 6.406095 40.662319 254 254 254
6.421516 6.507015 40.745384 255 255 255
6.434349 6.608027 40.826805 254 254 254
6.446846 6.709042 40.906105 254 254 254
6.458941 6.809974 40.982849 254 254 254
6.470568 6.910737 41.056625 254 254 254
6.481671 7.011251 41.127075 252 252 252
6.492206 7.111447 41.193920 251 250 251
6.502138 7.211263 41.256939 252 252 252
6.511444 7.310647 41.315987 254 254 254
6.520114 7.409563 41.370998 254 254 254
6.528150 7.507986 41.421982 254 254 254
6.535561 7.605903 41.469009 254 254 254
6.542369 7.703313 41.512211 254 254 254
6.548604 7.800226 41.551773 254 254 254
6.554301 7.896661 41.587917 254 253 254
6.559501 7.992646 41.620911 254 253 254
6.564248 8.088216 41.651031 254 251 253
6.568591 8.183413 41.678593 254 251 253
6.572581 8.278283 41.703907 254 252 254
6.576269 8.372878 41.727310 254 253 254
6.579706 8.467252 41.749119 253 251 252
6.582946 8.561462 41.769680 250 246 249
6.586042 8.655573 41.789322 249 244 248
6.589043 8.749641 41.808361 252 249 251
6.591997 8.843729 41.827106 254 254 254
6.594949 8.937896 41.845840 254 254 254
6.597941 9.032196 41.864822 254 251 254
6.601007 9.126681 41.884274 254 245 251
6.604172 9.221390 41.904358 254 244 249
6.607454 9.316349 41.925182 254 249 252
6.610860 9.411573 41.946793 254 254 254
6.614385 9.507064 41.969162 254 254 254
6.618015 9.602802 41.992195 254 254 254
6.621722 9.698752 42.015713 254 250 253
6.625467 9.794861 42.039474 254 243 250
6.629201 9.891055 42.063168 254 236 247
6.632867 9.987249 42.086433 254 233 245
6.636401 10.083344 42.108856 254 233 246
6.639738 10.179231 42.130024 254 234 247
6.642806 10.274796 42.149498 254 233 247
6.645540 10.369921 42.166840 254 233 247
6.647876 10.464496 42.181664 254 238 250
6.649759 10.558415 42.193615 254 240 250
6.651143 10.651587 42.202393 254 237 247
6.651990 10.743930 42.207771 254 230 242
6.652278 10.835385 42.209602 254 227 240
6.651995 10.925908 42.207798 254 226 240
6.651139 11.015477 42.202370 253 226 240
6.649724 11.104089 42.193394 253 224 238
6.647770 11.191754 42.180996 253 222 236
6.645307 11.278502 42.165363 253 221 235
6.642369 11.364369 42.146725 252 219 232
6.638996 11.449407 42.125320 250 216 230
6.635227 11.533663 42.101406 249 215 228
6.631103 11.617194 42.075237 248 214 227
6.626657 11.700044 42.047028 247 212 225
6.621918 11.782251 42.016956 246 210 224
6.616910 11.863847 41.985184 245 208 223
6.611649 11.944847 41.951797 242 206 221
6.606140 12.025253 41.916843 239 203 218
6.600381 12.105050 41.880302 238 201 216
6.594363 12.184211 41.842117 237 201 216
6.588069 12.262693 41.802181 235 198 214
6.581479 12.340447 41.760365 233 196 211
6.574567 12.417415 41.716511 230 192 208
6.567309 12.493534 41.670456 227 190 205
6.559680 12.568744 41.622051 226 189 205
6.551658 12.642986 41.571148 224 188 204
6.543225 12.716211 41.517643 220 184 201
6.534369 12.788378 41.461449 216 180 196
6.525084 12.859455 41.402534 213 177 193
6.515368 12.929424 41.340885 211 175 191
6.505227 12.998278 41.276535 209 173 189
6.494669 13.066016 41.209545 208 173 188
6.483708 13.132649 41.139999 207 172 188
6.472361 13.198194 41.067997 206 171 188
6.460643 13.262667 40.993645 206 171 190
6.448571 13.326088 40.917046 208 172 191
6.436158 13.388470 40.838284 209 173 192
6.423422 13.449837 40.757473 208 172 190
6.410376 13.510201 40.674698 207 170 187
6.397033 13.569579 40.590034 207 169 185
6.383405 13.627983 40.503563 206 168 184
6.369503 13.685426 40.415356 207 167 182
6.355343 13.741928 40.325500 207 166 181
6.340937 13.797510 40.234093 206 165 180
6.326304 13.852201 40.141247 204 162 177
6.311465 13.906036 40.047092 203 159 174
6.296442 13.959059 39.951767 200 156 171
6.281261 14.011318 39.855442 198 153 167
6.265948 14.062866 39.758282 196 150 163
6.250531 14.113759 39.660454 195 149 159
6.235035 14.164054 39.562138 197 148 157
6.219485 14.213799 39.463470 205 153 158
6.203900 14.263038 39.364578 215 161 164
6.188297 14.311808 39.265572 224 168 170
6.172684 14.360129 39.166508 231 173 176
6.157066 14.408012 39.067413 235 174 178
6.141444 14.455459 38.968288 229 165 172
6.125811 14.502449 38.869091 211 142 152
6.110160 14.548972 38.769783 191 120 133
6.094483 14.595003 38.670311 178 109 123
6.078773 14.640526 38.570629 171 106 123
6.063026 14.685531 38.470715 169 108 127
6.047246 14.730024 38.370590 167 111 130
6.031447 14.774037 38.270340 167 116 133
5.786517 -0.227706 36.220802 254 159 174
5.787535 -0.149652 36.227173 254 164 179
5.788579 -0.071572 36.233704 254 164 181
5.789750 0.006537 36.241035 254 162 180
5.791147 0.084681 36.249783 254 163 181
5.792858 0.162872 36.260490 254 169 188
5.794960 0.241124 36.273651 254 174 195
5.797519 0.319459 36.289669 254 176 199
5.800590 0.397898 36.308887 250 169 194
5.804210 0.476465 36.331551 243 156 181
5.808411 0.555185 36.357845 242 163 188
5.813211 0.634084 36.387894 250 184 208
5.818620 0.713187 36.421749 254 191 213
5.824636 0.792519 36.459404 254 191 211
5.831254 0.872103 36.500832 254 194 212
5.838462 0.951961 36.545952 254 198 214
5.846244 1.032116 36.594666 254 201 216
5.854580 1.112586 36.646843 254 205 220
5.863447 1.193389 36.702343 254 209 224
5.872818 1.274540 36.761002 254 213 227
5.882664 1.356054 36.822636 254 217 230
5.892953 1.437942 36.887035 254 224 235
5.903648 1.520212 36.953983 254 232 243
5.914711 1.602870 37.023228 254 235 246
5.926096 1.685919 37.094498 254 233 244
5.937758 1.769358 37.167496 254 236 245
5.949647 1.853181 37.241913 255 243 248
5.961708 1.937382 37.317413 254 243 248
5.973889 2.021948 37.393658 254 240 248
5.986133 2.106866 37.470299 254 237 248
5.998386 2.192117 37.546997 254 235 248
6.010594 2.277682 37.623417 254 235 249
6.022709 2.363540 37.699249 254 235 250
6.034684 2.449667 37.774204 254 235 250
6.046480 2.536043 37.848042 254 239 251
6.058062 2.622645 37.920540 254 242 251
6.069403 2.709452 37.991528 254 239 248
6.080480 2.796443 38.060863 254 236 247
6.091280 2.883602 38.128464 254 238 250
6.101789 2.970911 38.194252 254 240 251
6.112008 3.058358 38.258213 254 241 251
6.121936 3.145932 38.320362 254 240 250
6.131581 3.233625 38.380737 254 241 250
6.140956 3.321431 38.439419 254 246 252
6.150077 3.409350 38.496513 254 252 254
6.158968 3.497384 38.552162 254 252 254
6.167654 3.585539 38.606533 254 250 254
6.176167 3.673826 38.659824 254 250 254
6.184546 3.762260 38.712269 254 251 254
6.192828 3.850861 38.764107 254 254 254
6.201057 3.939651 38.815620 254 254 254
6.209279 4.028659 38.867088 254 254 254
6.217541 4.117916 38.918804 254 254 254
6.225890 4.207454 38.971062 254 254 254
6.234371 4.297307 39.024147 254 253 253
6.243026 4.387514 39.078327 254 253 253
6.251897 4.478107 39.133854 254 254 254
6.261016 4.569122 39.190937 254 254 254
6.270416 4.660590 39.249771 254 254 254
6.280120 4.752543 39.310516 254 254 254
6.290148 4.845008 39.373287 254 254 254
6.300515 4.938009 39.438179 253 253 253
6.311228 5.031565 39.505238 253 253 253
6.322293 5.125695 39.574497 254 254 254
6.333706 5.220412 39.645943 254 254 254
6.345465 5.315725 39.719543 254 254 254
6.357556 5.411639 39.795227 254 254 254
6.369967 5.508156 39.872910 254 254 254
6.382675 5.605269 39.952461 254 254 254
6.395654 5.702967 40.033703 254 254 254
6.408869 5.801229 40.116425 254 254 254
6.422281 5.900027 40.200375 254 254 254
6.435839 5.999324 40.285240 254 254 254
6.449488 6.099073 40.370682 254 254 254
6.463166 6.199217 40.456291 254 254 254
6.476800 6.299689 40.541641 254 254 254
6.490321 6.400416 40.626270 254 254 254
6.503649 6.501316 40.709698 255 255 255
6.516708 6.602304 40.791443 254 254 254
6.529423 6.703290 40.871033 254 254 254
6.541723 6.804187 40.948025 254 254 254
6.553543 6.904911 41.022011 254 254 254
6.564826 7.005381 41.092640 253 252 253
6.575529 7.105528 41.159630 251 250 251
6.585615 7.205289 41.222763 252 251 252
6.595062 7.304615 41.281898 254 254 254
6.603860 7.403469 41.336971 254 254 254
6.612009 7.501823 41.387981 254 254 254
6.619521 7.599666 41.435005 254 254 254
6.626418 7.696997 41.478176 254 254 254
6.632729 7.793825 41.517673 254 254 254
6.638489 7.890169 41.553730 254 254 254
6.643740 7.986057 41.586597 254 254 254
6.648528 8.081524 41.616570 254 254 254
6.652902 8.176611 41.643948 254 254 254
6.656912 8.271364 41.669052 254 254 254
6.660612 8.365836 41.692211 254 253 254
6.664054 8.460080 41.713760 253 251 253
6.667293 8.554156 41.734032 251 247 250
6.670382 8.648126 41.753368 250 247 250
6.673374 8.742051 41.772095 253 252 253
6.676316 8.835992 41.790512 254 254 254
6.679255 8.930008 41.808910 254 253 254
6.682237 9.024160 41.827576 254 249 253
6.685295 9.118497 41.846714 253 241 250
6.688456 9.213058 41.866501 253 240 248
6.691740 9.307877 41.887054 254 247 251
6.695153 9.402965 41.908421 254 252 254
6.698694 9.498325 41.930584 254 254 254
6.702346 9.593942 41.953445 254 253 254
6.706081 9.689776 41.976830 254 250 253
6.709863 9.785779 42.000496 254 242 250
6.713639 9.881876 42.024132 254 236 246
6.717351 9.977981 42.047371 254 234 245
6.720934 10.073992 42.069801 254 237 248
6.724320 10.169801 42.090996 254 238 249
6.727437 10.265291 42.110508 254 233 246
6.730217 10.360347 42.127907 254 229 243
6.732594 10.454851 42.142788 254 233 245
6.734512 10.548701 42.154793 254 237 249
6.735922 10.641800 42.163616 254 237 247
6.736786 10.734068 42.169029 254 230 243
6.737080 10.825441 42.170868 254 226 240
6.736792 10.915880 42.169060 254 227 241
6.735920 11.005360 42.163609 253 227 241
6.734478 11.093874 42.154579 252 223 238
6.732487 11.181438 42.142117 251 221 235
6.729979 11.268083 42.126415 251 221 235
6.726988 11.353846 42.107693 251 219 233
6.723555 11.438775 42.086205 249 216 230
6.719723 11.522926 42.062218 247 214 227
6.715530 11.606354 42.035976 246 212 225
6.711016 11.689106 42.007717 245 211 224
6.706208 11.771221 41.977623 245 209 223
6.701132 11.852732 41.945847 244 209 223
6.695803 11.933655 41.912487 242 206 221
6.690228 12.013992 41.877594 238 202 217
6.684403 12.093729 41.841133 235 199 214
6.678321 12.172838 41.803062 235 198 214
6.671962 12.251275 41.763260 234 197 213
6.665306 12.328990 41.721592 232 195 211
6.658325 12.405921 41.677898 228 191 207
6.650994 12.482006 41.632008 226 189 205
6.643287 12.557182 41.583763 225 189 204
6.635180 12.631389 41.533016 224 188 203
6.626654 12.704576 41.479652 221 186 201
6.617697 12.776698 41.423584 217 181 197
6.608303 12.847729 41.364780 213 177 194
6.598470 12.917648 41.303234 211 176 191
6.588205 12.986450 41.238979 209 175 189
6.577518 13.054137 41.172081 209 175 189
6.566424 13.120724 41.102642 208 174 189
6.554942 13.186229 41.030769 207 172 189
6.543091 13.250677 40.956585 207 172 190
6.530890 13.314093 40.880215 208 173 192
6.518356 13.376495 40.801758 209 174 192
6.505509 13.437913 40.721340 207 172 190
6.492364 13.498366 40.639065 206 170 188
6.478939 13.557875 40.555023 206 169 186
6.465244 13.616457 40.469307 206 169 185
6.451295 13.674129 40.381992 206 169 184
6.437106 13.730910 40.293171 206 168 182
6.422690 13.786825 40.202934 206 166 180
6.408066 13.841900 40.111397 205 164 179
6.393253 13.896170 40.018673 204 162 177
6.378271 13.949670 39.924896 201 158 173
6.363143 14.002444 39.830200 198 154 168
6.347892 14.054540 39.734737 194 150 164
6.332543 14.106003 39.638660 192 147 159
6.317116 14.156878 39.542095 191 144 155
6.301631 14.207207 39.445168 196 147 155
6.286105 14.257022 39.347977 204 152 158
6.270546 14.306346 39.250587 211 155 161
6.254962 14.355191 39.153038 215 156 161
6.239351 14.403553 39.055321 218 156 162
6.223708 14.451422 38.957405 216 152 160
6.208024 14.498771 38.859230 207 140 150
6.192288 14.545575 38.760731 195 129 140
6.176488 14.591803 38.661831 186 121 134
6.160614 14.637428 38.562466 180 117 132
6.144662 14.682438 38.462612 176 118 134
6.128632 14.726830 38.362270 173 119 136
6.112537 14.770635 38.261528 171 122 137
5.856446 -0.305361 36.170460 254 166 182
5.857424 -0.227427 36.176502 254 160 177
5.858324 -0.149466 36.182056 254 161 179
5.859255 -0.071481 36.187809 254 163 182
5.860327 0.006529 36.194427 255 165 184
5.861639 0.084571 36.202530 254 168 187
5.863283 0.162657 36.212685 254 171 191
5.865340 0.240804 36.225388 254 174 196
5.867877 0.319031 36.241062 254 177 201
5.870952 0.397363 36.260052 251 171 196
5.874605 0.475823 36.282612 242 156 182
5.878866 0.554438 36.308929 240 159 184
5.883753 0.633234 36.339115 249 180 204
5.889275 0.712237 36.373215 254 192 212
5.895429 0.791471 36.411224 254 193 211
5.902207 0.870962 36.453087 254 196 212
5.909594 0.950731 36.498711 254 201 215
5.917572 1.030799 36.547981 254 204 217
5.926114 1.111186 36.600742 255 209 222
5.935196 1.191909 36.656834 254 215 228
5.944788 1.272983 36.716076 254 219 231
5.954856 1.354420 36.778259 254 222 233
5.965365 1.436232 36.843163 254 228 238
5.976276 1.518426 36.910553 254 238 246
5.987546 1.601006 36.980160 254 242 250
5.999131 1.683975 37.051708 254 242 249
6.010981 1.767329 37.124893 254 246 250
6.023045 1.851066 37.199402 254 252 253
6.035269 1.935175 37.274902 254 254 254
6.047600 2.019645 37.351059 254 252 254
