ply
format ascii 1.0
element vertex 1197
property float x
property float y
property float z
property uchar red
property uchar green
property uchar blue
end_header
5.801014 4.133593 33.591927 230 154 177
5.813583 4.215119 33.664711 224 148 173
5.826331 4.297091 33.738529 219 142 167
5.839187 4.379462 33.812973 229 153 177
5.852070 4.462174 33.887577 243 167 190
5.864901 4.545168 33.961872 246 170 194
5.877596 4.628376 34.035393 247 173 197
5.890079 4.711730 34.107674 250 180 203
5.902275 4.795163 34.178295 249 179 203
5.914118 4.878609 34.246876 244 174 197
5.925551 4.962008 34.313084 238 170 192
5.936530 5.045307 34.376659 233 168 191
5.947020 5.128457 34.437401 226 165 187
5.956994 5.211418 34.495155 217 159 181
5.966437 5.294157 34.549843 214 161 181
5.975346 5.376651 34.601429 226 173 193
5.983720 5.458880 34.649921 238 185 205
5.991567 5.540830 34.695362 243 188 208
5.998898 5.622492 34.737808 245 187 208
6.005724 5.703858 34.777340 245 186 208
6.012061 5.784925 34.814037 244 183 207
6.017923 5.865685 34.847980 243 180 205
6.023322 5.946136 34.879246 241 176 203
6.028271 6.026270 34.907902 238 172 200
6.032778 6.106082 34.934002 233 167 197
6.036855 6.185565 34.957607 227 161 193
6.040507 6.264710 34.978760 225 161 194
6.043746 6.343512 34.997513 227 165 198
6.046578 6.421963 35.013916 227 168 199
6.049015 6.500060 35.028027 220 164 193
6.051068 6.577800 35.039913 212 158 187
6.052753 6.655187 35.049671 217 168 195
6.054089 6.732228 35.057407 234 193 217
6.055098 6.808934 35.063251 241 202 226
6.055807 6.885325 35.067356 226 183 209
6.056249 6.961427 35.069916 203 158 184
6.056459 7.037270 35.071133 193 149 175
6.056478 7.112893 35.071239 204 164 187
6.056347 7.188340 35.070484 230 199 217
6.056116 7.263663 35.069145 244 220 234
6.055830 7.338914 35.067493 232 197 215
6.055538 7.414149 35.065800 215 165 186
6.055284 7.489425 35.064327 214 163 183
6.055110 7.564794 35.063316 216 170 188
6.055053 7.640307 35.062988 213 173 190
6.055143 7.716006 35.063511 210 174 192
6.055401 7.791924 35.065006 205 176 195
6.055838 7.868079 35.067535 190 166 187
6.056452 7.944479 35.071091 168 150 173
6.057230 8.021111 35.075596 170 158 180
6.058147 8.097947 35.080906 204 196 213
6.059165 8.174944 35.086803 234 229 244
6.060235 8.252036 35.092999 238 234 253
6.061297 8.329144 35.099148 228 225 251
6.062281 8.406171 35.104847 222 217 248
6.063110 8.483005 35.109646 217 210 241
6.063699 8.559520 35.113052 221 213 238
6.063957 8.635580 35.114552 240 234 246
6.063794 8.711040 35.113605 239 228 243
6.063113 8.785747 35.109661 225 209 231
6.061821 8.859543 35.102177 226 207 231
6.059820 8.932262 35.090595 224 200 227
6.057023 9.003747 35.074394 212 182 214
6.053341 9.073837 35.053074 208 173 210
6.048696 9.142379 35.026176 219 181 219
6.043017 9.209229 34.993294 227 188 226
6.036245 9.274259 34.954082 227 187 223
6.028337 9.337359 34.908287 223 182 216
6.019263 9.398441 34.855740 220 179 210
6.009014 9.457447 34.796391 217 176 206
5.997602 9.514353 34.730309 212 172 200
5.985061 9.569168 34.657684 210 171 197
5.971446 9.621941 34.578842 212 173 199
5.956831 9.672750 34.494221 216 177 202
5.941317 9.721722 34.404377 219 180 205
5.925015 9.769009 34.309978 221 182 206
5.908053 9.814791 34.211758 221 181 206
5.890564 9.859268 34.110485 218 177 202
5.872689 9.902657 34.006973 214 173 198
5.854564 9.945175 33.902016 210 168 195
5.836320 9.987039 33.796375 208 166 192
5.818078 10.028448 33.690739 210 166 194
5.799940 10.069584 33.585709 214 168 196
5.781992 10.110600 33.481777 215 168 196
5.764298 10.151613 33.379314 213 165 192
5.746900 10.192711 33.278568 209 159 186
5.729816 10.233935 33.179646 202 152 178
5.713045 10.275295 33.082523 196 145 169
5.696561 10.316756 32.987072 190 139 163
5.680321 10.358252 32.893028 187 137 160
5.664267 10.399682 32.800064 185 137 159
5.648327 10.440923 32.707760 184 139 159
5.632418 10.481824 32.615639 182 140 159
5.616454 10.522223 32.523193 181 141 159
5.600342 10.561947 32.429897 180 143 160
5.583990 10.600810 32.335201 178 144 160
5.567315 10.638650 32.238644 176 147 159
5.550240 10.675304 32.139771 173 148 157
5.532699 10.710630 32.038197 161 142 147
5.514640 10.744507 31.933620 140 128 129
5.496023 10.776840 31.825813 125 119 119
5.476826 10.807566 31.714653 143 143 143
5.457046 10.836652 31.600111 190 192 193
5.436693 10.864100 31.482252 228 229 231
5.415792 10.889935 31.361217 220 224 230
5.394377 10.914212 31.237211 164 172 188
5.372495 10.937004 31.110500 95 106 135
5.350194 10.958391 30.981363 78 89 127
5.327521 10.978455 30.850075 139 148 180
5.304521 10.997272 30.716883 197 202 225
5.281227 11.014903 30.581995 222 224 244
5.257661 11.031384 30.445532 232 232 249
5.233831 11.046717 30.307539 243 242 252
5.209728 11.060877 30.167967 250 249 253
5.185327 11.073797 30.026667 230 225 237
5.160586 11.085381 29.883404 163 150 182
5.135457 11.095505 29.737886 121 102 145
5.222360 -1.346717 29.868275 227 80 103
5.228179 -1.283760 29.901560 223 77 104
5.233640 -1.220576 29.932791 222 81 112
5.238774 -1.157185 29.962154 229 92 125
5.243623 -1.093608 29.989883 235 105 136
5.248233 -1.029864 30.016251 234 110 137
5.252657 -0.965973 30.041552 234 119 140
5.256947 -0.901949 30.066086 243 143 158
5.261153 -0.837807 30.090145 243 153 164
5.265325 -0.773556 30.114006 218 121 131
5.269506 -0.709203 30.137920 186 74 87
5.273738 -0.644753 30.162125 177 59 76
5.278056 -0.580208 30.186819 183 63 85
5.282492 -0.515569 30.212189 185 61 88
5.287075 -0.450832 30.238400 186 59 89
5.291832 -0.385995 30.265606 188 61 91
5.296787 -0.321053 30.293945 189 63 93
5.301964 -0.256000 30.323553 192 66 95
5.307386 -0.190827 30.354565 193 68 96
5.313076 -0.125527 30.387108 192 69 95
5.319054 -0.060091 30.421297 190 67 93
5.325339 0.005494 30.457247 191 67 94
5.331949 0.071238 30.495049 197 72 101
5.338895 0.137153 30.534777 209 89 118
5.346186 0.203253 30.576473 226 122 149
5.353824 0.269550 30.620155 237 148 173
5.361805 0.336057 30.665806 227 136 162
5.370121 0.402786 30.713364 206 106 133
5.378753 0.469748 30.762735 194 95 121
5.387680 0.536951 30.813789 184 95 114
5.396874 0.604405 30.866375 164 86 97
5.406304 0.672115 30.920307 153 88 88
5.415936 0.740085 30.975393 159 106 97
5.425734 0.808317 31.031435 152 105 91
5.435665 0.876813 31.088232 133 85 69
5.445694 0.945570 31.145592 145 96 85
5.455791 1.014587 31.203341 173 125 123
5.465930 1.083861 31.261328 177 128 137
5.476089 1.153390 31.319431 187 141 156
5.486251 1.223170 31.377550 199 150 175
5.496401 1.293197 31.435602 171 109 146
5.506533 1.363470 31.493549 152 80 125
5.516641 1.433987 31.551357 167 92 140
5.526722 1.504746 31.609016 167 87 136
5.536777 1.575746 31.666525 156 71 119
5.546806 1.646987 31.723885 156 65 111
5.556811 1.718466 31.781101 156 57 100
5.566789 1.790184 31.838169 157 50 89
5.576739 1.862139 31.895075 166 51 85
5.586656 1.934328 31.951797 178 58 86
5.596535 2.006748 32.008297 189 65 89
5.606367 2.079393 32.064529 196 69 89
5.616141 2.152259 32.120430 201 73 90
5.625847 2.225340 32.175941 205 78 94
5.635473 2.298626 32.230999 206 82 98
5.645010 2.372113 32.285538 204 85 102
5.654446 2.445791 32.339508 198 85 104
5.663777 2.519655 32.392876 189 83 105
5.672999 2.593700 32.445621 184 86 111
5.682116 2.667922 32.497761 187 93 123
5.691135 2.742323 32.549347 195 103 137
5.700071 2.816904 32.600449 206 114 150
5.708944 2.891674 32.651199 217 121 160
5.717782 2.966645 32.701748 222 121 160
5.726620 3.041833 32.752296 223 116 156
5.735497 3.117261 32.803066 225 113 152
5.744458 3.192954 32.854317 222 107 145
5.753549 3.268942 32.906311 212 96 130
5.762820 3.345258 32.959332 201 86 117
5.772319 3.421938 33.013657 197 86 113
5.782090 3.499018 33.069542 194 89 114
5.792173 3.576531 33.127213 189 91 114
5.802603 3.654510 33.186859 190 100 121
5.813400 3.732983 33.248615 199 113 134
5.824576 3.811971 33.312534 204 122 144
5.836131 3.891486 33.378620 209 129 152
5.848048 3.971532 33.446777 216 137 161
5.860299 4.052103 33.516846 226 147 171
5.872841 4.133181 33.588577 232 154 178
5.885619 4.214737 33.661655 228 149 175
5.898566 4.296731 33.735706 221 141 169
5.911608 4.379115 33.810299 230 152 179
5.924664 4.461832 33.884972 245 168 194
5.937652 4.544816 33.959248 248 171 197
5.950485 4.628002 34.032642 247 171 196
5.963084 4.711319 34.104702 248 173 198
5.975374 4.794699 34.174992 247 173 197
5.987287 4.878076 34.243130 242 170 194
5.998768 4.961387 34.308788 237 169 193
6.009769 5.044580 34.371712 232 168 192
6.020257 5.127606 34.431694 226 166 189
6.030208 5.210428 34.488605 216 160 182
6.039607 5.293011 34.542362 216 162 182
6.048452 5.375333 34.592949 229 176 196
6.056747 5.457378 34.640392 242 189 209
6.064502 5.539135 34.684746 246 191 211
6.071730 5.620594 34.726086 246 189 209
6.078448 5.701753 34.764507 246 186 208
6.084673 5.782609 34.800106 245 183 206
6.090422 5.863162 34.832989 245 180 205
6.095712 5.943408 34.863243 243 177 204
6.100555 6.023343 34.890945 242 174 202
6.104967 6.102966 34.916172 236 169 199
6.108955 6.182270 34.938984 231 163 195
6.112530 6.261249 34.959431 229 164 196
6.115701 6.339896 34.977566 230 166 198
6.118477 6.418209 34.993443 229 168 199
6.120867 6.496179 35.007114 224 166 195
6.122882 6.573806 35.018639 218 163 190
6.124537 6.651091 35.028099 222 170 197
6.125846 6.728038 35.035591 235 188 213
6.126833 6.804659 35.041233 241 196 221
6.127521 6.880968 35.045166 232 186 210
6.127939 6.956989 35.047558 218 169 193
6.128122 7.032749 35.048603 207 158 181
6.128107 7.108285 35.048523 206 158 179
6.127938 7.183640 35.047550 221 178 196
6.127659 7.258860 35.045956 239 203 219
6.127316 7.333997 35.043999 238 198 216
6.126957 7.409106 35.041946 225 175 195
6.126629 7.484244 35.040070 219 170 188
6.126371 7.559460 35.038593 217 174 189
6.126223 7.634807 35.037743 212 175 190
6.126215 7.710327 35.037701 207 177 192
6.126369 7.786052 35.038582 202 180 195
6.126697 7.862003 35.040451 190 175 191
6.127197 7.938187 35.043316 165 155 173
6.127859 8.014594 35.047100 156 149 168
6.128655 8.091196 35.051659 186 182 197
6.129552 8.167950 35.056786 228 225 237
6.130497 8.244791 35.062187 239 236 252
6.131432 8.321642 35.067535 228 224 250
6.132285 8.398404 35.072414 222 215 247
6.132979 8.474968 35.076385 218 208 242
6.133429 8.551208 35.078957 222 212 239
6.133543 8.626987 35.079609 238 229 246
6.133228 8.702160 35.077808 237 224 243
6.132388 8.776573 35.073002 228 212 235
6.130925 8.850067 35.064636 234 219 239
6.128744 8.922480 35.052162 233 217 235
6.125752 8.993648 35.035049 215 193 217
6.121861 9.063411 35.012798 205 176 209
6.116990 9.131616 34.984940 216 182 220
6.111067 9.198116 34.951065 227 189 229
6.104032 9.262782 34.910824 226 186 225
6.095837 9.325502 34.863960 224 183 219
6.086454 9.386188 34.810299 221 180 213
6.075873 9.444779 34.749783 221 179 210
6.064106 9.501251 34.682480 219 177 206
6.051187 9.555614 34.608589 215 174 201
6.037170 9.607911 34.528423 214 174 199
6.022134 9.658227 34.442429 217 177 201
6.006178 9.706687 34.351170 221 181 205
5.989419 9.753446 34.255322 223 183 207
5.971986 9.798684 34.155613 222 181 207
5.954017 9.842607 34.052845 218 176 202
5.935656 9.885435 33.947834 212 170 197
5.917043 9.927388 33.841381 208 166 193
5.898315 9.968686 33.734268 207 164 191
5.879594 10.009535 33.627197 209 164 192
5.860989 10.050120 33.520790 211 164 193
5.842587 10.090600 33.415546 212 163 192
5.824458 10.131097 33.311855 210 160 188
5.806644 10.171701 33.209972 205 154 181
5.789167 10.212461 33.110020 198 146 172
5.772028 10.253388 33.011993 192 139 164
5.755202 10.294454 32.915760 187 135 159
5.738647 10.335592 32.821075 185 134 157
5.722304 10.376708 32.727608 185 135 157
5.706103 10.417680 32.634949 185 137 158
5.689960 10.458358 32.542622 184 138 158
5.673785 10.498579 32.450111 182 139 158
5.657486 10.538172 32.356895 180 140 159
5.640967 10.576949 32.262421 176 142 157
5.624145 10.614745 32.166206 174 144 157
5.606937 10.651395 32.067787 171 146 156
5.589274 10.686752 31.966772 164 146 151
5.571101 10.720689 31.862831 149 138 139
5.552373 10.753106 31.755722 128 122 122
5.533067 10.783932 31.645302 114 114 115
5.513173 10.813129 31.531521 140 143 145
5.492697 10.840690 31.414415 192 194 196
5.471662 10.866632 31.294107 215 218 222
5.450099 10.891004 31.170784 182 187 199
5.428050 10.913864 31.044680 110 117 141
5.405562 10.935294 30.916065 66 73 106
5.382679 10.955364 30.785189 117 121 151
5.359442 10.974146 30.652288 190 192 210
5.335884 10.991693 30.517553 234 233 244
5.312026 11.008039 30.381102 249 248 254
5.287873 11.023181 30.242968 252 251 254
5.263417 11.037090 30.103092 253 251 253
5.238630 11.049701 29.961330 229 225 234
5.213472 11.060913 29.817446 163 153 178
5.187893 11.070604 29.671146 122 108 142
5.284039 -1.346027 29.852983 222 74 101
5.289873 -1.283090 29.885942 214 70 99
5.295305 -1.219917 29.916632 213 75 106
5.300373 -1.156532 29.945263 218 87 118
5.305125 -1.092960 29.972109 225 102 130
5.309616 -1.029220 29.997482 219 104 126
5.313905 -0.965335 30.021715 215 112 128
5.318053 -0.901321 30.045149 235 159 168
5.322116 -0.837193 30.068108 247 193 197
5.326151 -0.772962 30.090904 218 152 156
5.330209 -0.708636 30.113825 177 85 95
5.334333 -0.644219 30.137127 168 64 80
5.338565 -0.579713 30.161037 176 65 88
5.342941 -0.515118 30.185759 179 61 90
5.347492 -0.450431 30.211472 184 61 94
5.352247 -0.385647 30.238335 187 63 97
5.357232 -0.320762 30.266499 188 65 98
5.362472 -0.255768 30.296099 189 68 99
5.367989 -0.190656 30.327269 190 70 99
5.373805 -0.125416 30.360130 190 71 99
5.379941 -0.060038 30.394793 191 73 101
5.386413 0.005489 30.431358 198 82 111
5.393235 0.071179 30.469904 211 96 126
5.400419 0.137044 30.510487 227 121 151
5.407968 0.203098 30.553137 243 161 188
5.415882 0.269354 30.597849 244 182 204
5.424154 0.335825 30.644585 216 142 163
5.432770 0.402523 30.693262 183 88 112
5.441710 0.469458 30.743771 177 82 106
5.450947 0.536641 30.795956 178 94 113
5.460450 0.604078 30.849644 160 89 103
5.470184 0.671775 30.904636 143 83 90
5.480111 0.739735 30.960722 136 84 85
5.490194 0.807959 31.017687 128 80 77
5.500395 0.876448 31.075319 123 76 72
5.510680 0.945200 31.133423 147 99 98
5.521015 1.014212 31.191813 190 143 148
5.531373 1.083480 31.250334 206 158 169
5.541733 1.153001 31.308865 207 155 171
5.552076 1.222770 31.367300 204 143 167
5.562391 1.292785 31.425577 171 95 128
5.572670 1.363042 31.483644 141 53 90
5.582909 1.433539 31.541492 147 54 93
5.593108 1.504275 31.599115 163 65 104
5.603269 1.575249 31.656523 170 68 106
5.613395 1.646459 31.713730 172 65 101
5.623488 1.717907 31.770752 169 57 90
5.633551 1.789590 31.827604 168 52 81
5.643583 1.861509 31.884281 172 53 78
5.653583 1.933661 31.940775 185 62 84
5.663545 2.006043 31.997059 198 75 92
5.673463 2.078652 32.053097 203 79 94
5.683330 2.151483 32.108837 204 80 93
5.693134 2.224529 32.164227 208 84 97
5.702865 2.297786 32.219204 208 86 100
5.712514 2.371245 32.273720 203 84 101
5.722072 2.444900 32.327717 197 84 102
5.731532 2.518744 32.381165 191 83 105
5.740892 2.592775 32.434048 189 86 111
5.750156 2.666988 32.486382 191 93 122
5.759329 2.741384 32.538204 196 99 132
5.768426 2.815967 32.589603 202 105 140
5.777469 2.890743 32.640690 209 109 146
5.786484 2.965726 32.691620 213 109 147
5.795505 3.040931 32.742584 215 107 144
5.804570 3.116380 32.793804 217 104 141
5.813725 3.192100 32.845528 215 99 133
5.823017 3.268118 32.898022 209 92 123
5.832493 3.344469 32.951557 203 86 113
5.842202 3.421187 33.006409 197 84 109
5.852188 3.498307 33.062828 191 85 106
5.862491 3.575864 33.121033 186 87 107
5.873142 3.653888 33.181210 191 99 119
5.884164 3.732407 33.243481 204 117 137
5.895567 3.811441 33.307903 208 124 146
5.907348 3.891001 33.374462 210 128 151
5.919490 3.971091 33.443062 219 137 162
5.931963 4.051702 33.513531 229 148 174
5.944723 4.132816 33.585613 237 155 182
5.957710 4.214403 33.658989 232 150 178
5.970857 4.296421 33.733265 223 141 170
5.984087 4.378819 33.808010 231 150 179
5.997316 4.461539 33.882751 247 168 196
6.010459 4.544516 33.957001 250 171 199
6.023428 4.627680 34.030273 247 169 196
6.036141 4.710960 34.102100 248 171 196
6.048523 4.794287 34.172054 246 171 197
6.060504 4.877593 34.239738 241 169 194
6.072027 4.960816 34.304840 236 168 193
6.083045 5.043902 34.367092 232 168 193
6.093526 5.126804 34.426304 226 167 191
6.103446 5.209482 34.482346 219 162 185
6.112793 5.291907 34.535156 219 165 186
6.121567 5.374055 34.584728 233 180 200
6.129775 5.455914 34.631096 247 196 215
6.137428 5.537472 34.674335 252 199 218
6.144544 5.618725 34.714539 252 195 214
6.151143 5.699673 34.751820 251 190 210
6.157246 5.780315 34.786301 250 186 209
6.162873 5.860654 34.818089 250 183 207
6.168043 5.940689 34.847298 248 180 206
6.172774 6.020422 34.874023 245 175 203
6.177080 6.099851 34.898350 239 170 199
6.180973 6.178972 34.920349 234 165 195
6.184464 6.257782 34.940075 231 164 195
6.187564 6.336274 34.957584 232 167 198
6.190280 6.414446 34.972931 232 170 199
6.192622 6.492291 34.986160 230 169 197
6.194599 6.569806 34.997334 227 169 195
6.196224 6.646992 35.006512 229 173 198
6.197512 6.723851 35.013786 236 182 206
6.198481 6.800392 35.019260 238 187 210
6.199152 6.876626 35.023052 234 182 204
6.199554 6.952576 35.025326 226 174 195
6.199718 7.028264 35.026253 220 167 188
6.199680 7.103725 35.026035 218 164 183
6.199480 7.178998 35.024906 223 170 188
6.199162 7.254128 35.023109 234 182 199
6.198772 7.329165 35.020905 238 186 204
6.198356 7.404160 35.018555 233 180 197
6.197959 7.479170 35.016315 227 177 194
6.197624 7.554245 35.014420 221 179 193
6.197389 7.629435 35.013092 213 180 194
6.197286 7.704783 35.012512 206 181 195
6.197338 7.780323 35.012802 202 184 199
6.197555 7.856075 35.014030 194 183 200
6.197940 7.932046 35.016205 170 164 183
6.198481 8.008227 35.019260 147 144 166
6.199153 8.084594 35.023056 165 163 183
6.199920 8.161101 35.027390 213 211 226
6.200732 8.237687 35.031979 233 230 247
6.201530 8.314274 35.036484 223 217 243
6.202241 8.390764 35.040508 219 209 242
6.202790 8.467049 35.043610 219 207 241
6.203089 8.543002 35.045296 224 209 239
6.203045 8.618487 35.045048 236 221 245
6.202566 8.693360 35.042339 235 217 242
6.201552 8.767467 35.036613 227 206 235
6.199907 8.840648 35.027317 231 214 238
6.197531 8.912738 35.013893 238 225 241
6.194331 8.983576 34.995815 232 219 234
6.190217 9.052998 34.972572 223 205 228
6.185106 9.120851 34.943699 226 199 230
6.178925 9.186987 34.908775 227 193 230
6.171610 9.251273 34.867451 223 184 223
6.163115 9.313598 34.819454 222 181 217
6.153409 9.373871 34.764618 220 178 211
6.142479 9.432030 34.702873 220 178 209
6.130340 9.488049 34.634289 222 180 208
6.117024 9.541938 34.559059 221 179 205
6.102588 9.593740 34.477501 218 176 201
6.087111 9.643543 34.390060 218 176 200
6.070694 9.691468 34.297310 220 178 202
6.053458 9.737674 34.199928 222 180 204
6.035533 9.782345 34.098660 222 180 204
6.017062 9.825688 33.994308 216 173 199
5.998193 9.867926 33.887703 209 167 194
5.979071 9.909285 33.779671 206 162 190
5.959835 9.949987 33.670994 205 160 188
5.940612 9.990245 33.562393 206 159 188
5.921516 10.030248 33.454506 207 158 187
5.902638 10.070158 33.347851 206 156 184
5.884048 10.110104 33.242828 203 151 179
5.865796 10.150179 33.139706 198 145 173
5.847903 10.190438 33.038620 194 140 166
5.830372 10.230895 32.939575 189 134 160
5.813181 10.271526 32.842449 185 130 154
5.796288 10.312268 32.747009 184 130 153
5.779636 10.353031 32.652931 185 132 155
5.763152 10.393692 32.559807 186 134 157
5.746754 10.434107 32.467159 185 135 157
5.730350 10.474111 32.374481 183 136 158
5.713847 10.513534 32.281246 180 137 157
5.697145 10.552186 32.186886 177 138 156
5.680159 10.589901 32.090919 174 141 156
5.662804 10.626513 31.992874 171 144 155
5.645009 10.661868 31.892338 166 145 153
5.626712 10.695837 31.788967 156 143 147
5.607868 10.728312 31.682503 139 133 135
5.588447 10.759218 31.572781 113 113 115
5.568436 10.788509 31.459728 111 114 117
5.547839 10.816170 31.343363 152 155 158
5.526673 10.842212 31.223780 199 201 205
5.504966 10.866671 31.101143 206 208 216
5.482758 10.889606 30.975674 156 160 177
5.460091 10.911081 30.847612 93 97 123
5.437006 10.931168 30.717196 112 114 139
5.413545 10.949927 30.584644 179 179 194
5.389736 10.967409 30.450130 232 232 237
5.365598 10.983639 30.313763 254 254 254
5.341136 10.998613 30.175564 254 254 254
5.316340 11.012299 30.035473 254 254 254
5.291182 11.024627 29.893339 225 222 229
5.265620 11.035495 29.748924 163 155 173
5.239603 11.044781 29.601936 128 117 142
5.346138 -1.345460 29.840405 223 77 105
5.351984 -1.282535 29.873034 214 72 101
5.357383 -1.219368 29.903170 210 75 106
5.362381 -1.155984 29.931063 212 85 114
5.367031 -1.092409 29.957018 219 101 126
5.371397 -1.028668 29.981386 212 104 123
5.375546 -0.964783 30.004547 202 107 118
5.379545 -0.900773 30.026871 220 154 158
5.383461 -0.836654 30.048727 237 196 194
5.387355 -0.772437 30.070459 219 169 169
5.391283 -0.708131 30.092388 195 129 135
5.395297 -0.643741 30.114792 192 117 130
5.399442 -0.579269 30.137926 193 100 124
5.403757 -0.514712 30.162010 188 81 113
5.408276 -0.450069 30.187235 189 75 111
5.413032 -0.385334 30.213779 188 71 108
5.418049 -0.320500 30.241787 184 68 104
5.423355 -0.255559 30.271399 184 69 104
5.428971 -0.190501 30.302752 183 71 104
5.434920 -0.125316 30.335953 185 73 106
5.441219 -0.059991 30.371111 197 88 120
5.447883 0.005485 30.408310 217 118 149
5.454926 0.071127 30.447617 234 141 173
5.462352 0.136948 30.489071 244 151 184
5.470165 0.202962 30.532681 247 163 193
5.478361 0.269183 30.578426 236 161 186
5.486928 0.335624 30.626244 204 121 143
5.495848 0.402297 30.676033 176 81 103
5.505097 0.469212 30.727659 173 82 103
5.514645 0.536379 30.780949 171 93 112
5.524456 0.603805 30.835714 155 89 104
5.534492 0.671494 30.891729 137 82 93
5.544711 0.739449 30.948771 123 78 85
5.555073 0.807671 31.006611 116 77 81
5.565539 0.876158 31.065027 125 87 90
5.576071 0.944908 31.123812 147 107 112
5.586635 1.013918 31.182775 176 135 143
5.597202 1.083183 31.241762 207 168 179
5.607752 1.152698 31.300644 227 186 203
5.618265 1.222459 31.359327 222 165 189
5.628731 1.292462 31.417744 190 111 141
5.639143 1.362705 31.475859 155 61 92
5.649499 1.433183 31.533663 143 42 74
5.659801 1.503896 31.591166 153 47 78
5.670053 1.574844 31.648388 166 56 86
5.680259 1.646025 31.705359 172 58 87
5.690426 1.717439 31.762106 172 56 81
5.700558 1.789087 31.818657 172 54 77
5.710656 1.860968 31.875021 174 56 75
5.720721 1.933081 31.931202 182 65 81
5.730752 2.005424 31.987188 193 77 91
5.740742 2.077994 32.042950 195 80 92
5.750685 2.150787 32.098450 194 78 91
5.760572 2.223797 32.153637 197 81 94
5.770395 2.297019 32.208466 199 84 98
5.780144 2.370448 32.262882 198 84 101
5.789810 2.444077 32.316833 196 84 105
5.799388 2.517899 32.370296 195 86 110
5.808876 2.591912 32.423256 195 90 116
5.818275 2.666113 32.475719 199 96 125
5.827593 2.740502 32.527729 203 102 133
5.836845 2.815082 32.579369 203 103 136
5.846050 2.889863 32.630749 202 101 135
5.855235 2.964855 32.682018 203 100 134
5.864433 3.040074 32.733356 204 99 132
5.873684 3.115543 32.784992 205 96 128
5.883031 3.191287 32.837166 205 92 122
5.892521 3.267335 32.890133 204 89 116
5.902201 3.343719 32.944164 201 86 110
5.912120 3.420474 32.999527 196 85 106
5.922321 3.497634 33.056465 188 82 100
5.932843 3.575234 33.115196 184 84 101
5.943717 3.653303 33.175896 193 100 117
5.954966 3.731868 33.238678 208 119 138
5.966596 3.810948 33.303596 211 125 147
5.978606 3.890555 33.370632 211 127 151
5.990975 3.970689 33.439674 221 137 163
6.003673 4.051342 33.510544 232 148 176
6.016650 4.132493 33.582981 239 155 184
6.029849 4.214110 33.656654 235 150 180
6.043197 4.296152 33.731159 224 140 170
6.056615 4.378566 33.806057 231 147 177
6.070018 4.461291 33.880867 247 164 194
6.083316 4.544261 33.955090 251 169 199
6.096421 4.627403 34.028240 248 167 196
6.109249 4.710648 34.099838 248 169 196
6.121720 4.793922 34.169449 246 169 196
6.133766 4.877158 34.236687 241 167 194
6.145329 4.960293 34.301224 235 165 192
6.156361 5.043273 34.362804 232 166 192
6.166831 5.126050 34.421242 227 167 191
6.176715 5.208586 34.476410 222 165 187
6.186005 5.290851 34.528267 223 168 189
6.194701 5.372825 34.576805 236 183 203
6.202813 5.454494 34.622086 250 200 219
6.210358 5.535853 34.664196 254 204 223
6.217354 5.616898 34.703243 254 199 218
6.223826 5.697631 34.739368 253 191 211
6.229798 5.778056 34.772705 252 186 208
6.235294 5.858179 34.803383 253 185 208
6.240336 5.938001 34.831528 252 183 208
6.244946 6.017528 34.857254 249 177 204
6.249139 6.096759 34.880661 243 170 199
6.252931 6.175694 34.901825 235 164 194
6.256333 6.254332 34.920815 232 163 193
6.259356 6.332668 34.937691 234 167 196
6.262010 6.410698 34.952499 236 171 199
6.264302 6.488419 34.965294 235 172 199
6.266241 6.565824 34.976116 234 173 198
6.267838 6.642913 34.985035 234 175 199
6.269106 6.719688 34.992111 235 178 200
6.270061 6.796155 34.997444 236 180 201
6.270723 6.872323 35.001133 234 178 198
6.271116 6.948209 35.003326 231 174 193
6.271269 7.023835 35.004181 228 171 189
6.271215 7.099231 35.003880 227 169 187
6.270993 7.174434 35.002640 229 170 187
6.270645 7.249485 35.000698 234 174 191
6.270216 7.324434 34.998302 237 178 194
6.269750 7.399328 34.995701 235 178 195
6.269293 7.474223 34.993153 230 179 195
6.268886 7.549166 34.990879 223 180 195
6.268569 7.624209 34.989113 215 182 196
6.268374 7.699395 34.988026 206 183 198
6.268324 7.774755 34.987743 202 187 204
6.268432 7.850312 34.988346 199 191 210
6.268700 7.926074 34.989841 179 175 197
6.269116 8.002031 34.992165 149 146 171
6.269658 8.078160 34.995190 153 151 175
6.270288 8.154419 34.998711 200 197 217
6.270960 8.230745 35.002457 228 224 241
6.271611 8.307061 35.006092 216 208 233
6.272172 8.383272 35.009224 212 198 231
6.272564 8.459270 35.011410 220 204 238
6.272699 8.534926 35.012165 225 208 240
6.272487 8.610108 35.010979 231 213 242
6.271830 8.684671 35.007313 229 209 238
6.270630 8.758460 35.000618 219 198 229
6.268789 8.831315 34.990337 219 199 228
6.266206 8.903071 34.975918 230 214 237
6.262784 8.973566 34.956825 239 227 243
6.258434 9.042636 34.932545 239 226 243
6.253070 9.110124 34.902603 235 213 239
6.246617 9.175882 34.866581 230 199 233
6.239009 9.239777 34.824120 227 191 227
6.230199 9.301692 34.774944 224 186 219
6.220154 9.361537 34.718876 220 179 211
6.208862 9.419248 34.655846 220 179 207
6.196334 9.474799 34.585922 223 181 207
6.182606 9.528197 34.509293 224 181 207
6.167733 9.579487 34.426277 223 180 204
6.151796 9.628754 34.337322 220 177 200
6.134900 9.676124 34.243011 219 175 198
6.117165 9.721755 34.144020 221 177 199
6.098727 9.765834 34.041107 221 177 200
6.079733 9.808572 33.935089 214 170 195
6.060334 9.850195 33.826813 206 162 188
6.040679 9.890930 33.717102 203 158 185
6.020912 9.931009 33.606770 202 156 184
6.001164 9.970644 33.496544 202 155 183
5.981553 10.010032 33.387081 201 151 180
5.962173 10.049339 33.278912 197 146 174
5.943100 10.088699 33.172447 193 139 167
5.924383 10.128209 33.067974 190 135 163
5.906049 10.167930 32.965645 190 133 160
5.888102 10.207878 32.865467 189 131 158
5.870521 10.248034 32.767334 187 130 154
5.853266 10.288340 32.671024 187 130 153
5.836279 10.328706 32.576210 187 131 154
5.819490 10.369014 32.482498 187 133 156
5.802813 10.409121 32.389412 186 134 156
5.786158 10.448864 32.296448 184 134 156
5.769428 10.488073 32.203072 181 133 155
5.752524 10.526559 32.108719 178 135 154
5.735357 10.564153 32.012894 176 137 154
5.717840 10.600686 31.915119 172 140 154
5.699897 10.636003 31.814970 168 141 153
5.681465 10.669970 31.712088 161 142 150
5.662494 10.702474 31.606197 151 140 145
5.642951 10.733433 31.497114 130 124 129
5.622819 10.762796 31.384747 110 109 115
5.602099 10.790540 31.269091 127 128 134
5.580802 10.816669 31.150221 175 176 181
5.558955 10.841210 31.028275 216 217 222
5.536592 10.864216 30.903454 210 210 220
5.513754 10.885744 30.775978 153 151 171
5.490479 10.905854 30.646063 133 129 151
5.466803 10.924605 30.513914 167 162 179
5.442756 10.942039 30.379690 212 208 217
5.418354 10.958175 30.243484 241 238 242
5.393598 10.973006 30.105307 249 247 249
5.368477 10.986494 29.965094 254 252 254
5.342964 10.998569 29.822683 223 218 224
5.317014 11.009126 29.677839 164 155 168
5.290575 11.018041 29.530268 132 120 138
5.263586 11.025166 29.379622 152 142 158
5.408723 -1.345027 29.830801 231 92 119
5.414580 -1.282109 29.863102 221 84 111
5.419945 -1.218941 29.892694 213 82 109
5.424870 -1.155551 29.919853 210 87 112
5.429415 -1.091968 29.944925 215 102 122
5.433653 -1.028219 29.968300 215 113 126
5.437659 -0.964328 29.990391 205 117 123
5.441507 -0.900315 30.011614 211 145 146
5.445271 -0.836199 30.032377 220 170 167
5.449020 -0.771990 30.053055 214 162 162
5.452818 -0.707699 30.073996 221 174 177
5.456720 -0.643329 30.095516 233 189 199
5.460775 -0.578883 30.117886 228 163 185
5.465029 -0.514360 30.141344 218 130 163
5.469517 -0.449754 30.166096 212 111 149
5.474273 -0.385061 30.192329 198 90 131
5.479325 -0.320272 30.220192 181 72 112
5.484699 -0.255377 30.249832 174 68 107
5.490418 -0.190367 30.281374 174 69 108
5.496501 -0.125229 30.314926 183 81 120
5.502966 -0.059951 30.350582 211 122 156
5.509826 0.005482 30.388416 238 169 198
5.517090 0.071082 30.428482 248 180 212
5.524763 0.136866 30.470798 248 157 196
5.532843 0.202847 30.515358 239 134 171
5.541320 0.269039 30.562115 218 113 146
5.550182 0.335457 30.610989 194 92 120
5.559405 0.402111 30.661860 182 84 108
5.568962 0.469012 30.714565 177 90 110
5.578816 0.536170 30.768919 167 93 110
5.588931 0.603589 30.824705 149 88 102
5.599263 0.671276 30.881687 131 82 93
5.609767 0.739230 30.939623 116 77 83
5.620401 0.807454 30.998272 112 81 84
5.631122 0.875943 31.057402 139 111 114
5.641891 0.944696 31.116795 165 135 139
5.652673 1.013706 31.176258 164 134 139
5.663437 1.082970 31.235630 189 163 170
5.674163 1.152482 31.294786 225 195 208
5.684833 1.222237 31.353634 219 166 187
5.695436 1.292231 31.412109 194 117 142
5.705966 1.362459 31.470186 170 78 105
5.716424 1.432920 31.527864 147 47 73
5.726813 1.503611 31.585165 145 39 65
5.737140 1.574532 31.642122 158 47 73
5.747411 1.645683 31.698771 167 52 77
5.757636 1.717064 31.755163 172 54 77
5.767820 1.788676 31.811333 175 55 77
5.777969 1.860518 31.867306 176 57 77
5.788084 1.932591 31.923096 179 64 81
5.798167 2.004892 31.978704 183 72 87
5.808213 2.077421 32.034115 182 74 89
5.818218 2.150173 32.089294 181 73 89
5.828175 2.223145 32.144207 185 77 94
5.838075 2.296331 32.198811 192 82 101
5.847910 2.369726 32.253052 198 88 110
5.857672 2.443325 32.306892 203 94 117
5.867355 2.517122 32.360302 206 98 124
5.876959 2.591114 32.413269 209 102 130
5.886484 2.665299 32.465805 214 109 139
5.895938 2.739677 32.517948 217 114 145
5.905335 2.814253 32.569771 210 109 140
5.914695 2.889034 32.621391 199 98 128
5.924043 2.964032 32.672951 194 93 123
5.933414 3.039264 32.724632 195 92 122
5.942844 3.114750 32.776646 196 90 119
5.952379 3.190516 32.829231 197 89 115
5.962063 3.266591 32.882645 200 90 114
5.971945 3.343007 32.937149 203 93 113
5.982072 3.419797 32.993000 198 90 108
5.992487 3.496997 33.050442 187 83 98
6.003228 3.574638 33.109684 183 84 98
6.014326 3.652752 33.170891 195 102 116
6.025801 3.731363 33.234177 210 120 138
6.037660 3.810489 33.299583 212 125 146
6.049899 3.890141 33.367085 213 127 152
6.062497 3.970320 33.436565 223 137 163
6.075419 4.051014 33.507839 233 146 175
6.088618 4.132203 33.580631 240 153 183
6.102029 4.213853 33.654598 236 149 180
6.115580 4.295920 33.729336 225 138 169
6.129189 4.378350 33.804394 231 144 175
6.142766 4.461082 33.879276 247 161 192
6.156221 4.544045 33.953484 252 167 197
6.169462 4.627169 34.026512 249 165 195
6.182404 4.710379 34.097893 247 165 194
6.194965 4.793602 34.167171 244 165 192
6.207076 4.876770 34.233963 239 165 192
6.218676 4.959819 34.297943 235 164 191
6.229721 5.042694 34.358860 231 165 190
6.240176 5.125348 34.416527 227 165 189
6.250022 5.207743 34.470829 223 163 187
6.259251 5.289849 34.521729 226 168 190
6.267865 5.371649 34.569237 238 184 204
6.275877 5.453131 34.613430 251 201 220
6.283307 5.534289 34.654404 254 204 222
6.290177 5.615125 34.692295 254 198 217
6.296515 5.695643 34.727253 251 188 208
6.302350 5.775851 34.759434 251 182 204
6.307708 5.855755 34.788982 253 183 206
6.312616 5.935363 34.816051 254 183 207
6.317097 6.014681 34.840767 252 178 204
6.321171 6.093713 34.863235 245 170 198
6.324855 6.172462 34.883553 237 162 191
6.328163 6.250926 34.901798 233 161 189
6.331105 6.329104 34.918026 235 165 193
6.333693 6.406993 34.932297 237 170 197
6.335933 6.484588 34.944653 238 173 198
6.337833 6.561885 34.955135 238 174 199
6.339404 6.638881 34.963799 237 176 199
6.340655 6.715576 34.970695 237 177 198
6.341600 6.791974 34.975910 236 177 197
6.342257 6.868081 34.979530 235 176 195
6.342646 6.943912 34.981678 233 174 192
6.342794 7.019485 34.982498 232 172 189
6.342733 7.094826 34.982159 232 171 187
6.342497 7.169969 34.980858 233 171 187
6.342128 7.244954 34.978821 235 173 188
6.341667 7.319825 34.976280 235 174 190
6.341159 7.394629 34.973476 233 175 191
6.340648 7.469419 34.970657 228 176 192
6.340176 7.544241 34.968052 222 178 193
6.339781 7.619147 34.965878 215 180 195
6.339498 7.694177 34.964314 207 182 198
6.339347 7.769364 34.963486 202 186 204
6.339345 7.844731 34.963474 201 191 212
6.339494 7.920286 34.964291 185 179 203
6.339782 7.996021 34.965881 155 150 176
6.340189 8.071914 34.968124 152 147 173
6.340677 8.147921 34.970821 197 193 213
6.341200 8.223984 34.973701 230 224 241
6.341696 8.300024 34.976437 215 204 228
6.342096 8.375950 34.978642 202 186 217
6.342320 8.451652 34.979881 215 197 228
6.342282 8.527005 34.979671 225 207 238
6.341888 8.601875 34.977497 227 208 238
6.341043 8.676118 34.972836 222 203 233
6.339645 8.749579 34.965130 214 194 225
6.337595 8.822099 34.953823 210 189 221
6.334792 8.893512 34.938362 217 197 226
6.331138 8.963654 34.918209 228 209 235
6.326539 9.032359 34.892845 232 212 237
6.320910 9.099472 34.861794 231 206 235
6.314171 9.164842 34.824631 233 201 234
6.306258 9.228333 34.780987 239 205 237
6.297120 9.289826 34.730583 234 198 228
6.286721 9.349231 34.673237 227 187 216
6.275052 9.406482 34.608871 226 183 212
6.262121 9.461550 34.537556 226 183 209
6.247963 9.514441 34.459469 226 182 207
6.232636 9.565202 34.374939 224 180 204
6.216221 9.613916 34.284409 221 177 201
6.198826 9.660710 34.188465 219 175 198
6.180573 9.705747 34.087799 219 175 198
6.161603 9.749212 33.983170 218 174 197
6.142064 9.791321 33.875408 211 166 190
6.122113 9.832302 33.765369 203 157 183
6.101902 9.872390 33.653900 200 153 180
6.081580 9.911815 33.541817 200 152 180
6.061283 9.950799 33.429874 200 150 178
6.041132 9.989540 33.318733 196 144 173
6.021226 10.028212 33.208946 189 135 164
6.001643 10.066951 33.100937 183 128 156
5.982436 10.105860 32.995007 182 125 153
5.963635 10.145002 32.891312 187 128 155
5.945246 10.184403 32.789890 190 131 157
5.927248 10.224044 32.690628 191 132 157
5.909605 10.263870 32.593319 191 132 157
5.892258 10.303796 32.497646 191 132 156
5.875137 10.343706 32.403217 190 133 156
5.858157 10.383460 32.309566 188 132 155
5.841225 10.422896 32.216183 186 132 154
5.824246 10.461845 32.122540 182 131 152
5.807117 10.500118 32.028069 179 132 151
5.789747 10.537546 31.932266 177 133 151
5.772048 10.573957 31.834648 174 136 152
5.753940 10.609196 31.734781 170 137 151
5.735358 10.643122 31.632294 165 138 150
5.716248 10.675621 31.526896 159 139 149
5.696573 10.706604 31.418383 146 132 141
5.676313 10.736012 31.306644 126 118 125
5.655464 10.763818 31.191656 124 119 126
5.634036 10.790018 31.073473 154 150 157
5.612050 10.814634 30.952211 204 201 206
5.589537 10.837706 30.828045 232 230 235
5.566535 10.859287 30.701180 198 193 205
5.543078 10.879430 30.571810 158 148 167
5.519200 10.898184 30.440117 152 140 160
5.494928 10.915586 30.306250 170 157 175
5.470275 10.931651 30.170280 194 182 195
5.445242 10.946364 30.032215 211 201 212
5.419815 10.959686 29.891975 223 215 223
5.393963 10.971539 29.749395 207 197 206
5.367643 10.981820 29.604231 163 151 163
5.340802 10.990402 29.456192 131 117 130
5.313375 10.997135 29.304928 141 127 139
5.471846 -1.344737 29.824358 242 114 140
5.477715 -1.281819 29.856348 231 101 126
5.483047 -1.218644 29.885410 222 94 118
5.487899 -1.155242 29.911856 212 91 113
5.492342 -1.091645 29.936068 211 99 116
5.496451 -1.027882 29.958467 218 120 131
5.500312 -0.963978 29.979513 221 143 149
5.504009 -0.899957 29.999660 221 157 160
5.507621 -0.835836 30.019348 208 149 151
5.511225 -0.771629 30.038992 197 137 142
5.514890 -0.707345 30.058971 218 172 180
5.518680 -0.642989 30.079624 246 213 226
5.522646 -0.578563 30.101244 250 207 230
5.526838 -0.514065 30.124090 245 182 215
5.531295 -0.449490 30.148382 237 155 193
5.536052 -0.384831 30.174313 212 114 156
5.541139 -0.320079 30.202042 180 76 120
5.546583 -0.255224 30.231710 166 65 110
5.552404 -0.190254 30.263441 166 67 114
5.558623 -0.125157 30.297338 186 91 140
5.565255 -0.059917 30.333485 225 149 191
5.572310 0.005479 30.371941 248 192 226
5.579796 0.071046 30.412741 245 176 218
5.587713 0.136799 30.455893 238 139 188
5.596056 0.202754 30.501368 224 110 157
5.604814 0.268925 30.549097 201 87 126
5.613966 0.335325 30.598984 187 81 113
5.623487 0.401967 30.650881 186 89 114
5.633345 0.468860 30.704609 179 94 114
5.643500 0.536013 30.759958 165 92 109
5.653910 0.603433 30.816698 147 86 100
5.664528 0.671121 30.874575 129 81 90
5.675308 0.739080 30.933327 113 76 80
5.686202 0.807309 30.992706 114 87 86
5.697166 0.875804 31.052467 150 130 127
5.708159 0.944562 31.112383 176 157 154
5.719144 1.013576 31.172258 168 154 148
5.730093 1.082842 31.231934 186 174 171
5.740981 1.152353 31.291277 204 179 183
5.751791 1.222103 31.350203 181 128 141
5.762516 1.292089 31.408653 166 91 109
5.773148 1.362304 31.466608 165 77 97
5.783693 1.432748 31.524080 148 52 72
5.794153 1.503417 31.581097 143 40 60
5.804539 1.574312 31.637705 155 46 67
5.814860 1.645433 31.693958 165 51 72
5.825126 1.716780 31.749916 172 54 75
5.835348 1.788355 31.805630 175 58 78
5.845531 1.860157 31.861132 174 59 79
5.855681 1.932189 31.916458 175 64 82
5.865801 2.004448 31.971615 176 70 87
5.875889 2.076934 32.026596 173 70 89
5.885941 2.149643 32.081387 173 72 92
5.895953 2.222574 32.135956 187 87 109
5.905916 2.295721 32.190258 207 112 136
5.915823 2.369080 32.244263 216 123 149
5.925669 2.442646 32.297924 214 118 147
5.935446 2.516415 32.351215 217 122 150
5.945153 2.590383 32.404125 223 131 159
5.954793 2.664549 32.456669 224 128 156
5.964374 2.738914 32.508884 221 121 149
5.973906 2.813481 32.560841 214 113 140
5.983412 2.888260 32.612652 201 101 128
5.992916 2.963261 32.664452 194 94 121
6.002451 3.038502 32.716423 193 91 119
6.012055 3.114002 32.768776 191 88 115
6.021773 3.189788 32.821739 191 87 112
6.031648 3.265887 32.875561 202 98 120
6.041728 3.342332 32.930504 216 115 135
6.052060 3.419156 32.986816 212 114 130
6.062686 3.496393 33.044739 194 94 107
6.073645 3.574075 33.104465 187 88 101
6.084964 3.652231 33.166164 198 104 119
6.096665 3.730887 33.229942 210 120 137
6.108754 3.810059 33.295830 212 124 145
6.121222 3.889757 33.363789 216 129 152
6.134049 3.969980 33.433704 226 138 164
6.147198 4.050716 33.505371 234 146 174
6.160618 4.131943 33.578518 240 152 181
6.174244 4.213626 33.652786 236 149 178
6.188000 4.295719 33.727760 227 138 169
6.201800 4.378167 33.802979 232 143 173
6.215554 4.460907 33.877945 247 159 189
6.229167 4.543866 33.952145 252 165 195
6.242547 4.626972 34.025070 249 162 193
6.255604 4.710150 34.096237 245 160 190
6.268256 4.793325 34.165199 241 160 189
6.280432 4.876428 34.231564 239 162 191
6.292072 4.959394 34.295006 236 163 191
6.303129 5.042168 34.355274 232 162 190
6.313570 5.124701 34.412186 226 161 187
6.323378 5.206958 34.465637 224 162 186
6.332543 5.288909 34.515598 230 168 193
6.341074 5.370538 34.562088 242 187 209
6.348983 5.451834 34.605198 252 203 224
6.356294 5.532795 34.645050 254 203 224
6.363034 5.613424 34.681789 254 195 215
6.369234 5.693729 34.715580 252 187 207
6.374926 5.773719 34.746601 252 183 205
6.380140 5.853405 34.775024 253 183 206
6.384908 5.932798 34.801010 254 181 205
6.389255 6.011908 34.824703 252 175 202
6.393204 6.090741 34.846230 246 169 196
6.396775 6.169301 34.865692 237 160 188
6.399982 6.247591 34.883175 232 158 186
6.402841 6.325611 34.898754 234 163 190
6.405359 6.403358 34.912479 238 169 195
6.407545 6.480829 34.924397 240 173 198
6.409406 6.558019 34.934540 240 176 200
6.410950 6.634924 34.942955 240 178 201
6.412186 6.711542 34.949688 240 178 200
6.413124 6.787875 34.954803 239 178 199
6.413779 6.863927 34.958374 237 176 196
6.414171 6.939709 34.960506 236 174 194
6.414321 7.015236 34.961327 235 173 190
6.414258 7.090532 34.960983 235 171 188
6.414016 7.165625 34.959663 235 171 186
6.413632 7.240553 34.957569 235 171 186
6.413147 7.315357 34.954929 233 171 187
6.412603 7.390081 34.951965 231 172 188
6.412045 7.464776 34.948921 227 173 190
6.411511 7.539486 34.946014 222 175 191
6.411043 7.614262 34.943462 217 177 194
6.410673 7.689145 34.941444 212 179 199
6.410424 7.764165 34.940086 207 182 204
6.410312 7.839346 34.939472 203 185 210
6.410339 7.914698 34.939621 192 178 205
6.410496 7.990212 34.940479 167 154 184
6.410762 8.065866 34.941933 158 147 175
6.411102 8.141622 34.943783 193 185 206
6.411468 8.217417 34.945778 231 223 239
6.411800 8.293179 34.947590 223 211 232
6.412030 8.368813 34.948837 203 187 215
6.412076 8.444213 34.949093 211 193 221
6.411853 8.519255 34.947880 224 205 233
6.411268 8.593806 34.944687 225 206 234
6.410222 8.667720 34.938984 221 202 231
6.408615 8.740846 34.930229 216 197 226
6.406346 8.813022 34.917858 213 192 223
6.403311 8.884083 34.901318 213 191 222
6.399412 8.953862 34.880066 216 192 224
6.394554 9.022197 34.853584 219 192 224
6.388647 9.088925 34.821388 223 193 225
6.381611 9.153897 34.783043 233 200 232
6.373380 9.216974 34.738178 244 210 239
6.363901 9.278038 34.686512 243 206 235
6.353137 9.336991 34.627846 236 196 224
6.341076 9.393770 34.562103 232 189 217
6.327727 9.448342 34.489346 230 185 211
6.313125 9.500714 34.409756 227 182 207
6.297328 9.550931 34.323654 225 179 203
6.280418 9.599077 34.231491 223 177 201
6.262505 9.645279 34.133854 221 175 199
6.243716 9.689701 34.031445 218 173 197
6.224193 9.732533 33.925030 214 168 192
6.204088 9.773992 33.815449 206 160 184
6.183562 9.814308 33.703575 199 152 177
6.162773 9.853722 33.590263 197 149 174
6.141873 9.892468 33.476345 198 148 174
6.121003 9.930772 33.362595 196 145 172
6.100287 9.968838 33.249683 191 137 165
6.079829 10.006842 33.138176 184 128 156
6.059711 10.044927 33.028522 179 122 149
6.039988 10.083200 32.921021 180 122 149
6.020693 10.121729 32.815857 186 127 153
6.001834 10.160542 32.713066 191 131 156
5.983394 10.199625 32.612553 193 133 157
5.965334 10.238930 32.514118 194 133 156
5.947599 10.278371 32.417458 192 132 155
5.930119 10.317838 32.322178 190 131 153
5.912808 10.357191 32.227825 188 131 152
5.895574 10.396273 32.133892 186 130 151
5.878319 10.434913 32.039845 183 129 149
5.860940 10.472925 31.945120 181 130 149
5.843344 10.510139 31.849211 179 131 148
5.825441 10.546382 31.751629 177 132 149
5.807149 10.581497 31.651928 174 134 149
5.788399 10.615342 31.549730 170 135 149
5.769134 10.647798 31.444729 166 136 149
5.749315 10.678770 31.336704 159 135 146
5.728918 10.708196 31.225529 146 127 137
5.707935 10.736040 31.111162 137 122 131
5.686371 10.762294 30.993631 146 133 142
5.664246 10.786969 30.873034 179 168 176
5.641586 10.810102 30.749527 218 208 215
5.618425 10.831736 30.623285 208 197 207
5.594795 10.851916 30.494493 174 159 173
5.570727 10.870686 30.363310 148 129 148
5.546243 10.888073 30.229858 138 119 138
5.521355 10.904087 30.094208 143 124 141
5.496062 10.918711 29.956345 154 136 151
5.470345 10.931895 29.816177 167 151 164
5.444175 10.943563 29.673536 170 153 166
5.417505 10.953606 29.528172 155 137 150
5.390281 10.961894 29.379786 132 113 126
5.362439 10.968278 29.228029 125 106 120
5.535543 -1.344592 29.821156 248 128 152
5.541428 -1.281669 29.852858 241 114 138
5.546730 -1.218481 29.881424 232 106 128
5.551514 -1.155062 29.907192 218 98 118
5.555854 -1.091445 29.930576 210 97 113
5.559839 -1.027661 29.952045 220 121 134
5.563560 -0.963739 29.972086 238 165 173
5.567106 -0.899703 29.991194 237 180 187
5.570569 -0.835571 30.009846 212 146 155
5.574029 -0.771359 30.028490 189 116 129
5.577565 -0.707076 30.047539 203 138 158
5.581243 -0.642727 30.067350 237 184 208
5.585122 -0.578314 30.088247 251 197 229
5.589252 -0.513833 30.110500 250 190 226
5.593679 -0.449281 30.134348 242 167 207
5.598438 -0.384648 30.159986 215 120 165
5.603560 -0.319926 30.187578 181 81 127
5.609072 -0.255102 30.217272 166 70 118
5.614996 -0.190165 30.249184 164 71 125
5.621349 -0.125099 30.283409 183 94 151
5.628145 -0.059890 30.320023 223 146 200
5.635393 0.005476 30.359068 244 176 227
5.643096 0.071017 30.400570 239 160 214
5.651254 0.136748 30.444513 231 134 189
5.659855 0.202684 30.490850 212 105 156
5.668884 0.268840 30.539494 187 79 122
5.678320 0.335230 30.590326 182 80 114
5.688130 0.401866 30.643177 185 91 117
5.698279 0.468757 30.697851 177 93 113
5.708724 0.535912 30.754118 164 89 105
5.719418 0.603335 30.811726 149 85 97
5.730310 0.671030 30.870407 133 81 87
5.741351 0.738998 30.929884 117 76 75
5.752491 0.807235 30.989899 121 90 83
5.763683 0.875740 31.050196 153 130 120
5.774885 0.944506 31.110542 171 152 141
5.786059 1.013527 31.170740 181 166 155
5.797174 1.082797 31.230621 205 192 183
5.808208 1.152308 31.290064 191 161 159
5.819145 1.222056 31.348980 145 87 94
5.829975 1.292034 31.407320 135 57 71
5.840695 1.362238 31.465073 148 59 76
5.851309 1.432665 31.522257 147 49 66
5.861826 1.503313 31.578913 147 43 61
5.872256 1.574183 31.635099 156 47 65
5.882610 1.645273 31.690882 164 51 70
5.892903 1.716586 31.746332 171 54 75
5.903147 1.788124 31.801516 175 58 79
5.913350 1.859886 31.856482 173 59 81
5.923521 1.931875 31.911272 171 63 84
5.933662 2.004090 31.965910 171 69 90
5.943777 2.076532 32.020401 164 67 90
5.953863 2.149197 32.074734 162 67 94
5.963914 2.222085 32.128883 187 99 127
5.973928 2.295191 32.182827 225 155 180
5.983895 2.368512 32.236523 235 172 199
5.993810 2.442042 32.289940 219 147 177
6.003669 2.515780 32.343048 218 148 176
6.013469 2.589721 32.395844 230 164 190
6.023212 2.663865 32.448334 223 143 170
6.032907 2.738213 32.500561 215 119 145
6.042566 2.812769 32.552593 217 118 142
6.052207 2.887542 32.604538 215 118 140
6.061859 2.962543 32.656532 209 113 136
6.071552 3.037789 32.708748 201 104 129
6.081323 3.113300 32.761391 190 90 116
6.091217 3.189102 32.814686 186 84 109
6.101276 3.265224 32.868881 204 105 128
6.111549 3.341695 32.924225 229 143 162
6.122082 3.418550 32.980968 229 146 163
6.132917 3.495822 33.039337 206 113 127
6.144090 3.573542 33.099529 193 96 110
6.155631 3.651740 33.161701 201 107 123
6.167556 3.730438 33.225945 208 118 136
6.179872 3.809654 33.292294 210 122 143
6.192571 3.889397 33.360703 217 130 153
6.205627 3.969664 33.431042 228 141 166
6.219004 4.050442 33.503105 236 148 175
6.232647 4.131708 33.576603 240 152 180
6.246489 4.213424 33.651173 235 147 175
6.260451 4.295545 33.726387 227 138 166
6.274446 4.378012 33.801781 234 144 172
6.288378 4.460761 33.876842 248 159 188
6.302153 4.543719 33.951046 252 164 193
6.315674 4.626812 34.023888 248 160 190
6.328849 4.709961 34.094868 241 156 185
6.341596 4.793092 34.163536 238 155 184
6.353840 4.876133 34.229496 239 159 188
6.365521 4.959021 34.292427 237 162 191
6.376593 5.041698 34.352074 233 161 190
6.387022 5.124116 34.408257 228 159 188
6.396792 5.206240 34.460888 226 161 188
6.405895 5.288041 34.509930 234 170 196
6.414341 5.369503 34.555431 246 189 214
6.422147 5.450618 34.597485 253 204 229
6.429339 5.531386 34.636227 254 202 226
6.435947 5.611812 34.671825 254 192 215
6.442006 5.691906 34.704464 253 185 208
6.447552 5.771682 34.734341 253 184 208
6.452619 5.851152 34.761642 254 184 208
6.457242 5.930332 34.786545 253 179 203
6.461450 6.009233 34.809212 251 173 198
