ply
format ascii 1.0
element vertex 1250
property float x
property float y
property float z
property uchar red
property uchar green
property uchar blue
end_header
8.493689 15.012764 60.515419 46 33 40
8.522569 15.194705 60.721184 49 37 44
8.551400 15.377445 60.926601 48 39 43
8.580150 15.560922 61.131435 45 37 40
8.608786 15.745073 61.335453 57 50 51
8.637270 15.929827 61.538403 123 116 116
8.665569 16.115110 61.740028 200 195 194
8.693648 16.300850 61.940079 232 226 227
8.721472 16.486969 62.138317 217 203 206
8.749012 16.673403 62.334530 181 159 164
8.776238 16.860081 62.528519 150 122 129
8.803131 17.046947 62.720119 131 100 109
8.829665 17.233940 62.909164 124 90 101
8.855821 17.421003 63.095520 122 88 99
8.881577 17.608078 63.279022 123 88 99
8.906908 17.795097 63.459507 120 85 97
8.931786 17.981979 63.636753 111 75 87
8.956176 18.168636 63.810528 102 67 78
8.980037 18.354961 63.980526 98 63 74
9.003318 18.540827 64.146400 98 63 74
9.025966 18.726091 64.307762 99 65 74
9.047920 18.910603 64.464180 99 65 75
9.069117 19.094194 64.615204 99 65 75
9.089491 19.276691 64.760361 98 64 74
9.108980 19.457924 64.899216 96 62 73
9.127525 19.637724 65.031349 96 63 75
9.145080 19.815947 65.156418 98 65 78
9.161601 19.992456 65.274132 99 66 79
9.177065 20.167147 65.384300 98 66 79
9.191457 20.339941 65.486847 97 65 78
9.204778 20.510792 65.581749 95 63 77
9.217041 20.679678 65.669128 93 62 76
9.228271 20.846607 65.749138 92 62 76
9.238503 21.011614 65.822044 91 62 76
9.247780 21.174744 65.888138 91 61 75
9.256147 21.336063 65.947746 90 61 75
9.263653 21.495640 66.001221 89 60 74
9.270337 21.653530 66.048843 89 60 75
9.276247 21.809803 66.090950 89 59 75
9.281421 21.964518 66.127815 89 59 74
9.285888 22.117706 66.159645 89 59 73
9.289674 22.269402 66.186615 88 60 71
9.292797 22.419611 66.208870 87 61 70
9.295267 22.568335 66.226471 86 61 68
9.297092 22.715555 66.239471 85 61 67
9.298277 22.861258 66.247910 84 60 65
9.298823 23.005417 66.251801 81 59 64
9.298730 23.148001 66.251137 79 56 61
9.297997 23.288979 66.245911 78 56 61
9.296621 23.428318 66.236115 77 55 61
9.294605 23.565989 66.221748 77 55 62
9.291944 23.701950 66.202789 77 55 61
9.288631 23.836163 66.179184 77 55 61
9.284658 23.968567 66.150887 77 55 60
9.280008 24.099091 66.117752 76 54 60
9.274658 24.227642 66.079636 75 53 58
9.268576 24.354103 66.036293 73 53 56
9.261719 24.478333 65.987442 72 52 55
9.254039 24.600163 65.932724 70 51 53
9.245482 24.719416 65.871765 68 49 51
9.235992 24.835894 65.804146 67 49 51
9.225513 24.949406 65.729485 65 47 49
9.213994 25.059767 65.647415 63 46 48
9.201397 25.166828 65.557663 62 45 46
9.187703 25.270483 65.460098 60 44 45
9.172916 25.370693 65.354744 58 42 44
7.729796 -1.627135 54.239830 74 45 51
7.727208 -1.509707 54.221668 74 45 50
7.725025 -1.392429 54.206348 75 46 50
7.723274 -1.275290 54.194061 75 47 51
7.721976 -1.158271 54.184956 75 47 52
7.721145 -1.041354 54.179127 74 47 51
7.720788 -0.924520 54.176624 74 47 51
7.720904 -0.807745 54.177433 73 46 51
7.721482 -0.691009 54.181492 72 46 51
7.722508 -0.574288 54.188686 73 47 51
7.723957 -0.457561 54.198856 73 48 51
7.725797 -0.340808 54.211769 74 48 51
7.727993 -0.224009 54.227173 74 48 51
7.730498 -0.107149 54.244755 75 47 50
7.733266 0.009788 54.264179 75 47 51
7.736247 0.126813 54.285095 76 47 51
7.739385 0.243932 54.307114 77 47 52
7.742627 0.361151 54.329865 77 47 53
7.745918 0.478471 54.352959 78 47 54
7.749208 0.595891 54.376041 79 48 55
7.752444 0.713405 54.398746 80 48 55
7.755583 0.831007 54.420773 81 49 56
7.758584 0.948686 54.441830 82 50 55
7.761410 1.066433 54.461662 82 50 55
7.764036 1.184234 54.480091 82 51 56
7.766439 1.302078 54.496956 83 52 57
7.768607 1.419951 54.512161 82 51 56
7.770530 1.537842 54.525661 82 52 56
7.772209 1.655738 54.537441 83 53 56
7.773649 1.773631 54.547543 85 53 57
7.774860 1.891512 54.556042 87 54 58
7.775858 2.009375 54.563049 90 54 59
7.776663 2.127214 54.568691 93 54 59
7.777294 2.245028 54.573120 94 53 59
7.777774 2.362815 54.576492 96 54 60
7.778127 2.480576 54.578968 99 55 62
7.778374 2.598313 54.580700 101 57 64
7.778535 2.716027 54.581833 103 59 66
7.778632 2.833722 54.582508 106 62 68
7.778676 2.951400 54.582817 108 64 70
7.778685 3.069066 54.582878 109 65 70
7.778667 3.186721 54.582756 110 66 71
7.778633 3.304368 54.582512 112 67 73
7.778586 3.422009 54.582188 113 67 74
7.778535 3.539646 54.581825 115 68 76
7.778481 3.657281 54.581451 117 69 79
7.778432 3.774916 54.581104 119 70 81
7.778391 3.892554 54.580814 122 71 84
7.778365 4.010199 54.580631 123 71 86
7.778364 4.127856 54.580627 123 71 86
7.778400 4.245533 54.580883 123 71 87
7.778492 4.363243 54.581528 123 71 87
7.778658 4.480998 54.582695 122 71 87
7.778926 4.598818 54.584576 123 72 87
7.779325 4.716725 54.587368 124 73 87
7.779892 4.834750 54.591351 125 74 86
7.780671 4.952927 54.596817 125 74 85
7.781710 5.071296 54.604103 123 75 84
7.783062 5.189906 54.613594 122 74 83
7.784789 5.308812 54.625713 120 74 83
7.786954 5.428076 54.640907 118 73 85
7.789627 5.547766 54.659657 116 72 87
7.792875 5.667957 54.682453 113 71 89
7.796772 5.788727 54.709801 114 74 95
7.801386 5.910158 54.742172 117 79 102
7.806782 6.032334 54.780037 118 82 107
7.813018 6.155334 54.823792 117 83 108
7.820138 6.279233 54.873760 116 83 108
7.828178 6.404099 54.930172 116 83 108
7.837147 6.529983 54.993107 118 84 109
7.847038 6.656921 55.062515 128 93 118
7.857816 6.784924 55.138145 145 110 134
7.869419 6.913977 55.219559 151 116 139
7.881753 7.044034 55.306107 139 103 125
7.894696 7.175019 55.396927 127 90 109
7.908092 7.306814 55.490929 131 96 112
7.921763 7.439272 55.586861 145 111 124
7.935503 7.572209 55.683270 143 112 124
7.949089 7.705413 55.778599 123 96 107
7.962288 7.838647 55.871223 108 84 97
7.974866 7.971659 55.959476 109 87 104
7.986594 8.104190 56.041775 120 100 121
7.997261 8.235982 56.116623 131 113 136
8.006683 8.366797 56.182743 143 126 149
8.014710 8.496417 56.239063 150 135 156
8.021236 8.624667 56.284859 148 132 150
8.026202 8.751412 56.319702 155 141 154
8.029603 8.876578 56.343567 192 183 189
8.031485 9.000145 56.356773 233 228 228
8.031949 9.122159 56.360031 246 238 237
8.031143 9.242724 56.354378 227 211 213
8.029263 9.362013 56.341179 174 154 159
8.026537 9.480246 56.322052 105 84 88
8.023225 9.597695 56.298813 60 40 43
8.019608 9.714676 56.273438 52 35 38
8.015981 9.831533 56.247982 54 41 43
8.012637 9.948633 56.224518 53 43 44
8.009868 10.066354 56.205086 50 42 42
8.007952 10.185076 56.191639 45 39 39
8.007147 10.305170 56.185993 42 37 36
8.007687 10.426991 56.189781 41 37 35
8.009776 10.550870 56.204441 41 36 34
8.013581 10.677098 56.231148 42 36 35
8.019238 10.805935 56.270832 43 36 36
8.026837 10.937593 56.324165 43 36 37
8.036435 11.072231 56.391510 44 36 37
8.048047 11.209967 56.472992 44 35 36
8.061654 11.350862 56.568470 43 34 35
8.077197 11.494925 56.677536 42 33 34
8.094590 11.642118 56.799580 41 32 33
8.113719 11.792359 56.933807 41 31 32
8.134447 11.945530 57.079262 40 30 31
8.156624 12.101476 57.234875 40 30 30
8.180086 12.260018 57.399506 41 31 30
8.204669 12.420968 57.572002 42 31 29
8.230206 12.584121 57.751194 42 32 29
8.256541 12.749278 57.935989 42 32 29
8.283529 12.916250 58.125362 42 32 30
8.311035 13.084855 58.318375 42 33 30
8.338949 13.254939 58.514244 41 33 31
8.367173 13.426366 58.712296 38 32 29
8.395632 13.599026 58.911983 35 29 27
8.424263 13.772830 59.112892 33 27 25
8.453024 13.947713 59.314701 33 25 24
8.481879 14.123625 59.517181 33 23 24
8.510809 14.300533 59.720181 36 23 25
8.539793 14.478410 59.923565 38 23 27
8.568819 14.657235 60.127239 42 25 30
8.597869 14.836978 60.331078 45 29 35
8.626925 15.017613 60.534966 47 34 40
8.655967 15.199100 60.738750 49 38 44
8.684970 15.381398 60.942265 47 38 43
8.713901 15.564444 61.145271 46 39 42
8.742727 15.748178 61.347546 75 68 70
8.771412 15.932525 61.548824 149 144 145
8.799917 16.117413 61.748852 214 211 211
8.828207 16.302765 61.947361 227 219 221
8.856245 16.488504 62.144100 198 180 184
8.883999 16.674557 62.338844 160 134 140
8.911435 16.860849 62.531368 134 104 112
8.938530 17.047321 62.721493 122 89 99
8.965257 17.233904 62.909035 116 81 92
8.991594 17.420542 63.093842 114 79 90
9.017516 17.607164 63.275734 117 82 93
9.042998 17.793705 63.454540 118 83 94
9.068007 17.980082 63.630035 109 73 85
9.092511 18.166203 63.801975 100 65 76
9.116465 18.351957 63.970058 97 63 74
9.139822 18.537228 64.133949 97 64 74
9.162526 18.721872 64.293266 98 65 75
9.184519 18.905737 64.447594 99 65 75
9.205738 19.088663 64.596481 99 66 76
9.226118 19.270477 64.739487 99 66 76
9.245600 19.451019 64.876190 98 65 75
9.264126 19.630127 65.006187 98 66 76
9.281649 19.807653 65.129150 100 67 78
9.298131 19.983475 65.244804 101 68 80
9.313547 20.157486 65.352982 99 67 79
9.327887 20.329617 65.453598 96 65 76
9.341150 20.499821 65.546669 93 62 74
9.353354 20.668083 65.632301 91 62 74
9.364523 20.834412 65.710670 91 61 74
9.374693 20.998844 65.782036 91 62 75
9.383907 21.161427 65.846695 90 61 75
9.392213 21.322226 65.904976 90 60 74
9.399657 21.481308 65.957214 89 60 74
9.406283 21.638731 66.003708 90 60 75
9.412136 21.794567 66.044777 90 59 75
9.417255 21.948868 66.080696 89 59 74
9.421670 22.101671 66.111671 89 59 72
9.425405 22.253004 66.137878 89 60 70
9.428478 22.402878 66.159447 89 61 69
9.430900 22.551285 66.176445 88 62 68
9.432678 22.698217 66.188919 87 62 67
9.433817 22.843657 66.196907 87 62 67
9.434317 22.987574 66.200417 85 60 65
9.434177 23.129938 66.199440 82 58 63
9.433397 23.270718 66.193970 80 57 62
9.431976 23.409882 66.183990 79 56 62
9.429912 23.547396 66.169502 79 56 62
9.427200 23.683226 66.150482 79 56 62
9.423837 23.817320 66.126877 79 56 62
9.419809 23.949629 66.098618 78 56 61
9.415101 24.080072 66.065582 76 54 58
9.409688 24.208563 66.027596 74 53 56
9.403536 24.334976 65.984428 73 53 55
9.396604 24.459171 65.935783 72 52 54
9.388840 24.580980 65.881310 70 51 53
9.380192 24.700226 65.820625 69 50 52
9.370602 24.816713 65.753326 68 49 51
9.360010 24.930244 65.679008 67 48 50
9.348368 25.040644 65.597321 65 47 48
9.335637 25.147757 65.507988 62 46 47
9.321799 25.251484 65.410889 60 45 46
9.306858 25.351788 65.306046 59 44 45
7.849021 -1.627612 54.255741 74 45 50
7.846307 -1.510133 54.236980 74 45 49
7.844007 -1.392808 54.221088 74 46 49
7.842153 -1.275624 54.208263 74 46 50
7.840761 -1.158563 54.198643 74 46 50
7.839848 -1.041608 54.192333 73 47 50
7.839419 -0.924737 54.189369 73 46 50
7.839475 -0.807929 54.189754 72 46 50
7.840005 -0.691161 54.193420 72 46 50
7.840995 -0.574411 54.200260 72 47 50
7.842419 -0.457656 54.210106 73 47 50
7.844246 -0.340877 54.222736 74 47 50
7.846441 -0.224054 54.237907 74 47 50
7.848958 -0.107169 54.255306 75 47 50
7.851749 0.009790 54.274597 76 47 50
7.854763 0.126837 54.295433 76 47 51
7.857946 0.243978 54.317436 76 46 52
7.861242 0.361220 54.340221 76 46 52
7.864597 0.478563 54.363415 77 47 53
7.867957 0.596007 54.386639 78 47 54
7.871271 0.713546 54.409542 79 48 54
7.874491 0.831175 54.431801 80 49 55
7.877575 0.948883 54.453121 80 49 55
7.880486 1.066660 54.473248 81 50 56
7.883195 1.184493 54.491966 82 51 56
7.885676 1.302369 54.509121 82 51 56
7.887915 1.420275 54.524590 82 51 56
7.889899 1.538199 54.538311 83 52 55
7.891628 1.656128 54.550259 84 52 55
7.893106 1.774052 54.560471 86 53 56
7.894338 1.891961 54.568993 88 54 57
7.895341 2.009849 54.575928 91 54 58
7.896132 2.127709 54.581398 93 54 58
7.896732 2.245539 54.585545 94 53 57
7.897162 2.363336 54.588516 95 54 58
7.897445 2.481099 54.590469 97 55 60
7.897604 2.598830 54.591568 100 56 62
7.897660 2.716530 54.591953 102 59 65
7.897632 2.834202 54.591763 105 62 67
7.897540 2.951849 54.591125 108 64 69
7.897397 3.069474 54.590137 109 65 70
7.897217 3.187079 54.588894 111 66 71
7.897012 3.304668 54.587475 112 66 72
7.896789 3.422244 54.585938 113 67 74
7.896558 3.539809 54.584339 115 68 76
7.896326 3.657367 54.582733 117 69 78
7.896099 3.774921 54.581165 119 70 80
7.895889 3.892476 54.579712 121 70 82
7.895703 4.010037 54.578426 121 70 83
7.895555 4.127612 54.577404 121 70 84
7.895462 4.245213 54.576763 121 69 84
7.895444 4.362852 54.576641 121 69 84
7.895524 4.480546 54.577190 120 69 84
7.895730 4.598316 54.578617 121 70 84
7.896097 4.716188 54.581154 121 71 83
7.896664 4.834194 54.585072 122 71 82
7.897476 4.952370 54.590683 122 72 81
7.898583 5.070760 54.598339 121 73 81
7.900041 5.189413 54.608414 119 73 81
7.901911 5.308387 54.621342 118 73 83
7.904260 5.427745 54.637573 117 74 85
7.907152 5.547554 54.657570 116 74 89
7.910660 5.667891 54.681816 114 74 92
7.914852 5.788833 54.710796 114 76 97
7.919795 5.910460 54.744965 116 82 105
7.925550 6.032852 54.784744 119 87 112
7.932171 6.156088 54.830509 118 88 114
7.939699 6.280238 54.882545 115 87 113
7.948158 6.405364 54.941017 113 84 111
7.957553 6.531509 55.005959 118 89 116
7.967868 6.658704 55.077259 132 102 129
7.979057 6.786949 55.154606 144 113 140
7.991049 6.916223 55.237499 144 113 138
8.003736 7.046467 55.325203 135 103 125
8.016988 7.177593 55.416798 130 98 116
8.030638 7.309477 55.511154 138 107 122
8.044496 7.441960 55.606945 146 117 128
8.058348 7.574851 55.702698 139 112 120
8.071966 7.707932 55.796833 121 98 104
8.085113 7.840960 55.887707 112 91 98
8.097551 7.973684 55.973690 118 99 110
8.109056 8.105844 56.053219 133 117 131
8.119424 8.237194 56.124878 146 131 148
8.128476 8.367499 56.187454 150 135 155
8.136076 8.496557 56.239986 146 131 151
8.142134 8.624207 56.281860 140 126 145
8.146606 8.750337 56.312778 157 143 159
8.149508 8.874888 56.332840 203 190 202
8.150906 8.997866 56.342495 242 234 240
8.150918 9.119334 56.342579 246 239 240
8.149713 9.239424 56.334248 209 195 197
8.147500 9.358319 56.318954 141 122 126
8.144525 9.476263 56.298389 80 60 64
8.141059 9.593539 56.274433 54 36 39
8.137391 9.710471 56.249081 54 38 41
8.133821 9.827412 56.224400 55 44 45
8.130645 9.944727 56.202442 53 44 45
8.128151 10.062794 56.185207 50 43 44
8.126616 10.181987 56.174599 45 40 41
8.126290 10.302668 56.172348 42 38 38
8.127399 10.425179 56.180008 41 37 37
8.130134 10.549831 56.198910 41 36 36
8.134651 10.676908 56.230141 42 36 36
8.141069 10.806640 56.274506 42 36 37
8.149470 10.939225 56.332573 43 36 37
8.159892 11.074804 56.404613 43 36 37
8.172339 11.213472 56.490654 43 36 37
8.186775 11.355271 56.590446 43 35 36
8.203133 11.500193 56.703514 42 34 35
8.221313 11.648185 56.829182 42 33 34
8.241193 11.799151 56.966599 41 32 33
8.262626 11.952958 57.114754 41 31 32
8.285458 12.109447 57.272579 41 31 31
8.309520 12.268435 57.438904 41 32 30
8.334645 12.429723 57.612579 42 32 29
8.360668 12.593114 57.792465 42 32 29
8.387434 12.758409 57.977478 41 33 29
8.414797 12.925418 58.166622 42 33 29
8.442630 13.093973 58.359016 42 34 30
8.470824 13.263924 58.553909 41 34 30
8.499290 13.435143 58.750675 37 30 27
8.527957 13.607532 58.948830 34 27 25
8.556768 13.781008 59.147991 33 26 24
8.585688 13.955517 59.347889 33 24 24
8.614686 14.131020 59.548344 34 23 24
8.643749 14.307491 59.749237 37 23 26
8.672860 14.484910 59.950466 40 25 28
8.702011 14.663263 60.151970 43 27 31
8.731187 14.842528 60.353645 46 30 34
8.760375 15.022684 60.555408 48 35 37
8.789556 15.203696 60.757114 48 37 40
8.818705 15.385522 60.958603 44 38 39
8.847790 15.568106 61.159657 51 46 47
8.876779 15.751385 61.360039 104 98 99
8.905633 15.935287 61.559490 181 177 178
8.934315 16.119736 61.757748 223 219 221
8.962785 16.304655 61.954544 214 203 208
8.991003 16.489964 62.149601 179 158 167
9.018934 16.675581 62.342678 146 118 129
9.046546 16.861435 62.533539 126 95 107
9.073808 17.047455 62.721985 116 82 94
9.100694 17.233574 62.907829 111 76 88
9.127177 17.419727 63.090897 111 76 86
9.153232 17.605844 63.270996 113 79 88
9.178830 17.791855 63.447945 113 78 87
9.203940 17.977674 63.621517 106 71 80
9.228527 18.163210 63.791470 99 64 75
9.252547 18.348356 63.957504 98 63 74
9.275953 18.532991 64.119301 98 64 74
9.298690 18.716976 64.276459 98 64 74
9.320700 18.900166 64.428604 98 64 75
9.341921 19.082401 64.575294 99 65 76
9.362290 19.263515 64.716095 99 66 77
9.381750 19.443350 64.850609 99 66 77
9.400244 19.621750 64.978447 99 66 77
9.417727 19.798578 65.099304 100 67 77
9.434163 19.973707 65.212914 100 67 78
9.449528 20.147041 65.319122 99 67 77
9.463812 20.318516 65.417854 96 65 74
9.477018 20.488085 65.509148 93 63 72
9.489163 20.655737 65.593102 91 61 72
9.500274 20.821484 65.669899 91 61 73
9.510386 20.985361 65.739799 90 61 74
9.519546 21.147421 65.803108 90 61 74
9.527798 21.307724 65.860153 89 61 74
9.535192 21.466345 65.911270 89 60 74
9.541772 21.623337 65.956749 89 59 74
9.547581 21.778769 65.996902 89 59 74
9.552660 21.932697 66.032013 90 60 73
9.557037 22.085155 66.062271 90 60 72
9.560739 22.236172 66.087860 90 60 70
9.563781 22.385756 66.108887 90 61 69
9.566175 22.533901 66.125427 90 62 68
9.567925 22.680597 66.137535 90 63 68
9.569039 22.825825 66.145233 90 64 68
9.569515 22.969555 66.148529 88 63 67
9.569353 23.111755 66.147400 84 60 65
9.568549 23.252394 66.141846 82 58 63
9.567104 23.391441 66.131859 81 57 62
9.565015 23.528860 66.117416 81 57 62
9.562277 23.664610 66.098488 81 57 62
9.558882 23.798643 66.075020 80 57 62
9.554819 23.930904 66.046936 79 57 61
9.550072 24.061317 66.014122 75 54 57
9.544612 24.189783 65.976379 73 53 55
9.538405 24.316185 65.933479 72 52 54
9.531410 24.440376 65.885124 72 52 53
9.523573 24.562191 65.830948 71 52 52
9.514840 24.681446 65.770584 71 52 52
9.505151 24.797949 65.703613 70 52 52
9.494450 24.911507 65.629639 69 50 51
9.482684 25.021936 65.548309 66 48 49
9.469817 25.129093 65.459373 63 47 47
9.455829 25.232872 65.362679 61 45 46
9.440726 25.333246 65.258286 60 45 46
7.968566 -1.628141 54.273369 74 45 49
7.965727 -1.510608 54.254036 74 45 48
7.963313 -1.393232 54.237591 74 46 49
7.961352 -1.276000 54.224236 74 46 49
7.959866 -1.158894 54.214115 73 46 49
7.958867 -1.041896 54.207310 73 46 50
7.958364 -0.924985 54.203884 72 46 50
7.958355 -0.808139 54.203827 72 46 50
7.958834 -0.691335 54.207081 71 46 50
7.959781 -0.574551 54.213535 72 46 50
7.961175 -0.457765 54.223026 72 47 50
7.962984 -0.340956 54.235348 73 47 50
7.965170 -0.224105 54.250240 74 47 50
7.967690 -0.107193 54.267406 75 47 50
7.970497 0.009792 54.286518 76 47 50
7.973537 0.126864 54.307228 76 47 51
7.976758 0.244031 54.329163 76 46 51
7.980101 0.361298 54.351933 75 46 51
7.983512 0.478667 54.375168 75 46 52
7.986935 0.596137 54.398479 76 46 53
7.990319 0.713704 54.421528 77 47 54
7.993614 0.831361 54.443970 78 48 55
7.996775 0.949099 54.465500 79 49 55
7.999765 1.066907 54.485863 80 50 56
8.002549 1.184772 54.504826 81 50 56
8.005103 1.302682 54.522221 82 50 56
8.007407 1.420622 54.537910 83 50 55
8.009449 1.538580 54.551819 83 51 55
8.011225 1.656542 54.563911 85 52 54
8.012734 1.774498 54.574196 87 53 55
8.013986 1.892437 54.582722 89 53 56
8.014992 2.010351 54.589569 92 53 56
8.015767 2.128234 54.594849 94 53 56
8.016333 2.246080 54.598705 95 53 57
8.016709 2.363888 54.601265 96 54 58
8.016919 2.481655 54.602699 98 55 59
8.016987 2.599382 54.603161 99 56 62
8.016934 2.717070 54.602798 101 58 64
8.016780 2.834721 54.601749 104 60 66
8.016545 2.952337 54.600151 107 63 69
8.016248 3.069923 54.598122 110 65 71
8.015900 3.187480 54.595757 111 66 71
8.015518 3.305012 54.593155 111 66 72
8.015113 3.422523 54.590397 112 66 74
8.014695 3.540018 54.587555 114 67 76
8.014277 3.657499 54.584698 116 68 78
8.013866 3.774972 54.581905 118 69 80
8.013479 3.892444 54.579266 119 69 82
8.013125 4.009922 54.576859 119 69 82
8.012823 4.127415 54.574802 119 69 82
8.012593 4.244938 54.573235 119 68 82
8.012458 4.362506 54.572311 118 67 81
8.012444 4.480137 54.572212 117 68 81
8.012583 4.597857 54.573162 119 70 81
8.012911 4.715691 54.575397 120 71 81
8.013471 4.833675 54.579212 120 71 81
8.014312 4.951849 54.584938 120 71 80
8.015484 5.070257 54.592922 118 71 79
8.017045 5.188951 54.603554 116 71 80
8.019056 5.307990 54.617256 116 72 82
8.021585 5.427437 54.634476 115 74 85
8.024697 5.547362 54.655674 115 76 90
8.028462 5.667839 54.681316 113 77 94
8.032947 5.788945 54.711861 113 79 99
8.038216 5.910760 54.747749 116 85 107
8.044327 6.033361 54.789368 119 91 116
8.051326 6.156821 54.837036 118 93 119
8.059249 6.281206 54.891003 113 89 117
8.068115 6.406573 54.951389 109 85 113
8.077920 6.532959 55.018173 118 93 122
8.088637 6.660385 55.091164 138 112 140
8.100211 6.788843 55.169994 147 120 147
8.112559 6.918301 55.254097 141 114 139
8.125565 7.048692 55.342678 134 106 128
8.139085 7.179919 55.434761 135 107 125
8.152943 7.311846 55.529144 143 115 128
8.166941 7.444307 55.624485 145 118 126
8.180855 7.577103 55.719257 134 109 114
8.194455 7.710011 55.811886 121 99 101
8.207500 7.842787 55.900730 117 99 101
8.219753 7.975180 55.984192 130 113 118
8.230995 8.106936 56.060757 152 137 146
8.241026 8.237810 56.129074 164 150 164
8.249682 8.367585 56.188030 158 145 162
8.256840 8.496073 56.236782 149 135 154
8.262424 8.623127 56.274811 150 137 155
8.266410 8.748656 56.301964 170 156 173
8.268831 8.872622 56.318459 207 193 207
8.269774 8.995052 56.324883 238 228 238
8.269379 9.116033 56.322182 239 232 237
8.267827 9.235711 56.311611 189 178 182
8.265346 9.354292 56.294712 108 91 98
8.262194 9.472031 56.273247 58 40 46
8.258652 9.589225 56.249126 49 34 38
8.255016 9.706203 56.224361 53 39 43
8.251588 9.823324 56.201015 53 43 45
8.248667 9.940952 56.181114 51 43 45
8.246535 10.059462 56.166599 49 43 44
8.245464 10.179215 56.159306 45 40 42
8.245698 10.300568 56.160892 43 39 40
8.247448 10.423843 56.172813 42 38 39
8.250896 10.549340 56.196293 41 37 38
8.256184 10.677320 56.232311 42 37 37
8.263415 10.807997 56.281570 42 36 37
8.272660 10.941547 56.344532 43 36 37
8.283939 11.078092 56.421356 43 36 37
8.297245 11.217706 56.511978 43 36 37
8.312528 11.360413 56.616066 43 35 36
8.329707 11.506188 56.733078 43 34 35
8.348673 11.654963 56.862255 42 33 34
8.369296 11.806631 57.002712 42 32 32
8.391422 11.961049 57.153416 41 32 31
8.414890 12.118049 57.313255 41 32 31
8.439530 12.277441 57.481075 41 32 30
8.465175 12.439034 57.655739 41 32 29
8.491658 12.602625 57.836113 41 32 28
8.518826 12.768019 58.021149 41 32 28
8.546537 12.935034 58.209892 41 33 28
8.574670 13.103506 58.401505 42 34 30
8.603121 13.273295 58.595280 41 33 30
8.631804 13.444283 58.790642 37 30 26
8.660657 13.616378 58.987156 33 26 24
8.689628 13.789508 59.184475 32 24 23
8.718686 13.963629 59.382389 33 24 24
8.747809 14.138708 59.580746 36 24 25
8.776985 14.314728 59.779461 38 24 27
8.806205 14.491675 59.978466 41 26 29
8.835461 14.669543 60.177731 44 28 31
8.864743 14.848314 60.377174 46 31 33
8.894041 15.027971 60.576721 46 35 35
8.923336 15.208483 60.776245 46 38 37
8.952605 15.389811 60.975594 45 40 38
8.981817 15.571898 61.174557 69 66 64
9.010939 15.754686 61.372902 143 140 139
9.039931 15.938101 61.570366 209 206 208
9.068754 16.122066 61.766678 223 217 221
9.097367 16.306501 61.961555 196 183 191
9.125729 16.491323 62.154728 162 141 154
9.153802 16.676451 62.345928 138 111 126
9.181549 16.861805 62.534912 122 91 107
9.208941 17.047316 62.721478 111 78 93
9.235945 17.232908 62.905403 107 73 86
9.262537 17.418518 63.086514 108 73 84
9.288687 17.604071 63.264622 109 75 83
9.314366 17.789494 63.439526 108 74 81
9.339543 17.974703 63.611000 103 68 76
9.364181 18.159605 63.778805 99 65 73
9.388237 18.344095 63.942654 99 64 73
9.411664 18.528053 64.102211 99 64 74
9.434407 18.711344 64.257118 98 64 74
9.456411 18.893826 64.406982 98 64 74
9.477615 19.075340 64.551399 98 65 75
9.497957 19.255732 64.689949 99 66 76
9.517381 19.434843 64.822235 99 66 77
9.535830 19.612526 64.947899 100 66 77
9.553265 19.788645 65.066643 100 67 78
9.569647 19.963079 65.178223 99 66 77
9.584955 20.135742 65.282486 97 66 75
9.599181 20.306564 65.379379 95 65 73
9.612331 20.475512 65.468941 93 63 71
9.624419 20.642567 65.551277 91 62 70
9.635475 20.807747 65.626572 90 62 70
9.645535 20.971090 65.695099 89 61 71
9.654647 21.132650 65.757156 88 61 71
9.662855 21.292488 65.813057 88 61 71
9.670211 21.450676 65.863159 88 60 71
9.676755 21.607265 65.907722 88 59 71
9.682534 21.762331 65.947090 88 59 71
9.687588 21.915922 65.981506 89 60 71
9.691943 22.068075 66.011177 91 61 71
9.695628 22.218817 66.036278 91 61 71
9.698658 22.368156 66.056908 91 62 70
9.701042 22.516085 66.073143 91 62 68
9.702787 22.662594 66.085037 91 63 68
9.703897 22.807657 66.092590 92 64 68
9.704371 22.951254 66.095825 90 63 67
9.704208 23.093348 66.094711 86 60 65
9.703405 23.233900 66.089241 83 58 63
9.701960 23.372885 66.079399 82 57 62
9.699867 23.510258 66.065147 82 58 61
9.697124 23.645981 66.046455 81 58 61
9.693719 23.780003 66.023270 80 57 60
9.689642 23.912266 65.995499 78 56 59
9.684872 24.042688 65.963013 75 55 56
9.679383 24.171175 65.925629 73 54 55
9.673138 24.297600 65.883087 72 53 54
9.666090 24.421818 65.835091 71 53 53
9.658190 24.543659 65.781281 71 53 52
9.649381 24.662945 65.721283 71 53 52
9.639600 24.779476 65.654671 71 53 52
9.628790 24.893061 65.581047 69 51 51
9.616901 25.003521 65.500069 67 49 50
9.603895 25.110712 65.411491 65 47 48
9.589754 25.214533 65.315170 63 46 46
9.574484 25.314957 65.211166 62 46 46
8.088476 -1.628728 54.292934 74 45 49
8.085515 -1.511137 54.273060 75 46 48
8.082988 -1.393707 54.256092 75 46 49
8.080920 -1.276423 54.242218 74 47 49
8.079337 -1.159268 54.231586 74 47 49
8.078251 -1.042223 54.224297 73 46 49
8.077670 -0.925267 54.220398 72 46 50
8.077593 -0.808378 54.219883 71 46 50
8.078012 -0.691534 54.222702 71 46 50
8.078913 -0.574712 54.228741 71 46 50
8.080269 -0.457890 54.237846 72 47 50
8.082051 -0.341047 54.249809 72 47 50
8.084222 -0.224163 54.264378 74 47 50
8.086738 -0.107221 54.281265 75 47 50
8.089551 0.009795 54.300148 75 47 50
8.092607 0.126896 54.320667 75 46 50
8.095855 0.244091 54.342461 75 45 50
8.099234 0.361385 54.365143 74 45 50
8.102690 0.478783 54.388340 74 45 50
8.106166 0.596281 54.411678 74 46 52
8.109609 0.713877 54.434788 75 47 53
8.112968 0.831565 54.457336 77 48 54
8.116197 0.949334 54.479004 78 49 55
8.119254 1.067174 54.499527 79 49 56
8.122106 1.185073 54.518669 80 49 55
8.124722 1.303017 54.536236 82 49 54
8.127085 1.420991 54.552090 83 50 54
8.129176 1.538983 54.566128 84 50 54
8.130991 1.656979 54.578312 86 51 54
8.132527 1.774967 54.588627 88 52 55
8.133792 1.892936 54.597111 90 52 55
8.134794 2.010877 54.603840 93 53 56
8.135550 2.128782 54.608910 95 53 56
8.136077 2.246646 54.612450 96 53 56
8.136396 2.364465 54.614594 96 53 57
8.136532 2.482237 54.615501 98 54 59
8.136504 2.599961 54.615318 99 55 62
8.136338 2.717637 54.614201 101 57 64
8.136054 2.835268 54.612293 104 59 67
8.135674 2.952856 54.609745 106 61 69
8.135217 3.070403 54.606674 109 63 71
8.134699 3.187914 54.603199 110 64 72
8.134136 3.305392 54.599422 110 64 72
8.133544 3.422840 54.595444 112 65 74
8.132935 3.540265 54.591358 114 66 76
8.132325 3.657671 54.587265 116 67 78
8.131725 3.775064 54.583241 117 68 80
8.131154 3.892454 54.579407 118 68 81
8.130627 4.009849 54.575867 118 68 81
8.130165 4.127262 54.572769 117 67 80
8.129790 4.244706 54.570255 115 66 79
8.129532 4.362202 54.568516 115 66 79
8.129416 4.479770 54.567745 116 68 80
8.129482 4.597437 54.568184 118 70 81
8.129766 4.715233 54.570095 120 72 81
8.130317 4.833195 54.573788 120 72 81
8.131180 4.951363 54.579578 119 71 80
8.132413 5.069787 54.587852 117 70 78
8.134072 5.188518 54.598991 115 70 78
8.136221 5.307617 54.613419 114 70 81
8.138926 5.427148 54.631573 113 72 84
8.142254 5.547183 54.653912 113 75 89
8.146270 5.667793 54.680870 112 77 94
8.151042 5.789055 54.712902 112 80 100
8.156629 5.911047 54.750397 114 86 109
8.163083 6.033841 54.793724 118 93 118
8.170448 6.157508 54.843166 121 98 125
8.178753 6.282111 54.898911 117 96 123
8.188007 6.407696 54.961025 109 88 115
8.198197 6.534296 55.029427 118 97 124
8.209289 6.661921 55.103870 145 124 150
8.221214 6.790557 55.183926 157 135 161
8.233883 6.920162 55.268963 144 121 145
8.247166 7.050659 55.358120 132 107 128
8.260908 7.181940 55.450363 139 112 129
8.274926 7.313862 55.544460 149 122 134
8.289013 7.446252 55.639015 144 118 124
8.302940 7.578904 55.732502 129 105 106
8.316473 7.711593 55.823338 119 98 96
8.329368 7.844073 55.909893 122 104 102
8.341395 7.976097 55.990627 141 125 126
8.352338 8.107414 56.064072 164 150 156
8.362005 8.237794 56.128963 170 158 170
8.370246 8.367026 56.184280 159 149 164
8.376953 8.494943 56.229301 156 145 164
8.382067 8.621414 56.263626 174 162 180
8.385583 8.746367 56.287228 197 184 201
8.387554 8.869787 56.300461 215 200 217
8.388084 8.991720 56.304020 229 218 231
8.387331 9.112274 56.298962 225 216 225
8.385495 9.231616 56.286644 169 156 165
8.382817 9.349963 56.268665 88 70 80
8.379566 9.467587 56.246841 48 30 39
8.376032 9.584791 56.223118 49 34 40
8.372516 9.701915 56.199512 52 40 44
8.369318 9.819310 56.178051 51 41 44
8.366737 9.937346 56.160732 49 41 43
8.365054 10.056386 56.149433 47 41 43
8.364529 10.176786 56.145908 45 40 41
8.365396 10.298885 56.151726 43 38 40
8.367858 10.422997 56.168255 42 38 40
8.372081 10.549397 56.196598 42 37 38
8.378195 10.678330 56.237633 42 37 37
8.386288 10.809992 56.291958 42 36 37
8.396411 10.944534 56.359913 43 36 37
8.408577 11.082061 56.441574 43 36 37
8.422760 11.222628 56.536774 43 36 37
8.438898 11.366239 56.645103 43 35 36
8.456902 11.512856 56.765949 43 34 35
8.476651 11.662395 56.898518 42 33 33
8.498005 11.814738 57.041851 42 33 32
8.520809 11.969735 57.194920 41 32 31
8.544894 12.127211 57.356586 41 32 30
8.570090 12.286975 57.525711 41 32 29
8.596229 12.448834 57.701164 41 32 28
8.623145 12.612588 57.881836 40 31 27
8.650689 12.778048 58.066723 40 32 27
8.678724 12.945037 58.254910 40 32 27
8.707133 13.113400 58.445595 40 32 28
8.735817 13.283003 58.638134 39 32 28
8.764698 13.453739 58.831993 36 29 26
8.793716 13.625525 59.026775 33 25 24
8.822829 13.798296 59.222191 33 24 24
8.852009 13.972016 59.418056 34 24 25
8.881239 14.146662 59.614262 36 24 26
8.910512 14.322222 59.810753 39 25 28
8.939822 14.498689 60.007492 42 27 29
8.969166 14.676059 60.204460 43 30 31
8.998535 14.854321 60.401600 44 33 33
9.027922 15.033462 60.598850 45 36 34
9.057306 15.213449 60.796093 43 37 35
9.086670 15.394252 60.993191 46 43 40
9.115980 15.575812 61.189934 93 91 89
9.145203 15.758070 61.386082 180 179 178
9.174298 15.940954 61.581387 223 220 222
9.203226 16.124386 61.775558 208 199 207
9.231944 16.308283 61.968330 175 159 172
9.260408 16.492561 62.159393 151 127 145
9.288581 16.677137 62.348499 135 106 127
9.316423 16.861931 62.535385 120 89 109
9.343902 17.046867 62.719826 108 75 93
9.370984 17.231871 62.901615 104 70 86
9.397642 17.416874 63.080559 105 71 83
9.423847 17.601799 63.256454 105 71 80
9.449571 17.786575 63.429115 105 70 77
9.474776 17.971115 63.598309 102 67 74
9.499431 18.155333 63.763798 99 65 73
9.523490 18.339117 63.925297 99 65 73
9.546908 18.522352 64.082489 99 65 73
9.569633 18.704910 64.235023 98 64 73
9.591607 18.886648 64.382523 97 63 73
9.612772 19.067417 64.524590 97 64 74
9.633069 19.247063 64.660828 98 65 75
9.652440 19.425436 64.790855 99 66 76
9.670835 19.602388 64.914330 100 66 77
9.688210 19.777792 65.030960 100 66 77
9.704532 19.951530 65.140511 99 66 76
9.719779 20.123522 65.242867 97 65 74
9.733946 20.293699 65.337959 95 64 71
9.747038 20.462029 65.425835 92 63 69
9.759072 20.628502 65.506615 91 62 68
9.770078 20.793135 65.580482 89 61 68
9.780093 20.955965 65.647713 88 61 68
9.789164 21.117044 65.708595 87 61 69
9.797337 21.276442 65.763458 87 61 69
9.804663 21.434219 65.812630 87 60 68
9.811184 21.590441 65.856407 86 58 68
9.816946 21.745169 65.895081 86 58 68
9.821987 21.898457 65.928925 88 59 69
9.826339 22.050341 65.958130 91 61 71
9.830024 22.200846 65.982864 93 62 71
9.833057 22.349979 66.003235 93 62 70
9.835452 22.497736 66.019302 93 63 69
9.837211 22.644102 66.031113 92 63 68
9.838338 22.789053 66.038673 92 63 67
9.838832 22.932560 66.041992 91 63 67
9.838690 23.074593 66.041039 87 60 65
9.837909 23.215111 66.035797 84 58 62
9.836485 23.354080 66.026237 83 58 61
9.834412 23.491459 66.012321 83 58 60
9.831684 23.627205 65.994011 82 58 60
9.828292 23.761263 65.971237 79 56 58
9.824220 23.893572 65.943909 77 55 56
9.819448 24.024050 65.911873 75 55 55
9.813945 24.152590 65.874939 73 54 54
9.807675 24.279076 65.832855 72 55 54
9.800591 24.403347 65.785301 71 55 53
9.792638 24.525240 65.731918 71 55 52
9.783759 24.644571 65.672318 71 54 52
9.773892 24.761143 65.606087 70 53 51
9.762980 24.874763 65.532837 69 51 50
9.750969 24.985254 65.452217 67 49 49
9.737823 25.092472 65.363976 65 47 48
9.723523 25.196321 65.267990 64 46 46
9.708081 25.296780 65.164345 63 46 46
8.205714 -1.511728 54.294262 76 47 50
8.203074 -1.394239 54.276791 76 47 50
8.200901 -1.276898 54.262417 75 47 49
8.199220 -1.159689 54.251293 74 47 49
8.198044 -1.042592 54.243515 74 47 49
8.197382 -0.925586 54.239136 72 46 50
8.197233 -0.808650 54.238148 71 46 50
8.197590 -0.691761 54.240509 71 47 51
8.198436 -0.574896 54.246101 71 46 50
8.199747 -0.458033 54.254780 71 47 51
8.201495 -0.341151 54.266346 71 47 51
8.203640 -0.224230 54.280540 73 47 51
8.206141 -0.107252 54.297089 74 47 50
8.208948 0.009798 54.315662 74 47 50
8.212010 0.126931 54.335922 75 46 49
8.215271 0.244158 54.357494 74 45 49
8.218675 0.361484 54.380016 73 44 49
8.222162 0.478912 54.403091 73 44 50
8.225677 0.596442 54.426350 74 45 51
8.229166 0.714070 54.449436 74 46 52
8.232574 0.831789 54.471989 76 47 53
8.235856 0.949590 54.493702 77 48 54
8.238969 1.067464 54.514294 78 48 54
8.241875 1.185396 54.533524 79 48 54
8.244543 1.303374 54.551178 81 49 53
8.246950 1.421383 54.567108 83 49 53
8.249081 1.539408 54.581203 84 49 53
8.250924 1.657438 54.593403 86 50 53
8.252481 1.775457 54.603699 89 50 54
8.253749 1.893455 54.612091 91 51 54
8.254741 2.011422 54.618652 93 52 55
8.255470 2.129350 54.623482 95 53 55
8.255953 2.247231 54.626678 96 53 55
8.256211 2.365062 54.628384 97 53 57
8.256265 2.482838 54.628738 98 54 59
8.256140 2.600560 54.627911 99 55 62
8.255857 2.718227 54.626045 101 56 65
8.255442 2.835839 54.623291 104 58 67
8.254913 2.953399 54.619793 106 60 69
8.254293 3.070910 54.615692 108 61 71
8.253601 3.188376 54.611111 110 62 72
8.252855 3.305800 54.606178 110 63 73
8.252073 3.423189 54.601002 111 64 74
8.251270 3.540545 54.595692 113 65 76
8.250464 3.657878 54.590359 115 66 79
8.249673 3.775194 54.585121 116 67 81
8.248915 3.892504 54.580105 116 67 81
8.248209 4.009817 54.575439 116 66 80
8.247582 4.127150 54.571289 114 64 78
8.247058 4.244517 54.567822 113 63 77
8.246671 4.361942 54.565258 113 65 78
8.246450 4.479447 54.563801 115 67 79
8.246437 4.597060 54.563709 117 70 81
8.246673 4.714816 54.565269 119 72 81
8.247205 4.832752 54.568790 119 72 81
8.248086 4.950913 54.574623 117 70 78
8.249372 5.069348 54.583138 115 69 77
8.251123 5.188112 54.594723 114 69 78
8.253405 5.307266 54.609814 113 70 80
8.256278 5.426876 54.628822 111 72 82
8.259812 5.547010 54.652210 111 74 87
8.264071 5.667743 54.680389 110 77 92
8.269118 5.789149 54.713787 110 81 99
8.275010 5.911303 54.752769 111 86 106
8.281794 6.034274 54.797657 116 94 117
8.289508 6.158129 54.848694 126 107 130
8.298170 6.282923 54.906010 124 108 131
8.307787 6.408700 54.969639 112 97 120
8.318333 6.535482 55.039421 116 101 123
8.329763 6.663273 55.115055 143 128 150
8.342004 6.792048 55.196045 162 146 167
8.354950 6.921757 55.281700 149 130 150
8.368464 7.052314 55.371117 128 107 125
8.382380 7.183602 55.463196 133 110 124
8.396508 7.315471 55.556679 147 122 132
8.410633 7.447741 55.650135 141 116 120
8.424522 7.580201 55.742039 122 98 98
8.437939 7.712625 55.830807 116 94 92
8.450642 7.844770 55.914864 128 110 107
8.462404 7.976390 55.992691 152 137 137
8.473016 8.107245 56.062904 168 156 161
8.482300 8.237113 56.124329 164 154 165
8.490116 8.365801 56.176052 153 144 160
8.496375 8.493154 56.217461 160 151 169
8.501033 8.619062 56.248280 192 181 199
8.504106 8.743474 56.268612 221 209 226
8.505664 8.866395 56.278927 226 211 229
8.505832 8.987890 56.280033 217 203 218
8.504783 9.108088 56.273090 197 183 195
8.502733 9.227170 56.259533 141 124 137
8.499936 9.345370 56.241024 75 56 68
8.496670 9.462969 56.219410 49 31 40
8.493229 9.580278 56.196644 50 37 43
8.489920 9.697639 56.174747 51 41 44
8.487041 9.815405 56.155708 50 41 43
8.484890 9.933938 56.141468 48 41 41
8.483738 10.053596 56.133850 46 40 41
8.483837 10.174720 56.134502 45 40 40
8.485412 10.297638 56.144920 43 38 40
8.488651 10.422645 56.166355 43 38 39
8.493707 10.550000 56.199806 43 37 38
8.500693 10.679926 56.246037 42 36 37
8.509687 10.812600 56.305542 42 36 37
8.520721 10.948154 56.378555 42 36 36
8.533795 11.086673 56.465061 43 35 36
8.548870 11.228190 56.564800 43 35 37
8.565871 11.372698 56.677292 43 35 36
8.584697 11.520138 56.801857 43 34 35
8.605220 11.670417 56.937653 42 33 33
8.627294 11.823406 57.083702 41 32 32
8.650755 11.978948 57.238941 41 32 31
8.675437 12.136865 57.402248 40 32 31
8.701164 12.296965 57.572479 40 32 30
8.727771 12.459053 57.748528 40 32 28
8.755097 12.622937 57.929333 39 31 27
8.782992 12.788430 58.113907 39 31 26
8.811329 12.955367 58.301395 39 31 27
8.839991 13.123596 58.491043 39 31 27
8.868888 13.292996 58.682247 38 31 27
8.897947 13.463465 58.874523 36 28 25
8.927115 13.634929 59.067520 34 25 24
8.956353 13.807332 59.260975 33 24 24
8.985641 13.980647 59.454762 34 24 25
9.014966 14.154856 59.648788 35 25 26
9.044321 14.329949 59.843025 38 26 27
9.073706 14.505927 60.037453 40 29 29
9.103121 14.682792 60.232079 41 33 31
9.132559 14.860534 60.426861 41 35 31
9.162011 15.039139 60.621738 40 36 31
9.191463 15.218584 60.816612 38 35 29
9.220893 15.398831 61.011337 46 44 40
9.250271 15.579831 61.205719 110 108 105
9.279561 15.761520 61.399525 199 198 196
9.308725 15.943829 61.592491 223 218 222
9.337720 16.126677 61.784340 186 174 184
9.366503 16.309982 61.974781 150 130 147
9.395027 16.493656 62.163525 137 112 133
9.423256 16.677620 62.350300 131 101 125
9.451148 16.861788 62.534851 117 85 109
9.478667 17.046082 62.716938 104 71 92
9.505783 17.230429 62.896351 101 67 85
9.532465 17.414757 63.072895 101 68 81
9.558682 17.598991 63.246368 101 68 77
9.584406 17.783058 63.416573 101 68 74
9.609603 17.966873 63.583290 99 66 72
9.634237 18.150347 63.746288 98 65 72
9.658267 18.333376 63.905289 98 64 72
9.681646 18.515846 64.059975 98 65 73
9.704324 18.697630 64.210022 97 64 73
9.726243 18.878592 64.355057 96 62 72
9.747348 19.058584 64.494698 96 63 73
9.767580 19.237461 64.628571 97 64 74
9.786884 19.415073 64.756294 97 64 75
9.805210 19.591282 64.877556 98 65 76
9.822516 19.765963 64.992065 98 65 76
9.838771 19.939005 65.099617 98 65 75
9.853953 20.110321 65.200073 96 64 73
9.868058 20.279860 65.293396 94 63 70
9.881093 20.447582 65.379646 92 62 68
9.893075 20.613485 65.458923 90 61 67
9.904034 20.777584 65.531433 89 61 67
9.914010 20.939917 65.597443 88 60 66
9.923047 21.100540 65.657242 87 60 66
9.931194 21.259516 65.711143 86 60 66
9.938501 21.416912 65.759491 86 59 66
9.945010 21.572786 65.802559 85 58 65
9.950768 21.727207 65.840660 86 57 66
9.955812 21.880224 65.874039 88 58 68
9.960173 22.031872 65.902885 90 61 70
9.963874 22.182175 65.927376 92 62 70
9.966930 22.331142 65.947601 93 63 70
9.969352 22.478762 65.963623 93 63 69
9.971145 22.625025 65.975479 93 63 68
9.972307 22.769901 65.983177 92 62 67
9.972842 22.913366 65.986710 91 62 66
9.972742 23.055382 65.986053 88 60 64
9.972005 23.195910 65.981171 85 58 62
9.970623 23.334909 65.972031 84 58 60
9.968592 23.472340 65.958588 84 59 60
9.965901 23.608150 65.940788 83 59 59
9.962541 23.742287 65.918549 80 57 58
9.958493 23.874681 65.891769 77 56 56
9.953736 24.005251 65.860298 75 56 55
9.948237 24.133884 65.823914 74 56 54
9.941958 24.260456 65.782372 73 56 53
9.934849 24.384809 65.735329 71 56 53
9.926854 24.506777 65.682426 71 56 53
9.917915 24.626171 65.623283 71 55 52
9.907969 24.742794 65.557472 69 53 51
9.896956 24.856453 65.484604 68 51 50
9.884825 24.966974 65.404335 66 49 49
9.871538 25.074217 65.316422 65 47 48
9.857080 25.178083 65.220757 65 47 47
9.841460 25.278561 65.117409 64 46 47
8.326367 -1.512384 54.317837 77 48 51
8.323616 -1.394832 54.299889 77 47 51
8.321340 -1.277430 54.285034 76 47 50
8.319561 -1.160162 54.273430 75 47 50
8.318295 -1.043008 54.265171 74 47 49
8.317549 -0.925948 54.260303 72 46 50
8.317324 -0.808959 54.258835 71 46 50
8.317611 -0.692019 54.260712 70 46 50
8.318395 -0.575105 54.265823 70 46 50
8.319654 -0.458196 54.274040 70 47 51
8.321358 -0.341269 54.285149 70 47 51
8.323467 -0.224306 54.298916 71 47 51
8.325942 -0.107287 54.315056 72 47 50
8.328732 0.009801 54.333260 73 47 50
8.331785 0.126972 54.353176 74 46 50
8.335046 0.244234 54.374447 73 45 50
8.338456 0.361595 54.396698 73 45 49
8.341960 0.479057 54.419556 73 45 50
8.345499 0.596621 54.442638 73 45 50
8.349016 0.714281 54.465584 74 46 51
8.352458 0.832034 54.488037 75 47 52
8.355777 0.949869 54.509689 76 48 53
8.358927 1.067776 54.530239 78 48 53
8.361871 1.185742 54.549442 79 48 53
8.364574 1.303754 54.567081 80 48 52
8.367014 1.421796 54.582996 82 48 52
8.369170 1.539856 54.597061 84 48 52
8.371032 1.657917 54.609203 86 49 53
8.372593 1.775967 54.619389 88 49 53
8.373857 1.893994 54.627632 90 50 53
8.374829 2.011987 54.633980 93 51 54
8.375524 2.129936 54.638508 95 53 54
8.375956 2.247834 54.641323 96 53 55
8.376145 2.365676 54.642563 97 53 57
8.376115 2.483458 54.642368 98 54 59
8.375887 2.601177 54.640877 100 55 62
8.375485 2.718834 54.638260 101 56 65
8.374933 2.836429 54.634659 103 57 66
8.374254 2.953964 54.630230 104 57 68
8.373471 3.071440 54.625118 106 58 70
8.372603 3.188863 54.619457 108 60 72
8.371673 3.306237 54.613388 109 62 73
8.370698 3.423566 54.607029 110 62 74
8.369699 3.540858 54.600513 112 63 76
8.368697 3.658120 54.593975 113 64 79
8.367710 3.775361 54.587536 114 65 81
8.366762 3.892593 54.581356 114 65 81
8.365876 4.009827 54.575573 114 64 79
8.365081 4.127081 54.570381 112 62 77
8.364405 4.244373 54.565975 111 61 76
8.363884 4.361728 54.562576 112 63 77
8.363553 4.479169 54.560417 114 66 79
8.363456 4.596729 54.559780 115 69 80
8.363635 4.714443 54.560955 116 69 79
8.364145 4.832353 54.564278 116 69 78
8.365037 4.950503 54.570099 115 68 76
8.366370 5.068945 54.578796 114 68 76
8.368205 5.187736 54.590763 114 69 78
8.370605 5.306938 54.606426 113 70 80
8.373638 5.426616 54.626209 112 71 82
8.377368 5.546841 54.650539 110 73 85
8.381856 5.667684 54.679817 109 75 90
8.387162 5.789217 54.714432 108 79 96
8.393340 5.911515 54.754738 108 82 102
8.400434 6.034643 54.801006 114 92 113
8.408469 6.158661 54.853432 127 108 129
8.417463 6.283621 54.912102 130 114 134
8.427409 6.409557 54.976990 118 104 123
8.438274 6.536486 55.047871 115 102 120
8.450006 6.664403 55.124405 134 121 139
8.462518 6.793276 55.206024 155 141 158
8.475693 6.923044 55.291973 149 134 150
8.489388 7.053613 55.381310 127 109 124
8.503428 7.184859 55.472900 125 103 116
8.517612 7.316625 55.565434 137 113 122
8.531723 7.448725 55.657490 133 108 112
8.545527 7.580949 55.747540 115 92 91
8.558781 7.713067 55.834007 116 94 91
8.571253 7.844841 55.915371 140 121 119
8.582718 7.976030 55.990158 165 150 151
8.592977 8.106403 56.057083 171 160 165
8.601863 8.235752 56.115055 160 151 162
8.609255 8.363898 56.163273 152 144 160
8.615075 8.490705 56.201248 164 156 175
8.619301 8.616079 56.228813 197 187 205
8.621966 8.739991 56.246201 229 219 234
8.623160 8.862467 56.253990 228 216 231
8.623024 8.983589 56.253101 196 180 195
8.621748 9.103504 56.244774 153 136 150
8.619560 9.222408 56.230503 105 87 99
8.616725 9.340549 56.212009 64 46 57
8.613530 9.458215 56.191166 52 36 44
8.610273 9.575723 56.169922 53 40 46
8.607261 9.693413 56.150269 51 41 44
8.604792 9.811639 56.134159 49 41 42
8.603153 9.930754 56.123474 48 41 41
8.602613 10.051106 56.119949 47 40 40
8.603414 10.173028 56.125172 46 39 39
8.605762 10.296826 56.140495 44 39 39
8.609840 10.422782 56.167095 44 38 39
8.615780 10.551133 56.205845 43 37 37
8.623684 10.682085 56.257408 43 36 36
8.633613 10.815794 56.322174 42 36 36
8.645584 10.952372 56.400272 42 35 35
8.659582 11.091882 56.491592 42 35 35
8.675556 11.234344 56.595798 43 35 35
8.693420 11.379730 56.712341 43 35 36
8.713064 11.527972 56.840485 43 35 35
8.734350 11.678964 56.979347 42 34 34
8.757126 11.832567 57.127930 41 33 33
8.781227 11.988620 57.285156 41 32 32
8.806481 12.146940 57.449902 40 32 32
8.832718 12.307340 57.621056 40 32 31
8.859769 12.469625 57.797527 40 32 30
8.887478 12.633606 57.978294 39 31 28
8.915704 12.799107 58.162422 39 31 27
8.944319 12.965966 58.349094 39 31 27
8.973215 13.134043 58.537601 39 31 28
9.002308 13.303224 58.727398 37 29 27
9.031530 13.473414 58.918034 35 27 25
9.060834 13.644549 59.109196 34 25 24
9.090186 13.816583 59.300678 33 25 24
9.119570 13.989490 59.492363 34 25 25
9.148975 14.163256 59.684193 35 25 26
9.178401 14.337883 59.876156 36 27 27
9.207849 14.513371 60.068256 38 31 29
9.237318 14.689722 60.260509 39 34 31
9.266807 14.866932 60.452877 39 36 31
9.296306 15.044988 60.645313 37 36 30
9.325801 15.223869 60.837730 35 34 27
9.355271 15.403537 61.029980 56 53 48
9.384686 15.583942 61.221870 132 129 125
9.414010 15.765023 61.413170 209 207 205
9.443204 15.946710 61.603622 216 208 212
9.472225 16.128923 61.792946 164 149 160
9.501030 16.311579 61.980850 126 104 121
9.529572 16.494591 62.167046 121 94 115
9.557809 16.677876 62.351257 124 93 116
9.585703 16.861349 62.533226 113 81 103
9.613217 17.044935 62.712719 101 68 88
9.640318 17.228556 62.889515 99 66 83
9.666977 17.412142 63.063427 98 66 79
9.693163 17.595621 63.234253 98 65 75
9.718846 17.778915 63.401798 97 66 72
9.743993 17.961943 63.565845 97 65 70
9.768570 18.144619 63.726173 97 64 70
9.792534 18.326841 63.882511 97 63 70
9.815842 18.508499 64.034561 97 63 71
9.838442 18.689468 64.181992 96 63 72
9.860281 18.869617 64.324463 95 62 71
9.881304 19.048805 64.461609 95 62 72
9.901452 19.226887 64.593040 95 62 73
9.920673 19.403721 64.718437 95 63 73
9.938917 19.579172 64.837448 96 64 74
9.956144 19.753120 64.949837 96 64 74
9.972324 19.925457 65.055382 96 64 74
9.987436 20.096104 65.153969 95 64 72
10.001478 20.265003 65.245575 94 63 70
10.014455 20.432129 65.330231 92 62 68
10.026386 20.597469 65.408066 91 61 67
10.037303 20.761047 65.479279 89 60 65
10.047243 20.922899 65.544128 88 60 64
10.056254 21.083082 65.602913 87 60 64
10.064384 21.241657 65.655945 86 59 64
10.071681 21.398693 65.703552 86 58 64
10.078189 21.554247 65.746010 85 57 64
10.083955 21.708385 65.783615 86 57 65
10.089015 21.861156 65.816628 87 58 67
10.093398 22.012596 65.845222 89 60 69
10.097131 22.162727 65.869576 91 62 70
10.100225 22.311558 65.889763 92 62 70
10.102692 22.459076 65.905853 92 62 68
10.104534 22.605267 65.917870 92 62 67
10.105753 22.750107 65.925819 90 61 66
10.106346 22.893566 65.929695 89 60 65
10.106309 23.035603 65.929443 87 59 64
10.105634 23.176178 65.925049 85 57 62
10.104316 23.315248 65.916451 85 57 60
10.102345 23.452766 65.903595 84 59 60
10.099712 23.588684 65.886414 84 60 59
10.096404 23.722939 65.864830 81 58 58
10.092400 23.855455 65.838715 79 58 56
10.087676 23.986149 65.807892 76 57 55
10.082197 24.114904 65.772156 74 56 54
10.075923 24.241594 65.731224 73 56 53
10.068802 24.366055 65.684769 72 56 53
10.060776 24.488113 65.632408 72 56 53
10.051785 24.607586 65.573761 71 55 53
10.041765 24.724270 65.508392 69 53 52
10.030656 24.837975 65.435921 68 52 51
10.018406 24.948526 65.356003 66 50 50
10.004979 25.055786 65.268410 65 48 49
9.990358 25.159662 65.173035 65 47 48
8.447513 -1.513110 54.343918 78 48 52
8.444655 -1.395491 54.325535 77 47 52
8.442276 -1.278023 54.310230 76 47 51
8.440401 -1.160691 54.298164 75 47 51
8.439043 -1.043474 54.289429 74 47 51
8.438210 -0.926353 54.284073 73 47 51
8.437905 -0.809306 54.282108 72 47 50
8.438118 -0.692309 54.283478 71 47 50
8.438835 -0.575341 54.288094 69 47 50
8.440035 -0.458380 54.295807 69 47 50
8.441684 -0.341403 54.306416 69 47 51
8.443748 -0.224392 54.319698 70 47 51
8.446183 -0.107327 54.335365 72 47 51
8.448942 0.009804 54.353111 73 47 51
8.451972 0.127017 54.372601 73 46 51
8.455216 0.244320 54.393475 73 46 50
8.458618 0.361719 54.415359 73 45 50
