ply
format ascii 1.0
element vertex 1223
property float x
property float y
property float z
property uchar red
property uchar green
property uchar blue
end_header
8.142460 8.988542 56.284115 106 71 89
8.157834 9.127072 56.390385 106 71 87
8.173054 9.265886 56.495594 106 71 86
8.188135 9.404994 56.599842 106 71 84
8.203093 9.544408 56.703236 106 71 82
8.217943 9.684140 56.805889 106 72 82
8.232702 9.824207 56.907909 106 73 82
8.247388 9.964624 57.009418 106 74 83
8.262015 10.105409 57.110531 105 75 84
8.276601 10.246577 57.211353 104 75 85
8.291160 10.388146 57.311993 103 75 85
8.305706 10.530133 57.412540 101 75 83
8.320251 10.672552 57.513081 99 74 81
8.334805 10.815419 57.613693 98 72 79
8.349380 10.958743 57.714432 96 69 77
8.363979 11.102536 57.815353 95 68 76
8.378609 11.246803 57.916473 94 67 77
8.393271 11.391552 58.017826 94 66 77
8.407967 11.536782 58.119408 94 66 78
8.422694 11.682496 58.221214 93 67 78
8.437451 11.828690 58.323219 91 67 78
8.452232 11.975357 58.425392 90 66 77
8.467031 12.122491 58.527691 88 65 76
8.481841 12.270082 58.630062 86 63 75
8.496653 12.418116 58.732445 85 62 75
8.511455 12.566578 58.834766 84 62 74
8.526239 12.715454 58.936962 83 62 73
8.540993 12.864724 59.038940 82 61 72
8.555700 13.014364 59.140610 82 61 72
8.570347 13.164350 59.241852 81 60 71
8.584916 13.314651 59.342560 81 60 70
8.599389 13.465236 59.442604 80 60 69
8.613746 13.616068 59.541843 79 60 68
8.627965 13.767109 59.640133 79 60 67
8.642028 13.918321 59.737339 79 60 66
8.655911 14.069662 59.833309 79 60 65
8.669598 14.221092 59.927914 79 60 64
8.683067 14.372573 60.021027 78 60 64
8.696309 14.524073 60.112553 77 59 64
8.709311 14.675565 60.202431 76 59 65
8.722071 14.827031 60.290630 75 59 66
8.734590 14.978465 60.377167 74 58 66
8.746879 15.129875 60.462112 73 58 65
8.758953 15.281278 60.545578 72 57 65
8.770839 15.432705 60.627731 70 56 63
8.782564 15.584206 60.708786 69 55 62
8.794166 15.735831 60.788979 69 55 60
8.805683 15.887652 60.868591 69 54 60
8.817157 16.039738 60.947906 68 54 59
8.828630 16.192163 61.027218 68 53 58
8.840142 16.345003 61.106792 68 52 56
8.851728 16.498323 61.186882 68 51 55
8.863420 16.652185 61.267689 67 50 55
8.875234 16.806631 61.349358 67 50 54
8.887187 16.961693 61.431984 67 50 54
8.899279 17.117378 61.515568 67 50 53
8.911502 17.273678 61.600060 67 50 53
8.923837 17.430559 61.685322 67 50 53
8.936253 17.587967 61.771145 67 51 54
8.948709 17.745829 61.857254 67 50 54
8.961161 17.904049 61.943321 67 49 54
8.973553 18.062521 62.028976 66 49 53
8.985826 18.221121 62.113811 65 49 52
8.997919 18.379721 62.197411 64 48 51
9.009774 18.538191 62.279358 62 47 50
9.021332 18.696396 62.359249 61 47 49
9.032538 18.854214 62.436714 61 47 49
9.043348 19.011532 62.511436 61 47 50
9.053723 19.168251 62.583153 60 46 50
9.063633 19.324287 62.651649 60 46 50
9.073060 19.479584 62.716820 60 46 50
9.081999 19.634104 62.778603 60 47 50
9.090451 19.787832 62.837032 61 47 51
9.098433 19.940781 62.892200 61 48 51
7.348724 -2.472546 50.051670 214 184 191
7.345798 -2.363709 50.031734 209 178 187
7.342839 -2.254949 50.011585 212 180 190
7.339895 -2.146280 49.991531 216 185 193
7.337009 -2.037714 49.971878 215 184 192
7.334229 -1.929260 49.952942 214 184 190
7.331597 -1.820925 49.935017 214 186 190
7.329155 -1.712711 49.918385 221 192 196
7.326942 -1.604619 49.903313 228 199 202
7.324994 -1.496646 49.890041 230 199 202
7.323340 -1.388787 49.878780 226 195 197
7.322011 -1.281032 49.869728 219 186 189
7.321031 -1.173373 49.863049 212 181 184
7.320420 -1.065796 49.858887 221 192 196
7.320195 -0.958287 49.857361 239 215 219
7.320376 -0.850833 49.858593 236 213 219
7.320974 -0.743415 49.862663 217 190 198
7.322002 -0.636017 49.869663 197 168 178
7.323470 -0.528621 49.879662 183 156 167
7.325387 -0.421208 49.892715 185 160 171
7.327759 -0.313757 49.908875 199 174 185
7.330591 -0.206250 49.928162 210 187 198
7.333885 -0.098666 49.950600 221 200 209
7.337642 0.009015 49.976189 234 215 221
7.341856 0.116814 50.004894 244 229 232
7.346523 0.224750 50.036674 248 236 237
7.351628 0.332844 50.071449 240 227 228
7.357159 0.441112 50.109116 232 217 218
7.363095 0.549574 50.149548 228 212 213
7.369415 0.658244 50.192593 219 203 204
7.376092 0.767137 50.238068 219 201 202
7.383097 0.876264 50.285778 231 213 215
7.390399 0.985637 50.335506 245 226 230
7.397965 1.095264 50.387043 249 234 237
7.405763 1.205150 50.440151 242 225 228
7.413759 1.315301 50.494614 225 201 205
7.421924 1.425719 50.550224 209 180 185
7.430229 1.536405 50.606789 198 168 172
7.438649 1.647361 50.664143 192 162 163
7.447165 1.758587 50.722141 192 162 161
7.455764 1.870084 50.780708 196 166 164
7.464435 1.981852 50.839767 197 168 166
7.473178 2.093895 50.899319 192 163 162
7.481997 2.206217 50.959381 184 157 157
7.490903 2.318825 51.020042 177 151 153
7.499915 2.431730 51.081421 170 145 146
7.509054 2.544941 51.143661 168 143 144
7.518348 2.658476 51.206963 177 155 155
7.527829 2.772352 51.271534 191 170 169
7.537529 2.886591 51.337601 197 176 175
7.547482 3.001215 51.405392 198 177 175
7.557722 3.116251 51.475136 194 173 171
7.568280 3.231722 51.547047 193 172 171
7.579182 3.347656 51.621300 198 177 176
7.590451 3.464077 51.698055 204 183 182
7.602105 3.581009 51.777424 212 192 192
7.614151 3.698476 51.859474 215 194 195
7.626594 3.816494 51.944221 202 179 182
7.639431 3.935080 52.031651 187 164 168
7.652649 4.054246 52.121681 187 164 169
7.666234 4.173999 52.214203 190 168 174
7.680162 4.294343 52.309071 185 163 170
7.694412 4.415281 52.406124 178 156 164
7.708954 4.536809 52.505165 176 155 164
7.723760 4.658924 52.606014 177 156 165
7.738806 4.781621 52.708488 176 158 166
7.754065 4.904894 52.812416 174 157 164
7.769516 5.028740 52.917648 167 150 157
7.785141 5.153156 53.024071 155 140 147
7.800926 5.278138 53.131580 149 133 140
7.816862 5.403688 53.240124 147 130 137
7.832945 5.529810 53.349667 145 127 135
7.849174 5.656509 53.460194 143 125 134
7.865546 5.783791 53.571709 141 123 132
7.882065 5.911663 53.684216 137 120 129
7.898731 6.040132 53.797726 135 118 128
7.915544 6.169205 53.912235 133 117 129
7.932501 6.298887 54.027733 132 115 131
7.949595 6.429178 54.144161 134 115 133
7.966815 6.560073 54.261444 137 117 136
7.984146 6.691568 54.379482 141 119 137
8.001568 6.823649 54.498138 142 117 135
8.019056 6.956299 54.617256 136 109 126
8.036587 7.089500 54.736652 129 101 116
8.054128 7.223225 54.856121 126 96 111
8.071650 7.357448 54.975460 123 92 107
8.089122 7.492139 55.094467 122 90 105
8.106517 7.627271 55.212940 124 92 107
8.123805 7.762812 55.330692 127 95 110
8.140965 7.898735 55.447563 130 97 112
8.157974 8.035015 55.563416 126 94 109
8.174819 8.171629 55.678143 115 85 99
8.191485 8.308557 55.791656 106 76 90
8.207968 8.445785 55.903919 105 75 90
8.224261 8.583299 56.014889 108 76 92
8.240367 8.721094 56.124588 107 74 92
8.256289 8.859163 56.233025 106 72 89
8.272034 8.997509 56.340263 105 70 88
8.287610 9.136130 56.446354 105 70 86
8.303032 9.275037 56.551392 105 70 84
8.318311 9.414235 56.655453 105 70 83
8.333463 9.553736 56.758656 105 71 82
8.348503 9.693552 56.861095 105 72 81
8.363448 9.833697 56.962883 105 73 82
8.378314 9.974188 57.064133 105 74 83
8.393117 10.115039 57.164955 104 74 83
8.407872 10.256266 57.265450 103 74 84
8.422594 10.397886 57.365726 102 74 83
8.437300 10.539918 57.465885 100 74 82
8.451999 10.682373 57.565998 99 74 80
8.466704 10.825267 57.666153 97 72 78
8.481423 10.968612 57.766407 95 69 76
8.496163 11.112415 57.866798 93 68 75
8.510930 11.256688 57.967377 92 67 76
8.525726 11.401433 58.068153 92 66 76
8.540553 11.546654 58.169136 91 67 77
8.555409 11.692350 58.270321 90 67 77
8.570292 11.838519 58.371685 89 67 76
8.585196 11.985156 58.473198 88 66 75
8.600117 12.132253 58.574818 86 65 74
8.615046 12.279799 58.676498 85 64 73
8.629974 12.427784 58.778175 86 64 73
8.644892 12.576192 58.879780 86 64 74
8.659790 12.725009 58.981251 86 63 74
8.674656 12.874216 59.082500 85 62 73
8.689476 13.023789 59.183437 84 61 72
8.704234 13.173705 59.283955 82 60 71
8.718914 13.323934 59.383934 82 60 70
8.733499 13.474447 59.483269 81 60 69
8.747967 13.625209 59.581818 80 59 68
8.762300 13.776182 59.679440 80 59 67
8.776478 13.927329 59.776001 80 60 66
8.790479 14.078609 59.871361 79 60 65
8.804284 14.229985 59.965389 79 60 64
8.817877 14.381419 60.057968 78 59 64
8.831244 14.532880 60.149006 76 58 64
8.844374 14.684341 60.238434 75 58 64
8.857265 14.835787 60.326233 75 58 66
8.869918 14.987209 60.412415 74 59 66
8.882344 15.138618 60.497051 73 58 66
8.894561 15.290030 60.580254 71 57 65
8.906590 15.441476 60.662186 70 57 64
8.918464 15.593002 60.743057 69 56 62
8.930217 15.744666 60.823109 68 55 60
8.941889 15.896531 60.902607 67 54 60
8.953523 16.048670 60.981846 68 54 59
8.965159 16.201153 61.061096 67 53 58
8.976838 16.354057 61.140640 67 52 57
8.988595 16.507446 61.220715 67 51 56
9.000460 16.661381 61.301525 67 50 55
9.012451 16.815903 61.383202 68 51 55
9.024585 16.971041 61.465839 68 51 55
9.036860 17.126804 61.549446 68 52 54
9.049267 17.283180 61.633949 68 52 54
9.061786 17.440136 61.719215 67 52 53
9.074386 17.597616 61.805031 67 52 53
9.087026 17.755545 61.891117 67 51 54
9.099655 17.913824 61.977139 66 51 53
9.112220 18.072346 62.062717 66 50 53
9.124660 18.230988 62.147446 65 49 52
9.136912 18.389618 62.230900 64 48 51
9.148917 18.548103 62.312660 63 47 50
9.160612 18.706310 62.392315 62 47 50
9.171945 18.864115 62.469498 62 46 49
9.182866 19.021400 62.543884 61 46 49
9.193337 19.178068 62.615208 60 46 49
9.203330 19.334038 62.683262 60 45 50
9.212825 19.489246 62.747929 60 45 50
9.221814 19.643658 62.809155 60 46 51
9.230303 19.797260 62.866974 61 47 51
7.464003 -2.366993 50.101231 205 174 181
7.460903 -2.258053 50.080421 210 178 187
7.457819 -2.149208 50.059727 217 185 192
7.454800 -2.040470 50.039459 217 186 192
7.451894 -1.931848 50.019955 215 184 190
7.449146 -1.823349 50.001511 216 185 190
7.446600 -1.714976 49.984417 222 192 196
7.444294 -1.606729 49.968941 227 196 200
7.442267 -1.498605 49.955338 228 196 200
7.440550 -1.390597 49.943810 219 186 189
7.439172 -1.282697 49.934555 211 177 180
7.438157 -1.174895 49.927746 219 186 189
7.437526 -1.067177 49.923508 235 205 209
7.437297 -0.959529 49.921970 238 212 216
7.437484 -0.851936 49.923225 225 196 201
7.438100 -0.744380 49.927361 209 180 186
7.439156 -0.636844 49.934448 197 168 176
7.440660 -0.529309 49.944546 184 156 166
7.442619 -0.421756 49.957695 185 159 169
7.445038 -0.314166 49.973934 199 174 184
7.447921 -0.206519 49.993290 214 192 200
7.451269 -0.098795 50.015759 225 204 212
7.455080 0.009027 50.041336 231 213 218
7.459348 0.116966 50.069984 237 223 226
7.464067 0.225042 50.101658 239 227 229
7.469225 0.333275 50.136284 229 217 218
7.474807 0.441681 50.173756 220 208 209
7.480796 0.550280 50.213955 220 207 208
7.487169 0.659085 50.256733 219 205 205
7.493902 0.768112 50.301929 223 207 207
7.500966 0.877372 50.349339 234 217 217
7.508331 0.986876 50.398785 241 223 224
7.515968 1.096633 50.450047 242 227 227
7.523845 1.206650 50.502918 236 219 220
7.531929 1.316931 50.557182 219 195 198
7.540193 1.427479 50.612648 202 175 177
7.548608 1.538298 50.669132 196 168 169
7.557150 1.649388 50.726475 197 168 169
7.565801 1.760750 50.784538 201 171 170
7.574545 1.872386 50.843231 206 176 174
7.583374 1.984297 50.902496 203 173 172
7.592285 2.096487 50.962311 190 162 162
7.601281 2.208958 51.022697 178 150 151
7.610373 2.321720 51.083721 168 142 145
7.619576 2.434780 51.145496 164 140 142
7.628910 2.548150 51.208153 168 145 148
7.638402 2.661845 51.271866 182 161 163
7.648082 2.775884 51.336842 196 176 177
7.657982 2.890285 51.403294 198 179 178
7.668133 3.005071 51.471432 193 174 173
7.678569 3.120267 51.541481 191 173 171
7.689320 3.235897 51.613644 195 177 175
7.700412 3.351987 51.688099 199 181 179
7.711869 3.468563 51.765003 205 187 185
7.723707 3.585646 51.844467 216 197 196
7.735937 3.703260 51.926559 218 199 198
7.748563 3.821423 52.011311 203 182 182
7.761583 3.940151 52.098701 188 165 167
7.774985 4.059456 52.188663 185 162 165
7.788755 4.179346 52.281097 186 164 168
7.802874 4.299827 52.375866 183 161 166
7.817316 4.420898 52.472801 180 158 164
7.832055 4.542561 52.571735 181 160 167
7.847063 4.664810 52.672478 183 163 169
7.862314 4.787641 52.774849 179 161 168
7.877783 4.911049 52.878685 172 154 162
7.893447 5.035029 52.983826 161 145 152
7.909288 5.159579 53.090160 151 135 143
7.925292 5.284694 53.197578 145 130 137
7.941448 5.410378 53.306030 143 128 135
7.957751 5.536630 53.415455 142 126 134
7.974197 5.663456 53.525852 141 125 133
7.990787 5.790863 53.637207 141 125 132
8.007520 5.918855 53.749527 139 123 132
8.024397 6.047440 53.862812 137 121 131
8.041419 6.176624 53.977070 135 119 131
8.058579 6.306410 54.092258 133 116 131
8.075874 6.436799 54.208344 133 115 131
8.093290 6.567787 54.325249 135 115 134
8.110813 6.699368 54.442871 138 115 134
8.128427 6.831532 54.561096 137 113 131
8.146103 6.964259 54.679749 134 107 124
8.163819 7.097532 54.798668 128 100 116
8.181546 7.231328 54.917660 125 95 110
8.199255 7.365620 55.036526 121 90 105
8.216914 7.500380 55.155064 122 90 104
8.234497 7.635579 55.273083 128 96 109
8.251976 7.771190 55.390408 132 99 112
8.269329 7.907186 55.506886 130 97 109
8.286533 8.043540 55.622372 124 91 104
8.303576 8.180232 55.736763 116 84 96
8.320442 8.317243 55.849983 109 78 90
8.337126 8.454555 55.961967 107 75 89
8.353623 8.592158 56.072708 106 74 90
8.369934 8.730044 56.182190 105 73 89
8.386062 8.868209 56.290440 105 71 88
8.402011 9.006649 56.397499 104 69 87
8.417792 9.145369 56.503429 103 69 85
8.433416 9.284371 56.608307 103 69 84
8.448895 9.423665 56.712208 103 69 81
8.464244 9.563259 56.815231 102 70 81
8.479476 9.703164 56.917477 102 71 80
8.494610 9.843395 57.019058 102 72 81
8.509659 9.983965 57.120071 103 73 81
8.524640 10.124890 57.220634 102 73 82
8.539569 10.266186 57.320839 102 74 82
8.554460 10.407867 57.420795 101 74 81
8.569326 10.549951 57.520588 100 74 80
8.584184 10.692451 57.620312 98 73 79
8.599041 10.835382 57.720039 96 71 78
8.613908 10.978756 57.819832 94 70 76
8.628793 11.122582 57.919743 92 68 75
8.643700 11.266870 58.019806 91 67 75
8.658632 11.411620 58.120037 90 67 75
8.673592 11.556840 58.220451 89 67 75
8.688578 11.702528 58.321045 88 67 75
8.703588 11.848682 58.421795 87 67 74
8.718616 11.995297 58.522675 86 66 73
8.733659 12.142365 58.623646 85 65 71
8.748707 12.289878 58.724655 85 64 71
8.763753 12.437822 58.825649 86 64 72
8.778787 12.586185 58.926563 87 64 73
8.793798 12.734950 59.027328 87 64 74
8.808777 12.884101 59.127869 87 63 74
8.823708 13.033615 59.228088 85 62 73
8.838575 13.183468 59.327888 83 60 71
8.853365 13.333632 59.427162 83 59 71
8.868059 13.484079 59.525791 82 60 70
8.882638 13.634776 59.623653 81 60 69
8.897082 13.785685 59.720604 80 60 68
8.911372 13.936770 59.816525 80 60 67
8.925487 14.087994 59.911270 79 60 66
8.939408 14.239318 60.004719 78 60 65
8.953119 14.390706 60.096752 77 59 64
8.966607 14.542129 60.187283 76 58 63
8.979862 14.693561 60.276257 74 57 64
8.992880 14.844986 60.363636 74 58 66
9.005664 14.996398 60.449451 74 58 66
9.018226 15.147805 60.533764 72 58 66
9.030580 15.299226 60.616692 71 57 65
9.042750 15.450690 60.698387 70 56 64
9.054769 15.602244 60.779060 69 55 62
9.066670 15.753944 60.858948 68 55 61
9.078497 15.905855 60.938328 68 54 60
9.090287 16.058046 61.017471 68 53 59
9.102085 16.210590 61.096664 68 53 58
9.113929 16.363560 61.176167 68 52 58
9.125855 16.517021 61.256222 67 51 57
9.137894 16.671030 61.337025 67 51 56
9.150063 16.825630 61.418713 67 51 55
9.162375 16.980848 61.501358 68 52 55
9.174833 17.136692 61.584976 68 53 55
9.187424 17.293148 61.669491 68 53 54
9.200127 17.450180 61.754757 68 52 53
9.212909 17.607731 61.840557 67 52 53
9.225729 17.765726 61.926613 67 52 53
9.238536 17.924067 62.012577 66 51 53
9.251272 18.082640 62.098068 66 51 53
9.263877 18.241322 62.182674 66 50 52
9.276286 18.399981 62.265968 65 49 51
9.288436 18.558481 62.347523 64 48 51
9.300265 18.716686 62.426926 63 47 50
9.311718 18.874472 62.503799 62 46 49
9.322746 19.031723 62.577824 62 46 49
9.333309 19.188337 62.648731 61 45 49
9.343377 19.344231 62.716309 61 45 50
9.352931 19.499344 62.780437 61 45 51
9.361963 19.653639 62.841068 61 46 52
9.370480 19.807104 62.898232 61 47 51
7.582518 -2.370279 50.170795 201 171 175
7.579274 -2.261160 50.149334 209 177 182
7.576052 -2.152140 50.128014 217 185 192
7.572901 -2.043231 50.107166 220 188 194
7.569871 -1.934442 50.087120 220 188 193
7.567010 -1.825781 50.068184 221 190 195
7.564361 -1.717249 50.050659 223 193 198
7.561967 -1.608848 50.034824 223 192 197
7.559865 -1.500572 50.020916 221 189 194
7.558090 -1.392417 50.009163 214 181 185
7.556668 -1.284372 49.999760 214 181 184
7.555624 -1.176427 49.992851 231 198 201
7.554980 -1.068568 49.988586 238 208 212
7.554750 -0.960781 49.987068 225 196 199
7.554950 -0.853048 49.988392 213 182 186
7.555591 -0.745353 49.992630 209 179 184
7.556680 -0.637678 49.999840 196 168 175
7.558226 -0.530003 50.010063 182 155 163
7.560232 -0.422310 50.023338 184 160 167
7.562703 -0.314580 50.039688 197 174 182
7.565640 -0.206791 50.059120 211 190 196
7.569042 -0.098925 50.081635 220 202 207
7.572907 0.009039 50.107208 223 207 210
7.577229 0.117120 50.135803 223 209 211
7.582001 0.225337 50.167377 221 209 210
7.587209 0.333710 50.201836 216 205 206
7.592841 0.442257 50.239101 215 203 205
7.598878 0.550993 50.279049 221 207 208
7.605301 0.659935 50.321545 227 212 211
7.612083 0.769097 50.366425 232 216 214
7.619201 0.878490 50.413513 237 220 217
7.626624 0.988127 50.462631 235 216 213
7.634325 1.098014 50.513584 231 213 210
7.642273 1.208161 50.566174 231 211 209
7.650438 1.318572 50.620201 221 198 197
7.658792 1.429251 50.675480 203 178 178
7.667310 1.540202 50.731834 197 170 170
7.675968 1.651425 50.789120 202 173 173
7.684746 1.762923 50.847202 204 175 174
7.693630 1.874697 50.905987 203 174 172
7.702611 1.986750 50.965416 196 168 166
7.711686 2.099084 51.025459 184 156 156
7.720857 2.211705 51.086136 173 146 148
7.730131 2.324619 51.147503 170 144 148
7.739524 2.437834 51.209652 176 151 156
7.749054 2.551363 51.272709 185 162 166
7.758747 2.665219 51.336842 195 174 177
7.768628 2.779419 51.402222 202 183 185
7.778731 2.893984 51.469074 200 183 183
7.789085 3.008933 51.537575 194 177 177
7.799722 3.124291 51.607960 199 183 182
7.810672 3.240083 51.680412 209 194 192
7.821962 3.356333 51.755112 207 191 190
7.833614 3.473066 51.832211 203 188 186
7.845645 3.590304 51.911816 210 193 191
7.858067 3.708070 51.994003 209 190 189
7.870884 3.826383 52.078812 195 175 174
7.884094 3.945257 52.166218 182 161 161
7.897689 4.064707 52.256168 180 157 159
7.911654 4.184741 52.348572 184 161 163
7.925970 4.305363 52.443295 188 165 169
7.940611 4.426575 52.540173 188 165 170
7.955554 4.548377 52.639050 185 164 168
7.970772 4.670766 52.739735 182 162 167
7.986235 4.793737 52.842049 177 159 165
8.001919 4.917285 52.945824 169 151 158
8.017802 5.041405 53.050919 157 141 148
8.033865 5.166094 53.157196 146 130 138
8.050092 5.291349 53.264568 139 125 133
8.066472 5.417170 53.372948 140 125 133
8.082998 5.543558 53.482296 141 127 134
8.099668 5.670518 53.592590 143 128 135
8.116477 5.798054 53.703815 144 129 136
8.133428 5.926171 53.815968 144 128 136
8.150518 6.054877 53.929054 141 125 134
8.167749 6.184176 54.043064 137 121 131
8.185115 6.314071 54.157967 133 116 129
8.202610 6.444562 54.273727 132 114 129
8.220222 6.575647 54.390263 134 114 131
8.237939 6.707319 54.507484 135 113 130
8.255741 6.839567 54.625271 134 109 127
8.273604 6.972374 54.743465 131 104 122
8.291505 7.105723 54.861908 127 98 115
8.309415 7.239591 54.980415 123 93 109
8.327307 7.373954 55.098797 120 89 103
8.345151 7.508784 55.216866 120 88 102
8.362918 7.644053 55.334423 126 93 106
8.380585 7.779735 55.451317 128 95 108
8.398125 7.915803 55.567379 125 91 103
8.415523 8.052234 55.682491 120 86 98
8.432759 8.189005 55.796539 115 82 94
8.449824 8.326098 55.909451 110 78 90
8.466707 8.463497 56.021160 108 76 88
8.483407 8.601192 56.131660 106 73 87
8.499921 8.739171 56.240925 105 71 86
8.516253 8.877432 56.348984 103 70 85
8.532408 9.015972 56.455879 103 68 84
8.548393 9.154792 56.561649 102 68 83
8.564220 9.293895 56.666370 101 68 82
8.579901 9.433289 56.770123 101 68 80
8.595448 9.572982 56.872997 100 69 80
8.610877 9.712983 56.975079 100 71 79
8.626202 9.853309 57.076481 101 72 80
8.641438 9.993966 57.177292 102 72 80
8.656601 10.134974 57.277622 101 73 80
8.671706 10.276346 57.377567 101 73 80
8.686770 10.418098 57.477238 100 72 79
8.701805 10.560246 57.576717 100 72 79
8.716824 10.702802 57.676090 98 71 78
8.731836 10.845780 57.775429 96 70 77
8.746857 10.989195 57.874805 93 69 75
8.761888 11.133053 57.974266 91 67 74
8.776937 11.277363 58.073845 89 67 73
8.792009 11.422131 58.173565 88 67 73
8.807104 11.567359 58.273445 87 68 73
8.822223 11.713049 58.373478 86 67 72
8.837361 11.859199 58.473644 85 67 72
8.852516 12.005800 58.573917 84 66 71
8.867682 12.152850 58.674263 83 64 70
8.882851 12.300338 58.774635 84 63 69
8.898015 12.448250 58.874966 85 63 70
8.913164 12.596574 58.975204 87 64 71
8.928289 12.745296 59.075283 87 64 73
8.943379 12.894399 59.175129 87 63 74
8.958420 13.043860 59.274647 85 61 72
8.973396 13.193657 59.373741 83 59 71
8.988294 13.343762 59.472309 83 59 71
9.003095 13.494149 59.570244 82 59 70
9.017780 13.644784 59.667416 81 59 70
9.032332 13.795633 59.763702 81 60 69
9.046731 13.946660 59.858967 80 60 68
9.060956 14.097829 59.953091 80 60 66
9.074990 14.249103 60.045948 79 60 65
9.088816 14.400447 60.137428 77 59 65
9.102420 14.551832 60.227444 76 58 64
9.115795 14.703235 60.315941 74 57 65
9.128937 14.854640 60.402893 74 57 66
9.141848 15.006042 60.488323 73 57 66
9.154538 15.157446 60.572292 72 57 66
9.167027 15.308875 60.654922 71 56 65
9.179335 15.460357 60.736362 71 56 64
9.191496 15.611939 60.816826 69 55 62
9.203545 15.763678 60.896549 68 54 61
9.215521 15.915632 60.975792 68 54 61
9.227468 16.067879 61.054836 68 53 60
9.239424 16.220484 61.133949 68 53 59
9.251432 16.373520 61.213406 68 53 58
9.263528 16.527056 61.293438 67 52 58
9.275739 16.681143 61.374229 67 51 57
9.288084 16.835823 61.455917 67 51 55
9.300576 16.991123 61.538574 67 51 55
9.313216 17.147051 61.622204 68 53 55
9.325990 17.303587 61.706722 68 53 55
9.338876 17.460699 61.791985 68 52 53
9.351841 17.618328 61.877769 67 52 52
9.364840 17.776390 61.963783 67 52 52
9.377823 17.934793 62.049686 67 51 52
9.390729 18.093418 62.135078 67 51 52
9.403496 18.252140 62.219551 66 50 52
9.416058 18.410826 62.302673 66 49 51
9.428349 18.569338 62.383999 65 48 51
9.440308 18.727541 62.463127 64 47 50
9.451876 18.885303 62.539669 64 46 51
9.463005 19.042515 62.613308 64 46 51
9.473654 19.199066 62.683765 63 45 51
9.483790 19.354879 62.750832 62 45 51
9.493395 19.509888 62.814384 62 46 52
9.502464 19.664061 62.874390 62 46 53
9.511000 19.817381 62.930866 61 47 52
7.701329 -2.373564 50.240337 198 168 170
7.697943 -2.264267 50.218246 207 177 180
7.694583 -2.155073 50.196331 219 187 191
7.691301 -2.045993 50.174919 224 191 196
7.688150 -1.937039 50.154366 228 196 200
7.685179 -1.828217 50.134983 231 200 205
7.682432 -1.719528 50.117062 228 198 203
7.679954 -1.610972 50.100895 220 189 195
7.677783 -1.502547 50.086735 212 181 187
7.675953 -1.394244 50.074799 209 177 182
7.674493 -1.286055 50.065269 217 186 190
7.673427 -1.177968 50.058311 233 201 205
7.672773 -1.069968 50.054054 232 201 204
7.672550 -0.962040 50.052597 216 185 187
7.672769 -0.854168 50.054024 210 179 182
7.673439 -0.746333 50.058392 210 180 184
7.674567 -0.638518 50.065754 196 168 173
7.676158 -0.530703 50.076134 182 155 162
7.678216 -0.422869 50.089558 187 162 169
7.680742 -0.314997 50.106037 199 177 182
7.683735 -0.207066 50.125565 209 189 194
7.687195 -0.099057 50.148132 215 197 201
7.691115 0.009051 50.173710 216 199 202
7.695492 0.117275 50.202263 212 197 199
7.700315 0.225635 50.233727 209 195 198
7.705574 0.334150 50.268028 214 200 203
7.711253 0.442837 50.305080 223 209 212
7.717337 0.551713 50.344765 232 218 221
7.723804 0.660793 50.386955 239 223 223
7.730633 0.770090 50.431503 242 223 221
7.737798 0.879618 50.478245 239 219 215
7.745273 0.989387 50.527012 233 213 210
7.753031 1.099406 50.577621 230 211 208
7.761044 1.209684 50.629890 226 206 202
7.769282 1.320225 50.683636 214 191 187
7.777721 1.431034 50.738686 200 175 173
7.786334 1.542115 50.794876 198 171 171
7.795100 1.653471 50.852062 201 174 174
7.803999 1.765104 50.910114 201 174 173
7.813018 1.877016 50.968948 196 169 167
7.822147 1.989209 51.028503 190 164 162
7.831381 2.101688 51.088745 185 160 160
7.840722 2.214456 51.149681 181 157 159
7.850177 2.327521 51.211361 185 162 166
7.859759 2.440891 51.273872 199 177 182
7.869485 2.554578 51.337318 209 188 194
7.879378 2.668594 51.401859 208 188 193
7.889464 2.782957 51.467655 204 186 188
7.899774 2.897686 51.534912 199 182 184
7.910335 3.012800 51.603809 196 181 181
7.921179 3.128323 51.674549 207 192 192
7.932335 3.244278 51.747326 221 207 206
7.943830 3.360691 51.822315 215 201 201
7.955685 3.477585 51.899651 201 186 186
7.967917 3.594982 51.979450 197 180 180
7.980540 3.712905 52.061798 194 176 175
7.993558 3.831372 52.146725 186 167 166
8.006969 3.950400 52.234211 181 160 160
8.020766 4.070000 52.324219 182 161 161
8.034935 4.190182 52.416649 188 165 166
8.049458 4.310953 52.511391 194 171 173
8.064310 4.432312 52.608276 194 172 174
8.079466 4.554262 52.707150 187 165 169
8.094900 4.676797 52.807835 180 159 164
8.110583 4.799915 52.910149 175 156 162
8.126492 4.923610 53.013927 166 148 155
8.142600 5.047876 53.119015 154 137 146
8.158892 5.172711 53.225292 140 125 135
8.175348 5.298112 53.332645 134 120 129
8.191958 5.424077 53.441002 138 125 133
8.208713 5.550607 53.550301 144 130 139
8.225609 5.677706 53.660526 147 133 141
8.242642 5.805377 53.771648 148 133 141
8.259813 5.933625 53.883659 146 131 139
8.277121 6.062457 53.996567 142 126 135
8.294562 6.191875 54.110348 136 119 128
8.312134 6.321884 54.224979 130 112 123
8.329829 6.452482 54.340420 130 110 123
8.347638 6.583667 54.456596 133 111 126
8.365547 6.715433 54.573425 134 110 127
8.383535 6.847768 54.690773 132 106 124
8.401583 6.980659 54.808510 128 100 118
8.419665 7.114085 54.926472 123 94 111
8.437757 7.248029 55.044491 119 89 106
8.455827 7.382463 55.162373 118 86 102
8.473849 7.517363 55.279949 118 85 99
8.491798 7.652703 55.397038 119 86 99
8.509646 7.788456 55.513474 120 86 98
8.527373 7.924598 55.629116 118 84 96
8.544957 8.061104 55.743828 116 82 93
8.562385 8.197953 55.857510 113 79 90
8.579642 8.335130 55.970097 110 77 87
8.596724 8.472617 56.081524 108 74 86
8.613622 8.610402 56.191761 106 72 85
8.630338 8.748477 56.300812 104 70 84
8.646873 8.886836 56.408676 102 69 83
8.663232 9.025477 56.515400 101 68 82
8.679422 9.164402 56.621021 101 68 81
8.695455 9.303611 56.725605 100 68 81
8.711339 9.443110 56.829231 100 69 80
8.727087 9.582908 56.931965 100 70 80
8.742714 9.723014 57.033913 100 71 80
8.758235 9.863439 57.135162 101 72 80
8.773663 10.004193 57.235802 101 72 80
8.789013 10.145295 57.335949 100 72 79
8.804300 10.286754 57.435677 100 72 79
8.819541 10.428586 57.535099 100 71 78
8.834748 10.570807 57.634300 99 70 78
8.849934 10.713430 57.733364 98 70 78
8.865108 10.856467 57.832359 96 69 77
8.880284 10.999933 57.931358 93 67 75
8.895467 11.143834 58.030407 90 67 74
8.910664 11.288179 58.129547 88 66 73
8.925879 11.432975 58.228798 87 67 72
8.941113 11.578224 58.328178 86 67 71
8.956366 11.723926 58.427685 85 67 71
8.971636 11.870080 58.527302 84 67 71
8.986918 12.016681 58.626999 83 66 71
9.002208 12.163720 58.726746 83 64 70
9.017499 12.311191 58.826492 84 64 70
9.032782 12.459080 58.926189 85 63 70
9.048045 12.607374 59.025768 86 63 71
9.063284 12.756061 59.125179 86 62 72
9.078484 12.905122 59.224335 86 62 73
9.093633 13.054537 59.323162 85 60 73
9.108716 13.204283 59.421558 84 60 72
9.123718 13.354335 59.519428 83 59 72
9.138624 13.504665 59.616669 82 59 72
9.153415 13.655243 59.713154 82 59 71
9.168071 13.806034 59.808762 81 60 70
9.182573 13.957006 59.903374 80 60 68
9.196905 14.108122 59.996864 80 60 66
9.211046 14.259347 60.089119 79 59 65
9.224982 14.410648 60.180031 77 58 65
9.238699 14.561997 60.269516 76 57 64
9.252190 14.713370 60.357517 74 57 65
9.265450 14.864755 60.444023 74 57 65
9.278483 15.016145 60.529049 73 56 66
9.291300 15.167548 60.612659 72 56 66
9.303918 15.318984 60.694977 72 56 65
9.316361 15.470486 60.776154 71 56 64
9.328661 15.622096 60.856392 69 55 62
9.340854 15.773871 60.935932 69 54 61
9.352979 15.925875 61.015030 68 54 61
9.365079 16.078176 61.093964 68 53 60
9.377194 16.230844 61.173004 68 53 59
9.389366 16.383953 61.252407 68 53 59
9.401629 16.537563 61.332405 68 53 58
9.414012 16.691730 61.413185 68 52 57
9.426534 16.846495 61.494873 67 51 56
9.439206 17.001883 61.577541 67 51 55
9.452026 17.157894 61.661175 67 51 55
9.464983 17.314518 61.745701 67 51 54
9.478052 17.471710 61.830956 67 51 53
9.491199 17.629417 61.916718 67 51 52
9.504376 17.787552 62.002689 67 51 51
9.517533 17.946016 62.088516 67 51 51
9.530608 18.104694 62.173809 67 51 51
9.543534 18.263458 62.258137 66 50 51
9.556246 18.422171 62.341061 66 49 51
9.568676 18.580694 62.422150 66 48 51
9.580759 18.738890 62.500977 66 47 50
9.592439 18.896627 62.577168 66 47 51
9.603662 19.053791 62.650387 66 47 51
9.614389 19.210278 62.720364 64 46 52
9.624587 19.366001 62.786892 64 46 52
9.634237 19.520901 62.849846 63 47 53
9.643332 19.674940 62.909176 63 47 54
9.651879 19.828110 62.964935 63 48 54
7.820428 -2.376846 50.309799 197 168 170
7.816901 -2.267372 50.287113 207 177 179
7.813406 -2.158005 50.264629 220 188 191
7.809998 -2.048757 50.242702 228 196 199
7.806729 -1.939639 50.221672 236 205 208
7.803651 -1.830656 50.201874 242 211 215
7.800811 -1.721811 50.183601 235 205 210
7.798253 -1.613103 50.167149 215 185 191
7.796018 -1.504528 50.152767 204 174 181
7.794139 -1.396079 50.140682 207 177 184
7.792646 -1.287746 50.131077 217 186 192
7.791562 -1.179516 50.124104 226 195 200
7.790906 -1.071375 50.119881 228 197 201
7.790693 -0.963307 50.118515 222 191 193
7.790935 -0.855295 50.120068 215 184 186
7.791639 -0.747320 50.124599 208 179 182
7.792810 -0.639365 50.132130 198 170 174
7.794451 -0.531409 50.142689 191 165 170
7.796564 -0.423433 50.156281 194 170 175
7.799148 -0.315417 50.172901 201 180 184
7.802201 -0.207342 50.192543 209 191 194
7.805719 -0.099189 50.215176 215 198 200
7.809697 0.009063 50.240768 214 198 200
7.814129 0.117431 50.269276 212 197 199
7.819005 0.225936 50.300644 215 201 203
7.824311 0.334594 50.334782 225 212 214
7.830037 0.443423 50.371613 237 228 229
7.836163 0.552439 50.411026 246 237 239
7.842673 0.661658 50.452908 250 238 237
7.849544 0.771092 50.497108 247 229 225
7.856752 0.880755 50.543480 238 218 211
7.864275 0.990657 50.591877 235 219 214
7.872086 1.100809 50.642120 235 224 222
7.880157 1.211216 50.694042 217 203 199
7.888462 1.321887 50.747475 193 172 167
7.896978 1.432827 50.802261 190 166 162
7.905681 1.544039 50.858246 195 170 168
7.914548 1.655527 50.915291 198 173 171
7.923562 1.767294 50.973274 197 173 171
7.932710 1.879342 51.032124 195 172 169
7.941980 1.991675 51.091759 196 175 172
7.951369 2.104296 51.152161 203 181 180
7.960876 2.217211 51.213322 202 180 181
7.970509 2.330426 51.275291 202 181 185
7.980278 2.443950 51.338139 216 197 202
7.990200 2.557794 51.401962 225 207 213
8.000295 2.671971 51.466904 216 197 202
8.010589 2.786497 51.533127 204 187 190
8.021107 2.901390 51.600792 199 183 185
8.031880 3.016670 51.670101 198 184 185
8.042937 3.132360 51.741234 206 193 194
8.054306 3.248482 51.814369 223 211 211
8.066013 3.365060 51.889687 224 211 212
8.078081 3.482119 51.967319 203 189 190
8.090526 3.599679 52.047371 187 171 171
8.103359 3.717764 52.129936 184 167 167
8.116589 3.836392 52.215042 185 166 166
8.130212 3.955578 52.302677 187 166 166
8.144221 4.075335 52.392807 190 169 169
8.158607 4.195674 52.485344 194 172 173
8.173347 4.316599 52.580170 198 175 176
8.188418 4.438114 52.677132 197 174 176
8.203798 4.560217 52.776070 189 168 171
8.219459 4.682907 52.876816 181 159 164
8.235373 4.806179 52.979191 173 153 159
8.251513 4.930027 53.083027 163 144 152
8.267858 5.054448 53.188171 151 134 144
8.284384 5.179436 53.294487 141 125 136
8.301078 5.304990 53.401882 136 122 132
8.317923 5.431105 53.510250 141 128 137
8.334913 5.557785 53.619549 149 135 144
8.352040 5.685028 53.729729 150 136 145
8.369302 5.812840 53.840778 149 134 142
8.386698 5.941226 53.952682 147 131 139
8.404222 6.070188 54.065426 142 124 133
8.421877 6.199731 54.179001 134 115 124
8.439657 6.329858 54.293377 128 108 118
8.457553 6.460567 54.408508 128 106 118
8.475558 6.591856 54.524334 131 107 122
8.493656 6.723719 54.640759 133 106 123
8.511830 6.856145 54.757675 131 103 121
8.530058 6.989120 54.874943 125 96 115
8.548319 7.122627 54.992416 118 89 107
8.566585 7.256644 55.109921 114 85 103
8.584831 7.391152 55.227303 114 84 100
8.603028 7.526123 55.344364 114 82 97
8.621152 7.661533 55.460957 114 82 95
8.639176 7.797356 55.576912 114 81 93
8.657083 7.933571 55.692104 113 81 91
8.674849 8.070152 55.806396 112 79 90
8.692461 8.207081 55.919701 111 77 88
8.709908 8.344339 56.031937 109 76 86
8.727181 8.481914 56.143063 108 74 85
8.744275 8.619790 56.253029 106 72 85
8.761190 8.757961 56.361847 104 70 84
8.777926 8.896420 56.469513 102 69 83
8.794490 9.035166 56.576061 101 68 82
8.810885 9.174196 56.681538 100 69 81
8.827123 9.313515 56.785995 100 70 81
8.843212 9.453125 56.889500 100 70 81
8.859166 9.593036 56.992134 100 71 81
8.874995 9.733252 57.093967 101 72 81
8.890716 9.873785 57.195095 101 72 81
8.906340 10.014647 57.295609 101 72 80
8.921883 10.155849 57.395596 101 71 78
8.937358 10.297405 57.495152 100 70 77
8.952782 10.439330 57.594372 100 69 77
8.968166 10.581637 57.693348 99 68 77
8.983523 10.724338 57.792141 98 68 77
8.998867 10.867447 57.890846 95 68 77
9.014204 11.010975 57.989510 93 67 75
9.029544 11.154931 58.088196 90 66 74
9.044893 11.299324 58.186939 88 66 73
9.060254 11.444159 58.285759 86 66 71
9.075630 11.589438 58.384674 86 67 71
9.091021 11.735163 58.483685 85 67 71
9.106424 11.881331 58.582779 84 67 71
9.121837 12.027940 58.681931 83 66 71
9.137252 12.174978 58.781097 83 65 71
9.152665 12.322441 58.880253 84 64 70
9.168065 12.470314 58.979324 85 63 71
9.183445 12.618586 59.078262 86 63 71
9.198795 12.767244 59.177013 86 62 72
9.214105 12.916270 59.275497 86 61 73
9.229360 13.065644 59.373634 85 60 74
9.244547 13.215344 59.471340 84 60 74
9.259652 13.365347 59.568512 83 59 74
9.274659 13.515625 59.665051 82 59 73
9.289550 13.666149 59.760845 81 59 71
9.304306 13.816887 59.855774 81 59 70
9.318910 13.967805 59.949722 80 59 68
9.333343 14.118870 60.042572 80 59 66
9.347588 14.270048 60.134212 79 58 65
9.361629 14.421307 60.224541 78 57 65
9.375454 14.572619 60.313480 77 56 65
9.389055 14.723964 60.400978 75 56 65
9.402431 14.875329 60.487022 74 56 65
9.415582 15.026707 60.571625 73 55 66
9.428521 15.178109 60.654865 72 55 66
9.441266 15.329555 60.736855 72 56 65
9.453841 15.481075 60.817753 71 55 64
9.466277 15.632715 60.897758 70 55 63
9.478612 15.784530 60.977104 69 54 62
9.490884 15.936583 61.056053 69 54 61
9.503136 16.088942 61.134872 69 54 60
9.515409 16.241676 61.213825 68 54 59
9.527744 16.394859 61.293182 69 54 59
9.540174 16.548550 61.373150 69 54 59
9.552731 16.702801 61.453918 69 54 59
9.565428 16.857655 61.535606 68 53 58
9.578279 17.013130 61.618282 68 51 56
9.591282 17.169235 61.701927 68 51 55
9.604422 17.325947 61.786457 68 51 54
9.617673 17.483227 61.871704 67 50 53
9.631001 17.641012 61.957443 67 49 51
9.644358 17.799223 62.043369 67 49 50
9.657687 17.957752 62.129120 67 49 50
9.670927 18.116484 62.214294 67 50 50
9.684011 18.275288 62.298462 67 50 50
9.696869 18.434027 62.381184 66 49 50
9.709434 18.592560 62.462013 66 49 50
9.721638 18.750746 62.540527 66 48 50
9.733423 18.908457 62.616337 67 48 51
9.744736 19.065569 62.689117 66 48 51
9.755534 19.221983 62.758583 66 48 52
9.765786 19.377611 62.824535 65 48 53
9.775473 19.532394 62.886848 65 49 54
9.784587 19.686295 62.945480 65 50 55
9.793137 19.839304 63.000481 64 50 55
7.939813 -2.380124 50.379177 202 173 175
7.936149 -2.270475 50.355927 209 178 181
7.932523 -2.160937 50.332924 220 189 192
7.928992 -2.051523 50.310516 232 200 203
7.925611 -1.942241 50.289062 238 206 210
7.922431 -1.833099 50.268887 238 208 213
7.919502 -1.724099 50.250301 229 199 205
7.916870 -1.615239 50.233601 211 181 190
7.914576 -1.506516 50.219044 204 175 183
7.912652 -1.397921 50.206844 211 182 191
7.911131 -1.289444 50.197189 222 193 201
7.910034 -1.181072 50.190228 231 203 209
7.909380 -1.072790 50.186077 236 208 213
7.909183 -0.964582 50.184822 231 201 205
7.909451 -0.856429 50.186527 217 186 189
7.910192 -0.748314 50.191235 205 176 179
7.911410 -0.640217 50.198956 201 173 177
7.913104 -0.532119 50.209702 201 176 179
7.915274 -0.424000 50.223473 202 179 182
7.917917 -0.315841 50.240250 204 184 186
7.921031 -0.207621 50.260006 210 192 194
7.924610 -0.099322 50.282715 217 201 203
7.928647 0.009075 50.308327 220 204 207
7.933133 0.117589 50.336792 221 206 208
7.938061 0.226239 50.368061 230 213 215
7.943416 0.335041 50.402042 241 226 228
7.949186 0.444013 50.438652 245 236 236
7.955356 0.553171 50.477798 243 234 233
7.961905 0.662529 50.519356 243 230 228
7.968816 0.772101 50.563206 244 226 224
7.976064 0.881900 50.609200 239 219 215
7.983630 0.991936 50.657204 237 221 216
7.991488 1.102220 50.707062 236 225 221
7.999613 1.212759 50.758617 211 196 192
8.007980 1.323561 50.811710 185 162 159
8.016568 1.434631 50.866199 186 160 159
8.025353 1.545973 50.921944 192 168 167
8.034316 1.657593 50.978809 195 171 171
8.043438 1.769493 51.036694 197 175 174
8.052708 1.881677 51.095509 199 179 178
8.062115 1.994148 51.155197 207 188 188
8.071652 2.106911 51.215717 215 196 196
8.081323 2.219971 51.277077 211 191 193
8.091129 2.333336 51.339302 208 188 192
8.101085 2.447013 51.402470 218 200 205
8.111200 2.561013 51.466656 223 206 211
8.121497 2.675350 51.531990 215 198 202
8.131999 2.790039 51.598625 207 191 194
8.142731 2.905097 51.666721 204 190 192
8.153721 3.020544 51.736450 200 187 189
8.164996 3.136402 51.807995 201 190 191
8.176585 3.252692 51.881535 215 204 205
8.188514 3.369440 51.957222 221 208 210
8.200803 3.486667 52.035194 202 188 190
8.213469 3.604395 52.115559 184 168 170
8.226524 3.722647 52.198402 185 167 169
8.239976 3.841440 52.283752 192 173 175
8.253823 3.960791 52.371613 196 175 178
8.268059 4.080713 52.461941 197 176 179
8.282669 4.201214 52.554649 199 176 179
8.297639 4.322302 52.649635 198 175 178
8.312944 4.443979 52.746746 195 172 175
8.328559 4.566244 52.845825 189 167 170
8.344459 4.689096 52.946709 180 159 163
8.360612 4.812530 53.049206 170 150 156
8.376995 4.936541 53.153160 161 142 149
8.393583 5.061123 53.258415 154 136 145
8.410356 5.186273 53.364838 147 131 141
8.427294 5.311986 53.472309 141 126 137
8.444382 5.438260 53.580738 143 130 140
8.461612 5.565094 53.690063 149 136 146
8.478977 5.692490 53.800247 148 134 144
8.496472 5.820450 53.911255 145 130 139
8.514094 5.948977 54.023071 145 128 137
8.531841 6.078075 54.135677 141 123 132
8.549710 6.207748 54.249062 134 114 122
8.567698 6.337997 54.363194 129 106 116
8.585795 6.468821 54.478024 128 105 116
8.603994 6.600218 54.593498 131 105 119
8.622280 6.732180 54.709522 131 104 120
8.640635 6.864699 54.825993 128 99 118
8.659041 6.997760 54.942780 122 92 113
8.677476 7.131348 55.059750 115 86 106
8.695913 7.265442 55.176735 111 82 101
8.714328 7.400022 55.293575 110 80 98
8.732693 7.535063 55.410107 111 80 97
8.750985 7.670542 55.526173 112 80 95
8.769181 7.806436 55.641632 113 81 95
8.787259 7.942721 55.756336 113 80 94
8.805201 8.079376 55.870182 110 77 90
8.822993 8.216382 55.983074 108 74 86
8.840624 8.353723 56.094944 107 73 85
8.858084 8.491382 56.205730 107 72 84
8.875370 8.629349 56.315414 105 71 84
8.892480 8.767616 56.423981 104 70 84
8.909417 8.906178 56.531445 102 69 83
8.926182 9.045029 56.637821 101 69 82
8.942782 9.184170 56.743156 100 69 81
8.959227 9.323602 56.847492 100 70 82
8.975523 9.463327 56.950897 100 71 82
8.991684 9.603354 57.053440 101 72 82
9.007719 9.743689 57.155190 101 72 82
9.023644 9.884340 57.256237 100 72 81
9.039471 10.025317 57.356655 100 70 79
9.055211 10.166632 57.456532 100 69 78
9.070883 10.308297 57.555965 100 68 77
9.086494 10.450324 57.655025 100 67 76
9.102063 10.592727 57.753815 99 66 76
9.117601 10.735519 57.852402 98 66 76
9.133117 10.878711 57.950851 95 66 77
9.148622 11.022314 58.049232 92 66 75
9.164124 11.166338 58.147598 89 65 74
9.179629 11.310790 58.245979 87 65 73
9.195142 11.455675 58.344410 86 65 71
9.210664 11.600996 58.442898 85 66 71
9.226195 11.746754 58.541451 84 66 70
9.241735 11.892947 58.640049 83 66 70
9.257278 12.039571 58.738674 82 66 70
9.272820 12.186617 58.837292 83 65 70
9.288356 12.334080 58.935863 84 64 71
9.303875 12.481946 59.034336 85 63 71
9.319368 12.630201 59.132641 86 63 72
9.334829 12.778836 59.230743 86 62 73
9.350245 12.927833 59.328564 86 61 74
9.365605 13.077171 59.426022 86 61 74
9.380894 13.226831 59.523029 85 60 74
9.396098 13.376789 59.619507 84 59 74
9.411203 13.527019 59.715347 83 59 73
9.426190 13.677492 59.810444 82 59 71
9.441044 13.828178 59.904690 81 59 69
9.455745 13.979046 59.997967 81 58 67
9.470275 14.130061 60.090168 81 58 65
9.484619 14.281194 60.181183 80 57 65
9.498761 14.432411 60.270912 79 57 65
9.512690 14.583689 60.359295 77 56 64
9.526398 14.735006 60.446274 76 55 65
9.539884 14.886352 60.531841 75 55 65
9.553149 15.037720 60.616013 74 55 66
9.566208 15.189121 60.698875 73 55 66
9.579078 15.340578 60.780533 73 55 66
9.591782 15.492120 60.861141 72 55 64
9.604353 15.643791 60.940907 71 55 63
9.616827 15.795648 61.020054 70 55 62
9.629245 15.947754 61.098850 70 55 61
9.641649 16.100176 61.177559 69 55 60
9.654080 16.252981 61.256432 69 54 59
9.666578 16.406242 61.335735 69 54 60
9.679177 16.560017 61.415680 70 55 60
9.691905 16.714359 61.496441 71 55 60
9.704782 16.869307 61.578140 70 53 59
9.717813 17.024878 61.660828 70 53 58
9.730998 17.181078 61.744488 70 52 57
9.744321 17.337883 61.829025 69 51 55
9.757756 17.495255 61.914272 68 50 53
9.771265 17.653126 61.999985 67 49 51
9.784799 17.811413 62.085857 67 48 50
9.798300 17.970011 62.171528 67 49 49
9.811704 18.128798 62.256577 67 49 50
9.824943 18.287643 62.340580 67 49 50
9.837946 18.446409 62.423084 67 49 50
9.850640 18.604950 62.503635 67 50 50
9.862961 18.763124 62.581810 66 49 50
9.874846 18.920803 62.657223 66 49 51
9.886242 19.077860 62.729530 67 49 52
9.897105 19.234196 62.798458 67 49 53
9.907404 19.389725 62.863808 67 50 54
9.917118 19.544382 62.925446 67 51 55
9.926244 19.698137 62.983345 66 52 56
9.934787 19.850979 63.037556 66 53 57
8.059486 -2.383399 50.448490 208 178 182
8.055691 -2.273577 50.424728 212 181 186
8.051939 -2.163871 50.401249 221 190 195
8.048291 -2.054291 50.378414 230 198 203
8.044803 -1.944849 50.356575 231 199 205
8.041528 -1.835550 50.336075 223 193 199
8.038515 -1.726395 50.317219 215 185 193
8.035814 -1.617385 50.300316 209 179 189
8.033465 -1.508513 50.285610 210 181 191
8.031504 -1.399772 50.273331 221 193 203
8.029958 -1.291151 50.263657 235 209 219
8.028852 -1.182637 50.256729 245 223 230
8.028202 -1.074213 50.252663 243 221 226
8.028023 -0.965864 50.251541 228 202 205
8.028321 -0.857570 50.253410 211 182 187
8.029101 -0.749314 50.258297 203 175 178
8.030367 -0.641075 50.266216 201 175 178
8.032116 -0.532834 50.277164 204 180 183
8.034344 -0.424571 50.291111 207 185 188
8.037049 -0.316267 50.308044 208 189 191
8.040224 -0.207902 50.327919 212 195 197
8.043864 -0.099457 50.350700 218 203 204
8.047959 0.009087 50.376335 223 208 210
8.052502 0.117748 50.404770 228 211 213
8.057481 0.226544 50.435936 234 216 218
8.062884 0.335491 50.469757 240 222 223
8.068699 0.444607 50.506153 237 219 219
8.074908 0.553908 50.545025 227 207 206
8.081496 0.663407 50.586262 226 205 203
8.088445 0.773118 50.629753 237 219 217
8.095731 0.883053 50.675362 244 226 224
8.103336 0.993224 50.722969 238 220 215
8.111237 1.103641 50.772423 227 207 202
8.119411 1.214312 50.823589 207 185 181
8.127836 1.325244 50.876324 190 165 163
8.136490 1.436444 50.930496 189 164 163
8.145351 1.547917 50.985966 193 169 169
8.154404 1.659668 51.042622 197 175 175
8.163629 1.771700 51.100368 200 180 180
8.173015 1.884019 51.159122 201 183 183
8.182551 1.996628 51.218819 203 187 187
8.192234 2.109532 51.279427 205 189 190
8.202063 2.222737 51.340950 205 188 190
8.212040 2.336249 51.403400 209 191 194
8.222178 2.450078 51.466858 214 196 201
8.232486 2.564234 51.531384 214 196 201
8.242985 2.678730 51.597103 214 196 200
8.253696 2.793582 51.664154 216 200 204
8.264645 2.908806 51.732681 212 198 201
8.275854 3.024420 51.802849 202 189 192
8.287355 3.140448 51.874840 197 185 188
8.299171 3.256910 51.948803 199 187 190
8.311329 3.373829 52.024899 198 185 189
8.323848 3.491228 52.103268 190 175 179
8.336745 3.609129 52.183998 185 168 173
8.350035 3.727552 52.267181 194 176 181
8.363721 3.846517 52.352848 206 186 192
8.377803 3.966039 52.440998 207 187 192
8.392277 4.086131 52.531593 201 181 186
8.407127 4.206802 52.624554 197 176 182
8.422339 4.328060 52.719776 194 172 177
8.437890 4.449907 52.817112 189 166 171
8.453753 4.572342 52.916405 182 160 165
8.469901 4.695364 53.017487 175 153 158
8.486307 4.818969 53.120178 168 148 153
8.502944 4.943150 53.224319 164 145 152
8.519786 5.067902 53.329742 162 143 151
8.536812 5.193220 53.436317 154 136 146
8.554003 5.319100 53.543922 143 127 138
8.571342 5.445539 53.652458 141 126 138
8.588820 5.572536 53.761860 145 130 141
8.606427 5.700089 53.872078 143 127 139
8.624160 5.828203 53.983070 140 124 135
8.642013 5.956878 54.094822 141 124 133
8.659984 6.086118 54.207310 140 120 129
8.678069 6.215925 54.320515 134 113 121
8.696265 6.346301 54.434414 129 106 114
8.714562 6.477243 54.548950 129 104 114
8.732954 6.608750 54.664070 131 104 117
8.751424 6.740814 54.779686 129 101 117
8.769959 6.873427 54.895706 124 95 114
8.788538 7.006576 55.012001 118 89 109
8.807140 7.140244 55.128441 113 83 104
8.825742 7.274415 55.244877 109 79 100
8.844318 7.409066 55.361156 109 78 98
8.862846 7.544177 55.477131 109 79 97
8.881299 7.679724 55.592640 111 80 97
8.899658 7.815686 55.707558 113 82 98
8.917902 7.952040 55.821754 114 81 97
8.936012 8.088766 55.935116 109 76 91
8.953977 8.225847 56.047569 104 71 84
8.971785 8.363267 56.159035 104 70 83
8.989427 8.501010 56.269466 104 70 84
9.006900 8.639068 56.378838 103 70 85
9.024202 8.777431 56.487144 102 69 84
9.041334 8.916093 56.594383 100 69 83
9.058301 9.055052 56.700584 99 68 82
9.075106 9.194305 56.805775 99 69 82
9.091757 9.333854 56.910007 101 72 83
9.108264 9.473701 57.013329 101 73 84
9.124636 9.613853 57.115807 101 73 84
9.140881 9.754311 57.217499 100 73 82
9.157015 9.895087 57.318489 99 71 80
9.173049 10.036189 57.418854 99 70 79
9.188995 10.177627 57.518669 99 69 77
9.204866 10.319409 57.618011 99 68 77
9.220675 10.461552 57.716972 99 67 76
9.236436 10.604065 57.815628 99 66 76
9.252158 10.746958 57.914040 98 65 77
9.267856 10.890245 58.012295 96 65 77
9.283534 11.033936 58.110435 93 65 76
9.299204 11.178038 58.208523 90 65 75
9.314871 11.322560 58.306591 88 64 73
9.330539 11.467505 58.404667 86 64 72
9.346210 11.612879 58.502762 84 65 71
9.361886 11.758679 58.600883 83 65 70
9.377563 11.904906 58.699017 82 65 70
9.393240 12.051555 58.797146 82 65 70
9.408910 12.198617 58.895229 82 64 70
9.424568 12.346087 58.993240 83 64 71
9.440204 12.493951 59.091114 84 63 72
9.455811 12.642197 59.188805 85 63 72
9.471381 12.790815 59.286266 85 62 73
9.486902 12.939788 59.383423 86 61 74
9.502364 13.089095 59.480206 85 61 74
9.517752 13.238719 59.576527 85 60 74
9.533052 13.388635 59.672302 84 59 74
9.548251 13.538819 59.767441 83 59 73
9.563333 13.689245 59.861839 83 59 70
9.578279 13.839883 59.955395 82 59 68
9.593072 13.990701 60.047993 81 58 66
9.607696 14.141670 60.139534 81 57 64
9.622136 14.292759 60.229919 80 57 64
9.636375 14.443938 60.319050 79 56 64
