ply
format ascii 1.0
element vertex 1267
property float x
property float y
property float z
property uchar red
property uchar green
property uchar blue
end_header
2.688548 9.316588 53.967468 57 37 39
2.688665 9.433337 53.969826 57 36 39
2.688636 9.549574 53.969242 57 36 39
2.688469 9.665313 53.965889 58 37 39
2.688175 9.780578 53.959995 58 37 40
2.687768 9.895398 53.951828 58 37 40
2.687262 10.009814 53.941662 58 37 40
2.686672 10.123873 53.929829 58 37 40
2.686016 10.237624 53.916645 57 37 40
2.685309 10.351128 53.902470 56 37 40
2.684569 10.464437 53.887608 55 36 39
2.683811 10.577615 53.872398 56 36 39
2.683051 10.690714 53.857128 57 37 40
2.682301 10.803792 53.842075 59 37 40
2.681573 10.916896 53.827473 59 37 39
2.680878 11.030069 53.813522 59 37 39
2.680223 11.143350 53.800373 60 37 39
2.679614 11.256765 53.788143 61 37 39
2.679054 11.370337 53.776890 62 38 40
2.678543 11.484072 53.766644 62 38 40
2.678081 11.597973 53.757362 61 37 39
2.677663 11.712028 53.748974 61 37 38
2.677284 11.826219 53.741367 61 37 37
2.676935 11.940512 53.734367 60 37 37
2.676607 12.054865 53.727776 60 37 38
2.676286 12.169226 53.721336 59 37 38
2.675958 12.283526 53.714756 59 37 38
2.675607 12.397692 53.707718 58 37 38
2.675216 12.511639 53.699867 58 37 37
2.674767 12.625275 53.690842 57 37 37
2.674238 12.738498 53.680233 57 37 37
2.673612 12.851206 53.667671 57 37 37
2.672869 12.963289 53.652748 57 37 37
2.671990 13.074645 53.635101 57 36 37
2.670956 13.185163 53.614357 57 35 37
2.669753 13.294744 53.590199 57 35 37
2.668364 13.403288 53.562313 56 35 37
2.666776 13.510708 53.530445 55 35 37
2.664978 13.616915 53.494358 54 36 38
2.662962 13.721841 53.453884 53 37 38
2.660719 13.825417 53.408871 53 37 38
2.658245 13.927586 53.359203 53 37 37
2.655537 14.028301 53.304836 53 37 37
2.652592 14.127526 53.245728 53 36 37
2.649412 14.225232 53.181896 53 36 36
2.646000 14.321404 53.113400 53 35 35
2.642360 14.416043 53.040344 52 35 35
2.638502 14.509165 52.962902 52 35 34
2.634437 14.600804 52.881302 51 34 34
2.630180 14.691021 52.795849 51 34 34
2.625750 14.779898 52.706932 50 34 34
2.621171 14.867538 52.615002 50 35 34
2.616467 14.954078 52.520592 49 35 34
2.611671 15.039672 52.424309 50 36 35
2.606815 15.124510 52.326843 51 36 35
2.601936 15.208789 52.228901 51 37 36
2.597071 15.292732 52.131252 52 39 38
2.592260 15.376571 52.034679 52 40 39
2.587541 15.460543 51.939949 52 40 39
2.582951 15.544887 51.847824 52 40 39
2.578526 15.629830 51.758999 52 39 38
2.574299 15.715600 51.674149 51 39 38
2.570299 15.802397 51.593845 51 39 38
2.566550 15.890406 51.518597 50 38 37
2.563074 15.979791 51.448822 50 38 36
2.288314 -5.022309 44.028400 106 64 70
2.289837 -4.930677 44.057693 108 64 71
2.291371 -4.838944 44.087219 109 65 71
2.292917 -4.747108 44.116970 110 66 71
2.294475 -4.655167 44.146938 110 66 71
2.296046 -4.563123 44.177170 110 66 70
2.297633 -4.470981 44.207706 110 66 69
2.299240 -4.378744 44.238625 110 66 68
2.300872 -4.286420 44.270012 110 65 67
2.302532 -4.194014 44.301968 110 64 66
2.304229 -4.101532 44.334599 110 63 66
2.305966 -4.008983 44.368031 110 63 66
2.307751 -3.916369 44.402370 110 62 66
2.309589 -3.823696 44.437737 110 62 66
2.311486 -3.730965 44.474236 110 62 66
2.313447 -3.638178 44.511974 110 62 65
2.315477 -3.545333 44.551029 109 62 64
2.317580 -3.452428 44.591476 108 62 64
2.319757 -3.359457 44.633377 107 61 65
2.322012 -3.266414 44.676754 106 60 65
2.324344 -3.173290 44.721626 106 60 65
2.326753 -3.080075 44.767982 106 60 65
2.329238 -2.986756 44.815796 107 60 65
2.331796 -2.893323 44.865021 108 60 67
2.334425 -2.799762 44.915592 109 60 67
2.337119 -2.706058 44.967426 108 60 66
2.339875 -2.612200 45.020447 107 58 64
2.342687 -2.518174 45.074558 105 57 63
2.345551 -2.423968 45.129673 103 55 63
2.348464 -2.329573 45.185703 102 55 63
2.351419 -2.234977 45.242580 101 55 63
2.354417 -2.140174 45.300243 100 56 64
2.357452 -2.045156 45.358658 100 58 64
2.360526 -1.949916 45.417793 100 59 63
2.363637 -1.854452 45.477661 99 59 63
2.366788 -1.758759 45.538277 99 59 62
2.369980 -1.662833 45.599686 98 59 61
2.373215 -1.566671 45.661942 97 59 60
2.376498 -1.470271 45.725113 95 57 60
2.379833 -1.373627 45.789265 94 56 59
2.383222 -1.276737 45.854473 93 56 59
2.386669 -1.179594 45.920795 92 55 58
2.390177 -1.082192 45.988285 91 55 58
2.393747 -0.984526 46.056988 89 55 57
2.397382 -0.886586 46.126919 87 53 56
2.401080 -0.788366 46.198067 84 52 54
2.404840 -0.689858 46.270428 81 51 52
2.408662 -0.591052 46.343952 79 50 51
2.412541 -0.491941 46.418594 77 48 51
2.416476 -0.392517 46.494301 77 48 51
2.420463 -0.292774 46.571007 77 48 51
2.424499 -0.192703 46.648666 77 49 52
2.428582 -0.092299 46.727230 77 51 53
2.432710 0.008443 46.806664 77 51 55
2.436884 0.109530 46.886963 76 51 56
2.441103 0.210967 46.968140 74 50 54
2.445369 0.312760 47.050228 73 49 54
2.449687 0.414916 47.133297 73 49 54
2.454060 0.517442 47.217430 72 49 53
2.458493 0.620345 47.302727 69 48 51
2.462993 0.723636 47.389313 64 45 47
2.467566 0.827325 47.477310 61 43 45
2.472221 0.931424 47.566872 58 41 43
2.476965 1.035946 47.658142 56 40 42
2.481805 1.140905 47.751263 54 40 42
2.486748 1.246319 47.846378 53 39 42
2.491803 1.352202 47.943630 53 39 42
2.496975 1.458574 48.043140 54 39 42
2.502270 1.565451 48.145020 55 39 42
2.507694 1.672854 48.249374 55 39 42
2.513249 1.780800 48.356270 55 40 41
2.518940 1.889308 48.465775 54 40 41
2.524768 1.998397 48.577900 54 40 40
2.530732 2.108082 48.692654 52 39 39
2.536831 2.218381 48.809998 48 36 36
2.543061 2.329305 48.929863 44 34 34
2.549416 2.440865 49.052135 41 31 31
2.555888 2.553070 49.176662 38 29 30
2.562468 2.665924 49.303268 37 28 29
2.569144 2.779428 49.431721 36 28 29
2.575904 2.893579 49.561779 36 29 29
2.582733 3.008372 49.693169 36 30 29
2.589615 3.123796 49.825588 36 30 29
2.596535 3.239838 49.958736 37 30 30
2.603478 3.356483 50.092316 37 30 30
2.610426 3.473711 50.226013 38 29 30
2.617366 3.591505 50.359539 39 28 30
2.624283 3.709840 50.492611 41 28 29
2.631161 3.828694 50.624958 42 28 29
2.637989 3.948044 50.756340 44 29 29
2.644755 4.067864 50.886517 47 30 31
2.651448 4.188129 51.015278 50 32 33
2.658055 4.308812 51.142418 52 34 36
2.664569 4.429886 51.267738 55 36 39
2.670978 4.551323 51.391052 56 38 41
2.677274 4.673095 51.512192 57 38 42
2.683447 4.795169 51.630970 58 39 42
2.689490 4.917517 51.747234 58 39 42
2.695393 5.040105 51.860817 59 39 42
2.701150 5.162903 51.971588 59 39 42
2.706754 5.285881 52.079414 61 39 42
2.712199 5.409005 52.184170 62 39 41
2.717480 5.532247 52.285782 62 39 41
2.722593 5.655579 52.384163 61 39 41
2.727536 5.778974 52.479263 61 39 41
2.732306 5.902407 52.571049 61 39 41
2.736904 6.025856 52.659515 62 39 42
2.741330 6.149300 52.744671 63 40 43
2.745585 6.272720 52.826530 64 41 45
2.749670 6.396099 52.905128 66 42 47
2.753588 6.519420 52.980511 67 43 49
2.757340 6.642669 53.052719 67 43 50
2.760931 6.765831 53.121792 67 44 51
2.764360 6.888891 53.187790 67 44 51
2.767633 7.011836 53.250748 66 42 50
2.770749 7.134652 53.310715 65 41 50
2.773712 7.257325 53.367722 65 41 49
2.776523 7.379839 53.421810 66 41 49
2.779184 7.502181 53.473000 66 41 49
2.781695 7.624332 53.521313 66 42 48
2.784056 7.746277 53.566746 66 42 47
2.786269 7.867996 53.609314 65 41 47
2.788331 7.989468 53.648987 64 41 45
2.790241 8.110669 53.685738 62 40 44
2.791997 8.231576 53.719532 62 39 43
2.793597 8.352161 53.750324 63 40 43
2.795038 8.472397 53.778046 63 41 42
2.796316 8.592251 53.802635 62 41 41
2.797428 8.711695 53.824032 61 41 41
2.798373 8.830700 53.842197 59 40 40
2.799147 8.949241 53.857094 58 39 39
2.799750 9.067293 53.868706 57 38 38
2.800184 9.184839 53.877052 56 37 38
2.800452 9.301869 53.882202 56 36 38
2.800558 9.418379 53.884251 57 36 38
2.800510 9.534370 53.883320 57 36 39
2.800317 9.649861 53.879612 58 37 39
2.799991 9.764871 53.873341 58 37 40
2.799546 9.879433 53.864780 58 37 40
2.798997 9.993586 53.854206 58 36 40
2.798360 10.107376 53.841953 58 37 39
2.797652 10.220858 53.828342 57 37 39
2.796893 10.334086 53.813728 57 36 39
2.796098 10.447121 53.798435 56 36 40
2.795285 10.560019 53.782784 56 35 40
2.794469 10.672840 53.767082 57 36 39
2.793664 10.785640 53.751614 58 36 39
2.792884 10.898465 53.736599 58 36 39
2.792139 11.011363 53.722256 58 37 39
2.791436 11.124372 53.708744 59 37 39
2.790783 11.237520 53.696182 60 37 39
2.790184 11.350830 53.684635 60 37 39
2.789638 11.464314 53.674141 60 37 39
2.789145 11.577972 53.664658 60 37 39
2.788702 11.691796 53.656128 60 37 38
2.788302 11.805769 53.648441 60 37 37
2.787938 11.919861 53.641438 60 37 37
2.787599 12.034028 53.634907 60 37 38
2.787271 12.148219 53.628605 59 37 38
2.786941 12.262371 53.622250 59 37 38
2.786591 12.376409 53.615517 58 37 38
2.786203 12.490247 53.608055 57 37 37
2.785758 12.603795 53.599495 56 37 37
2.785236 12.716951 53.589439 56 37 36
2.784616 12.829614 53.577503 56 37 36
2.783876 12.941672 53.563278 56 36 36
2.782999 13.053020 53.546391 56 35 36
2.781963 13.163550 53.526478 56 35 37
2.780753 13.273157 53.503185 56 35 37
2.779351 13.381743 53.476215 56 35 37
2.777744 13.489216 53.445293 55 35 37
2.775919 13.595489 53.410183 54 36 38
2.773867 13.700485 53.370693 53 36 37
2.771578 13.804137 53.326664 53 36 37
2.769049 13.906387 53.277992 52 36 37
2.766274 14.007187 53.224606 52 36 36
2.763252 14.106493 53.166458 52 36 36
2.759984 14.204281 53.103569 52 36 35
2.756471 14.300531 53.035992 52 35 34
2.752721 14.395249 52.963840 52 34 34
2.748742 14.488447 52.887276 52 34 34
2.744546 14.580162 52.806538 51 34 33
2.740149 14.670455 52.721939 51 34 34
2.735571 14.759406 52.633858 50 34 34
2.730836 14.847126 52.542763 50 35 34
2.725973 14.933746 52.449184 50 36 34
2.721013 15.019432 52.353756 50 36 35
2.715992 15.104366 52.257153 51 37 36
2.710948 15.188752 52.160091 51 38 37
2.705920 15.272815 52.063358 52 40 39
2.700949 15.356785 51.967724 52 40 39
2.696076 15.440902 51.873966 53 40 40
2.691340 15.525404 51.782841 53 40 40
2.686778 15.610522 51.695061 52 40 39
2.682424 15.696479 51.611279 51 39 38
2.678307 15.783473 51.532063 50 39 38
2.674453 15.871693 51.457928 49 38 37
2.383489 -4.927945 44.033287 107 63 71
2.385083 -4.836257 44.062737 108 64 71
2.386690 -4.744466 44.092415 109 65 71
2.388310 -4.652573 44.122345 109 66 71
2.389945 -4.560582 44.152561 109 67 71
2.391599 -4.468494 44.183117 109 67 70
2.393276 -4.376316 44.214088 108 67 69
2.394980 -4.284053 44.245575 109 66 69
2.396717 -4.191713 44.277664 110 66 69
2.398494 -4.099301 44.310486 110 65 70
2.400316 -4.006824 44.344147 110 64 70
2.402189 -3.914287 44.378761 110 63 70
2.404121 -3.821691 44.414444 111 63 70
2.406116 -3.729040 44.451298 111 62 69
2.408180 -3.636335 44.489426 110 62 67
2.410316 -3.543572 44.528900 109 61 66
2.412530 -3.450748 44.569790 108 60 64
2.414822 -3.357859 44.612144 106 59 63
2.417196 -3.264896 44.655991 105 59 62
2.419650 -3.171850 44.701332 104 58 62
2.422184 -3.078711 44.748158 104 58 63
2.424797 -2.985465 44.796429 105 59 64
2.427486 -2.892103 44.846100 108 61 66
2.430247 -2.798609 44.897099 108 61 67
2.433075 -2.704970 44.949345 107 59 65
2.435966 -2.611173 45.002754 105 58 64
2.438915 -2.517206 45.057232 104 56 63
2.441916 -2.423056 45.112690 102 55 62
2.444967 -2.328714 45.169048 101 55 62
2.448062 -2.234170 45.226231 100 55 62
2.451199 -2.139415 45.284172 100 56 63
2.454375 -2.044442 45.342842 99 57 63
2.457588 -1.949247 45.402214 99 59 63
2.460840 -1.853825 45.462284 100 60 63
2.464131 -1.758172 45.523079 100 60 63
2.467463 -1.662284 45.584637 99 60 61
2.470838 -1.566159 45.646999 97 59 60
2.474261 -1.469793 45.710239 95 58 59
2.477735 -1.373182 45.774418 94 57 59
2.481264 -1.276323 45.839607 92 56 58
2.484850 -1.179210 45.905865 91 55 58
2.488497 -1.081838 45.973244 90 55 57
2.492208 -0.984200 46.041782 88 54 57
2.495982 -0.886290 46.111507 86 53 56
2.499820 -0.788099 46.182407 84 52 55
2.503721 -0.689620 46.254482 81 51 54
2.507683 -0.590844 46.327682 79 51 53
2.511705 -0.491765 46.401981 78 50 52
2.515783 -0.392374 46.477318 76 48 51
2.519914 -0.292664 46.553638 76 48 51
2.524096 -0.192630 46.630894 76 49 52
2.528326 -0.092263 46.709049 76 50 52
2.532603 0.008440 46.788063 76 51 53
2.536927 0.109486 46.867943 75 51 54
2.541298 0.210880 46.948696 73 49 53
2.545718 0.312628 47.030357 72 48 52
2.550191 0.414737 47.112988 72 48 52
2.554721 0.517214 47.196667 71 48 52
2.559313 0.620067 47.281506 69 47 51
2.563973 0.723305 47.367603 65 46 48
2.568710 0.826938 47.455105 61 43 45
2.573529 0.930978 47.544132 58 42 43
2.578439 1.035439 47.634838 56 41 42
2.583447 1.140334 47.727364 55 41 43
2.588561 1.245679 47.821838 55 40 43
2.593788 1.351491 47.918404 54 40 43
2.599134 1.457786 48.017181 55 39 42
2.604606 1.564582 48.118275 55 39 42
2.610209 1.671897 48.221783 55 39 42
2.615947 1.779750 48.327778 55 39 41
2.621821 1.888160 48.436306 55 39 40
2.627835 1.997142 48.547405 53 39 39
2.633987 2.106714 48.661060 52 39 39
2.640275 2.216891 48.777225 49 38 38
2.646696 2.327685 48.895847 46 36 36
2.653243 2.439107 49.016792 41 32 33
2.659908 2.551163 49.139923 38 30 30
2.666681 2.663858 49.265057 37 29 29
2.673551 2.777193 49.391968 36 29 29
2.680503 2.891164 49.520412 36 29 29
2.687524 3.005765 49.650112 36 30 29
2.694597 3.120987 49.780788 36 30 30
2.701707 3.236816 49.912136 36 30 30
2.708837 3.353235 50.043858 36 29 30
2.715971 3.470229 50.175667 37 29 30
2.723095 3.587777 50.307274 39 28 30
2.730193 3.705857 50.438408 40 27 30
2.737252 3.824448 50.568810 42 28 30
2.744258 3.943525 50.698246 44 29 30
2.751201 4.063067 50.826508 47 30 31
2.758068 4.183047 50.953377 50 32 34
2.764850 4.303441 51.078663 53 35 37
2.771536 4.424222 51.202187 56 37 40
2.778118 4.545365 51.323772 57 38 41
2.784585 4.666841 51.443256 57 39 42
2.790930 4.788621 51.560471 58 39 42
2.797144 4.910677 51.675262 58 39 42
2.803218 5.032977 51.787479 59 39 43
2.809145 5.155492 51.896988 60 39 43
2.814919 5.278192 52.003658 61 40 43
2.820534 5.401045 52.107388 63 41 43
2.825984 5.524024 52.208065 64 41 43
2.831265 5.647101 52.305634 63 41 43
2.836375 5.770248 52.400024 63 41 43
2.841311 5.893444 52.491215 63 42 43
2.846072 6.016664 52.579185 64 42 44
2.850660 6.139887 52.663937 65 43 46
2.855073 6.263095 52.745472 66 43 47
2.859314 6.386269 52.823822 67 43 48
2.863385 6.509393 52.899025 68 43 49
2.867287 6.632451 52.971107 68 43 49
2.871022 6.755427 53.040112 67 43 50
2.874592 6.878307 53.106075 67 43 50
2.878000 7.001076 53.169033 65 42 50
2.881248 7.123720 53.229023 64 41 49
2.884335 7.246221 53.286068 64 41 49
2.887265 7.368566 53.340202 64 41 49
2.890039 7.490737 53.391434 65 41 48
2.892656 7.612720 53.439793 65 41 47
2.895118 7.734493 53.485260 65 41 46
2.897423 7.856040 53.527847 64 41 46
2.899570 7.977336 53.567528 63 41 45
2.901559 8.098361 53.604267 62 39 43
2.903387 8.219087 53.638031 61 39 42
2.905050 8.339487 53.668755 61 39 42
2.906546 8.459534 53.696400 61 40 41
2.907871 8.579195 53.720879 61 40 40
2.909022 8.698441 53.742146 60 40 40
2.909997 8.817245 53.760155 59 40 40
2.910794 8.935577 53.774864 58 39 39
2.911411 9.053417 53.786270 57 38 39
2.911850 9.170746 53.794380 56 37 38
2.912114 9.287552 53.799267 55 36 38
2.912209 9.403831 53.801022 56 36 38
2.912142 9.519589 53.799786 57 36 39
2.911924 9.634840 53.795746 58 37 39
2.911565 9.749604 53.789116 58 37 39
2.911081 9.863916 53.780178 58 37 39
2.910488 9.977815 53.769222 58 37 38
2.909802 10.091345 53.756554 58 36 39
2.909043 10.204563 53.742531 58 36 39
2.908229 10.317525 53.727486 57 36 40
2.907377 10.430287 53.711750 57 36 40
2.906507 10.542913 53.695663 57 35 40
2.905633 10.655460 53.679531 57 35 39
2.904772 10.767983 53.663624 57 35 39
2.903937 10.880535 53.648193 57 36 39
2.903139 10.993160 53.633446 58 38 41
2.902387 11.105899 53.619560 60 38 41
2.901688 11.218782 53.606647 60 38 40
2.901046 11.331834 53.594795 60 38 40
2.900464 11.445067 53.584030 60 37 39
2.899939 11.558483 53.574329 59 37 38
2.899468 11.672078 53.565639 59 37 38
2.899046 11.785833 53.557846 60 37 37
2.898665 11.899721 53.550808 60 37 37
2.898314 12.013702 53.544319 59 37 37
2.897979 12.127726 53.538136 59 37 38
2.897646 12.241725 53.531967 59 37 38
2.897296 12.355632 53.525509 58 37 37
2.896912 12.469360 53.518410 57 37 37
2.896472 12.582819 53.510288 56 36 36
2.895956 12.695907 53.500755 55 36 36
2.895342 12.808518 53.489407 55 36 36
2.894608 12.920550 53.475857 55 36 36
2.893734 13.031888 53.459702 55 36 36
2.892699 13.142427 53.440586 55 36 36
2.891484 13.252060 53.418144 55 35 37
2.890073 13.360686 53.392067 55 35 38
2.888449 13.468211 53.362072 55 35 38
2.886601 13.574548 53.327919 54 36 38
2.884516 13.679618 53.289402 53 36 37
2.882186 13.783352 53.246372 52 36 36
2.879606 13.885688 53.198689 52 36 36
2.876769 13.986576 53.146290 51 36 36
2.873675 14.085977 53.089134 51 35 35
2.870324 14.183858 53.027218 51 35 35
2.866718 14.280206 52.960606 51 34 34
2.862864 14.375018 52.889404 51 34 33
2.858770 14.468311 52.813774 51 34 33
2.854450 14.560123 52.733959 51 34 33
2.849920 14.650513 52.650272 51 34 34
2.845201 14.739564 52.563099 50 34 34
2.840319 14.827386 52.472904 50 35 33
2.835304 14.914116 52.380241 50 36 34
2.830187 14.999913 52.285721 51 36 35
2.825008 15.084967 52.190033 51 37 36
2.819805 15.169481 52.093914 52 39 37
2.814620 15.253679 51.998127 52 40 38
2.809495 15.337793 51.903454 53 40 39
2.804474 15.422064 51.810677 53 40 39
2.799595 15.506725 51.720543 53 40 39
2.794897 15.592011 51.633762 52 39 39
2.790416 15.678139 51.550972 51 39 38
2.786183 15.765313 51.472771 50 38 37
2.782224 15.853711 51.399628 49 38 36
2.477141 -4.925423 44.010746 107 62 71
2.478794 -4.833773 44.040104 107 63 71
2.480460 -4.742023 44.069714 107 64 71
2.482142 -4.650175 44.099594 108 65 71
2.483841 -4.558228 44.129780 108 67 70
2.485561 -4.466190 44.160336 107 67 70
2.487306 -4.374064 44.191345 107 67 70
2.489082 -4.281858 44.222900 108 67 69
2.490895 -4.189577 44.255104 108 66 69
2.492751 -4.097228 44.288071 109 65 70
2.494656 -4.004817 44.321922 109 64 70
2.496618 -3.912347 44.356773 109 63 71
2.498641 -3.819823 44.392731 110 63 71
2.500733 -3.727245 44.429897 110 62 70
2.502899 -3.634614 44.468369 110 62 68
2.505141 -3.541926 44.508221 109 61 65
2.507466 -3.449178 44.549511 108 60 63
2.509873 -3.356364 44.592289 106 58 61
2.512366 -3.263476 44.636566 104 57 60
2.514943 -3.170503 44.682354 103 56 60
2.517603 -3.077435 44.729626 103 56 61
2.520345 -2.984260 44.778339 105 58 63
2.523166 -2.890965 44.828449 107 59 66
2.526061 -2.797535 44.879883 107 60 66
2.529025 -2.703959 44.932549 106 59 66
2.532054 -2.610222 44.986370 105 58 66
2.535143 -2.516313 45.041248 104 57 65
2.538286 -2.422218 45.097092 103 56 64
2.541479 -2.327929 45.153820 101 55 63
2.544718 -2.233435 45.211353 100 54 63
2.547998 -2.138728 45.269634 100 55 63
2.551318 -2.043801 45.328621 100 57 64
2.554676 -1.948650 45.388290 100 59 63
2.558073 -1.853269 45.448639 101 61 63
2.561509 -1.757654 45.509678 101 61 63
2.564985 -1.661803 45.571445 99 60 61
2.568505 -1.565712 45.633984 97 58 59
2.572072 -1.469378 45.697353 95 57 58
2.575689 -1.372798 45.761616 93 56 58
2.579360 -1.275967 45.826836 92 56 58
2.583088 -1.178882 45.893074 90 55 58
2.586876 -1.081535 45.960381 89 55 58
2.590727 -0.983923 46.028797 88 54 58
2.594641 -0.886037 46.098335 86 53 58
2.598619 -0.787870 46.169006 84 52 57
2.602660 -0.689416 46.240807 82 52 56
2.606763 -0.590666 46.313698 79 51 54
2.610925 -0.491613 46.387646 78 50 53
2.615144 -0.392250 46.462601 76 49 51
2.619417 -0.292569 46.538521 76 48 51
2.623742 -0.192565 46.615360 76 49 51
2.628116 -0.092232 46.693081 76 50 52
2.632540 0.008437 46.771664 76 50 52
2.637011 0.109446 46.851105 74 49 52
2.641531 0.210802 46.931412 72 48 51
2.646102 0.312510 47.012623 71 47 51
2.650727 0.414577 47.094795 71 48 51
2.655411 0.517010 47.178020 70 48 51
2.660160 0.619816 47.262386 69 47 50
2.664979 0.723005 47.348003 65 46 48
2.669875 0.826587 47.434998 61 44 45
2.674857 0.930574 47.523506 58 42 42
2.679931 1.034979 47.613655 56 41 42
2.685106 1.139814 47.705593 56 42 43
2.690388 1.245096 47.799442 56 42 44
2.695785 1.350840 47.895336 56 41 44
2.701304 1.457063 47.993393 55 40 43
2.706951 1.563783 48.093719 56 39 43
2.712730 1.671017 48.196396 56 39 42
2.718646 1.778783 48.301502 56 40 42
2.724701 1.887098 48.409073 55 40 40
2.730896 1.995979 48.519142 54 40 39
2.737231 2.105443 48.631683 55 43 43
2.743703 2.215503 48.746674 60 50 50
2.750308 2.326170 48.864029 56 48 48
2.757040 2.437457 48.983635 44 36 37
2.763890 2.549367 49.105339 37 29 30
2.770848 2.661906 49.228966 35 28 29
2.777902 2.775074 49.354290 36 28 29
2.785038 2.888868 49.481079 36 29 29
2.792241 3.003280 49.609051 35 29 29
2.799496 3.118300 49.737934 35 29 29
2.806785 3.233917 49.867435 35 29 29
2.814092 3.350113 49.997261 36 29 30
2.821402 3.466873 50.127132 37 28 30
2.828699 3.584176 50.256779 38 28 30
2.835968 3.702002 50.385937 40 28 31
2.843196 3.820329 50.514355 42 28 31
2.850371 3.939136 50.641823 44 29 31
2.857480 4.058400 50.768124 47 31 32
2.864513 4.178096 50.893078 50 33 35
2.871459 4.298203 51.016487 54 36 38
2.878309 4.418694 51.138199 57 38 41
2.885055 4.539544 51.258041 57 38 41
2.891686 4.660727 51.375854 57 39 41
2.898195 4.782215 51.491493 57 39 41
2.904572 4.903982 51.604805 58 39 42
2.910811 5.025997 51.715649 59 39 43
2.916903 5.148231 51.823887 60 39 43
2.922843 5.270655 51.929405 61 40 43
2.928622 5.393241 52.032089 63 41 44
2.934237 5.515960 52.131851 64 41 45
2.939683 5.638784 52.228603 64 42 45
2.944957 5.761690 52.322300 64 43 45
2.950056 5.884651 52.412899 65 44 45
2.954980 6.007646 52.500381 66 44 46
2.959728 6.130653 52.584732 67 44 48
2.964299 6.253654 52.665958 68 44 49
2.968696 6.376628 52.744080 68 44 49
2.972920 6.499561 52.819126 68 44 49
2.976972 6.622434 52.891106 68 43 49
2.980853 6.745231 52.960056 67 43 49
2.984565 6.867938 53.026012 66 42 49
2.988110 6.990537 53.088993 64 41 49
2.991489 7.113013 53.149025 63 41 48
2.994703 7.235351 53.206139 63 41 48
2.997754 7.357533 53.260334 63 41 48
3.000642 7.479543 53.311649 63 41 47
3.003367 7.601362 53.360065 64 41 46
3.005930 7.722973 53.405598 64 41 45
3.008330 7.844355 53.448235 63 41 45
3.010565 7.965485 53.487942 62 40 44
3.012633 8.086340 53.524696 62 39 43
3.014533 8.206894 53.558456 61 39 42
3.016261 8.327118 53.589153 61 39 41
3.017814 8.446984 53.616741 60 39 41
3.019188 8.566462 53.641148 60 39 41
3.020379 8.685519 53.662315 60 39 41
3.021385 8.804130 53.680195 58 39 40
3.022205 8.922264 53.694748 57 38 40
3.022836 9.039901 53.705967 56 38 39
3.023282 9.157022 53.713879 55 37 38
3.023544 9.273615 53.718536 55 36 38
3.023628 9.389675 53.720032 55 36 38
3.023542 9.505209 53.718513 56 36 38
3.023297 9.620228 53.714157 57 37 39
3.022906 9.734757 53.707207 58 38 39
3.022383 9.848827 53.697910 58 37 38
3.021745 9.962479 53.686581 59 37 38
3.021010 10.075757 53.673519 59 36 39
3.020197 10.188718 53.659084 59 36 40
3.019326 10.301418 53.643616 59 36 40
3.018417 10.413918 53.627449 59 36 41
3.017487 10.526276 53.610924 58 36 41
3.016554 10.638553 53.594349 58 36 40
3.015634 10.750805 53.578011 58 36 39
3.014742 10.863086 53.562157 58 36 39
3.013889 10.975442 53.547005 60 39 41
3.013085 11.087914 53.532726 62 41 42
3.012338 11.200536 53.519455 62 40 42
3.011653 11.313330 53.507275 62 39 41
3.011031 11.426314 53.496231 61 39 40
3.010472 11.539490 53.486290 59 37 38
3.009972 11.652856 53.477421 58 36 37
3.009527 11.766394 53.469509 58 36 37
3.009128 11.880080 53.462418 58 36 37
3.008764 11.993874 53.455940 58 37 37
3.008420 12.107726 53.449844 59 37 37
3.008083 12.221575 53.443848 58 37 37
3.007733 12.335347 53.437637 58 37 37
3.007352 12.448963 53.430862 57 36 36
3.006918 12.562328 53.423153 56 36 36
3.006408 12.675343 53.414101 55 37 36
3.005802 12.787905 53.403324 55 36 36
3.005075 12.899903 53.390404 55 36 36
3.004205 13.011229 53.374954 54 36 36
3.003172 13.121774 53.356602 54 36 36
3.001955 13.231429 53.334984 54 36 37
3.000536 13.340093 53.309772 54 36 38
2.998899 13.447670 53.280689 54 36 38
2.997030 13.554071 53.247478 54 36 38
2.994917 13.659217 53.209930 53 36 38
2.992550 13.763035 53.167881 53 36 37
2.989923 13.865462 53.121201 52 35 36
2.987030 13.966448 53.069805 51 35 36
2.983869 14.065950 53.013657 51 35 36
2.980441 14.163937 52.952740 50 35 35
2.976748 14.260392 52.887127 50 35 34
2.972796 14.355315 52.816910 50 35 34
2.968595 14.448724 52.742275 50 35 34
2.964158 14.540652 52.663441 50 35 33
2.959502 14.631162 52.580730 50 34 33
2.954651 14.720338 52.494537 50 34 33
2.949629 14.808289 52.405319 50 35 33
2.944469 14.895151 52.313633 50 35 34
2.939204 14.981088 52.220097 51 36 35
2.933874 15.066285 52.125401 51 37 35
2.928519 15.150947 52.030266 52 38 37
2.923184 15.235298 51.935471 53 39 38
2.917911 15.319571 51.841789 53 39 38
2.912745 15.404001 51.749996 53 39 39
2.907727 15.488828 51.660843 53 39 39
2.902896 15.574277 51.575027 52 38 38
2.898290 15.660566 51.493195 51 38 37
2.893940 15.747897 51.415909 50 37 36
2.572515 -4.831491 44.019321 107 62 70
2.574241 -4.739779 44.048855 107 63 70
2.575983 -4.647968 44.078671 107 64 69
2.577745 -4.556064 44.108822 107 65 68
2.579530 -4.464068 44.139359 107 65 69
2.581343 -4.371989 44.170380 106 66 69
2.583189 -4.279832 44.201973 107 66 69
2.585076 -4.187603 44.234257 107 65 69
2.587009 -4.095310 44.267338 107 64 70
2.588996 -4.002957 44.301342 108 63 70
2.591044 -3.910549 44.336380 109 63 71
2.593158 -3.818088 44.372562 110 63 71
2.595346 -3.725575 44.409996 110 62 70
2.597612 -3.633011 44.448761 110 62 69
2.599960 -3.540392 44.488941 109 61 66
2.602394 -3.447713 44.530590 108 59 63
2.604915 -3.354968 44.573734 107 58 61
2.607526 -3.262148 44.618412 104 56 60
2.610226 -3.169244 44.664604 103 55 59
2.613012 -3.076243 44.712292 103 56 61
2.615884 -2.983133 44.761433 104 58 63
2.618838 -2.889902 44.811970 105 59 66
2.621868 -2.796535 44.863827 106 59 68
2.624971 -2.703018 44.916920 106 59 69
2.628141 -2.609340 44.971165 105 58 68
2.631373 -2.515487 45.026459 103 57 67
2.634660 -2.421446 45.082718 102 56 66
2.637999 -2.327209 45.139847 102 56 65
2.641384 -2.232764 45.197777 101 55 65
2.644813 -2.138105 45.256447 100 56 64
2.648282 -2.043223 45.315804 99 57 63
2.651790 -1.948115 45.375828 99 59 62
2.655336 -1.852774 45.436504 100 60 63
2.658921 -1.757197 45.497852 100 60 61
2.662546 -1.661382 45.559887 99 59 60
2.666215 -1.565324 45.622658 97 57 58
2.669929 -1.469020 45.686211 95 56 57
2.673693 -1.372468 45.750614 94 55 57
2.677509 -1.275663 45.815918 92 55 58
2.681381 -1.178602 45.882175 91 55 58
2.685312 -1.081278 45.949444 90 54 59
2.689305 -0.983687 46.017761 88 54 59
2.693360 -0.885822 46.087147 86 53 59
2.697478 -0.787676 46.157608 84 52 58
2.701658 -0.689242 46.229137 82 51 57
2.705899 -0.590513 46.301716 80 50 55
2.710200 -0.491482 46.375305 78 50 53
2.714558 -0.392142 46.449875 76 49 52
2.718971 -0.292487 46.525383 75 48 51
2.723436 -0.192509 46.601788 75 49 52
2.727952 -0.092204 46.679062 75 49 52
2.732517 0.008434 46.757183 74 49 51
2.737132 0.109411 46.836155 73 48 51
2.741798 0.210733 46.916000 72 47 50
2.746517 0.312405 46.996742 70 46 49
2.751292 0.414433 47.078445 70 46 48
2.756128 0.516825 47.161198 70 47 49
2.761030 0.619589 47.245079 69 48 49
2.766005 0.722733 47.330212 66 47 48
2.771060 0.826269 47.416706 62 44 44
2.776202 0.930206 47.504696 58 42 41
2.781439 1.034558 47.594303 55 40 40
2.786778 1.139338 47.685669 56 41 43
2.792228 1.244561 47.778915 57 43 45
2.797794 1.350243 47.874165 56 43 45
2.803484 1.456400 47.971527 56 41 44
2.809303 1.563048 48.071102 56 40 44
2.815257 1.670205 48.172970 55 39 43
2.821348 1.777888 48.277199 55 40 42
2.827579 1.886114 48.383827 54 40 40
2.833952 1.994899 48.492870 53 40 40
2.840465 2.104258 48.604317 61 50 50
2.847115 2.214205 48.718121 77 68 69
2.853899 2.324751 48.834202 75 68 69
2.860809 2.435905 48.952446 51 44 45
2.867838 2.547673 49.072708 35 28 29
2.874973 2.660059 49.194801 34 26 28
2.882203 2.773063 49.318512 35 27 28
2.889513 2.886680 49.443604 35 28 29
2.896889 3.000904 49.569809 35 29 28
2.904314 3.115725 49.696861 34 28 28
2.911771 3.231131 49.824471 34 28 28
2.919245 3.347105 49.952362 35 28 29
2.926720 3.463631 50.080261 36 28 30
2.934179 3.580690 50.207905 38 28 30
2.941610 3.698263 50.335049 40 28 31
2.948997 3.816329 50.461456 41 28 31
2.956329 3.934866 50.586922 44 29 32
2.963595 4.053853 50.711243 47 32 34
2.970783 4.173267 50.834251 51 35 37
2.977885 4.293087 50.955772 55 38 40
2.984891 4.413289 51.075649 58 39 42
2.991791 4.533848 51.193729 57 39 41
2.998578 4.654740 51.309864 56 38 39
3.005244 4.775939 51.423916 56 39 39
3.011778 4.897418 51.535736 58 39 41
3.018175 5.019150 51.645195 59 39 43
3.024426 5.141105 51.752159 60 39 43
3.030525 5.263258 51.856522 61 40 43
3.036465 5.385579 51.958164 62 40 44
3.042241 5.508040 52.056995 63 41 45
3.047849 5.630616 52.152946 64 42 45
3.053283 5.753281 52.245945 65 43 46
3.058544 5.876012 52.335957 66 44 47
3.063628 5.998786 52.422955 66 44 47
3.068535 6.121581 52.506916 67 44 48
3.073265 6.244378 52.587849 68 44 49
3.077817 6.367158 52.665756 68 44 49
3.082194 6.489904 52.740650 68 43 49
3.086396 6.612597 52.812546 68 43 49
3.090424 6.735222 52.881470 67 42 49
3.094279 6.857760 52.947433 66 42 49
3.097962 6.980196 53.010456 64 41 49
3.101474 7.102512 53.070557 63 40 48
3.104817 7.224691 53.127750 62 41 47
3.107990 7.346717 53.182041 63 41 47
3.110994 7.468572 53.233452 63 41 46
3.113829 7.590237 53.281967 63 41 45
3.116495 7.711691 53.327579 63 41 44
3.118991 7.832915 53.370289 63 40 44
3.121315 7.953886 53.410053 62 40 44
3.123465 8.074578 53.446850 61 39 42
3.125439 8.194967 53.480625 61 38 42
3.127233 8.315024 53.511326 61 38 41
3.128844 8.434718 53.538883 60 38 41
3.130267 8.554020 53.563244 59 38 41
3.131500 8.672898 53.584339 59 38 41
3.132539 8.791326 53.602123 58 38 41
3.133383 8.909272 53.616558 57 37 40
3.134030 9.026714 53.627628 56 37 39
3.134482 9.143637 53.635365 56 37 38
3.134742 9.260025 53.639816 55 36 38
3.134816 9.375876 53.641087 54 36 38
3.134713 9.491195 53.639313 54 36 38
3.134442 9.605992 53.634678 56 37 39
3.134017 9.720295 53.627415 57 37 39
3.133455 9.834131 53.617786 58 37 39
3.132771 9.947543 53.606091 59 37 39
3.131986 10.060577 53.592655 59 36 39
3.131119 10.173288 53.577824 59 36 40
3.130191 10.285734 53.561939 60 37 41
3.129221 10.397974 53.545349 60 37 42
3.128230 10.510070 53.528389 60 38 42
3.127236 10.622083 53.511379 59 37 41
3.126256 10.734070 53.494606 58 37 39
3.125304 10.846083 53.478321 58 37 39
3.124395 10.958174 53.462757 60 38 40
3.123537 11.070382 53.448082 62 40 41
3.122740 11.182744 53.434444 62 40 41
3.122009 11.295285 53.421932 62 40 41
3.121346 11.408022 53.410587 61 39 40
3.120751 11.520960 53.400402 58 37 37
3.120220 11.634096 53.391331 56 35 36
3.119750 11.747419 53.383286 56 35 36
3.119331 11.860903 53.376114 56 36 36
3.118953 11.974508 53.369633 57 37 36
3.118600 12.088189 53.363602 58 37 37
3.118258 12.201885 53.357746 58 37 37
3.117908 12.315524 53.351761 57 36 37
3.117530 12.429024 53.345284 56 36 36
3.117101 12.542294 53.337948 55 36 36
3.116599 12.655231 53.329353 55 36 36
3.116000 12.767738 53.319107 54 36 36
3.115280 12.879702 53.306793 54 37 36
3.114416 12.991010 53.292011 54 37 37
3.113387 13.101556 53.274391 54 37 37
3.112169 13.211229 53.253559 54 38 37
3.110745 13.319929 53.229195 54 37 38
3.109097 13.427557 53.201000 54 37 38
3.107210 13.534020 53.168709 54 37 38
3.105072 13.639242 53.132118 53 37 38
3.102672 13.743145 53.091045 53 36 37
3.100002 13.845668 53.045364 52 36 36
3.097058 13.946756 52.994984 51 36 36
3.093836 14.046368 52.939850 51 36 36
3.090336 14.144471 52.879967 51 36 36
3.086562 14.241049 52.815388 50 36 36
3.082519 14.336099 52.746208 50 35 35
3.078218 14.429639 52.672607 50 35 34
3.073672 14.521704 52.594814 50 35 34
3.068899 14.612356 52.513145 50 34 33
3.063923 14.701679 52.427998 50 35 34
3.058770 14.789783 52.339832 50 35 33
3.053473 14.876802 52.249191 50 35 34
3.048069 14.962902 52.156708 50 36 34
3.042596 15.048266 52.063061 51 36 35
3.037097 15.133099 51.968971 52 37 36
3.031618 15.217623 51.875214 53 38 38
3.026203 15.302067 51.782555 53 38 38
3.020897 15.386669 51.691769 53 38 39
3.015744 15.471663 51.603596 53 37 38
3.010785 15.557275 51.518726 52 37 37
3.006055 15.643718 51.437794 51 37 37
3.001588 15.731192 51.361366 50 36 36
2.668039 -4.737726 44.029781 105 61 67
2.669842 -4.645950 44.059532 105 61 66
2.671666 -4.554081 44.089626 105 62 66
2.673514 -4.462123 44.120132 105 63 67
2.675394 -4.370085 44.151142 106 64 69
2.677309 -4.277971 44.182751 106 64 70
2.679268 -4.185788 44.215076 105 64 69
2.681277 -4.093542 44.248230 105 63 69
2.683344 -4.001240 44.282341 106 62 69
2.685476 -3.908885 44.317520 107 62 70
2.687679 -3.816480 44.353878 109 62 70
2.689960 -3.724025 44.391518 110 62 70
2.692323 -3.631521 44.430527 110 62 68
2.694774 -3.538962 44.470974 110 61 66
2.697316 -3.446345 44.512920 109 59 64
2.699950 -3.353662 44.556393 108 58 62
2.702678 -3.260905 44.601410 105 55 60
2.705499 -3.168063 44.647968 103 54 60
2.708412 -3.075124 44.696033 103 55 61
2.711414 -2.982076 44.745567 105 57 65
2.714500 -2.888905 44.796509 106 58 68
2.717668 -2.795597 44.848778 107 59 70
2.720911 -2.702138 44.902294 107 59 71
2.724223 -2.608516 44.956959 105 58 70
2.727600 -2.514717 45.012684 103 57 69
2.731035 -2.420730 45.069370 102 56 67
2.734523 -2.326543 45.126934 101 55 66
2.738059 -2.232147 45.185291 100 56 65
2.741640 -2.137535 45.244381 99 56 64
2.745261 -2.042698 45.304150 99 58 63
2.748923 -1.947632 45.364574 99 59 63
2.752623 -1.852331 45.425629 99 60 62
2.756361 -1.756791 45.487331 99 60 60
2.760140 -1.661010 45.549686 97 58 59
2.763960 -1.564983 45.612732 95 56 57
2.767826 -1.468709 45.676525 94 55 56
2.771739 -1.372183 45.741104 93 54 57
2.775704 -1.275402 45.806526 92 54 58
2.779722 -1.178362 45.872849 91 54 59
2.783798 -1.081059 45.940113 90 54 60
2.787934 -0.983486 46.008362 89 53 60
2.792130 -0.885638 46.077606 87 53 60
2.796387 -0.787510 46.147865 85 52 59
2.800706 -0.689093 46.219135 83 51 58
2.805085 -0.590382 46.291401 81 50 55
2.809523 -0.491369 46.364635 79 49 54
2.814017 -0.392049 46.438805 78 49 53
2.818567 -0.292414 46.513882 76 49 53
2.823169 -0.192460 46.589832 75 49 52
2.827823 -0.092180 46.666630 75 48 52
2.832527 0.008432 46.744270 74 48 51
2.837283 0.109380 46.822754 74 48 50
2.842092 0.210671 46.902107 73 47 49
2.846955 0.312309 46.982361 70 46 47
2.851876 0.414302 47.063580 69 45 46
2.856861 0.516657 47.145847 69 48 48
2.861915 0.619381 47.229244 71 51 50
2.867044 0.722484 47.313889 69 50 49
2.872255 0.825976 47.399887 63 46 45
2.877556 0.929867 47.487370 58 42 41
2.882954 1.034170 47.576450 55 41 40
2.888458 1.138899 47.667267 56 42 42
2.894073 1.244067 47.759930 57 43 44
2.899807 1.349690 47.854561 56 43 45
2.905666 1.455784 47.951252 56 42 44
2.911656 1.562365 48.050110 55 41 43
2.917782 1.669450 48.151196 54 40 42
2.924046 1.777055 48.254574 53 40 41
2.930451 1.885196 48.360275 52 40 40
2.936998 1.993888 48.468311 52 42 41
2.943685 2.103147 48.578663 62 53 53
2.950509 2.212985 48.691284 81 74 75
2.957466 2.323412 48.806091 80 73 75
2.964548 2.434438 48.922966 53 46 49
2.971747 2.546067 49.041763 34 28 30
2.979051 2.658302 49.162304 33 26 28
2.986448 2.771143 49.284378 34 27 28
2.993924 2.884587 49.407745 35 27 28
3.001463 2.998625 49.532154 34 27 27
3.009048 3.113247 49.657337 34 27 27
3.016665 3.228443 49.783024 33 27 27
3.024295 3.344196 49.908943 34 27 27
3.031923 3.460489 50.034832 36 27 28
3.039535 3.577306 50.160450 37 27 30
3.047115 3.694626 50.285549 39 28 30
3.054651 3.812431 50.409912 41 28 31
3.062131 3.930699 50.533348 44 29 32
3.069544 4.049410 50.655674 48 31 35
3.076878 4.168544 50.776714 52 35 38
3.084126 4.288079 50.896332 56 38 41
3.091279 4.407993 51.014359 58 39 42
3.098327 4.528263 51.130669 57 38 41
3.105262 4.648866 51.245117 55 37 38
3.112076 4.769777 51.357563 55 38 38
3.118761 4.890971 51.467892 57 38 40
3.125309 5.012421 51.575958 59 39 42
3.131714 5.134100 51.681648 59 39 42
3.137967 5.255982 51.784843 60 38 42
3.144063 5.378040 51.885433 62 40 44
3.149995 5.500247 51.983341 63 41 45
3.155760 5.622576 52.078476 64 42 45
3.161353 5.745004 52.170776 65 43 46
3.166772 5.867507 52.260208 66 44 47
3.172015 5.990062 52.346722 66 44 48
3.177080 6.112649 52.430305 67 44 48
3.181966 6.235247 52.510948 67 44 49
3.186674 6.357836 52.588642 67 43 49
3.191205 6.480399 52.663406 67 42 49
3.195557 6.602917 52.735229 67 42 49
3.199733 6.725372 52.804138 67 42 49
3.203731 6.847747 52.870129 66 41 49
3.207554 6.970025 52.933212 64 41 49
3.211201 7.092185 52.993401 63 41 48
3.214673 7.214212 53.050694 63 41 47
3.217970 7.336088 53.105103 63 41 47
3.221092 7.457793 53.156624 63 41 45
3.224039 7.579309 53.205254 62 40 44
3.226809 7.700613 53.250977 62 40 44
3.229403 7.821686 53.293774 62 40 44
3.231818 7.942504 53.333626 62 39 44
3.234051 8.063042 53.370487 61 38 42
3.236101 8.183273 53.404308 61 38 42
3.237962 8.303169 53.435032 60 37 41
3.239632 8.422699 53.462593 59 37 41
3.241107 8.541834 53.486935 59 37 41
3.242383 8.660542 53.507988 58 37 42
3.243457 8.778792 53.525703 58 37 41
3.244326 8.896558 53.540043 57 37 41
3.244990 9.013817 53.551003 57 37 40
3.245450 9.130548 53.558590 56 37 39
3.245709 9.246742 53.562874 55 36 39
3.245774 9.362392 53.563938 55 36 38
3.245652 9.477503 53.561935 55 36 38
3.245356 9.592088 53.557041 56 37 39
3.244898 9.706171 53.549492 57 37 40
3.244296 9.819783 53.539555 58 37 40
3.243567 9.932962 53.527519 58 37 40
3.242731 10.045760 53.513721 59 37 40
3.241809 10.158228 53.498508 59 37 40
3.240822 10.270426 53.482220 61 37 41
3.239791 10.382413 53.465214 62 38 42
3.238738 10.494252 53.447830 62 39 42
3.237681 10.606005 53.430382 61 39 42
3.236638 10.717730 53.413174 60 38 40
3.235626 10.829482 53.396469 58 37 38
3.234657 10.941311 53.380486 58 37 38
3.233744 11.053260 53.365417 60 38 39
3.232895 11.165365 53.351402 61 38 39
3.232116 11.277655 53.338547 61 39 39
3.231410 11.390146 53.326897 61 39 39
3.230777 11.502848 53.316452 58 37 37
3.230215 11.615758 53.307175 55 35 36
3.229718 11.728866 53.298973 55 35 36
3.229278 11.842146 53.291710 57 36 36
3.228883 11.955564 53.285198 57 36 36
3.228520 12.069073 53.279213 57 36 36
3.228173 12.182613 53.273476 57 36 36
3.227821 12.296115 53.267677 57 37 37
3.227445 12.409495 53.261471 56 36 36
3.227021 12.522666 53.254478 55 36 36
3.226527 12.635527 53.246311 54 36 36
3.225935 12.747972 53.236557 54 37 36
3.225224 12.859894 53.224815 54 37 36
3.224367 12.971181 53.210670 53 38 37
3.223342 13.081724 53.193748 54 38 37
3.222126 13.191414 53.173683 53 38 38
3.220698 13.300144 53.150127 54 38 38
3.219042 13.407819 53.122795 54 38 38
3.217140 13.514345 53.091412 54 37 38
3.214980 13.619639 53.055756 53 37 38
3.212550 13.723629 53.015656 53 37 37
3.209842 13.826249 52.970970 52 36 36
3.206851 13.927445 52.921604 52 36 37
3.203573 14.027173 52.867508 52 36 36
3.200008 14.125401 52.808678 52 36 36
3.196159 14.222114 52.745163 51 36 36
3.192032 14.317306 52.677063 50 35 36
3.187638 14.410993 52.604546 50 35 35
3.182991 14.503215 52.527851 49 35 34
3.178109 14.594031 52.447292 50 34 33
3.173017 14.683524 52.363255 49 34 33
3.167742 14.771803 52.276203 49 34 33
3.162317 14.859005 52.186684 49 34 33
3.156781 14.945291 52.095322 49 35 33
3.151174 15.030845 52.002785 50 35 34
3.145539 15.115870 51.909801 51 36 35
3.139924 15.200583 51.817131 52 37 37
3.134373 15.285217 51.725536 53 37 38
3.128934 15.370001 51.635773 52 37 38
3.123651 15.455169 51.548580 52 37 37
3.118564 15.540942 51.464642 51 36 37
3.113713 15.627533 51.384575 51 36 36
2.761862 -4.735855 44.012394 104 59 64
2.763725 -4.644109 44.042076 103 58 63
2.765609 -4.552271 44.072109 104 59 64
2.767520 -4.460347 44.102566 105 60 67
2.769464 -4.368343 44.133541 106 62 69
2.771447 -4.276265 44.165138 105 63 69
2.773476 -4.184121 44.197468 104 62 68
2.775558 -4.091916 44.230656 103 62 67
2.777703 -3.999657 44.264828 104 62 68
2.779916 -3.907348 44.300095 106 62 69
2.782204 -3.814990 44.336567 108 62 69
2.784576 -3.722586 44.374355 109 62 68
2.787035 -3.630132 44.413544 109 61 67
2.789586 -3.537627 44.454197 110 61 65
2.792233 -3.445065 44.496380 110 60 64
2.794977 -3.352437 44.540115 110 59 63
2.797821 -3.259737 44.585426 107 56 61
2.800762 -3.166951 44.632294 105 54 60
2.803799 -3.074069 44.680695 105 55 63
2.806930 -2.981077 44.730583 106 57 66
2.810150 -2.887962 44.781898 107 58 69
2.813454 -2.794710 44.834553 108 59 72
2.816837 -2.701307 44.888474 107 59 72
2.820294 -2.607738 44.943550 105 58 71
2.823817 -2.513992 44.999702 103 57 69
2.827402 -2.420056 45.056828 101 56 67
2.831042 -2.325919 45.114830 100 56 66
2.834732 -2.231571 45.173634 99 56 65
2.838468 -2.137005 45.233170 99 57 64
2.842246 -2.042212 45.293381 99 58 63
2.846065 -1.947188 45.354233 99 59 63
2.849922 -1.851926 45.415707 99 60 62
2.853818 -1.756423 45.477791 97 59 60
2.857754 -1.660675 45.540504 95 57 58
2.861730 -1.564679 45.603870 93 55 57
2.865750 -1.468432 45.667927 92 54 57
2.869816 -1.371931 45.732727 92 53 57
2.873931 -1.275173 45.798302 92 53 57
2.878098 -1.178153 45.864716 91 53 58
2.882320 -1.080868 45.931995 91 53 59
2.886600 -0.983311 46.000191 89 53 60
2.890937 -0.885479 46.069313 88 52 60
2.895334 -0.787365 46.139381 86 52 59
2.899791 -0.688963 46.210396 84 51 57
2.904305 -0.590266 46.282345 81 50 56
2.908878 -0.491269 46.355209 80 50 55
2.913507 -0.391966 46.428974 79 50 55
2.918190 -0.292350 46.503601 77 49 54
2.922926 -0.192415 46.579075 75 49 53
2.927714 -0.092157 46.655380 75 49 53
2.932555 0.008430 46.732517 74 48 52
2.937448 0.109352 46.810490 74 48 51
2.942395 0.210613 46.889328 73 47 50
2.947399 0.312221 46.969074 71 46 47
2.952465 0.414181 47.049797 70 46 46
2.957596 0.516501 47.131561 72 50 49
2.962798 0.619188 47.214474 74 53 52
2.968079 0.722251 47.298626 72 52 50
2.973445 0.825701 47.384144 65 48 46
2.978904 0.929549 47.471123 59 43 43
2.984462 1.033806 47.559708 56 42 42
2.990128 1.138486 47.649990 56 43 43
2.995908 1.243602 47.742100 56 43 45
3.001809 1.349171 47.836140 56 43 45
3.007837 1.455206 47.932201 56 43 45
3.013997 1.561723 48.030365 55 41 44
3.020293 1.668739 48.130699 53 41 43
3.026729 1.776270 48.233257 52 41 42
3.033305 1.884330 48.338058 51 41 42
3.040023 1.992934 48.445107 51 42 42
3.046880 2.102096 48.554379 56 48 48
3.053874 2.211828 48.665825 64 58 60
3.060998 2.322140 48.779358 62 56 59
3.068246 2.433039 48.894863 46 40 43
3.075608 2.544531 49.012192 34 28 31
3.083074 2.656618 49.131165 33 26 28
3.090631 2.769299 49.251579 34 26 28
3.098262 2.882569 49.373196 34 26 27
3.105955 2.996423 49.495785 34 26 26
3.113692 3.110849 49.619076 33 26 25
3.121456 3.225835 49.742805 33 25 26
3.129232 3.341367 49.866730 34 25 26
3.137004 3.457428 49.990582 36 26 27
3.144758 3.574003 50.114140 37 26 29
3.152478 3.691072 50.237171 40 27 29
3.160153 3.808616 50.359474 42 28 30
3.167771 3.926616 50.480862 45 29 33
3.175320 4.045053 50.601170 49 32 36
3.182792 4.163908 50.720245 52 35 39
3.190177 4.283159 50.837936 57 38 42
3.197468 4.402787 50.954105 58 39 42
3.204654 4.522769 51.068634 57 38 41
3.211730 4.643085 51.181389 55 37 38
3.218686 4.763710 51.292236 55 37 38
3.225514 4.884619 51.401054 57 38 40
3.232208 5.005790 51.507729 58 38 40
3.238760 5.127195 51.612137 59 38 40
3.245162 5.248808 51.714157 59 37 41
3.251409 5.370605 51.813702 61 39 43
3.257494 5.492558 51.910679 63 40 44
3.263413 5.614644 52.004997 64 42 45
3.269161 5.736836 52.096603 65 43 46
3.274736 5.859113 52.185444 65 44 47
3.280135 5.981452 52.271477 66 44 48
3.285356 6.103833 52.354679 66 44 48
3.290399 6.226233 52.435036 65 43 48
3.295261 6.348634 52.512527 65 41 47
3.299945 6.471017 52.587158 65 41 47
3.304448 6.593363 52.658924 66 41 48
3.308771 6.715652 52.727821 66 41 48
3.312915 6.837868 52.793850 66 41 49
3.316878 6.959991 52.857014 65 41 49
3.320661 7.082001 52.917297 65 41 48
3.324265 7.203880 52.974712 65 41 47
3.327687 7.325610 53.029247 64 41 47
3.330928 7.447170 53.080906 63 41 45
3.333988 7.568541 53.129665 62 40 44
3.336865 7.689701 53.175514 62 40 43
3.339558 7.810628 53.218430 62 39 44
3.342065 7.931298 53.258381 62 39 43
3.344384 8.051687 53.295330 61 38 43
3.346510 8.171766 53.329212 61 37 42
3.348441 8.291509 53.359989 60 37 42
3.350173 8.410881 53.387581 59 37 41
3.351701 8.529856 53.411930 59 37 42
3.353021 8.648398 53.432964 59 37 42
3.354130 8.766481 53.450645 58 37 43
3.355026 8.884075 53.464920 58 37 42
3.355708 9.001157 53.475788 57 37 41
3.356177 9.117706 53.483261 57 37 40
3.356436 9.233712 53.487396 56 36 40
3.356493 9.349170 53.488297 56 36 39
3.356354 9.464082 53.486084 56 37 39
3.356032 9.578463 53.480961 56 37 39
3.355542 9.692334 53.473152 57 38 40
3.354900 9.805727 53.462921 58 38 40
3.354125 9.918684 53.450573 58 38 40
3.353238 10.031250 53.436428 59 37 40
3.352260 10.143482 53.420849 60 37 40
3.351214 10.255438 53.404171 61 38 41
3.350121 10.367178 53.386761 62 39 42
3.349004 10.478766 53.368958 62 40 42
3.347883 10.590265 53.351093 62 40 42
3.346776 10.701734 53.333458 61 39 41
3.345701 10.813228 53.316322 58 37 38
3.344672 10.924800 53.299931 57 36 37
3.343702 11.036493 53.284466 58 36 37
3.342799 11.148345 53.270073 59 37 38
3.341970 11.260386 53.256870 59 37 39
3.341220 11.372635 53.244915 59 37 39
3.340548 11.485102 53.234196 57 37 38
3.339951 11.597786 53.224697 55 35 37
3.339426 11.710678 53.216324 55 35 37
3.338964 11.823757 53.208954 56 36 37
3.338552 11.936986 53.202396 57 36 37
3.338178 12.050322 53.196430 56 36 36
3.337823 12.163703 53.190784 56 36 36
3.337470 12.277065 53.185154 56 36 36
3.337095 12.390324 53.179184 56 36 36
3.336676 12.503390 53.172508 55 36 36
3.336188 12.616166 53.164726 54 37 36
3.335605 12.728546 53.155437 54 37 36
3.334902 12.840424 53.144230 54 37 37
3.334052 12.951685 53.130692 54 38 37
3.333032 13.062219 53.114437 54 38 37
3.331819 13.171918 53.095097 53 38 38
3.330390 13.280676 53.072330 54 38 38
3.328727 13.388393 53.045826 54 38 38
3.326813 13.494978 53.015324 53 37 38
3.324634 13.600347 52.980598 53 37 37
3.322178 13.704422 52.941456 53 37 37
3.319436 13.807142 52.897766 52 36 36
3.316402 13.908450 52.849426 52 36 36
3.313073 14.008301 52.796375 52 36 36
3.309449 14.106663 52.738621 52 36 36
3.305532 14.203518 52.676197 51 36 36
3.301328 14.298863 52.609211 51 35 36
3.296849 14.392716 52.537830 50 35 35
3.292109 14.485112 52.462288 50 34 34
3.287126 14.576110 52.382889 49 34 34
3.281926 14.665792 52.300022 48 34 33
3.276538 14.754271 52.214157 47 33 32
3.270995 14.841678 52.125828 47 33 32
3.265337 14.928173 52.035652 48 34 32
3.259604 15.013938 51.944294 49 35 33
3.253842 15.099174 51.852470 50 35 35
3.248097 15.184096 51.760929 51 36 36
3.242418 15.268932 51.670425 52 36 37
3.236851 15.353909 51.581711 51 36 37
3.231441 15.439257 51.495510 51 36 36
3.226232 15.525193 51.412487 51 36 36
3.221260 15.611925 51.333256 51 36 36
2.857633 -4.642434 44.026188 102 56 62
2.859578 -4.550623 44.056152 102 57 63
2.861550 -4.458726 44.086540 103 58 65
2.863557 -4.366751 44.117458 104 60 67
2.865605 -4.274704 44.149010 104 61 68
2.867702 -4.182591 44.181313 103 61 67
2.869855 -4.090420 44.214485 103 62 66
2.872073 -3.998197 44.248665 104 62 67
2.874365 -3.905926 44.283966 105 62 67
2.876736 -3.813607 44.320499 107 62 67
2.879194 -3.721244 44.358368 108 61 67
2.881745 -3.628835 44.397667 108 61 66
2.884393 -3.536375 44.438465 109 60 65
2.887142 -3.443860 44.480816 110 59 64
2.889993 -3.351281 44.524750 110 59 64
2.892949 -3.258630 44.570290 110 57 63
2.896008 -3.165895 44.617409 108 56 64
2.899168 -3.073064 44.666092 108 56 66
2.902426 -2.980124 44.716286 109 57 68
2.905777 -2.887061 44.767925 108 58 71
2.909218 -2.793861 44.820938 108 59 72
2.912742 -2.700510 44.875229 107 59 72
2.916343 -2.606992 44.930702 105 58 70
2.920014 -2.513297 44.987267 103 57 67
2.923749 -2.419410 45.044815 101 56 65
2.927543 -2.325322 45.103260 100 57 64
2.931389 -2.231022 45.162514 99 57 63
2.935283 -2.136501 45.222504 99 58 63
2.939221 -2.041752 45.283173 99 60 63
2.943199 -1.946769 45.344471 99 61 63
2.947217 -1.851545 45.406376 98 60 62
2.951274 -1.756078 45.468872 96 59 61
2.955369 -1.660363 45.531963 94 57 59
2.959504 -1.564398 45.595673 92 54 58
2.963681 -1.468178 45.660023 91 53 57
2.967902 -1.371701 45.725056 91 52 57
