ply
format ascii 1.0
element vertex 1172
property float x
property float y
property float z
property uchar red
property uchar green
property uchar blue
end_header
18.600571 5.698146 64.340347 121 89 98
18.612587 5.840613 64.381912 126 95 103
18.623878 5.983026 64.420967 145 113 122
18.634447 6.125370 64.457527 164 133 142
18.644314 6.267636 64.491653 171 140 149
18.653509 6.409818 64.523468 168 136 145
18.662081 6.551918 64.553108 159 127 136
18.670078 6.693940 64.580780 151 119 129
18.677567 6.835895 64.606682 151 117 129
18.684616 6.977798 64.631065 156 122 134
18.691299 7.119667 64.654182 162 127 140
18.697689 7.261520 64.676285 162 129 141
18.703859 7.403383 64.697632 160 128 139
18.709875 7.545276 64.718437 155 126 134
18.715797 7.687219 64.738922 152 126 131
18.721674 7.829232 64.759247 159 137 138
18.727545 7.971330 64.779556 171 151 152
18.733431 8.113523 64.799919 174 156 156
18.739344 8.255814 64.820366 171 154 154
18.745272 8.398200 64.840874 171 154 155
18.751192 8.540672 64.861359 175 158 159
18.757065 8.683210 64.881668 179 161 162
18.762836 8.825788 64.901634 177 159 160
18.768436 8.968370 64.921005 174 155 156
18.773787 9.110915 64.939514 174 154 154
18.778793 9.253368 64.956825 174 153 151
18.783360 9.395679 64.972626 172 150 148
18.787384 9.537781 64.986542 170 146 146
18.790760 9.679609 64.998222 168 142 143
18.793381 9.821093 65.007286 164 137 141
18.795145 9.962162 65.013390 161 132 139
18.795954 10.102743 65.016190 156 126 135
18.795715 10.242765 65.015358 150 119 131
18.794338 10.382156 65.010597 149 118 131
18.791744 10.520845 65.001633 153 120 134
18.787863 10.658765 64.988205 156 123 136
18.782629 10.795849 64.970093 154 121 132
18.775980 10.932032 64.947098 152 120 129
18.767864 11.067249 64.919022 152 121 128
18.758234 11.201443 64.885712 152 121 128
18.747044 11.334549 64.847008 152 122 127
18.734251 11.466507 64.802750 154 122 126
18.719818 11.597259 64.752831 155 122 126
18.703709 11.726744 64.697105 155 122 126
18.685894 11.854906 64.635483 155 121 125
18.666336 11.981686 64.567833 155 120 124
18.645018 12.107028 64.494087 154 118 122
18.621914 12.230882 64.414177 152 116 119
18.597015 12.353198 64.328049 150 114 118
18.570316 12.473933 64.235695 147 112 117
18.541822 12.593052 64.137138 144 110 115
18.511555 12.710526 64.032433 141 108 114
18.479540 12.826339 63.921696 138 107 112
18.445827 12.940481 63.805084 133 104 109
18.410482 13.052963 63.682819 128 101 106
18.373581 13.163804 63.555176 124 98 103
18.335222 13.273040 63.422493 123 98 104
18.295513 13.380716 63.285141 125 102 109
18.254583 13.486897 63.143559 129 106 115
18.212559 13.591651 62.998192 130 110 119
18.169586 13.695065 62.849552 130 110 122
18.125811 13.797224 62.698124 129 109 122
18.081379 13.898229 62.544437 127 108 122
18.036436 13.998173 62.388977 125 107 121
17.991119 14.097155 62.232227 123 105 119
17.945555 14.195263 62.074612 122 104 117
17.899858 14.292587 61.916546 120 102 114
17.854130 14.389205 61.758369 118 98 110
17.808451 14.485181 61.600365 115 96 107
17.762890 14.580572 61.442768 112 93 103
17.717495 14.675421 61.285740 110 91 101
17.672293 14.769753 61.129383 108 89 98
17.627287 14.863579 60.973709 106 88 95
17.582464 14.956888 60.818661 105 86 94
17.537792 15.049659 60.664143 104 85 92
17.493216 15.141846 60.509953 102 84 91
17.448660 15.233385 60.355827 100 83 89
17.404024 15.324190 60.201431 99 82 88
17.359198 15.414162 60.046375 97 80 88
17.314053 15.503177 59.890213 96 78 88
17.268446 15.591104 59.732456 94 77 87
17.222231 15.677796 59.572601 93 76 86
17.175261 15.763106 59.410126 93 76 87
17.127390 15.846883 59.244541 93 78 87
17.078487 15.928984 59.075382 93 79 88
18.389534 3.005757 63.139557 47 34 35
18.408220 3.145057 63.203716 46 32 34
18.427185 3.284683 63.268829 45 30 32
18.446314 3.424621 63.334507 45 27 29
18.465504 3.564853 63.400394 45 26 26
18.484663 3.705364 63.466175 46 25 25
18.503712 3.846135 63.531582 49 26 25
18.522581 3.987150 63.596371 53 28 25
18.541210 4.128390 63.660328 61 32 29
18.559544 4.269838 63.723278 70 37 36
18.577532 4.411475 63.785034 75 39 41
18.595127 4.553283 63.845451 77 38 44
18.612288 4.695241 63.904373 81 39 49
18.628967 4.837329 63.961643 88 44 58
18.645124 4.979523 64.017113 97 53 69
18.660715 5.121802 64.070648 108 65 81
18.675697 5.264140 64.122086 117 77 92
18.690035 5.406512 64.171310 122 84 98
18.703693 5.548896 64.218208 124 88 101
18.716646 5.691268 64.262680 123 89 100
18.728878 5.833607 64.304680 126 93 102
18.740381 5.975894 64.344177 138 106 114
18.751160 6.118115 64.381180 154 123 131
18.761230 6.260260 64.415756 164 133 141
18.770624 6.402323 64.448013 166 135 143
18.779385 6.544303 64.478088 162 131 139
18.787561 6.686206 64.506165 154 123 132
18.795218 6.828042 64.532455 148 116 126
18.802420 6.969821 64.557182 151 118 129
18.809240 7.111563 64.580597 157 124 136
18.815750 7.253287 64.602951 161 128 140
18.822021 7.395013 64.624481 161 129 140
18.828119 7.536763 64.645424 157 127 136
18.834105 7.678556 64.665970 152 125 131
18.840025 7.820412 64.686295 160 135 138
18.845919 7.962344 64.706528 176 155 156
18.851810 8.104362 64.726761 181 161 162
18.857712 8.246472 64.747025 176 157 158
18.863613 8.388669 64.767288 172 153 155
18.869495 8.530945 64.787483 170 150 152
18.875317 8.673281 64.807472 170 150 152
18.881031 8.815651 64.827087 170 151 153
18.886568 8.958022 64.846100 170 151 153
18.891850 9.100353 64.864235 171 151 153
18.896790 9.242595 64.881195 173 152 152
18.901289 9.384691 64.896645 173 152 151
18.905252 9.526584 64.910255 173 150 150
18.908573 9.668206 64.921654 171 148 149
18.911146 9.809490 64.930489 169 144 147
18.912872 9.950366 64.936417 166 140 146
18.913652 10.090763 64.939095 161 133 141
18.913395 10.230611 64.938210 155 125 136
18.912012 10.369837 64.933456 154 124 136
18.909422 10.508372 64.924568 163 131 144
18.905554 10.646150 64.911285 168 135 149
18.900339 10.783101 64.893379 161 128 141
18.893717 10.919162 64.870644 153 120 130
18.885632 11.054269 64.842880 152 120 128
18.876034 11.188359 64.809929 152 122 128
18.864870 11.321369 64.771599 152 122 126
18.852098 11.453235 64.727745 153 123 125
18.837673 11.583896 64.678223 153 123 125
18.821554 11.713289 64.622879 154 122 125
18.803703 11.841352 64.561584 153 122 124
18.784081 11.968023 64.494209 153 122 123
18.762657 12.093243 64.420654 153 121 121
18.739403 12.216951 64.340813 152 119 120
18.714298 12.339096 64.254616 151 117 119
18.687334 12.459629 64.162041 149 115 118
18.658504 12.578506 64.063057 148 114 117
18.627829 12.695697 63.957726 146 113 116
18.595325 12.811175 63.846130 144 111 114
18.561041 12.924933 63.728420 139 108 111
18.525040 13.036973 63.604809 134 103 107
18.487396 13.147314 63.475559 127 96 101
18.448210 13.255988 63.341019 122 93 99
18.407591 13.363044 63.201557 122 95 102
18.365673 13.468544 63.057632 125 100 109
18.322596 13.572565 62.909725 128 104 114
18.278505 13.675191 62.758347 128 106 118
18.233562 13.776520 62.604038 127 106 119
18.187923 13.876652 62.447338 126 106 119
18.141747 13.975695 62.288795 124 105 119
18.095182 14.073751 62.128914 122 103 117
18.048367 14.170924 61.968178 120 102 115
18.001434 14.267309 61.807037 117 100 112
17.954494 14.362993 61.645870 116 98 109
17.907644 14.458055 61.485012 113 96 106
17.860956 14.552557 61.324715 111 94 103
17.814493 14.646552 61.165184 109 92 102
17.768290 14.740074 61.006546 107 91 100
17.722355 14.833138 60.848831 106 90 98
17.676680 14.925740 60.692009 106 89 96
17.631235 15.017863 60.535976 105 88 95
17.585964 15.109463 60.380543 104 86 93
17.540789 15.200474 60.225430 103 85 92
17.495605 15.290812 60.070301 101 84 91
17.450300 15.380371 59.914745 100 82 89
17.404730 15.469026 59.758282 98 80 88
17.358749 15.556636 59.600407 97 79 88
17.312195 15.643050 59.440571 96 78 88
17.264910 15.728107 59.278217 96 79 89
17.216738 15.811650 59.112820 95 80 90
18.537487 3.280068 63.179928 52 34 35
18.556908 3.419842 63.246120 50 30 31
18.576414 3.559917 63.312603 48 26 26
18.595903 3.700276 63.379025 50 26 25
18.615290 3.840899 63.445095 52 27 24
18.634491 3.981769 63.510544 54 29 23
18.653446 4.122865 63.575142 66 39 32
18.672092 4.264170 63.638695 83 53 48
18.690382 4.405665 63.701031 87 54 52
18.708263 4.547329 63.761978 80 43 45
18.725698 4.689145 63.821396 77 37 43
18.742638 4.831088 63.879128 82 39 50
18.759043 4.973139 63.935043 91 47 61
18.774872 5.115274 63.988987 101 59 74
18.790085 5.257470 64.040840 111 70 86
18.804646 5.399702 64.090469 119 80 95
18.818523 5.541946 64.137764 124 87 101
18.831692 5.684180 64.182648 125 91 103
18.844137 5.826384 64.225060 127 94 103
18.855846 5.968538 64.264969 133 101 109
18.866829 6.110628 64.302399 142 111 118
18.877096 6.252644 64.337395 151 120 126
18.886679 6.394578 64.370056 157 126 132
18.895618 6.536430 64.400520 160 130 136
18.903963 6.678204 64.428963 158 127 135
18.911774 6.819908 64.455582 153 122 130
18.919113 6.961553 64.480591 151 119 130
18.926052 7.103156 64.504242 154 122 133
18.932663 7.244735 64.526772 156 125 136
18.939013 7.386310 64.548424 159 128 139
18.945168 7.527900 64.569397 159 129 138
18.951187 7.669526 64.589912 154 125 133
18.957119 7.811204 64.610130 156 130 135
18.963005 7.952950 64.630188 169 145 149
18.968866 8.094772 64.650169 176 153 157
18.974720 8.236677 64.670120 177 155 158
18.980556 8.378660 64.690010 175 153 157
18.986361 8.520715 64.709793 170 147 152
18.992092 8.662823 64.729332 167 145 149
18.997707 8.804959 64.748466 169 147 152
19.003143 8.947095 64.766991 170 149 154
19.008324 9.089187 64.784645 170 149 153
19.013161 9.231189 64.801132 171 151 152
19.017565 9.373050 64.816139 173 153 153
19.021439 9.514709 64.829346 175 153 154
19.024681 9.656104 64.840393 175 153 154
19.027187 9.797170 64.848938 174 151 153
19.028858 9.937835 64.854637 171 147 151
19.029602 10.078032 64.857162 165 140 146
19.029320 10.217691 64.856209 159 132 140
19.027925 10.356741 64.851456 160 131 141
19.025339 10.495112 64.842644 172 141 153
19.021488 10.632738 64.829514 180 148 161
19.016300 10.769551 64.811829 169 137 149
19.009714 10.905484 64.789383 154 122 132
19.001669 11.040475 64.761963 151 119 127
18.992111 11.174456 64.729393 152 122 127
18.980988 11.307364 64.691483 151 122 125
18.968248 11.439135 64.648056 151 123 124
18.953842 11.569701 64.598961 151 123 123
18.937725 11.698997 64.544029 152 123 123
18.919849 11.826959 64.483109 152 123 124
18.900169 11.953516 64.416039 152 123 123
18.878651 12.078607 64.342690 152 122 122
18.855253 12.202167 64.262947 152 121 120
18.829952 12.324137 64.176720 151 120 119
18.802727 12.444461 64.083931 150 118 119
18.773571 12.563093 63.984558 150 117 119
18.742491 12.679996 63.878624 150 117 120
18.709503 12.795136 63.766197 149 116 119
18.674650 12.908504 63.647415 147 113 116
18.637993 13.020098 63.522472 141 106 111
18.599606 13.129932 63.391644 131 96 102
18.559587 13.238039 63.255249 123 89 96
18.518053 13.344466 63.113693 121 88 96
18.475142 13.449280 62.967442 122 91 101
18.430992 13.552553 62.816975 124 96 107
18.385769 13.654380 62.662842 125 99 111
18.339638 13.754860 62.505611 125 100 114
18.292765 13.854102 62.345860 124 101 115
18.245323 13.952221 62.184170 122 100 115
18.197474 14.049326 62.021084 121 100 114
18.149370 14.145531 61.857140 118 99 112
18.101154 14.240941 61.692806 116 98 109
18.052954 14.335654 61.528526 114 96 107
18.004875 14.429757 61.364666 112 95 105
17.957006 14.523324 61.201523 110 94 103
17.909416 14.616414 61.039326 108 93 102
17.862150 14.709072 60.878231 107 93 101
17.815226 14.801317 60.718296 106 92 99
17.768635 14.893156 60.559509 106 91 98
17.722357 14.984571 60.401779 105 90 97
17.676331 15.075523 60.244915 105 89 96
17.630478 15.165950 60.088642 105 87 94
17.584698 15.255762 59.932610 103 86 93
17.538862 15.344854 59.776390 102 84 91
17.492826 15.433098 59.619492 101 82 91
17.446432 15.520344 59.461365 100 81 90
17.399508 15.606435 59.301441 99 81 90
17.351885 15.691204 59.139130 98 80 91
18.686098 3.554819 63.221939 56 31 30
18.705921 3.695020 63.289009 62 36 33
18.725651 3.835491 63.355759 62 37 31
18.745199 3.976211 63.421902 56 31 23
18.764496 4.117161 63.487186 68 43 34
18.783476 4.258321 63.551403 100 73 65
18.802084 4.399671 63.614361 113 83 77
18.820274 4.541191 63.675903 94 61 59
18.837997 4.682861 63.735870 76 39 42
18.855215 4.824660 63.794125 76 35 44
18.871883 4.966565 63.850517 86 43 56
18.887964 5.108554 63.904926 97 54 69
18.903419 5.250605 63.957214 108 66 82
18.918213 5.392692 64.007271 117 77 93
18.932316 5.534793 64.054985 123 86 101
18.945704 5.676885 64.100281 127 92 105
18.958359 5.818948 64.143097 129 94 105
18.970278 5.960964 64.183426 130 97 106
18.981459 6.102917 64.221252 133 101 109
18.991917 6.244795 64.256638 137 106 112
19.001682 6.386593 64.289673 143 112 118
19.010792 6.528308 64.320496 151 121 127
19.019295 6.669943 64.349266 157 127 134
19.027245 6.811505 64.376160 156 127 135
19.034706 6.953003 64.401405 154 125 134
19.041750 7.094455 64.425240 153 122 133
19.048439 7.235876 64.447868 152 121 133
19.054848 7.377285 64.469551 154 125 136
19.061033 7.518700 64.490486 158 128 139
19.067060 7.660141 64.510872 155 126 136
19.072975 7.801623 64.530884 152 125 133
19.078817 7.943162 64.550652 155 130 137
19.084616 8.084768 64.570274 162 138 144
19.090382 8.226445 64.589783 169 145 151
19.096117 8.368192 64.609184 172 148 154
19.101801 8.510000 64.628418 170 146 153
19.107405 8.651855 64.647377 169 145 152
19.112883 8.793733 64.665901 169 146 153
19.118176 8.935604 64.683815 169 147 154
19.123215 9.077433 64.700867 168 147 154
19.127914 9.219172 64.716766 168 147 152
19.132191 9.360771 64.731232 170 150 152
19.135946 9.502174 64.743942 173 152 154
19.139084 9.643321 64.754555 175 153 155
19.141502 9.784146 64.762733 175 154 156
19.143105 9.924583 64.768158 173 150 153
19.143791 10.064564 64.770485 165 141 146
19.143476 10.204019 64.769417 159 133 140
19.142067 10.342878 64.764648 162 135 144
19.139481 10.481073 64.755898 176 147 157
19.135647 10.618537 64.742928 185 155 165
19.130489 10.755201 64.725471 173 142 153
19.123941 10.890999 64.703323 155 124 134
19.115942 11.025864 64.676262 150 119 126
19.106436 11.159731 64.644096 150 121 126
19.095360 11.292532 64.606621 150 122 124
19.082659 11.424199 64.563652 149 122 123
19.068281 11.554664 64.515007 149 122 122
19.052172 11.683857 64.460503 149 123 123
19.034279 11.811709 64.399963 150 124 124
19.014551 11.938148 64.333214 150 124 124
18.992941 12.063103 64.260101 151 123 123
18.969406 12.186507 64.180473 151 122 122
18.943913 12.308294 64.094223 151 121 122
18.916433 12.428406 64.001244 151 119 121
18.886953 12.546786 63.901505 151 119 122
18.855471 12.663394 63.794991 152 118 124
18.822004 12.778193 63.681755 153 119 125
18.786583 12.891164 63.561916 154 118 123
18.749269 13.002305 63.435669 148 110 117
18.710136 13.111629 63.303272 137 98 106
18.669285 13.219163 63.165054 127 89 98
18.626831 13.324955 63.021412 121 84 94
18.582912 13.429070 62.872822 118 83 94
18.537683 13.531588 62.719795 119 86 98
18.491310 13.632603 62.562901 120 90 103
18.443966 13.732218 62.402721 121 92 106
18.395836 13.830552 62.239876 121 94 108
18.347099 13.927722 62.074982 120 95 109
18.297930 14.023851 61.908627 118 95 108
18.248497 14.119058 61.741375 116 96 108
18.198954 14.213458 61.573753 115 95 107
18.149443 14.307160 61.406235 113 94 105
18.100084 14.400262 61.239235 111 93 104
18.050976 14.492845 61.073082 109 93 103
18.002197 14.584980 60.908051 108 93 102
17.953806 14.676719 60.744328 106 93 101
17.905825 14.768089 60.581989 106 93 101
17.858257 14.859104 60.421047 106 93 100
17.811077 14.949752 60.261421 105 92 99
17.764236 15.039997 60.102940 106 91 98
17.717649 15.129776 59.945320 106 90 97
17.671213 15.219006 59.788208 105 88 95
17.624794 15.307573 59.631161 104 87 94
17.578245 15.395350 59.473667 103 85 93
17.531397 15.482183 59.315163 102 84 93
17.484070 15.567904 59.155033 101 83 92
18.834774 3.829909 63.263561 86 60 52
18.854685 3.970477 63.330433 65 41 31
18.874340 4.111278 63.396454 68 44 34
18.893675 4.252290 63.461395 106 81 73
18.912624 4.393494 63.525047 131 104 98
18.931145 4.534869 63.587250 114 82 81
18.949183 4.676393 63.647839 85 49 53
18.966698 4.818046 63.706673 76 36 45
18.983650 4.959805 63.763615 83 40 53
19.000000 5.101648 63.818531 94 51 66
19.015713 5.243552 63.871307 106 64 80
19.030752 5.385493 63.921822 116 76 92
19.045090 5.527448 63.969982 123 85 101
19.058704 5.669396 64.015709 128 92 105
19.071579 5.811315 64.058952 131 96 107
19.083706 5.953187 64.099686 131 97 106
19.095085 6.094997 64.137909 130 97 104
19.105732 6.236732 64.173676 129 96 104
19.115677 6.378387 64.207069 131 100 107
19.124949 6.519957 64.238220 139 109 116
19.133598 6.661444 64.267265 149 120 126
19.141678 6.802855 64.294411 154 126 134
19.149248 6.944197 64.319839 155 128 137
19.156376 7.085485 64.343781 154 126 136
19.163128 7.226735 64.366455 152 123 134
19.169571 7.367964 64.388100 152 123 135
19.175766 7.509189 64.408905 155 125 138
19.181772 7.650428 64.429077 155 126 138
19.187639 7.791698 64.448784 151 124 135
19.193407 7.933012 64.468163 149 123 133
19.199106 8.074380 64.487297 153 127 136
19.204750 8.215808 64.506256 160 133 143
19.210342 8.357294 64.525047 164 138 147
19.215870 8.498833 64.543610 166 141 149
19.221302 8.640409 64.561852 166 142 150
19.226603 8.782003 64.579659 167 143 152
19.231714 8.923588 64.596832 168 144 153
19.236574 9.065126 64.613152 167 145 154
19.241100 9.206576 64.628357 167 145 152
19.245213 9.347891 64.642166 168 147 151
19.248817 9.489015 64.654274 169 148 151
19.251823 9.629891 64.664368 171 150 152
19.254128 9.770455 64.672112 172 151 153
19.255636 9.910644 64.677185 169 148 150
19.256256 10.050389 64.679260 163 141 144
19.255894 10.189623 64.678040 159 135 140
19.254457 10.328278 64.673218 163 138 144
19.251867 10.466283 64.664520 177 150 158
19.248045 10.603572 64.651680 184 156 164
19.242916 10.740076 64.634453 172 142 152
19.236410 10.875728 64.612595 156 126 135
19.228460 11.010459 64.585899 151 121 128
19.219004 11.144201 64.554138 151 121 126
19.207979 11.276886 64.517105 150 122 125
19.195322 11.408441 64.474594 149 122 123
19.180977 11.538795 64.426407 148 123 123
19.164879 11.667877 64.372337 147 123 123
19.146973 11.795610 64.312195 148 124 125
19.127197 11.921921 64.245773 149 124 126
19.105501 12.046732 64.172897 150 124 127
19.081833 12.169971 64.093391 151 124 127
19.056149 12.291569 64.007126 151 123 126
19.028416 12.411458 63.913975 151 121 125
18.998613 12.529580 63.813873 151 120 125
18.966732 12.645885 63.706787 151 118 125
18.932783 12.760335 63.592758 155 120 128
18.896797 12.872905 63.471886 159 121 130
18.858826 12.983587 63.344345 154 113 124
18.818947 13.092392 63.210396 144 101 112
18.777256 13.199347 63.070366 134 91 103
18.733873 13.304495 62.924648 125 82 95
18.688946 13.407907 62.773739 117 77 89
18.642622 13.509657 62.618145 114 76 89
18.595085 13.609847 62.458473 115 80 94
18.546513 13.708585 62.295322 117 85 99
18.497101 13.805992 62.129353 116 86 100
18.447041 13.902195 61.961208 115 87 101
18.396519 13.997322 61.791515 115 89 101
18.345716 14.091502 61.620876 113 89 101
18.294802 14.184860 61.449863 112 90 102
18.243933 14.277515 61.278996 111 90 102
18.193237 14.369573 61.108723 109 90 102
18.142834 14.461125 60.939419 108 91 101
18.092808 14.552255 60.771389 107 92 101
18.043228 14.643021 60.604855 106 93 102
17.994127 14.733460 60.439930 105 94 102
17.945513 14.823592 60.276646 105 94 102
17.897369 14.913411 60.114937 106 94 101
17.849646 15.002886 59.954636 106 93 100
17.802261 15.091959 59.795483 106 92 100
17.755110 15.180542 59.637104 106 91 98
17.708055 15.268528 59.479053 106 89 96
17.660942 15.355782 59.320812 105 87 95
17.613596 15.442148 59.161781 104 86 95
17.565826 15.527454 59.001328 103 85 94
18.983000 4.105222 63.303078 69 46 37
19.002710 4.246086 63.368805 99 74 68
19.022028 4.387144 63.433228 126 99 96
19.040903 4.528373 63.496166 120 89 91
19.059282 4.669752 63.557457 96 61 67
19.077124 4.811260 63.616951 82 43 53
19.094383 4.952874 63.674507 82 40 53
19.111027 5.094572 63.730011 91 49 64
19.127016 5.236329 63.783329 104 63 79
19.142319 5.378124 63.834358 114 76 91
19.156906 5.519933 63.883007 122 85 100
19.170759 5.661734 63.929203 130 94 107
19.183859 5.803507 63.972889 135 99 111
19.196199 5.945233 64.014038 135 99 109
19.207783 6.086896 64.052666 130 96 105
19.218618 6.228484 64.088799 126 92 102
19.228737 6.369990 64.122543 125 92 102
19.238167 6.511408 64.153992 129 98 107
19.246956 6.652740 64.183296 136 107 116
19.255154 6.793991 64.210640 144 117 126
19.262821 6.935167 64.236198 152 125 135
19.270018 7.076282 64.260208 155 129 139
19.276814 7.217349 64.282860 153 126 137
19.283268 7.358385 64.304390 152 124 136
19.289448 7.499406 64.324997 153 125 138
19.295406 7.640429 64.344872 153 125 139
19.301197 7.781468 64.364174 153 124 138
19.306858 7.922539 64.383057 151 123 136
19.312424 8.063651 64.401611 152 124 136
19.317909 8.204809 64.419907 156 128 139
19.323322 8.346015 64.437958 159 131 142
19.328651 8.487262 64.455727 162 135 146
19.333874 8.628537 64.473145 163 137 148
19.338955 8.769824 64.490089 165 139 150
19.343847 8.911097 64.506409 166 141 152
19.348488 9.052321 64.521881 166 142 153
19.352802 9.193459 64.536270 166 143 152
19.356716 9.334464 64.549316 167 144 151
19.360140 9.475286 64.560730 167 145 149
19.362982 9.615869 64.570213 167 146 149
19.365147 9.756151 64.577431 168 147 149
19.366539 9.896070 64.582077 166 145 147
19.367067 10.035561 64.583839 163 141 143
19.366640 10.174557 64.582413 161 138 141
19.365166 10.312989 64.577492 167 142 147
19.362558 10.450790 64.568802 177 152 158
19.358742 10.587891 64.556068 180 153 161
19.353634 10.724222 64.539040 169 140 149
19.347164 10.859715 64.517464 157 128 136
19.339260 10.994299 64.491104 153 123 131
19.329855 11.127907 64.459747 152 123 128
19.318880 11.260463 64.423149 151 123 126
19.306267 11.391894 64.381081 150 123 125
19.291952 11.522129 64.333344 148 123 124
19.275867 11.651088 64.279709 147 123 124
19.257946 11.778692 64.219948 148 124 125
19.238125 11.904862 64.153847 148 124 126
19.216339 12.029518 64.081200 149 125 128
19.192533 12.152583 64.001816 151 125 129
19.166658 12.273979 63.915527 152 124 130
19.138672 12.393636 63.822197 152 124 130
19.108543 12.511489 63.721733 153 123 130
19.076262 12.627482 63.614082 151 119 128
19.041832 12.741575 63.499268 153 118 128
19.005278 12.853735 63.377365 159 119 131
18.966648 12.963952 63.248550 157 115 127
18.926020 13.072232 63.113064 149 104 117
18.883488 13.178599 62.971230 140 93 107
18.839174 13.283100 62.823456 132 84 99
18.793224 13.385798 62.670227 121 74 90
18.745800 13.486774 62.512081 114 70 84
18.697083 13.586129 62.349625 114 73 88
18.647266 13.683977 62.183502 117 79 93
18.596552 13.780443 62.014378 115 79 93
18.545141 13.875659 61.842937 111 78 91
18.493237 13.969763 61.669853 110 79 92
18.441031 14.062891 61.495762 110 81 94
18.388706 14.155177 61.321274 109 83 95
18.336432 14.246749 61.146950 108 84 96
18.284351 14.337724 60.973278 107 86 97
18.232595 14.428204 60.800682 106 88 99
18.181263 14.518279 60.629505 106 90 101
18.130432 14.608021 60.459999 106 92 102
18.080147 14.697474 60.292313 105 93 103
18.030422 14.786666 60.126495 106 94 103
17.981249 14.875597 59.962513 106 94 102
17.932579 14.964242 59.800209 106 94 102
17.884335 15.052547 59.639332 106 93 101
17.836407 15.140425 59.479504 106 92 99
17.788660 15.227771 59.320282 106 90 98
17.740932 15.314445 59.161125 105 88 97
17.693043 15.400292 59.001427 104 87 96
19.130362 4.380638 63.339169 109 81 81
19.149618 4.521723 63.402931 110 78 83
19.168367 4.662960 63.465008 99 64 72
19.186563 4.804325 63.525253 88 49 60
19.204161 4.945796 63.583515 83 42 55
19.221121 5.087350 63.639671 89 48 63
19.237413 5.228964 63.693611 103 63 78
19.253000 5.370614 63.745220 113 76 90
19.267859 5.512278 63.794415 122 86 99
19.281963 5.653933 63.841114 131 96 108
19.295303 5.795559 63.885277 139 104 115
19.307865 5.937138 63.926876 140 105 116
19.319656 6.078652 63.965912 135 100 111
19.330685 6.220089 64.002426 128 93 105
19.340975 6.361442 64.036499 124 89 102
19.350561 6.502704 64.068230 122 90 102
19.359482 6.643876 64.097771 124 93 106
19.367790 6.784959 64.125275 130 102 114
19.375540 6.925961 64.150932 142 115 127
19.382792 7.066894 64.174950 150 124 136
19.389610 7.207768 64.197525 152 125 138
19.396061 7.348600 64.218887 151 124 139
19.402201 7.489404 64.239212 153 125 141
19.408089 7.630197 64.258705 153 124 141
19.413773 7.770993 64.277527 152 123 140
19.419296 7.911804 64.295815 152 123 139
19.424696 8.052642 64.313690 152 123 137
19.429987 8.193512 64.331207 153 124 137
19.435183 8.334417 64.348412 156 127 138
19.440277 8.475351 64.365280 160 131 142
19.445250 8.616304 64.381744 162 134 145
19.450075 8.757262 64.397720 163 137 148
19.454706 8.898200 64.413048 164 139 150
19.459089 9.039089 64.427559 165 141 151
19.463156 9.179891 64.441025 165 141 151
19.466831 9.320564 64.453201 166 142 149
19.470037 9.461061 64.463814 166 142 148
19.472683 9.601329 64.472572 166 143 147
19.474678 9.741307 64.479179 167 145 148
19.475929 9.880938 64.483322 167 144 148
19.476343 10.020155 64.484695 164 140 144
19.475828 10.158894 64.482986 163 139 143
19.474297 10.297087 64.477913 170 146 151
19.471657 10.434666 64.469177 177 152 158
19.467831 10.571562 64.456505 174 147 155
19.462734 10.707705 64.439636 164 137 144
19.456291 10.843023 64.418297 157 129 137
19.448423 10.977447 64.392250 155 125 133
19.439062 11.110904 64.361259 153 124 130
19.428133 11.243320 64.325066 152 123 128
19.415556 11.374616 64.283432 150 123 126
19.401266 11.504715 64.236115 148 123 125
19.385187 11.633537 64.182884 147 123 125
19.367247 11.760999 64.123482 146 124 125
19.347372 11.887016 64.057671 146 124 126
19.325493 12.011505 63.985237 147 124 128
19.301546 12.134380 63.905949 148 123 130
19.275475 12.255563 63.819630 150 124 131
19.247229 12.374976 63.726109 154 127 134
19.216772 12.492549 63.625271 157 128 137
19.184088 12.608222 63.517052 155 123 133
19.149170 12.721947 63.401447 154 119 130
19.112045 12.833689 63.278526 155 115 129
19.072756 12.943433 63.148445 155 111 125
19.031374 13.051182 63.011433 150 103 118
18.987997 13.156957 62.867813 144 94 110
18.942747 13.260800 62.717991 136 85 102
18.895773 13.362781 62.562466 126 76 92
18.847239 13.462975 62.401772 116 68 84
18.797333 13.561488 62.236542 114 68 84
18.746258 13.658436 62.067436 117 74 89
18.694223 13.753948 61.895149 116 75 90
18.641443 13.848165 61.720398 110 72 86
18.588129 13.941227 61.543880 107 71 84
18.534487 14.033280 61.366276 106 72 85
18.480715 14.124468 61.188240 105 74 87
18.426992 14.214928 61.010372 105 77 88
18.373482 14.304783 60.833199 104 80 91
18.320320 14.394152 60.657188 105 83 95
18.267628 14.483130 60.482723 106 87 99
18.215487 14.571800 60.310089 106 90 101
18.163954 14.660216 60.139469 106 92 102
18.113056 14.748414 59.970951 105 93 103
18.062788 14.836401 59.804516 105 94 102
18.013107 14.924159 59.640030 105 94 102
17.963940 15.011637 59.477242 105 94 102
17.915178 15.098752 59.315792 105 92 100
17.866682 15.185400 59.155228 104 90 98
17.818289 15.271441 58.994999 103 88 96
19.276546 4.656044 63.370884 94 55 66
19.295126 4.797270 63.431965 87 46 59
19.313091 4.938602 63.491024 83 41 55
19.330400 5.080016 63.547928 90 48 62
19.347021 5.221489 63.602566 103 64 77
19.362917 5.362998 63.654827 113 77 89
19.378067 5.504519 63.704628 121 87 98
19.392445 5.646031 63.751892 130 96 108
19.406036 5.787512 63.796577 140 105 118
19.418835 5.928944 63.838654 145 110 123
19.430841 6.070310 63.878120 141 105 119
19.442066 6.211596 63.915024 132 95 111
19.452532 6.352793 63.949432 124 88 104
19.462271 6.493896 63.981445 118 84 100
19.471321 6.634902 64.011200 115 82 98
19.479731 6.775814 64.038841 118 87 102
19.487553 6.916636 64.064560 128 99 114
19.494846 7.057378 64.088539 138 110 125
19.501673 7.198051 64.110985 144 116 132
19.508099 7.338670 64.132103 149 121 138
19.514177 7.479247 64.152084 153 125 143
19.519966 7.619797 64.171112 152 123 141
19.525518 7.760335 64.189369 152 122 140
19.530878 7.900874 64.206985 151 121 138
19.536077 8.041423 64.224083 151 121 135
19.541143 8.181990 64.240738 151 121 133
19.546087 8.322576 64.256989 153 124 134
19.550909 8.463180 64.272842 157 128 138
19.555595 8.603792 64.288246 160 132 143
19.560123 8.744400 64.303131 162 135 145
19.564455 8.884983 64.317375 163 137 147
19.568542 9.025515 64.330811 163 138 148
19.572321 9.165960 64.343231 164 139 147
19.575726 9.306280 64.354424 165 139 146
19.578678 9.446432 64.364128 165 140 145
19.581095 9.586362 64.372078 165 141 146
19.582886 9.726016 64.377968 168 143 148
19.583963 9.865336 64.381508 170 144 149
19.584236 10.004260 64.382401 165 139 145
19.583609 10.142722 64.380341 163 137 143
19.581995 10.280657 64.375038 171 144 151
19.579302 10.417995 64.366180 175 148 156
19.575449 10.554669 64.353516 168 141 149
19.570345 10.690606 64.336739 160 132 141
19.563911 10.825735 64.315590 158 129 137
19.556068 10.959982 64.289803 157 127 135
19.546738 11.093273 64.259125 154 125 132
19.535837 11.225531 64.223297 152 123 129
19.523289 11.356674 64.182037 150 123 127
19.509010 11.486623 64.135101 148 123 126
19.492928 11.615293 64.082230 147 123 125
19.474957 11.742597 64.023148 145 123 125
19.455015 11.868445 63.957596 145 123 125
19.433035 11.992750 63.885334 145 123 127
19.408936 12.115423 63.806110 145 122 128
19.382658 12.236378 63.719723 147 123 131
19.354145 12.355534 63.625984 155 130 137
19.323353 12.472814 63.524757 163 136 145
19.290258 12.588156 63.415962 165 136 146
19.254850 12.701503 63.299561 165 132 143
19.217150 12.812819 63.175617 159 121 135
19.177197 12.922082 63.044277 152 109 124
19.135059 13.029293 62.905754 147 100 116
19.090836 13.134470 62.760365 144 93 110
19.044645 13.237655 62.608521 139 86 103
18.996643 13.338911 62.450714 130 77 95
18.946993 13.438320 62.287495 122 69 86
18.895895 13.535986 62.119507 116 65 82
18.843550 13.632028 61.947426 117 69 85
18.790182 13.726579 61.771984 117 72 87
18.736013 13.819784 61.593906 112 70 84
18.681269 13.911791 61.413933 106 66 80
18.626165 14.002753 61.232784 103 65 78
18.570913 14.092822 61.051147 101 66 79
18.515709 14.182143 60.869659 101 70 82
18.460724 14.270853 60.688904 102 74 86
18.406115 14.359076 60.509377 103 78 90
18.352007 14.446919 60.331501 105 83 95
18.298502 14.534474 60.155605 106 87 99
18.245668 14.621809 59.981915 106 89 101
18.193537 14.708963 59.810535 105 91 101
18.142111 14.795955 59.641476 105 92 102
18.091360 14.882771 59.474632 105 93 102
18.041210 14.969367 59.309765 104 92 100
17.991554 15.055666 59.146526 103 90 99
17.942255 15.141562 58.984455 102 89 97
19.421322 4.931331 63.397549 82 38 51
19.439013 5.072611 63.455296 91 49 61
19.455990 5.213949 63.510719 105 66 77
19.472223 5.355321 63.563709 113 78 89
19.487686 5.496705 63.614189 119 87 97
19.502357 5.638077 63.662079 128 96 107
19.516220 5.779417 63.707333 139 105 119
19.529270 5.920704 63.749931 146 111 126
19.541502 6.061922 63.789864 145 107 125
19.552931 6.203057 63.827168 136 97 117
19.563578 6.344100 63.861923 126 88 107
19.573469 6.485042 63.894211 119 81 101
19.582644 6.625880 63.924160 114 78 96
19.591150 6.766617 63.951927 113 78 97
19.599035 6.907255 63.977669 117 84 103
19.606358 7.047801 64.001572 124 93 111
19.613180 7.188268 64.023842 132 101 120
19.619560 7.328665 64.044670 140 110 130
19.625559 7.469006 64.064247 147 117 137
19.631227 7.609305 64.082756 149 118 138
19.636623 7.749575 64.100365 150 119 138
19.641788 7.889828 64.117226 149 119 136
19.646761 8.030076 64.133461 148 119 133
19.651569 8.170325 64.149155 148 119 131
19.656229 8.310579 64.164368 150 122 132
19.660746 8.450837 64.179108 154 126 135
19.665110 8.591092 64.193352 157 130 139
19.669304 8.731334 64.207047 159 133 141
19.673300 8.871545 64.220093 160 135 143
19.677053 9.011700 64.232346 161 136 144
19.680508 9.151770 64.243622 163 137 144
19.683601 9.291718 64.253723 164 137 144
19.686264 9.431503 64.262413 165 138 143
19.688416 9.571076 64.269432 166 138 144
19.689970 9.710386 64.274506 170 140 147
19.690840 9.849376 64.277351 172 142 149
19.690937 9.987986 64.277664 168 139 146
19.690170 10.126152 64.275162 165 136 143
19.688446 10.263808 64.269531 168 139 148
19.685673 10.400887 64.260483 168 141 149
19.681765 10.537318 64.247719 163 135 144
19.676630 10.673030 64.230965 158 130 140
19.670185 10.807949 64.209923 157 129 139
19.662344 10.942000 64.184326 156 128 137
19.653023 11.075108 64.153900 154 125 133
19.642134 11.207189 64.118355 150 122 129
19.629593 11.338162 64.077415 148 121 126
19.615311 11.467942 64.030800 146 121 124
19.599205 11.596441 63.978222 145 121 124
19.581186 11.723569 63.919403 144 122 124
19.561169 11.849231 63.854057 144 122 124
19.539066 11.973335 63.781910 143 122 125
19.514803 12.095789 63.702705 142 121 126
19.488306 12.216500 63.616211 144 122 128
19.459515 12.335384 63.522228 155 131 139
19.428377 12.452359 63.420582 170 145 153
19.394863 12.567357 63.311180 182 156 165
19.358959 12.680317 63.193977 191 163 172
19.320677 12.791198 63.069016 182 148 159
19.280056 12.899974 62.936413 160 119 133
19.237162 13.006641 62.796391 147 100 116
19.192087 13.111217 62.649258 143 93 109
19.144958 13.213739 62.495411 140 88 104
19.095926 13.314272 62.335354 134 80 96
19.045162 13.412893 62.169640 125 72 87
18.992863 13.509710 61.998924 118 66 80
18.939245 13.604844 61.823898 116 65 80
18.884537 13.698430 61.645309 116 68 82
18.828968 13.790618 61.463917 113 67 81
18.772779 13.881564 61.280495 107 63 78
18.716194 13.971423 61.095783 102 61 75
18.659439 14.060359 60.910515 99 61 74
18.602720 14.148524 60.725368 100 65 77
18.546227 14.236064 60.540955 103 71 83
18.490128 14.323112 60.357830 104 76 88
18.434565 14.409791 60.176449 104 79 92
18.379646 14.496198 59.997185 105 83 95
18.325457 14.582409 59.820286 105 86 97
18.272038 14.668478 59.645912 104 88 98
18.219402 14.754429 59.474091 104 89 100
18.167521 14.840257 59.304737 103 90 98
18.116333 14.925923 59.137638 101 89 97
18.065727 15.011354 58.972446 101 88 96
19.564489 5.206389 63.418633 106 68 77
19.581089 5.347632 63.472443 113 79 88
19.596893 5.488883 63.523670 119 87 97
19.611879 5.630122 63.572250 131 99 111
19.626034 5.771325 63.618134 142 109 124
19.639349 5.912472 63.661297 146 111 129
19.651823 6.053546 63.701725 145 106 128
19.663464 6.194534 63.739464 138 97 120
19.674295 6.335423 63.774574 129 88 111
19.684343 6.476205 63.807144 122 82 104
19.693644 6.616876 63.837292 117 78 99
19.702240 6.757436 63.865154 113 75 96
19.710182 6.897887 63.890900 111 75 95
19.717525 7.038236 63.914703 112 78 98
19.724329 7.178490 63.936756 117 84 105
19.730652 7.318662 63.957253 125 93 114
19.736549 7.458761 63.976372 134 102 123
19.742081 7.598802 63.994301 140 109 130
19.747295 7.738795 64.011208 144 113 133
19.752243 7.878756 64.027245 145 116 132
19.756964 8.018692 64.042542 146 117 131
19.761486 8.158613 64.057205 145 117 128
19.765831 8.298524 64.071289 147 119 128
19.770010 8.438423 64.084831 150 124 131
19.774019 8.578308 64.097824 154 128 135
19.777849 8.718169 64.110245 157 132 137
19.781473 8.857992 64.121994 159 134 139
19.784857 8.997756 64.132957 160 134 140
19.787949 9.137434 64.142982 161 135 140
19.790697 9.276992 64.151886 163 135 140
19.793032 9.416392 64.159454 165 135 141
19.794880 9.555591 64.165451 167 136 141
19.796160 9.694537 64.169594 170 137 144
19.796785 9.833176 64.171631 171 138 147
19.796673 9.971452 64.171265 170 137 147
19.795729 10.109301 64.168198 170 138 148
19.793859 10.246658 64.162140 169 138 149
19.790972 10.383455 64.152779 162 132 143
19.786978 10.519624 64.139832 157 127 139
19.781782 10.655089 64.122993 156 126 138
19.775297 10.789778 64.101974 155 127 138
19.767429 10.923613 64.076469 154 127 136
19.758089 11.056513 64.046188 152 125 133
19.747185 11.188397 64.010849 149 121 128
19.734625 11.319180 63.970135 146 119 124
19.720316 11.448770 63.923752 144 119 123
19.704165 11.577078 63.871395 143 120 123
19.686077 11.704010 63.812763 143 120 123
19.665958 11.829466 63.747543 142 121 122
19.643717 11.953351 63.675453 141 121 123
19.619272 12.075568 63.596214 141 120 124
19.592539 12.196019 63.509560 141 120 125
19.563454 12.314616 63.415279 152 130 137
19.531958 12.431273 63.313183 172 149 157
19.498014 12.545914 63.203156 195 171 179
19.461605 12.658476 63.085133 217 192 201
19.422737 12.768914 62.959145 212 181 192
19.381445 12.877197 62.825291 179 140 153
19.337791 12.983318 62.683788 150 105 119
19.291870 13.087292 62.534935 141 92 107
19.243801 13.189151 62.379116 141 89 104
19.193741 13.288960 62.216846 137 83 97
19.141861 13.386797 62.048679 129 75 89
19.088367 13.482767 61.875275 121 68 81
19.033476 13.576995 61.697346 117 65 78
18.977425 13.669620 61.515656 116 65 79
18.920454 13.760791 61.330978 113 64 78
18.862808 13.850672 61.144123 108 62 76
18.804731 13.939426 60.955864 102 59 73
18.746454 14.027222 60.766960 100 58 73
18.688202 14.114219 60.578129 102 63 77
18.630173 14.200574 60.390034 107 71 85
18.572554 14.286431 60.203255 109 78 91
18.515495 14.371921 60.018299 109 81 94
18.459126 14.457151 59.835579 107 82 95
18.403534 14.542210 59.655376 105 84 96
18.348780 14.627157 59.477886 105 86 96
18.294882 14.712029 59.303181 103 86 95
18.241823 14.796828 59.131187 101 86 94
18.189543 14.881522 58.961720 98 86 94
19.705877 5.481109 63.433697 122 89 100
19.721205 5.622220 63.483032 146 113 127
19.735672 5.763293 63.529602 161 127 145
19.749271 5.904307 63.573380 155 119 141
19.761999 6.045244 63.614353 145 106 131
19.773867 6.186087 63.652554 137 96 122
19.784891 6.326826 63.688042 130 87 113
19.795099 6.467451 63.720901 125 82 106
19.804525 6.607957 63.751247 120 78 101
19.813211 6.748342 63.779205 115 74 95
19.821207 6.888607 63.804943 111 72 91
19.828562 7.028757 63.828621 109 71 90
19.835337 7.168798 63.850430 109 74 92
19.841589 7.308741 63.870556 113 80 98
19.847374 7.448595 63.889175 120 87 106
19.852749 7.588373 63.906479 127 95 113
19.857765 7.728086 63.922630 133 102 120
19.862476 7.867748 63.937790 139 109 124
19.866919 8.007367 63.952095 142 114 126
19.871132 8.146954 63.965652 144 117 126
19.875137 8.286511 63.978546 146 119 127
19.878950 8.426044 63.990822 148 123 130
19.882576 8.565549 64.002495 151 127 133
19.886007 8.705019 64.013542 155 130 135
19.889229 8.844443 64.023911 157 132 137
19.892210 8.983803 64.033501 159 133 138
19.894905 9.123074 64.042183 159 132 137
19.897266 9.262226 64.049782 161 132 137
19.899237 9.401227 64.056129 163 133 138
19.900743 9.540033 64.060974 166 133 139
19.901709 9.678596 64.064079 168 133 140
19.902052 9.816866 64.065186 168 132 142
19.901690 9.954787 64.064018 168 132 143
19.900526 10.092298 64.060272 174 139 150
19.898472 10.229334 64.053658 171 138 149
19.895430 10.365828 64.043869 157 125 137
19.891312 10.501710 64.030609 149 119 131
19.886017 10.636907 64.013565 149 121 133
19.879452 10.771340 63.992435 151 124 135
19.871521 10.904934 63.966904 153 126 136
19.862129 11.037606 63.936672 153 127 134
19.851177 11.169271 63.901421 150 124 131
19.838566 11.299838 63.860825 146 120 125
19.824198 11.429215 63.814571 143 119 123
19.807972 11.557311 63.762341 142 119 123
19.789785 11.684025 63.703800 142 120 123
19.769541 11.809255 63.638630 141 121 122
19.747139 11.932901 63.566517 141 121 123
19.722486 12.054861 63.487164 140 121 124
19.695501 12.175036 63.400295 140 121 125
19.666105 12.293331 63.305668 148 128 134
19.634235 12.409654 63.203079 166 144 150
19.599852 12.523928 63.092400 188 165 172
19.562929 12.636085 62.973541 211 186 195
19.523468 12.746072 62.846516 213 183 194
19.481503 12.853859 62.711426 186 150 161
19.437090 12.959432 62.568459 153 111 123
19.390322 13.062801 62.417915 141 94 106
19.341320 13.164002 62.260178 140 90 104
19.290237 13.263093 62.095741 138 86 99
19.237251 13.360151 61.925175 132 79 91
19.182568 13.455284 61.749149 125 72 84
19.126410 13.548614 61.568375 119 67 79
19.069019 13.640283 61.383636 117 66 79
19.010647 13.730446 61.195732 114 65 78
18.951548 13.819268 61.005489 109 63 76
18.891972 13.906919 60.813713 103 60 74
18.832167 13.993574 60.621197 101 59 74
18.772366 14.079402 60.428699 104 63 79
18.712786 14.164567 60.236908 110 73 88
18.653620 14.249222 60.046455 117 83 98
18.595039 14.333507 59.857880 118 88 101
18.537184 14.417542 59.671642 114 87 99
18.480156 14.501425 59.488071 110 85 96
18.424025 14.585224 59.307381 106 85 94
18.368822 14.668988 59.129684 102 83 92
18.314539 14.752726 58.954945 98 82 91
19.845329 5.755378 63.442356 187 150 172
19.859232 5.896266 63.486801 168 129 155
19.872231 6.037072 63.528358 147 105 134
19.884336 6.177778 63.567059 138 95 125
19.895565 6.318374 63.602955 131 86 115
19.905941 6.458847 63.636124 125 80 107
19.915499 6.599192 63.666679 122 77 100
19.924276 6.739405 63.694740 117 74 95
19.932322 6.879486 63.720459 113 72 90
19.939686 7.019438 63.744003 110 70 87
19.946426 7.159268 63.765549 108 71 87
19.952597 7.298983 63.785278 108 73 89
19.958258 7.438592 63.803375 110 75 91
19.963465 7.578107 63.820023 113 79 96
19.968269 7.717539 63.835381 120 87 103
19.972725 7.856899 63.849621 129 97 111
19.976875 7.996198 63.862892 135 105 117
19.980759 8.135446 63.875305 140 112 121
19.984402 8.274649 63.886951 145 118 126
19.987827 8.413809 63.897903 149 123 130
19.991043 8.552927 63.908184 150 125 132
19.994049 8.691998 63.917793 150 126 132
19.996840 8.831016 63.926712 153 128 134
19.999384 8.969961 63.934845 156 129 136
20.001648 9.108815 63.942085 156 129 136
20.003590 9.247550 63.948292 158 129 135
20.005156 9.386136 63.953300 161 130 137
20.006281 9.524533 63.956894 165 130 138
20.006889 9.662697 63.958843 167 130 138
20.006907 9.800579 63.958897 164 126 137
20.006247 9.938125 63.956787 161 123 135
20.004820 10.075275 63.952229 167 131 142
20.002535 10.211967 63.944920 163 128 140
19.999292 10.348134 63.934555 149 116 128
19.995003 10.483706 63.920841 142 112 124
19.989561 10.618608 63.903450 144 116 128
19.982872 10.752763 63.882065 148 121 132
19.974834 10.886090 63.856369 152 126 135
19.965349 11.018508 63.826042 154 128 136
19.954308 11.149926 63.790745 152 127 133
19.941605 11.280252 63.750141 148 123 128
19.927141 11.409394 63.703899 145 121 125
19.910805 11.537252 63.651672 143 121 124
19.892490 11.663725 63.593124 143 121 124
19.872087 11.788707 63.527897 141 121 123
19.849495 11.912093 63.455673 141 122 124
19.824614 12.033779 63.376133 141 122 126
19.797350 12.153660 63.288979 141 122 127
19.767624 12.271636 63.193947 146 126 132
19.735367 12.387613 63.090828 155 133 141
19.700531 12.501510 62.979462 165 142 150
19.663084 12.613252 62.859749 176 150 160
19.623026 12.722784 62.731693 180 151 161
19.580385 12.830072 62.595375 171 137 147
19.535217 12.935099 62.450977 154 115 126
19.487608 13.037869 62.298782 144 101 111
19.437679 13.138417 62.139168 142 95 105
19.385586 13.236798 61.972637 139 90 100
19.331503 13.333089 61.799740 134 83 93
19.275644 13.427397 61.621166 128 77 86
19.218231 13.519842 61.437626 122 71 81
19.159515 13.610570 61.249924 119 69 80
19.099752 13.699739 61.058872 116 68 80
19.039206 13.787515 60.865311 111 65 78
18.978138 13.874075 60.670086 106 62 76
18.916803 13.959599 60.474010 103 61 76
18.855452 14.044262 60.277878 105 65 81
18.794310 14.128240 60.082417 113 75 91
18.733587 14.211691 59.888294 123 89 104
18.673466 14.294767 59.696102 127 97 110
18.614101 14.377598 59.506321 123 95 106
18.555609 14.460290 59.319328 114 89 98
18.498070 14.542927 59.135384 108 86 93
18.441528 14.625560 58.954628 103 83 91
19.982708 6.029086 63.444324 147 103 133
19.995068 6.169664 63.483562 139 93 124
20.006512 6.310123 63.519901 131 83 114
20.017067 6.450451 63.553410 126 78 105
20.026760 6.590641 63.584187 124 77 101
20.035635 6.730689 63.612366 119 74 95
20.043734 6.870592 63.638077 116 72 90
20.051105 7.010351 63.661484 112 72 87
20.057810 7.149973 63.682766 109 71 85
20.063898 7.289464 63.702103 108 71 85
20.069429 7.428832 63.719658 106 70 84
20.074459 7.568087 63.735630 105 71 84
20.079044 7.707239 63.750187 110 75 89
20.083235 7.846300 63.763489 117 83 96
20.087078 7.985281 63.775696 124 91 103
20.090616 8.124190 63.786926 130 100 109
20.093884 8.263037 63.797298 138 109 117
20.096901 8.401824 63.806881 145 117 125
20.099688 8.540554 63.815731 146 119 127
20.102247 8.679224 63.823856 143 117 125
20.104576 8.817829 63.831253 145 118 126
20.106659 8.956355 63.837860 149 123 131
20.108461 9.094783 63.843582 152 124 133
20.109949 9.233091 63.848305 154 125 133
20.111073 9.371250 63.851875 158 127 135
20.111774 9.509226 63.854107 162 129 138
20.111984 9.646974 63.854767 164 128 138
20.111626 9.784449 63.853634 160 124 136
20.110622 9.921600 63.850445 155 119 131
20.108881 10.058370 63.844917 154 119 131
20.106310 10.194695 63.836754 151 118 129
20.102816 10.330509 63.825661 144 112 124
20.098299 10.465744 63.811321 142 111 123
20.092661 10.600325 63.793419 143 115 126
20.085794 10.734173 63.771618 146 120 130
20.077599 10.867206 63.745594 150 123 132
20.067965 10.999340 63.715008 152 126 134
20.056786 11.130484 63.679516 152 126 133
20.043947 11.260543 63.638756 149 124 130
20.029341 11.389421 63.592381 146 122 127
20.012852 11.517016 63.540031 145 121 126
19.994370 11.643224 63.481346 143 121 125
19.973776 11.767935 63.415962 141 121 124
19.950960 11.891041 63.343525 140 121 125
19.925819 12.012431 63.263702 140 121 125
19.898256 12.132001 63.176189 140 121 126
19.868179 12.249644 63.080700 143 124 129
19.835518 12.365264 62.976997 147 127 133
19.800215 12.478772 62.864918 149 128 134
19.762239 12.590095 62.744343 153 129 136
19.721582 12.699170 62.615257 157 129 137
19.678267 12.805959 62.477734 157 125 133
19.632345 12.910441 62.331936 153 116 125
19.583906 13.012622 62.178139 147 107 116
19.533062 13.112526 62.016716 144 100 108
19.479975 13.210213 61.848164 140 93 102
19.424814 13.305753 61.673035 136 87 95
19.367796 13.399251 61.492001 131 81 89
19.309151 13.490833 61.305805 125 76 84
19.249128 13.580641 61.115238 121 73 83
19.187994 13.668835 60.921135 118 71 82
19.126017 13.755586 60.724361 113 69 81
19.063469 13.841074 60.525772 108 66 79
19.000616 13.925483 60.326221 105 64 79
18.937719 14.008998 60.126526 107 68 83
18.875017 14.091799 59.927448 115 77 94
18.812733 14.174055 59.729698 125 91 106
18.751064 14.255926 59.533901 132 100 114
18.690176 14.337554 59.340584 128 100 111
18.630201 14.419054 59.150166 118 92 102
18.571230 14.500517 58.962936 111 88 96
20.117912 6.302126 63.439404 130 79 109
20.128656 6.442319 63.473282 126 76 104
20.138498 6.582363 63.504318 125 76 100
20.147478 6.722253 63.532635 121 75 94
20.155636 6.861985 63.558361 118 75 90
20.163023 7.001561 63.581654 115 75 88
20.169691 7.140982 63.602684 112 73 84
20.175699 7.280256 63.621628 109 72 82
20.181101 7.419388 63.638657 106 70 80
20.185953 7.558389 63.653961 104 68 79
20.190311 7.697268 63.667709 105 69 80
20.194233 7.836035 63.680073 108 72 83
20.197765 7.974702 63.691212 111 77 87
20.200953 8.113279 63.701263 116 83 92
20.203833 8.251774 63.710346 123 92 100
20.206434 8.390192 63.718544 131 101 110
20.208776 8.528536 63.725933 134 105 114
20.210871 8.666806 63.732536 133 104 113
20.212721 8.804997 63.738369 134 106 115
20.214314 8.943101 63.743393 140 112 121
20.215626 9.081100 63.747528 145 117 126
20.216625 9.218973 63.750683 149 120 129
20.217272 9.356698 63.752720 152 122 131
20.217508 9.494239 63.753468 156 124 135
20.217272 9.631557 63.752720 161 127 138
20.216492 9.768609 63.750259 161 126 137
20.215088 9.905346 63.745838 156 122 134
20.212978 10.041712 63.739178 153 120 132
20.210066 10.177645 63.730000 152 120 131
20.206257 10.313082 63.717991 150 119 130
20.201454 10.447952 63.702843 149 120 130
20.195555 10.582183 63.684242 148 121 131
20.188450 10.715693 63.661839 148 122 131
20.180033 10.848402 63.635296 149 122 131
20.170197 10.980224 63.604275 150 123 131
20.158821 11.111063 63.568405 150 124 130
20.145794 11.240826 63.527321 148 123 129
20.130995 11.369412 63.480659 147 122 127
20.114309 11.496717 63.428043 145 121 126
20.095613 11.622634 63.369083 143 121 125
