ply
format ascii 1.0
element vertex 1173
property float x
property float y
property float z
property uchar red
property uchar green
property uchar blue
end_header
-0.847064 7.202284 49.804955 230 159 145
-0.851185 7.345209 50.047256 209 130 112
-0.855233 7.488541 50.285282 197 115 93
-0.859221 7.632362 50.519753 200 119 95
-0.863161 7.776766 50.751431 207 126 102
-0.867067 7.921853 50.981071 208 126 102
-0.870950 8.067724 51.209408 200 120 96
-0.874823 8.214480 51.437126 191 111 89
-0.878696 8.362219 51.664845 180 104 82
-0.882579 8.511033 51.893135 169 97 77
-0.886479 8.661007 52.122482 158 92 74
-0.890405 8.812221 52.353321 145 87 72
-0.894363 8.964746 52.586010 126 76 64
-0.898357 9.118647 52.820862 100 57 49
-0.902393 9.273984 53.058140 81 44 39
-0.906473 9.430808 53.298038 73 40 39
-0.910599 9.589157 53.540676 70 40 40
-0.914774 9.749061 53.786121 68 39 41
-0.918996 9.910535 54.034355 66 38 40
-0.923263 10.073572 54.285248 64 38 40
-0.927571 10.238149 54.538578 62 38 39
-0.931916 10.404217 54.794006 60 37 37
-0.936288 10.571701 55.051083 58 35 36
-0.940678 10.740494 55.309189 57 35 36
-0.945073 10.910462 55.567612 56 34 36
-0.949459 11.081446 55.825535 56 35 35
-0.953822 11.253255 56.082035 58 34 32
-0.958143 11.425679 56.336113 60 36 31
-0.962406 11.598490 56.586731 63 36 30
-0.966592 11.771449 56.832848 66 39 31
-0.970684 11.944315 57.073456 75 47 38
-0.974665 12.116846 57.307571 91 64 54
-0.978522 12.288816 57.534332 117 91 82
-0.982241 12.460013 57.752975 144 117 111
-0.985811 12.630255 57.962914 154 127 125
-0.989226 12.799387 58.163696 147 119 122
-0.992481 12.967294 58.355068 136 107 115
-0.995574 13.133897 58.536953 125 97 106
-0.998508 13.299152 58.709423 113 86 96
-1.001285 13.463057 58.872738 101 75 84
-1.003913 13.625638 59.027271 89 65 72
-1.006401 13.786956 59.173519 78 57 62
-1.008757 13.947087 59.312042 70 51 53
-1.010992 14.106128 59.443451 62 46 45
-1.013116 14.264178 59.568359 54 39 37
-1.015140 14.421343 59.687374 49 36 34
-1.017073 14.577710 59.801010 45 33 31
-1.018921 14.733352 59.909702 41 30 28
-1.020691 14.888314 60.013771 38 28 26
-1.022386 15.042614 60.113400 35 26 23
-1.024005 15.196233 60.208626 33 24 22
-1.025548 15.349111 60.299332 32 23 20
-1.027010 15.501157 60.385269 31 22 19
-1.028384 15.652237 60.466045 30 22 19
-1.029661 15.802186 60.541157 29 21 18
-1.030832 15.950810 60.609997 28 21 18
-0.484615 -6.535605 32.629692 215 137 132
-0.483926 -6.456075 32.583298 231 153 148
-0.483297 -6.377533 32.540936 241 163 158
-0.482723 -6.299901 32.502319 242 161 157
-0.482201 -6.223100 32.467167 239 156 154
-0.481727 -6.147057 32.435223 226 141 140
-0.481296 -6.071709 32.406246 204 116 116
-0.480907 -5.997002 32.380062 191 101 103
-0.480558 -5.922891 32.356510 194 104 106
-0.480245 -5.849338 32.335487 198 110 111
-0.479970 -5.776317 32.316933 197 110 111
-0.479731 -5.703810 32.300835 195 108 110
-0.479528 -5.631805 32.287220 195 107 110
-0.479364 -5.560296 32.276134 194 106 109
-0.479238 -5.489279 32.267673 194 105 109
-0.479153 -5.418758 32.261940 191 102 107
-0.479110 -5.348733 32.259052 183 93 98
-0.479111 -5.279208 32.259140 171 80 84
-0.479159 -5.210183 32.262329 161 69 73
-0.479254 -5.141659 32.268742 160 67 70
-0.479399 -5.073630 32.278488 167 72 74
-0.479594 -5.006090 32.291660 176 81 82
-0.479842 -4.939028 32.308323 186 88 88
-0.480142 -4.872426 32.328522 193 93 91
-0.480495 -4.806265 32.352272 196 94 91
-0.480900 -4.740520 32.379559 199 94 90
-0.481357 -4.675159 32.410328 203 96 90
-0.481864 -4.610147 32.444492 207 98 91
-0.482420 -4.545447 32.481930 208 99 92
-0.483022 -4.481013 32.522476 211 101 95
-0.483668 -4.416801 32.565945 213 103 97
-0.484354 -4.352760 32.612099 212 102 96
-0.485075 -4.288841 32.660694 211 102 97
-0.485829 -4.224990 32.711441 216 109 104
-0.486610 -4.161157 32.764057 223 117 113
-0.487415 -4.097292 32.818226 223 120 115
-0.488238 -4.033346 32.873642 220 119 114
-0.489075 -3.969275 32.930000 221 121 115
-0.489922 -3.905037 32.987003 229 131 122
-0.490774 -3.840596 33.044376 242 147 136
-0.491627 -3.775921 33.101860 250 156 144
-0.492480 -3.710987 33.159245 251 159 147
-0.493328 -3.645772 33.216331 247 155 143
-0.494169 -3.580263 33.272964 239 142 130
-0.495001 -3.514448 33.329021 231 132 122
-0.495824 -3.448323 33.384407 231 131 123
-0.496636 -3.381886 33.439064 233 131 126
-0.497436 -3.315138 33.492966 234 129 126
-0.498226 -3.248085 33.546120 232 126 123
-0.499004 -3.180732 33.598534 233 123 121
-0.499772 -3.113091 33.650265 235 122 120
-0.500531 -3.045171 33.701378 237 121 118
-0.501283 -2.976984 33.751961 236 116 112
-0.502028 -2.908541 33.802109 233 111 106
-0.502768 -2.839857 33.851955 232 107 100
-0.503506 -2.770944 33.901634 231 104 94
-0.504243 -2.701815 33.951294 230 101 89
-0.504983 -2.632484 34.001106 228 99 85
-0.505728 -2.562963 34.051247 228 98 83
-0.506480 -2.493263 34.101898 228 98 83
-0.507243 -2.423395 34.153248 230 98 84
-0.508018 -2.353366 34.205482 232 98 85
-0.508810 -2.283182 34.258781 234 97 84
-0.509620 -2.212848 34.313309 236 95 82
-0.510450 -2.142366 34.369225 235 91 78
-0.511303 -2.071733 34.426647 234 90 76
-0.512180 -2.000947 34.485699 236 90 76
-0.513083 -1.930002 34.546455 238 92 77
-0.514011 -1.858889 34.608971 239 93 79
-0.514966 -1.787599 34.673275 238 94 80
-0.515948 -1.716120 34.739376 230 90 75
-0.516956 -1.644441 34.807251 224 88 72
-0.517990 -1.572546 34.876854 230 99 81
-0.519048 -1.500424 34.948135 238 113 92
-0.520131 -1.428059 35.021011 237 114 91
-0.521235 -1.355439 35.095406 237 122 98
-0.522361 -1.282549 35.171211 245 148 123
-0.523507 -1.209378 35.248329 251 161 136
-0.524670 -1.135913 35.326656 252 149 122
-0.525850 -1.062143 35.406078 252 139 111
-0.527044 -0.988059 35.486496 254 144 113
-0.528252 -0.913651 35.567806 254 148 116
-0.529471 -0.838911 35.649925 254 148 117
-0.530702 -0.763833 35.732784 254 155 127
-0.531942 -0.688411 35.816319 254 171 147
-0.533193 -0.612639 35.900501 252 169 149
-0.534453 -0.536515 35.985332 248 143 127
-0.535722 -0.460033 36.070831 248 131 119
-0.537003 -0.383190 36.157051 250 135 126
-0.538296 -0.305982 36.244080 246 129 122
-0.539602 -0.228405 36.332039 243 129 121
-0.540924 -0.150453 36.421066 249 155 145
-0.542265 -0.072120 36.511333 254 175 159
-0.543627 0.006603 36.603035 254 163 142
-0.545013 0.085724 36.696377 252 149 121
-0.546427 0.165257 36.791565 252 149 116
-0.547871 0.245214 36.888817 252 147 112
-0.549349 0.325610 36.988335 253 148 113
-0.550864 0.406462 37.090332 254 157 126
-0.552418 0.487789 37.194996 254 164 139
-0.554015 0.569610 37.302486 254 176 157
-0.555656 0.651947 37.412968 254 187 173
-0.557343 0.734821 37.526573 251 172 163
-0.559079 0.818256 37.643429 246 143 135
-0.560864 0.902274 37.763626 245 136 127
-0.562700 0.986900 37.887253 250 141 131
-0.564588 1.072158 38.014381 253 136 123
-0.566529 1.158071 38.145061 254 130 114
-0.568523 1.244665 38.279327 254 130 112
-0.570571 1.331962 38.417194 254 131 113
-0.572672 1.419987 38.558670 253 130 113
-0.574826 1.508761 38.703724 251 128 113
-0.577033 1.598306 38.852314 250 133 121
-0.579291 1.688641 39.004364 251 148 138
-0.581600 1.779786 39.159794 252 163 156
-0.583956 1.871755 39.318474 248 156 151
-0.586359 1.964563 39.480263 241 137 132
-0.588806 2.058221 39.644993 239 127 120
-0.591294 2.152740 39.812500 237 119 109
-0.593820 2.248127 39.982601 239 117 102
-0.596382 2.344387 40.155109 247 131 112
-0.598977 2.441527 40.329861 253 143 121
-0.601604 2.539553 40.506725 254 141 117
-0.604261 2.638472 40.685593 252 133 109
-0.606946 2.738292 40.866405 252 130 107
-0.609661 2.839026 41.049171 252 132 110
-0.612405 2.940692 41.233952 248 129 109
-0.615181 3.043313 41.420879 241 122 104
-0.617992 3.146918 41.610161 240 124 109
-0.620843 3.251543 41.802067 247 134 120
-0.623737 3.357234 41.996964 245 133 121
-0.626682 3.464044 42.195255 237 124 113
-0.629684 3.572033 42.397400 240 129 116
-0.632751 3.681270 42.603889 249 140 126
-0.635890 3.791829 42.815258 252 144 126
-0.639110 3.903788 43.032017 252 154 131
-0.642417 4.017231 43.254681 253 177 150
-0.645818 4.132236 43.483696 248 176 146
-0.649320 4.248886 43.719463 237 147 117
-0.652926 4.367249 43.962257 238 133 107
-0.656639 4.487391 44.212261 247 138 116
-0.660459 4.609360 44.469486 245 136 117
-0.664384 4.733187 44.733791 237 129 112
-0.668410 4.858884 45.004860 240 139 122
-0.672529 4.986437 45.282177 248 162 143
-0.676730 5.115811 45.565063 249 165 143
-0.681002 5.246943 45.852654 241 149 123
-0.685328 5.379745 46.143929 233 138 110
-0.689692 5.514105 46.437756 226 135 104
-0.694075 5.649893 46.732918 228 150 119
-0.698460 5.786964 47.028156 241 186 156
-0.702828 5.925161 47.322227 247 195 169
-0.707160 6.064328 47.613960 239 173 151
-0.711443 6.204312 47.902287 236 159 142
-0.715661 6.344973 48.186314 237 159 146
-0.719805 6.486187 48.465332 236 157 146
-0.723867 6.627857 48.738850 227 147 138
-0.727844 6.769912 49.006615 217 135 126
-0.731735 6.912310 49.268600 220 140 130
-0.735543 7.055038 49.524979 235 161 149
-0.739273 7.198113 49.776108 235 161 146
-0.742932 7.341576 50.022499 215 136 117
-0.746530 7.485488 50.264782 200 118 97
-0.750078 7.629928 50.503639 201 120 96
-0.753585 7.774984 50.739799 207 126 102
-0.757063 7.920751 50.973980 209 128 103
-0.760522 8.067325 51.206875 203 122 97
-0.763972 8.214800 51.439125 194 114 89
-0.767420 8.363267 51.671322 184 106 82
-0.770876 8.512812 51.903980 174 99 77
-0.774345 8.663513 52.137562 164 94 75
-0.777833 8.815441 52.372456 154 91 74
-0.781346 8.968662 52.608990 138 83 69
-0.784888 9.123239 52.847462 113 67 56
-0.788462 9.279220 53.088097 91 51 43
-0.792071 9.436653 53.331070 78 43 39
-0.795716 9.595573 53.576500 72 40 39
-0.799398 9.756007 53.824444 68 39 40
-0.803117 9.917962 54.074852 66 39 41
-0.806871 10.081434 54.327614 64 39 41
-0.810657 10.246394 54.582500 62 39 40
-0.814469 10.412793 54.839176 60 38 39
-0.818301 10.580552 55.097176 57 38 39
-0.822144 10.749567 55.355911 55 37 39
-0.825987 10.919703 55.614670 56 38 37
-0.829818 11.090798 55.872654 56 39 35
-0.833625 11.262671 56.128960 58 39 30
-0.837392 11.435109 56.382607 59 40 28
-0.841105 11.607891 56.632599 63 41 28
-0.844749 11.780787 56.877930 66 43 28
-0.848309 11.953561 57.117630 76 52 35
-0.851771 12.125979 57.350765 92 68 50
-0.855124 12.297828 57.576519 112 87 70
-0.858357 12.468900 57.794167 127 102 89
-0.861461 12.639030 58.003185 131 105 98
-0.864431 12.808070 58.203156 125 98 97
-0.867263 12.975915 58.393864 116 89 93
-0.869957 13.142493 58.575268 107 80 88
-0.872515 13.307770 58.747467 98 73 81
-0.874940 13.471743 58.910721 87 65 72
-0.877237 13.634448 59.065434 77 57 63
-0.879415 13.795941 59.212086 68 50 53
-0.881482 13.956301 59.351227 60 44 45
-0.883446 14.115621 59.483456 53 39 38
-0.885316 14.273994 59.609356 46 34 32
-0.887100 14.431524 59.729511 41 30 27
-0.888807 14.588288 59.844406 38 28 25
-0.890441 14.744351 59.954433 36 27 24
-0.892007 14.899753 60.059879 34 25 23
-0.893507 15.054501 60.160900 33 24 22
-0.894942 15.208570 60.257504 32 23 20
-0.896309 15.361895 60.349552 31 22 19
-0.413545 -6.524078 32.572140 214 132 129
-0.412970 -6.444887 32.526836 233 151 148
-0.412446 -6.366678 32.485546 242 159 157
-0.411969 -6.289369 32.447979 235 150 148
-0.411536 -6.212881 32.413853 221 134 133
-0.411143 -6.137141 32.382900 205 116 116
-0.410787 -6.062087 32.354893 191 100 101
-0.410466 -5.987662 32.329632 190 99 99
-0.410179 -5.913821 32.306961 197 106 106
-0.409922 -5.840526 32.286774 199 109 108
-0.409697 -5.767750 32.269005 195 107 106
-0.409502 -5.695476 32.253639 192 105 104
-0.409337 -5.623692 32.240704 191 104 104
-0.409205 -5.552389 32.230244 191 103 104
-0.409104 -5.481567 32.222340 191 103 104
-0.409038 -5.411229 32.217110 189 101 102
-0.409007 -5.341374 32.214668 182 93 95
-0.409013 -5.272008 32.215145 171 81 82
-0.409058 -5.203131 32.218662 161 69 70
-0.409142 -5.134744 32.225349 161 68 68
-0.409269 -5.066844 32.235313 170 76 75
-0.409438 -4.999422 32.248642 181 85 84
-0.409651 -4.932468 32.265415 190 91 90
-0.409908 -4.865968 32.285675 196 95 92
-0.410210 -4.799901 32.309433 199 95 92
-0.410556 -4.734242 32.336681 202 95 90
-0.410946 -4.668961 32.367363 205 96 90
-0.411378 -4.604024 32.401398 208 98 90
-0.411851 -4.539392 32.438663 209 98 90
-0.412363 -4.475023 32.478996 209 98 91
-0.412912 -4.410869 32.522205 211 99 92
-0.413494 -4.346884 32.568069 211 100 93
-0.414107 -4.283015 32.616329 216 105 98
-0.414746 -4.219213 32.666718 225 116 110
-0.415409 -4.155426 32.718929 230 122 116
-0.416091 -4.091604 32.772667 224 119 112
-0.416789 -4.027700 32.827621 220 117 110
-0.417498 -3.963668 32.883484 222 121 112
-0.418215 -3.899468 32.939964 228 129 119
-0.418937 -3.835065 32.996784 238 140 128
-0.419659 -3.770427 33.053692 245 151 138
-0.420380 -3.705528 33.110470 249 156 143
-0.421097 -3.640350 33.166927 244 151 139
-0.421808 -3.574877 33.222908 236 140 128
-0.422511 -3.509099 33.278290 230 132 122
-0.423205 -3.443012 33.332981 230 132 124
-0.423890 -3.376613 33.386929 234 133 128
-0.424565 -3.309906 33.440109 237 134 131
-0.425231 -3.242895 33.492523 240 134 133
-0.425887 -3.175588 33.544189 242 135 134
-0.426534 -3.107994 33.595165 244 136 135
-0.427173 -3.040124 33.645519 244 132 131
-0.427806 -2.971989 33.695335 241 123 121
-0.428433 -2.903602 33.744717 236 113 108
-0.429056 -2.834977 33.793797 232 106 100
-0.429677 -2.766127 33.842709 232 103 94
-0.430298 -2.697065 33.891602 231 101 89
-0.430920 -2.627803 33.940647 231 99 85
-0.431547 -2.558355 33.990025 232 100 85
-0.432181 -2.488732 34.039913 233 100 86
-0.432823 -2.418943 34.090508 234 99 86
-0.433477 -2.348997 34.141987 235 98 85
-0.434144 -2.278900 34.194530 236 97 84
-0.434827 -2.208657 34.248314 237 95 82
-0.435527 -2.138268 34.303486 237 93 79
-0.436247 -2.067734 34.360188 237 92 78
-0.436988 -1.997050 34.418526 238 92 78
-0.437750 -1.926211 34.478596 239 94 79
-0.438536 -1.855209 34.540455 239 95 80
-0.439344 -1.784034 34.604137 239 97 81
-0.440176 -1.712676 34.669655 233 95 79
-0.441031 -1.641122 34.737000 228 94 76
-0.441909 -1.569358 34.806133 231 100 80
-0.442809 -1.497370 34.877003 234 106 84
-0.443730 -1.425145 34.949543 236 113 90
-0.444671 -1.352669 35.023674 242 131 108
-0.445631 -1.279927 35.099297 250 149 126
-0.446609 -1.206907 35.176311 254 152 128
-0.447603 -1.133597 35.254616 254 144 119
-0.448612 -1.059984 35.334099 254 137 111
-0.449635 -0.986058 35.414650 254 137 108
-0.450670 -0.911810 35.496166 254 140 111
-0.451716 -0.837231 35.578560 254 142 114
-0.452772 -0.762314 35.661751 254 148 123
-0.453838 -0.687053 35.745667 254 158 137
-0.454912 -0.611441 35.830273 251 154 138
-0.455994 -0.535474 35.915554 246 134 123
-0.457086 -0.459149 36.001526 247 126 119
-0.458187 -0.382461 36.088234 248 127 123
-0.459298 -0.305405 36.175751 244 121 120
-0.460421 -0.227979 36.264191 246 128 126
-0.461557 -0.150175 36.353691 251 150 145
-0.462709 -0.071988 36.444412 254 161 151
-0.463879 0.006591 36.536545 254 157 140
-0.465069 0.085570 36.630291 254 145 121
-0.466282 0.164962 36.725864 253 137 106
-0.467522 0.244779 36.823467 252 140 106
-0.468789 0.325037 36.923317 253 148 113
-0.470088 0.405753 37.025612 254 153 120
-0.471420 0.486943 37.130550 254 157 128
-0.472788 0.568630 37.238297 254 164 142
-0.474194 0.650832 37.349010 254 167 150
-0.475639 0.733573 37.462830 250 153 141
-0.477125 0.816874 37.579876 248 145 135
-0.478653 0.900760 37.700245 250 156 147
-0.480225 0.985253 37.824032 253 156 146
-0.481841 1.070379 37.951302 251 136 126
-0.483502 1.156160 38.082108 252 124 112
-0.485208 1.242622 38.216488 253 125 110
-0.486960 1.329787 38.354462 254 126 110
-0.488757 1.417680 38.496033 253 127 111
-0.490600 1.506323 38.641178 253 133 117
-0.492487 1.595737 38.789860 254 141 126
-0.494419 1.685942 38.942013 254 153 140
-0.496394 1.776956 39.097549 252 159 148
-0.498410 1.868797 39.256351 243 142 132
-0.500466 1.961479 39.418282 232 117 107
-0.502560 2.055012 39.583179 235 114 102
-0.504689 2.149408 39.750874 244 122 108
-0.506851 2.244673 39.921188 249 128 111
-0.509044 2.340816 40.093941 252 138 117
-0.511267 2.437840 40.268959 254 143 120
-0.513516 2.535753 40.446114 254 137 113
-0.515791 2.634561 40.625282 253 131 107
-0.518090 2.734272 40.806412 253 130 106
-0.520415 2.834899 40.989491 253 131 109
-0.522765 2.936458 41.174572 247 126 106
-0.525141 3.038971 41.361778 235 114 96
-0.527548 3.142467 41.551311 233 114 98
-0.529987 3.246982 41.743435 244 129 113
-0.532463 3.352560 41.938496 249 135 119
-0.534982 3.459253 42.136898 245 130 114
-0.537550 3.567121 42.339088 246 131 114
-0.540171 3.676231 42.545570 248 136 116
-0.542854 3.786658 42.756866 246 135 113
-0.545604 3.898480 42.973507 245 144 118
-0.548429 4.011780 43.195995 249 171 143
-0.551334 4.126640 43.424812 248 179 149
-0.554325 4.243141 43.660355 237 150 121
-0.557405 4.361356 43.902935 236 132 105
-0.560576 4.481350 44.152737 243 135 112
-0.563840 4.603175 44.409813 244 135 115
-0.567195 4.726865 44.674038 239 130 111
-0.570637 4.852434 44.945122 238 135 115
-0.574159 4.979873 45.222572 246 153 131
-0.577754 5.109150 45.505733 249 162 138
-0.581411 5.240206 45.793777 243 153 126
-0.585118 5.372956 46.085697 232 140 112
-0.588859 5.507292 46.380383 220 132 103
-0.592620 5.643089 46.676636 221 145 117
-0.596386 5.780202 46.973209 238 181 155
-0.600140 5.918483 47.268890 246 194 171
-0.603867 6.057774 47.562496 239 173 153
-0.607556 6.197926 47.852985 235 158 142
-0.611193 6.338802 48.139454 238 159 145
-0.614770 6.480282 48.421207 238 159 146
-0.618281 6.622268 48.697746 230 150 138
-0.621722 6.764688 48.968807 220 138 126
-0.625094 6.907505 49.234356 220 138 125
-0.628397 7.050704 49.494553 233 153 139
-0.631637 7.194298 49.749725 238 159 143
-0.634819 7.338327 50.000362 222 141 122
-0.637952 7.482850 50.247066 204 122 101
-0.641042 7.627941 50.490490 200 118 96
-0.644100 7.773682 50.731300 205 124 100
-0.647132 7.920161 50.970184 210 128 104
-0.650149 8.067469 51.207790 207 126 100
-0.653157 8.215693 51.444717 199 118 92
-0.656163 8.364914 51.681492 189 110 84
-0.659174 8.515211 51.918606 179 103 78
-0.662194 8.666653 52.156456 170 98 76
-0.665228 8.819304 52.395409 161 95 75
-0.668279 8.973224 52.635742 147 89 72
-0.671351 9.128464 52.877731 126 75 61
-0.674447 9.285071 53.121578 102 58 48
-0.677569 9.443086 53.367424 84 46 40
-0.680717 9.602537 53.615379 73 40 37
-0.683892 9.763446 53.865486 69 40 39
-0.687094 9.925820 54.117691 66 41 41
-0.690321 10.089649 54.371883 64 41 42
-0.693571 10.254903 54.627823 61 41 42
-0.696838 10.421530 54.885189 59 42 42
-0.700118 10.589454 55.143528 56 42 43
-0.703403 10.758567 55.402256 56 43 43
-0.706685 10.928739 55.660694 56 44 42
-0.709952 11.099813 55.918064 55 43 37
-0.713195 11.271605 56.173481 54 41 29
-0.716401 11.443914 56.426022 58 42 27
-0.719559 11.616526 56.674721 69 50 31
-0.722656 11.789214 56.918621 75 54 32
-0.725680 11.961759 57.156807 91 68 44
-0.728620 12.133935 57.388393 114 90 66
-0.731467 12.305538 57.612621 120 96 73
-0.734212 12.476378 57.828831 111 87 68
-0.736849 12.646297 58.036533 104 80 68
-0.739373 12.815160 58.235374 100 76 71
-0.741783 12.982871 58.425167 96 71 72
-0.744078 13.149367 58.605900 91 66 72
-0.746259 13.314620 58.777706 84 61 68
-0.748330 13.478633 58.940853 76 56 62
-0.750297 13.641442 59.095734 68 50 55
-0.752164 13.803104 59.242832 60 45 47
-0.753940 13.963697 59.382683 54 40 40
-0.755631 14.123306 59.515842 47 35 34
-0.757244 14.282022 59.642879 41 30 28
-0.758786 14.439939 59.764336 36 27 24
-0.760262 14.597126 59.880657 34 25 22
-0.761679 14.753638 59.992195 33 25 22
-0.763037 14.909508 60.099201 32 24 21
-0.764340 15.064734 60.201797 32 23 20
-0.342754 -6.513118 32.517422 214 128 127
-0.342288 -6.434253 32.473167 228 141 140
-0.341863 -6.356361 32.432903 233 144 144
-0.341478 -6.279360 32.396347 220 130 130
-0.341129 -6.203173 32.363205 202 111 111
-0.340812 -6.127724 32.333210 190 98 99
-0.340527 -6.052949 32.306122 187 95 95
-0.340270 -5.978794 32.281746 192 99 99
-0.340040 -5.905210 32.259926 198 106 105
-0.339836 -5.832162 32.240540 198 108 106
-0.339656 -5.759621 32.223526 195 106 103
-0.339502 -5.687570 32.208866 190 103 99
-0.339372 -5.615996 32.196583 187 101 98
-0.339268 -5.544891 32.186718 186 100 97
-0.339191 -5.474256 32.179363 186 100 97
-0.339141 -5.404092 32.174618 184 98 95
-0.339120 -5.334401 32.172611 180 93 90
-0.339129 -5.265186 32.173458 173 84 81
-0.339169 -5.196451 32.177296 165 75 71
-0.339242 -5.128195 32.184246 166 74 70
-0.339350 -5.060416 32.194420 175 82 77
-0.339492 -4.993106 32.207909 186 90 86
-0.339670 -4.926257 32.224781 194 95 90
-0.339884 -4.859851 32.245090 200 97 92
-0.340134 -4.793871 32.268848 203 98 92
-0.340421 -4.728292 32.296043 206 98 91
-0.340743 -4.663084 32.326618 208 98 90
-0.341100 -4.598213 32.360504 211 100 90
-0.341491 -4.533642 32.397568 212 100 90
-0.341913 -4.469327 32.437660 213 100 91
-0.342366 -4.405223 32.480579 214 101 93
-0.342846 -4.341283 32.526108 216 103 95
-0.343350 -4.277456 32.573994 223 110 102
-0.343877 -4.213692 32.623966 234 123 115
-0.344423 -4.149939 32.675724 234 126 116
-0.344984 -4.086149 32.728973 224 119 108
-0.345558 -4.022274 32.783405 224 120 109
-0.346141 -3.958271 32.838711 231 128 117
-0.346730 -3.894099 32.894604 234 133 121
-0.347322 -3.829721 32.950809 236 139 126
-0.347915 -3.765109 33.007076 240 145 132
-0.348507 -3.700237 33.063194 242 146 134
-0.349095 -3.635086 33.118969 236 139 127
-0.349678 -3.569641 33.174248 230 133 122
-0.350254 -3.503893 33.228916 231 133 124
-0.350823 -3.437836 33.282875 235 136 130
-0.351383 -3.371471 33.336086 239 137 133
-0.351936 -3.304799 33.388515 243 140 138
-0.352481 -3.237826 33.440174 248 143 143
-0.353017 -3.170560 33.491081 251 147 146
-0.353546 -3.103010 33.541302 252 148 148
-0.354069 -3.035188 33.590893 251 142 141
-0.354586 -2.967104 33.639950 246 128 127
-0.355099 -2.898772 33.688580 239 115 111
-0.355608 -2.830205 33.736904 233 106 101
-0.356116 -2.761416 33.785061 232 102 94
-0.356623 -2.692418 33.833210 232 100 90
-0.357132 -2.623224 33.881508 232 99 87
-0.357645 -2.553848 33.930138 234 100 87
-0.358163 -2.484299 33.979282 236 101 87
-0.358689 -2.414587 34.029129 236 100 86
-0.359223 -2.344723 34.079861 237 98 85
-0.359769 -2.274710 34.131657 238 97 84
-0.360328 -2.204554 34.184700 238 96 82
-0.360902 -2.134257 34.239132 240 95 81
-0.361492 -2.063817 34.295105 241 95 80
-0.362099 -1.993232 34.352730 241 96 80
-0.362725 -1.922496 34.412102 240 97 80
-0.363370 -1.851601 34.473289 240 98 81
-0.364035 -1.780539 34.536335 240 100 83
-0.364719 -1.709297 34.601257 238 103 84
-0.365423 -1.637865 34.668056 236 105 84
-0.366147 -1.566227 34.736702 236 107 85
-0.366889 -1.494371 34.807148 235 109 85
-0.367650 -1.422282 34.879337 238 117 94
-0.368429 -1.349946 34.953194 246 136 115
-0.369224 -1.277350 35.028622 253 148 127
-0.370034 -1.204479 35.105526 254 145 124
-0.370860 -1.131320 35.183807 254 139 116
-0.371698 -1.057862 35.263351 254 136 111
-0.372549 -0.984092 35.344044 254 141 113
-0.373410 -0.910002 35.425781 254 147 119
-0.374282 -0.835582 35.508461 254 147 120
-0.375162 -0.760823 35.591999 254 144 121
-0.376051 -0.685720 35.676323 254 144 125
-0.376948 -0.610265 35.761379 250 140 126
-0.377852 -0.534454 35.847149 248 136 127
-0.378763 -0.458283 35.933632 250 140 136
-0.379683 -0.381747 36.020863 249 135 135
-0.380611 -0.304841 36.108913 245 123 124
-0.381549 -0.227562 36.197880 248 126 127
-0.382497 -0.149903 36.287899 253 141 139
-0.383459 -0.071859 36.379124 254 150 142
-0.384435 0.006579 36.471741 254 151 136
-0.385428 0.085420 36.565945 252 138 113
-0.386440 0.164675 36.661945 252 135 104
-0.387473 0.244357 36.759956 253 156 119
-0.388530 0.324481 36.860180 254 172 133
-0.389612 0.405064 36.962826 254 170 133
-0.390721 0.486124 37.068085 254 156 124
-0.391860 0.567680 37.176128 254 150 125
-0.393030 0.649754 37.287109 254 153 133
-0.394232 0.732365 37.401173 253 153 138
-0.395468 0.815539 37.518440 251 159 148
-0.396739 0.899297 37.639011 253 165 158
-0.398046 0.983663 37.762974 252 150 144
-0.399389 1.068661 37.890396 250 127 121
-0.400769 1.154315 38.021343 251 120 113
-0.402187 1.240650 38.155842 253 123 114
-0.403642 1.327688 38.293919 253 124 112
-0.405135 1.415454 38.435585 253 129 116
-0.406666 1.503970 38.580818 254 139 124
-0.408234 1.593257 38.729584 254 144 128
-0.409839 1.683336 38.881817 254 144 129
-0.411479 1.774225 39.037445 253 141 126
-0.413154 1.865942 39.196358 246 129 116
-0.414863 1.958500 39.358418 240 119 106
-0.416602 2.051912 39.523464 244 123 108
-0.418372 2.146188 39.691341 251 130 113
-0.420169 2.241338 39.861866 254 132 113
-0.421993 2.337367 40.034859 254 135 114
-0.423840 2.434281 40.210155 254 135 112
-0.425711 2.532085 40.387611 254 131 107
-0.427603 2.630788 40.567112 253 127 104
-0.429516 2.730397 40.748581 253 128 104
-0.431449 2.830924 40.932014 253 129 107
-0.433404 2.932384 41.117451 247 124 103
-0.435381 3.034800 41.305004 232 109 89
-0.437382 3.138198 41.494858 225 103 84
-0.439410 3.242613 41.687271 237 118 100
-0.441469 3.348090 41.882580 249 133 114
-0.443562 3.454678 42.081173 249 133 114
-0.445695 3.562437 42.283501 246 130 110
-0.447872 3.671434 42.490055 242 128 107
-0.450099 3.781743 42.701366 234 121 100
-0.452382 3.893440 42.917953 231 128 105
-0.454726 4.006610 43.140331 241 165 142
-0.457137 4.121336 43.368992 245 185 163
-0.459617 4.237698 43.604347 233 152 131
-0.462172 4.355772 43.846725 226 122 102
-0.464803 4.475625 44.096329 235 126 106
-0.467511 4.597310 44.353226 243 134 114
-0.470295 4.720865 44.617336 241 134 113
-0.473152 4.846307 44.888374 238 133 111
-0.476077 4.973632 45.165894 242 145 120
-0.479064 5.102809 45.449257 249 159 133
-0.482104 5.233785 45.737667 247 160 134
-0.485187 5.366478 46.030144 235 149 122
-0.488301 5.500787 46.325596 217 133 107
-0.491434 5.636587 46.622852 215 138 115
-0.494574 5.773741 46.920700 234 172 151
-0.497707 5.912101 47.217922 246 190 171
-0.500821 6.051516 47.513367 240 173 156
-0.503905 6.191839 47.805988 234 157 142
-0.506951 6.332936 48.094906 236 157 143
-0.509950 6.474689 48.379410 239 160 145
-0.512897 6.616999 48.659004 234 154 139
-0.515789 6.759802 48.933430 224 143 128
-0.518627 6.903054 49.202633 220 137 121
-0.521411 7.046743 49.466747 226 143 127
-0.524144 7.190880 49.726086 234 151 134
-0.526832 7.335501 49.981110 227 144 125
-0.529481 7.480661 50.232372 211 127 107
-0.532096 7.626430 50.480484 200 118 96
-0.534685 7.772883 50.726089 202 121 97
-0.537254 7.920102 50.969803 209 128 102
-0.539809 8.068170 51.212238 211 129 102
-0.542357 8.217164 51.453934 204 122 94
-0.544902 8.367158 51.695362 194 112 85
-0.547448 8.518220 51.936954 185 105 79
-0.550000 8.670412 52.179085 175 100 76
-0.552561 8.823789 52.422043 166 97 74
-0.555134 8.978398 52.666096 154 92 73
-0.557720 9.134288 52.911465 136 82 66
-0.560322 9.291495 53.158325 112 66 53
-0.562941 9.450052 53.406799 90 50 42
-0.565578 9.609987 53.656982 76 42 36
-0.568234 9.771314 53.908890 70 41 38
-0.570907 9.934036 54.162487 67 42 41
-0.573596 10.098140 54.417637 64 44 43
-0.576300 10.263592 54.674114 61 44 44
-0.579014 10.430346 54.931618 57 44 45
-0.581734 10.598319 55.189693 57 47 48
-0.584455 10.767410 55.447796 60 52 52
-0.587169 10.937490 55.705269 62 54 52
-0.589868 11.108407 55.961357 56 48 41
-0.592544 11.279984 56.215237 47 38 28
-0.595187 11.452025 56.466019 64 53 38
-0.597789 11.624328 56.712788 101 86 64
-0.600338 11.796679 56.954659 115 95 67
-0.602827 11.968865 57.190762 130 108 79
-0.605246 12.140678 57.420284 156 135 109
-0.607589 12.311925 57.642525 144 122 99
-0.609848 12.482433 57.856895 107 84 64
-0.612020 12.652051 58.062943 88 65 50
-0.614101 12.820662 58.260372 85 63 54
-0.616090 12.988176 58.449043 84 61 60
-0.617986 13.154542 58.628963 81 58 61
-0.619792 13.319736 58.800289 76 55 59
-0.621510 13.483765 58.963295 69 50 54
-0.623145 13.646667 59.118370 62 46 48
-0.624701 13.808497 59.265976 56 41 42
-0.626183 13.969328 59.406624 50 37 36
-0.627598 14.129241 59.540852 44 32 31
-0.628951 14.288320 59.669174 39 28 26
-0.272221 -6.502679 32.465302 215 125 126
-0.271858 -6.424124 32.422047 220 129 130
-0.271529 -6.346535 32.382771 218 126 127
-0.271230 -6.269830 32.347179 205 112 114
-0.270960 -6.193928 32.314976 190 97 99
-0.270716 -6.118756 32.285892 186 93 95
-0.270496 -6.044249 32.259686 192 98 98
-0.270299 -5.970350 32.236160 197 103 103
-0.270123 -5.897014 32.215145 199 106 104
-0.269967 -5.824201 32.196526 198 107 104
-0.269830 -5.751884 32.180233 195 104 100
-0.269713 -5.680045 32.166252 189 100 95
-0.269615 -5.608672 32.154594 184 98 92
-0.269537 -5.537757 32.145306 183 97 91
-0.269480 -5.467300 32.138474 182 97 91
-0.269444 -5.397303 32.134201 180 96 89
-0.269431 -5.327769 32.132610 178 92 85
-0.269441 -5.258700 32.133823 173 86 78
-0.269476 -5.190101 32.137970 169 80 73
-0.269536 -5.121970 32.145180 172 82 73
-0.269623 -5.054307 32.155560 181 88 79
-0.269738 -4.987105 32.169197 190 95 86
-0.269880 -4.920353 32.186165 197 99 90
-0.270051 -4.854038 32.206516 203 101 92
-0.270250 -4.788140 32.230267 207 101 93
-0.270477 -4.722634 32.257397 210 101 91
-0.270733 -4.657493 32.287861 212 101 90
-0.271015 -4.592682 32.321575 215 103 92
-0.271324 -4.528163 32.358421 218 104 94
-0.271658 -4.463896 32.398239 220 105 96
-0.272015 -4.399834 32.440842 222 107 98
-0.272394 -4.335930 32.486000 225 109 100
-0.272792 -4.272135 32.533474 228 113 104
-0.273207 -4.208398 32.582981 233 120 110
-0.273637 -4.144670 32.634239 231 121 109
-0.274079 -4.080902 32.686947 226 119 105
-0.274531 -4.017047 32.740795 232 127 114
-0.274989 -3.953062 32.795490 242 140 126
-0.275452 -3.888906 32.850742 245 147 133
-0.275918 -3.824546 32.906277 245 155 141
-0.276384 -3.759950 32.961853 244 159 145
-0.276849 -3.695096 33.017254 238 147 135
-0.277310 -3.629963 33.072296 227 129 119
-0.277767 -3.564539 33.126831 225 125 116
-0.278219 -3.498813 33.180740 233 134 127
-0.278666 -3.432781 33.233940 242 141 136
-0.279105 -3.366444 33.286385 244 142 140
-0.279538 -3.299804 33.338051 248 145 145
-0.279965 -3.232866 33.388939 252 150 151
-0.280386 -3.165638 33.439087 253 150 151
-0.280800 -3.098130 33.488544 253 147 148
-0.281210 -3.030353 33.537384 251 139 139
-0.281615 -2.962319 33.585697 245 126 125
-0.282017 -2.894040 33.633587 239 113 111
-0.282416 -2.825530 33.681179 235 107 102
-0.282813 -2.756801 33.728611 234 104 97
-0.283211 -2.687868 33.776031 234 102 94
-0.283610 -2.618742 33.823612 235 102 91
-0.284012 -2.549435 33.871517 237 102 90
-0.284418 -2.479960 33.919945 238 102 89
-0.284830 -2.410326 33.969063 238 100 87
-0.285249 -2.340540 34.019070 239 98 85
-0.285677 -2.270611 34.070145 239 97 83
-0.286116 -2.200540 34.122456 239 96 81
-0.286566 -2.130332 34.176167 241 97 81
-0.287029 -2.059984 34.231419 242 98 82
-0.287507 -1.989495 34.288334 243 100 82
-0.287999 -1.918860 34.347015 242 101 83
-0.288506 -1.848070 34.407532 242 102 85
-0.289029 -1.777116 34.469940 242 105 87
-0.289569 -1.705988 34.534260 242 109 90
-0.290124 -1.634673 34.600510 242 113 92
-0.290696 -1.563159 34.668655 241 115 93
-0.291283 -1.491431 34.738674 240 114 93
-0.291885 -1.419475 34.810501 243 122 102
-0.292502 -1.347277 34.884075 250 140 122
-0.293133 -1.274822 34.959301 254 151 133
-0.293777 -1.202096 35.036095 254 147 128
-0.294433 -1.129086 35.114346 254 137 117
-0.295100 -1.055780 35.193947 253 133 110
-0.295778 -0.982164 35.274780 253 143 118
-0.296465 -0.908229 35.356735 254 155 129
-0.297161 -0.833964 35.439713 254 157 132
-0.297864 -0.759362 35.523613 254 152 130
-0.298575 -0.684413 35.608356 254 147 130
-0.299292 -0.609113 35.693882 253 150 138
-0.300015 -0.533456 35.780155 252 163 156
-0.300745 -0.457435 35.867176 253 173 169
-0.301481 -0.381048 35.954956 250 155 156
-0.302224 -0.304289 36.043568 244 127 128
-0.302975 -0.227155 36.133102 246 123 122
-0.303734 -0.149638 36.223675 253 136 131
-0.304504 -0.071733 36.315445 254 148 137
-0.305285 0.006568 36.408585 254 150 130
-0.306079 0.085273 36.503292 252 134 106
-0.306888 0.164396 36.599770 252 140 104
-0.307713 0.243947 36.698227 254 172 133
-0.308557 0.323942 36.798874 254 187 148
-0.309421 0.404397 36.901909 254 181 144
-0.310307 0.485330 37.007534 254 166 132
-0.311216 0.566761 37.115910 254 152 125
-0.312149 0.648710 37.227200 254 150 129
-0.313108 0.731198 37.341549 254 153 138
-0.314093 0.814248 37.459064 254 158 149
-0.315106 0.897884 37.579865 254 156 150
-0.316147 0.982127 37.704029 253 136 134
-0.317217 1.067003 37.831635 251 121 121
-0.318316 1.152536 37.962734 252 122 123
-0.319445 1.238748 38.097370 253 125 124
-0.320604 1.325665 38.235565 251 123 118
-0.321793 1.413309 38.377331 251 128 119
-0.323011 1.501703 38.522659 252 135 123
-0.324259 1.590868 38.671513 253 136 121
-0.325537 1.680825 38.823837 254 133 117
-0.326842 1.771594 38.979565 254 131 114
-0.328176 1.863191 39.138584 252 129 113
-0.329536 1.955631 39.300770 252 130 113
-0.330921 2.048927 39.465973 253 132 115
-0.332330 2.143090 39.634037 254 132 113
-0.333762 2.238128 39.804783 254 131 109
-0.335215 2.334049 39.978031 254 130 106
-0.336687 2.430858 40.153622 254 129 104
-0.338178 2.528562 40.331406 254 126 101
-0.339686 2.627167 40.511265 253 124 100
-0.341211 2.726681 40.693119 253 124 100
-0.342752 2.827116 40.876953 253 126 104
-0.344310 2.928487 41.062801 247 123 102
-0.345886 3.030814 41.250759 231 106 87
-0.347482 3.134125 41.441006 223 97 79
-0.349098 3.238453 41.633781 235 112 94
-0.350738 3.343840 41.829418 249 131 113
-0.352406 3.450337 42.028290 250 135 116
-0.354104 3.558001 42.230839 244 127 108
-0.355838 3.666897 42.437550 235 118 100
-0.357610 3.777100 42.648945 224 108 93
-0.359426 3.888687 42.865547 220 112 100
-0.361291 4.001740 43.087883 232 152 140
-0.363207 4.116341 43.316433 242 183 172
-0.365179 4.232575 43.551632 230 153 143
-0.367210 4.350517 43.793823 217 115 103
-0.369301 4.470235 44.043228 228 118 104
-0.371454 4.591786 44.299938 243 136 117
-0.373667 4.715210 44.563885 246 141 119
-0.375939 4.840528 44.834839 240 137 112
-0.378266 4.967737 45.112362 239 141 114
-0.380643 5.096813 45.395855 245 157 130
-0.383063 5.227706 45.684547 249 172 146
-0.385520 5.360341 45.977497 239 165 141
-0.388003 5.494618 46.273643 215 137 116
-0.390503 5.630419 46.571835 208 132 114
-0.393011 5.767611 46.870880 230 166 152
-0.395516 5.906049 47.169586 247 189 176
-0.398008 6.045588 47.466827 241 174 162
-0.400479 6.186085 47.761559 233 156 144
-0.402922 6.327408 48.052917 235 155 141
-0.405331 6.469440 48.340191 241 162 147
-0.407701 6.612089 48.622894 240 161 145
-0.410031 6.755285 48.900738 229 148 132
-0.412320 6.898990 49.173664 220 138 120
-0.414568 7.043187 49.441784 221 136 119
-0.416778 7.187887 49.705391 228 142 124
-0.418954 7.333122 49.964901 229 144 124
-0.421100 7.478943 50.220833 218 133 111
-0.423221 7.625412 50.473751 205 121 97
-0.425321 7.772600 50.724243 202 119 94
-0.427406 7.920581 50.972885 209 126 100
-0.429480 8.069427 51.220219 213 130 103
-0.431547 8.219208 51.466724 207 124 96
-0.433610 8.369987 51.712833 197 115 86
-0.435674 8.521821 51.958908 188 107 79
-0.437739 8.674763 52.205265 179 102 75
-0.439810 8.828856 52.452156 169 97 73
-0.441886 8.984144 52.699802 159 94 72
-0.443970 9.140658 52.948372 145 87 69
-0.446064 9.298434 53.198025 123 74 59
-0.448167 9.457495 53.448856 99 56 45
-0.450281 9.617860 53.700935 79 44 36
-0.452405 9.779540 53.954273 69 40 35
-0.454539 9.942535 54.208828 67 42 40
-0.456683 10.106829 54.464462 64 45 44
-0.458834 10.272388 54.720970 59 45 45
-0.460989 10.439162 54.978054 55 44 46
-0.463146 10.607076 55.235291 58 51 54
-0.465300 10.776026 55.492165 71 66 68
-0.467446 10.945890 55.748051 76 72 71
-0.469577 11.116521 56.002235 60 54 50
-0.471688 11.287753 56.253960 53 46 37
-0.473771 11.459399 56.502373 98 90 78
-0.475819 11.631267 56.746643 158 149 128
-0.477825 11.803156 56.985931 166 149 120
-0.479783 11.974869 57.219448 158 137 109
-0.481687 12.146210 57.446449 169 152 127
-0.483530 12.317005 57.666306 147 129 105
-0.485309 12.487091 57.878483 102 79 59
-0.487021 12.656334 58.082596 79 57 43
-0.488663 12.824628 58.278397 78 57 49
-0.490234 12.991897 58.465786 79 58 55
-0.491735 13.158093 58.644794 76 55 56
-0.493167 13.323201 58.815590 71 52 54
-0.494532 13.487231 58.978455 65 47 49
-0.495835 13.650221 59.133762 58 43 44
-0.497077 13.812222 59.281963 53 38 38
-0.201663 -6.414447 32.373207 211 118 121
-0.201424 -6.337147 32.334866 205 112 114
-0.201208 -6.260723 32.300190 198 103 105
-0.201013 -6.185093 32.268883 191 96 99
-0.200837 -6.110185 32.240665 191 97 98
-0.200679 -6.035932 32.215294 196 102 101
-0.200537 -5.962278 32.192574 199 104 103
-0.200411 -5.889176 32.172329 199 105 103
-0.200300 -5.816587 32.154442 197 105 101
-0.200203 -5.744483 32.138832 192 101 96
-0.200120 -5.672848 32.125496 185 96 89
-0.200051 -5.601667 32.114437 180 92 86
-0.199996 -5.530934 32.105701 178 92 84
-0.199957 -5.460649 32.099373 177 92 83
-0.199933 -5.390812 32.095554 177 92 82
-0.199926 -5.321428 32.094368 176 91 79
-0.199935 -5.252501 32.095940 173 87 75
-0.199963 -5.184031 32.100391 173 86 73
-0.200010 -5.116023 32.107853 178 89 76
-0.200076 -5.048472 32.118431 185 94 80
-0.200161 -4.981372 32.132217 192 98 85
-0.200268 -4.914715 32.149281 200 102 89
-0.200395 -4.848485 32.169674 206 104 92
-0.200543 -4.782665 32.193409 210 104 92
-0.200711 -4.717228 32.220474 212 103 91
-0.200900 -4.652148 32.250809 215 103 91
-0.201109 -4.587391 32.284344 219 105 94
-0.201337 -4.522920 32.320953 223 108 97
-0.201583 -4.458693 32.360477 225 109 99
-0.201847 -4.394665 32.402733 227 110 101
-0.202125 -4.330790 32.447495 228 111 101
-0.202418 -4.267019 32.494514 227 111 100
-0.202724 -4.203302 32.543526 228 114 101
-0.203039 -4.139590 32.594238 228 116 101
-0.203364 -4.075834 32.646355 229 121 104
-0.203696 -4.011990 32.699581 238 132 116
-0.204032 -3.948014 32.753613 248 144 129
-0.204372 -3.883867 32.808170 251 156 140
-0.204714 -3.819514 32.862984 252 172 158
-0.205055 -3.754927 32.917820 250 179 167
-0.205396 -3.690083 32.972458 240 157 147
-0.205734 -3.624962 33.026730 226 128 119
-0.206068 -3.559551 33.080482 225 123 115
-0.206399 -3.493843 33.133606 237 135 129
-0.206726 -3.427831 33.186016 246 143 140
-0.207048 -3.361518 33.237671 248 145 145
-0.207365 -3.294905 33.288559 250 152 153
-0.207677 -3.227999 33.338676 251 154 156
-0.207984 -3.160807 33.388062 248 142 145
-0.208288 -3.093340 33.436768 245 132 133
-0.208587 -3.025608 33.484871 244 126 126
-0.208884 -2.957623 33.532452 241 118 117
-0.209178 -2.889397 33.579628 238 111 110
-0.209470 -2.820944 33.626514 238 108 105
-0.209761 -2.752277 33.673248 238 107 101
-0.210052 -2.683407 33.719982 239 105 97
-0.210344 -2.614349 33.766872 239 104 94
-0.210638 -2.545113 33.814095 239 103 92
-0.210936 -2.475712 33.861832 240 102 90
-0.211237 -2.406154 33.910267 240 101 87
-0.211545 -2.336447 33.959579 240 99 84
-0.211858 -2.266599 34.009956 239 97 81
-0.212180 -2.196614 34.061573 239 97 80
-0.212510 -2.126493 34.114586 241 98 81
-0.212850 -2.056237 34.169140 243 100 84
-0.213200 -1.985842 34.225368 244 103 86
-0.213562 -1.915304 34.283371 244 105 88
-0.213934 -1.844616 34.343231 244 107 90
-0.214319 -1.773768 34.405010 244 110 92
-0.214716 -1.702751 34.468742 243 114 96
-0.215126 -1.631552 34.534439 243 117 98
-0.215547 -1.560158 34.602097 243 118 100
-0.215980 -1.488555 34.671680 243 120 101
-0.216426 -1.416729 34.743145 247 129 112
-0.216882 -1.344664 34.816429 253 149 134
-0.217349 -1.272348 34.891449 254 162 148
-0.217827 -1.199764 34.968121 254 154 139
-0.218314 -1.126899 35.046333 253 137 120
-0.218810 -1.053741 35.125984 253 130 111
-0.219315 -0.980276 35.206959 253 138 117
-0.219827 -0.906492 35.289131 254 151 128
-0.220345 -0.832380 35.372398 254 157 134
-0.220870 -0.757930 35.456661 254 154 133
-0.221401 -0.683135 35.541824 254 151 135
-0.221937 -0.607986 35.627823 254 165 153
-0.222477 -0.532478 35.714607 254 192 185
-0.223023 -0.456606 35.802174 254 198 194
-0.223573 -0.380365 35.890526 249 162 162
-0.224129 -0.303750 35.979717 241 123 123
-0.224690 -0.226757 36.069832 245 122 120
-0.225258 -0.149379 36.160988 253 144 137
-0.225833 -0.071610 36.253330 254 160 144
-0.226417 0.006556 36.347023 254 154 129
-0.227010 0.085131 36.442265 253 134 101
-0.227614 0.164124 36.539257 253 145 107
-0.228231 0.243548 36.638199 254 177 135
-0.228860 0.323417 36.739304 254 177 137
-0.229505 0.403749 36.842773 254 170 133
-0.230165 0.484560 36.948795 254 170 137
-0.230843 0.565870 37.057549 254 161 134
-0.231538 0.647699 37.169186 254 149 128
-0.232252 0.730068 37.283848 254 143 129
-0.232986 0.813000 37.401657 254 143 135
-0.233740 0.896518 37.522720 254 139 136
-0.234515 0.980645 37.647118 253 127 129
-0.235312 1.065404 37.774929 252 121 126
-0.236129 1.150820 37.906216 252 130 136
-0.236969 1.236916 38.041012 250 132 136
-0.237831 1.323716 38.179348 245 117 117
-0.238715 1.411243 38.321243 243 111 107
-0.239621 1.499521 38.466686 247 118 108
-0.240549 1.588570 38.615646 250 124 110
-0.241498 1.678411 38.768082 253 130 114
-0.242469 1.769065 38.923920 254 134 117
-0.243460 1.860548 39.083073 254 134 116
-0.244472 1.952876 39.245411 254 135 116
-0.245502 2.046062 39.410789 254 133 113
-0.246550 2.140117 39.579060 254 131 109
-0.247615 2.235051 39.750050 254 129 105
-0.248696 2.330870 39.923584 254 127 101
-0.249792 2.427581 40.099495 254 126 99
-0.250902 2.525191 40.277641 254 124 96
-0.252025 2.623706 40.457897 253 122 95
-0.253160 2.723134 40.640182 252 121 95
-0.254308 2.823486 40.824471 250 121 97
-0.255469 2.924777 41.010788 244 116 95
-0.256642 3.027027 41.199215 233 105 85
-0.257830 3.130261 41.389923 230 103 84
-0.259034 3.234514 41.583145 241 116 98
-0.260255 3.339824 41.779186 251 131 113
-0.261496 3.446243 41.978420 252 136 118
-0.262760 3.553824 42.181271 241 124 109
-0.264049 3.662634 42.388214 225 107 95
-0.265367 3.772745 42.599766 214 96 89
-0.266717 3.884233 42.816452 212 99 96
-0.268102 3.997180 43.038795 223 128 128
-0.269525 4.111670 43.267281 238 168 169
-0.270989 4.227786 43.502354 232 160 159
-0.272497 4.345604 43.744373 215 119 115
-0.274049 4.465196 43.993572 222 113 103
-0.275647 4.586618 44.250080 242 134 118
-0.277290 4.709916 44.513847 249 145 123
-0.278977 4.835111 44.784664 241 141 114
-0.280706 4.962206 45.062138 233 136 107
-0.282472 5.091182 45.345695 237 155 126
-0.284272 5.221991 45.634598 247 187 161
-0.286099 5.354564 45.927948 239 182 160
-0.287948 5.488808 46.224709 209 138 120
-0.289811 5.624607 46.523762 201 125 112
-0.291681 5.761836 46.823952 228 165 155
-0.293550 5.900353 47.124096 247 193 186
-0.295413 6.040018 47.423088 241 176 170
-0.297262 6.180692 47.719917 230 153 144
-0.299092 6.322245 48.013710 232 152 140
-0.300899 6.464566 48.303776 244 165 150
-0.302679 6.607562 48.589603 245 167 150
-0.304432 6.751166 48.870914 233 153 134
-0.306156 6.895338 49.147629 224 140 120
-0.307851 7.040059 49.419827 222 136 116
-0.309520 7.185339 49.687775 224 138 117
-0.311165 7.331207 49.951851 228 141 118
-0.312789 7.477707 50.212532 222 135 111
-0.314395 7.624896 50.470333 209 124 98
-0.315986 7.772836 50.725780 203 119 92
-0.317566 7.921593 50.979397 208 124 96
-0.319138 8.071230 51.231663 213 129 99
-0.320703 8.221806 51.482998 207 124 94
-0.322265 8.373374 51.733765 198 115 85
-0.323826 8.525981 51.984272 190 109 79
-0.325386 8.679666 52.234772 182 103 75
-0.326948 8.834466 52.485477 172 98 72
-0.328512 8.990408 52.736546 163 96 71
-0.330079 9.147520 52.988117 152 93 71
-0.331650 9.305826 53.240314 135 82 65
-0.333226 9.465342 53.493206 110 65 51
-0.334805 9.626081 53.746838 85 49 38
-0.336390 9.788050 54.001225 71 41 34
-0.337979 9.951242 54.256306 67 42 39
-0.339572 10.115643 54.511963 65 45 45
-0.341167 10.281215 54.767990 59 45 46
-0.342762 10.447911 55.024128 53 44 47
-0.344356 10.615656 55.279972 62 56 61
-0.345945 10.784354 55.535049 86 82 86
-0.347525 10.953886 55.788773 90 86 88
-0.349093 11.124115 56.040489 67 60 59
-0.350644 11.294884 56.289494 83 74 68
-0.352174 11.466018 56.535004 158 151 143
-0.353677 11.637336 56.776253 212 204 190
-0.355148 11.808655 57.012482 189 171 151
-0.356584 11.979793 57.242977 143 120 98
-0.357980 12.150571 57.467072 129 109 85
-0.359333 12.320830 57.684216 113 91 68
-0.360639 12.490421 57.893921 87 63 44
-0.361897 12.659229 58.095886 78 55 42
-0.363106 12.827159 58.289902 79 59 51
-0.364264 12.994143 58.475895 78 59 56
-0.365373 13.160144 58.653934 73 54 55
-0.366434 13.325150 58.824192 67 49 51
-0.131686 -6.405160 32.326336 205 110 114
-0.131533 -6.328135 32.288883 197 102 105
-0.131396 -6.251978 32.255077 193 98 99
-0.131272 -6.176608 32.224613 193 99 100
-0.131160 -6.101950 32.197212 195 100 100
-0.131060 -6.027938 32.172634 196 100 100
-0.130970 -5.954517 32.150669 195 101 98
-0.130891 -5.881639 32.131153 194 100 96
-0.130821 -5.809263 32.113953 191 98 93
-0.130760 -5.737364 32.098999 186 94 88
-0.130708 -5.665922 32.086277 179 89 83
-0.130665 -5.594925 32.075787 174 85 79
-0.130632 -5.524367 32.067577 172 84 77
-0.130608 -5.454246 32.061733 172 85 76
-0.130594 -5.384565 32.058361 173 87 75
-0.130591 -5.315326 32.057568 175 89 75
-0.130599 -5.246534 32.059483 176 89 74
-0.130618 -5.178193 32.064236 178 90 74
-0.130650 -5.110302 32.071949 183 94 77
-0.130694 -5.042860 32.082726 189 98 81
-0.130750 -4.975860 32.096661 195 101 84
-0.130820 -4.909294 32.113819 203 104 88
-0.130903 -4.843147 32.134254 209 106 91
-0.131000 -4.777400 32.157974 212 106 92
-0.131110 -4.712029 32.184963 215 105 91
-0.131233 -4.647007 32.215168 218 106 93
-0.131369 -4.582300 32.248512 223 108 96
-0.131517 -4.517871 32.284870 226 110 99
-0.131677 -4.453679 32.324085 229 111 101
-0.131847 -4.389679 32.365971 228 110 100
-0.132028 -4.325827 32.410309 224 108 96
-0.132218 -4.262073 32.456848 222 106 94
-0.132415 -4.198368 32.505325 226 111 97
-0.132619 -4.134665 32.555458 229 117 101
-0.132829 -4.070915 32.606949 232 122 105
-0.133043 -4.007073 32.659504 238 131 113
-0.133260 -3.943098 32.712830 243 139 123
-0.133480 -3.878952 32.766655 248 150 135
-0.133700 -3.814600 32.820705 252 168 155
-0.133920 -3.750016 32.874760 253 177 166
-0.134139 -3.685174 32.928600 246 159 151
-0.134357 -3.620059 32.982063 237 136 129
-0.134573 -3.554658 33.035007 236 131 124
-0.134786 -3.488961 33.087315 244 138 133
-0.134996 -3.422967 33.138920 249 144 142
-0.135203 -3.356674 33.189781 250 152 151
-0.135407 -3.290087 33.239876 251 166 166
-0.135608 -3.223211 33.289227 247 159 161
-0.135807 -3.156054 33.337856 237 131 131
-0.136002 -3.088627 33.385826 234 116 115
-0.136195 -3.020940 33.433208 238 116 115
-0.136386 -2.953004 33.480091 239 114 112
-0.136575 -2.884833 33.526585 240 112 109
-0.136764 -2.816438 33.572800 241 111 107
-0.136951 -2.747832 33.618874 242 109 104
-0.137139 -2.679029 33.664959 243 109 101
-0.137327 -2.610039 33.711208 243 106 98
-0.137517 -2.540875 33.757790 242 104 94
-0.137709 -2.471548 33.804886 242 103 90
-0.137904 -2.402067 33.852676 242 102 87
-0.138102 -2.332441 33.901344 241 100 84
-0.138305 -2.262675 33.951069 239 98 81
-0.138512 -2.192774 34.002026 239 97 79
-0.138725 -2.122740 34.054379 241 100 81
-0.138945 -2.052574 34.108276 244 103 85
-0.139171 -1.982272 34.163845 245 105 88
-0.139405 -1.911831 34.221203 245 107 91
-0.139646 -1.841243 34.280434 245 110 94
-0.139895 -1.770500 34.341606 244 113 97
-0.140153 -1.699591 34.404762 244 117 101
-0.140418 -1.628504 34.469929 244 121 104
-0.140692 -1.557227 34.537102 244 123 107
-0.140974 -1.485746 34.606258 245 126 111
-0.141263 -1.414046 34.677364 250 137 124
-0.141561 -1.342113 34.750359 253 156 145
-0.141865 -1.269931 34.825169 254 169 159
-0.142177 -1.197486 34.901711 254 162 151
-0.142496 -1.124763 34.979885 254 145 132
-0.142820 -1.051749 35.059578 254 135 120
-0.143151 -0.978430 35.140675 254 136 118
-0.143486 -0.904795 35.223053 254 141 123
-0.143826 -0.830832 35.306599 254 145 127
-0.144171 -0.756531 35.391209 254 143 127
-0.144520 -0.681884 35.476784 253 142 129
-0.144872 -0.606884 35.563244 253 157 146
-0.145228 -0.531523 35.650539 253 181 174
-0.145586 -0.455796 35.738644 253 182 177
-0.145949 -0.379698 35.827568 247 150 147
-0.146314 -0.303224 35.917339 240 118 115
-0.146684 -0.226368 36.008049 243 124 117
