ply
format ascii 1.0
element vertex 1244
property float x
property float y
property float z
property uchar red
property uchar green
property uchar blue
end_header
16.543562 -5.617640 54.386311 20 17 17
16.513685 -5.490468 54.288090 21 17 17
16.483812 -5.363721 54.189884 21 17 16
16.453922 -5.237391 54.091621 21 17 16
16.424004 -5.111477 53.993263 22 18 16
16.394053 -4.985976 53.894802 22 18 16
16.364075 -4.860893 53.796249 22 18 16
16.334087 -4.736231 53.697670 22 18 16
16.304113 -4.611998 53.599129 22 18 16
16.274185 -4.488203 53.500744 21 17 16
16.244343 -4.364854 53.402637 21 17 16
16.214626 -4.241962 53.304943 21 17 16
16.185078 -4.119534 53.207802 22 16 16
16.155741 -3.997576 53.111362 22 17 17
16.126657 -3.876096 53.015747 23 18 18
16.097864 -3.755095 52.921089 25 19 19
16.069389 -3.634575 52.827484 26 20 19
16.041264 -3.514534 52.735023 26 19 18
16.013510 -3.394971 52.643784 25 20 17
15.986139 -3.275881 52.553802 25 20 17
15.959169 -3.157257 52.465137 24 20 16
15.932606 -3.039092 52.377811 23 19 15
15.906458 -2.921381 52.291855 23 18 15
15.880731 -2.804115 52.207275 22 18 14
15.855430 -2.687285 52.124096 23 18 14
15.830559 -2.570884 52.042339 24 18 15
15.806133 -2.454905 51.962040 25 18 15
15.782163 -2.339339 51.883236 25 18 16
15.758661 -2.224180 51.805977 26 17 16
15.735650 -2.109419 51.730328 26 17 16
15.713152 -1.995049 51.656368 26 17 17
15.691196 -1.881063 51.584190 26 18 17
15.669812 -1.767453 51.513889 26 19 17
15.649035 -1.654210 51.445583 27 20 17
15.628901 -1.541325 51.379395 27 20 17
15.609453 -1.428788 51.315460 27 20 18
15.590733 -1.316589 51.253918 26 20 18
15.572783 -1.204714 51.194912 25 20 19
15.555649 -1.093151 51.138580 24 20 19
15.539375 -0.981885 51.085083 24 19 19
15.524003 -0.870900 51.034546 23 18 18
15.509573 -0.760180 50.987110 23 18 18
15.496122 -0.649705 50.942890 26 20 20
15.483684 -0.539456 50.901997 27 20 21
15.472279 -0.429412 50.864506 27 20 20
15.461930 -0.319551 50.830486 28 21 20
15.452651 -0.209852 50.799980 28 22 21
15.444439 -0.100291 50.772984 29 22 21
15.437290 0.009154 50.749481 28 21 20
15.431183 0.118506 50.729404 28 22 20
15.426090 0.227787 50.712662 30 24 22
15.421974 0.337016 50.699131 33 27 25
15.418785 0.446214 50.688648 34 28 27
15.416471 0.555398 50.681038 33 28 27
15.414970 0.664585 50.676105 32 27 27
15.414216 0.773787 50.673626 32 27 27
15.414139 0.883018 50.673370 31 25 26
15.414675 0.992288 50.675137 31 24 25
15.415757 1.101604 50.678692 30 24 24
15.417330 1.210973 50.683865 30 24 23
15.419336 1.320402 50.690460 30 24 22
15.421731 1.429896 50.698334 30 24 21
15.424479 1.539459 50.707363 30 23 21
15.427546 1.649094 50.717445 31 23 22
15.430908 1.758807 50.728500 31 23 22
15.434547 1.868602 50.740467 32 23 22
15.438448 1.978481 50.753288 32 24 23
15.442595 2.088449 50.766922 32 24 24
15.446972 2.198508 50.781311 31 24 24
15.451561 2.308661 50.796398 31 23 24
15.456343 2.418909 50.812115 30 23 23
15.461289 2.529252 50.828377 29 23 22
15.466369 2.639688 50.845078 30 24 23
15.471550 2.750214 50.862110 30 24 24
15.476798 2.860826 50.879364 30 24 24
15.482071 2.971516 50.896698 29 23 23
15.487331 3.082279 50.913990 28 23 23
15.492546 3.193108 50.931133 28 23 22
15.497682 3.303993 50.948017 29 23 22
15.502716 3.414928 50.964565 30 23 22
15.507626 3.525907 50.980709 31 24 23
15.512401 3.636924 50.996407 31 24 24
15.517038 3.747975 51.011650 32 25 25
15.521545 3.859060 51.026470 32 26 26
15.525935 3.970178 51.040897 32 26 26
15.530231 4.081334 51.055019 31 25 25
15.534467 4.192534 51.068947 30 24 23
15.538682 4.303790 51.082806 30 24 22
15.542926 4.415112 51.096756 29 23 21
15.547260 4.526522 51.111004 28 23 21
15.551749 4.638039 51.125763 27 22 21
15.556468 4.749689 51.141273 27 22 21
15.561501 4.861505 51.157818 26 21 21
15.566933 4.973519 51.175678 27 22 22
15.572862 5.085773 51.195168 26 21 22
15.579381 5.198308 51.216602 24 19 20
15.586588 5.311169 51.240292 24 19 19
15.594575 5.424404 51.266548 24 19 19
15.603429 5.538060 51.295654 25 20 20
15.613232 5.652185 51.327881 26 21 22
15.624052 5.766824 51.363453 27 22 23
15.635941 5.882020 51.402538 27 23 23
15.648939 5.997808 51.445267 27 24 24
15.663071 6.114223 51.491726 26 24 23
15.678341 6.231291 51.541927 26 23 23
15.694743 6.349033 51.595852 26 23 23
15.712255 6.467464 51.653416 27 23 23
15.730835 6.586591 51.714500 28 22 23
15.750440 6.706418 51.778950 29 22 23
15.771012 6.826941 51.846581 30 22 23
15.792490 6.948154 51.917187 31 23 23
15.814810 7.070049 51.990562 32 22 22
15.837901 7.192609 52.066475 32 22 22
15.861696 7.315822 52.144699 32 23 22
15.886120 7.439666 52.224995 32 23 22
15.911100 7.564122 52.307114 31 23 22
15.936561 7.689162 52.390816 30 22 22
15.962420 7.814759 52.475826 29 22 22
15.988587 7.940876 52.561852 28 21 22
16.014967 8.067471 52.648575 28 21 22
16.041456 8.194494 52.735653 27 21 22
16.067934 8.321888 52.822701 27 21 21
16.094280 8.449588 52.909313 27 21 21
16.120358 8.577518 52.995041 26 22 21
16.146025 8.705596 53.079418 25 21 20
16.171135 8.833735 53.161968 24 20 19
16.195545 8.961842 53.242214 22 19 18
17.019701 -7.175822 55.557877 15 11 11
16.988310 -7.043044 55.455406 16 12 11
16.957115 -6.910787 55.353573 17 12 11
16.926111 -6.779046 55.252369 17 13 12
16.895302 -6.647818 55.151798 17 14 13
16.864685 -6.517098 55.051853 18 14 13
16.834257 -6.386880 54.952526 18 13 14
16.804008 -6.257158 54.853783 18 14 15
16.773920 -6.127920 54.755569 18 15 15
16.743971 -5.999155 54.657803 19 15 16
16.714136 -5.870851 54.560410 19 16 16
16.684385 -5.742997 54.463299 19 16 16
16.654684 -5.615578 54.366341 19 16 15
16.625006 -5.488584 54.269463 19 16 15
16.595322 -5.362006 54.172562 19 17 14
16.565609 -5.235837 54.075573 20 17 14
16.535856 -5.110074 53.978447 21 17 14
16.506054 -4.984715 53.881165 21 17 15
16.476215 -4.859764 53.783760 22 17 16
16.446350 -4.735226 53.686272 22 17 16
16.416483 -4.611107 53.588776 22 17 16
16.386650 -4.487418 53.491390 22 17 15
16.356884 -4.364167 53.394226 22 17 16
16.327230 -4.241364 53.297424 22 16 16
16.297731 -4.119017 53.201134 21 16 17
16.268431 -3.997134 53.105484 22 16 17
16.239370 -3.875721 53.010624 23 17 18
16.210590 -3.754782 52.916676 24 18 19
16.182119 -3.634317 52.823738 25 19 19
16.153988 -3.514327 52.731903 25 20 18
16.126213 -3.394808 52.641239 25 20 17
16.098822 -3.275757 52.551823 25 20 17
16.071817 -3.157168 52.463673 24 20 16
16.045214 -3.039036 52.376831 23 20 15
16.019020 -2.921352 52.291325 23 19 15
15.993237 -2.804109 52.207161 22 18 14
15.967876 -2.687300 52.124378 23 18 14
15.942939 -2.570916 52.042973 24 19 15
15.918440 -2.454950 51.962997 25 19 16
15.894390 -2.339396 51.884495 26 18 16
15.870803 -2.224245 51.807495 26 18 17
15.847699 -2.109490 51.732079 26 17 17
15.825101 -1.995124 51.658310 26 18 17
15.803041 -1.881140 51.586296 26 18 18
15.781544 -1.767530 51.516125 27 19 18
15.760648 -1.654285 51.447914 27 19 18
15.740394 -1.541397 51.381798 27 20 18
15.720820 -1.428856 51.317902 26 21 17
15.701972 -1.316652 51.256374 25 20 17
15.683893 -1.204772 51.197361 24 20 17
15.666631 -1.093203 51.141010 22 19 18
15.650229 -0.981931 51.087471 22 18 18
15.634735 -0.870940 51.036892 23 18 19
15.620188 -0.760214 50.989407 23 18 19
15.606627 -0.649734 50.945141 25 20 20
15.594088 -0.539479 50.904209 26 20 19
15.582595 -0.429430 50.866692 26 20 19
15.572171 -0.319565 50.832664 26 20 18
15.562828 -0.209861 50.802166 26 21 18
15.554570 -0.100295 50.775211 26 21 18
15.547388 0.009155 50.751762 26 21 18
15.541264 0.118512 50.731770 27 22 19
15.536169 0.227798 50.715141 29 23 21
15.532063 0.337033 50.701736 31 25 23
15.528897 0.446238 50.691406 32 26 26
15.526614 0.555430 50.683952 32 27 27
15.525152 0.664625 50.679180 32 27 27
15.524439 0.773837 50.676849 32 27 27
15.524404 0.883077 50.676735 31 25 26
15.524976 0.992356 50.678604 30 25 25
15.526089 1.101681 50.682236 29 24 24
15.527678 1.211058 50.687424 29 24 23
15.529686 1.320494 50.693977 29 24 22
15.532065 1.429992 50.701744 29 24 21
15.534775 1.539557 50.710590 30 23 21
15.537779 1.649190 50.720398 30 23 22
15.541054 1.758897 50.731087 30 23 22
15.544581 1.868680 50.742603 30 22 22
15.548347 1.978543 50.754894 30 22 22
15.552332 2.088489 50.767902 31 23 23
15.556525 2.198520 50.781593 30 23 24
15.560913 2.308639 50.795914 29 23 23
15.565476 2.418847 50.810810 29 23 22
15.570192 2.529144 50.826206 29 23 22
15.575038 2.639529 50.842022 28 23 22
15.579980 2.750000 50.858154 28 23 23
15.584991 2.860553 50.874512 29 24 23
15.590034 2.971182 50.890972 28 24 23
15.595076 3.081882 50.907433 27 23 21
15.600087 3.192647 50.923794 27 22 21
15.605039 3.303470 50.939957 27 22 21
15.609909 3.414345 50.955853 28 22 21
15.614677 3.525265 50.971416 29 23 21
15.619335 3.636226 50.986622 29 24 23
15.623879 3.747226 51.001457 30 24 24
15.628315 3.858263 51.015938 30 25 25
15.632655 3.969338 51.030106 30 24 24
15.636920 4.080455 51.044025 30 24 23
15.641142 4.191620 51.057808 29 23 21
15.645359 4.302844 51.071575 28 23 19
15.649614 4.414137 51.085464 27 22 19
15.653968 4.525518 51.099674 26 22 19
15.658482 4.637009 51.114410 25 21 19
15.663230 4.748634 51.129910 25 21 19
15.668291 4.860423 51.146431 25 20 20
15.673756 4.972411 51.164272 26 21 21
15.679715 5.084636 51.183723 25 20 21
15.686262 5.197140 51.205097 24 19 20
15.693499 5.309969 51.228718 23 18 18
15.701515 5.423170 51.254887 24 19 19
15.710400 5.536789 51.283886 24 19 20
15.720236 5.650877 51.315998 25 21 21
15.731088 5.765473 51.351421 26 22 22
15.743016 5.880625 51.390358 26 23 22
15.756055 5.996368 51.432922 25 23 22
15.770230 6.112734 51.479195 25 23 21
15.785548 6.229752 51.529194 24 22 21
15.801996 6.347438 51.582890 24 22 21
15.819555 6.465810 51.640205 25 22 22
15.838181 6.584873 51.701012 27 22 22
15.857828 6.704629 51.765141 28 22 23
15.878440 6.825078 51.832424 29 22 23
15.899952 6.946208 51.902645 30 22 23
15.922296 7.068012 51.975586 31 22 23
15.945408 7.190476 52.051029 32 22 22
15.969216 7.313584 52.128750 33 22 23
15.993649 7.437318 52.208508 32 22 23
16.018635 7.561656 52.290066 31 22 23
16.044098 7.686575 52.373188 30 22 22
16.069962 7.812047 52.457615 28 21 21
16.096138 7.938037 52.543064 27 20 21
16.122534 8.064506 52.629230 26 20 21
16.149048 8.191406 52.715782 26 20 21
16.175568 8.318682 52.802349 26 20 20
16.201971 8.446270 52.888535 25 21 20
16.228121 8.574097 52.973900 25 21 20
16.253876 8.702079 53.057972 24 21 19
16.279095 8.830132 53.140293 23 20 19
17.097059 -7.038599 55.420418 16 12 10
17.066023 -6.906572 55.319813 17 12 11
17.035187 -6.775057 55.219852 17 13 11
17.004551 -6.644052 55.120548 17 13 12
16.974117 -6.513551 55.021896 18 13 13
16.943872 -6.383548 54.923859 18 13 14
16.913815 -6.254037 54.826424 18 14 15
16.883919 -6.125004 54.729515 19 14 15
16.854162 -5.996439 54.633064 18 15 15
16.824518 -5.868329 54.536972 19 15 15
16.794956 -5.740661 54.441147 18 15 15
16.765442 -5.613422 54.345470 18 15 14
16.735939 -5.486600 54.249840 18 16 14
16.706425 -5.360186 54.154167 19 16 13
16.676872 -5.234172 54.058372 20 16 13
16.647268 -5.108556 53.962410 20 16 13
16.617605 -4.983336 53.866261 21 16 14
16.587893 -4.858515 53.769943 21 17 14
16.558140 -4.734099 53.673500 22 17 15
16.528374 -4.610095 53.577015 22 17 15
16.498627 -4.486512 53.480587 22 17 16
16.468935 -4.363359 53.384338 22 17 16
16.439342 -4.240647 53.288418 22 17 16
16.409895 -4.118384 53.192959 22 17 17
16.380634 -3.996579 53.098110 22 17 17
16.351603 -3.875237 53.004002 23 17 18
16.322840 -3.754363 52.910770 24 18 18
16.294376 -3.633957 52.818504 24 19 18
16.266245 -3.514021 52.727318 24 20 18
16.238468 -3.394552 52.637276 24 20 17
16.211058 -3.275545 52.548428 23 20 16
16.184034 -3.156997 52.460827 23 20 16
16.157402 -3.038900 52.374500 23 20 15
16.131174 -2.921249 52.289482 23 19 15
16.105350 -2.804034 52.205772 22 19 15
16.079939 -2.687250 52.123405 23 19 15
16.054949 -2.570888 52.042400 24 19 16
16.030390 -2.454940 51.962788 26 19 16
16.006269 -2.339401 51.884605 26 18 16
15.982608 -2.224262 51.807903 26 18 17
15.959421 -2.109517 51.732742 26 17 17
15.936735 -1.995159 51.659203 26 18 18
15.914577 -1.881180 51.587379 26 18 18
15.892979 -1.767572 51.517368 27 19 19
15.871977 -1.654329 51.449291 27 20 19
15.851609 -1.541441 51.383266 26 21 18
15.831920 -1.428899 51.319447 25 21 18
15.812953 -1.316693 51.257965 24 20 18
15.794756 -1.204810 51.198978 23 20 18
15.777376 -1.093238 51.142639 22 19 18
15.760859 -0.981962 51.089104 22 18 18
15.745254 -0.870968 51.038517 23 19 19
15.730602 -0.760238 50.991020 24 19 20
15.716946 -0.649754 50.946754 25 20 20
15.704318 -0.539496 50.905823 25 20 19
15.692750 -0.429444 50.868324 25 20 18
15.682262 -0.319575 50.834328 25 20 17
15.672871 -0.209868 50.803883 25 19 17
15.664577 -0.100299 50.777000 24 19 17
15.657374 0.009155 50.753654 25 20 17
15.651244 0.118517 50.733780 26 21 18
15.646157 0.227807 50.717293 27 22 20
15.642074 0.337049 50.704056 30 23 22
15.638939 0.446260 50.693893 31 25 25
15.636697 0.555459 50.686626 32 26 26
15.635281 0.664663 50.682037 32 26 26
15.634616 0.773883 50.679882 31 26 26
15.634629 0.883133 50.679924 31 25 26
15.635245 0.992420 50.681919 30 25 26
15.636394 1.101755 50.685642 29 24 24
15.638005 1.211141 50.690868 29 24 23
15.640023 1.320583 50.697407 29 24 22
15.642390 1.430086 50.705082 29 24 21
15.645068 1.539653 50.713760 30 23 21
15.648019 1.649286 50.723328 30 23 21
15.651217 1.758987 50.733692 30 23 22
15.654642 1.868761 50.744797 30 22 22
15.658278 1.978609 50.756580 30 22 22
15.662113 2.088535 50.769016 29 22 22
15.666134 2.198540 50.782047 29 21 22
15.670332 2.308627 50.795654 28 21 21
15.674689 2.418798 50.809780 27 21 20
15.679189 2.529052 50.824364 27 21 19
15.683808 2.639390 50.839336 27 22 20
15.688523 2.749809 50.854622 27 23 22
15.693308 2.860307 50.870132 28 25 23
15.698132 2.970878 50.885765 27 24 23
15.702964 3.081519 50.901432 26 22 21
15.707779 3.192224 50.917038 26 21 20
15.712550 3.302987 50.932507 26 21 19
15.717258 3.413803 50.947765 26 21 20
15.721886 3.524666 50.962765 27 22 20
15.726424 3.635574 50.977482 27 23 21
15.730871 3.746524 50.991894 28 23 22
15.735228 3.857513 51.006016 28 23 22
15.739509 3.968544 51.019890 28 23 22
15.743732 4.079620 51.033585 28 22 21
15.747929 4.190748 51.047188 28 22 19
15.752130 4.301936 51.060802 26 21 18
15.756380 4.413197 51.074581 25 20 17
15.760735 4.524546 51.088696 24 20 17
15.765254 4.636005 51.103348 24 20 18
15.770009 4.747598 51.118759 24 20 18
15.775081 4.859355 51.135201 24 19 19
15.780553 4.971310 51.152939 24 19 19
15.786521 5.083500 51.172287 24 19 20
15.793079 5.195968 51.193542 24 19 19
15.800326 5.308758 51.217033 24 18 19
15.808353 5.421918 51.243053 24 19 19
15.817253 5.535496 51.271904 24 19 20
15.827106 5.649538 51.303841 25 21 21
15.837980 5.764089 51.339092 25 22 22
15.849935 5.879193 51.377842 25 23 22
15.863006 5.994886 51.420208 25 23 21
15.877216 6.111200 51.466274 24 23 21
15.892575 6.228163 51.516060 23 22 21
15.909068 6.345793 51.569523 23 22 21
15.926671 6.464104 51.626583 24 22 22
15.945341 6.583102 51.687099 26 22 22
15.965031 6.702788 51.750927 27 22 23
15.985680 6.823159 51.817860 28 22 23
16.007225 6.944208 51.887699 29 22 23
16.029594 7.065921 51.960213 30 22 23
16.052727 7.188288 52.035194 32 22 24
16.076546 7.311291 52.112404 32 22 24
16.100985 7.434913 52.191624 32 22 24
16.125971 7.559133 52.272617 31 22 24
16.151436 7.683929 52.355160 29 22 22
16.177299 7.809275 52.438999 28 21 21
16.203482 7.935138 52.523869 26 20 20
16.229891 8.061480 52.609478 25 19 20
16.256432 8.188256 52.695507 25 19 20
16.282993 8.315414 52.781609 25 20 19
16.309454 8.442891 52.867382 24 20 19
16.335684 8.570618 52.952408 23 20 19
16.361540 8.698510 53.036217 23 20 18
17.144186 -6.771093 55.187553 17 12 11
17.113697 -6.640297 55.089405 17 13 11
17.083410 -6.510002 54.991913 17 13 12
17.053326 -6.380202 54.895069 18 14 14
17.023424 -6.250887 54.798817 18 13 14
16.993692 -6.122048 54.703106 18 14 15
16.964100 -5.993672 54.607849 18 14 15
16.934622 -5.865745 54.512959 18 15 14
16.905220 -5.738254 54.418312 18 15 14
16.875862 -5.611185 54.323811 19 15 14
16.846514 -5.484526 54.229332 19 15 13
16.817142 -5.358268 54.134792 19 15 12
16.787731 -5.232404 54.040112 19 15 13
16.758257 -5.106930 53.945232 20 15 13
16.728714 -4.981844 53.850136 20 16 13
16.699110 -4.857151 53.754837 21 16 14
16.669455 -4.732853 53.659378 21 16 14
16.639778 -4.608962 53.563847 22 17 15
16.610107 -4.485484 53.468334 23 17 16
16.580481 -4.362430 53.372971 23 18 17
16.550945 -4.239809 53.277893 23 18 17
16.521544 -4.117632 53.183247 23 18 17
16.492319 -3.995906 53.089172 23 18 18
16.463316 -3.874638 52.995815 23 18 18
16.434574 -3.753832 52.903294 23 18 18
16.406126 -3.633490 52.811718 24 19 18
16.378000 -3.513612 52.721180 24 20 17
16.350224 -3.394196 52.631763 23 20 16
16.322807 -3.275239 52.543510 22 19 15
16.295773 -3.156736 52.456482 22 19 15
16.269121 -3.038679 52.370693 22 19 15
16.242868 -2.921065 52.286186 22 19 16
16.217016 -2.803884 52.202965 23 20 17
16.191570 -2.687128 52.121056 24 20 17
16.166534 -2.570792 52.040466 24 20 17
16.141922 -2.454867 51.961239 26 20 17
16.117748 -2.339348 51.883419 26 19 18
16.094021 -2.224225 51.807041 26 19 18
16.070763 -2.109494 51.732170 26 19 19
16.047997 -1.995146 51.658890 26 19 19
16.025755 -1.881176 51.587292 26 19 19
16.004063 -1.767576 51.517467 27 20 19
15.982965 -1.654338 51.449551 27 21 19
15.962497 -1.541453 51.383663 26 21 19
15.942702 -1.428913 51.319942 25 21 18
15.923629 -1.316708 51.258549 24 20 18
15.905325 -1.204825 51.199627 23 20 18
15.887837 -1.093252 51.143333 22 19 18
15.871219 -0.981976 51.089836 22 18 18
15.855514 -0.870981 51.039280 23 19 19
15.840771 -0.760250 50.991825 24 20 20
15.827029 -0.649765 50.947590 25 20 20
15.814329 -0.539506 50.906708 25 20 20
15.802697 -0.429452 50.869267 25 20 18
15.792161 -0.319582 50.835346 25 20 17
15.782733 -0.209872 50.804996 24 19 17
15.774419 -0.100301 50.778236 24 19 17
15.767208 0.009155 50.755024 24 20 17
15.761086 0.118520 50.735317 25 20 18
15.756018 0.227815 50.719002 27 21 19
15.751964 0.337061 50.705952 29 22 21
15.748873 0.446279 50.696003 31 24 24
15.746678 0.555485 50.688938 31 26 25
15.745317 0.664696 50.684555 32 26 26
15.744708 0.773925 50.682594 31 26 26
15.744777 0.883183 50.682819 30 25 26
15.745443 0.992480 50.684963 30 25 25
15.746633 1.101823 50.688789 29 24 24
15.748274 1.211217 50.694073 29 24 23
15.750306 1.320667 50.700615 29 24 22
15.752672 1.430175 50.708233 29 24 22
15.755326 1.539744 50.716774 29 23 21
15.758231 1.649377 50.726124 29 23 21
15.761360 1.759074 50.736198 29 22 22
15.764693 1.868840 50.746929 29 22 22
15.768215 1.978675 50.758266 29 21 21
15.771912 2.088582 50.770164 28 21 21
15.775776 2.198564 50.782604 27 20 20
15.779798 2.308623 50.795551 26 20 19
15.783964 2.418759 50.808964 26 20 18
15.788262 2.528975 50.822796 26 21 18
15.792672 2.639268 50.836994 26 21 19
15.797174 2.749640 50.851486 27 22 21
15.801747 2.860086 50.866207 27 24 22
15.806362 2.970603 50.881062 26 23 21
15.810996 3.081189 50.895977 25 22 20
15.815623 3.191837 50.910873 25 21 19
15.820223 3.302544 50.925678 25 20 19
15.824776 3.413305 50.940334 25 20 19
15.829265 3.524114 50.954784 26 20 20
15.833685 3.634970 50.969013 26 21 20
15.838030 3.745870 50.982998 27 22 20
15.842305 3.856813 50.996761 27 22 21
15.846519 3.967800 51.010330 27 22 21
15.850694 4.078835 51.023766 27 21 20
15.854850 4.189924 51.037144 26 20 18
15.859023 4.301075 51.050579 25 19 17
15.863252 4.412299 51.064190 24 19 16
15.867591 4.523613 51.078159 23 18 17
15.872099 4.635036 51.092670 23 18 18
15.876843 4.746593 51.107944 24 19 18
15.881907 4.858314 51.124241 24 19 19
15.887368 4.970229 51.141823 24 19 19
15.893327 5.082379 51.161003 25 19 20
15.899876 5.194805 51.182083 25 19 20
15.907115 5.307551 51.205387 25 20 20
15.915138 5.420666 51.231213 25 20 20
15.924037 5.534195 51.259861 25 20 21
15.933893 5.648189 51.291588 26 21 22
15.944778 5.762690 51.326626 26 22 22
15.956748 5.877742 51.365158 26 23 22
15.969841 5.993382 51.407303 26 23 22
15.984082 6.109642 51.453148 25 23 21
15.999476 6.226548 51.502701 24 23 21
16.016008 6.344120 51.555920 23 22 21
16.033653 6.462368 51.612717 24 21 21
16.052368 6.581301 51.672962 25 21 22
16.072098 6.700916 51.736473 26 21 22
16.092785 6.821211 51.803062 27 21 22
16.114363 6.942177 51.872520 28 21 22
16.136759 7.063800 51.944614 30 22 23
16.159906 7.186069 52.019131 31 23 24
16.183739 7.308968 52.095844 32 23 25
16.208179 7.432477 52.174522 32 23 25
16.233166 7.556578 52.254951 31 23 24
16.258625 7.681251 52.336910 30 22 23
16.284487 7.806469 52.420158 28 21 21
16.310671 7.932203 52.504448 26 20 20
16.337097 8.058419 52.589508 25 19 20
16.363661 8.185073 52.675022 24 19 19
16.390265 8.312114 52.760662 23 19 19
16.416788 8.439483 52.846039 23 19 18
16.443104 8.567112 52.930748 22 19 18
17.222815 -6.636584 55.058598 17 13 11
17.192646 -6.506479 54.962154 17 13 12
17.162683 -6.376866 54.866367 17 13 14
17.132910 -6.247736 54.771187 18 13 14
17.103306 -6.119076 54.676548 18 13 14
17.073845 -5.990875 54.582367 18 14 14
17.044497 -5.863118 54.488544 18 15 14
17.015226 -5.735792 54.394970 18 15 14
16.985996 -5.608882 54.301525 19 15 13
16.956768 -5.482377 54.208092 19 15 13
16.927517 -5.356267 54.114578 20 16 13
16.898216 -5.230545 54.020905 20 16 13
16.868847 -5.105205 53.927017 20 16 14
16.839399 -4.980248 53.832882 21 16 14
16.809881 -4.855676 53.738518 21 16 14
16.780308 -4.731495 53.643974 22 16 15
16.750700 -4.607712 53.549320 22 16 15
16.721088 -4.484337 53.454662 23 17 16
16.691517 -4.361380 53.360123 23 18 18
16.662027 -4.238851 53.265850 23 19 18
16.632662 -4.116759 53.171974 23 19 18
16.603468 -3.995114 53.078648 24 19 18
16.574490 -3.873921 52.986008 23 18 18
16.545767 -3.753186 52.894180 24 18 17
16.517332 -3.632910 52.803284 24 19 17
16.489214 -3.513093 52.713394 24 19 16
16.461439 -3.393734 52.624599 23 20 16
16.434023 -3.274830 52.536957 22 19 15
16.406981 -3.156376 52.450504 22 19 15
16.380318 -3.038365 52.365273 22 20 16
16.354050 -2.920791 52.281292 22 20 16
16.328176 -2.803648 52.198582 23 20 18
16.302700 -2.686927 52.117138 24 20 18
16.277634 -2.570621 52.037003 25 20 19
16.252983 -2.454724 51.958199 26 20 19
16.228758 -2.339228 51.880760 26 20 19
16.204977 -2.224126 51.804737 26 20 19
16.181660 -2.109413 51.730190 26 20 20
16.158827 -1.995081 51.657196 26 20 20
16.136507 -1.881124 51.585846 26 20 20
16.114737 -1.767534 51.516251 26 21 20
16.093554 -1.654305 51.448528 26 21 20
16.072992 -1.541427 51.382801 26 22 20
16.053106 -1.428893 51.319229 25 21 19
16.033939 -1.316692 51.257954 24 21 19
16.015539 -1.204813 51.199131 23 20 19
15.997959 -1.093244 51.142929 23 19 19
15.981251 -0.981970 51.089516 23 18 19
15.965462 -0.870977 51.039040 23 19 19
15.950640 -0.760248 50.991657 24 19 20
15.936831 -0.649764 50.947510 25 20 20
15.924071 -0.539506 50.906723 24 20 19
15.912395 -0.429453 50.869392 24 20 18
15.901823 -0.319583 50.835598 24 20 17
15.892374 -0.209874 50.805389 24 19 17
15.884050 -0.100302 50.778782 24 19 17
15.876847 0.009156 50.755756 24 19 17
15.870742 0.118522 50.736237 25 20 18
15.865706 0.227820 50.720139 27 21 19
15.861694 0.337070 50.707310 28 22 21
15.858654 0.446293 50.697594 30 23 23
15.856519 0.555505 50.690765 31 24 25
15.855218 0.664723 50.686611 31 26 26
15.854673 0.773959 50.684868 31 25 26
15.854802 0.883226 50.685280 30 24 25
15.855526 0.992532 50.687592 29 23 24
15.856763 1.101883 50.691547 29 23 23
15.858442 1.211285 50.696915 29 24 22
15.860497 1.320742 50.703484 29 24 22
15.862868 1.430255 50.711063 29 23 22
15.865508 1.539827 50.719505 29 23 22
15.868379 1.649460 50.728680 29 23 22
15.871452 1.759154 50.738506 29 22 22
15.874706 1.868913 50.748909 28 22 21
15.878127 1.978736 50.759846 28 21 21
15.881701 2.088628 50.771271 28 20 20
15.885426 2.198589 50.783176 27 20 20
15.889287 2.308621 50.795525 26 20 19
15.893282 2.418727 50.808292 25 20 18
15.897397 2.528907 50.821449 26 20 18
15.901615 2.639161 50.834934 26 21 19
15.905924 2.749489 50.848705 26 22 20
15.910301 2.859889 50.862701 26 23 20
15.914726 2.970357 50.876846 25 22 20
15.919175 3.080892 50.891068 25 22 19
15.923628 3.191488 50.905304 24 21 19
15.928065 3.302143 50.919491 24 20 18
15.932470 3.412852 50.933571 24 19 18
15.936829 3.523611 50.947506 25 19 19
15.941132 3.634418 50.961262 25 20 19
15.945378 3.745270 50.974834 26 21 19
15.949568 3.856168 50.988232 26 21 20
15.953713 3.967112 51.001484 26 20 20
15.957829 4.078106 51.014641 26 20 19
15.961938 4.189155 51.027775 25 19 18
15.966071 4.300267 51.040989 24 18 17
15.970267 4.411453 51.054405 24 18 17
15.974578 4.522729 51.068184 23 17 17
15.979059 4.634115 51.082508 23 18 18
15.983777 4.745632 51.097591 24 18 18
15.988812 4.857311 51.113689 24 19 19
15.994251 4.969185 51.131077 24 19 19
16.000183 5.081290 51.150040 25 20 20
16.006708 5.193669 51.170895 25 20 20
16.013922 5.306367 51.193962 25 20 21
16.021925 5.419431 51.219547 25 21 21
16.030811 5.532910 51.247952 26 21 21
16.040659 5.646850 51.279434 27 22 22
16.051542 5.761298 51.314228 26 23 23
16.063520 5.876295 51.352516 26 23 23
16.076630 5.991880 51.394424 26 23 22
16.090893 6.108084 51.440025 25 23 22
16.106316 6.224932 51.489330 24 23 21
16.122885 6.342443 51.542301 23 22 21
16.140570 6.460630 51.598831 23 21 21
16.159325 6.579495 51.658787 24 21 21
16.179096 6.699041 51.721992 26 21 21
16.199820 6.819260 51.788246 26 21 21
16.221426 6.940142 51.857319 27 22 22
16.243847 7.061676 51.928993 29 23 23
16.267012 7.183847 52.003048 30 23 24
16.290852 7.306641 52.079258 31 23 25
16.315294 7.430037 52.157398 31 23 25
16.340275 7.554019 52.237259 31 23 24
16.365728 7.678568 52.318630 29 22 23
16.391584 7.803659 52.401291 27 21 21
16.417770 7.929265 52.484997 26 21 20
16.444204 8.055354 52.569500 25 20 20
16.470795 8.181885 52.654507 24 19 19
16.497442 8.308811 52.739697 23 19 18
17.301899 -6.503011 54.932858 17 13 12
17.272020 -6.373569 54.837997 17 13 13
17.242336 -6.244606 54.743752 17 13 14
17.212826 -6.116111 54.650055 17 13 14
17.183458 -5.988070 54.556812 17 14 14
17.154202 -5.860469 54.463924 17 15 14
17.125025 -5.733295 54.371288 18 16 14
17.095884 -5.606533 54.278770 18 16 14
17.066748 -5.480169 54.186260 19 16 14
17.037580 -5.354196 54.093655 20 16 14
17.008358 -5.228605 54.000874 20 16 15
16.979059 -5.103391 53.907856 21 17 15
16.949682 -4.978555 53.814583 21 16 15
16.920223 -4.854098 53.721050 22 16 15
16.890703 -4.730027 53.627327 22 16 15
16.861141 -4.606348 53.533470 23 17 16
16.831572 -4.483072 53.439587 23 18 17
16.802034 -4.360209 53.345806 23 18 18
16.772572 -4.237770 53.252262 23 19 19
16.743229 -4.115763 53.159103 23 19 19
16.714052 -3.994198 53.066471 23 19 19
16.685089 -3.873081 52.974510 24 19 18
16.656376 -3.752417 52.883347 24 19 18
16.627949 -3.632209 52.793095 24 19 17
16.599834 -3.512456 52.703831 24 20 16
16.572062 -3.393157 52.615650 23 20 16
16.544645 -3.274310 52.528606 23 20 16
16.517597 -3.155908 52.442730 23 19 16
16.490931 -3.037946 52.358063 23 20 17
16.464647 -2.920419 52.274616 23 20 17
16.438759 -2.803317 52.192421 23 20 18
16.413265 -2.686635 52.111477 24 20 19
16.388170 -2.570364 52.031807 25 20 19
16.363487 -2.454499 51.953438 25 21 20
16.339226 -2.339031 51.876411 25 21 20
16.315403 -2.223956 51.800770 26 20 20
16.292032 -2.109265 51.726570 26 20 21
16.269142 -1.994953 51.653893 26 21 21
16.246759 -1.881014 51.582832 25 21 21
16.224920 -1.767439 51.513489 25 21 21
16.203661 -1.654223 51.445992 26 22 21
16.183025 -1.541358 51.380478 25 21 21
16.163057 -1.428833 51.317081 25 21 20
16.143808 -1.316641 51.255966 24 21 20
16.125328 -1.204770 51.197292 24 20 20
16.107672 -1.093207 51.141232 24 19 19
16.090887 -0.981940 51.087944 23 18 19
16.075031 -0.870953 51.037601 23 18 19
16.060148 -0.760228 50.990349 24 19 19
16.046288 -0.649749 50.946342 24 19 19
16.033487 -0.539495 50.905701 24 20 19
16.021778 -0.429446 50.868526 24 20 18
16.011190 -0.319579 50.834908 24 20 17
16.001734 -0.209872 50.804886 24 20 17
15.993421 -0.100302 50.778492 24 19 17
15.986237 0.009156 50.755680 25 19 17
15.980164 0.118523 50.736401 25 20 18
15.975172 0.227822 50.720551 26 21 19
15.971213 0.337075 50.707981 28 21 20
15.968232 0.446301 50.698517 29 22 22
15.966166 0.555518 50.691956 30 23 23
15.964934 0.664741 50.688046 30 24 24
15.964459 0.773985 50.686543 30 24 25
15.964660 0.883259 50.687176 29 22 23
15.965445 0.992572 50.689667 28 21 22
15.966738 1.101931 50.693771 28 22 22
15.968462 1.211341 50.699245 28 23 22
15.970548 1.320804 50.705868 29 23 22
15.972933 1.430322 50.713444 29 23 22
15.975570 1.539897 50.721813 29 23 22
15.978419 1.649531 50.730862 30 23 23
15.981449 1.759223 50.740482 29 22 22
15.984640 1.868975 50.750614 28 22 21
15.987977 1.978789 50.761208 28 21 21
15.991449 2.088667 50.772232 27 21 20
15.995052 2.198610 50.783672 27 20 19
15.998777 2.308620 50.795498 26 20 19
16.002623 2.418699 50.807705 26 21 19
16.006575 2.528848 50.820251 27 21 18
16.010626 2.639067 50.833115 27 21 19
16.014759 2.749356 50.846241 27 22 19
16.018965 2.859714 50.859589 26 22 19
16.023216 2.970138 50.873089 25 22 19
16.027500 3.080627 50.886692 25 21 19
16.031794 3.191176 50.900326 24 21 18
16.036083 3.301783 50.913940 24 20 18
16.040352 3.412445 50.927498 24 20 18
16.044586 3.523157 50.940937 24 20 18
16.048780 3.633918 50.954258 25 20 18
16.052929 3.744726 50.967426 25 20 19
16.057037 3.855581 50.980473 26 21 19
16.061110 3.966483 50.993401 25 20 19
16.065163 4.077437 51.006271 25 19 19
16.069220 4.188447 51.019146 24 19 18
16.073303 4.299519 51.032116 23 18 18
16.077459 4.410667 51.045307 23 18 17
16.081728 4.521904 51.058865 22 17 17
16.086168 4.633249 51.072964 23 18 18
16.090851 4.744725 51.087826 23 18 18
16.095848 4.856361 51.103691 23 19 19
16.101246 4.968189 51.120831 24 19 20
16.107138 5.080247 51.139538 24 20 20
16.113625 5.192576 51.160133 24 20 21
16.120806 5.305223 51.182930 25 21 21
16.128777 5.418235 51.208241 25 21 22
16.137636 5.531659 51.236366 26 22 22
16.147465 5.645544 51.267574 26 23 22
16.158339 5.759936 51.302097 26 23 23
16.170315 5.874877 51.340122 26 23 23
16.183432 5.990405 51.381771 26 23 23
16.197714 6.106550 51.427113 26 23 22
16.213163 6.223340 51.476166 24 23 21
16.229763 6.340791 51.528870 24 22 21
16.247484 6.458914 51.585133 24 21 21
16.266275 6.577713 51.644794 24 21 21
16.286085 6.697188 51.707687 25 21 21
16.306843 6.817331 51.773594 26 21 21
16.328480 6.938131 51.842293 27 22 22
16.350922 7.059575 51.913544 28 23 23
16.374102 7.181649 51.987133 30 23 24
16.397945 7.304338 52.062843 30 23 25
16.422386 7.427621 52.140442 30 23 25
16.447361 7.551486 52.219734 30 22 24
16.472805 7.675910 52.300518 28 21 22
16.498652 7.800873 52.382576 27 21 21
16.524834 7.926351 52.465706 26 21 20
16.551273 8.052312 52.549652 24 20 20
16.577888 8.178722 52.634155 23 19 19
17.381414 -6.370337 54.810188 17 13 13
17.351778 -6.241524 54.716736 16 13 13
17.322317 -6.113176 54.623829 16 13 14
17.293001 -5.985280 54.531387 17 14 14
17.263798 -5.857819 54.439301 17 15 14
17.234673 -5.730782 54.347458 18 16 15
17.205584 -5.604152 54.255730 19 16 16
17.176495 -5.477918 54.163998 19 17 16
17.147373 -5.352069 54.072166 20 17 16
17.118191 -5.226598 53.980148 21 16 16
17.088930 -5.101500 53.887875 21 16 16
17.059584 -4.976774 53.795334 22 16 16
17.030153 -4.852424 53.702530 22 16 16
17.000654 -4.728455 53.609509 22 17 17
16.971107 -4.604874 53.516335 23 17 18
16.941549 -4.481691 53.423130 23 18 18
16.912022 -4.358919 53.330013 23 18 19
16.882563 -4.236564 53.237118 24 19 20
16.853222 -4.114640 53.144596 24 20 20
16.824045 -3.993153 53.052589 23 20 20
16.795080 -3.872111 52.961250 23 20 19
16.766363 -3.751519 52.870697 24 20 18
16.737930 -3.631379 52.781040 24 20 17
16.709812 -3.511692 52.692375 24 20 16
16.682034 -3.392456 52.604771 24 20 16
16.654610 -3.273667 52.518295 23 20 16
16.627556 -3.155321 52.432983 23 19 16
16.600878 -3.037413 52.348862 23 19 17
16.574587 -2.919935 52.265957 23 19 18
16.548685 -2.802880 52.184277 24 20 18
16.523174 -2.686240 52.103832 24 20 19
16.498060 -2.570010 52.024639 24 20 19
16.473352 -2.454181 51.946724 25 21 20
16.449062 -2.338748 51.870125 25 21 20
16.425201 -2.223703 51.794884 25 21 21
16.401789 -2.109040 51.721058 26 21 21
16.378851 -1.994754 51.648727 26 21 22
16.356419 -1.880837 51.577988 26 21 22
16.334522 -1.767283 51.508942 25 21 22
16.313202 -1.654086 51.441711 25 21 21
16.292501 -1.541236 51.376434 25 21 21
16.272470 -1.428727 51.313271 24 20 20
16.253157 -1.316549 51.252365 25 20 21
16.234613 -1.204690 51.193886 25 20 20
16.216894 -1.093139 51.138016 25 19 19
16.200056 -0.981882 51.084919 24 18 19
16.184149 -0.870904 51.034756 24 19 19
16.169226 -0.760189 50.987698 24 19 19
16.155333 -0.649718 50.943890 24 19 18
16.142509 -0.539471 50.903450 24 19 18
16.130791 -0.429429 50.866497 24 20 18
16.120203 -0.319568 50.833111 25 21 18
16.110762 -0.209866 50.803337 24 20 17
16.102472 -0.100299 50.777199 24 19 17
16.095325 0.009155 50.754658 25 19 17
16.089300 0.118521 50.735661 25 20 17
16.084362 0.227820 50.720089 26 20 18
16.080469 0.337074 50.707813 27 21 19
16.077560 0.446302 50.698643 28 22 20
16.075567 0.555522 50.692356 29 22 21
16.074417 0.664750 50.688728 29 22 21
16.074020 0.773999 50.687481 29 22 21
16.074295 0.883279 50.688347 28 21 21
16.075151 0.992599 50.691048 27 20 21
16.076508 1.101965 50.695320 27 21 21
16.078283 1.211381 50.700920 28 21 20
16.080408 1.320849 50.707623 28 22 21
16.082821 1.430372 50.715229 29 23 22
16.085468 1.539951 50.723576 29 23 22
16.088308 1.649585 50.732533 29 23 22
16.091312 1.759276 50.742004 29 22 22
16.094456 1.869023 50.751923 28 22 21
16.097733 1.978830 50.762249 28 22 20
16.101122 2.088696 50.772942 27 21 20
16.104628 2.198624 50.783993 26 20 19
16.108240 2.308615 50.795383 26 21 19
16.111958 2.418671 50.807110 27 21 20
16.115776 2.528793 50.819149 27 21 19
16.119682 2.638982 50.831470 27 21 19
16.123671 2.749237 50.844048 27 22 19
16.127726 2.859559 50.856831 27 22 19
16.131828 2.969944 50.869770 26 21 19
16.135967 3.080392 50.882816 25 21 19
16.140121 3.190900 50.895920 25 21 19
16.144279 3.301465 50.909035 25 21 19
16.148426 3.412083 50.922108 25 21 19
16.152548 3.522753 50.935108 25 21 19
16.156641 3.633473 50.948013 25 20 19
16.160700 3.744240 50.960812 26 20 20
16.164726 3.855055 50.973511 26 20 20
16.168730 3.965918 50.986130 25 20 19
16.172720 4.076833 50.998714 24 19 19
16.176718 4.187804 51.011326 23 19 18
16.180752 4.298839 51.024044 22 18 17
16.184856 4.409948 51.036991 22 18 18
16.189077 4.521145 51.050301 22 18 18
16.193474 4.632450 51.064159 22 18 18
16.198107 4.743884 51.078770 22 18 19
16.203054 4.855475 51.094372 23 19 19
16.208405 4.967257 51.111240 23 19 20
16.214247 5.079266 51.129669 23 19 20
16.220688 5.191546 51.149975 24 20 21
16.227823 5.304141 51.172478 24 20 21
16.235756 5.417098 51.197491 25 21 22
16.244579 5.530466 51.225319 26 22 22
16.254385 5.644295 51.256237 26 23 22
16.265240 5.758630 51.290470 27 23 23
16.277208 5.873514 51.328209 27 23 23
16.290327 5.988983 51.369576 27 23 23
16.304621 6.105071 51.414650 26 23 22
16.320091 6.221801 51.463432 25 23 22
16.336718 6.339190 51.515862 25 22 22
16.354471 6.457251 51.571846 24 21 21
16.373299 6.575984 51.631218 24 20 21
16.393141 6.695387 51.693787 25 21 21
16.413929 6.815454 51.759342 26 21 20
16.435593 6.936172 51.827652 27 22 21
16.458054 7.057527 51.898483 28 23 23
16.481243 7.179504 51.971603 28 23 23
16.505089 7.302086 52.046799 29 23 24
16.529524 7.425259 52.123852 29 23 24
16.554485 7.549003 52.202568 28 22 23
16.579916 7.673304 52.282761 27 21 22
16.605749 7.798139 52.364223 26 21 21
16.631924 7.923488 52.446762 25 21 20
16.658367 8.049324 52.530148 23 20 19
17.461308 -6.238515 54.690353 16 13 13
17.431852 -6.110297 54.598099 16 13 14
17.402542 -5.982526 54.506298 17 14 14
17.373344 -5.855188 54.414848 17 15 15
17.344225 -5.728271 54.323647 18 16 15
17.315142 -5.601758 54.232555 19 16 16
17.286055 -5.475637 54.141449 20 17 16
17.256933 -5.349899 54.050240 20 17 16
17.227749 -5.224534 53.958828 21 16 17
17.198481 -5.099539 53.867161 21 16 17
17.169125 -4.974913 53.775215 22 16 17
17.139679 -4.850658 53.682991 23 16 18
17.110163 -4.726782 53.590542 23 17 19
17.080599 -4.603291 53.497944 23 18 20
17.051018 -4.480195 53.405293 24 18 20
17.021461 -4.357505 53.312717 24 18 20
16.991976 -4.235231 53.220371 24 19 20
16.962610 -4.113385 53.128395 24 20 20
16.933407 -3.991974 53.036926 23 20 20
16.904415 -3.871005 52.946117 23 20 19
16.875673 -3.750484 52.856098 23 20 18
16.847219 -3.630412 52.766979 23 20 17
16.819082 -3.510791 52.678848 23 20 16
16.791283 -3.391618 52.591782 23 20 15
16.763844 -3.272891 52.505840 23 20 16
16.736774 -3.154604 52.421055 23 19 17
16.710085 -3.036751 52.337460 23 19 17
16.683779 -2.919326 52.255070 23 19 18
16.657862 -2.802322 52.173897 24 19 18
16.632336 -2.685731 52.093945 24 19 19
16.607204 -2.569545 52.015232 24 20 20
16.582476 -2.453759 51.937775 24 20 20
16.558161 -2.338365 51.861618 25 20 20
16.534271 -2.223356 51.786793 26 21 20
16.510826 -2.108727 51.713367 26 21 21
16.487852 -1.994471 51.641407 26 21 22
16.465378 -1.880583 51.571014 26 21 22
16.443438 -1.767055 51.502296 25 21 21
16.422070 -1.653882 51.435375 25 21 21
16.401323 -1.541055 51.370392 25 21 20
16.381243 -1.428567 51.307499 25 21 21
16.361881 -1.316407 51.246857 25 20 20
16.343294 -1.204566 51.188641 25 19 20
16.325537 -1.093032 51.133022 25 19 19
16.308664 -0.981791 51.080177 25 19 19
16.292730 -0.870827 51.030270 26 19 18
16.277788 -0.760126 50.983471 26 20 18
16.263885 -0.649667 50.939922 26 20 18
16.251064 -0.539432 50.899765 26 20 18
16.239357 -0.429400 50.863098 25 20 18
16.228792 -0.319548 50.830009 25 21 18
16.219383 -0.209854 50.800541 25 20 17
16.211138 -0.100294 50.774715 25 20 17
16.204044 0.009155 50.752499 25 20 17
16.198082 0.118517 50.733822 25 20 17
16.193218 0.227813 50.718590 26 20 18
16.189404 0.337066 50.706638 26 21 19
16.186577 0.446294 50.697788 27 21 20
16.184671 0.555516 50.691818 28 21 20
16.183607 0.664747 50.688484 28 21 20
16.183296 0.774000 50.687511 28 21 19
16.183653 0.883284 50.688633 27 20 19
16.184589 0.992609 50.691563 26 20 19
16.186016 1.101980 50.696033 27 20 19
16.187855 1.211401 50.701790 27 20 19
16.190029 1.320875 50.708603 27 21 19
16.192478 1.430402 50.716274 29 22 20
16.195150 1.539983 50.724640 29 22 21
16.197998 1.649618 50.733559 29 22 21
16.200994 1.759308 50.742943 29 22 21
16.204115 1.869053 50.752716 28 22 21
16.207348 1.978853 50.762844 27 22 20
16.210682 2.088711 50.773285 27 21 19
16.214115 2.198626 50.784042 26 20 19
16.217642 2.308602 50.795090 27 21 19
16.221266 2.418639 50.806435 27 21 20
16.224977 2.528739 50.818062 28 22 20
16.228769 2.638902 50.829941 28 22 20
16.232637 2.749129 50.842052 28 21 20
16.236568 2.859420 50.854370 27 21 19
16.240551 2.969773 50.866840 26 21 19
16.244566 3.080186 50.879417 26 21 18
16.248606 3.190658 50.892063 26 21 19
16.252649 3.301186 50.904736 26 22 20
16.256691 3.411767 50.917389 26 21 20
16.260715 3.522400 50.929996 26 21 20
16.264719 3.633082 50.942532 27 21 21
16.268696 3.743812 50.954994 27 21 21
16.272650 3.854591 50.967373 26 21 20
16.276585 3.965418 50.979698 25 21 20
16.280514 4.076296 50.992004 24 20 19
16.284454 4.187232 51.004353 23 19 18
16.288435 4.298230 51.016815 22 19 18
16.292488 4.409302 51.029510 21 19 18
16.296658 4.520461 51.042568 21 19 18
16.301001 4.631725 51.056171 22 19 19
16.305582 4.743118 51.070522 22 19 19
16.310476 4.854666 51.085850 22 18 19
16.315771 4.966401 51.102436 22 19 19
16.321564 5.078363 51.120575 23 19 20
16.327948 5.190592 51.140575 24 20 21
16.335033 5.303134 51.162769 24 20 21
16.342920 5.416037 51.187469 25 21 22
16.351707 5.529351 51.214989 25 22 22
16.361479 5.643124 51.245598 26 22 22
16.372313 5.757402 51.279530 26 23 22
16.384270 5.872229 51.316978 27 23 23
16.397387 5.987640 51.358063 27 23 23
16.411688 6.103670 51.402855 27 23 22
16.427172 6.220340 51.451351 26 23 22
16.443823 6.337669 51.503502 25 22 22
16.461603 6.455667 51.559193 25 21 22
16.480461 6.574334 51.618259 24 20 21
16.500334 6.693667 51.680500 25 20 21
16.521149 6.813657 51.745697 26 21 21
16.542831 6.934292 51.813610 26 21 21
16.565308 7.055558 51.884007 27 22 22
16.588501 7.177438 51.956650 27 22 22
16.612343 7.299916 52.031326 27 22 22
16.636766 7.422975 52.107822 27 22 23
16.661711 7.546600 52.185951 27 22 22
16.687120 7.670776 52.265537 26 21 21
16.712934 7.795483 52.346386 25 21 21
16.739096 7.920703 52.428326 25 21 21
17.512135 -5.979826 54.481709 17 14 14
17.482897 -5.852594 54.390743 17 15 15
17.453732 -5.725779 54.300007 18 16 16
17.424601 -5.599365 54.209381 19 16 16
17.395466 -5.473341 54.118740 19 16 16
17.366293 -5.347695 54.027981 20 16 16
17.337055 -5.222423 53.937019 20 16 17
17.307734 -5.097516 53.845795 21 15 17
17.278316 -4.972976 53.754280 22 16 18
17.248810 -4.848805 53.662479 23 16 19
17.219231 -4.725011 53.570457 24 17 20
17.189600 -4.601599 53.478275 24 18 21
17.159952 -4.478580 53.386040 24 18 21
17.130333 -4.355966 53.293888 24 19 20
17.100784 -4.233767 53.201958 24 19 20
17.071354 -4.111992 53.110401 24 20 20
17.042091 -3.990652 53.019363 23 20 20
17.013042 -3.869753 52.928989 23 20 19
16.984251 -3.749300 52.839413 23 20 18
16.955750 -3.629295 52.750744 22 20 17
16.927568 -3.509739 52.663074 22 20 16
16.899734 -3.390631 52.576481 23 21 16
16.872263 -3.271966 52.491013 23 20 16
16.845165 -3.153740 52.406708 23 19 17
16.818451 -3.035947 52.323601 23 19 17
16.792126 -2.918579 52.241695 23 19 18
16.766188 -2.801630 52.161003 24 19 18
16.740643 -2.685091 52.081532 24 19 19
16.715494 -2.568955 52.003292 24 19 20
16.690746 -2.453217 51.926300 25 20 20
16.666410 -2.337867 51.850586 25 20 19
16.642498 -2.222901 51.776196 26 20 20
16.619032 -2.108312 51.703186 26 21 21
16.596029 -1.994094 51.631630 26 21 21
16.573526 -1.880240 51.561619 25 21 21
16.551556 -1.766745 51.493263 25 21 21
16.530157 -1.653603 51.426693 25 22 20
16.509380 -1.540805 51.362053 25 21 20
16.489273 -1.428344 51.299496 25 20 20
16.469887 -1.316210 51.239185 25 20 20
16.451279 -1.204394 51.181293 25 19 20
16.433504 -1.092882 51.125999 26 19 19
16.416622 -0.981662 51.073479 26 19 19
16.400688 -0.870719 51.023907 27 20 19
16.385756 -0.760036 50.977448 27 20 19
16.371872 -0.649595 50.934254 27 21 19
16.359077 -0.539376 50.894451 27 21 19
16.347410 -0.429358 50.858150 26 21 19
16.336891 -0.319519 50.825424 26 21 18
16.327539 -0.209837 50.796333 25 21 17
16.319363 -0.100287 50.770889 25 20 17
16.312342 0.009154 50.749050 25 20 17
16.306463 0.118509 50.730759 25 21 17
16.301685 0.227801 50.715897 25 21 18
16.297962 0.337050 50.704315 26 20 18
16.295231 0.446277 50.695816 27 21 18
16.293421 0.555498 50.690186 27 21 18
16.292454 0.664730 50.687176 28 21 18
16.292238 0.773984 50.686508 28 20 18
16.292686 0.883272 50.687904 27 20 18
16.293709 0.992600 50.691082 26 19 18
16.295216 1.101975 50.695770 27 19 18
16.297125 1.211400 50.701710 27 20 18
16.299360 1.320876 50.708664 27 20 18
16.301861 1.430407 50.716442 28 21 19
16.304567 1.539990 50.724865 28 22 20
16.307444 1.649627 50.733814 28 22 21
16.310452 1.759316 50.743172 28 22 21
16.313570 1.869058 50.752869 28 22 21
16.316788 1.978855 50.762878 27 21 20
16.320093 2.088706 50.773163 27 21 20
16.323483 2.198612 50.783714 27 20 19
16.326958 2.308576 50.794521 28 21 19
16.330513 2.418598 50.805580 28 21 20
16.334150 2.528681 50.816898 28 22 20
16.337862 2.638825 50.828445 29 22 20
16.341640 2.749029 50.840202 29 21 20
16.345482 2.859296 50.852150 28 21 20
16.349369 2.969622 50.864243 27 21 19
16.353291 3.080007 50.876446 27 21 19
16.357237 3.190449 50.888721 27 21 19
16.361191 3.300945 50.901024 27 21 20
16.365145 3.411495 50.913322 28 22 21
16.369089 3.522095 50.925594 28 22 21
16.373014 3.632745 50.937805 28 22 22
16.376923 3.743443 50.949966 27 22 21
16.380808 3.854188 50.962055 26 22 21
16.384684 3.964983 50.974113 25 22 20
16.388556 4.075829 50.986156 23 21 19
16.392445 4.186731 50.998253 22 20 18
16.396372 4.297696 51.010475 22 20 18
16.400373 4.408733 51.022926 22 20 18
16.404493 4.519856 51.035740 21 20 18
16.408783 4.631083 51.049088 21 20 19
16.413311 4.742435 51.063171 21 19 19
16.418152 4.853942 51.078236 22 18 19
16.423391 4.965633 51.094532 22 19 19
16.429127 5.077549 51.112381 23 19 20
16.435459 5.189730 51.132080 23 20 20
16.442495 5.302222 51.153965 23 20 20
16.450335 5.415073 51.178360 23 21 21
16.459080 5.528334 51.205566 24 21 21
16.468819 5.642052 51.235867 25 21 21
16.479628 5.756275 51.269493 26 21 22
16.491570 5.871046 51.306644 26 22 22
16.504681 5.986401 51.347431 27 22 22
16.518986 6.102374 51.391937 27 23 22
16.534481 6.218985 51.440144 27 22 22
16.551151 6.336255 51.492004 26 21 22
16.568953 6.454189 51.547390 25 20 21
16.587835 6.572790 51.606136 25 20 21
16.607733 6.692053 51.668037 25 20 22
16.628569 6.811967 51.732857 25 20 21
16.650269 6.932520 51.800365 25 21 20
16.672750 7.053696 51.870312 26 21 21
16.695942 7.175478 51.942463 26 21 21
16.719774 7.297851 52.016605 25 21 21
16.744179 7.420797 52.092533 25 21 21
16.769100 7.544302 52.170063 25 20 21
16.794479 7.668352 52.249020 24 19 21
17.592493 -5.850049 54.367096 16 15 14
17.563229 -5.723316 54.276657 17 16 15
17.533995 -5.596982 54.186314 18 16 16
17.504755 -5.471036 54.095955 19 16 16
17.475473 -5.345467 54.005466 20 16 16
17.446125 -5.220268 53.914768 20 16 17
17.416689 -5.095434 53.823799 21 15 17
17.387159 -4.970965 53.732540 22 15 18
17.357536 -4.846865 53.640999 23 16 19
17.327839 -4.723137 53.549221 24 17 21
17.298092 -4.599793 53.457294 24 17 21
17.268330 -4.476841 53.365318 24 17 21
17.238596 -4.354293 53.273430 23 18 20
17.208939 -4.232160 53.181774 23 18 20
17.179403 -4.110451 53.090500 23 19 20
17.150042 -3.989177 52.999763 23 19 20
17.120899 -3.868343 52.909706 23 20 19
17.092022 -3.747955 52.820461 22 20 18
17.063442 -3.628015 52.732143 22 20 16
17.035192 -3.508524 52.644840 22 20 16
17.007298 -3.389480 52.558636 22 20 16
16.979773 -3.270879 52.473572 22 20 16
16.952627 -3.152716 52.389687 23 19 17
16.925877 -3.034985 52.307014 23 19 17
16.899517 -2.917677 52.225552 23 19 18
16.873550 -2.800786 52.145309 23 19 18
16.847984 -2.684305 52.066296 24 19 18
16.822811 -2.568225 51.988506 24 19 19
16.798044 -2.452539 51.911968 25 19 19
16.773691 -2.337241 51.836704 25 19 19
16.749762 -2.222324 51.762756 26 19 20
16.726276 -2.107781 51.690178 26 20 20
16.703260 -1.993608 51.619049 26 20 20
16.680740 -1.879797 51.549454 25 21 20
16.658756 -1.766342 51.481514 25 21 20
16.637344 -1.653238 51.415344 25 21 20
16.616558 -1.540477 51.351105 25 21 20
16.596443 -1.428050 51.288948 25 20 20
16.577057 -1.315949 51.229034 25 20 19
16.558455 -1.204164 51.171547 26 19 19
16.540693 -1.092682 51.116661 26 19 20
16.523834 -0.981491 51.064560 27 20 20
16.507931 -0.870574 51.015411 28 20 20
16.493036 -0.759916 50.969383 28 21 20
16.479202 -0.649498 50.926628 28 22 20
16.466467 -0.539300 50.887272 27 22 20
16.454868 -0.429301 50.851429 27 22 19
16.444427 -0.319480 50.819164 27 22 18
16.435162 -0.209813 50.790527 26 21 17
16.427073 -0.100276 50.765533 26 21 17
16.420153 0.009153 50.744144 25 20 17
16.414375 0.118499 50.726288 26 21 17
16.409702 0.227783 50.711853 26 21 17
16.406086 0.337026 50.700672 26 20 17
16.403463 0.446249 50.692574 27 20 17
16.401762 0.555467 50.687313 28 21 17
16.400900 0.664697 50.684650 28 21 17
16.400789 0.773951 50.684307 28 20 17
16.401337 0.883238 50.685997 27 19 17
16.402452 0.992568 50.689445 26 19 17
16.404047 1.101944 50.694374 26 19 17
16.406038 1.211371 50.700523 27 19 17
16.408348 1.320850 50.707664 27 20 18
16.410910 1.430382 50.715584 28 20 18
16.413675 1.539968 50.724125 29 21 20
16.416594 1.649605 50.733147 29 22 22
16.419632 1.759294 50.742538 29 22 22
16.422775 1.869036 50.752251 28 22 22
16.426004 1.978829 50.762230 28 21 21
16.429310 2.088676 50.772442 28 20 20
16.432690 2.198576 50.782890 28 20 20
16.436142 2.308532 50.793560 29 20 20
16.439669 2.418545 50.804459 29 21 20
16.443266 2.528615 50.815575 29 21 20
16.446930 2.638744 50.826897 30 21 20
16.450657 2.748933 50.838413 30 21 20
16.454435 2.859180 50.850094 29 21 20
16.458261 2.969486 50.861916 28 21 19
16.462118 3.079848 50.873837 28 21 19
16.465996 3.190267 50.885818 28 21 20
16.469885 3.300739 50.897839 28 22 21
16.473774 3.411263 50.909855 29 22 22
