ply
format ascii 1.0
element vertex 1236
property float x
property float y
property float z
property uchar red
property uchar green
property uchar blue
end_header
12.925926 5.736273 52.091488 28 23 23
12.908956 5.840886 52.023098 29 24 24
12.891707 5.945076 51.953587 31 26 26
12.874233 6.048861 51.883167 34 28 27
12.856592 6.152261 51.812073 35 28 28
12.838846 6.255304 51.740555 35 29 28
12.821061 6.358020 51.668884 35 28 27
12.803312 6.460445 51.597355 34 28 27
12.785666 6.562614 51.526241 33 27 27
12.768197 6.664569 51.455841 33 27 26
12.750969 6.766348 51.386410 33 27 26
12.734042 6.867990 51.318195 34 27 27
12.717468 6.969532 51.251404 36 28 29
12.701285 7.071004 51.186188 38 30 32
12.685521 7.172431 51.122658 41 31 33
12.670182 7.273828 51.060841 43 32 34
12.655264 7.375204 51.000721 43 32 33
12.640743 7.476556 50.942204 43 32 32
12.626575 7.577868 50.885105 44 32 32
12.612704 7.679113 50.829208 47 34 33
12.599051 7.780252 50.774181 50 36 35
12.585526 7.881235 50.719677 53 38 37
12.572028 7.982000 50.665279 55 38 38
12.558447 8.082477 50.610546 55 36 36
12.544665 8.182586 50.555008 54 32 33
12.530569 8.282248 50.498199 57 33 35
12.516044 8.381378 50.439663 66 41 42
12.500988 8.479897 50.378990 74 48 48
12.485310 8.577725 50.315804 77 51 51
12.468935 8.674797 50.249813 78 53 54
12.451807 8.771054 50.180790 79 54 56
12.433896 8.866455 50.108604 80 55 58
12.415190 8.960971 50.033222 78 55 58
12.395704 9.054592 49.954693 73 51 54
12.375478 9.147326 49.873180 68 47 50
12.354570 9.239202 49.788925 64 45 49
12.333060 9.330256 49.702236 67 49 53
12.311041 9.420548 49.613503 72 55 60
12.288626 9.510151 49.523167 74 58 62
12.265926 9.599142 49.431690 72 56 60
12.243069 9.687613 49.339573 71 55 58
12.220174 9.775658 49.247307 73 57 59
12.197365 9.863375 49.155388 77 60 61
12.174758 9.950860 49.064281 80 62 63
12.152463 10.038209 48.974430 80 61 62
12.130580 10.125516 48.886246 79 58 59
12.109199 10.212866 48.800079 78 56 57
12.088398 10.300338 48.716251 78 56 56
12.068245 10.388006 48.635033 84 62 62
12.048784 10.475927 48.556606 95 72 74
12.030065 10.564159 48.481163 108 85 89
12.012112 10.652748 48.408817 118 96 101
11.994943 10.741725 48.339626 118 97 103
11.978558 10.831115 48.273594 110 89 96
11.962952 10.920929 48.210705 99 79 86
11.948105 11.011172 48.150867 94 75 82
11.933986 11.101834 48.093967 98 81 88
11.920550 11.192894 48.039825 111 95 102
11.907751 11.284322 47.988243 121 107 114
11.895525 11.376077 47.938972 117 103 110
11.883799 11.468102 47.891716 95 82 89
11.872496 11.560333 47.846165 73 60 67
11.861524 11.652695 47.801945 72 60 66
11.850785 11.745097 47.758671 88 76 82
11.840176 11.837441 47.715916 108 96 102
11.829582 11.929618 47.673225 121 108 114
11.818888 12.021507 47.630123 120 107 113
11.807965 12.112977 47.586105 112 98 104
11.796692 12.203895 47.540676 107 93 99
11.784943 12.294120 47.493324 115 99 106
11.772595 12.383512 47.443565 127 111 119
14.070773 -9.442257 56.216850 24 21 18
14.066662 -9.318349 56.200424 24 20 17
14.063144 -9.194900 56.186367 25 20 17
14.060207 -9.071886 56.174637 26 20 18
14.057836 -8.949283 56.165161 27 19 18
14.056005 -8.827060 56.157848 28 20 19
14.054681 -8.705182 56.152557 29 21 20
14.053831 -8.583617 56.149162 30 22 20
14.053414 -8.462327 56.147495 32 24 21
14.053383 -8.341274 56.147373 34 26 23
14.053692 -8.220419 56.148602 35 27 25
14.054289 -8.099726 56.150990 36 28 26
14.055129 -7.979160 56.154346 36 29 27
14.056161 -7.858687 56.158470 36 29 27
14.057340 -7.738277 56.163177 36 29 27
14.058625 -7.617905 56.168312 36 29 28
14.059983 -7.497550 56.173740 36 29 28
14.061387 -7.377194 56.179348 36 29 28
14.062819 -7.256830 56.185070 35 28 28
14.064268 -7.136449 56.190861 34 28 27
14.065732 -7.016051 56.196709 33 28 26
14.067214 -6.895636 56.202629 33 28 25
14.068723 -6.775208 56.208656 35 27 24
14.070266 -6.654771 56.214821 36 28 25
14.071853 -6.534328 56.221165 38 29 26
14.073484 -6.413878 56.227680 39 29 27
14.075155 -6.293417 56.234356 41 30 28
14.076855 -6.172940 56.241146 43 32 30
14.078550 -6.052432 56.247921 46 34 32
14.080212 -5.931880 56.254559 50 35 36
14.081781 -5.811262 56.260830 54 38 39
14.083197 -5.690555 56.266483 59 41 42
14.084388 -5.569734 56.271244 62 43 45
14.085269 -5.448773 56.274765 64 43 46
14.085750 -5.327645 56.276684 67 45 48
14.085737 -5.206327 56.276634 74 50 55
14.085131 -5.084795 56.274212 83 59 66
14.083837 -4.963031 56.269043 92 70 77
14.081761 -4.841020 56.260750 94 74 81
14.078815 -4.718754 56.248981 84 66 72
14.074916 -4.596226 56.233402 66 51 54
14.069994 -4.473441 56.213737 52 39 41
14.063991 -4.350406 56.189751 47 35 36
14.056859 -4.227135 56.161259 45 33 34
14.048572 -4.103650 56.128151 44 31 33
14.039124 -3.979978 56.090405 44 29 33
14.028530 -3.856154 56.048077 44 28 33
14.016825 -3.732217 56.001308 44 27 34
14.004070 -3.608210 55.950352 45 26 34
13.990352 -3.484184 55.895542 46 27 33
13.975771 -3.360186 55.837288 57 38 41
13.960449 -3.236268 55.776073 93 76 75
13.944521 -3.112478 55.712433 148 135 131
13.928120 -2.988862 55.646908 194 184 179
13.911386 -2.865459 55.580051 200 189 183
13.894451 -2.742305 55.512390 149 134 126
13.877429 -2.619426 55.444382 82 65 58
13.860417 -2.496842 55.376415 57 40 35
13.843488 -2.374565 55.308781 64 47 43
13.826683 -2.252600 55.241638 71 54 52
13.810026 -2.130947 55.175087 70 55 54
13.793509 -2.009602 55.109097 64 51 50
13.777109 -1.888557 55.043575 55 43 43
13.760792 -1.767806 54.978382 47 35 34
13.744513 -1.647340 54.913342 43 31 30
13.728230 -1.527154 54.848289 41 29 29
13.711914 -1.407245 54.783104 39 28 27
13.695549 -1.287612 54.717720 38 27 26
13.679137 -1.168258 54.652149 39 27 26
13.662703 -1.049184 54.586487 39 27 27
13.646297 -0.930395 54.520943 40 28 28
13.629987 -0.811895 54.455780 41 30 30
13.613856 -0.693685 54.391335 40 30 29
13.598002 -0.575764 54.327991 36 27 26
13.582521 -0.458129 54.266140 34 26 24
13.567510 -0.340773 54.206161 33 25 23
13.553051 -0.223684 54.148399 33 26 24
13.539220 -0.106849 54.093140 33 26 24
13.526063 0.009748 54.040573 33 26 24
13.513611 0.126125 53.990822 33 26 24
13.501871 0.242300 53.943916 33 25 24
13.490827 0.358292 53.899792 33 25 24
13.480450 0.474117 53.858334 33 24 23
13.470692 0.589790 53.819351 31 22 21
13.461501 0.705325 53.782627 29 21 19
13.452816 0.820732 53.747929 27 19 16
13.444577 0.936021 53.715012 25 18 14
13.436730 1.051199 53.683666 24 18 14
13.429224 1.166271 53.653671 25 20 16
13.422015 1.281242 53.624874 27 22 18
13.415068 1.396116 53.597115 30 25 22
13.408351 1.510896 53.570282 32 26 24
13.401842 1.625586 53.544277 33 25 25
13.395514 1.740188 53.518990 34 25 25
13.389346 1.854702 53.494347 39 29 29
13.383313 1.969130 53.470245 49 37 37
13.377391 2.083472 53.446587 60 46 46
13.371548 2.197724 53.423241 65 50 50
13.365752 2.311884 53.400085 66 49 50
13.359965 2.425946 53.376965 68 50 50
13.354146 2.539902 53.353714 74 54 55
13.348253 2.653743 53.330170 81 60 61
13.342239 2.767457 53.306145 83 61 62
13.336063 2.881033 53.281471 78 56 58
13.329681 2.994457 53.255970 72 51 54
13.323050 3.107712 53.229481 67 48 51
13.316137 3.220785 53.201859 63 46 48
13.308905 3.333658 53.172962 61 47 49
13.301324 3.446317 53.142673 61 50 52
13.293366 3.558744 53.110882 59 50 50
13.285008 3.670924 53.077488 47 40 39
13.276231 3.782840 53.042419 37 30 29
13.267020 3.894478 53.005619 32 26 25
13.257360 4.005822 52.967030 29 24 23
13.247243 4.116857 52.926605 27 21 20
13.236662 4.227569 52.884331 26 21 20
13.225614 4.337946 52.840187 28 22 20
13.214094 4.447974 52.794167 29 23 21
13.202104 4.557641 52.746262 29 23 21
13.189643 4.666935 52.696480 29 22 20
13.176719 4.775847 52.644840 27 21 19
13.163330 4.884363 52.591351 27 21 18
13.149483 4.992475 52.536026 27 22 19
13.135186 5.100174 52.478905 28 23 21
13.120447 5.207451 52.420021 29 23 22
13.105277 5.314299 52.359409 29 24 24
13.089689 5.420713 52.297131 29 24 24
13.073699 5.526689 52.233246 29 24 25
13.057329 5.632225 52.167847 29 23 24
13.040608 5.737325 52.101040 28 23 24
13.023570 5.841994 52.032970 29 24 24
13.006257 5.946245 51.963799 31 25 26
12.988716 6.050090 51.893715 33 26 27
12.971004 6.153553 51.822948 34 28 27
12.953181 6.256657 51.751743 35 28 27
12.935312 6.359431 51.680351 35 28 27
12.917468 6.461910 51.609058 35 28 27
12.899717 6.564129 51.538139 34 28 27
12.882128 6.666126 51.467865 34 28 27
12.864764 6.767939 51.398491 34 28 27
12.847688 6.869606 51.330265 34 28 27
12.830946 6.971160 51.263378 36 28 29
12.814581 7.072635 51.197994 38 29 31
12.798617 7.174053 51.134216 40 31 32
12.783068 7.275430 51.072086 42 32 33
12.767925 7.376776 51.011593 42 31 32
12.753171 7.478089 50.952644 42 30 31
12.738764 7.579353 50.895084 42 30 31
12.724647 7.680544 50.838680 45 32 32
12.710748 7.781627 50.783150 47 34 34
12.696978 7.882550 50.728134 50 36 35
12.683239 7.983254 50.673244 53 37 37
12.669424 8.083674 50.618053 54 37 37
12.655420 8.183734 50.562099 54 33 33
12.641113 8.283355 50.504940 56 34 34
12.626394 8.382454 50.446133 66 43 42
12.611160 8.480954 50.385269 75 51 49
12.595322 8.578780 50.321987 79 53 52
12.578804 8.675864 50.255997 79 53 53
12.561555 8.772154 50.187080 79 54 54
12.543540 8.867605 50.115105 80 55 57
12.524749 8.962191 50.040031 79 55 57
12.505199 9.055902 49.961926 75 52 54
12.484924 9.148746 49.880920 70 48 50
12.463984 9.240748 49.797260 67 47 49
12.442456 9.331948 49.711250 70 51 53
12.420434 9.422401 49.623260 73 56 58
12.398023 9.512178 49.533722 74 59 61
12.375338 9.601357 49.443092 73 58 59
12.352501 9.690023 49.351849 71 57 56
12.329630 9.778272 49.260471 72 58 56
12.306846 9.866195 49.169445 77 61 59
12.284263 9.953889 49.079216 80 63 61
12.261988 10.041447 48.990223 80 62 60
12.240118 10.128955 48.902847 78 58 57
12.218741 10.216499 48.817440 76 56 55
12.197934 10.304156 48.734310 74 53 54
12.177759 10.391994 48.653706 77 56 57
12.158262 10.480070 48.575809 86 64 68
12.139488 10.568439 48.500801 102 80 86
12.121462 10.657141 48.428780 118 97 105
12.104198 10.746210 48.359806 123 104 111
12.087697 10.835667 48.293884 114 95 103
12.071953 10.925522 48.230976 99 81 89
12.056946 11.015780 48.171021 90 74 81
12.042643 11.106430 48.113876 93 77 85
12.029005 11.197453 48.059391 106 91 100
12.015982 11.288817 48.007359 122 108 117
12.003513 11.380484 47.957542 126 112 122
11.991529 11.472399 47.909664 108 94 103
11.979953 11.564501 47.863415 80 67 75
11.968697 11.656715 47.818439 73 60 68
11.957667 11.748959 47.774372 86 74 80
11.946758 11.841132 47.730789 106 94 100
11.935864 11.933131 47.687263 121 108 114
11.924866 12.024838 47.643322 122 108 114
11.913642 12.116128 47.598480 113 99 104
11.902072 12.206867 47.552254 106 92 98
11.890030 12.296920 47.504143 112 97 105
11.877396 12.386147 47.453667 127 112 121
14.203100 -9.328390 56.260986 24 19 17
14.199277 -9.204632 56.245842 25 19 17
14.196022 -9.081303 56.232948 25 19 17
14.193316 -8.958376 56.222229 26 19 18
14.191139 -8.835824 56.213608 27 19 19
14.189460 -8.713615 56.206955 27 20 19
14.188246 -8.591717 56.202145 29 21 20
14.187455 -8.470092 56.199013 31 23 21
14.187047 -8.348705 56.197399 33 25 23
14.186974 -8.227520 56.197105 34 26 25
14.187188 -8.106501 56.197956 36 28 27
14.187645 -7.985614 56.199768 36 29 28
14.188299 -7.864829 56.202358 36 29 28
14.189104 -7.744115 56.205547 36 29 28
14.190024 -7.623449 56.209190 36 29 29
14.191028 -7.502812 56.213165 36 29 29
14.192091 -7.382188 56.217377 36 29 29
14.193194 -7.261567 56.221748 35 29 28
14.194333 -7.140944 56.226257 34 29 27
14.195504 -7.020319 56.230900 34 29 26
14.196711 -6.899691 56.235676 34 28 25
14.197964 -6.779063 56.240639 34 28 25
14.199268 -6.658440 56.245808 36 28 25
14.200633 -6.537821 56.251213 37 28 26
14.202057 -6.417205 56.256855 39 29 27
14.203534 -6.296589 56.262703 41 30 27
14.205044 -6.175962 56.268684 43 32 30
14.206557 -6.055311 56.274681 47 34 33
14.208030 -5.934617 56.280514 52 38 38
14.209404 -5.813858 56.285957 59 44 45
14.210608 -5.693006 56.290726 68 51 52
14.211562 -5.572036 56.294506 74 56 57
14.212171 -5.450918 56.296917 75 55 57
14.212337 -5.329623 56.297573 74 53 56
14.211953 -5.208124 56.296055 75 53 58
14.210914 -5.086397 56.291939 78 56 62
14.209113 -4.964421 56.284805 80 59 65
14.206450 -4.842182 56.274258 79 58 65
14.202827 -4.719670 56.259907 72 54 59
14.198157 -4.596880 56.241405 61 45 49
14.192368 -4.473818 56.218475 51 38 40
14.185402 -4.350493 56.190880 47 35 36
14.177217 -4.226924 56.158455 45 34 35
14.167791 -4.103137 56.121124 44 33 35
14.157132 -3.979162 56.078899 44 32 36
14.145268 -3.855042 56.031906 45 31 37
14.132254 -3.730820 55.980350 44 29 38
14.118175 -3.606549 55.924583 45 29 38
14.103136 -3.482281 55.865009 52 35 42
14.087268 -3.358072 55.802155 80 63 66
14.070714 -3.233977 55.736584 139 124 125
14.053632 -3.110047 55.668919 203 194 192
14.036180 -2.986331 55.599781 230 225 221
14.018512 -2.862868 55.529800 201 191 186
14.000775 -2.739694 55.459541 126 110 105
13.983095 -2.616833 55.389507 61 44 39
13.965569 -2.494302 55.320084 46 30 26
13.948269 -2.372108 55.251553 54 39 36
13.931234 -2.250253 55.184078 56 42 40
13.914470 -2.128730 55.117672 53 40 39
13.897960 -2.007530 55.052273 49 37 37
13.881660 -1.886640 54.987705 46 34 34
13.865517 -1.766049 54.923759 43 32 31
13.849469 -1.645745 54.860191 41 30 29
13.833458 -1.525719 54.796768 40 29 27
13.817436 -1.405966 54.733303 39 28 26
13.801373 -1.286482 54.669678 38 27 25
13.785266 -1.167269 54.605869 38 27 26
13.769132 -1.048328 54.541962 38 26 26
13.753019 -0.929665 54.478138 39 27 27
13.737000 -0.811282 54.414680 39 28 28
13.721161 -0.693183 54.351940 38 28 27
13.705602 -0.575365 54.290306 36 27 26
13.690427 -0.457826 54.230198 34 26 24
13.675741 -0.340558 54.172024 33 26 23
13.661634 -0.223551 54.116146 32 25 23
13.648178 -0.106789 54.062843 32 25 24
13.635425 0.009743 54.012321 32 25 24
13.623398 0.126064 53.964684 33 25 24
13.612101 0.242193 53.919933 33 25 24
13.601512 0.358147 53.877991 33 24 24
13.591590 0.473944 53.838688 33 23 23
13.582278 0.589598 53.801800 32 22 21
13.573511 0.705121 53.767071 30 20 18
13.565219 0.820523 53.734226 28 18 14
13.557332 0.935811 53.702988 27 17 12
13.549791 1.050992 53.673115 27 19 13
13.542537 1.166069 53.644379 29 22 16
13.535528 1.281044 53.616615 28 23 17
13.528727 1.395922 53.589676 28 24 19
13.522108 1.510704 53.563457 30 26 22
13.515655 1.625393 53.537895 32 26 25
13.509347 1.739990 53.512909 33 26 26
13.503177 1.854498 53.488464 38 29 29
13.497124 1.968918 53.464489 46 35 36
13.491177 2.083251 53.440929 56 43 44
13.485311 2.197496 53.417698 62 48 49
13.479503 2.311651 53.394688 66 49 51
13.473718 2.425710 53.371777 70 53 54
13.467921 2.539669 53.348812 79 59 61
13.462074 2.653518 53.325653 86 66 68
13.456131 2.767248 53.302109 87 66 69
13.450046 2.880846 53.278004 78 57 61
13.443774 2.994299 53.253162 70 50 54
13.437273 3.107591 53.227409 65 48 50
13.430500 3.220707 53.200581 61 45 47
13.423413 3.333630 53.172508 59 46 49
13.415980 3.446342 53.143066 64 53 55
13.408169 3.558827 53.112122 63 54 54
13.399947 3.671067 53.079556 49 41 41
13.391295 3.783044 53.045284 36 30 30
13.382192 3.894743 53.009224 32 26 26
13.372622 4.006146 52.971317 29 24 24
13.362573 4.117238 52.931507 27 22 22
13.352037 4.228004 52.889778 26 21 21
13.341013 4.338432 52.846107 27 22 21
13.329497 4.448507 52.800491 28 22 22
13.317492 4.558218 52.752937 28 22 21
13.304999 4.667553 52.703449 28 22 20
13.292027 4.776502 52.652061 27 21 19
13.278577 4.885054 52.598789 26 21 19
13.264663 4.993202 52.543671 26 22 20
13.250293 5.100936 52.486748 27 22 21
13.235477 5.208250 52.428062 28 23 23
13.220229 5.315136 52.367661 29 24 24
13.204565 5.421592 52.305611 29 24 25
13.188501 5.527613 52.241982 29 24 25
13.172060 5.633198 52.176857 29 24 25
13.155270 5.738349 52.110344 29 24 25
13.138164 5.843074 52.042583 29 23 24
13.120782 5.947381 51.973732 30 24 25
13.103170 6.051286 51.903969 32 25 26
13.085386 6.154809 51.833523 34 27 27
13.067483 6.257970 51.762608 34 27 27
13.049529 6.360802 51.691490 34 27 26
13.031588 6.463333 51.620419 34 28 27
13.013726 6.565598 51.549667 35 29 28
12.996014 6.667634 51.479504 35 29 28
12.978509 6.769476 51.410168 35 29 28
12.961275 6.871162 51.341900 35 29 28
12.944360 6.972726 51.274891 36 29 29
12.927804 7.074198 51.209312 38 29 31
12.911633 7.175602 51.145260 39 30 31
12.895862 7.276954 51.082783 41 30 31
12.880485 7.378263 51.021873 41 30 31
12.865482 7.479527 50.962444 41 30 30
12.850821 7.580736 50.904369 43 31 31
12.836444 7.681865 50.847420 45 32 32
12.822284 7.782880 50.791328 47 34 34
12.808252 7.883733 50.735748 48 35 34
12.794259 7.984369 50.680321 50 36 35
12.780195 8.084723 50.624611 52 36 35
12.765953 8.184720 50.568192 53 34 33
12.751422 8.284287 50.510632 56 35 34
12.736494 8.383346 50.451500 65 42 40
12.721067 8.481816 50.390392 73 50 46
12.705056 8.579629 50.326969 77 52 49
12.688386 8.676717 50.260937 77 52 50
12.671004 8.773028 50.192081 77 52 51
12.652877 8.868521 50.120281 79 54 54
12.633996 8.963168 50.045490 78 55 55
12.614373 9.056960 49.967758 75 52 53
12.594046 9.149904 49.887238 70 48 49
12.573069 9.242025 49.804142 70 49 51
12.551518 9.333362 49.718781 74 55 56
12.529486 9.423966 49.631504 77 60 60
12.507077 9.513909 49.542740 77 61 61
12.484403 9.603266 49.452923 74 59 58
12.461580 9.692120 49.362522 71 57 55
12.438729 9.780560 49.272003 72 58 55
12.415967 9.868682 49.181839 77 61 58
12.393405 9.956575 49.092464 80 64 60
12.371145 10.044330 49.004292 79 62 58
12.349286 10.132031 48.917702 77 58 56
12.327910 10.219762 48.833031 74 55 53
12.307095 10.307595 48.750572 71 51 51
12.286899 10.395597 48.670574 72 52 54
12.267365 10.483821 48.593197 78 58 63
12.248536 10.572319 48.518612 93 73 80
12.230437 10.661133 48.446922 113 94 103
12.213080 10.750290 48.378166 123 105 114
12.196466 10.839810 48.312355 115 98 107
12.180587 10.929707 48.249451 100 84 91
12.165420 11.019978 48.189373 89 74 81
12.150937 11.110615 48.132004 90 76 84
12.137095 11.201597 48.077179 102 88 97
12.123848 11.292895 48.024700 119 105 115
12.111134 11.384469 47.974339 130 116 126
12.098886 11.476268 47.925823 116 102 113
12.087029 11.568232 47.878853 91 77 88
12.075478 11.660289 47.833099 79 65 75
12.064138 11.752355 47.788181 86 73 81
12.052915 11.844340 47.743721 105 92 99
12.041696 11.936139 47.699280 121 108 114
12.030370 12.027638 47.654415 123 110 115
12.018817 12.118717 47.608658 112 99 104
12.006919 12.209247 47.561523 104 90 96
11.994552 12.299092 47.512535 110 96 103
14.339088 -9.337969 56.318756 23 19 17
14.335011 -9.213943 56.302742 24 18 17
14.331490 -9.090340 56.288910 24 18 17
14.328511 -8.967136 56.277214 24 19 17
14.326054 -8.844304 56.267559 25 19 18
14.324086 -8.721813 56.259834 26 20 19
14.322579 -8.599630 56.253914 27 21 19
14.321491 -8.477722 56.249638 29 22 21
14.320781 -8.356052 56.246849 31 24 23
14.320404 -8.234587 56.245373 33 26 25
14.320316 -8.113291 56.245029 34 28 27
14.320471 -7.992132 56.245632 35 29 28
14.320826 -7.871080 56.247025 36 29 29
14.321339 -7.750108 56.249043 36 29 29
14.321973 -7.629192 56.251534 36 29 29
14.322701 -7.508315 56.254395 36 29 29
14.323500 -7.387461 56.257530 35 29 29
14.324355 -7.266622 56.260887 35 29 28
14.325256 -7.145792 56.264427 34 29 28
14.326204 -7.024970 56.268150 34 29 27
14.327204 -6.904156 56.272076 34 28 26
14.328262 -6.783354 56.276237 34 28 26
14.329385 -6.662563 56.280643 35 28 26
14.330577 -6.541786 56.285328 37 28 26
14.331838 -6.421018 56.290276 39 29 27
14.333153 -6.300253 56.295444 41 30 28
14.334498 -6.179479 56.300728 44 32 31
14.335840 -6.058681 56.306000 48 34 34
14.337125 -5.937837 56.311047 54 38 39
14.338288 -5.816921 56.315617 63 47 48
14.339252 -5.695906 56.319397 75 57 59
14.339921 -5.574760 56.322025 82 64 67
14.340197 -5.453454 56.323109 82 62 66
14.339966 -5.331954 56.322201 78 56 61
14.339112 -5.210233 56.318848 74 53 59
14.337522 -5.088264 56.312603 73 52 58
14.335077 -4.966026 56.303001 71 51 57
14.331670 -4.843504 56.289619 68 49 55
14.327198 -4.720689 56.272057 63 46 51
14.321568 -4.597579 56.249947 57 43 45
14.314709 -4.474178 56.223003 51 39 40
14.306565 -4.350504 56.191017 48 37 38
14.297103 -4.226578 56.153854 47 37 38
14.286312 -4.102431 56.111469 47 38 40
14.274213 -3.978101 56.063950 46 37 41
14.260855 -3.853637 56.011486 45 34 40
14.246316 -3.729089 55.954380 44 31 39
14.230707 -3.604517 55.893074 49 36 43
14.214162 -3.479980 55.828091 72 57 63
14.196837 -3.355538 55.760044 120 105 108
14.178906 -3.231252 55.689617 183 171 172
14.160551 -3.107176 55.617527 228 222 222
14.141954 -2.983360 55.544483 225 218 216
14.123290 -2.859846 55.471180 170 158 153
14.104719 -2.736665 55.398239 94 78 73
14.086372 -2.613841 55.326180 48 32 28
14.068355 -2.491386 55.255413 41 27 24
14.050731 -2.369302 55.186192 46 33 31
14.033533 -2.247585 55.118645 47 34 34
14.016753 -2.126222 55.052738 45 33 33
14.000351 -2.005198 54.988319 43 32 31
13.984273 -1.884495 54.925167 41 31 30
13.968435 -1.764094 54.862965 39 30 28
13.952757 -1.643981 54.801384 39 29 27
13.937160 -1.524142 54.740128 39 28 26
13.921578 -1.404569 54.678928 38 27 25
13.905970 -1.285257 54.617622 37 26 25
13.890317 -1.166206 54.556145 38 26 25
13.874637 -1.047417 54.494556 38 26 25
13.858971 -0.928895 54.433025 38 26 25
13.843390 -0.810644 54.371834 38 27 25
13.827993 -0.692665 54.311359 37 27 25
13.812879 -0.574959 54.251995 36 26 25
13.798162 -0.457522 54.194195 34 26 24
13.783951 -0.340347 54.138374 33 26 23
13.770338 -0.223422 54.084911 32 26 23
13.757401 -0.106732 54.034096 32 25 23
13.745185 0.009738 53.986118 32 25 23
13.733715 0.126009 53.941071 32 24 23
13.722985 0.242098 53.898926 32 24 23
13.712963 0.358025 53.859562 33 23 23
13.703595 0.473804 53.822769 34 22 22
13.694814 0.589450 53.788280 34 21 20
13.686540 0.704973 53.755783 32 19 17
13.678690 0.820381 53.724949 30 17 13
13.671187 0.935681 53.695480 30 17 11
13.663960 1.050874 53.667099 36 24 16
13.656953 1.165964 53.639572 41 31 23
13.650116 1.280951 53.612720 35 29 20
13.643418 1.395837 53.586414 29 24 16
13.636840 1.510623 53.560577 29 25 20
13.630371 1.625310 53.535172 31 27 24
13.624004 1.739901 53.510166 33 28 26
13.617743 1.854398 53.485573 38 29 30
13.611580 1.968803 53.461365 43 32 35
13.605513 2.083119 53.437538 51 37 40
13.599532 2.197346 53.414047 57 43 46
13.593623 2.311484 53.390839 64 46 49
13.587759 2.425530 53.367805 70 52 55
13.581911 2.539479 53.344841 79 60 63
13.576042 2.653326 53.321789 87 67 70
13.570110 2.767060 53.298489 86 65 69
13.564069 2.880671 53.274757 76 56 59
13.557869 2.994144 53.250408 67 48 51
13.551465 3.107465 53.225258 63 46 47
13.544809 3.220618 53.199112 58 43 45
13.537856 3.333586 53.171806 57 45 46
13.530563 3.446348 53.143162 63 53 54
13.522892 3.558888 53.113033 63 55 55
13.514810 3.671187 53.081287 48 41 41
13.506286 3.783224 53.047806 34 28 28
13.497296 3.894984 53.012501 31 25 26
13.487823 4.006447 52.975296 29 24 25
13.477851 4.117597 52.936127 27 23 23
13.467372 4.228419 52.894970 27 22 22
13.456380 4.338899 52.851799 27 22 22
13.444876 4.449023 52.806614 27 22 22
13.432861 4.558778 52.759426 27 21 21
13.420341 4.668155 52.710251 27 21 20
13.407326 4.777143 52.659130 26 21 20
13.393821 4.885732 52.606087 25 21 20
13.379840 4.993915 52.551174 25 21 20
13.365397 5.101685 52.494450 26 22 21
13.350505 5.209034 52.435955 28 23 23
13.335179 5.315959 52.375763 29 24 24
13.319435 5.422454 52.313927 29 25 25
13.303295 5.528518 52.250534 29 25 25
13.286779 5.634149 52.185665 29 24 24
13.269914 5.739349 52.119423 28 23 24
13.252736 5.844126 52.051956 28 23 24
13.235281 5.948488 51.983402 30 24 24
13.217596 6.052448 51.913940 32 24 25
13.199734 6.156026 51.843784 33 26 26
13.181748 6.259244 51.773140 33 26 26
13.163701 6.362127 51.702259 33 27 27
13.145656 6.464705 51.631382 34 28 27
13.127677 6.567012 51.560772 36 29 29
13.109832 6.669081 51.490681 37 30 30
13.092181 6.770949 51.421356 37 30 30
13.074780 6.872650 51.353008 37 30 30
13.057681 6.974216 51.285851 37 29 29
13.040923 7.075679 51.220032 38 29 30
13.024532 7.177061 51.155655 39 29 30
13.008527 7.278379 51.092789 39 29 30
12.992900 7.379643 51.031414 40 29 29
12.977638 7.480852 50.971470 41 30 30
12.962708 7.581996 50.912827 43 31 31
12.948054 7.683052 50.855278 45 33 32
12.933616 7.783989 50.798569 48 34 33
12.919311 7.884763 50.742382 49 35 34
12.905044 7.985319 50.686344 50 35 34
12.890717 8.085595 50.630074 51 35 34
12.876221 8.185521 50.573139 52 35 33
12.861450 8.285025 50.515125 54 36 34
12.846299 8.384030 50.455620 61 41 37
12.830669 8.482463 50.394230 69 47 42
12.814474 8.580252 50.330620 72 50 45
12.797641 8.677334 50.264507 73 50 45
12.780118 8.773658 50.195683 72 50 46
12.761870 8.869181 50.124016 74 51 50
12.742891 8.963881 50.049469 75 52 52
12.723188 9.057744 49.972088 71 50 50
12.702801 9.150781 49.892010 68 48 49
12.681781 9.243011 49.809452 71 51 52
12.660204 9.334474 49.724705 76 58 58
12.638159 9.425222 49.638119 80 63 63
12.615746 9.515321 49.550087 80 64 63
12.593076 9.604844 49.461048 75 61 57
12.570266 9.693874 49.371460 70 57 52
12.547429 9.782498 49.281769 71 58 52
12.524682 9.870806 49.192421 76 62 56
12.502134 9.958888 49.103867 79 65 58
12.479888 10.046829 49.016487 78 62 56
12.458035 10.134715 48.930660 76 59 54
12.436659 10.222623 48.846703 73 55 52
12.415832 10.310623 48.764900 71 52 51
12.395612 10.398782 48.685482 69 51 52
12.376042 10.487148 48.608620 72 53 57
12.357162 10.575773 48.534462 83 64 72
12.338993 10.664694 48.463104 102 83 93
12.321548 10.753939 48.394585 114 97 107
12.304824 10.843523 48.328899 110 95 104
12.288814 10.933459 48.266018 98 83 92
12.273493 11.023745 48.205845 88 74 82
12.258833 11.114368 48.148266 89 76 84
12.244793 11.205312 48.093121 99 86 95
12.231322 11.296543 48.040215 114 101 111
12.218364 11.388023 47.989315 129 114 126
12.205852 11.479704 47.940170 124 109 122
12.193709 11.571526 47.892483 104 89 102
12.181856 11.663416 47.845928 89 74 86
12.170201 11.755299 47.800152 87 72 83
12.158647 11.847080 47.754768 99 84 94
12.147087 11.938663 47.709370 113 99 107
12.135414 12.029937 47.663521 118 104 110
12.123510 12.120782 47.616764 109 96 101
12.111259 12.211075 47.568645 100 87 92
12.098538 12.300684 47.518684 107 95 100
14.474518 -9.347026 56.373383 22 17 17
14.470242 -9.222778 56.356728 23 18 17
14.466519 -9.098951 56.342228 24 18 17
14.463336 -8.975521 56.329830 23 18 16
14.460670 -8.852461 56.319450 23 19 17
14.458494 -8.729741 56.310974 24 19 17
14.456776 -8.607330 56.304279 26 20 18
14.455474 -8.485193 56.299210 28 22 20
14.454550 -8.363297 56.295612 30 24 23
14.453959 -8.241605 56.293304 31 26 24
14.453657 -8.120086 56.292133 32 27 26
14.453600 -7.998708 56.291912 33 28 27
14.453746 -7.877440 56.292480 34 28 28
14.454055 -7.756259 56.293682 34 29 28
14.454494 -7.635140 56.295391 34 29 28
14.455033 -7.514067 56.297497 34 29 29
14.455654 -7.393026 56.299911 34 29 29
14.456342 -7.272008 56.302589 34 29 28
14.457085 -7.151007 56.305485 33 28 28
14.457889 -7.030022 56.308613 33 28 27
14.458751 -6.909051 56.311970 33 27 27
14.459681 -6.788098 56.315594 34 27 26
14.460681 -6.667162 56.319489 35 27 26
14.461752 -6.546241 56.323662 37 28 26
14.462890 -6.425331 56.328091 38 28 27
14.464075 -6.304424 56.332710 41 30 29
14.465280 -6.183505 56.337399 44 31 31
14.466457 -6.062553 56.341988 46 33 33
14.467550 -5.941548 56.346241 52 37 37
14.468482 -5.820459 56.349873 61 45 46
14.469168 -5.699258 56.352543 72 55 57
14.469500 -5.577909 56.353832 79 61 64
14.469369 -5.456380 56.353325 78 59 63
14.468650 -5.334636 56.350525 73 54 58
14.467220 -5.212648 56.344955 69 50 54
14.464948 -5.090388 56.336109 66 47 51
14.461714 -4.967835 56.323513 62 45 49
14.457398 -4.844974 56.306702 60 44 48
14.451893 -4.721797 56.285263 57 43 45
14.445105 -4.598304 56.258827 53 41 41
14.436963 -4.474506 56.227116 49 38 38
14.427423 -4.350422 56.189957 48 37 38
14.416452 -4.226080 56.147236 50 41 42
14.404063 -4.101518 56.098980 52 44 46
14.390293 -3.976782 56.045353 52 43 48
14.375216 -3.851927 55.986633 46 37 44
14.358935 -3.727013 55.923225 45 33 43
14.341594 -3.602105 55.855682 63 49 58
14.323357 -3.477272 55.784657 105 89 96
14.304411 -3.352579 55.710869 156 139 144
14.284965 -3.228091 55.635132 195 182 183
14.265224 -3.103865 55.558250 206 198 196
14.245400 -2.979953 55.481041 181 169 166
14.225684 -2.856396 55.404259 126 109 106
14.206253 -2.733224 55.328579 71 54 50
14.187244 -2.610457 55.254547 43 28 24
14.168765 -2.488102 55.182575 41 27 25
14.150875 -2.366155 55.112900 43 30 29
14.133590 -2.244605 55.045582 41 30 30
14.116890 -2.123434 54.980537 40 30 30
14.100716 -2.002617 54.917545 38 29 29
14.084983 -1.882131 54.856270 37 28 27
14.069591 -1.761952 54.796322 37 28 26
14.054432 -1.642058 54.737289 36 27 25
14.039403 -1.522433 54.678753 37 26 25
14.024424 -1.403066 54.620415 37 25 25
14.009431 -1.283948 54.562019 36 25 24
13.994400 -1.165080 54.503483 37 24 24
13.979337 -1.046461 54.444817 37 25 24
13.964285 -0.928096 54.386196 37 25 24
13.949316 -0.809988 54.327892 37 26 25
13.934525 -0.692141 54.270287 37 26 24
13.920025 -0.574554 54.213818 35 26 24
13.905934 -0.457224 54.158936 34 26 23
13.892365 -0.340144 54.106087 33 26 23
13.879412 -0.223301 54.055641 33 26 23
13.867151 -0.106681 54.007889 32 25 23
13.855632 0.009734 53.963024 31 25 23
13.844867 0.125962 53.921101 30 24 23
13.834840 0.242023 53.882050 30 23 23
13.825510 0.357933 53.845711 32 23 23
13.816808 0.473707 53.811817 33 22 22
13.808648 0.589359 53.780041 34 21 20
13.800940 0.704897 53.750019 34 19 16
13.793584 0.820327 53.721371 33 16 11
13.786495 0.935651 53.693764 36 19 12
13.779594 1.050870 53.666885 54 38 29
13.772816 1.165984 53.640484 69 56 44
13.766116 1.280991 53.614395 54 45 34
13.759468 1.395891 53.588501 34 28 17
13.752857 1.510684 53.562756 30 26 18
13.746288 1.625371 53.537170 32 27 23
13.739767 1.739953 53.511772 33 28 25
13.733309 1.854434 53.486618 37 29 29
13.726924 1.968817 53.461754 42 31 33
13.720628 2.083107 53.437233 47 35 38
13.714424 2.197306 53.413067 54 39 43
13.708308 2.311415 53.389248 61 43 47
13.702264 2.425434 53.365707 68 49 53
13.696273 2.539362 53.342377 77 58 62
13.690301 2.653193 53.319118 85 66 68
13.684306 2.766919 53.295773 83 64 66
13.678246 2.880531 53.272167 72 54 56
13.672067 2.994014 53.248100 63 46 47
13.665718 3.107355 53.223373 58 43 44
13.659148 3.220538 53.197788 54 42 43
13.652301 3.333543 53.171120 54 43 43
13.645131 3.446351 53.143196 58 49 49
13.637593 3.558943 53.113838 58 51 50
13.629642 3.671297 53.082874 46 40 39
13.621246 3.783393 53.050171 34 28 28
13.612372 3.895212 53.015614 30 25 26
13.603003 4.006736 52.979122 30 24 25
13.593113 4.117945 52.940605 28 23 24
13.582694 4.228824 52.900028 27 22 22
13.571741 4.339356 52.857368 26 21 22
13.560255 4.449530 52.812634 27 21 22
13.548238 4.559332 52.765827 27 21 21
13.535694 4.668751 52.716976 26 21 21
13.522637 4.777778 52.666126 26 21 21
13.509079 4.886404 52.613319 25 21 20
13.495034 4.994622 52.558620 25 22 21
13.480516 5.102426 52.502079 26 23 21
13.465545 5.209810 52.443768 27 24 23
13.450139 5.316772 52.383766 28 25 24
13.434315 5.423305 52.322136 29 25 24
13.418093 5.529409 52.258961 29 25 24
13.401495 5.635083 52.194317 29 24 23
13.384551 5.740329 52.128326 28 23 23
13.367295 5.845155 52.061119 28 23 23
13.349763 5.949567 51.992836 30 24 24
13.331995 6.053579 51.923637 31 24 25
13.314047 6.157208 51.853737 33 25 26
13.295969 6.260475 51.783325 33 26 26
13.277821 6.363405 51.712646 34 27 27
13.259663 6.466026 51.641930 35 28 28
13.241559 6.568368 51.571419 37 30 30
13.223572 6.670465 51.501366 38 31 31
13.205760 6.772350 51.431995 39 31 31
13.188182 6.874058 51.363533 38 30 30
13.170887 6.975621 51.296173 37 29 30
13.153913 7.077066 51.230072 37 29 30
13.137291 7.178418 51.165329 38 29 29
13.121035 7.279694 51.102016 39 28 28
13.105145 7.380904 51.040134 39 28 28
13.089607 7.482047 50.979618 41 29 29
13.074390 7.583117 50.920353 43 31 30
13.059446 7.684091 50.862152 46 33 31
13.044714 7.784940 50.804775 49 35 33
13.030116 7.885623 50.747917 49 35 34
13.015562 7.986089 50.691238 50 35 34
13.000956 8.086277 50.634350 51 35 33
12.986194 8.186123 50.576859 52 35 33
12.971169 8.285552 50.518341 53 36 33
12.955783 8.384496 50.458420 58 39 35
12.939938 8.482879 50.396706 64 44 38
12.923546 8.580634 50.332867 67 47 41
12.906541 8.677702 50.266636 69 48 42
12.888866 8.774028 50.197800 68 48 43
12.870493 8.869575 50.126240 70 49 47
12.851406 8.964317 50.051907 70 50 49
12.831619 9.058244 49.974842 67 47 47
12.811166 9.151362 49.895184 65 46 47
12.790096 9.243691 49.813126 69 52 52
12.768486 9.335273 49.728958 76 60 60
12.746419 9.426153 49.643017 81 66 64
12.723997 9.516397 49.555691 80 66 62
12.701326 9.606076 49.467396 75 61 56
12.678519 9.695271 49.378571 70 57 50
12.655693 9.784067 49.289669 71 58 50
12.632956 9.872550 49.201115 77 64 54
12.610416 9.960808 49.113331 80 67 57
12.588177 10.048925 49.026714 77 63 54
12.566326 10.136984 48.941612 74 60 51
12.544946 10.225060 48.858345 73 57 51
12.524105 10.313220 48.777176 71 55 52
12.503861 10.401527 48.698338 70 52 52
12.484257 10.490031 48.621983 68 51 54
12.465326 10.578778 48.548252 73 56 63
12.447093 10.667805 48.477242 87 71 80
12.429564 10.757135 48.408970 100 84 94
12.412738 10.846786 48.343441 101 87 96
12.396605 10.936764 48.280605 93 80 89
12.381139 11.027066 48.220371 87 74 83
12.366310 11.117682 48.162621 88 75 84
12.352078 11.208590 48.107189 95 83 93
12.338391 11.299759 48.053886 108 95 106
12.325194 11.391150 48.002487 123 109 122
12.312419 11.482712 47.952732 128 113 127
12.299994 11.574390 47.904343 118 102 116
12.287837 11.666114 47.856995 102 86 99
12.275860 11.757806 47.810349 91 75 88
12.263968 11.849379 47.764030 91 76 87
12.252058 11.940735 47.717648 98 84 93
12.240025 12.031769 47.670780 104 90 97
12.227752 12.122363 47.622978 100 87 92
12.215127 12.212401 47.573814 94 82 86
12.202032 12.301752 47.522812 103 91 95
14.604895 -9.231100 56.407578 22 17 16
14.601039 -9.107100 56.392689 22 17 16
14.597727 -8.983498 56.379894 22 17 16
14.594935 -8.860268 56.369114 22 18 15
14.592636 -8.737377 56.360233 23 19 15
14.590795 -8.614797 56.353123 24 20 16
14.589372 -8.492490 56.347626 25 21 18
14.588329 -8.370425 56.343597 27 23 21
14.587620 -8.248567 56.340858 29 25 22
14.587200 -8.126881 56.339241 30 26 24
14.587029 -8.005339 56.338581 31 27 26
14.587066 -7.883911 56.338718 31 27 26
14.587268 -7.762572 56.339500 32 28 27
14.587605 -7.641300 56.340805 32 28 27
14.588052 -7.520078 56.342529 32 27 28
14.588586 -7.398893 56.344589 32 27 28
14.589192 -7.277736 56.346935 32 26 27
14.589864 -7.156600 56.349525 32 26 27
14.590597 -7.035483 56.352360 32 26 26
14.591396 -6.914385 56.355446 32 26 26
14.592266 -6.793306 56.358803 33 25 26
14.593201 -6.672244 56.362415 34 25 26
14.594205 -6.551196 56.366295 35 26 26
14.595261 -6.430154 56.370369 37 28 27
14.596347 -6.309108 56.374565 40 29 29
14.597425 -6.188041 56.378731 42 30 30
14.598444 -6.066931 56.382668 43 31 31
14.599335 -5.945751 56.386105 47 34 34
14.600013 -5.824472 56.388725 54 39 40
14.600377 -5.703060 56.390129 63 47 49
14.600313 -5.581477 56.389881 68 51 54
14.599698 -5.459690 56.387508 67 50 53
14.598397 -5.337661 56.382484 64 47 49
14.596272 -5.215360 56.374275 60 44 46
14.593185 -5.092759 56.362354 57 41 43
14.589005 -4.969837 56.346210 55 40 41
14.583608 -4.846580 56.325363 54 40 41
14.576881 -4.722982 56.299385 53 40 41
14.568732 -4.599047 56.267910 50 37 38
14.559095 -4.474791 56.230690 46 35 34
14.547929 -4.350237 56.187565 48 38 38
14.535224 -4.225422 56.138493 55 46 47
14.521005 -4.100391 56.083576 61 53 56
14.505332 -3.975199 56.023045 59 52 57
14.488310 -3.849909 55.957302 49 41 49
14.470077 -3.724590 55.886879 47 36 46
14.450806 -3.599317 55.812450 75 62 71
14.430697 -3.474164 55.734787 126 111 118
14.409978 -3.349202 55.654766 163 146 150
14.388885 -3.224503 55.573299 167 149 150
14.367660 -3.100126 55.491322 147 130 129
14.346534 -2.976122 55.409729 113 95 93
14.325723 -2.852534 55.329350 78 59 57
14.305415 -2.729388 55.250919 53 36 33
14.285761 -2.606699 55.175007 42 27 24
14.266857 -2.484469 55.101997 41 26 25
14.248762 -2.362687 55.032108 40 27 27
14.231478 -2.241334 54.965355 39 27 27
14.214964 -2.120384 54.901573 38 27 27
14.199137 -1.999805 54.840443 36 27 26
14.183887 -1.879567 54.781548 35 26 25
14.169087 -1.759639 54.724388 34 25 23
14.154601 -1.639993 54.668438 35 25 23
14.140305 -1.520609 54.613220 35 25 24
14.126092 -1.401471 54.558331 36 24 23
14.111888 -1.282571 54.503471 36 24 23
14.097652 -1.163904 54.448490 35 24 22
14.083386 -1.045473 54.393387 35 24 22
14.069126 -0.927279 54.338314 36 24 22
14.054949 -0.809327 54.283558 36 25 22
14.040950 -0.691621 54.229488 35 25 22
14.027249 -0.574160 54.176575 35 26 22
14.013968 -0.456940 54.125278 34 26 22
14.001221 -0.339955 54.076050 33 25 22
13.989111 -0.223192 54.029278 33 25 22
13.977708 -0.106636 53.985233 32 25 22
13.967053 0.009731 53.944084 30 25 22
13.957155 0.125927 53.905857 29 24 22
13.947985 0.241970 53.870438 29 23 22
13.939484 0.357879 53.837601 30 23 22
13.931565 0.473665 53.807022 32 22 22
13.924129 0.589340 53.778301 33 21 19
13.917064 0.704910 53.751011 35 18 15
13.910259 0.820378 53.724731 35 16 11
13.903613 0.935743 53.699062 45 25 17
13.897040 1.051003 53.673679 81 61 49
13.890472 1.166154 53.648312 107 91 76
13.883867 1.281192 53.622799 82 69 55
13.877202 1.396114 53.597054 43 34 21
13.870476 1.510919 53.571079 32 26 16
13.863706 1.625606 53.544930 33 27 21
13.856916 1.740178 53.518707 34 28 24
13.850140 1.854639 53.492535 38 29 28
13.843408 1.968994 53.466537 42 31 32
13.836754 2.083248 53.440838 49 35 37
13.830197 2.197406 53.415516 56 39 42
13.823750 2.311474 53.390614 61 42 47
13.817412 2.425454 53.366135 67 47 52
13.811170 2.539346 53.342026 76 56 61
13.804996 2.653147 53.318180 84 64 67
13.798854 2.766851 53.294460 80 63 64
13.792699 2.880450 53.270687 69 53 53
13.786477 2.993933 53.246655 59 44 44
13.780129 3.107283 53.222141 54 41 41
13.773602 3.220486 53.196926 52 41 40
13.766829 3.333521 53.170773 52 41 41
13.759757 3.446368 53.143456 54 44 44
13.752332 3.559005 53.114780 51 45 44
13.744502 3.671412 53.084538 43 37 36
13.736226 3.783564 53.052574 34 29 29
13.727468 3.895443 53.018753 31 26 27
13.718199 4.007026 52.982948 30 24 25
13.708394 4.118294 52.945084 28 22 24
13.698040 4.229228 52.905090 27 21 22
13.687131 4.339815 52.862957 26 21 21
13.675666 4.450039 52.818680 26 22 21
13.663647 4.559887 52.772259 27 22 21
13.651084 4.669349 52.723736 27 22 21
13.637990 4.778416 52.673164 26 22 21
13.624377 4.887079 52.620586 26 22 21
13.610267 4.995332 52.566086 26 23 21
13.595675 5.103170 52.509735 27 23 21
13.580623 5.210588 52.451595 28 24 22
13.565130 5.317583 52.391762 28 25 22
13.549219 5.424152 52.330311 29 25 22
13.532910 5.530294 52.267323 29 24 22
13.516228 5.636008 52.202888 28 23 22
13.499196 5.741297 52.137108 28 22 22
13.481853 5.846166 52.070126 28 23 22
13.464232 5.950624 52.002068 30 23 23
13.446376 6.054682 51.933102 31 24 24
13.428331 6.158357 51.863411 32 25 25
13.410150 6.261668 51.793190 33 26 26
13.391890 6.364638 51.722664 34 27 27
13.373608 6.467294 51.652058 35 28 29
13.355366 6.569665 51.581604 37 30 31
13.337224 6.671782 51.511532 39 31 32
13.319240 6.773678 51.442074 39 31 32
13.301471 6.875385 51.373444 38 30 31
13.283964 6.976934 51.305832 37 29 31
13.266762 7.078353 51.239391 38 29 30
13.249891 7.179667 51.174232 38 29 29
13.233369 7.280891 51.110420 39 28 28
13.217199 7.382037 51.047970 40 29 28
13.201369 7.483106 50.986832 42 30 29
13.185851 7.584091 50.926895 44 31 30
13.170602 7.684974 50.868000 47 33 31
13.155560 7.785726 50.809902 49 35 33
13.140653 7.886309 50.752331 50 36 35
13.125798 7.986675 50.694954 51 36 35
13.110897 8.086765 50.637405 51 36 35
13.095855 8.186520 50.579308 52 36 34
13.080565 8.285867 50.520256 52 36 33
13.064933 8.384738 50.459881 56 38 34
13.048860 8.483064 50.397800 61 42 37
13.032265 8.580778 50.333710 65 45 40
13.015078 8.677821 50.267330 67 48 42
12.997245 8.774142 50.198456 67 48 43
12.978736 8.869704 50.126968 67 48 46
12.959536 8.964479 50.052811 66 48 47
12.939657 9.058460 49.976036 63 45 46
12.919130 9.151650 49.896755 62 46 47
12.898005 9.244071 49.815166 67 51 52
12.876353 9.335757 49.731541 74 59 59
12.854259 9.426759 49.646210 78 65 63
12.831819 9.517136 49.559536 78 65 61
12.809139 9.606959 49.471947 74 61 55
12.786330 9.696307 49.383850 70 57 49
12.763502 9.785261 49.295681 71 58 50
12.740767 9.873906 49.207874 79 66 56
12.718231 9.962329 49.120834 84 71 61
12.695991 10.050611 49.034939 79 66 55
12.674135 10.138830 48.950527 73 59 50
12.652747 10.227063 48.867920 73 59 51
12.631890 10.315374 48.787369 73 58 53
12.611624 10.403825 48.709095 71 56 54
12.591986 10.492461 48.633244 67 52 54
12.573008 10.581326 48.559948 67 52 57
12.554714 10.670457 48.489292 75 60 69
12.537108 10.759874 48.421299 87 72 82
12.520189 10.849592 48.355949 91 77 87
12.503942 10.939616 48.293198 87 74 83
12.488341 11.029943 48.232948 84 72 81
12.473356 11.120556 48.175068 86 74 84
12.458942 11.211435 48.119400 92 80 91
12.445051 11.302547 48.065746 99 88 99
12.431623 11.393854 48.013885 109 98 109
12.418594 11.485306 47.963566 123 109 122
12.405890 11.576845 47.914501 127 112 126
12.393433 11.668403 47.866386 118 103 116
12.381134 11.759906 47.818886 103 87 100
12.368902 11.851267 47.771645 93 77 88
12.356637 11.942392 47.724274 90 75 84
12.344234 12.033179 47.676369 91 77 85
12.331581 12.123515 47.627502 91 77 83
12.318570 12.213283 47.577248 89 76 80
14.738913 -9.238887 56.455158 21 16 16
14.735000 -9.114768 56.440170 21 16 15
14.731639 -8.991051 56.427299 21 17 14
14.728807 -8.867708 56.416454 21 18 14
14.726477 -8.744709 56.407524 21 18 13
14.724607 -8.622019 56.400364 22 19 14
14.723163 -8.499605 56.394833 23 20 16
14.722099 -8.377432 56.390759 25 22 18
14.721374 -8.255466 56.387981 26 23 20
14.720942 -8.133674 56.386326 28 24 21
14.720761 -8.012025 56.385635 29 25 23
14.720788 -7.890491 56.385738 29 26 24
14.720986 -7.769047 56.386497 30 26 25
14.721322 -7.647671 56.387783 30 26 26
14.721771 -7.526348 56.389503 30 25 26
14.722311 -7.405062 56.391571 30 25 26
14.722927 -7.283806 56.393929 30 24 26
14.723610 -7.162571 56.396545 30 24 26
14.724358 -7.041357 56.399410 30 24 25
14.725166 -6.920159 56.402508 31 24 25
14.726041 -6.798978 56.405857 31 24 25
14.726972 -6.677808 56.409424 32 24 25
14.727956 -6.556646 56.413189 33 25 25
14.728969 -6.435481 56.417068 35 26 26
14.729983 -6.314300 56.420956 37 28 28
14.730953 -6.193084 56.424675 39 29 29
14.731815 -6.071806 56.427975 40 30 29
14.732490 -5.950439 56.430561 43 31 31
14.732883 -5.828949 56.432064 47 34 35
14.732882 -5.707300 56.432060 52 39 39
14.732358 -5.585453 56.430054 55 41 42
14.731177 -5.463371 56.425533 56 41 42
14.729192 -5.341017 56.417927 54 40 40
14.726253 -5.218357 56.406670 52 38 39
14.722214 -5.095366 56.391197 50 36 37
14.716931 -4.972020 56.370964 49 35 36
14.710279 -4.848311 56.345486 48 35 36
14.702143 -4.724235 56.314316 48 35 36
14.692429 -4.599799 56.277107 45 34 33
14.681080 -4.475025 56.233643 44 34 32
14.668069 -4.349946 56.183804 48 39 38
14.653400 -4.224604 56.127617 57 48 49
14.637122 -4.099052 56.065269 64 56 59
14.619326 -3.973358 55.997101 63 55 60
14.600146 -3.847593 55.923637 52 42 50
14.579755 -3.721835 55.845531 48 36 45
14.558368 -3.596168 55.763611 73 57 67
14.536224 -3.470673 55.678795 113 95 103
14.513588 -3.345431 55.592087 132 112 117
14.490734 -3.220514 55.504547 122 100 102
14.467932 -3.095985 55.417210 97 75 75
14.445444 -2.971898 55.331074 71 50 49
14.423507 -2.848291 55.247047 53 34 32
14.402321 -2.725188 55.165897 44 27 25
14.382038 -2.602598 55.088207 41 26 24
14.362761 -2.480518 55.014370 39 25 24
14.344533 -2.358927 54.944550 38 25 25
14.327341 -2.237800 54.878700 37 25 25
14.311121 -2.117101 54.816570 36 25 25
14.295768 -1.996790 54.757763 35 25 24
14.281138 -1.876828 54.701729 33 24 23
14.267079 -1.757178 54.647873 33 24 22
14.253427 -1.637807 54.595581 34 25 23
14.240026 -1.518688 54.544254 35 25 24
14.226754 -1.399804 54.493416 34 24 23
14.213515 -1.281141 54.442707 35 23 22
14.200255 -1.162695 54.391918 35 24 22
14.186970 -1.044466 54.341026 35 24 22
14.173692 -0.926457 54.290165 34 24 21
14.160496 -0.808672 54.239624 34 24 21
14.147485 -0.691114 54.189785 34 25 22
14.134779 -0.573784 54.141117 34 25 22
14.122505 -0.456677 54.094109 33 25 22
14.110782 -0.339786 54.049202 32 25 22
14.099709 -0.223099 54.006786 32 25 22
14.089353 -0.106600 53.967121 31 25 22
14.079751 0.009728 53.930340 29 24 21
14.070896 0.125905 53.896423 28 24 21
14.062745 0.241947 53.865204 27 24 22
14.055220 0.357870 53.836380 28 23 22
14.048216 0.473687 53.809551 30 22 21
14.041610 0.589405 53.784248 31 21 18
14.035270 0.705028 53.759964 32 18 14
14.029071 0.820553 53.736221 36 17 10
14.022896 0.935978 53.712570 57 37 25
14.016654 1.051296 53.688660 111 90 74
14.010271 1.166500 53.664207 146 128 109
14.003708 1.281581 53.639072 108 92 75
13.996951 1.396535 53.613190 51 39 25
13.990013 1.511357 53.586617 33 24 13
13.982929 1.626048 53.559483 35 27 19
13.975742 1.740609 53.531956 37 28 24
13.968512 1.855046 53.504257 41 30 29
13.961289 1.969364 53.476593 46 32 34
13.954131 2.083573 53.449177 52 36 39
13.947079 2.197680 53.422161 59 40 44
13.940164 2.311693 53.395672 63 43 47
13.933398 2.425619 53.369762 68 48 51
13.926781 2.539459 53.344414 76 57 59
13.920293 2.653215 53.319561 83 64 65
13.913902 2.766883 53.295082 80 63 63
13.907563 2.880457 53.270802 69 53 52
13.901219 2.993924 53.246506 56 43 41
13.894810 3.107272 53.221954 50 38 37
13.888269 3.220484 53.196903 49 38 36
13.881528 3.333540 53.171078 49 39 38
13.874519 3.446418 53.144234 48 40 39
13.867183 3.559096 53.116131 46 39 38
13.859455 3.671549 53.086533 40 35 34
13.851286 3.783755 53.055241 34 30 29
13.842633 3.895689 53.022099 31 27 27
13.833461 4.007329 52.986965 30 24 25
13.823739 4.118655 52.949726 28 22 23
13.813450 4.229646 52.910316 27 22 21
13.802585 4.340286 52.868698 26 21 20
13.791142 4.450561 52.824867 26 22 21
13.779125 4.560456 52.778843 26 22 21
13.766542 4.669961 52.730644 27 23 22
13.753410 4.779068 52.680344 27 23 21
13.739743 4.887766 52.627995 27 23 21
13.725564 4.996054 52.573685 26 24 21
13.710895 5.103924 52.517494 27 24 21
13.695758 5.211374 52.459515 28 25 22
13.680177 5.318402 52.399834 28 25 21
13.664172 5.425004 52.338531 28 25 21
13.647769 5.531181 52.275703 28 23 20
13.630992 5.636931 52.211437 28 23 20
13.613866 5.742258 52.145840 27 22 20
13.596426 5.847167 52.079041 28 22 21
13.578708 5.951665 52.011169 29 23 23
13.560748 6.055764 51.942379 30 23 24
13.542596 6.159478 51.872852 31 24 25
13.524302 6.262827 51.802776 32 25 26
13.505916 6.365830 51.732353 33 26 27
13.487496 6.468514 51.661800 34 27 28
13.469101 6.570905 51.591339 36 29 29
13.450789 6.673034 51.521198 38 30 31
13.432619 6.774932 51.451603 39 31 32
13.414643 6.876629 51.382748 38 30 31
13.396911 6.978157 51.314827 37 29 30
13.379461 7.079542 51.247990 38 29 30
13.362328 7.180807 51.182358 39 29 30
13.345524 7.281971 51.117996 40 30 29
13.329059 7.383043 51.054928 42 31 29
13.312922 7.484029 50.993118 44 31 30
13.297086 7.584920 50.932461 46 32 30
13.281514 7.685702 50.872818 48 33 31
13.266149 7.786348 50.813961 50 35 34
13.250920 7.886822 50.755634 51 36 35
13.235748 7.987079 50.697517 52 36 36
13.220543 8.087065 50.639278 52 36 35
13.205208 8.186719 50.580540 52 37 34
13.189643 8.285975 50.520920 52 36 34
13.173754 8.384768 50.460056 55 38 35
13.157444 8.483027 50.397587 60 41 38
13.140637 8.580693 50.333210 65 45 41
13.123260 8.677704 50.266647 68 49 44
13.105262 8.774012 50.197708 68 50 45
13.086610 8.869579 50.126266 67 49 47
13.067289 8.964380 50.052261 64 47 47
13.047311 9.058406 49.975739 61 45 45
13.026703 9.151659 49.896801 60 44 45
13.005515 9.244160 49.815643 63 49 50
12.983814 9.335941 49.732525 69 55 55
12.961683 9.427052 49.647755 73 60 58
12.939217 9.517550 49.561699 73 60 57
12.916517 9.607505 49.474754 71 59 53
12.893695 9.696991 49.387333 70 56 49
12.870858 9.786091 49.299866 72 58 50
12.848115 9.874885 49.212749 81 67 58
12.825572 9.963458 49.126400 91 77 68
12.803325 10.051892 49.041187 86 73 63
12.781460 10.140262 48.957436 77 64 54
12.760057 10.228641 48.875458 76 62 55
12.739182 10.317093 48.795498 77 63 57
