ply
format ascii 1.0
element vertex 1208
property float x
property float y
property float z
property uchar red
property uchar green
property uchar blue
end_header
-0.602676 -7.508124 57.176418 122 123 138
-0.602192 -7.378943 57.130520 127 130 144
-0.601727 -7.250191 57.086441 130 133 146
-0.601282 -7.121858 57.044197 161 165 176
-0.600856 -6.993929 57.003769 213 216 224
-0.600448 -6.866392 56.965137 241 243 248
-0.600060 -6.739227 56.928242 237 239 244
-0.599689 -6.612417 56.893040 222 224 230
-0.599334 -6.485942 56.859436 194 195 204
-0.598996 -6.359780 56.827339 167 168 179
-0.598672 -6.233908 56.796623 179 179 192
-0.598362 -6.108305 56.767174 207 206 220
-0.598063 -5.982948 56.738853 206 205 219
-0.597775 -5.857812 56.711498 195 193 205
-0.597495 -5.732878 56.684967 201 199 211
-0.597223 -5.608122 56.659084 218 215 226
-0.596955 -5.483525 56.633678 220 217 226
-0.596690 -5.359066 56.608589 194 192 202
-0.596427 -5.234728 56.583626 151 148 164
-0.596164 -5.110495 56.558636 125 120 141
-0.595898 -4.986352 56.533455 144 139 159
-0.595629 -4.862288 56.507927 190 184 200
-0.595355 -4.738295 56.481926 212 204 217
-0.595075 -4.614366 56.455330 197 187 201
-0.594787 -4.490495 56.428040 197 184 196
-0.594491 -4.366683 56.399982 212 198 202
-0.594187 -4.242931 56.371120 202 186 181
-0.593874 -4.119243 56.341427 190 174 160
-0.593553 -3.995625 56.310913 196 180 159
-0.593223 -3.872085 56.279629 188 175 150
-0.592886 -3.748634 56.247643 165 155 129
-0.592542 -3.625282 56.215061 125 119 96
-0.592194 -3.502040 56.182007 90 83 67
-0.591842 -3.378923 56.148643 92 85 76
-0.591489 -3.255942 56.115143 119 110 106
-0.591137 -3.133108 56.081707 139 129 128
-0.590787 -3.010434 56.048550 139 127 127
-0.590443 -2.887929 56.015903 120 106 107
-0.590107 -2.765602 55.984005 104 87 89
-0.589781 -2.643459 55.953091 98 79 81
-0.589468 -2.521505 55.923416 94 75 76
-0.589171 -2.399742 55.895214 90 71 71
-0.588892 -2.278171 55.868717 86 67 65
-0.588633 -2.156787 55.844139 80 62 59
-0.588396 -2.035587 55.821671 74 58 54
-0.588183 -1.914562 55.801487 67 52 47
-0.587996 -1.793701 55.783710 58 43 39
-0.587835 -1.672992 55.768452 53 38 34
-0.587701 -1.552421 55.755756 53 38 35
-0.587594 -1.431971 55.745659 56 41 38
-0.587515 -1.311624 55.738121 59 43 41
-0.587462 -1.191364 55.733082 58 42 41
-0.587434 -1.071171 55.730434 56 39 39
-0.587430 -0.951029 55.730045 55 37 39
-0.587448 -0.830919 55.731743 56 37 39
-0.587486 -0.710826 55.735332 56 37 39
-0.587541 -0.590735 55.740593 56 38 39
-0.587612 -0.470634 55.747322 56 40 39
-0.587696 -0.350511 55.755264 57 43 40
-0.587790 -0.230359 55.764187 57 45 42
-0.587892 -0.110169 55.773861 56 46 43
-0.587999 0.010063 55.784042 49 41 39
-0.588109 0.130339 55.794498 40 32 31
-0.588220 0.250660 55.804996 34 28 27
-0.588328 0.371025 55.815300 31 25 25
-0.588433 0.491431 55.825184 29 24 24
-0.588530 0.611872 55.834396 28 22 23
-0.588618 0.732342 55.842716 26 21 22
-0.588693 0.852829 55.849892 25 20 21
-0.588754 0.973324 55.855679 25 20 20
-0.588798 1.093811 55.859833 25 20 21
-0.588822 1.214276 55.862118 26 20 21
-0.588824 1.334700 55.862305 26 21 22
-0.588802 1.455065 55.860180 26 21 22
-0.588753 1.575350 55.855549 26 21 22
-0.588676 1.695534 55.848236 26 21 21
-0.588569 1.815595 55.838116 26 21 22
-0.588432 1.935511 55.825089 27 20 22
-0.588263 2.055262 55.809086 27 20 21
-0.588063 2.174827 55.790089 28 20 21
-0.587831 2.294188 55.768124 29 20 21
-0.587569 2.413328 55.743252 30 20 21
-0.587277 2.532234 55.715569 31 21 21
-0.586957 2.650892 55.685200 31 21 21
-0.586610 2.769294 55.652313 30 21 21
-0.586239 2.887434 55.617100 29 21 21
-0.585846 3.005306 55.579754 29 21 21
-0.585432 3.122910 55.540497 29 20 22
-0.585000 3.240246 55.499546 29 20 22
-0.584553 3.357316 55.457127 29 20 22
-0.584093 3.474126 55.413467 29 20 21
-0.583622 3.590680 55.368771 30 20 21
-0.583142 3.706986 55.323254 30 19 20
-0.582656 3.823053 55.277103 29 19 18
-0.582164 3.938888 55.230499 28 19 17
-0.581670 4.054501 55.183601 27 20 18
-0.581174 4.169900 55.136562 27 19 18
-0.580678 4.285096 55.089504 27 18 18
-0.580183 4.400097 55.042553 27 18 19
-0.579690 4.514912 54.995800 28 18 19
-0.579201 4.629549 54.949322 28 18 19
-0.578714 4.744016 54.903202 29 17 19
-0.578233 4.858320 54.857491 29 17 18
-0.577756 4.972469 54.812233 29 17 17
-0.577284 5.086468 54.767475 28 18 16
-0.576817 5.200325 54.723236 28 18 16
-0.576357 5.314041 54.679523 28 18 16
-0.575902 5.427624 54.636360 28 19 17
-0.575452 5.541075 54.593731 27 20 18
-0.575009 5.654396 54.551617 27 20 18
-0.574570 5.767586 54.509987 27 20 19
-0.574136 5.880645 54.468803 27 20 19
-0.573705 5.993566 54.427982 27 20 19
-0.573278 6.106341 54.387436 26 20 20
-0.572852 6.218961 54.347050 26 20 20
-0.572427 6.331410 54.306694 26 21 20
-0.572000 6.443672 54.266224 26 21 20
-0.571571 6.555723 54.225456 26 21 20
-0.571136 6.667539 54.184208 25 21 21
-0.570694 6.779095 54.142303 25 21 22
-0.570243 6.890361 54.099541 26 21 22
-0.569782 7.001308 54.055744 26 22 23
-0.569307 7.111909 54.010746 27 22 24
-0.568819 7.222137 53.964409 28 22 24
-0.568315 7.331969 53.916630 28 23 24
-0.567796 7.441385 53.867332 28 22 24
-0.567260 7.550373 53.816498 29 22 24
-0.566708 7.658926 53.764149 30 22 23
-0.566141 7.767043 53.710350 30 22 23
-0.565560 7.874733 53.655216 31 22 24
-0.564966 7.982012 53.598923 32 23 24
-0.564363 8.088901 53.541649 34 23 25
-0.563751 8.195430 53.483643 34 23 25
-0.563135 8.301633 53.425148 34 23 24
-0.562516 8.407552 53.366447 33 23 24
-0.561898 8.513229 53.307823 33 23 24
-0.561284 8.618712 53.249554 33 23 24
-0.560676 8.724046 53.191906 34 24 24
-0.560078 8.829277 53.135143 34 24 25
-0.559491 8.934450 53.079487 35 26 26
-0.558919 9.039609 53.025150 38 27 29
-0.558362 9.144790 52.972301 41 30 31
-0.557822 9.250026 52.921074 44 32 34
-0.557300 9.355345 52.871559 47 33 35
-0.556796 9.460768 52.823818 47 33 34
-0.556312 9.566310 52.777874 46 31 32
-0.555847 9.671983 52.733719 45 30 30
-0.555400 9.777791 52.691319 44 29 28
-0.554971 9.883731 52.650597 44 29 28
-0.554558 9.989799 52.611469 45 29 28
-0.554161 10.095984 52.573837 45 30 29
-0.553779 10.202276 52.537586 47 31 30
-0.553411 10.308661 52.502598 48 32 32
-0.553054 10.415119 52.468750 49 33 33
-0.552708 10.521635 52.435909 50 34 33
-0.552371 10.628189 52.403961 50 34 33
-0.552042 10.734758 52.372757 49 34 33
-0.551720 10.841322 52.342175 47 32 32
-0.551402 10.947853 52.312065 47 31 32
-0.551088 11.054319 52.282265 49 32 33
-0.550775 11.160687 52.252605 50 33 34
-0.550462 11.266911 52.222866 52 36 36
-0.550146 11.372945 52.192852 54 38 39
-0.549824 11.478737 52.162323 57 41 42
-0.549494 11.584225 52.131020 60 43 45
-0.549153 11.689341 52.098656 61 44 45
-0.548797 11.794013 52.064953 60 42 43
-0.548425 11.898162 52.029594 59 39 40
-0.548031 12.001707 51.992279 57 37 37
-0.547614 12.104563 51.952698 56 35 35
-0.547170 12.206644 51.910549 56 35 35
-0.546696 12.307867 51.865551 57 36 36
-0.546188 12.408147 51.817425 58 38 37
-0.545645 12.507394 51.765881 63 44 43
-0.545063 12.605522 51.710655 70 53 51
-0.544439 12.702438 51.651474 77 61 58
-0.543771 12.798048 51.588051 81 66 62
-0.543054 12.892247 51.520088 80 66 62
-0.542287 12.984923 51.447250 78 64 60
-0.541464 13.075955 51.369186 77 62 60
-0.540582 13.165215 51.285530 80 65 65
-0.539637 13.252565 51.195892 91 75 76
-0.538625 13.337866 51.099880 107 89 93
-0.537542 13.420979 50.997128 122 104 110
-0.536384 13.501773 50.887306 124 107 114
-0.535150 13.580136 50.770172 104 88 95
-0.533836 13.655985 50.645576 83 69 75
-0.532445 13.729271 50.513531 75 62 66
-0.530976 13.799989 50.374191 76 65 67
-0.529434 13.868187 50.227901 85 76 75
-0.527824 13.933976 50.075222 102 94 93
-0.526156 13.997527 49.916904 124 116 116
-0.524437 14.059063 49.753872 141 134 136
-0.522681 14.118876 49.587257 143 136 140
-0.501210 -12.359232 59.774796 84 88 94
-0.500543 -12.214101 59.695248 97 104 112
-0.499851 -12.068708 59.612713 120 128 141
-0.499137 -11.923149 59.527565 134 141 158
-0.498405 -11.777534 59.440285 143 149 169
-0.497660 -11.631985 59.351421 122 125 147
-0.496906 -11.486622 59.261543 80 83 103
-0.496149 -11.341566 59.171242 80 83 98
-0.495393 -11.196927 59.081089 114 117 128
-0.494643 -11.052804 58.991611 144 148 158
-0.493902 -10.909276 58.903271 151 156 164
-0.493174 -10.766409 58.816456 139 145 154
-0.492461 -10.624244 58.731453 136 143 152
-0.491766 -10.482809 58.648483 139 146 157
-0.491088 -10.342111 58.567665 127 133 146
-0.490429 -10.202144 58.489037 109 113 128
-0.489788 -10.062891 58.412582 109 111 127
-0.489164 -9.924325 58.338234 120 119 136
-0.488557 -9.786412 58.265869 124 121 139
-0.487966 -9.649118 58.195351 131 127 144
-0.487389 -9.512409 58.126545 155 150 165
-0.486825 -9.376249 58.059307 176 171 184
-0.486274 -9.240610 57.993519 174 170 180
-0.485733 -9.105467 57.929077 165 162 170
-0.485204 -8.970798 57.865906 172 169 177
-0.484684 -8.836590 57.803967 193 190 200
-0.484175 -8.702831 57.743240 213 211 223
-0.483676 -8.569516 57.683735 208 207 221
-0.483188 -8.436644 57.625500 179 178 194
-0.482711 -8.304212 57.568573 165 165 181
-0.482245 -8.172218 57.513020 175 174 190
-0.481791 -8.040669 57.458920 160 160 175
-0.481350 -7.909565 57.406353 126 126 140
-0.480923 -7.778903 57.355385 118 120 133
-0.480510 -7.648683 57.306072 143 145 158
-0.480111 -7.518901 57.258480 167 169 182
-0.479726 -7.389551 57.212646 165 169 182
-0.479357 -7.260624 57.168591 154 159 171
-0.479002 -7.132111 57.126320 170 176 189
-0.478663 -7.003997 57.085827 209 215 225
-0.478338 -6.876268 57.047073 223 229 238
-0.478027 -6.748907 57.010014 210 216 226
-0.477730 -6.621895 56.974583 195 200 212
-0.477446 -6.495211 56.940697 178 182 195
-0.477174 -6.368835 56.908249 166 169 183
-0.476913 -6.242744 56.877125 179 181 197
-0.476662 -6.116916 56.847202 206 207 223
-0.476420 -5.991328 56.818329 223 224 236
-0.476185 -5.865959 56.790371 229 229 237
-0.475957 -5.740787 56.763165 221 221 230
-0.475734 -5.615790 56.736549 200 199 212
-0.475515 -5.490950 56.710369 169 167 181
-0.475297 -5.366248 56.684452 136 134 149
-0.475081 -5.241667 56.658627 128 126 143
-0.474864 -5.117191 56.632751 155 151 169
-0.474645 -4.992810 56.606670 194 189 205
-0.474423 -4.868511 56.580235 223 218 229
-0.474198 -4.744286 56.553337 219 213 222
-0.473968 -4.620131 56.525860 190 180 192
-0.473732 -4.496040 56.497715 183 169 179
-0.473490 -4.372015 56.468849 192 176 179
-0.473241 -4.248056 56.439209 189 173 169
-0.472986 -4.124168 56.408794 193 181 170
-0.472725 -4.000359 56.377621 196 186 170
-0.472457 -3.876633 56.345734 159 147 128
-0.472184 -3.753003 56.313202 112 101 81
-0.471907 -3.629478 56.280144 95 86 67
-0.471627 -3.506071 56.246674 100 92 77
-0.471344 -3.382793 56.212959 119 111 101
-0.471061 -3.259657 56.179165 141 132 125
-0.470778 -3.136672 56.145493 146 134 131
-0.470499 -3.013850 56.112152 129 115 114
-0.470224 -2.891201 56.079372 109 92 93
-0.469956 -2.768733 56.047379 99 80 81
-0.469696 -2.646451 56.016418 96 76 76
-0.469447 -2.524359 55.986721 93 72 73
-0.469210 -2.402460 55.958527 89 69 69
-0.468989 -2.280753 55.932053 84 64 64
-0.468783 -2.159235 55.907509 76 58 57
-0.468595 -2.037899 55.885094 69 53 50
-0.468426 -1.916739 55.864952 62 47 43
-0.468277 -1.795743 55.847225 58 42 39
-0.468150 -1.674899 55.832001 56 41 37
-0.468043 -1.554191 55.819340 56 41 37
-0.467959 -1.433604 55.809254 60 44 41
-0.467896 -1.313121 55.801723 64 48 46
-0.467853 -1.192723 55.796673 62 45 44
-0.467831 -1.072393 55.793999 54 37 37
-0.467827 -0.952113 55.793564 52 34 35
-0.467841 -0.831865 55.795208 54 35 37
-0.467871 -0.711634 55.798729 55 36 38
-0.467914 -0.591406 55.803921 56 37 38
-0.467970 -0.471168 55.810555 56 40 39
-0.468036 -0.350908 55.818398 57 42 41
-0.468110 -0.230619 55.827229 58 45 43
-0.468190 -0.110293 55.836788 58 47 45
-0.468274 0.010074 55.846859 53 43 41
-0.468361 0.130485 55.857189 43 35 33
-0.468448 0.250941 55.867550 35 28 27
-0.468533 0.371440 55.877712 31 26 25
-0.468614 0.491979 55.887432 30 24 25
-0.468690 0.612553 55.896473 29 23 24
-0.468758 0.733153 55.904598 28 23 23
-0.468817 0.853771 55.911564 27 22 22
-0.468863 0.974394 55.917118 26 21 21
-0.468896 1.095009 55.921028 25 20 21
-0.468913 1.215600 55.923046 25 20 21
-0.468912 1.336149 55.922947 25 20 21
-0.468892 1.456637 55.920525 25 21 21
-0.468850 1.577043 55.915581 25 21 21
-0.468786 1.697347 55.907959 26 20 21
-0.468699 1.817526 55.897526 26 20 21
-0.468587 1.937560 55.884190 27 20 21
-0.468450 2.057427 55.867886 28 19 21
-0.468289 2.177108 55.848610 28 19 21
-0.468103 2.296585 55.826393 29 19 21
-0.467892 2.415841 55.801296 30 20 22
-0.467658 2.534863 55.773426 31 20 21
-0.467403 2.653640 55.742920 30 20 21
-0.467126 2.772162 55.709953 29 20 21
-0.466831 2.890424 55.674702 28 20 20
-0.466518 3.008423 55.637394 28 19 20
-0.466189 3.126156 55.598225 28 19 21
-0.465847 3.243626 55.557446 28 19 22
-0.465494 3.360836 55.515266 28 19 22
-0.465130 3.477790 55.471912 29 19 21
-0.464759 3.594496 55.427608 29 19 21
-0.464381 3.710960 55.382549 29 19 19
-0.463998 3.827191 55.336937 29 19 18
-0.463613 3.943198 55.290936 28 19 17
-0.463225 4.058991 55.244720 27 19 17
-0.462837 4.174578 55.198410 27 19 18
-0.462449 4.289969 55.152153 27 19 19
-0.462062 4.405172 55.106045 27 18 19
-0.461678 4.520196 55.060173 27 17 19
-0.461296 4.635050 55.014622 28 17 19
-0.460917 4.749739 54.969440 29 17 19
-0.460542 4.864270 54.924679 29 17 18
-0.460170 4.978650 54.880371 29 18 17
-0.459803 5.092884 54.836548 28 18 17
-0.459439 5.206975 54.793224 28 18 17
-0.459080 5.320929 54.750393 28 18 17
-0.458725 5.434746 54.708050 28 19 17
-0.458374 5.548430 54.666195 27 19 17
-0.458027 5.661980 54.624786 27 20 18
-0.457683 5.775395 54.583797 26 19 18
-0.457343 5.888673 54.543163 26 19 18
-0.457004 6.001806 54.502811 26 19 19
-0.456668 6.114786 54.462646 26 20 19
-0.456331 6.227602 54.422562 25 20 19
-0.455995 6.340240 54.382423 25 20 19
-0.455657 6.452679 54.342079 25 20 19
-0.455315 6.564900 54.301365 25 20 20
-0.454969 6.676877 54.260098 24 20 21
-0.454617 6.788586 54.218109 24 21 21
-0.454257 6.899999 54.175209 25 21 22
-0.453889 7.011086 54.131229 26 22 23
-0.453510 7.121820 54.086010 27 23 24
-0.453119 7.232177 54.039425 28 23 24
-0.452716 7.342134 53.991383 28 23 24
-0.452300 7.451674 53.941811 28 22 23
-0.451872 7.560783 53.890697 29 22 23
-0.451431 7.669457 53.838078 30 22 23
-0.450977 7.777696 53.784016 31 23 24
-0.450513 7.885509 53.728642 32 23 24
-0.450039 7.992912 53.672115 33 24 25
-0.449557 8.099928 53.614643 34 24 25
-0.449069 8.206585 53.556442 34 24 25
-0.448577 8.312921 53.497791 34 24 25
-0.448084 8.418972 53.438934 34 24 24
-0.447591 8.524783 53.380169 34 24 24
-0.447101 8.630400 53.321766 34 24 25
-0.446617 8.735868 53.263985 34 24 25
-0.446140 8.841230 53.207081 34 25 26
-0.445672 8.946535 53.151279 34 26 27
-0.445215 9.051819 53.096771 36 26 28
-0.444770 9.157121 53.043728 38 28 29
-0.444339 9.262471 52.992275 41 30 32
-0.443921 9.367898 52.942505 44 31 33
-0.443519 9.473422 52.894474 45 32 33
-0.443131 9.579059 52.848209 45 32 32
-0.442757 9.684815 52.803684 45 31 30
-0.442398 9.790700 52.760883 44 30 29
-0.442053 9.896709 52.719730 44 30 29
-0.441721 10.002839 52.680145 44 29 29
-0.441402 10.109080 52.642033 44 30 29
-0.441094 10.215424 52.605289 45 31 30
-0.440796 10.321856 52.569801 46 32 31
-0.440508 10.428361 52.535458 46 33 32
-0.440229 10.534925 52.502144 47 34 32
-0.439957 10.641530 52.469742 47 34 32
-0.439692 10.748158 52.438126 46 33 32
-0.439433 10.854786 52.407177 45 31 31
-0.439177 10.961390 52.376751 45 31 31
-0.438925 11.067944 52.346703 46 31 31
-0.438675 11.174415 52.316875 47 32 33
-0.438425 11.280754 52.287037 49 34 35
-0.438173 11.386922 52.256996 53 38 38
-0.437918 11.492866 52.226528 56 41 42
-0.437656 11.598523 52.195366 60 44 46
-0.437387 11.703827 52.163219 62 45 46
-0.437107 11.808703 52.129803 62 43 44
-0.436813 11.913073 52.094795 60 40 41
-0.436504 12.016852 52.057896 58 37 37
-0.436176 12.119955 52.018764 56 35 35
-0.435826 12.222292 51.977097 56 35 35
-0.435453 12.323777 51.932598 57 36 36
-0.435054 12.424320 51.884964 58 38 38
-0.434626 12.523830 51.833904 63 44 44
-0.434166 12.622213 51.779125 71 53 52
-0.433674 12.719377 51.720348 78 61 59
-0.433145 12.815219 51.657269 79 63 60
-0.432577 12.909633 51.589561 76 60 57
-0.431968 13.002501 51.516895 72 56 54
-0.431314 13.093700 51.438896 72 55 54
-0.430612 13.183098 51.355194 76 59 59
-0.429859 13.270554 51.265381 86 69 69
-0.429051 13.355925 51.169067 101 82 84
-0.428186 13.439073 51.065880 115 96 100
-0.427260 13.519865 50.955494 117 99 105
-0.426272 13.598191 50.837669 99 83 90
-0.425221 13.673968 50.712269 81 66 72
-0.424106 13.747147 50.579304 74 61 65
-0.422929 13.817728 50.438946 75 64 66
-0.421693 13.885763 50.291557 84 75 75
-0.420403 13.951366 50.137714 101 92 92
-0.419066 14.014711 49.978188 120 112 112
-0.417688 14.076032 49.813927 134 126 127
-0.416281 14.135620 49.646069 136 129 132
-0.373336 -12.520982 59.932255 92 93 97
-0.372865 -12.376137 59.856556 85 88 93
-0.372372 -12.230914 59.777420 94 99 107
-0.371859 -12.085393 59.695122 121 127 139
-0.371329 -11.939672 59.610058 146 152 167
-0.370785 -11.793870 59.522728 153 157 175
-0.370231 -11.648108 59.433693 123 125 144
-0.369669 -11.502519 59.343552 84 86 103
-0.369105 -11.357223 59.252926 78 81 94
-0.368541 -11.212337 59.162399 99 101 111
-0.367981 -11.067964 59.072521 119 122 131
-0.367428 -10.924186 58.983776 127 131 138
-0.366885 -10.781074 58.896568 125 130 138
-0.366353 -10.638670 58.811203 129 135 144
-0.365834 -10.497004 58.727901 134 140 151
-0.365329 -10.356086 58.646801 123 127 140
-0.364838 -10.215910 58.567955 107 109 124
-0.364360 -10.076458 58.491341 107 107 123
-0.363897 -9.937705 58.416889 115 113 131
-0.363446 -9.799616 58.344479 117 112 131
-0.363006 -9.662157 58.273987 123 117 135
-0.362578 -9.525290 58.205254 149 142 158
-0.362160 -9.388980 58.138138 171 165 179
-0.361751 -9.253197 58.072514 166 160 172
-0.361351 -9.117914 58.008270 153 148 158
-0.360959 -8.983109 57.945320 164 160 169
-0.360575 -8.848767 57.883621 196 192 202
-0.360198 -8.714874 57.823147 218 215 226
-0.359829 -8.581426 57.763901 204 201 214
-0.359468 -8.448416 57.705906 163 161 175
-0.359115 -8.315845 57.649220 136 135 149
-0.358770 -8.183710 57.593891 136 136 149
-0.358434 -8.052014 57.539993 140 139 152
-0.358108 -7.920760 57.487602 143 144 156
-0.357791 -7.789943 57.436783 161 163 174
-0.357485 -7.659563 57.387585 187 189 200
-0.357189 -7.529616 57.340084 205 208 218
-0.356904 -7.400096 57.294292 200 204 215
-0.356629 -7.270995 57.250244 179 185 197
-0.356366 -7.142301 57.207943 178 186 198
-0.356113 -7.014002 57.167366 196 204 216
-0.355871 -6.886081 57.128479 196 204 216
-0.355639 -6.758522 57.091232 190 197 210
-0.355417 -6.631306 57.055561 197 202 215
-0.355204 -6.504414 57.021370 199 204 216
-0.354999 -6.377821 56.988548 192 197 211
-0.354802 -6.251510 56.956993 190 194 211
-0.354613 -6.125455 56.926563 202 205 222
-0.354430 -5.999637 56.897125 220 222 235
-0.354251 -5.874033 56.868534 220 222 231
-0.354078 -5.748622 56.840637 192 193 205
-0.353907 -5.623385 56.813286 155 155 171
-0.353739 -5.498303 56.786312 135 135 152
-0.353573 -5.373359 56.759563 136 136 151
-0.353406 -5.248536 56.732883 161 161 173
-0.353240 -5.123823 56.706139 200 199 210
-0.353072 -4.999205 56.679173 219 215 226
-0.352902 -4.874674 56.651863 210 205 215
-0.352729 -4.750223 56.624100 191 184 194
-0.352552 -4.625845 56.595783 179 170 180
-0.352372 -4.501541 56.566845 189 179 186
-0.352188 -4.377308 56.537220 194 183 186
-0.351999 -4.253150 56.506878 177 164 164
-0.351805 -4.129068 56.475811 165 154 149
-0.351607 -4.005072 56.444054 158 147 139
-0.351405 -3.881168 56.411640 131 120 109
-0.351200 -3.757365 56.378662 105 94 81
-0.350991 -3.633674 56.345203 104 94 81
-0.350781 -3.510107 56.311409 119 110 99
-0.350569 -3.386673 56.277428 137 126 119
-0.350357 -3.263385 56.243423 147 133 130
-0.350147 -3.140253 56.209595 137 121 120
-0.349938 -3.017287 56.176144 117 99 99
-0.349734 -2.894497 56.143295 103 83 84
-0.349534 -2.771889 56.111275 98 77 78
-0.349341 -2.649470 56.080315 97 74 76
-0.349157 -2.527241 56.050640 96 73 75
-0.348981 -2.405206 56.022491 93 72 74
-0.348817 -2.283364 55.996067 84 65 66
-0.348664 -2.161710 55.971588 75 57 58
-0.348525 -2.040238 55.949230 69 52 52
-0.348400 -1.918942 55.929153 65 48 47
-0.348290 -1.797809 55.911476 62 45 43
-0.348195 -1.676827 55.896294 60 44 41
-0.348116 -1.555982 55.883663 58 42 39
-0.348054 -1.435257 55.873589 58 42 39
-0.348007 -1.314635 55.866055 63 46 44
-0.347975 -1.194098 55.860989 61 44 42
-0.347958 -1.073629 55.858280 54 37 37
-0.347955 -0.953209 55.857807 52 35 35
-0.347965 -0.832822 55.859390 52 34 35
-0.347987 -0.712452 55.862843 53 35 36
-0.348019 -0.592085 55.867954 55 37 38
-0.348059 -0.471708 55.874508 56 39 39
-0.348108 -0.351310 55.882263 57 41 40
-0.348162 -0.230882 55.890987 58 44 43
-0.348221 -0.110419 55.900448 59 47 45
-0.348283 0.010085 55.910400 55 44 42
-0.348347 0.130633 55.920609 47 38 36
-0.348410 0.251225 55.930832 38 30 29
-0.348473 0.371860 55.940845 32 26 25
-0.348532 0.492533 55.950401 30 24 25
-0.348587 0.613241 55.959259 29 23 24
-0.348637 0.733974 55.967178 28 23 23
-0.348679 0.854723 55.973915 28 22 23
-0.348712 0.975476 55.979221 27 21 22
-0.348734 1.096220 55.982864 26 20 22
-0.348745 1.216938 55.984585 26 20 21
-0.348743 1.337612 55.984184 25 20 21
-0.348725 1.458223 55.981434 25 20 20
-0.348693 1.578752 55.976158 25 20 20
-0.348643 1.699175 55.968189 25 20 20
-0.348576 1.819474 55.957417 26 20 20
-0.348491 1.939625 55.943741 26 19 20
-0.348387 2.059609 55.927120 28 19 20
-0.348265 2.179406 55.907555 28 19 20
-0.348125 2.298999 55.885059 29 19 20
-0.347967 2.418371 55.859730 30 20 21
-0.347792 2.537510 55.831661 31 20 22
-0.347602 2.656406 55.801014 31 20 22
-0.347396 2.775048 55.767952 29 20 21
-0.347176 2.893434 55.732674 28 19 20
-0.346944 3.011559 55.695389 27 18 20
-0.346700 3.129423 55.656330 27 19 20
-0.346447 3.247028 55.615715 28 19 20
-0.346186 3.364378 55.573784 28 20 21
-0.345918 3.481479 55.530758 28 19 21
-0.345645 3.598337 55.486847 29 19 20
-0.345367 3.714961 55.442261 29 19 19
-0.345086 3.831359 55.397198 28 19 18
-0.344803 3.947540 55.351814 27 19 17
-0.344520 4.063514 55.306274 26 19 17
-0.344236 4.179290 55.260719 26 19 17
-0.343953 4.294878 55.215267 27 19 19
-0.343671 4.410285 55.170006 27 18 19
-0.343391 4.525520 55.125023 27 18 19
-0.343112 4.640590 55.080379 28 17 19
-0.342837 4.755502 55.036133 28 17 18
-0.342564 4.870260 54.992310 28 17 17
-0.342294 4.984871 54.948944 28 18 17
-0.342026 5.099337 54.906036 28 19 17
-0.341762 5.213663 54.863590 28 18 17
-0.341501 5.327850 54.821606 28 19 17
-0.341242 5.441900 54.780064 27 19 17
-0.340986 5.555812 54.738934 26 19 17
-0.340732 5.669588 54.698185 26 19 17
-0.340480 5.783223 54.657772 26 19 18
-0.340230 5.896713 54.617638 26 19 18
-0.339981 6.010052 54.577694 26 19 19
-0.339733 6.123230 54.537849 25 19 19
-0.339485 6.236235 54.498001 25 19 19
-0.339236 6.349051 54.458004 25 19 18
-0.338985 6.461661 54.417725 24 19 18
-0.338731 6.574043 54.376991 24 19 19
-0.338473 6.686172 54.335636 24 20 20
-0.338211 6.798026 54.293499 24 21 21
-0.337942 6.909575 54.250397 25 21 22
-0.337667 7.020792 54.206169 26 22 22
-0.337383 7.131651 54.160675 27 23 23
-0.337091 7.242129 54.113792 28 23 23
-0.336790 7.352204 54.065434 28 23 23
-0.336479 7.461860 54.015549 28 22 23
-0.336159 7.571085 53.964127 29 22 23
-0.335829 7.679876 53.911213 30 22 22
-0.335491 7.788233 53.856880 31 23 23
-0.335144 7.896166 53.801254 32 23 24
-0.334791 8.003692 53.744503 33 24 25
-0.334432 8.110835 53.686836 34 25 25
-0.334068 8.217622 53.628468 34 25 25
-0.333702 8.324090 53.569668 34 25 25
-0.333334 8.430277 53.510696 34 24 24
-0.332968 8.536226 53.451824 34 24 25
-0.332603 8.641983 53.393330 34 24 25
-0.332243 8.747590 53.335464 34 25 25
-0.331888 8.853092 53.278465 33 25 25
-0.331540 8.958531 53.222553 34 25 25
-0.331199 9.063949 53.167923 35 25 26
-0.330868 9.169378 53.114731 36 26 27
-0.330546 9.274850 53.063095 38 28 29
-0.330235 9.380390 53.013100 41 30 30
-0.329934 9.486019 52.964809 42 31 31
-0.329644 9.591750 52.918228 44 32 31
-0.329364 9.697595 52.873356 44 31 31
-0.329095 9.803554 52.830151 44 31 31
-0.328836 9.909631 52.788563 43 31 30
-0.328587 10.015819 52.748501 43 30 30
-0.328346 10.122110 52.709885 43 30 29
-0.328114 10.228498 52.672615 43 31 30
-0.327889 10.334970 52.636593 43 31 31
-0.327672 10.441513 52.601719 43 32 31
-0.327461 10.548115 52.567879 43 32 31
-0.327256 10.654759 52.534969 43 32 31
-0.327056 10.761430 52.502884 43 31 31
-0.326861 10.868110 52.471504 43 30 30
-0.326669 10.974774 52.440704 43 30 30
-0.326480 11.081400 52.410347 44 30 30
-0.326293 11.187957 52.380276 46 31 32
-0.326106 11.294398 52.350273 48 33 34
-0.325918 11.400685 52.320160 51 37 37
-0.325728 11.506766 52.289696 56 41 41
-0.325535 11.612579 52.258617 60 45 45
-0.325336 11.718058 52.226646 63 46 47
-0.325129 11.823126 52.193470 63 44 46
-0.324913 11.927704 52.158779 61 41 42
-0.324685 12.031709 52.122250 58 37 38
-0.324444 12.135049 52.083546 56 35 35
-0.324188 12.237634 52.042339 56 34 35
-0.323913 12.339375 51.998329 56 36 36
-0.323620 12.440177 51.951183 58 39 39
-0.323305 12.539947 51.900608 63 44 45
-0.322966 12.638587 51.846298 70 53 53
-0.322603 12.735999 51.787941 76 59 58
-0.322212 12.832079 51.725227 76 58 57
-0.321792 12.926712 51.657818 72 54 53
-0.321341 13.019781 51.585361 68 50 49
-0.320856 13.111157 51.507481 68 49 49
-0.320334 13.200705 51.423782 73 53 54
-0.319774 13.288280 51.333858 83 62 64
-0.319173 13.373738 51.237312 95 74 76
-0.318528 13.456938 51.133762 105 84 88
-0.317837 13.537747 51.022892 109 89 95
-0.317099 13.616056 50.904457 96 78 85
-0.316314 13.691781 50.778332 79 63 70
-0.315480 13.764874 50.644524 73 59 64
-0.314600 13.835340 50.503231 75 64 66
-0.313676 13.903231 50.354824 84 75 76
-0.312710 13.968667 50.199890 99 91 91
-0.311710 14.031826 50.039219 115 107 107
-0.310679 14.092948 49.873791 126 119 119
-0.309626 14.152327 49.704742 129 121 123
-0.244476 -12.538059 60.013992 94 94 99
-0.244170 -12.393174 59.938957 88 91 96
-0.243849 -12.247871 59.860298 93 97 103
-0.243515 -12.102233 59.778301 114 118 127
-0.243170 -11.956363 59.693386 142 145 158
-0.242814 -11.810382 59.606064 152 155 169
-0.242451 -11.664419 59.516914 131 132 147
-0.242083 -11.518609 59.426567 103 103 118
-0.241712 -11.373080 59.335655 90 91 103
-0.241342 -11.227951 59.244789 91 91 101
-0.240974 -11.083329 59.154533 97 97 106
-0.240611 -10.939302 59.065392 100 102 109
-0.240254 -10.795940 58.977787 103 106 112
-0.239905 -10.653294 58.892040 111 114 121
-0.239564 -10.511390 58.808384 116 118 127
-0.239233 -10.370240 58.726959 107 108 119
-0.238910 -10.229844 58.647839 97 98 111
-0.238597 -10.090180 58.570995 105 104 118
-0.238293 -9.951226 58.496368 118 114 131
-0.237998 -9.812946 58.423840 121 115 133
-0.237710 -9.675304 58.353279 124 117 135
-0.237430 -9.538264 58.284531 142 134 151
-0.237157 -9.401789 58.217449 159 151 166
-0.236890 -9.265846 58.151901 157 149 162
-0.236629 -9.130410 58.087765 149 142 154
-0.236373 -8.995456 58.024960 164 158 169
-0.236122 -8.860967 57.963425 201 196 205
-0.235877 -8.726930 57.903130 218 213 222
-0.235636 -8.593335 57.844063 185 180 192
-0.235401 -8.460180 57.786266 131 128 139
-0.235170 -8.327462 57.729763 103 101 112
-0.234946 -8.195180 57.674614 111 110 120
-0.234727 -8.063334 57.620880 139 138 149
-0.234514 -7.931923 57.568630 172 171 181
-0.234307 -7.800949 57.517929 196 196 205
-0.234107 -7.670406 57.468830 211 212 220
-0.233914 -7.540293 57.421391 222 224 232
-0.233728 -7.410603 57.375637 216 221 229
-0.233548 -7.281325 57.331581 193 199 209
-0.233376 -7.152450 57.289230 181 187 200
-0.233210 -7.023963 57.248554 181 189 202
-0.233051 -6.895850 57.209522 175 182 197
-0.232899 -6.768092 57.172077 181 187 202
-0.232752 -6.640672 57.136143 207 211 225
-0.232612 -6.513568 57.101627 220 224 237
-0.232476 -6.386760 57.068420 213 218 232
-0.232346 -6.260226 57.036407 197 203 220
-0.232220 -6.133945 57.005466 185 190 208
-0.232098 -6.007895 56.975445 181 186 204
-0.231979 -5.882056 56.946209 169 173 190
-0.231862 -5.756407 56.917618 142 147 164
-0.231748 -5.630930 56.889511 129 134 151
-0.231634 -5.505608 56.861755 151 153 171
-0.231522 -5.380423 56.834183 186 188 202
-0.231410 -5.255362 56.806664 209 212 221
-0.231298 -5.130412 56.779060 209 212 218
-0.231184 -5.005562 56.751251 185 183 192
-0.231070 -4.880804 56.723106 161 156 167
-0.230953 -4.756131 56.694534 165 159 168
-0.230835 -4.631539 56.665440 191 184 192
-0.230714 -4.507026 56.635769 212 206 211
-0.230590 -4.382592 56.605461 196 189 193
-0.230464 -4.258239 56.574490 148 138 141
-0.230335 -4.133971 56.542866 117 105 107
-0.230204 -4.009795 56.510612 118 106 107
-0.230070 -3.885718 56.477772 125 114 112
-0.229934 -3.761748 56.444427 127 116 112
-0.229797 -3.637897 56.410679 130 119 114
-0.229658 -3.514173 56.376648 139 128 123
-0.229519 -3.390589 56.342491 147 134 130
-0.229380 -3.267153 56.308357 143 127 126
-0.229242 -3.143877 56.274460 125 106 106
-0.229106 -3.020770 56.240978 106 86 86
-0.228972 -2.897840 56.208126 97 75 76
-0.228841 -2.775094 56.176136 95 72 73
-0.228716 -2.652536 56.145222 98 75 76
-0.228595 -2.530171 56.115608 105 83 84
-0.228481 -2.407999 56.087521 106 86 87
-0.228373 -2.286018 56.061172 92 73 75
-0.228274 -2.164227 56.036766 77 58 61
-0.228183 -2.042617 56.014465 72 55 57
-0.228101 -1.921182 55.994438 69 52 52
-0.228029 -1.799909 55.976795 64 46 46
-0.227968 -1.678787 55.961636 61 43 42
-0.227916 -1.557801 55.949013 58 40 39
-0.227875 -1.436935 55.938931 56 39 37
-0.227844 -1.316172 55.931374 56 39 38
-0.227824 -1.195494 55.926266 55 38 37
-0.227812 -1.074882 55.923508 53 36 35
-0.227810 -0.954321 55.922966 52 35 35
-0.227816 -0.833793 55.924484 52 34 35
-0.227830 -0.713281 55.927856 52 35 35
-0.227851 -0.592773 55.932884 53 36 36
-0.227877 -0.472255 55.939342 55 38 37
-0.227908 -0.351717 55.947006 57 40 39
-0.227943 -0.231149 55.955627 58 43 42
-0.227981 -0.110546 55.964977 58 45 44
-0.228021 0.010097 55.974815 56 45 43
-0.228062 0.130783 55.984898 49 40 38
-0.228104 0.251513 55.994984 40 32 31
-0.228144 0.372285 56.004841 33 26 26
-0.228182 0.493095 56.014225 30 24 24
-0.228217 0.613938 56.022888 29 23 24
-0.228249 0.734805 56.030590 28 22 23
-0.228275 0.855688 56.037086 28 22 23
-0.228296 0.976573 56.042126 28 21 22
-0.228309 1.097446 56.045467 27 21 22
-0.228315 1.218292 56.046883 26 20 22
-0.228312 1.339092 56.046146 25 19 21
-0.228299 1.459828 56.043049 25 19 21
-0.228276 1.580479 56.037411 25 19 21
-0.228242 1.701024 56.029083 25 19 21
-0.228197 1.821442 56.017948 26 19 21
-0.228140 1.941711 56.003914 27 19 21
-0.228071 2.061812 55.986954 28 18 21
-0.227990 2.181726 55.967068 28 18 21
-0.227897 2.301435 55.944290 29 19 20
-0.227793 2.420924 55.918705 29 20 21
-0.227678 2.540182 55.890434 31 21 23
-0.227552 2.659196 55.859634 31 21 23
-0.227417 2.777961 55.826469 30 20 21
-0.227273 2.896470 55.791157 28 19 19
-0.227121 3.014723 55.753910 27 18 19
-0.226963 3.132719 55.714947 27 18 19
-0.226798 3.250460 55.674507 27 19 19
-0.226628 3.367953 55.632824 28 19 20
-0.226454 3.485201 55.590126 28 19 20
-0.226277 3.602213 55.546616 28 19 19
-0.226097 3.718998 55.502514 27 18 18
-0.225916 3.835564 55.458000 26 19 17
-0.225734 3.951921 55.413246 25 19 17
-0.225551 4.068078 55.368397 25 19 16
-0.225369 4.184045 55.323593 26 18 17
-0.225187 4.299830 55.278934 26 18 17
-0.225006 4.415443 55.234528 26 18 19
-0.224826 4.530890 55.190426 27 18 18
-0.224648 4.646177 55.146694 27 18 18
-0.224471 4.761312 55.103371 27 17 17
-0.224297 4.876297 55.060471 27 17 16
-0.224124 4.991137 55.018017 27 18 16
-0.223953 5.105835 54.976002 27 18 17
-0.223783 5.220393 54.934418 27 19 18
-0.223615 5.334811 54.893234 27 19 18
-0.223449 5.449090 54.852440 26 19 18
-0.223284 5.563229 54.812000 26 19 18
-0.223121 5.677225 54.771866 25 18 18
-0.222959 5.791074 54.731979 25 18 18
-0.222797 5.904772 54.692280 26 19 19
-0.222636 6.018310 54.652687 26 19 19
-0.222474 6.131678 54.613098 25 19 19
-0.222313 6.244864 54.573414 25 19 19
-0.222150 6.357852 54.533493 25 19 19
-0.221986 6.470623 54.493202 24 19 18
-0.221820 6.583157 54.452377 24 19 18
-0.221650 6.695431 54.410873 24 20 19
-0.221478 6.807419 54.368519 24 21 20
-0.221301 6.919096 54.325150 25 21 21
-0.221120 7.030435 54.280624 26 22 22
-0.220933 7.141411 54.234791 27 22 22
-0.220741 7.252002 54.187557 28 22 22
-0.220542 7.362187 54.138847 28 23 22
-0.220338 7.471953 54.088615 28 22 22
-0.220127 7.581289 54.036858 28 22 21
-0.219910 7.690191 53.983627 29 22 21
-0.219688 7.798663 53.929008 30 22 21
-0.219460 7.906714 53.873127 31 23 22
-0.219228 8.014362 53.816154 33 25 24
-0.218992 8.121632 53.758301 34 25 24
-0.218754 8.228551 53.699791 34 25 24
-0.218514 8.335155 53.640877 34 26 24
-0.218273 8.441483 53.581818 34 25 24
-0.218033 8.547574 53.522877 33 25 25
-0.217795 8.653475 53.464333 33 25 25
-0.217559 8.759229 53.406425 32 24 25
-0.217326 8.864876 53.349380 33 24 24
-0.217098 8.970459 53.293415 33 24 24
-0.216875 9.076015 53.238708 34 24 24
-0.216658 9.181580 53.185410 35 25 25
-0.216447 9.287179 53.133636 37 27 27
-0.216243 9.392839 53.083462 38 28 28
-0.216045 9.498578 53.034931 40 30 30
-0.215854 9.604410 52.988071 42 31 31
-0.215670 9.710343 52.942867 43 32 31
-0.215493 9.816381 52.899277 44 32 32
-0.215322 9.922526 52.857258 43 32 32
-0.215156 10.028772 52.816723 43 31 31
-0.214997 10.135113 52.777592 43 30 30
-0.214843 10.241542 52.739788 43 30 30
-0.214694 10.348048 52.703205 42 31 31
-0.214550 10.454623 52.667763 42 31 30
-0.214409 10.561254 52.633358 41 30 30
-0.214273 10.667929 52.599903 40 29 30
-0.214140 10.774633 52.567299 40 29 29
-0.214011 10.881352 52.535442 41 29 29
-0.213883 10.988067 52.504219 42 30 30
-0.213758 11.094753 52.473499 43 30 30
-0.213635 11.201382 52.443130 44 31 32
-0.213511 11.307913 52.412914 47 33 34
-0.213388 11.414305 52.382664 50 36 36
-0.213264 11.520508 52.352139 54 41 40
-0.213137 11.626463 52.321095 60 44 44
-0.213008 11.732101 52.289238 64 47 47
-0.212873 11.837349 52.256260 65 46 48
-0.212733 11.942124 52.221836 63 43 44
-0.212586 12.046341 52.185638 59 38 39
-0.212430 12.149908 52.147320 56 35 36
-0.212263 12.252733 52.106556 54 34 34
-0.212086 12.354722 52.062996 55 36 36
-0.211896 12.455779 52.016338 57 38 39
-0.211692 12.555804 51.966240 61 43 43
-0.211473 12.654700 51.912395 67 50 51
-0.211237 12.752360 51.854473 73 55 55
-0.210983 12.848679 51.792145 71 53 53
-0.210709 12.943538 51.725056 67 48 48
-0.210415 13.036816 51.652851 64 44 45
-0.210099 13.128377 51.575127 65 44 45
-0.209758 13.218085 51.491486 70 48 49
-0.209391 13.305794 51.401516 79 56 58
-0.208997 13.391356 51.304810 89 66 69
-0.208574 13.474627 51.200977 98 76 80
-0.208121 13.555474 51.089703 102 81 87
-0.207637 13.633787 50.970745 93 73 80
-0.207120 13.709481 50.843975 78 61 68
-0.206572 13.782514 50.709427 73 58 64
-0.205993 13.852886 50.567284 77 65 69
-0.205385 13.920659 50.417946 86 76 79
-0.204749 13.985951 50.262005 98 90 92
-0.204091 14.048947 50.100277 110 103 104
-0.203412 14.109890 49.933746 118 112 112
-0.202719 14.169078 49.763577 121 115 116
-0.115264 -12.555280 60.096420 96 97 102
-0.115121 -12.410366 60.022106 96 98 102
-0.114971 -12.264995 59.943985 97 99 103
-0.114815 -12.119250 59.862358 107 110 115
-0.114652 -11.973241 59.777653 126 127 136
-0.114485 -11.827092 59.690399 141 141 152
-0.114314 -11.680937 59.601196 141 141 152
-0.114140 -11.534915 59.510693 129 128 140
-0.113965 -11.389159 59.419540 113 111 121
-0.113791 -11.243792 59.328373 99 97 105
-0.113617 -11.098924 59.237766 92 90 97
-0.113445 -10.954647 59.148247 90 88 94
-0.113276 -10.811034 59.060242 88 87 92
-0.113111 -10.668139 58.974102 90 89 95
-0.112950 -10.525989 58.890064 92 91 98
-0.112793 -10.384602 58.808289 86 85 93
-0.112641 -10.243972 58.728836 83 81 92
-0.112493 -10.104086 58.651711 98 95 108
-0.112349 -9.964915 58.576839 117 112 127
-0.112210 -9.826429 58.504120 124 118 134
-0.112074 -9.688590 58.433411 126 119 136
-0.111942 -9.551360 58.364559 138 130 146
-0.111813 -9.414704 58.297424 153 143 159
-0.111688 -9.278587 58.231861 157 148 163
-0.111565 -9.142982 58.167751 155 146 160
-0.111444 -9.007864 58.105000 166 158 170
-0.111326 -8.873216 58.043549 193 185 196
-0.111211 -8.739021 57.983360 195 188 199
-0.111098 -8.605272 57.924419 150 144 154
-0.110987 -8.471963 57.866745 103 97 107
-0.110879 -8.339090 57.810371 94 89 99
-0.110774 -8.206654 57.755356 113 109 118
-0.110671 -8.074650 57.701744 139 136 145
-0.110571 -7.943081 57.649609 166 163 171
-0.110474 -7.811944 57.599003 187 185 192
-0.110380 -7.681238 57.549988 206 205 211
-0.110289 -7.550956 57.502590 221 222 227
-0.110201 -7.421092 57.456852 216 219 225
-0.110117 -7.291637 57.412777 191 195 203
-0.110035 -7.162579 57.370361 171 175 186
-0.109957 -7.033904 57.329582 168 173 185
-0.109882 -6.905596 57.290386 169 173 188
-0.109810 -6.777639 57.252724 178 183 198
-0.109740 -6.650013 57.216515 201 204 219
-0.109673 -6.522698 57.181660 215 218 233
-0.109609 -6.395673 57.148056 216 220 236
-0.109547 -6.268916 57.115578 198 203 220
-0.109486 -6.142407 57.084103 162 169 187
-0.109427 -6.016125 57.053493 136 144 163
-0.109370 -5.890051 57.023617 132 141 159
-0.109314 -5.764165 56.994324 140 150 167
-0.109259 -5.638450 56.965485 157 166 183
-0.109204 -5.512888 56.936943 183 191 207
-0.109149 -5.387466 56.908581 206 212 227
-0.109095 -5.262170 56.880253 202 208 219
-0.109041 -5.136988 56.851841 172 176 185
-0.108986 -5.011910 56.823223 146 147 156
-0.108930 -4.886930 56.794304 154 153 161
-0.108874 -4.762041 56.764980 186 184 189
-0.108817 -4.637239 56.735188 210 205 210
-0.108759 -4.512525 56.704861 207 200 205
-0.108700 -4.387896 56.673962 169 162 167
-0.108639 -4.263355 56.642464 121 112 118
-0.108578 -4.138907 56.610382 105 94 101
-0.108515 -4.014558 56.577736 122 111 118
-0.108451 -3.890313 56.544567 136 125 130
-0.108387 -3.766183 56.510975 134 123 126
-0.108322 -3.642176 56.477032 137 124 125
-0.108256 -3.518301 56.442871 146 131 131
-0.108191 -3.394569 56.408630 146 130 129
-0.108125 -3.270989 56.374474 137 118 118
-0.108060 -3.147571 56.340576 119 97 98
-0.107996 -3.024323 56.307133 101 77 79
-0.107933 -2.901254 56.274349 94 69 71
-0.107872 -2.778368 56.242432 97 72 74
-0.107813 -2.655672 56.211601 106 83 85
-0.107756 -2.533168 56.182072 116 94 96
-0.107702 -2.410856 56.154076 111 92 94
-0.107652 -2.288735 56.127800 91 72 76
-0.107605 -2.166802 56.103447 79 60 64
-0.107563 -2.045050 56.081188 79 60 64
-0.107524 -1.923472 56.061184 72 54 56
-0.107490 -1.802056 56.043545 61 43 45
-0.107461 -1.680789 56.028374 58 41 40
-0.107437 -1.559659 56.015709 56 39 38
-0.107418 -1.438647 56.005577 54 37 36
-0.107403 -1.317739 55.997955 53 36 35
-0.107393 -1.196915 55.992767 52 35 35
-0.107388 -1.076159 55.989918 51 34 34
-0.107386 -0.955453 55.989288 51 34 34
-0.107389 -0.834780 55.990700 51 34 33
-0.107395 -0.714124 55.993965 51 34 33
-0.107405 -0.593472 55.998886 52 35 34
-0.107417 -0.472811 56.005241 54 36 35
-0.107431 -0.352130 56.012794 56 39 38
-0.107448 -0.231421 56.021309 57 41 40
-0.107465 -0.110676 56.030544 57 43 43
-0.107484 0.010109 56.040257 56 44 43
-0.107503 0.130936 56.050217 51 41 40
-0.107522 0.251806 56.060158 43 35 34
-0.107541 0.372717 56.069851 35 29 28
-0.107558 0.493666 56.079056 31 25 25
-0.107575 0.614646 56.087513 29 23 23
-0.107589 0.735650 56.094990 28 22 23
-0.107601 0.856667 56.101227 28 21 23
-0.107610 0.977685 56.105988 28 21 22
-0.107616 1.098691 56.109024 28 21 22
-0.107618 1.219666 56.110104 27 20 22
-0.107616 1.340595 56.109013 26 19 22
-0.107609 1.461456 56.105549 26 19 22
-0.107598 1.582231 56.099529 26 18 21
-0.107581 1.702898 56.090813 26 19 21
-0.107559 1.823437 56.079292 27 19 21
-0.107531 1.943825 56.064888 28 18 21
-0.107498 2.064044 56.047569 29 19 21
-0.107459 2.184076 56.027348 29 19 21
-0.107415 2.303902 56.004269 29 19 20
-0.107365 2.423510 55.978424 30 20 20
-0.107311 2.542886 55.949940 31 21 22
-0.107251 2.662021 55.918968 30 21 21
-0.107188 2.780908 55.885704 29 20 20
-0.107120 2.899543 55.850346 28 19 19
-0.107048 3.017925 55.813122 27 18 18
-0.106974 3.136054 55.774258 27 18 18
-0.106897 3.253933 55.733990 27 19 19
-0.106817 3.371569 55.692558 28 19 19
-0.106736 3.488966 55.650181 28 19 19
-0.106653 3.606134 55.607079 28 19 19
-0.106570 3.723082 55.563461 27 18 18
-0.106485 3.839817 55.519501 26 18 17
-0.106401 3.956351 55.475368 25 18 16
-0.106316 4.072693 55.431210 25 18 16
-0.106231 4.188852 55.387154 25 18 16
-0.106147 4.304837 55.343300 25 18 17
-0.106064 4.420656 55.299732 25 18 18
-0.105981 4.536314 55.256504 26 18 18
-0.105899 4.651821 55.213673 26 18 18
-0.105817 4.767177 55.171253 26 18 16
-0.105737 4.882389 55.129257 26 18 16
-0.105657 4.997458 55.087688 28 19 17
-0.105578 5.112386 55.046539 28 19 18
-0.105500 5.227174 55.005775 27 19 18
-0.105422 5.341821 54.965366 27 19 18
-0.105346 5.456326 54.925285 26 19 19
-0.105269 5.570686 54.885471 25 19 19
-0.105193 5.684898 54.845898 25 19 19
-0.105118 5.798957 54.806484 26 19 19
-0.105042 5.912857 54.767166 26 19 20
-0.104967 6.026587 54.727852 26 19 20
-0.104891 6.140139 54.688454 25 19 20
-0.104815 6.253498 54.648861 25 19 19
-0.104739 6.366650 54.608955 24 19 19
-0.104661 6.479575 54.568588 24 18 19
-0.104583 6.592253 54.527618 24 19 19
-0.104503 6.704661 54.485889 25 20 19
-0.104421 6.816777 54.443256 25 20 19
-0.104337 6.928572 54.399555 25 21 20
-0.104251 7.040025 54.354664 25 21 21
-0.104163 7.151111 54.308460 26 22 21
-0.104071 7.261808 54.260830 27 22 21
-0.103977 7.372097 54.211720 28 22 21
-0.103880 7.481968 54.161106 28 22 20
-0.103780 7.591409 54.108986 29 22 20
-0.103677 7.700419 54.055424 29 21 20
-0.103572 7.809002 54.000504 29 21 19
-0.103464 7.917170 53.944366 31 22 20
-0.103355 8.024940 53.887188 32 24 23
-0.103243 8.132338 53.829166 33 25 24
-0.103131 8.239389 53.770523 33 25 24
-0.103018 8.346132 53.711517 33 26 24
-0.102904 8.452603 53.652405 33 26 24
-0.102791 8.558844 53.593449 33 26 24
-0.102679 8.664895 53.534889 32 25 24
-0.102568 8.770802 53.476986 31 24 24
-0.102458 8.876601 53.419945 32 24 24
-0.102351 8.982336 53.363976 33 24 23
-0.102246 9.088040 53.309242 34 24 24
-0.102144 9.193747 53.255890 34 25 24
-0.102044 9.299482 53.204025 35 25 25
-0.101948 9.405271 53.153713 36 27 27
-0.101854 9.511127 53.104996 38 29 29
-0.101764 9.617065 53.057892 41 30 30
-0.101677 9.723093 53.012383 43 31 32
-0.101592 9.829215 52.968437 44 32 32
-0.101511 9.935431 52.926003 44 32 32
-0.101432 10.041738 52.885002 44 31 32
-0.101356 10.148128 52.845367 44 31 31
-0.101283 10.254597 52.807014 43 30 31
-0.101212 10.361137 52.769871 43 30 30
-0.101142 10.467741 52.733845 42 30 30
-0.101075 10.574397 52.698860 40 29 30
-0.101010 10.681097 52.664829 40 28 28
-0.100946 10.787829 52.631680 39 28 28
-0.100884 10.894582 52.599312 40 28 29
-0.100824 11.001335 52.567623 41 29 30
-0.100764 11.108070 52.536488 43 29 31
-0.100705 11.214763 52.505779 45 31 32
-0.100647 11.321369 52.475288 47 33 34
-0.100588 11.427855 52.444843 50 36 36
-0.100529 11.534167 52.414215 54 39 39
-0.100470 11.640251 52.383148 59 43 43
-0.100409 11.746037 52.351353 64 47 47
-0.100346 11.851451 52.318512 66 48 49
-0.100280 11.956410 52.284309 64 45 46
-0.100211 12.060827 52.248398 60 40 41
-0.100139 12.164610 52.210423 56 37 36
-0.100061 12.267663 52.170044 54 35 35
-0.099978 12.369890 52.126919 54 36 36
-0.099890 12.471194 52.080711 55 38 38
-0.099795 12.571469 52.031078 57 41 41
-0.099692 12.670614 51.977680 62 46 47
-0.099582 12.768523 51.920193 66 48 50
-0.099463 12.865081 51.858257 65 47 48
-0.099335 12.960168 51.791515 63 43 45
-0.099197 13.053658 51.719585 62 41 42
-0.099048 13.145416 51.642067 63 41 42
-0.098888 13.235297 51.558537 67 44 45
-0.098716 13.323153 51.468578 74 51 53
-0.098530 13.408834 51.371769 85 62 64
-0.098330 13.492195 51.267738 96 73 77
-0.098116 13.573102 51.156139 101 78 84
-0.097887 13.651442 51.036747 92 72 77
-0.097643 13.727131 50.909435 79 60 67
-0.097384 13.800127 50.774231 76 59 66
-0.097110 13.870436 50.631344 80 66 72
-0.096822 13.938115 50.481167 89 78 82
-0.096521 14.003291 50.324322 98 90 93
-0.096209 14.066149 50.161617 106 100 101
-0.095888 14.126936 49.994068 111 106 106
-0.095559 14.185953 49.822845 115 110 110
0.014304 -12.572660 60.179615 97 97 102
0.014286 -12.427727 60.106071 101 101 105
0.014268 -12.282296 60.028542 104 104 108
0.014248 -12.136455 59.947342 109 109 114
0.014228 -11.990316 59.862900 117 116 122
0.014208 -11.844008 59.775776 129 127 135
0.014187 -11.697671 59.686577 142 140 149
0.014165 -11.551445 59.595974 145 142 151
0.014143 -11.405468 59.504631 135 131 139
0.014122 -11.259868 59.413197 120 115 122
0.014100 -11.114757 59.322269 106 101 106
0.014079 -10.970231 59.232388 96 91 95
0.014058 -10.826367 59.144005 91 87 89
0.014037 -10.683218 59.057465 88 85 87
0.014017 -10.540818 58.973030 85 81 85
0.013997 -10.399183 58.890865 76 73 79
0.013978 -10.258313 58.811054 72 69 77
0.013960 -10.118191 58.733585 86 82 92
0.013942 -9.978793 58.658417 107 103 115
0.013925 -9.840087 58.585430 121 114 129
0.013908 -9.702035 58.514500 127 120 136
0.013892 -9.564602 58.445473 136 128 144
0.013876 -9.427749 58.378197 147 137 153
0.013860 -9.291443 58.312542 153 143 157
0.013845 -9.155655 58.248375 157 147 160
0.013830 -9.020360 58.185604 166 157 169
0.013815 -8.885539 58.124165 177 168 179
0.013801 -8.751176 58.064007 159 151 161
0.013787 -8.617262 58.005123 116 108 117
0.013773 -8.483789 57.947521 96 89 98
0.013760 -8.350755 57.891235 111 105 113
0.013747 -8.218155 57.836300 129 123 131
0.013734 -8.085989 57.782772 138 133 140
0.013722 -7.954256 57.730713 148 143 150
0.013710 -7.822954 57.680180 168 164 169
0.013698 -7.692079 57.631207 195 193 197
0.013687 -7.561625 57.583839 211 210 214
0.013676 -7.431586 57.538101 199 201 205
0.013665 -7.301951 57.493992 174 176 182
0.013655 -7.172709 57.451504 153 156 164
0.013646 -7.043845 57.410603 152 155 166
0.013636 -6.915342 57.371239 165 167 179
0.013627 -6.787184 57.333351 179 181 196
0.013619 -6.659351 57.296856 196 198 213
0.013610 -6.531824 57.261662 210 212 229
0.013602 -6.404580 57.227650 213 217 233
0.013594 -6.277601 57.194702 190 195 212
0.013587 -6.150864 57.162697 143 150 169
0.013579 -6.024351 57.131496 120 130 149
0.013572 -5.898043 57.100983 145 157 175
0.013565 -5.771921 57.071011 182 195 210
0.013558 -5.645968 57.041443 198 211 226
0.013551 -5.520171 57.012161 198 210 227
0.013544 -5.394515 56.983032 190 200 217
0.013537 -5.268987 56.953938 167 175 191
0.013530 -5.143578 56.924770 141 146 159
0.013523 -5.018278 56.895416 151 152 163
0.013516 -4.893081 56.865791 193 192 199
0.013509 -4.767982 56.835804 216 215 219
0.013502 -4.642978 56.805397 203 200 205
0.013494 -4.518067 56.774513 174 167 174
0.013487 -4.393250 56.743122 145 137 144
0.013479 -4.268529 56.711208 125 116 124
0.013472 -4.143908 56.678776 132 122 131
0.013464 -4.019391 56.645847 151 141 149
0.013456 -3.894986 56.612484 145 134 140
0.013448 -3.770700 56.578747 125 113 116
0.013440 -3.646542 56.544731 125 111 112
0.013432 -3.522520 56.510548 131 116 115
0.013423 -3.398643 56.476337 128 110 109
0.013415 -3.274921 56.442242 124 103 102
0.013407 -3.151362 56.408436 113 89 90
0.013399 -3.027974 56.375099 102 76 76
0.013392 -2.904764 56.342438 104 78 78
0.013384 -2.781738 56.310642 113 88 88
0.013377 -2.658900 56.279926 116 93 93
0.013370 -2.536253 56.250504 111 91 91
0.013363 -2.413797 56.222580 96 76 79
0.013357 -2.291531 56.196365 79 60 65
0.013351 -2.169451 56.172043 78 60 65
0.013346 -2.047552 56.149796 82 64 69
0.013341 -1.925825 56.129761 70 52 56
0.013337 -1.804259 56.112080 57 39 41
0.013333 -1.682843 56.096828 55 38 38
0.013330 -1.561562 56.084072 55 38 37
0.013328 -1.440400 56.073826 53 36 36
0.013326 -1.319342 56.066071 52 36 35
0.013325 -1.198368 56.060745 51 35 34
0.013324 -1.077463 56.057755 51 34 34
0.013324 -0.956608 56.056973 50 34 33
0.013324 -0.835787 56.058239 50 33 32
0.013325 -0.714984 56.061371 51 33 32
0.013326 -0.594185 56.066154 51 33 33
0.013327 -0.473378 56.072376 53 35 35
0.013329 -0.352552 56.079800 56 38 38
