ply
format ascii 1.0
element vertex 1200
property float x
property float y
property float z
property uchar red
property uchar green
property uchar blue
end_header
2.116629 4.727484 39.103237 253 169 152
2.116917 4.812433 39.108562 252 174 154
2.117209 4.897412 39.113945 252 194 173
2.117501 4.982416 39.119343 254 191 169
2.117792 5.067440 39.124714 254 175 153
2.118079 5.152479 39.130028 254 172 150
2.118362 5.237530 39.135258 253 166 145
2.118640 5.322589 39.140385 248 147 127
2.118912 5.407656 39.145405 241 130 110
2.119178 5.492732 39.150333 237 122 101
2.119442 5.577820 39.155197 244 131 108
2.119704 5.662928 39.160053 252 151 124
2.119971 5.748065 39.164967 253 171 138
2.120245 5.833247 39.170040 252 188 150
2.120535 5.918493 39.175392 251 191 148
2.120846 6.003822 39.181141 234 154 108
2.121187 6.089262 39.187439 212 102 54
2.121566 6.174840 39.194443 217 92 41
2.121992 6.260587 39.202309 237 110 57
2.122473 6.346532 39.211197 249 127 71
2.123019 6.432712 39.221275 253 136 79
2.123637 6.519158 39.232700 254 138 80
2.124336 6.605906 39.245625 254 137 79
2.125125 6.692989 39.260189 254 136 80
2.126010 6.780444 39.276543 253 135 81
2.126999 6.868305 39.294819 251 135 84
2.128100 6.956611 39.315159 249 135 89
2.129321 7.045399 39.337704 246 133 93
2.130668 7.134711 39.362602 239 124 92
2.132152 7.224590 39.390007 233 116 91
2.133780 7.315082 39.420082 226 108 88
2.135561 7.406235 39.452984 217 100 84
2.137504 7.498100 39.488892 218 111 98
2.139620 7.590730 39.527973 235 155 143
2.141916 7.684178 39.570400 244 189 175
2.144403 7.778496 39.616329 225 158 140
2.147086 7.873737 39.665909 201 104 83
2.149975 7.969951 39.719269 204 97 72
2.153073 8.067182 39.776512 214 112 85
2.156385 8.165468 39.837700 221 126 99
2.159913 8.264843 39.902870 238 153 127
2.163656 8.365332 39.972015 247 163 140
2.167611 8.466949 40.045097 244 159 140
2.171775 8.569702 40.122013 249 175 159
2.176142 8.673595 40.202682 254 185 170
2.180702 8.778617 40.286930 253 175 160
2.185446 8.884748 40.374569 253 170 155
2.190361 8.991962 40.465389 252 170 155
2.195438 9.100234 40.559174 250 163 147
2.200662 9.209529 40.655685 249 155 140
2.206022 9.319812 40.754700 246 150 136
2.211505 9.431049 40.856003 241 144 133
2.217102 9.543211 40.959396 241 145 138
2.222802 9.656271 41.064716 248 163 160
2.228601 9.770212 41.171833 254 181 179
2.234492 9.885026 41.280666 252 177 175
2.240474 10.000715 41.391182 244 151 145
2.246549 10.117298 41.503410 233 127 117
2.252721 10.234808 41.617435 232 123 108
2.258999 10.353294 41.733418 235 127 106
2.265395 10.472826 41.851582 236 129 105
2.271925 10.593491 41.972210 239 131 105
2.278607 10.715392 42.095661 240 132 105
2.285464 10.838656 42.222343 241 131 105
2.292521 10.963422 42.352718 242 130 105
2.299805 11.089845 42.487289 241 127 102
2.307345 11.218091 42.626583 239 122 98
2.315169 11.348331 42.771126 236 117 95
2.323307 11.480744 42.921463 232 111 90
2.331784 11.615498 43.078075 230 107 87
2.340626 11.752754 43.241417 235 110 91
2.349851 11.892657 43.411850 240 114 96
2.359475 12.035328 43.589638 237 111 95
2.369505 12.180856 43.774944 235 107 94
2.379945 12.329300 43.967800 235 106 96
2.390786 12.480676 44.168087 235 106 98
2.402015 12.634956 44.375546 233 104 99
2.413612 12.792076 44.589787 231 102 98
2.425548 12.951932 44.810291 229 100 97
2.437788 13.114377 45.036427 228 98 95
2.450295 13.279242 45.267483 225 97 91
2.463027 13.446329 45.502697 222 94 88
2.475940 13.615430 45.741261 218 92 84
2.488994 13.786332 45.982410 216 92 82
2.502146 13.958829 46.225391 219 97 85
2.515363 14.132733 46.469559 225 105 92
2.528612 14.307878 46.714336 231 112 99
2.541872 14.484132 46.959290 234 116 102
2.555123 14.661398 47.204102 233 117 103
2.879587 -14.107334 51.160896 78 60 68
2.875735 -13.978326 51.092461 89 72 80
2.871647 -13.848474 51.019833 105 89 96
2.867313 -13.717757 50.942833 114 98 105
2.862731 -13.586197 50.861423 105 90 97
2.857908 -13.453850 50.775730 86 73 80
2.852857 -13.320810 50.685993 79 68 75
2.847600 -13.187201 50.592583 88 78 86
2.842161 -13.053163 50.495956 104 94 104
2.836571 -12.918852 50.396641 105 96 107
2.830862 -12.784431 50.295212 88 78 90
2.825067 -12.650064 50.192253 73 62 75
2.819219 -12.515903 50.088348 84 73 86
2.813348 -12.382092 49.984051 129 118 130
2.807485 -12.248761 49.879875 187 179 188
2.801654 -12.116022 49.776287 217 211 217
2.795879 -11.983966 49.673672 184 177 182
2.790175 -11.852659 49.572346 116 108 113
2.784559 -11.722154 49.472557 81 74 77
2.779038 -11.592478 49.374470 90 84 86
2.773618 -11.463641 49.278172 134 129 130
2.768299 -11.335633 49.183670 198 194 195
2.763076 -11.208425 49.090881 234 232 232
2.757944 -11.081977 48.999691 225 223 224
2.752888 -10.956229 48.909866 183 182 184
2.747895 -10.831114 48.821148 137 136 142
2.742945 -10.706552 48.733212 110 110 119
2.738018 -10.582457 48.645676 105 103 115
2.733091 -10.458738 48.558136 109 106 120
2.728139 -10.335302 48.470150 125 122 136
2.723137 -10.212059 48.381283 158 155 166
2.718060 -10.088923 48.291088 185 182 191
2.712885 -9.965812 48.199142 190 187 194
2.707590 -9.842664 48.105072 193 190 196
2.702157 -9.719421 48.008537 202 199 205
2.696569 -9.596045 47.909260 190 189 195
2.690815 -9.472516 47.807037 166 166 173
2.684890 -9.348828 47.701767 150 149 158
2.678790 -9.224991 47.593384 126 124 137
2.672517 -9.101035 47.481941 95 92 109
2.666079 -8.977002 47.367554 93 89 108
2.659486 -8.852945 47.250412 142 137 155
2.652752 -8.728932 47.130775 209 205 216
2.645895 -8.605036 47.008961 243 240 245
2.638937 -8.481336 46.885330 242 239 246
2.631899 -8.357916 46.760281 228 224 232
2.624805 -8.234861 46.634247 208 204 212
2.617682 -8.112260 46.507698 199 196 203
2.610557 -7.990196 46.381104 210 207 212
2.603456 -7.868751 46.254940 216 215 218
2.596406 -7.748005 46.129700 215 216 218
2.589437 -7.628034 46.005871 228 228 230
2.582574 -7.508906 45.883934 244 244 245
2.575843 -7.390684 45.764355 251 248 250
2.569270 -7.273425 45.647579 250 246 249
2.562878 -7.157174 45.534016 244 237 241
2.556688 -7.041968 45.424038 217 207 212
2.550718 -6.927833 45.317963 172 162 164
2.544981 -6.814782 45.216038 136 126 125
2.539488 -6.702813 45.118446 127 116 114
2.534243 -6.591910 45.025265 151 139 137
2.529246 -6.482042 44.936466 195 185 184
2.524488 -6.373163 44.851936 219 208 208
2.519956 -6.265209 44.771416 199 183 181
2.515628 -6.158104 44.694530 167 147 142
2.511478 -6.051757 44.620800 164 144 137
2.507472 -5.946069 44.549614 173 155 147
2.503569 -5.840930 44.480274 151 135 128
2.499725 -5.736226 44.411991 101 87 82
2.495893 -5.631841 44.343903 71 60 56
2.492022 -5.527663 44.275120 79 69 65
2.488060 -5.423584 44.204731 98 88 84
2.483958 -5.319510 44.131859 118 105 101
2.479670 -5.215358 44.055676 150 135 130
2.475155 -5.111066 43.975456 191 173 167
2.470380 -5.006591 43.890610 197 175 170
2.465319 -4.901915 43.800697 155 128 123
2.459959 -4.797044 43.705471 105 76 72
2.454299 -4.692008 43.604904 85 54 51
2.448349 -4.586864 43.499199 85 54 52
2.442133 -4.481688 43.388771 89 58 56
2.435688 -4.376576 43.274261 94 62 60
2.429062 -4.271638 43.156532 98 68 63
2.422312 -4.166996 43.036617 100 72 65
2.415506 -4.062776 42.915684 101 74 67
2.408714 -3.959100 42.795010 96 72 64
2.402011 -3.856088 42.675922 81 61 53
2.395473 -3.753847 42.559753 65 46 41
2.389170 -3.652467 42.447777 59 41 39
2.383168 -3.552019 42.341152 65 46 47
2.377526 -3.452553 42.240906 74 53 57
2.372290 -3.354092 42.147881 83 61 65
2.367495 -3.256639 42.062683 86 63 66
2.363162 -3.160172 41.985706 82 57 59
2.359300 -3.064649 41.917091 74 49 50
2.355902 -2.970006 41.856716 73 47 47
2.352949 -2.876167 41.804253 76 50 50
2.350410 -2.783045 41.759140 78 53 54
2.348243 -2.690544 41.720650 77 54 55
2.346400 -2.598566 41.687889 74 52 53
2.344822 -2.507015 41.659866 68 48 49
2.343451 -2.415797 41.635498 62 43 44
2.342222 -2.324825 41.613674 58 39 41
2.341074 -2.234024 41.593266 58 39 41
2.339943 -2.143327 41.573181 59 39 41
2.338772 -2.052681 41.552364 60 39 41
2.337503 -1.962044 41.529835 60 38 40
2.336088 -1.871386 41.504696 59 38 39
2.334481 -1.780690 41.476131 59 37 38
2.332641 -1.689948 41.443443 59 37 37
2.330536 -1.599165 41.406040 60 37 37
2.328138 -1.508354 41.363434 61 37 38
2.325426 -1.417536 41.315266 62 37 38
2.322389 -1.326739 41.261299 63 36 39
2.319019 -1.235997 41.201424 65 35 39
2.315318 -1.145350 41.135670 68 34 40
2.311295 -1.054839 41.064198 72 33 40
2.306967 -0.964510 40.987309 79 31 40
2.302359 -0.874405 40.905434 86 31 41
2.297501 -0.784567 40.819126 90 31 40
2.292431 -0.695038 40.729038 89 26 36
2.287190 -0.605852 40.635929 82 18 29
2.281825 -0.517039 40.540615 100 34 48
2.276384 -0.428622 40.443943 139 71 89
2.270915 -0.340618 40.346779 166 96 117
2.265466 -0.253036 40.249969 202 141 160
2.260083 -0.165875 40.154324 237 184 196
2.254807 -0.079131 40.060585 227 152 161
2.249675 0.007210 39.969406 205 111 113
2.244719 0.093165 39.881363 212 116 105
2.239967 0.178756 39.796928 222 125 105
2.235438 0.264010 39.716469 225 130 105
2.231149 0.348955 39.640263 236 150 125
2.227110 0.433619 39.568504 243 161 142
2.223328 0.518034 39.501308 235 144 130
2.219806 0.602230 39.438728 229 129 120
2.216544 0.686237 39.380772 239 140 133
2.213540 0.770084 39.327404 249 159 149
2.210790 0.853798 39.278553 250 158 144
2.208290 0.937408 39.234131 246 144 126
2.206033 1.020939 39.194027 248 144 120
2.204012 1.104416 39.158131 250 147 118
2.202221 1.187861 39.126301 250 144 111
2.200650 1.271297 39.098392 247 142 106
2.199291 1.354743 39.074249 239 136 99
2.198135 1.438217 39.053707 232 131 95
2.197170 1.521736 39.036572 238 145 111
2.196387 1.605313 39.022652 245 160 131
2.195772 1.688960 39.011723 239 156 135
2.195312 1.772685 39.003559 239 158 144
2.194994 1.856494 38.997910 243 168 160
2.194804 1.940392 38.994526 236 157 153
2.194725 2.024379 38.993126 230 140 140
2.194742 2.108452 38.993439 238 144 144
2.194841 2.192606 38.995182 247 153 151
2.195003 2.276835 38.998070 250 154 150
2.195215 2.361130 39.001827 250 152 144
2.195460 2.445477 39.006184 253 152 140
2.195725 2.529868 39.010902 254 154 137
2.195998 2.614287 39.015751 254 155 133
2.196267 2.698721 39.020519 253 153 127
2.196522 2.783159 39.025047 251 149 123
2.196756 2.867590 39.029209 251 151 125
2.196964 2.952004 39.032913 251 152 129
2.197144 3.036394 39.036106 247 148 128
2.197294 3.120756 39.038776 242 143 126
2.197417 3.205089 39.040951 241 142 126
2.197515 3.289395 39.042686 243 142 127
2.197592 3.373677 39.044067 243 142 125
2.197655 3.457942 39.045189 246 148 130
2.197711 3.542199 39.046169 252 164 143
2.197764 3.626458 39.047115 254 178 156
2.197821 3.710727 39.048138 254 179 155
2.197889 3.795018 39.049335 254 165 142
2.197971 3.879340 39.050797 253 153 132
2.198072 3.963702 39.052586 254 151 132
2.198194 4.048111 39.054752 253 150 134
2.198339 4.132573 39.057331 252 147 135
2.198508 4.217092 39.060333 253 158 149
2.198700 4.301669 39.063755 254 171 165
2.198916 4.386308 39.067585 254 169 162
2.199153 4.471005 39.071793 254 160 151
2.199409 4.555763 39.076351 254 172 160
2.199683 4.640575 39.081215 255 185 171
2.199971 4.725440 39.086330 252 170 152
2.200271 4.810353 39.091663 249 161 139
2.200580 4.895309 39.097153 251 185 158
2.200895 4.980302 39.102753 254 196 166
2.201214 5.065328 39.108410 254 177 146
2.201533 5.150380 39.114086 254 166 136
2.201852 5.235454 39.119743 254 164 137
2.202168 5.320545 39.125355 252 153 127
2.202480 5.405653 39.130901 244 135 110
2.202789 5.490777 39.136398 237 123 97
2.203097 5.575920 39.141861 241 127 98
2.203404 5.661088 39.147331 247 137 103
2.203717 5.746291 39.152885 247 143 103
2.204039 5.831543 39.158600 247 159 114
2.204376 5.916861 39.164593 250 187 139
2.204736 6.002266 39.170982 239 175 126
2.205126 6.087782 39.177910 214 117 68
2.205554 6.173436 39.185524 211 91 39
2.206030 6.259258 39.193989 231 106 52
2.206563 6.345279 39.203453 247 125 69
2.207161 6.431530 39.214073 253 136 79
2.207833 6.518046 39.226009 254 138 80
2.208587 6.604859 39.239407 254 138 80
2.209431 6.692003 39.254406 254 137 81
2.210373 6.779512 39.271145 253 136 81
2.211421 6.867422 39.289764 252 136 84
2.212583 6.955769 39.310402 252 140 92
2.213866 7.044592 39.333199 249 140 96
2.215279 7.133931 39.358303 242 130 90
2.216831 7.223832 39.385876 235 119 82
2.218531 7.314339 39.416080 230 113 79
2.220389 7.405503 39.449085 225 107 75
2.222414 7.497376 39.485077 222 109 79
2.224618 7.590012 39.524231 232 140 110
2.227010 7.683465 39.566727 243 175 145
2.229600 7.777792 39.612740 232 159 128
2.232396 7.873044 39.662418 212 114 82
2.235406 7.969275 39.715904 212 105 73
2.238637 8.066532 39.773308 221 119 87
2.242093 8.164854 39.834705 223 125 96
2.245776 8.264277 39.900131 233 140 113
2.249685 8.364823 39.969589 246 153 131
2.253819 8.466512 40.043030 249 160 141
2.258172 8.569350 40.120365 252 170 154
2.262738 8.673341 40.201504 254 177 161
2.267509 8.778470 40.286259 254 174 159
2.272473 8.884720 40.374447 254 176 161
2.277617 8.992064 40.465843 254 176 160
2.282929 9.100470 40.560219 252 169 151
2.288395 9.209903 40.657333 252 163 145
2.294001 9.320325 40.756943 249 158 141
2.299736 9.431701 40.858822 241 148 134
2.305586 9.543995 40.962757 239 146 135
2.311542 9.657179 41.068577 246 163 155
2.317595 9.771234 41.176136 252 180 176
2.323742 9.886145 41.285336 248 172 169
2.329978 10.001914 41.396141 240 145 140
2.336307 10.118556 41.508568 233 128 121
2.342731 10.236103 41.622704 232 125 114
2.349259 10.354601 41.738686 233 126 110
2.355904 10.474118 41.856747 235 129 109
2.362681 10.594740 41.977161 239 131 109
2.369612 10.716572 42.100296 240 131 108
2.376718 10.839735 42.226547 241 131 108
2.384026 10.964372 42.356388 241 129 106
2.391564 11.090635 42.490314 241 126 104
2.399362 11.218693 42.628868 240 122 101
2.407451 11.348718 42.772583 237 117 97
2.415861 11.480885 42.921989 234 111 92
2.424619 11.615367 43.077591 232 107 89
2.433751 11.752325 43.239838 236 110 91
2.443278 11.891904 43.409096 240 112 96
2.453214 12.034225 43.585644 238 109 94
2.463571 12.179379 43.769638 234 104 92
2.474348 12.327427 43.961121 232 102 92
2.485541 12.478382 44.159973 231 101 92
2.497133 12.632221 44.365944 229 99 92
2.509106 12.788882 44.578651 228 98 92
2.521429 12.948259 44.797585 227 98 92
2.534066 13.110211 45.022121 226 97 91
2.546981 13.274570 45.251560 225 96 89
2.560128 13.441142 45.485146 221 93 85
2.573464 13.609724 45.722095 217 91 81
2.586947 13.780106 45.961639 216 93 81
2.600536 13.952087 46.203064 220 99 87
2.614193 14.125483 46.445717 228 109 95
2.627890 14.300136 46.689056 233 116 102
2.641600 14.475912 46.932640 234 118 104
2.655308 14.652727 47.176186 232 118 103
2.994901 -14.131060 51.246937 80 62 68
2.990939 -14.002040 51.179138 84 68 73
2.986736 -13.872193 51.107220 91 76 81
2.982279 -13.741488 51.030956 97 81 87
2.977564 -13.609929 50.950272 94 80 85
2.972594 -13.477566 50.865234 88 75 80
2.967382 -13.344479 50.776047 86 73 79
2.961946 -13.210778 50.683033 93 82 89
2.956311 -13.076598 50.586617 107 97 105
2.950505 -12.942084 50.487270 108 98 107
2.944561 -12.807396 50.385555 91 80 90
2.938511 -12.672689 50.282028 76 64 76
2.932388 -12.538119 50.177261 91 79 91
2.926226 -12.403831 50.071808 139 128 138
2.920053 -12.269957 49.966190 195 186 194
2.913899 -12.136613 49.860874 217 210 215
2.907786 -12.003895 49.756279 175 169 173
2.901736 -11.871882 49.652748 104 98 101
2.895763 -11.740632 49.550545 76 71 73
2.889880 -11.610185 49.449886 100 96 98
2.884095 -11.480556 49.350887 147 144 145
2.878408 -11.351748 49.253590 197 195 198
2.872819 -11.223738 49.157951 229 227 230
2.867322 -11.096496 49.063885 220 220 223
2.861906 -10.969969 48.971203 175 176 181
2.856556 -10.844095 48.879662 126 127 134
2.851256 -10.718801 48.788967 103 104 114
2.845984 -10.594007 48.698769 107 107 120
2.840719 -10.469624 48.608673 126 125 139
2.835435 -10.345561 48.518261 160 159 171
2.830108 -10.221729 48.427097 196 194 204
2.824712 -10.098047 48.334763 201 200 206
2.819223 -9.974433 48.240841 174 172 178
2.813619 -9.850823 48.144955 163 160 165
2.807881 -9.727162 48.046772 187 184 189
2.801994 -9.603411 47.946026 208 206 210
2.795944 -9.479546 47.842518 206 205 209
2.789726 -9.355560 47.736118 190 188 194
2.783337 -9.231466 47.626789 161 158 168
2.776779 -9.107289 47.514568 126 122 136
2.770059 -8.983070 47.399574 127 122 138
2.763187 -8.858861 47.281982 178 173 187
2.756178 -8.734726 47.162060 231 228 235
2.749051 -8.610738 47.040108 248 246 250
2.741827 -8.486972 46.916481 237 235 241
2.734527 -8.363509 46.791573 218 215 223
2.727177 -8.240436 46.665813 192 190 197
2.719805 -8.117833 46.539654 170 168 173
2.712435 -7.995786 46.413551 181 179 184
2.705097 -7.874372 46.287983 216 215 217
2.697817 -7.753670 46.163422 240 240 240
2.690625 -7.633751 46.040348 249 249 249
2.683547 -7.514683 45.919239 247 246 246
2.676610 -7.396528 45.800541 238 233 235
2.669840 -7.279338 45.684689 232 223 228
2.663260 -7.163159 45.572094 232 221 228
2.656891 -7.048026 45.463116 215 203 209
2.650752 -6.933963 45.358059 173 161 165
2.644856 -6.820982 45.257183 132 120 123
2.639215 -6.709082 45.160648 113 101 103
2.633832 -6.598246 45.068535 123 109 111
2.628706 -6.488440 44.980824 156 140 144
2.623829 -6.379619 44.897373 187 169 174
2.619186 -6.271719 44.817932 192 170 174
2.614756 -6.164662 44.742134 184 160 163
2.610510 -6.058360 44.669479 187 164 165
2.606413 -5.952709 44.599365 190 170 169
2.602423 -5.847602 44.531090 158 142 140
2.598494 -5.742924 44.463852 100 87 86
2.594574 -5.638558 44.396793 68 58 58
2.590614 -5.534392 44.329021 71 63 63
2.586558 -5.430319 44.259617 79 70 71
2.582355 -5.326242 44.187710 91 80 80
2.577959 -5.222082 44.112473 134 119 117
2.573324 -5.117774 44.033173 194 180 175
2.568419 -5.013278 43.949226 220 202 196
2.563216 -4.908575 43.860203 186 161 154
2.557702 -4.803672 43.765858 128 99 92
2.551876 -4.698600 43.666168 92 62 56
2.545750 -4.593417 43.561340 86 56 52
2.539348 -4.488198 43.451790 91 61 57
2.532708 -4.383039 43.338173 100 70 65
2.525880 -4.278053 43.221340 112 83 78
2.518924 -4.173358 43.102314 122 94 87
2.511909 -4.069080 42.982277 125 99 92
2.504908 -3.965342 42.862476 120 98 90
2.497998 -3.862261 42.744236 99 81 74
2.491256 -3.759942 42.628860 70 54 50
2.484754 -3.658476 42.517605 57 41 41
2.478560 -3.557930 42.411617 63 45 50
2.472731 -3.458354 42.311886 75 55 63
2.467317 -3.359771 42.219242 88 66 73
2.462352 -3.262182 42.134277 94 70 76
2.457856 -3.165566 42.057358 90 64 69
2.453839 -3.069878 41.988613 83 57 59
2.450292 -2.975059 41.927925 83 57 58
2.447196 -2.881031 41.874950 88 62 63
2.444520 -2.787710 41.829144 89 64 66
2.442219 -2.695002 41.789776 85 63 65
2.440243 -2.602810 41.755974 79 59 61
2.438536 -2.511041 41.726765 71 52 54
2.437036 -2.419602 41.701088 62 44 46
2.435678 -2.328410 41.677845 58 39 41
2.434398 -2.237391 41.655949 59 39 41
2.433134 -2.146479 41.634319 60 40 42
2.431826 -2.055624 41.611935 60 40 42
2.430417 -1.964784 41.587830 60 39 41
2.428856 -1.873930 41.561123 59 38 39
2.427097 -1.783046 41.531025 59 37 38
2.425100 -1.692126 41.496845 59 37 38
2.422830 -1.601172 41.458008 59 37 38
2.420261 -1.510200 41.414040 60 37 38
2.417370 -1.419228 41.364582 61 36 39
2.414146 -1.328286 41.309414 63 36 39
2.410583 -1.237408 41.248432 65 35 39
2.406681 -1.146631 41.181671 67 33 39
2.402451 -1.055998 41.109295 71 31 39
2.397911 -0.965552 41.031612 79 29 38
2.393086 -0.875337 40.949051 86 28 38
2.388009 -0.785395 40.862167 91 28 37
2.382717 -0.695764 40.771614 92 24 33
2.377254 -0.606481 40.678131 89 18 27
2.371667 -0.517573 40.582539 113 40 49
2.366006 -0.429064 40.485664 155 80 91
2.360320 -0.340969 40.388367 185 105 118
2.354656 -0.253296 40.291462 215 138 150
2.349063 -0.166046 40.195751 236 161 167
2.343581 -0.079213 40.101948 221 134 132
2.338248 0.007217 40.010696 203 108 96
2.333097 0.093261 39.922543 215 120 96
2.328152 0.178940 39.837933 225 131 99
2.323436 0.264281 39.757225 222 131 96
2.318962 0.349310 39.680683 231 157 123
2.314743 0.434057 39.608482 244 181 154
2.310783 0.518551 39.540730 238 160 138
2.307087 0.602822 39.477474 231 134 118
2.303653 0.686898 39.418728 240 140 125
2.300481 0.770809 39.364441 250 151 135
2.297566 0.854581 39.314564 249 148 128
2.294904 0.938242 39.269005 246 140 116
2.292488 1.021816 39.227673 249 142 113
2.290313 1.105328 39.190453 252 146 113
2.288372 1.188801 39.157238 252 149 114
2.286657 1.272256 39.127892 251 153 116
2.285159 1.355714 39.102268 244 146 107
2.283871 1.439194 39.080223 235 134 94
2.282782 1.522711 39.061584 235 138 99
2.281881 1.606280 39.046162 237 145 110
2.281156 1.689914 39.033760 231 146 117
2.280595 1.773621 39.024158 236 165 144
2.280183 1.857409 39.017117 241 180 168
2.279907 1.941281 39.012390 226 156 151
2.279750 2.025239 39.009701 220 135 136
2.279696 2.109281 39.008781 235 147 151
2.279729 2.193403 39.009346 246 154 158
2.279832 2.277597 39.011112 244 147 146
2.279989 2.361854 39.013786 244 146 140
2.280182 2.446162 39.017101 250 156 143
2.280398 2.530510 39.020802 254 161 142
2.280623 2.614882 39.024639 254 159 134
2.280843 2.699267 39.028404 253 154 126
2.281048 2.783650 39.031921 251 154 124
2.281231 2.868020 39.035053 250 155 128
2.281386 2.952367 39.037704 247 150 126
2.281509 3.036682 39.039810 241 145 125
2.281600 3.120963 39.041359 240 147 129
2.281659 3.205206 39.042377 242 147 130
2.281691 3.289415 39.042923 246 149 132
2.281701 3.373592 39.043083 248 152 133
2.281694 3.457746 39.042976 250 158 138
2.281679 3.541886 39.042717 253 169 146
2.281662 3.626022 39.042431 254 172 147
2.281651 3.710167 39.042244 254 171 146
2.281653 3.794332 39.042271 254 170 146
2.281673 3.878528 39.042614 253 164 144
2.281717 3.962766 39.043365 254 158 141
2.281787 4.047056 39.044571 253 150 137
2.281888 4.131404 39.046288 251 146 136
2.282019 4.215818 39.048534 252 158 152
2.282182 4.300301 39.051327 254 174 171
2.282376 4.384854 39.054642 254 172 168
2.282599 4.469481 39.058464 254 163 158
2.282851 4.554178 39.062763 254 171 164
2.283127 4.638945 39.067486 255 180 169
2.283425 4.723778 39.072586 253 169 154
2.283741 4.808673 39.078007 251 158 137
2.284074 4.893624 39.083698 251 169 140
2.284418 4.978626 39.089584 252 176 143
2.284771 5.063671 39.095619 253 168 133
2.285129 5.148754 39.101742 254 163 128
2.285489 5.233869 39.107906 254 159 128
2.285849 5.319012 39.114075 252 150 121
2.286209 5.404179 39.120228 245 135 108
2.286567 5.489368 39.126358 240 126 97
2.286925 5.574584 39.132481 241 127 95
2.287284 5.659830 39.138630 244 131 95
2.287649 5.745114 39.144867 245 133 91
2.288023 5.830452 39.151276 245 143 97
2.288414 5.915858 39.157955 249 169 120
2.288827 6.001354 39.165035 245 174 124
2.289272 6.086963 39.172638 226 136 86
2.289756 6.172710 39.180916 215 102 50
2.290288 6.258625 39.190025 223 101 47
2.290877 6.344738 39.200108 241 119 63
2.291533 6.431079 39.211323 252 134 77
2.292263 6.517682 39.223820 254 138 80
2.293077 6.604579 39.237740 254 138 81
2.293981 6.691801 39.253220 254 138 82
2.294985 6.779384 39.270401 253 137 82
2.296096 6.867360 39.289410 252 136 84
2.297322 6.955767 39.310390 253 140 91
2.298671 7.044642 39.333481 251 141 93
2.300153 7.134027 39.358829 245 132 86
2.301776 7.223966 39.386604 237 122 76
2.303551 7.314505 39.416973 233 118 70
2.305487 7.405695 39.450111 228 113 65
2.307597 7.497590 39.486206 225 113 65
2.309890 7.590245 39.525448 233 133 87
2.312379 7.683718 39.568031 245 162 118
2.315073 7.778064 39.614124 240 157 114
2.317982 7.873341 39.663910 223 123 82
2.321115 7.969602 39.717529 218 112 74
2.324480 8.066895 39.775097 222 119 84
2.328080 8.165263 39.836697 220 122 90
2.331918 8.264742 39.902382 225 130 102
2.335995 8.365358 39.972145 240 145 123
2.340309 8.467130 40.045952 249 155 136
2.344852 8.570063 40.123703 252 162 145
2.349622 8.674162 40.205307 254 167 151
2.354605 8.779412 40.290581 254 170 155
2.359791 8.885794 40.379322 254 174 157
2.365167 8.993279 40.471310 254 173 156
2.370718 9.101831 40.566288 254 169 151
2.376429 9.211416 40.664017 254 166 146
2.382286 9.321993 40.764240 250 159 140
2.388274 9.433521 40.866711 242 148 131
2.394382 9.545964 40.971210 240 146 131
2.400596 9.659289 41.077549 247 158 146
2.406909 9.773472 41.185570 251 168 159
2.413314 9.888498 41.295170 244 158 151
2.419808 10.004366 41.406288 236 138 132
2.426391 10.121085 41.518944 233 129 123
2.433069 10.238687 41.633209 232 127 118
2.439849 10.357216 41.749226 231 126 113
2.446744 10.476737 41.867210 234 128 112
2.453771 10.597335 41.987446 237 131 112
2.460950 10.719115 42.110287 238 131 111
2.468305 10.842197 42.236137 239 130 109
2.475863 10.966722 42.365471 240 128 108
2.483654 11.092848 42.498791 241 126 106
2.491710 11.220737 42.636631 241 122 103
2.500061 11.350563 42.779537 238 117 99
2.508740 11.482506 42.928051 235 112 94
2.517776 11.616735 43.082664 234 108 91
2.527196 11.753416 43.243851 236 110 93
2.537021 11.892691 43.411968 239 110 95
2.547267 12.034683 43.587303 236 106 92
2.557945 12.179485 43.770020 232 101 89
2.569057 12.327158 43.960159 229 98 88
2.580597 12.477715 44.157612 227 96 87
2.592549 12.631137 44.362133 226 95 87
2.604893 12.787362 44.573353 225 95 88
2.617598 12.946285 44.790756 224 94 88
2.630629 13.107768 45.013729 223 95 88
2.643945 13.271646 45.241592 223 95 86
2.657503 13.437727 45.473587 220 93 84
2.671258 13.605812 45.708954 218 93 81
2.685166 13.775698 45.946938 218 95 83
2.699185 13.947185 46.186829 223 102 89
2.713279 14.120092 46.427994 229 111 97
2.727417 14.294271 46.669907 233 117 102
2.741573 14.469590 46.912144 232 119 104
2.755732 14.645967 47.154419 229 118 103
3.110470 -14.154259 51.331066 81 64 69
3.106390 -14.025183 51.263729 81 64 69
3.102063 -13.895297 51.192333 83 67 72
3.097477 -13.764562 51.116646 87 71 76
3.092622 -13.632971 51.036530 90 74 79
3.087501 -13.500561 50.952019 90 75 80
3.082123 -13.367401 50.863270 92 77 83
3.076505 -13.233591 50.770557 98 86 91
3.070671 -13.099257 50.674271 109 98 104
3.064646 -12.964536 50.574856 110 98 106
3.058465 -12.829582 50.472839 93 81 90
3.052158 -12.694549 50.368759 79 67 77
3.045761 -12.559590 50.263187 95 82 93
3.039305 -12.424851 50.156662 141 129 139
3.032824 -12.290466 50.049706 191 180 189
3.026347 -12.156557 49.942818 206 198 204
3.019899 -12.023226 49.836407 166 159 163
3.013503 -11.890558 49.730858 103 98 100
3.007178 -11.758621 49.626465 83 80 80
3.000936 -11.627460 49.523464 113 111 112
2.994788 -11.497103 49.422012 154 153 154
2.988739 -11.367556 49.322174 192 191 194
2.982787 -11.238808 49.223953 214 214 219
2.976929 -11.110834 49.127285 202 203 209
2.971156 -10.983589 49.032005 158 159 167
2.965454 -10.857018 48.937912 114 116 125
2.959807 -10.731051 48.844727 101 103 114
2.954195 -10.605613 48.752117 117 119 131
2.948596 -10.480618 48.659714 152 153 165
2.942985 -10.355978 48.567116 194 194 204
2.937336 -10.231608 48.473900 219 218 226
2.931625 -10.107425 48.379650 196 196 203
2.925827 -9.983351 48.283970 146 145 152
2.919920 -9.859320 48.186481 126 125 130
2.913883 -9.735277 48.086857 160 160 163
2.907701 -9.611183 47.984833 211 210 213
2.901361 -9.487015 47.880215 234 233 236
2.894857 -9.362763 47.772873 222 221 227
2.888185 -9.238441 47.662769 193 191 200
2.881348 -9.114069 47.549938 167 163 175
2.874352 -8.989688 47.434490 169 165 178
2.867208 -8.865347 47.316605 204 200 213
2.859932 -8.741110 47.196526 238 235 244
2.852542 -8.617044 47.074566 250 248 252
2.845058 -8.493228 46.951065 244 244 247
2.837505 -8.369738 46.826420 229 229 233
2.829907 -8.246655 46.701035 196 195 201
2.822292 -8.124063 46.575363 152 151 159
2.814687 -8.002039 46.449852 158 156 163
2.807119 -7.880664 46.324966 210 208 212
2.799618 -7.760010 46.201168 246 245 247
2.792211 -7.640149 46.078934 253 252 252
2.784926 -7.521145 45.958721 238 235 236
2.777791 -7.403058 45.840977 209 202 205
2.770832 -7.285941 45.726128 195 185 189
2.764071 -7.169835 45.614563 206 195 200
2.757532 -7.054774 45.506641 201 189 194
2.751231 -6.940782 45.402664 163 151 155
2.745185 -6.827870 45.302883 125 113 117
2.739401 -6.716034 45.207443 109 94 99
2.733886 -6.605258 45.116432 109 92 99
2.728638 -6.495508 45.029819 125 105 115
2.723648 -6.386736 44.947464 150 126 138
2.718900 -6.278881 44.869110 165 140 151
2.714372 -6.171862 44.794384 171 145 155
2.710033 -6.065590 44.722790 184 160 168
2.705848 -5.959964 44.653717 200 182 186
2.701772 -5.854874 44.586464 182 168 172
2.697758 -5.750205 44.520226 127 116 120
2.693754 -5.645842 44.454140 89 80 85
2.689704 -5.541670 44.387310 84 76 82
2.685555 -5.437584 44.318832 81 73 80
2.681252 -5.333489 44.247829 90 80 86
2.676747 -5.229304 44.173473 138 126 129
2.671994 -5.124965 44.095043 204 191 190
2.666959 -5.020432 44.011951 232 216 212
2.661616 -4.915689 43.923775 210 187 181
2.655951 -4.810743 43.830284 162 135 129
2.649962 -4.705626 43.731457 119 91 86
2.643663 -4.600394 43.627502 94 66 62
2.637079 -4.495124 43.518845 86 58 55
2.630249 -4.389913 43.406132 100 71 70
2.623224 -4.284870 43.290215 129 101 99
2.616069 -4.180117 43.172123 150 123 120
2.608851 -4.075776 43.053005 151 126 122
2.601646 -3.971969 42.934113 138 116 111
2.594534 -3.868812 42.816742 113 95 90
2.587592 -3.766409 42.702183 79 63 62
2.580895 -3.664848 42.591663 60 44 47
2.574511 -3.564196 42.486309 65 48 55
2.568499 -3.464501 42.387093 82 63 73
2.562907 -3.365784 42.294807 98 75 86
2.557770 -3.268048 42.210033 103 78 88
2.553109 -3.171268 42.133121 100 74 82
2.548932 -3.075404 42.064194 94 68 73
2.545232 -2.980394 42.003124 92 66 70
2.541986 -2.886165 41.949566 96 70 75
2.539163 -2.792631 41.902981 96 73 78
2.536720 -2.699702 41.862652 93 72 77
2.534604 -2.607284 41.827736 88 68 73
2.532757 -2.515283 41.797260 76 57 62
2.531117 -2.423612 41.770199 63 45 48
2.529620 -2.332189 41.745487 58 40 43
2.528199 -2.240941 41.722046 59 40 43
2.526793 -2.149806 41.698837 60 40 44
2.525340 -2.058732 41.674854 61 41 44
2.523782 -1.967681 41.649155 61 40 43
2.522069 -1.876625 41.620880 60 39 42
2.520153 -1.785546 41.589256 60 38 39
2.517993 -1.694440 41.553612 59 37 39
2.515555 -1.603311 41.513374 59 37 39
2.512810 -1.512170 41.468079 59 37 39
2.509738 -1.421040 41.417389 61 37 39
2.506326 -1.329947 41.361073 62 36 39
2.502567 -1.238926 41.299042 64 34 39
2.498464 -1.148014 41.231331 67 32 39
2.494027 -1.057252 41.158112 72 30 39
2.489275 -0.966684 41.079693 79 28 38
2.484234 -0.876351 40.996502 87 26 36
2.478938 -0.786297 40.909096 93 26 34
2.473425 -0.696558 40.818123 97 25 30
2.467741 -0.607169 40.724319 103 27 30
2.461934 -0.518159 40.628483 134 53 56
2.456054 -0.429549 40.531448 174 90 93
2.450151 -0.341355 40.434040 200 111 115
2.444275 -0.253583 40.337070 226 135 138
2.438473 -0.166235 40.241314 236 143 141
2.432786 -0.079302 40.147461 217 122 109
2.427252 0.007225 40.056141 207 110 88
2.421903 0.093367 39.967869 219 125 92
2.416765 0.179143 39.883080 223 132 92
2.411858 0.264579 39.802109 218 131 89
2.407198 0.349702 39.725208 230 165 125
2.402795 0.434540 39.652538 246 196 161
2.398654 0.519122 39.584202 239 169 141
2.394778 0.603475 39.520237 231 137 115
2.391167 0.687629 39.460648 242 144 125
2.387820 0.771611 39.405407 251 152 133
2.384732 0.855448 39.354450 247 143 121
2.381899 0.939166 39.307705 243 135 110
2.379317 1.022790 39.265079 246 138 112
2.376978 1.106344 39.226490 252 149 121
2.374878 1.189851 39.191830 254 158 129
2.373008 1.273332 39.160980 253 160 129
2.371363 1.356808 39.133820 246 148 113
2.369932 1.440298 39.110218 235 132 93
2.368708 1.523819 39.090012 228 128 87
2.367679 1.607386 39.073036 221 126 86
2.366835 1.691011 39.059097 216 134 100
2.366162 1.774704 39.048000 230 169 144
2.365648 1.858474 39.039505 238 184 168
2.365276 1.942326 39.033379 220 151 146
2.365032 2.026259 39.029350 217 136 139
2.364899 2.110274 39.027149 238 158 166
2.364859 2.194367 39.026489 249 165 173
2.364894 2.278529 39.027077 245 157 162
2.364988 2.362752 39.028625 246 165 162
2.365123 2.447024 39.030849 252 180 169
2.365283 2.531332 39.033485 254 185 167
2.365452 2.615662 39.036278 253 176 152
2.365617 2.700000 39.039001 249 163 137
2.365767 2.784331 39.041470 250 170 143
2.365892 2.868643 39.043537 250 177 153
2.365986 2.952926 39.045097 246 162 142
2.366046 3.037171 39.046089 243 159 142
2.366071 3.121373 39.046486 245 171 157
2.366060 3.205530 39.046318 247 169 155
2.366020 3.289645 39.045654 248 158 144
2.365955 3.373722 39.044586 250 161 144
2.365873 3.457769 39.043232 252 176 155
2.365782 3.541796 39.041729 254 182 158
2.365690 3.625816 39.040211 254 175 150
2.365606 3.709842 39.038822 254 178 153
2.365538 3.793887 39.037693 254 186 164
2.365492 3.877964 39.036942 254 181 162
2.365476 3.962087 39.036667 254 167 151
2.365493 4.046267 39.036953 253 154 143
2.365547 4.130512 39.037849 251 151 143
2.365641 4.214831 39.039398 252 165 160
2.365775 4.299230 39.041607 254 179 176
2.365948 4.383713 39.044472 254 171 170
2.366161 4.468281 39.047981 254 162 160
2.366410 4.552934 39.052090 254 167 163
2.366693 4.637671 39.056755 254 174 167
2.367006 4.722489 39.061920 254 171 159
2.367345 4.807382 39.067520 254 162 144
2.367707 4.892345 39.073486 251 154 128
2.368086 4.977373 39.079746 248 148 118
2.368479 5.062456 39.086239 251 156 122
2.368882 5.147588 39.092884 254 165 131
2.369291 5.232762 39.099636 253 156 125
2.369703 5.317973 39.106438 249 142 113
2.370117 5.403216 39.113262 246 136 109
2.370531 5.488489 39.120090 244 135 108
2.370945 5.573793 39.126930 241 131 102
2.371362 5.659132 39.133808 241 129 97
2.371784 5.744515 39.140785 245 133 98
2.372218 5.829955 39.147934 247 138 98
2.372667 5.915465 39.155354 246 146 103
2.373141 6.001067 39.163162 247 158 112
2.373645 6.086783 39.171486 242 152 103
2.374189 6.172639 39.180470 228 123 71
2.374783 6.258664 39.190266 221 104 50
2.375434 6.344884 39.201012 233 114 59
2.376153 6.431332 39.212868 247 131 74
2.376946 6.518039 39.225967 253 138 81
2.377825 6.605036 39.240459 254 139 83
2.378795 6.692355 39.256470 254 139 84
2.379865 6.780028 39.274132 254 138 84
2.381043 6.868089 39.293579 254 137 86
2.382338 6.956573 39.314945 254 139 89
2.383758 7.045518 39.338371 252 139 90
2.385311 7.134964 39.364002 248 133 84
2.387008 7.224957 39.392010 241 126 75
2.388860 7.315544 39.422569 235 120 67
2.390877 7.406775 39.455856 230 115 60
2.393072 7.498705 39.492077 228 115 60
2.395456 7.591393 39.531422 236 131 76
2.398041 7.684896 39.574093 246 153 100
2.400841 7.779273 39.620285 244 151 102
2.403864 7.874584 39.670174 232 129 83
2.407120 7.970884 39.723919 225 119 77
2.410619 8.068224 39.781647 224 121 84
2.414364 8.166647 39.843452 222 123 91
2.418359 8.266192 39.909386 226 130 102
2.422605 8.366887 39.979450 237 141 118
2.427099 8.468751 40.053616 246 151 131
2.431835 8.571788 40.131783 251 158 141
2.436809 8.676006 40.213856 254 163 148
2.442007 8.781387 40.299648 254 167 152
2.447418 8.887911 40.388947 254 167 152
2.453028 8.995547 40.481522 254 164 149
2.458821 9.104260 40.577114 254 162 145
2.464781 9.214010 40.675465 254 160 142
2.470891 9.324753 40.776310 249 154 135
2.477138 9.436448 40.879387 243 146 128
2.483505 9.549051 40.984463 242 145 129
2.489981 9.662531 41.091335 248 153 139
2.496556 9.776858 41.199841 249 155 144
2.503222 9.892015 41.309853 242 145 136
2.509976 10.007995 41.421310 235 134 126
2.516818 10.124809 41.534218 234 132 124
2.523751 10.242483 41.648643 232 129 119
2.530785 10.361059 41.764717 230 127 114
2.537932 10.480602 41.882656 232 128 113
2.545208 10.601195 42.002739 235 129 113
2.552636 10.722941 42.125317 236 129 111
2.560240 10.845961 42.250797 238 128 110
2.568048 10.970395 42.379654 240 128 109
2.576092 11.096399 42.512398 242 127 109
2.584403 11.224138 42.649559 243 125 107
2.593016 11.353788 42.791695 240 119 103
2.601963 11.485525 42.939339 236 113 96
2.611275 11.619524 43.093010 235 110 94
2.620979 11.755947 43.253162 237 109 94
2.631100 11.894940 43.420181 236 107 92
2.641654 12.036627 43.594341 233 103 89
2.652650 12.181099 43.775818 229 99 87
2.664093 12.328420 43.964664 226 95 85
2.675977 12.478605 44.160763 225 95 85
2.688285 12.631635 44.363884 226 96 87
2.700996 12.787447 44.573650 225 96 88
2.714080 12.945942 44.789566 224 96 88
2.727499 13.106982 45.011032 223 96 87
2.741214 13.270404 45.237358 223 97 87
2.755179 13.436020 45.467812 223 97 86
2.769347 13.603634 45.701633 222 98 85
2.783676 13.773045 45.938087 222 100 86
2.798121 13.944059 46.176479 225 105 90
2.812647 14.116504 46.416191 229 111 96
2.827221 14.290226 46.656700 231 116 101
2.841819 14.465105 46.897602 230 119 103
2.856424 14.641064 47.138634 226 118 103
2.871030 14.818061 47.379662 222 117 104
3.230273 -14.305436 51.476894 79 61 65
3.226286 -14.176949 51.413357 77 60 64
3.222077 -14.047769 51.346283 75 59 64
3.217619 -13.917801 51.275242 77 61 66
3.212894 -13.786992 51.199944 82 65 70
3.207893 -13.655332 51.120239 86 70 75
3.202613 -13.522840 51.036102 91 74 79
3.197063 -13.389579 50.947655 95 79 84
3.191257 -13.255639 50.855145 101 86 92
3.185219 -13.121137 50.758911 108 95 101
3.178973 -12.986203 50.659382 108 96 102
3.172551 -12.850987 50.557049 94 82 90
3.165987 -12.715639 50.452442 82 70 79
3.159315 -12.580312 50.346115 95 83 92
3.152568 -12.445149 50.238602 134 122 132
3.145781 -12.310290 50.130436 173 163 171
3.138983 -12.175858 50.022110 183 174 180
3.132203 -12.041963 49.914070 154 147 150
3.125466 -11.908695 49.806713 113 108 109
3.118792 -11.776128 49.700356 103 99 99
3.112197 -11.644315 49.595253 127 124 125
3.105692 -11.513291 49.491600 156 154 156
3.099285 -11.383070 49.389492 181 180 185
3.092976 -11.253650 49.288960 193 193 201
3.086764 -11.125010 49.189960 176 177 185
3.080640 -10.997111 49.092369 138 139 150
3.074592 -10.869904 48.995995 108 111 122
3.068605 -10.743322 48.900581 109 112 123
3.062659 -10.617297 48.805832 136 138 150
3.056732 -10.491745 48.711380 177 178 189
3.050800 -10.366582 48.616844 214 215 223
3.044837 -10.241723 48.521820 221 222 228
3.038818 -10.117087 48.425903 180 181 187
3.032717 -9.992598 48.328690 120 121 127
3.026514 -9.868189 48.229824 97 99 103
3.020185 -9.743805 48.128983 138 141 144
3.013717 -9.619409 48.025898 205 207 209
3.007095 -9.494973 47.920380 237 239 242
3.000313 -9.370490 47.812298 224 226 232
2.993367 -9.245970 47.701614 202 204 213
2.986260 -9.121432 47.588352 199 198 209
2.978998 -8.996916 47.472630 204 202 214
2.971592 -8.872469 47.354614 213 210 224
2.964058 -8.748152 47.234547 230 227 239
2.956414 -8.624031 47.112732 246 245 250
2.948681 -8.500181 46.989506 250 250 252
2.940883 -8.376677 46.865242 236 237 241
2.933047 -8.253598 46.740356 192 193 202
2.925198 -8.131025 46.615284 147 147 159
2.917366 -8.009036 46.490467 161 161 170
2.909578 -7.887705 46.366360 212 211 218
2.901862 -7.767105 46.243412 243 242 246
2.894250 -7.647305 46.122097 248 246 249
2.886767 -7.528368 46.002857 225 220 222
2.879442 -7.410349 45.886127 176 168 170
2.872301 -7.293303 45.772331 157 147 148
2.865368 -7.177267 45.661846 180 169 171
2.858665 -7.062275 45.555031 183 171 174
2.852210 -6.948349 45.452168 149 135 139
2.846019 -6.835499 45.353497 120 105 111
2.840100 -6.723721 45.259182 113 96 103
2.834459 -6.612995 45.169281 114 93 103
2.829093 -6.503290 45.083767 115 92 103
2.823992 -6.394556 45.002495 118 92 106
2.819143 -6.286731 44.925209 122 95 109
2.814518 -6.179734 44.851521 136 110 123
2.810090 -6.073477 44.780941 174 152 162
2.805817 -5.967858 44.712864 214 200 207
2.801657 -5.862766 44.646564 214 205 210
2.797559 -5.758088 44.581257 172 163 171
2.793469 -5.653708 44.516075 134 128 137
2.789330 -5.549512 44.450123 119 115 126
2.785087 -5.445395 44.382500 108 104 116
2.780683 -5.341263 44.312321 110 103 114
2.776068 -5.237034 44.238777 141 131 139
2.771197 -5.132648 44.161156 188 176 179
2.766033 -5.028066 44.078873 219 203 203
2.760551 -4.923270 43.991512 224 206 202
2.754736 -4.818268 43.898846 202 182 176
2.748588 -4.713094 43.800865 154 131 126
2.742119 -4.607804 43.697781 100 75 73
2.735357 -4.502476 43.590027 74 49 49
2.728342 -4.397205 43.478237 93 68 69
2.721128 -4.292101 43.363266 141 115 117
2.713777 -4.187283 43.246128 177 153 153
2.706362 -4.082872 43.127968 175 153 151
2.698961 -3.978991 43.010014 149 128 127
2.691651 -3.875751 42.893539 120 102 102
2.684515 -3.773256 42.779812 91 75 77
2.677627 -3.671592 42.670044 71 54 60
2.671055 -3.570825 42.565323 72 54 64
2.664860 -3.470999 42.466599 91 71 84
2.659090 -3.372138 42.374645 106 83 97
2.653780 -3.274241 42.290024 109 82 95
2.648951 -3.177285 42.213066 106 79 89
2.644609 -3.081230 42.143883 100 72 81
2.640748 -2.986016 42.082355 94 68 75
2.637345 -2.891570 42.028126 97 71 78
2.634368 -2.797809 41.980675 99 74 82
2.631771 -2.704645 41.939301 96 74 83
2.629504 -2.611986 41.903172 91 70 78
2.627507 -2.519742 41.871349 78 58 65
2.625717 -2.427826 41.842827 64 45 50
2.624069 -2.336160 41.816563 59 40 44
2.622498 -2.244673 41.791523 60 40 44
2.620939 -2.153303 41.766678 61 40 45
2.619331 -2.062003 41.741058 63 41 46
2.617617 -1.970732 41.713737 64 42 46
2.615743 -1.879465 41.683884 63 41 44
2.613663 -1.788186 41.650734 61 40 43
2.611335 -1.696888 41.613628 60 39 41
2.608723 -1.605575 41.572010 60 38 40
2.605799 -1.514261 41.525421 60 38 39
2.602543 -1.422966 41.473526 60 37 39
2.598940 -1.331717 41.416107 61 36 39
2.594984 -1.240547 41.353073 64 34 39
2.590679 -1.149493 41.284470 68 31 39
2.586035 -1.058597 41.210461 74 29 39
2.581071 -0.967899 41.131359 81 26 37
2.575815 -0.877444 41.047600 88 25 34
2.570301 -0.787270 40.959728 94 24 30
2.564569 -0.697416 40.868385 102 25 27
2.558666 -0.607915 40.774307 118 37 35
2.552640 -0.518794 40.678280 153 68 63
2.546542 -0.430076 40.581116 185 96 91
2.540425 -0.341774 40.483635 207 115 109
2.534338 -0.253895 40.386623 234 140 131
2.528327 -0.166439 40.290836 241 146 132
2.522435 -0.079400 40.196949 223 127 106
2.516700 0.007234 40.105556 213 119 90
2.511154 0.093482 40.017166 218 125 90
2.505821 0.179364 39.932190 216 126 85
2.500723 0.264904 39.850945 216 131 86
2.495873 0.350129 39.773659 234 170 127
2.491282 0.435066 39.700489 249 200 161
2.486954 0.519742 39.631531 242 178 145
2.482893 0.604186 39.566814 236 154 126
2.479099 0.688425 39.506351 244 157 133
2.475569 0.772486 39.450100 249 159 136
2.472301 0.856395 39.398018 243 145 123
2.469290 0.940178 39.350033 240 137 115
2.466531 1.023858 39.306072 245 147 125
2.464020 1.107460 39.266052 252 163 141
2.461751 1.191006 39.229889 254 169 146
2.459717 1.274519 39.197487 249 157 131
2.457913 1.358019 39.168732 237 135 105
2.456330 1.441525 39.143513 224 118 84
2.454960 1.525054 39.121681 213 111 74
2.453794 1.608623 39.103100 200 105 66
2.452820 1.692244 39.087578 200 122 86
2.452026 1.775928 39.074924 225 172 143
2.451399 1.859685 39.064926 237 186 168
2.450923 1.943518 39.057350 223 152 145
2.450583 2.027431 39.051926 222 142 145
2.450361 2.111423 39.048389 240 165 175
2.450239 2.195489 39.046452 252 177 188
2.450200 2.279623 39.045818 252 182 190
2.450223 2.363815 39.046188 252 195 194
2.450291 2.448054 39.047272 253 201 191
2.450387 2.532325 39.048794 254 206 188
2.450493 2.616615 39.050499 248 195 173
2.450596 2.700908 39.052139 241 173 150
2.450683 2.785190 39.053516 244 186 164
2.450743 2.869447 39.054482 248 194 176
2.450771 2.953669 39.054920 243 172 159
2.450761 3.037845 39.054764 245 178 168
2.450712 3.121972 39.053986 251 206 197
2.450626 3.206047 39.052612 252 205 194
2.450507 3.290072 39.050724 249 177 164
2.450362 3.374052 39.048409 247 165 148
2.450199 3.457996 39.045803 250 182 161
2.450026 3.541916 39.043049 254 189 166
2.449853 3.625825 39.040302 254 179 154
2.449692 3.709737 39.037720 254 186 162
2.449549 3.793669 39.035450 254 201 178
2.449435 3.877635 39.033623 254 190 172
2.449355 3.961650 39.032364 254 168 152
2.449317 4.045728 39.031761 251 153 141
2.449325 4.129880 39.031879 248 148 141
2.449381 4.214116 39.032772 251 161 157
2.449487 4.298443 39.034458 254 171 170
2.449643 4.382867 39.036942 254 164 163
2.449847 4.467390 39.040195 254 158 158
2.450098 4.552013 39.044189 254 162 161
2.450391 4.636735 39.048870 254 167 163
2.450724 4.721552 39.054176 254 169 161
2.451092 4.806461 39.060032 254 165 151
2.451488 4.891453 39.066357 251 151 130
2.451910 4.976523 39.073078 247 137 113
2.452351 5.061661 39.080097 250 145 116
2.452806 5.146859 39.087345 253 159 128
2.453270 5.232109 39.094753 251 153 124
2.453741 5.317404 39.102257 248 139 111
2.454216 5.402740 39.109814 248 143 119
2.454692 5.488111 39.117401 248 153 130
2.455169 5.573520 39.125015 242 141 118
2.455650 5.658969 39.132679 235 126 102
2.456137 5.744464 39.140438 240 131 103
2.456635 5.830020 39.148373 246 137 105
2.457150 5.915649 39.156570 244 135 97
2.457688 6.001372 39.165150 245 143 101
2.458258 6.087211 39.174232 248 157 109
2.458869 6.173190 39.183968 240 142 91
2.459529 6.259338 39.194485 226 116 61
2.460248 6.345682 39.205944 228 112 56
2.461034 6.432253 39.218479 240 125 68
2.461897 6.519079 39.232227 249 135 79
2.462845 6.606193 39.247330 253 139 84
2.463886 6.693624 39.263916 254 139 86
2.465027 6.781404 39.282104 253 138 87
2.466277 6.869565 39.302029 254 137 88
2.467645 6.958143 39.323818 253 138 90
2.469138 7.047174 39.347614 252 136 89
2.470766 7.136697 39.373562 248 132 83
2.472540 7.226759 39.401836 243 126 75
2.474471 7.317407 39.432610 236 120 66
2.476571 7.408691 39.466068 231 116 60
2.478852 7.500669 39.502422 231 117 60
2.481328 7.593400 39.541878 238 129 72
2.484012 7.686945 39.584648 247 144 89
2.486917 7.781363 39.630932 247 145 93
2.490054 7.876718 39.680923 238 132 85
2.493434 7.973065 39.734787 232 125 82
2.497066 8.070459 39.792671 230 125 88
2.500957 8.168946 39.854668 228 127 95
2.505109 8.268566 39.920845 230 131 103
2.509525 8.369347 39.991203 236 139 116
2.514200 8.471310 40.065720 244 148 128
2.519131 8.574460 40.144291 251 157 140
2.524310 8.678804 40.226826 254 164 148
2.529726 8.784325 40.313126 254 167 152
2.535364 8.890999 40.402977 254 165 150
2.541210 8.998796 40.496140 253 159 144
2.547247 9.107678 40.592350 252 156 140
2.553458 9.217603 40.691326 250 154 136
2.559826 9.328523 40.792793 244 147 128
2.566332 9.440393 40.896484 240 143 124
2.572963 9.553171 41.002144 244 149 132
2.579703 9.666817 41.109562 251 158 143
2.586543 9.781300 41.218555 250 156 142
2.593473 9.896600 41.328999 241 143 131
2.600490 10.012707 41.440815 232 132 121
2.607592 10.129629 41.553993 232 131 120
2.614784 10.247389 41.668594 231 130 119
2.622073 10.366030 41.784752 231 129 115
2.629472 10.485610 41.902668 232 129 113
2.637000 10.606214 42.022621 234 129 112
2.644677 10.727943 42.144970 236 128 110
2.652530 10.850920 42.270115 238 128 110
2.660589 10.975280 42.398525 240 127 109
2.668884 11.101182 42.530724 242 127 109
2.677451 11.228792 42.667244 243 126 108
2.686324 11.358285 42.808640 242 121 104
2.695537 11.489838 42.955460 239 116 99
2.705123 11.623627 43.108223 237 112 96
2.715111 11.759814 43.267391 237 109 94
2.725526 11.898548 43.433350 235 106 91
2.736384 12.039951 43.606384 232 102 88
2.747698 12.184120 43.786674 229 99 86
2.759469 12.331114 43.974270 226 97 84
2.771693 12.480950 44.169064 226 97 85
2.784354 12.633614 44.370831 228 100 89
2.797430 12.789042 44.579205 228 101 91
2.810890 12.947134 44.793694 227 100 91
2.824695 13.107758 45.013695 226 100 90
2.838804 13.270748 45.238533 227 103 91
2.853172 13.435926 45.467491 228 105 91
2.867751 13.603095 45.699821 227 105 91
2.882496 13.772055 45.934788 226 105 90
2.897363 13.942621 46.171715 226 107 91
2.912316 14.114620 46.410000 228 111 95
2.927322 14.287909 46.649136 229 115 99
2.942357 14.462368 46.888729 228 117 102
2.957405 14.637923 47.128521 225 117 104
2.972457 14.814538 47.368397 221 116 106
3.346476 -14.327851 51.557552 69 54 56
3.342349 -14.199180 51.493977 67 52 55
3.338000 -14.069845 51.426979 67 51 55
3.333400 -13.939747 51.356094 70 53 58
3.328526 -13.808822 51.281010 76 58 64
3.323368 -13.677049 51.201538 83 64 71
3.317921 -13.544440 51.117622 89 70 77
3.312191 -13.411050 51.029354 94 76 82
3.306193 -13.276958 50.936932 99 83 88
3.299945 -13.142273 50.840675 104 91 95
3.293474 -13.007122 50.740982 104 93 97
3.286810 -12.871645 50.638317 94 84 89
3.279988 -12.735994 50.533207 85 76 83
3.273040 -12.600316 50.426170 95 86 93
3.266004 -12.464759 50.317760 124 115 122
3.258912 -12.329462 50.208508 153 144 150
