ply
format ascii 1.0
element vertex 1166
property float x
property float y
property float z
property uchar red
property uchar green
property uchar blue
end_header
-9.434133 -1.685567 56.187649 162 161 168
-9.431890 -1.564074 56.174286 163 160 166
-9.430165 -1.442717 56.164021 162 157 163
-9.428930 -1.321474 56.156666 156 151 156
-9.428156 -1.200320 56.152050 152 144 149
-9.427806 -1.079235 56.149971 149 140 145
-9.427852 -0.958199 56.150242 147 138 143
-9.428259 -0.837195 56.152668 146 136 142
-9.428996 -0.716204 56.157055 147 137 143
-9.430035 -0.595214 56.163242 149 138 144
-9.431347 -0.474211 56.171055 150 139 145
-9.432906 -0.353184 56.180347 151 139 146
-9.434691 -0.232122 56.190979 151 138 145
-9.436678 -0.111016 56.202805 152 138 145
-9.438846 0.010140 56.215717 153 139 147
-9.441176 0.131355 56.229599 155 140 148
-9.443652 0.252633 56.244347 156 142 149
-9.446253 0.373980 56.259834 157 143 151
-9.448961 0.495399 56.275963 158 144 152
-9.451758 0.616894 56.292622 160 145 153
-9.454625 0.738466 56.309696 161 147 154
-9.457540 0.860116 56.327053 163 148 155
-9.460480 0.981843 56.344566 165 149 156
-9.463425 1.103646 56.362106 168 151 157
-9.466353 1.225523 56.379551 169 153 158
-9.469244 1.347470 56.396767 170 154 159
-9.472077 1.469482 56.413643 171 155 160
-9.474837 1.591554 56.430077 173 156 161
-9.477508 1.713681 56.445980 173 157 162
-9.480082 1.835858 56.461311 172 155 160
-9.482556 1.958081 56.476048 171 155 159
-9.484933 2.080345 56.490204 170 154 157
-9.487220 2.202650 56.503826 167 152 155
-9.489434 2.324996 56.517014 168 153 155
-9.491597 2.447385 56.529896 169 156 157
-9.493738 2.569824 56.542648 169 157 156
-9.495892 2.692322 56.555473 168 157 155
-9.498096 2.814889 56.568596 167 157 154
-9.500391 2.937542 56.582268 167 157 153
-9.502823 3.060297 56.596752 166 157 152
-9.505432 3.183174 56.612289 165 157 152
-9.508258 3.306194 56.629124 166 158 153
-9.511338 3.429378 56.647472 168 159 154
-9.514704 3.552748 56.667511 171 162 156
-9.518377 3.676322 56.689392 172 162 157
-9.522371 3.800120 56.713181 172 161 157
-9.526690 3.924154 56.738907 170 159 156
-9.531329 4.048434 56.766533 167 156 153
-9.536269 4.172965 56.795952 162 150 149
-9.541487 4.297748 56.827026 156 144 144
-9.546945 4.422776 56.859535 152 140 140
-9.552605 4.548041 56.893246 151 140 140
-9.558421 4.673527 56.927883 150 140 140
-9.564346 4.799218 56.963177 147 138 140
-9.570335 4.925094 56.998844 145 136 138
-9.576349 5.051136 57.034660 143 135 137
-9.582354 5.177328 57.070419 141 133 136
-9.588325 5.303655 57.105984 140 131 136
-9.594253 5.430111 57.141289 139 129 135
-9.600142 5.556697 57.176365 137 127 133
-9.606009 5.683422 57.211311 136 126 132
-9.611889 5.810304 57.246323 135 124 130
-9.617826 5.937373 57.281681 132 122 127
-9.623878 6.064666 57.317726 130 119 124
-9.630113 6.192234 57.354862 128 117 121
-9.636602 6.320128 57.393517 126 115 120
-9.643424 6.448411 57.434143 124 114 119
-9.650654 6.577147 57.477203 123 113 118
-9.658360 6.706399 57.523106 122 112 117
-9.666610 6.836233 57.572231 122 110 117
-9.675456 6.966709 57.624920 122 109 116
-9.684943 7.097882 57.681423 122 108 116
-9.695101 7.229798 57.741917 121 107 115
-9.705946 7.362497 57.806511 121 105 115
-9.717482 7.496007 57.875214 120 104 113
-9.729699 7.630348 57.947979 119 103 112
-9.742577 7.765529 58.024677 117 102 110
-9.756083 7.901549 58.105114 115 101 108
-9.770174 8.038397 58.189037 114 100 107
-9.784801 8.176056 58.276157 114 101 106
-9.799908 8.314496 58.366127 114 101 105
-9.815430 8.453683 58.458572 115 101 104
-9.831300 8.593572 58.553089 115 99 103
-9.847445 8.734113 58.649250 114 97 102
-9.863791 8.875248 58.746605 112 94 99
-9.880260 9.016915 58.844685 108 89 96
-9.896769 9.159043 58.943008 99 80 87
-9.913240 9.301559 59.041111 83 64 73
-9.929592 9.444386 59.138500 67 49 59
-9.945747 9.587441 59.234715 62 45 56
-9.961629 9.730644 59.329300 71 56 69
-9.977169 9.873918 59.421852 83 70 84
-9.992303 10.017183 59.511990 88 76 90
-10.006977 10.160370 59.599384 88 77 90
-10.021146 10.303413 59.683769 86 76 88
-10.034776 10.446260 59.764946 82 74 86
-10.047843 10.588865 59.842777 79 71 82
-10.060340 10.731195 59.917202 76 68 77
-10.072265 10.873230 59.988224 73 63 72
-10.083631 11.014960 60.055920 69 59 67
-10.094463 11.156393 60.120434 63 54 61
-10.104795 11.297544 60.181973 57 49 55
-10.114671 11.438444 60.240788 53 45 50
-10.124143 11.579136 60.297199 49 42 47
-10.133273 11.719676 60.351582 45 39 44
-10.142131 11.860132 60.404331 42 37 42
-9.684261 -7.042659 58.427490 135 111 115
-9.671400 -6.907524 58.349895 136 111 116
-9.658676 -6.772819 58.273129 135 111 116
-9.646097 -6.638545 58.197243 135 111 117
-9.633677 -6.504704 58.122299 136 112 118
-9.621428 -6.371301 58.048397 136 112 120
-9.609366 -6.238338 57.975632 136 113 122
-9.597508 -6.105819 57.904095 137 115 124
-9.585864 -5.973740 57.833836 137 117 125
-9.574438 -5.842098 57.764904 138 120 126
-9.563238 -5.710888 57.697330 138 122 127
-9.552258 -5.580098 57.631084 139 124 128
-9.541491 -5.449715 57.566120 140 125 129
-9.530923 -5.319723 57.502365 141 126 130
-9.520538 -5.190106 57.439713 142 126 130
-9.510318 -5.060847 57.378048 142 125 130
-9.500236 -4.931925 57.317219 142 124 130
-9.490271 -4.803325 57.257099 143 124 131
-9.480400 -4.675031 57.197548 143 124 132
-9.470604 -4.547029 57.138443 144 125 133
-9.460866 -4.419309 57.079697 144 126 134
-9.451177 -4.291864 57.021236 145 127 135
-9.441530 -4.164690 56.963036 145 128 136
-9.431929 -4.037787 56.905106 146 130 138
-9.422383 -3.911157 56.847519 148 132 141
-9.412913 -3.784805 56.790382 148 133 143
-9.403544 -3.658738 56.733856 149 135 146
-9.394307 -3.532966 56.678131 149 136 147
-9.385245 -3.407496 56.623455 150 137 148
-9.376397 -3.282338 56.570076 151 140 150
-9.367815 -3.157499 56.518295 153 144 152
-9.359545 -3.032985 56.468399 154 147 153
-9.351633 -2.908797 56.420662 155 150 154
-9.344127 -2.784936 56.375381 157 154 157
-9.337070 -2.661398 56.332806 157 157 159
-9.330499 -2.538176 56.293156 157 158 161
-9.324442 -2.415258 56.256615 157 158 163
-9.318925 -2.292631 56.223328 157 159 164
-9.313964 -2.170276 56.193398 158 160 166
-9.309566 -2.048174 56.166859 160 161 168
-9.305732 -1.926304 56.143730 161 161 169
-9.302455 -1.804641 56.123959 162 161 169
-9.299723 -1.683162 56.107479 162 160 167
-9.297517 -1.561843 56.094170 162 157 164
-9.295814 -1.440659 56.083893 159 153 160
-9.294588 -1.319587 56.076500 154 146 152
-9.293812 -1.198605 56.071815 149 140 145
-9.293455 -1.077692 56.069664 146 137 141
-9.293489 -0.956828 56.069862 146 135 140
-9.293882 -0.835995 56.072243 146 135 140
-9.294608 -0.715178 56.076618 147 135 141
-9.295639 -0.594362 56.082836 147 135 142
-9.296948 -0.473533 56.090740 149 136 142
-9.298514 -0.352680 56.100185 150 136 143
-9.300314 -0.231791 56.111042 150 135 142
-9.302327 -0.110859 56.123188 150 135 142
-9.304534 0.010126 56.136505 152 137 143
-9.306916 0.131171 56.150879 154 138 145
-9.309457 0.252282 56.166206 155 140 147
-9.312135 0.373465 56.182365 156 141 149
-9.314936 0.494724 56.199261 158 143 150
-9.317837 0.616063 56.216766 159 144 152
-9.320822 0.737483 56.234776 161 145 153
-9.323866 0.858987 56.253139 163 146 154
-9.326948 0.980574 56.271736 165 147 155
-9.330048 1.102243 56.290432 166 149 156
-9.333138 1.223991 56.309082 168 150 157
-9.336203 1.345816 56.327568 169 151 158
-9.339217 1.467713 56.345760 170 152 158
-9.342165 1.589678 56.363544 172 154 160
-9.345032 1.711703 56.380836 174 156 162
-9.347807 1.833786 56.397583 174 156 162
-9.350485 1.955920 56.413738 173 157 161
-9.353066 2.078103 56.429317 170 155 158
-9.355561 2.200332 56.444363 165 150 153
-9.357980 2.322608 56.458958 164 150 152
-9.360344 2.444932 56.473221 166 153 154
-9.362682 2.567310 56.487328 167 154 154
-9.365025 2.689750 56.501461 167 155 153
-9.367409 2.812264 56.515846 167 156 153
-9.369874 2.934865 56.530716 167 156 153
-9.372461 3.057571 56.546329 166 156 153
-9.375215 3.180399 56.562939 166 156 153
-9.378170 3.303371 56.580769 166 157 154
-9.381364 3.426507 56.600040 168 159 155
-9.384828 3.549828 56.620937 171 161 158
-9.388581 3.673352 56.643585 173 162 158
-9.392640 3.797097 56.668076 173 162 158
-9.397010 3.921078 56.694435 171 161 157
-9.401682 4.045302 56.722622 169 158 155
-9.406642 4.169776 56.752548 164 153 150
-9.411866 4.294499 56.784065 157 146 144
-9.417320 4.419466 56.816971 153 142 140
-9.422964 4.544666 56.851021 152 142 141
-9.428755 4.670086 56.885960 151 142 142
-9.434648 4.795708 56.921513 148 140 140
-9.440597 4.921513 56.957405 147 138 139
-9.446565 5.047482 56.993408 145 138 139
-9.452517 5.173599 57.029316 144 136 139
-9.458431 5.299849 57.065002 143 134 139
-9.464298 5.426226 57.100399 141 132 138
-9.470120 5.552729 57.135532 139 130 136
-9.475915 5.679367 57.170490 138 128 134
-9.481716 5.806159 57.205486 136 126 131
-9.487567 5.933134 57.240788 134 124 128
-9.493526 6.060330 57.276737 132 121 126
-9.499658 6.187793 57.313736 129 119 123
-9.506037 6.315580 57.352219 127 116 121
-9.512737 6.443751 57.392643 124 115 119
-9.519835 6.572371 57.435474 122 114 118
-9.527402 6.701505 57.481125 122 112 117
-9.535502 6.831218 57.529995 121 110 117
-9.544192 6.961571 57.582420 121 109 116
-9.553516 7.092622 57.638680 121 107 115
-9.563506 7.224418 57.698948 121 106 113
-9.574182 7.357000 57.763351 120 104 112
-9.585548 7.490401 57.831932 119 103 110
-9.597597 7.624639 57.904625 118 102 109
-9.610312 7.759728 57.981335 117 101 108
-9.623658 7.895667 58.061859 116 101 107
-9.637599 8.032448 58.145966 115 100 107
-9.652084 8.170052 58.233360 114 101 106
-9.667057 8.308452 58.323696 114 100 105
-9.682454 8.447612 58.416588 114 99 104
-9.698207 8.587487 58.511631 114 98 103
-9.714242 8.728025 58.608372 114 97 103
-9.730482 8.869167 58.706352 112 93 101
-9.746846 9.010847 58.805080 107 87 97
-9.763251 9.152990 58.904057 97 78 89
-9.779614 9.295521 59.002781 83 64 77
-9.795854 9.438358 59.100758 70 51 65
-9.811888 9.581416 59.197491 66 50 63
-9.827639 9.724612 59.292519 74 59 74
-9.843036 9.867863 59.385414 84 71 86
-9.858015 10.011090 59.475792 88 77 91
-9.872523 10.154222 59.563320 88 78 92
-9.886516 10.297194 59.647739 87 78 92
-9.899960 10.439951 59.728851 85 77 90
-9.912836 10.582453 59.806538 82 73 85
-9.925135 10.724666 59.880741 79 69 80
-9.936863 10.866572 59.951496 75 64 74
-9.948034 11.008171 60.018898 69 59 68
-9.958678 11.149467 60.083115 63 54 62
-9.968829 11.290483 60.144360 57 49 55
-9.978535 11.431253 60.202915 52 45 50
-9.987850 11.571822 60.259117 48 41 46
-9.996837 11.712250 60.313339 44 38 43
-10.005566 11.852606 60.366001 41 36 41
-10.014112 11.992970 60.417564 40 37 41
-9.562799 -7.297985 58.454929 134 112 114
-9.550208 -7.162532 58.377960 135 113 115
-9.537748 -7.027509 58.301796 136 113 116
-9.525414 -6.892904 58.226398 136 113 117
-9.513205 -6.758713 58.151768 135 113 117
-9.501128 -6.624937 58.077946 136 113 118
-9.489194 -6.491576 58.004993 138 115 121
-9.477415 -6.358634 57.932995 138 116 123
-9.465808 -6.226116 57.862041 137 116 124
-9.454384 -6.094021 57.792210 137 117 125
-9.443154 -5.962350 57.723568 138 119 126
-9.432128 -5.831101 57.656170 139 121 127
-9.421308 -5.700267 57.590023 139 122 127
-9.410692 -5.569839 57.525131 139 124 128
-9.400274 -5.439806 57.461452 140 124 128
-9.390043 -5.310153 57.398914 140 125 128
-9.379986 -5.180865 57.337433 141 125 127
-9.370084 -5.051926 57.276909 142 125 128
-9.360316 -4.923319 57.217201 142 124 129
-9.350663 -4.795028 57.158192 143 125 131
-9.341103 -4.667037 57.099751 144 125 133
-9.331616 -4.539335 57.041763 144 126 134
-9.322191 -4.411911 56.984150 145 127 135
-9.312815 -4.284759 56.926838 145 128 136
-9.303486 -4.157875 56.869812 146 130 138
-9.294207 -4.031258 56.813087 147 131 139
-9.284985 -3.904909 56.756714 148 133 142
-9.275838 -3.778835 56.700806 148 134 144
-9.266792 -3.653041 56.645512 149 136 147
-9.257878 -3.527536 56.591022 150 138 150
-9.249133 -3.402328 56.537567 151 140 152
-9.240597 -3.277424 56.485386 153 142 154
-9.232315 -3.152833 56.434761 154 146 156
-9.224334 -3.028558 56.385975 156 149 158
-9.216697 -2.904602 56.339291 157 153 159
-9.209449 -2.780965 56.294987 157 155 160
-9.202631 -2.657643 56.253307 158 158 162
-9.196277 -2.534628 56.214466 158 159 163
-9.190415 -2.411911 56.178638 158 160 164
-9.185071 -2.289476 56.145973 158 160 165
-9.180259 -2.167308 56.116550 158 160 167
-9.175987 -2.045388 56.090443 159 160 168
-9.172256 -1.923693 56.067635 159 159 168
-9.169061 -1.802202 56.048103 159 157 167
-9.166390 -1.680892 56.031784 158 154 163
-9.164227 -1.559738 56.018562 156 151 159
-9.162553 -1.438718 56.008324 154 146 154
-9.161341 -1.317808 56.000916 150 141 147
-9.160568 -1.196988 55.996189 146 137 141
-9.160208 -1.076237 55.993984 144 134 137
-9.160231 -0.955535 55.994129 144 133 137
-9.160611 -0.834866 55.996456 145 133 138
-9.161325 -0.714212 56.000813 145 133 139
-9.162344 -0.593559 56.007046 146 133 139
-9.163648 -0.472894 56.015011 147 133 139
-9.165214 -0.352204 56.024586 148 134 140
-9.167020 -0.231480 56.035629 149 133 140
-9.169049 -0.110710 56.048031 150 134 140
-9.171282 0.010113 56.061684 152 136 141
-9.173701 0.130997 56.076469 153 137 142
-9.176289 0.251950 56.092285 154 138 144
-9.179027 0.372978 56.109024 155 139 146
-9.181896 0.494084 56.126564 156 140 148
-9.184879 0.615274 56.144798 157 141 149
-9.187955 0.736550 56.163597 159 142 150
-9.191102 0.857913 56.182838 160 142 151
-9.194298 0.979365 56.202370 162 144 153
-9.197518 1.100904 56.222061 164 146 154
-9.200743 1.222528 56.241772 165 147 155
-9.203947 1.344234 56.261356 166 148 156
-9.207110 1.466019 56.280689 168 149 156
-9.210215 1.587876 56.299664 170 151 158
-9.213243 1.709801 56.318176 171 153 159
-9.216186 1.831789 56.336166 172 154 160
-9.219035 1.953835 56.353584 172 155 159
-9.221792 2.075935 56.370434 169 153 156
-9.224463 2.198087 56.386757 165 149 152
-9.227057 2.320290 56.402618 163 149 151
-9.229596 2.442547 56.418144 164 151 151
-9.232106 2.564863 56.433487 165 152 151
-9.234614 2.687244 56.448818 165 153 151
-9.237158 2.809703 56.464367 166 155 152
-9.239776 2.932251 56.480362 166 156 153
-9.242505 3.054906 56.497051 167 156 154
-9.245387 3.177685 56.514671 167 156 155
-9.248461 3.300609 56.533455 167 157 155
-9.251759 3.423696 56.553612 169 158 157
-9.255310 3.546968 56.575325 171 160 158
-9.259139 3.670443 56.598728 172 161 159
-9.263258 3.794138 56.623909 173 162 159
-9.267672 3.918066 56.650887 172 161 158
-9.272376 4.042237 56.679642 170 159 156
-9.277354 4.166655 56.710072 166 155 152
-9.282583 4.291320 56.742039 160 150 146
-9.288031 4.416227 56.775337 156 145 142
-9.293659 4.541366 56.809742 154 144 142
-9.299428 4.666723 56.845001 152 143 142
-9.305289 4.792281 56.880833 149 141 140
-9.311201 4.918019 56.916973 148 141 140
-9.317126 5.043921 56.953190 147 140 140
-9.323033 5.169968 56.989296 146 139 141
-9.328897 5.296147 57.025146 145 137 141
-9.334711 5.422451 57.060680 143 135 140
-9.340476 5.548880 57.095924 140 132 137
-9.346211 5.675442 57.130981 139 130 135
-9.351946 5.802155 57.166035 137 128 132
-9.357726 5.929048 57.201370 135 126 129
-9.363608 6.056159 57.237324 133 124 127
-9.369658 6.183536 57.274296 132 122 125
-9.375943 6.311231 57.312721 129 119 123
-9.382543 6.439307 57.353065 126 116 120
-9.389529 6.567828 57.395771 123 114 119
-9.396977 6.696862 57.441299 121 110 116
-9.404948 6.826471 57.490025 119 107 114
-9.413501 6.956721 57.542301 119 106 113
-9.422679 7.087667 57.598404 119 106 112
-9.432517 7.219359 57.658546 120 104 110
-9.443037 7.351842 57.722851 119 103 108
-9.454245 7.485146 57.791359 118 101 107
-9.466136 7.619296 57.864044 117 101 106
-9.478692 7.754303 57.940800 116 100 105
-9.491885 7.890171 58.021446 115 100 105
-9.505677 8.026892 58.105751 115 99 106
-9.520018 8.164448 58.193417 114 99 106
-9.534854 8.302812 58.284103 114 98 105
-9.550120 8.441948 58.377422 113 97 104
-9.565748 8.581810 58.472954 114 97 104
-9.581664 8.722346 58.570240 113 96 104
-9.597788 8.863494 58.668800 109 91 101
-9.614038 9.005185 58.768131 104 85 96
-9.630328 9.147343 58.867710 96 77 90
-9.646575 9.289888 58.967026 84 66 81
-9.662692 9.432734 59.065544 74 57 73
-9.678598 9.575797 59.162773 71 56 72
-9.694213 9.718987 59.258221 76 64 80
-9.709465 9.862220 59.351456 84 73 90
-9.724291 10.005416 59.442081 88 78 94
-9.738635 10.148500 59.529766 89 80 95
-9.752456 10.291411 59.614246 89 80 96
-9.765722 10.434093 59.695339 88 78 93
-9.778415 10.576506 59.772930 84 74 89
-9.790530 10.718619 59.846985 80 70 83
-9.802074 10.860421 59.917557 76 65 77
-9.813067 11.001907 59.984749 70 59 70
-9.823538 11.143090 60.048752 64 55 63
-9.833526 11.283997 60.109806 58 49 56
-9.843080 11.424663 60.168205 52 44 51
-9.852256 11.565136 60.224297 47 40 46
-9.861116 11.705478 60.278465 42 36 42
-9.869733 11.845759 60.331135 40 36 40
-9.878181 11.986063 60.382771 39 36 40
-9.886540 12.126482 60.433872 40 38 41
-9.416612 -7.282380 58.329933 136 115 117
-9.404540 -7.147466 58.255161 137 116 117
-9.392593 -7.012967 58.181156 138 117 118
-9.380764 -6.878874 58.107883 138 117 119
-9.369051 -6.745180 58.035324 136 117 119
-9.357457 -6.611883 57.963509 137 117 120
-9.345993 -6.478986 57.892494 138 118 123
-9.334669 -6.346490 57.822350 139 120 125
-9.323499 -6.214399 57.753155 138 119 125
-9.312493 -6.082715 57.684986 138 120 125
-9.301666 -5.951437 57.617916 139 121 126
-9.291022 -5.820565 57.551987 139 122 126
-9.280568 -5.690093 57.487228 139 123 126
-9.270304 -5.560013 57.423649 139 124 126
-9.260223 -5.430316 57.361206 140 124 126
-9.250318 -5.300988 57.299847 140 124 126
-9.240577 -5.172017 57.239506 140 124 126
-9.230983 -5.043386 57.180080 141 124 127
-9.221518 -4.915080 57.121449 142 124 128
-9.212163 -4.787084 57.063503 142 124 130
-9.202903 -4.659386 57.006138 143 125 132
-9.193716 -4.531971 56.949238 144 127 134
-9.184593 -4.404833 56.892727 145 128 136
-9.175524 -4.277963 56.836548 146 129 138
-9.166504 -4.151357 56.780670 146 131 139
-9.157537 -4.025016 56.725132 147 132 140
-9.148632 -3.898941 56.669968 147 133 142
-9.139804 -3.773135 56.615284 147 135 145
-9.131077 -3.647606 56.561230 148 136 148
-9.122481 -3.522359 56.507980 149 139 152
-9.114049 -3.397404 56.455750 152 141 155
-9.105822 -3.272748 56.404785 154 145 157
-9.097839 -3.148396 56.355343 156 149 160
-9.090146 -3.024353 56.307686 158 153 162
-9.082786 -2.900622 56.262093 158 155 163
-9.075796 -2.777201 56.218800 158 157 164
-9.069219 -2.654087 56.178055 158 159 165
-9.063086 -2.531273 56.140060 158 160 165
-9.057425 -2.408749 56.105000 158 160 166
-9.052258 -2.286500 56.072998 158 160 166
-9.047601 -2.164512 56.044144 158 159 167
-9.043461 -2.042764 56.018501 158 158 167
-9.039841 -1.921238 55.996075 157 155 165
-9.036735 -1.799910 55.976833 156 153 163
-9.034132 -1.678760 55.960712 154 150 159
-9.032021 -1.557763 55.947636 151 146 154
-9.030379 -1.436898 55.937469 149 142 149
-9.029188 -1.316142 55.930092 147 138 143
-9.028424 -1.195474 55.925358 145 135 139
-9.028065 -1.074875 55.923130 144 133 136
-9.028081 -0.954325 55.923233 144 132 135
-9.028452 -0.833808 55.925526 144 132 136
-9.029152 -0.713307 55.929867 145 132 137
-9.030160 -0.592807 55.936111 145 132 137
-9.031454 -0.472295 55.944130 147 132 138
-9.033013 -0.351759 55.953789 148 133 138
-9.034822 -0.231188 55.964981 149 133 138
-9.036857 -0.110571 55.977592 151 134 138
-9.039104 0.010100 55.991512 152 135 139
-9.041545 0.130834 56.006634 153 136 140
-9.044165 0.251638 56.022858 153 137 141
-9.046942 0.372519 56.040066 153 137 143
-9.049860 0.493482 56.058140 154 137 144
-9.052901 0.614531 56.076981 155 137 146
-9.056046 0.735669 56.096451 156 138 146
-9.059267 0.856899 56.116409 157 139 148
-9.062548 0.978221 56.136730 159 141 151
-9.065862 1.099635 56.157257 161 143 153
-9.069185 1.221139 56.177849 163 145 154
-9.072498 1.342730 56.198372 164 146 154
-9.075777 1.464403 56.218681 165 147 154
-9.079004 1.586156 56.238667 166 148 155
-9.082163 1.707981 56.258232 167 149 155
-9.085239 1.829875 56.277290 168 150 156
-9.088229 1.951832 56.295815 168 150 155
-9.091129 2.073848 56.313778 166 150 153
-9.093946 2.195922 56.331226 164 148 151
-9.096690 2.318052 56.348221 164 148 150
-9.099378 2.440241 56.364868 164 149 150
-9.102034 2.562492 56.381321 165 150 150
-9.104686 2.684813 56.397747 166 152 151
-9.107368 2.807215 56.414368 167 154 153
-9.110118 2.929709 56.431396 167 155 154
-9.112973 3.052313 56.449085 168 155 156
-9.115972 3.175042 56.467655 168 155 157
-9.119149 3.297917 56.487343 169 156 157
-9.122540 3.420956 56.508347 169 157 158
-9.126174 3.544180 56.530853 170 158 158
-9.130070 3.667606 56.554989 171 160 158
-9.134242 3.791252 56.580833 172 160 159
-9.138698 3.915130 56.608429 172 161 158
-9.143428 4.039248 56.637733 171 160 156
-9.148422 4.163613 56.668667 168 157 153
-9.153655 4.288223 56.701080 163 153 147
-9.159096 4.413073 56.734783 159 149 144
-9.164708 4.538153 56.769550 156 147 142
-9.170452 4.663450 56.805134 153 145 141
-9.176284 4.788946 56.841255 150 143 140
-9.182162 4.914623 56.877666 148 142 139
-9.188048 5.040461 56.914127 147 142 141
-9.193914 5.166445 56.950462 147 141 142
-9.199736 5.292561 56.986526 146 139 142
-9.205503 5.418799 57.022251 143 136 140
-9.211222 5.545163 57.057674 141 133 137
-9.216907 5.671658 57.092888 140 132 136
-9.222589 5.798304 57.128090 139 131 134
-9.228313 5.925128 57.163544 138 129 132
-9.234134 6.052168 57.199600 137 127 130
-9.240114 6.179471 57.236645 137 124 128
-9.246326 6.307091 57.275127 133 121 125
-9.252844 6.435090 57.315498 129 118 123
-9.259740 6.563530 57.358212 125 113 119
-9.267085 6.692480 57.403709 121 108 115
-9.274945 6.822004 57.452400 118 105 112
-9.283377 6.952167 57.504627 118 104 111
-9.292427 7.083025 57.560684 119 104 110
-9.302129 7.214631 57.620785 119 103 107
-9.312505 7.347028 57.685055 118 102 106
-9.323564 7.480250 57.753559 117 100 105
-9.335302 7.614322 57.826275 116 100 104
-9.347706 7.749259 57.903107 115 99 103
-9.360746 7.885063 57.983883 114 99 103
-9.374387 8.021729 58.068378 114 98 105
-9.388581 8.159241 58.156300 114 98 106
-9.403273 8.297569 58.247307 114 98 106
-9.418400 8.436682 58.341007 113 96 105
-9.433892 8.576530 58.436977 112 94 105
-9.449677 8.717060 58.534748 110 91 103
-9.465672 8.858211 58.633827 106 87 99
-9.481793 8.999908 58.733692 100 81 94
-9.497957 9.142076 58.833820 93 74 89
-9.514075 9.284632 58.933659 84 67 84
-9.530061 9.427486 59.032681 77 62 79
-9.545830 9.570551 59.130360 75 62 79
-9.561303 9.713736 59.226204 79 69 85
-9.576406 9.856954 59.319763 85 76 92
-9.591078 10.000123 59.410637 89 80 96
-9.605261 10.143170 59.498493 92 83 98
-9.618916 10.286030 59.583076 93 84 100
-9.632010 10.428650 59.664196 91 82 98
-9.644533 10.570991 59.741760 86 76 92
-9.656477 10.713024 59.815746 81 71 85
-9.667852 10.854740 59.886211 76 66 79
-9.678682 10.996138 59.953293 71 60 72
-9.688998 11.137235 60.017193 65 55 65
-9.698841 11.278057 60.078167 58 50 58
-9.708261 11.418645 60.136517 52 45 52
-9.717316 11.559051 60.192604 47 41 47
-9.726070 11.699335 60.246830 42 37 42
-9.734591 11.839572 60.299618 40 36 40
-9.742955 11.979841 60.351425 40 37 40
-9.751241 12.120237 60.402752 40 38 41
-9.759532 12.260861 60.454109 40 39 41
-9.295440 -7.537563 58.358612 135 117 121
-9.283560 -7.402288 58.284023 136 118 121
-9.271844 -7.267465 58.210472 137 118 120
-9.260269 -7.133067 58.137802 138 119 120
-9.248814 -6.999073 58.065884 138 119 120
-9.237469 -6.865470 57.994659 138 120 121
-9.226230 -6.732252 57.924095 138 120 121
-9.215100 -6.599417 57.854225 137 120 122
-9.204086 -6.466964 57.785076 138 121 124
-9.193199 -6.334897 57.716724 138 121 125
-9.182449 -6.203217 57.649231 139 122 126
-9.171848 -6.071927 57.582680 139 123 127
-9.161407 -5.941027 57.517124 140 123 127
-9.151133 -5.810515 57.452621 140 124 126
-9.141032 -5.680390 57.389210 140 124 126
-9.131106 -5.550645 57.326893 140 125 126
-9.121350 -5.421268 57.265640 141 125 126
-9.111758 -5.292252 57.205418 141 125 126
-9.102319 -5.163582 57.146156 142 125 127
-9.093021 -5.035245 57.087788 143 125 128
-9.083848 -4.907228 57.030193 143 124 128
-9.074781 -4.779515 56.973274 141 123 128
-9.065808 -4.652095 56.916939 141 124 129
-9.056911 -4.524956 56.861084 143 127 133
-9.048081 -4.398091 56.805645 145 129 136
-9.039307 -4.271491 56.750557 146 131 137
-9.030587 -4.145153 56.695816 146 132 138
-9.021925 -4.019077 56.641430 146 133 140
-9.013327 -3.893264 56.587448 147 134 142
-9.004810 -3.767717 56.533981 147 136 145
-8.996395 -3.642442 56.481152 148 138 149
-8.988111 -3.517445 56.429138 149 140 152
-8.979988 -3.392734 56.378143 151 143 156
-8.972065 -3.268315 56.328396 154 148 159
-8.964378 -3.144194 56.280144 157 152 162
-8.956972 -3.020376 56.233643 159 156 165
-8.949884 -2.896861 56.189148 159 158 166
-8.943155 -2.773649 56.146900 159 159 167
-8.936821 -2.650736 56.107128 158 159 168
-8.930911 -2.528116 56.070023 158 160 168
-8.925453 -2.405776 56.035759 158 159 167
-8.920467 -2.283706 56.004463 158 158 166
-8.915971 -2.161889 55.976227 157 158 166
-8.911970 -2.040307 55.951111 156 156 164
-8.908465 -1.918940 55.929108 155 153 162
-8.905455 -1.797768 55.910210 153 149 159
-8.902929 -1.676769 55.894352 151 146 154
-8.900876 -1.555921 55.881458 148 142 150
-8.899277 -1.435201 55.871422 147 139 145
-8.898113 -1.314589 55.864117 146 136 141
-8.897366 -1.194065 55.859421 145 134 139
-8.897010 -1.073608 55.857189 145 133 136
-8.897025 -0.953200 55.857288 145 132 135
-8.897388 -0.832825 55.859562 145 132 136
-8.898079 -0.712465 55.863899 145 132 136
-8.899076 -0.592108 55.870155 146 132 136
-8.900358 -0.471739 55.878212 148 132 136
-8.901909 -0.351345 55.887943 149 133 137
-8.903710 -0.230917 55.899254 150 134 137
-8.905745 -0.110442 55.912029 151 135 137
-8.907995 0.010088 55.926155 152 135 137
-8.910446 0.130682 55.941544 153 135 138
-8.913080 0.251347 55.958080 153 135 139
-8.915880 0.372091 55.975658 153 135 141
-8.918829 0.492919 55.994171 154 135 142
-8.921906 0.613835 56.013489 154 136 144
-8.925092 0.734843 56.033493 155 136 145
-8.928365 0.855947 56.054039 157 138 147
-8.931702 0.977145 56.074989 158 140 150
-8.935079 1.098439 56.096191 159 141 151
-8.938475 1.219827 56.117512 161 143 152
-8.941865 1.341306 56.138798 161 144 152
-8.945229 1.462873 56.159916 163 145 152
-8.948546 1.584522 56.180744 164 146 152
-8.951801 1.706249 56.201183 165 146 152
-8.954982 1.828049 56.221149 166 147 152
-8.958080 1.949917 56.240601 165 147 151
-8.961094 2.071850 56.259521 164 146 149
-8.964028 2.193845 56.277943 163 146 148
-8.966891 2.315900 56.295918 164 147 148
-8.969701 2.438019 56.313553 165 148 149
-8.972479 2.560205 56.330997 165 149 149
-8.975253 2.682465 56.348415 167 151 151
-8.978055 2.804808 56.366005 168 153 153
-8.980918 2.927247 56.383980 168 154 155
-8.983882 3.049798 56.402588 168 154 156
-8.986980 3.172477 56.422043 169 153 157
-8.990252 3.295303 56.442581 169 153 157
-8.993725 3.418294 56.464386 169 153 157
-8.997430 3.541471 56.487644 169 155 157
-9.001386 3.664850 56.512482 170 156 157
-9.005607 3.788447 56.538982 171 158 157
-9.010097 3.912276 56.567169 172 159 157
-9.014852 4.036345 56.597023 173 161 157
-9.019856 4.160657 56.628445 170 159 155
-9.025090 4.285214 56.661301 166 156 150
-9.030523 4.410010 56.695412 161 152 145
-9.036119 4.535035 56.730549 158 149 143
-9.041841 4.660275 56.766464 154 146 141
-9.047643 4.785714 56.802891 150 143 139
-9.053488 4.911333 56.839588 148 142 139
-9.059339 5.037113 56.876324 148 142 141
-9.065166 5.163038 56.912910 148 142 142
-9.070951 5.289096 56.949223 146 140 141
-9.076679 5.415277 56.985191 143 137 140
-9.082359 5.541584 57.020847 142 135 138
-9.088005 5.668023 57.056297 142 134 138
-9.093647 5.794612 57.091713 143 134 137
-9.099327 5.921379 57.127377 143 132 136
-9.105102 6.048362 57.163631 143 130 134
-9.111032 6.175607 57.200859 141 127 131
-9.117186 6.303167 57.239494 138 123 127
-9.123636 6.431104 57.279995 133 118 123
-9.130459 6.559481 57.322826 128 113 119
-9.137721 6.688365 57.368420 122 107 114
-9.145487 6.817822 57.417175 118 103 110
-9.153813 6.947913 57.469448 118 102 109
-9.162747 7.078700 57.525539 118 103 108
-9.172324 7.210234 57.585667 118 102 106
-9.182567 7.342560 57.649971 117 102 105
-9.193485 7.475712 57.718521 117 101 104
-9.205078 7.609718 57.791306 116 100 103
-9.217330 7.744591 57.868225 115 99 102
-9.230217 7.880337 57.949131 114 98 103
-9.243704 8.016953 58.033798 114 98 104
-9.257743 8.154420 58.121941 114 97 106
-9.272282 8.292714 58.213219 114 97 106
-9.287258 8.431799 58.307243 114 95 106
-9.302603 8.571629 58.403580 111 92 105
-9.318240 8.712148 58.501759 107 88 102
-9.334091 8.853292 58.601273 102 83 97
-9.350072 8.994990 58.701599 97 78 93
-9.366093 9.137160 58.802185 91 73 89
-9.382069 9.279720 58.902485 85 68 86
-9.397910 9.422577 59.001942 81 66 84
-9.413532 9.565640 59.100021 81 69 87
-9.428856 9.708818 59.196224 84 74 92
-9.443807 9.852022 59.290089 88 79 97
-9.458322 9.995171 59.381214 92 83 101
-9.472345 10.138186 59.469261 96 87 104
-9.485839 10.281006 59.553974 97 89 105
-9.498773 10.423578 59.635178 94 85 102
-9.511134 10.565863 59.712780 87 77 95
-9.522920 10.707836 59.786774 81 71 88
-9.534142 10.849487 59.857231 77 66 81
-9.544826 10.990821 59.924305 72 61 74
-9.555005 11.131857 59.988213 66 55 68
-9.564721 11.272622 60.049213 60 51 61
-9.574027 11.413161 60.107639 54 46 55
-9.582980 11.553527 60.163845 49 42 50
-9.591644 11.693784 60.218243 44 39 45
-9.600087 11.834002 60.271248 42 39 42
-9.608384 11.974265 60.323334 41 38 41
-9.616610 12.114664 60.374977 41 39 42
-9.624846 12.255301 60.426689 41 39 42
-9.162739 -7.657598 58.314697 136 117 123
-9.151134 -7.522352 58.240845 136 117 122
-9.139731 -7.387588 58.168274 136 118 121
-9.128493 -7.253267 58.096748 137 118 120
-9.117391 -7.119360 58.026093 138 119 120
-9.106405 -6.985848 57.956173 138 120 121
-9.095523 -6.852715 57.886913 138 121 121
-9.084739 -6.719954 57.818279 138 121 122
-9.074053 -6.587560 57.750275 138 122 123
-9.063472 -6.455533 57.682930 138 122 124
-9.053002 -6.323874 57.616299 139 123 126
-9.042657 -6.192588 57.550457 140 124 127
-9.032443 -6.061675 57.485458 141 125 128
-9.022374 -5.931136 57.421371 141 126 128
-9.012455 -5.800971 57.358246 141 126 127
-9.002694 -5.671176 57.296120 142 126 127
-8.993093 -5.541749 57.235016 143 126 127
-8.983647 -5.412679 57.174904 143 126 127
-8.974356 -5.283958 57.115768 144 126 128
-8.965208 -5.155575 57.057549 145 127 129
-8.956194 -5.027518 57.000179 146 128 130
-8.947300 -4.899775 56.943577 144 126 130
-8.938512 -4.772331 56.887642 140 123 127
-8.929814 -4.645176 56.832291 139 123 127
-8.921196 -4.518301 56.777443 143 127 132
-8.912646 -4.391694 56.723026 146 130 135
-8.904158 -4.265352 56.669006 146 132 137
-8.895727 -4.139270 56.615349 146 133 139
-8.887359 -4.013448 56.562092 146 135 140
-8.879059 -3.887884 56.509266 147 136 142
-8.870843 -3.762585 56.456982 148 138 146
-8.862733 -3.637554 56.405361 149 140 150
-8.854753 -3.512797 56.354572 150 143 154
-8.846931 -3.388320 56.304802 151 146 157
-8.839306 -3.264130 56.256268 154 150 161
-8.831912 -3.140232 56.209209 156 154 164
-8.824788 -3.016628 56.163872 158 157 166
-8.817973 -2.893322 56.120495 159 159 168
-8.811502 -2.770310 56.079308 160 160 170
-8.805408 -2.647590 56.040531 160 161 171
-8.799723 -2.525154 56.004345 160 161 171
-8.794471 -2.402992 55.970921 159 160 169
-8.789672 -2.281093 55.940376 157 158 167
-8.785339 -2.159439 55.912804 156 156 165
-8.781482 -2.038015 55.888252 155 153 163
-8.778100 -1.916800 55.866730 153 149 160
-8.775192 -1.795775 55.848225 150 145 155
-8.772751 -1.674919 55.832687 147 142 150
-8.770763 -1.554210 55.820038 145 138 146
-8.769214 -1.433628 55.810177 145 136 143
-8.768085 -1.313151 55.802998 146 135 140
-8.767361 -1.192760 55.798382 145 134 139
-8.767018 -1.072435 55.796200 146 133 138
-8.767035 -0.952160 55.796314 145 133 137
-8.767397 -0.831916 55.798615 146 133 136
-8.768079 -0.711688 55.802952 146 134 136
-8.769065 -0.591462 55.809227 147 133 135
-8.770335 -0.471225 55.817318 148 133 135
-8.771874 -0.350963 55.827110 149 134 136
-8.773665 -0.230666 55.838505 150 135 136
-8.775690 -0.110322 55.851391 152 136 136
-8.777934 0.010077 55.865677 153 136 136
-8.780383 0.130541 55.881260 153 136 136
-8.783019 0.251078 55.898041 154 135 138
-8.785825 0.371694 55.915897 154 135 140
-8.788784 0.492395 55.934731 155 135 142
-8.791877 0.613188 55.954411 155 136 143
-8.795083 0.734074 55.974815 156 137 146
-8.798382 0.855057 55.995811 157 138 148
-8.801750 0.976139 56.017250 157 139 150
-8.805164 1.097319 56.038979 158 140 151
-8.808602 1.218596 56.060860 159 141 151
-8.812041 1.339967 56.082748 159 142 150
-8.815459 1.461429 56.104500 160 143 149
-8.818839 1.582978 56.126007 161 143 148
-8.822160 1.704609 56.147144 162 144 148
-8.825414 1.826316 56.167854 164 145 148
-8.828591 1.948096 56.188076 164 145 148
-8.831690 2.069945 56.207794 163 144 146
-8.834714 2.191860 56.227039 163 144 145
-8.837671 2.313841 56.245861 163 146 145
-8.840577 2.435889 56.264359 165 147 146
-8.843453 2.558008 56.282661 166 148 148
-8.846328 2.680205 56.300957 167 150 150
-8.849227 2.802490 56.319408 168 151 152
-8.852187 2.924873 56.338249 168 151 154
-8.855244 3.047371 56.357700 168 151 155
-8.858430 3.169999 56.377975 168 150 155
-8.861780 3.292776 56.399296 167 149 154
-8.865326 3.415720 56.421867 167 149 154
-8.869092 3.538850 56.445835 168 150 155
-8.873100 3.662182 56.471348 169 152 156
-8.877362 3.785733 56.498470 170 155 156
-8.881882 3.909514 56.527233 171 157 157
-8.886655 4.033534 56.557610 173 160 158
-8.891668 4.157797 56.589516 171 160 156
-8.896900 4.282304 56.622814 167 156 151
-8.902322 4.407047 56.657322 163 153 147
-8.907900 4.532019 56.692822 159 150 144
-8.913596 4.657206 56.729073 155 147 142
-8.919371 4.782591 56.765823 151 145 140
-8.925183 4.908155 56.802818 150 144 140
-8.931001 5.033882 56.839840 149 143 142
-8.936794 5.159755 56.876713 149 143 142
-8.942544 5.285760 56.913307 147 141 142
-8.948240 5.411891 56.949562 145 139 142
-8.953889 5.538149 56.985512 145 138 142
-8.959504 5.664541 57.021248 146 137 142
-8.965117 5.791085 57.056965 147 137 142
-8.970766 5.917807 57.092922 147 135 140
-8.976507 6.044746 57.129459 147 132 138
-8.982399 6.171947 57.166958 145 128 134
-8.988511 6.299463 57.205856 141 124 130
-8.994912 6.427353 57.246593 136 118 124
-9.001676 6.555684 57.289642 129 112 118
-9.008869 6.684518 57.335419 122 105 113
-9.016556 6.813923 57.384342 118 101 109
-9.024791 6.943961 57.436756 118 102 108
-9.033623 7.074692 57.492966 118 103 108
-9.043085 7.206168 57.553188 118 104 106
-9.053204 7.338435 57.617580 118 104 105
-9.063988 7.471528 57.686211 118 102 103
-9.075436 7.605474 57.759071 116 101 102
-9.087537 7.740290 57.836094 115 100 102
-9.100268 7.875984 57.917118 115 99 102
-9.113593 8.012548 58.001923 114 98 103
-9.127470 8.149972 58.090237 114 97 105
-9.141845 8.288228 58.181725 114 96 106
-9.156657 8.427279 58.275993 113 94 106
-9.171838 8.567083 58.372612 110 91 104
-9.187313 8.707582 58.471100 105 86 100
-9.203004 8.848713 58.570961 101 83 97
-9.218824 8.990400 58.671646 97 79 94
-9.234687 9.132565 58.772602 93 76 91
-9.250504 9.275118 58.873272 89 73 89
-9.266189 9.417970 58.973091 87 74 90
-9.281653 9.561027 59.071514 87 76 93
-9.296819 9.704194 59.168030 89 79 96
-9.311611 9.847384 59.262173 92 83 100
-9.325968 9.990513 59.353542 95 87 104
-9.339834 10.133504 59.441795 99 91 107
-9.353170 10.276293 59.526669 100 92 109
-9.365951 10.418829 59.608006 94 86 104
-9.378161 10.561074 59.685719 86 77 95
-9.389802 10.703006 59.759808 81 71 88
-9.400887 10.844615 59.830357 78 67 83
-9.411442 10.985909 59.897530 73 62 76
-9.421501 11.126908 59.961548 68 57 70
-9.431109 11.267645 60.022697 62 52 64
-9.440318 11.408162 60.081306 56 48 58
-9.449187 11.548516 60.137753 51 44 53
-9.457779 11.688771 60.192429 47 42 49
-9.466160 11.828999 60.245770 44 41 45
-9.474402 11.969282 60.298233 43 40 44
-9.482581 12.109710 60.350285 43 40 43
-9.490775 12.250381 60.402431 42 40 42
-9.499065 12.391402 60.455196 41 40 42
-9.042499 -7.913796 58.349972 136 118 124
-9.030808 -7.777945 58.274540 136 118 124
-9.019417 -7.642672 58.201031 136 118 124
-9.008269 -7.507919 58.129097 136 118 123
-8.997321 -7.373640 58.058453 136 118 121
-8.986536 -7.239797 57.988853 137 119 120
-8.975884 -7.106359 57.920124 137 119 121
-8.965344 -6.973305 57.852112 138 120 122
-8.954904 -6.840619 57.784733 138 122 122
-8.944552 -6.708292 57.717945 138 123 123
-8.934293 -6.576320 57.651741 139 123 124
-8.924126 -6.444699 57.586128 139 124 125
-8.914057 -6.313432 57.521160 140 125 127
-8.904099 -6.182521 57.456898 142 126 129
-8.894258 -6.051967 57.393394 143 127 130
-8.884544 -5.921772 57.330715 143 128 129
-8.874967 -5.791936 57.268917 143 128 129
-8.865532 -5.662458 57.208035 144 128 129
-8.856242 -5.533332 57.148090 144 128 129
-8.847097 -5.404554 57.089081 145 128 129
-8.838093 -5.276114 57.030975 145 127 129
-8.829225 -5.148004 56.973751 146 128 130
-8.820484 -5.020212 56.917343 147 128 131
-8.811856 -4.892727 56.861675 145 127 131
-8.803334 -4.765539 56.806679 142 124 129
-8.794903 -4.638636 56.752270 141 123 129
-8.786551 -4.512009 56.698380 143 127 133
-8.778270 -4.385649 56.644943 146 131 137
-8.770055 -4.259552 56.591934 146 132 137
-8.761903 -4.133712 56.539330 146 133 138
-8.753818 -4.008131 56.487160 146 135 140
-8.745806 -3.882806 56.435455 146 137 143
-8.737882 -3.757743 56.384327 147 138 146
-8.730065 -3.632945 56.333889 149 142 151
-8.722381 -3.508416 56.284298 152 146 156
-8.714854 -3.384164 56.235729 153 149 160
-8.707520 -3.260192 56.188400 154 151 162
-8.700411 -3.136507 56.142532 156 155 164
-8.693565 -3.013110 56.098362 158 159 168
-8.687016 -2.890002 56.056099 159 160 170
-8.680800 -2.767182 56.015987 160 161 171
-8.674948 -2.644646 55.978226 161 162 173
-8.669488 -2.522388 55.942989 161 162 173
-8.664443 -2.400396 55.910435 159 160 170
-8.659831 -2.278658 55.880676 157 157 167
-8.655666 -2.157161 55.853806 156 154 164
-8.651958 -2.035886 55.829872 153 150 160
-8.648705 -1.914815 55.808884 151 147 157
-8.645908 -1.793930 55.790833 147 142 151
-8.643558 -1.673208 55.775665 144 137 145
-8.641644 -1.552631 55.763309 143 135 142
-8.640151 -1.432177 55.753685 145 135 142
-8.639066 -1.311826 55.746681 146 134 141
-8.638371 -1.191559 55.742199 146 134 140
-8.638046 -1.071357 55.740101 146 134 140
-8.638075 -0.951204 55.740288 146 134 139
-8.638436 -0.831081 55.742619 147 135 138
-8.639114 -0.710975 55.746994 148 135 137
-8.640092 -0.590870 55.753300 149 135 136
-8.641350 -0.470753 55.761417 149 136 136
-8.642875 -0.350612 55.771259 150 136 136
-8.644650 -0.230435 55.782711 151 136 135
-8.646660 -0.110212 55.795681 152 136 136
-8.648890 0.010067 55.810074 154 137 136
-8.651326 0.130412 55.825790 154 136 137
-8.653951 0.250829 55.842731 155 136 138
-8.656748 0.371327 55.860783 155 135 139
-8.659700 0.491912 55.879833 155 134 141
-8.662790 0.612589 55.899769 156 136 144
-8.665997 0.733361 55.920460 157 137 146
-8.669298 0.854232 55.941769 158 138 149
-8.672673 0.975203 55.963547 158 139 150
-8.676101 1.096275 55.985661 157 139 150
-8.679555 1.217446 56.007950 157 140 149
-8.683015 1.338713 56.030277 157 139 148
-8.686460 1.460075 56.052509 157 139 146
-8.689872 1.581526 56.074524 158 139 145
-8.693232 1.703062 56.096207 160 141 145
-8.696531 1.824679 56.117496 162 142 145
-8.699760 1.946372 56.138332 163 143 145
-8.702916 2.068137 56.158695 162 143 143
-8.706004 2.189973 56.178619 163 143 143
-8.709029 2.311878 56.198143 163 144 143
-8.712009 2.433855 56.217377 164 145 144
-8.714963 2.555907 56.236431 165 146 146
-8.717915 2.678041 56.255482 167 148 148
-8.720895 2.800265 56.274712 168 148 151
-8.723934 2.922593 56.294323 168 148 152
-8.727067 3.045038 56.314541 168 147 153
-8.730327 3.167615 56.335571 166 145 152
-8.733745 3.290343 56.357628 165 144 152
-8.737350 3.413240 56.380894 164 143 151
-8.741170 3.536324 56.405544 165 144 151
-8.745221 3.659610 56.431686 167 148 153
-8.749516 3.783115 56.459404 168 151 154
-8.754060 3.906850 56.488720 170 154 155
-8.758846 4.030824 56.519608 171 156 155
-8.763864 4.155040 56.551983 170 157 154
-8.769090 4.279497 56.585705 168 156 152
-8.774498 4.404191 56.620609 165 154 149
-8.780055 4.529113 56.656464 161 150 145
-8.785726 4.654249 56.693054 156 147 143
-8.791469 4.779583 56.730110 154 146 142
-8.797250 4.905097 56.767418 152 146 142
-8.803035 5.030774 56.804749 150 145 142
-8.808796 5.156599 56.841927 150 144 143
-8.814516 5.282559 56.878838 149 143 144
-8.820185 5.408647 56.915413 149 143 145
-8.825808 5.534863 56.951698 149 142 146
-8.831400 5.661217 56.987785 150 141 147
-8.836989 5.787724 57.023857 151 139 146
-8.842620 5.914414 57.060184 151 137 144
-8.848338 6.041321 57.097084 150 134 141
-8.854206 6.168491 57.134949 148 130 138
-8.860289 6.295977 57.174198 143 125 133
-8.866655 6.423838 57.215282 137 118 126
-8.873374 6.552135 57.258636 130 111 119
-8.880512 6.680936 57.304699 123 104 113
-8.888133 6.810305 57.353874 119 102 110
-8.896291 6.940305 57.406517 118 103 110
-8.905030 7.070993 57.462910 119 105 109
-8.914388 7.202425 57.523296 119 106 108
-8.924386 7.334643 57.587814 119 106 106
-8.935040 7.467687 57.656559 119 104 105
-8.946345 7.601582 57.729515 118 103 104
-8.958296 7.736347 57.806625 117 102 103
-8.970866 7.871989 57.887741 116 100 102
-8.984023 8.008504 57.972641 115 98 104
-8.997727 8.145880 58.061073 115 97 105
-9.011926 8.284092 58.152691 113 95 105
-9.026559 8.423104 58.247116 110 92 103
-9.041559 8.562872 58.343918 107 88 101
-9.056855 8.703341 58.442619 104 85 99
-9.072367 8.844444 58.542706 101 83 97
-9.088008 8.986109 58.643642 98 81 95
-9.103695 9.128254 58.744865 95 79 95
-9.119337 9.270791 58.845806 93 79 94
-9.134849 9.413628 58.945900 93 80 95
-9.150144 9.556669 59.044598 93 81 97
-9.165141 9.699821 59.141369 94 84 100
-9.179770 9.842996 59.235764 97 87 103
-9.193964 9.986105 59.327358 99 90 106
-9.207672 10.129076 59.415817 101 92 109
-9.220857 10.271843 59.500893 99 90 108
-9.233489 10.414355 59.582413 93 84 102
-9.245559 10.556576 59.660294 86 77 95
-9.257068 10.698483 59.734558 83 72 91
-9.268029 10.840073 59.805290 80 68 86
-9.278470 10.981349 59.872665 75 63 80
-9.288426 11.122337 59.936913 69 57 73
-9.297944 11.263070 59.998325 63 52 66
-9.307074 11.403592 60.057240 57 49 61
-9.315874 11.543961 60.114029 53 46 56
-9.324409 11.684240 60.169102 49 44 52
-9.332742 11.824503 60.222874 47 43 48
-9.340943 11.964828 60.275795 45 42 46
-9.349087 12.105308 60.328346 44 42 44
-9.357247 12.246035 60.381004 42 40 43
-9.365501 12.387114 60.434269 41 39 41
-9.373931 12.528655 60.488659 38 36 38
-8.899722 -7.898714 58.238770 137 118 124
-8.888472 -7.763344 58.165146 137 119 124
-8.877515 -7.628544 58.093449 137 119 123
-8.866800 -7.494258 58.023335 137 119 123
-8.856284 -7.360440 57.954517 137 119 122
-8.845928 -7.227049 57.886749 137 120 121
-8.835706 -7.094057 57.819855 137 121 122
-8.825590 -6.961438 57.753662 137 121 123
-8.815570 -6.829178 57.688087 138 123 124
-8.805634 -6.697265 57.623062 139 124 125
-8.795779 -6.565693 57.558582 140 126 127
-8.786008 -6.434460 57.494637 141 127 129
-8.776323 -6.303565 57.431263 143 128 130
-8.766735 -6.173011 57.368519 144 128 132
-8.757252 -6.042800 57.306461 145 129 133
-8.747882 -5.912933 57.245144 146 130 132
-8.738631 -5.783410 57.184612 146 130 132
-8.729510 -5.654231 57.124924 145 130 131
-8.720520 -5.525393 57.066097 145 129 130
-8.711661 -5.396890 57.008125 145 128 130
-8.702935 -5.268716 56.951015 145 127 130
-8.694334 -5.140864 56.894737 145 127 129
-8.685854 -5.013323 56.839245 145 126 130
-8.677484 -4.886084 56.784470 145 126 131
-8.669214 -4.759136 56.730358 143 126 131
-8.661036 -4.632471 56.676842 143 126 132
-8.652941 -4.506079 56.623863 144 128 134
-8.644919 -4.379952 56.571373 144 131 136
-8.636966 -4.254086 56.519325 145 131 137
-8.629082 -4.128478 56.467728 145 132 138
-8.621268 -4.003124 56.416599 146 135 140
-8.613534 -3.878027 56.365986 146 137 142
-8.605891 -3.753187 56.315975 146 138 145
-8.598358 -3.628610 56.266682 149 142 151
-8.590958 -3.504300 56.218254 153 148 158
-8.583717 -3.380260 56.170868 155 151 162
-8.576665 -3.256498 56.124722 155 152 163
-8.569836 -3.133015 56.080032 157 156 166
-8.563261 -3.009815 56.037010 158 159 170
-8.556976 -2.886897 55.995880 159 160 170
-8.551011 -2.764261 55.956844 159 160 171
-8.545397 -2.641901 55.920109 160 160 172
-8.540160 -2.519811 55.885838 159 159 171
-8.535321 -2.397980 55.854176 158 157 168
-8.530900 -2.276398 55.825241 156 154 165
-8.526907 -2.155048 55.799114 154 150 161
-8.523352 -2.033916 55.775845 151 146 156
-8.520233 -1.912982 55.755436 148 142 152
-8.517550 -1.792227 55.737885 145 138 146
-8.515298 -1.671633 55.723145 143 134 142
-8.513464 -1.551178 55.711143 143 133 140
-8.512037 -1.430844 55.701805 145 134 141
-8.511003 -1.310611 55.695038 146 134 141
-8.510345 -1.190459 55.690727 147 135 141
-8.510045 -1.070371 55.688770 147 135 141
-8.510089 -0.950329 55.689056 148 135 141
-8.510457 -0.830318 55.691467 149 136 141
-8.511135 -0.710323 55.695900 150 137 140
-8.512103 -0.590328 55.702240 151 138 139
-8.513350 -0.470322 55.710400 152 138 138
-8.514859 -0.350291 55.720272 152 138 137
-8.516616 -0.230225 55.731770 152 138 136
-8.518606 -0.110112 55.744789 153 138 136
-8.520815 0.010058 55.759247 154 138 136
-8.523228 0.130293 55.775036 155 137 138
-8.525830 0.250602 55.792065 156 137 139
-8.528605 0.370991 55.810226 156 136 140
-8.531537 0.491468 55.829411 157 135 142
-8.534606 0.612038 55.849495 158 136 145
-8.537794 0.732704 55.870354 159 137 147
-8.541080 0.853470 55.891853 159 138 150
-8.544441 0.974337 55.913853 159 138 150
-8.547856 1.095306 55.936203 157 139 150
-8.551303 1.216376 55.958755 156 139 149
-8.554760 1.337545 55.981380 156 138 147
-8.558208 1.458810 56.003941 156 137 145
-8.561627 1.580166 56.026318 158 138 144
-8.565001 1.701611 56.048393 160 139 144
-8.568320 1.823138 56.070114 162 141 144
-8.571576 1.944745 56.091419 162 141 143
-8.574765 2.066428 56.112293 162 141 142
-8.577892 2.188185 56.132755 163 142 141
-8.580964 2.310015 56.152855 163 142 141
-8.583997 2.431921 56.172699 163 143 142
-8.587006 2.553905 56.192390 164 144 144
-8.590018 2.675976 56.212109 166 144 146
-8.593060 2.798141 56.232010 167 144 148
-8.596163 2.920412 56.252312 167 143 149
-8.599357 3.042803 56.273216 165 142 149
-8.602676 3.165330 56.294933 163 140 149
-8.606150 3.288010 56.317669 161 138 148
-8.609806 3.410861 56.341595 161 137 147
-8.613669 3.533899 56.366875 161 138 147
-8.617756 3.657141 56.393616 164 142 149
-8.622078 3.780602 56.421898 166 146 151
-8.626637 3.904293 56.451740 168 149 152
-8.631432 4.028221 56.483112 169 152 153
-8.636447 4.152391 56.515930 169 154 153
-8.641664 4.276802 56.550064 169 155 153
-8.647054 4.401448 56.585335 168 154 151
-8.652586 4.526321 56.621544 163 151 147
-8.658227 4.651409 56.658455 158 147 143
-8.663939 4.776694 56.695835 155 147 142
-8.669687 4.902162 56.733448 153 147 142
-8.675439 5.027793 56.771088 152 146 143
-8.681170 5.153574 56.808590 151 146 144
-8.686861 5.279494 56.845833 151 145 146
-8.692505 5.405544 56.882767 151 145 148
-8.698108 5.531727 56.919430 151 144 149
-8.703683 5.658051 56.955910 152 143 150
-8.709259 5.784532 56.992401 152 141 149
-8.714877 5.911199 57.029163 152 138 147
-8.720584 6.038086 57.066509 151 135 144
-8.726438 6.165238 57.104816 149 132 141
-8.732503 6.292707 57.144505 144 126 135
-8.738846 6.420552 57.186016 137 118 128
-8.745533 6.548833 57.229774 130 112 122
-8.752629 6.677615 57.276211 124 107 116
-8.760196 6.806962 57.325726 121 105 113
-8.768286 6.936938 57.378666 120 106 112
-8.776941 7.067597 57.435310 120 107 111
-8.786201 7.198996 57.495907 120 108 110
-8.796087 7.331177 57.560596 120 108 108
-8.806613 7.464179 57.629475 120 107 107
-8.817778 7.598029 57.702534 119 105 106
-8.829572 7.732746 57.779716 118 104 106
-8.841976 7.868337 57.860886 117 102 106
-8.854958 8.004801 57.945839 116 101 107
-8.868477 8.142125 58.034309 115 99 107
-8.882485 8.280286 58.125977 111 95 103
-8.896924 8.419250 58.220459 107 90 100
-8.911728 8.558970 58.317333 105 87 99
-8.926824 8.699395 58.416122 104 87 98
-8.942137 8.840459 58.516327 102 86 98
