ply
format ascii 1.0
element vertex 1250
property float x
property float y
property float z
property uchar red
property uchar green
property uchar blue
end_header
4.854017 3.511820 47.797470 100 50 57
4.855170 3.615714 47.808826 98 49 56
4.856202 3.719564 47.818989 95 48 55
4.857106 3.823357 47.827885 95 47 54
4.857873 3.927078 47.835445 95 46 54
4.858499 4.030715 47.841602 97 46 55
4.858977 4.134252 47.846317 98 46 55
4.859308 4.237681 47.849571 99 47 56
4.859489 4.340991 47.851360 100 47 56
4.859524 4.444173 47.851700 101 47 56
4.859416 4.547225 47.850636 101 47 56
4.859171 4.650141 47.848228 100 48 56
4.858798 4.752920 47.844547 100 48 56
4.858303 4.855562 47.839676 100 48 56
4.857697 4.958069 47.833706 99 47 54
4.856988 5.060445 47.826733 99 46 52
4.856189 5.162694 47.818863 98 45 51
4.855307 5.264818 47.810177 97 45 50
4.854351 5.366824 47.800762 97 45 51
4.853330 5.468716 47.790707 97 44 52
4.852251 5.570497 47.780079 98 44 53
4.851120 5.672172 47.768940 98 45 54
4.849943 5.773745 47.757351 98 45 54
4.848725 5.875218 47.745361 98 45 54
4.847470 5.976594 47.733006 99 47 53
4.846184 6.077877 47.720341 99 48 53
4.844869 6.179070 47.707394 99 48 53
4.843531 6.280175 47.694210 98 48 52
4.842173 6.381198 47.680847 97 47 51
4.840804 6.482149 47.667362 95 46 49
4.839429 6.583034 47.653828 93 44 48
4.838060 6.683868 47.640350 92 43 47
4.836708 6.784667 47.627026 92 44 48
4.835384 6.885451 47.613998 92 46 50
4.834107 6.986244 47.601418 93 48 52
4.832893 7.087076 47.589462 92 49 53
4.831760 7.187979 47.578312 90 48 52
4.830729 7.288985 47.568157 88 46 51
4.829819 7.390134 47.559193 86 44 50
4.829047 7.491457 47.551590 85 43 49
4.828429 7.592991 47.545509 84 42 48
4.827978 7.694765 47.541065 84 42 47
4.827703 7.796802 47.538353 83 42 46
4.827604 7.899118 47.537388 83 42 46
4.827682 8.001720 47.538147 82 42 46
4.827921 8.104599 47.540504 82 41 46
4.828304 8.207731 47.544277 81 41 46
4.828805 8.311084 47.549213 81 40 46
4.829392 8.414607 47.554996 80 40 46
4.830027 8.518238 47.561245 81 42 47
4.830666 8.621905 47.567539 82 43 48
4.831267 8.725530 47.573452 83 43 49
4.831783 8.829025 47.578537 83 43 48
4.832174 8.932310 47.582382 82 43 46
4.832401 9.035306 47.584614 80 42 45
4.832435 9.137947 47.584949 78 42 44
4.832257 9.240185 47.583206 77 41 43
4.831861 9.341993 47.579308 76 41 42
4.831257 9.443377 47.573353 75 41 42
4.830467 9.544369 47.565578 75 41 43
4.829535 9.645043 47.556404 75 41 44
4.828520 9.745508 47.546402 74 40 45
4.827496 9.845914 47.536320 72 39 44
4.826553 9.946444 47.527039 69 35 41
4.825795 10.047317 47.519569 69 35 41
4.825330 10.148776 47.514996 73 38 44
4.825276 10.251087 47.514462 77 41 47
4.825747 10.354524 47.519104 79 42 48
4.638089 -10.500123 44.721931 88 48 54
4.639108 -10.406002 44.731750 89 47 54
4.640152 -10.311895 44.741821 90 47 54
4.641212 -10.217780 44.752037 91 47 53
4.642280 -10.123639 44.762337 93 46 53
4.643351 -10.029460 44.772659 94 47 54
4.644420 -9.935232 44.782970 95 47 54
4.645485 -9.840953 44.793247 96 47 54
4.646547 -9.746621 44.803486 98 47 54
4.647606 -9.652240 44.813698 101 47 55
4.648665 -9.557814 44.823910 103 49 56
4.649726 -9.463347 44.834141 105 50 58
4.650793 -9.368849 44.844425 107 52 60
4.651868 -9.274323 44.854790 108 53 61
4.652955 -9.179775 44.865269 108 54 61
4.654057 -9.085212 44.875896 109 55 62
4.655177 -8.990637 44.886692 109 56 62
4.656316 -8.896053 44.897678 109 56 61
4.657477 -8.801462 44.908871 109 56 60
4.658659 -8.706864 44.920277 110 56 60
4.659864 -8.612259 44.931892 111 57 60
4.661091 -8.517641 44.943718 112 58 61
4.662336 -8.423009 44.955730 113 58 62
4.663599 -8.328354 44.967903 114 58 62
4.664874 -8.233668 44.980198 114 58 62
4.666156 -8.138944 44.992561 114 57 61
4.667440 -8.044167 45.004940 113 57 61
4.668718 -7.949327 45.017262 113 56 62
4.669983 -7.854413 45.029461 114 56 62
4.671227 -7.759410 45.041454 114 56 62
4.672441 -7.664309 45.053165 114 56 62
4.673620 -7.569098 45.064529 114 56 61
4.674756 -7.473770 45.075478 114 57 62
4.675844 -7.378319 45.085968 114 58 64
4.676880 -7.282743 45.095966 115 59 65
4.677864 -7.187042 45.105446 115 60 66
4.678794 -7.091220 45.114414 115 59 66
4.679674 -6.995284 45.122902 114 58 65
4.680508 -6.899243 45.130939 111 55 64
4.681300 -6.803108 45.138584 109 53 63
4.682059 -6.706891 45.145897 110 52 64
4.682792 -6.610606 45.152966 111 54 65
4.683507 -6.514267 45.159863 112 54 66
4.684215 -6.417887 45.166687 112 55 67
4.684923 -6.321478 45.173515 113 55 67
4.685641 -6.225053 45.180439 113 55 66
4.686378 -6.128623 45.187538 113 55 65
4.687141 -6.032197 45.194908 112 55 64
4.687941 -5.935784 45.202614 111 54 63
4.688784 -5.839392 45.210739 110 53 62
4.689677 -5.743026 45.219353 110 52 62
4.690628 -5.646694 45.228523 112 53 63
4.691642 -5.550396 45.238304 114 54 64
4.692725 -5.454136 45.248745 115 55 65
4.693881 -5.357914 45.259888 117 56 67
4.695109 -5.261726 45.271732 118 56 68
4.696411 -5.165567 45.284286 119 57 69
4.697783 -5.069431 45.297520 119 58 70
4.699221 -4.973306 45.311382 118 57 70
4.700716 -4.877181 45.325794 117 57 69
4.702256 -4.781040 45.340649 116 57 67
4.703831 -4.684869 45.355831 115 56 66
4.705423 -4.588650 45.371189 115 56 64
4.707018 -4.492368 45.386566 115 56 63
4.708599 -4.396004 45.401802 116 57 62
4.710147 -4.299547 45.416737 116 58 62
4.711649 -4.202984 45.431221 117 60 63
4.713090 -4.106305 45.445114 117 61 64
4.714459 -4.009505 45.458309 117 62 65
4.715745 -3.912579 45.470715 118 64 67
4.716945 -3.815530 45.482277 118 64 69
4.718054 -3.718360 45.492977 118 65 70
4.719075 -3.621075 45.502819 118 65 70
4.720011 -3.523686 45.511848 118 64 70
4.720871 -3.426201 45.520138 118 64 69
4.721663 -3.328634 45.527771 118 63 68
4.722400 -3.230995 45.534882 117 61 67
4.723096 -3.133300 45.541595 117 60 66
4.723768 -3.035559 45.548069 116 58 66
4.724431 -2.937785 45.554466 116 57 65
4.725104 -2.839989 45.560951 116 57 66
4.725804 -2.742182 45.567703 115 57 67
4.726549 -2.644370 45.574890 115 58 69
4.727358 -2.546561 45.582691 117 59 70
4.728248 -2.448761 45.591267 119 61 72
4.729235 -2.350972 45.600784 122 63 73
4.730335 -2.253197 45.611393 124 65 74
4.731565 -2.155434 45.623249 125 66 75
4.732937 -2.057682 45.636482 126 66 74
4.734467 -1.959939 45.651234 125 66 72
4.736166 -1.862198 45.667614 123 64 71
4.738046 -1.764454 45.685741 121 62 69
4.740117 -1.666699 45.705715 120 60 67
4.742390 -1.568925 45.727627 119 59 66
4.744872 -1.471121 45.751564 118 59 66
4.747573 -1.373278 45.777607 119 60 67
4.750499 -1.275382 45.805820 120 62 69
4.753657 -1.177422 45.836269 122 64 71
4.757053 -1.079385 45.869015 124 65 73
4.760692 -0.981257 45.904102 124 65 74
4.764578 -0.883024 45.941574 125 65 74
4.768715 -0.784670 45.981464 124 64 73
4.773106 -0.686181 46.023800 124 64 73
4.777751 -0.587540 46.068596 125 63 73
4.782650 -0.488732 46.115837 125 63 74
4.787801 -0.389742 46.165504 125 61 73
4.793198 -0.290551 46.217537 122 58 69
4.798832 -0.191146 46.271866 119 55 66
4.804692 -0.091511 46.328365 120 56 66
4.810759 0.008367 46.386868 122 58 68
4.817013 0.108503 46.447170 123 58 68
4.823428 0.208905 46.509026 124 59 67
4.829971 0.309582 46.572117 124 60 68
4.836607 0.410539 46.636108 124 61 68
4.843296 0.511778 46.700600 123 61 68
4.849992 0.613295 46.765167 122 61 68
4.856650 0.715086 46.829361 120 60 67
4.863221 0.817138 46.892719 119 58 66
4.869659 0.919438 46.954800 117 56 66
4.875919 1.021969 47.015160 116 55 66
4.881960 1.124710 47.073414 115 55 66
4.887746 1.227637 47.129200 114 54 67
4.893248 1.330728 47.182251 114 53 68
4.898443 1.433958 47.232346 113 53 69
4.903317 1.537303 47.279346 112 52 67
4.907865 1.640742 47.323196 110 51 65
4.912087 1.744254 47.363907 109 51 64
4.915993 1.847823 47.401569 108 51 62
4.919597 1.951434 47.436317 108 52 61
4.922918 2.055077 47.468342 109 52 61
4.925980 2.158745 47.497868 109 52 62
4.928807 2.262432 47.525124 110 52 63
4.931426 2.366137 47.550369 111 52 63
4.933859 2.469857 47.573837 112 52 63
4.936132 2.573596 47.595753 112 51 63
4.938263 2.677351 47.616302 112 51 62
4.940271 2.781126 47.635662 110 50 59
4.942168 2.884920 47.653950 108 49 57
4.943962 2.988731 47.671253 108 49 56
4.945661 3.092556 47.687630 108 50 57
4.947264 3.196390 47.703091 107 51 58
4.948771 3.300227 47.717621 106 52 58
4.950177 3.404057 47.731178 104 53 58
4.951476 3.507870 47.743706 102 51 57
4.952661 3.611653 47.755131 100 50 56
4.953723 3.715394 47.765369 97 49 55
4.954655 3.819078 47.774353 96 48 54
4.955448 3.922691 47.782005 97 47 55
4.956097 4.026220 47.788261 98 47 56
4.956598 4.129653 47.793087 99 48 57
4.956947 4.232977 47.796459 100 48 57
4.957145 4.336183 47.798367 100 48 57
4.957193 4.439263 47.798832 100 47 57
4.957095 4.542212 47.797890 99 47 56
4.956857 4.645024 47.795586 98 46 55
4.956484 4.747699 47.791996 97 46 54
4.955986 4.850235 47.787186 96 46 53
4.955370 4.952633 47.781258 96 46 52
4.954648 5.054896 47.774292 96 45 51
4.953828 5.157028 47.766384 96 45 50
4.952919 5.259030 47.757614 97 45 50
4.951928 5.360907 47.748066 98 45 51
4.950865 5.462663 47.737816 99 45 53
4.949738 5.564302 47.726940 100 45 54
4.948551 5.665826 47.715500 100 45 55
4.947311 5.767240 47.703545 100 45 55
4.946023 5.868545 47.691132 100 46 55
4.944693 5.969745 47.678303 100 46 54
4.943325 6.070843 47.665108 100 47 54
4.941923 6.171841 47.651588 99 47 53
4.940492 6.272746 47.637798 98 47 52
4.939039 6.373562 47.623787 97 47 51
4.937571 6.474298 47.609627 95 47 50
4.936096 6.574963 47.595402 93 45 48
4.934624 6.675572 47.581211 91 44 47
4.933168 6.776141 47.567177 91 45 48
4.931743 6.876693 47.553432 91 46 49
4.930365 6.977252 47.540146 91 47 50
4.929053 7.077849 47.527496 90 47 51
4.927826 7.178515 47.515667 89 46 51
4.926705 7.279286 47.504856 87 44 51
4.925709 7.380198 47.495255 85 43 50
4.924858 7.481289 47.487049 85 43 49
4.924168 7.582592 47.480389 84 42 49
4.923651 7.684137 47.475407 84 42 49
4.923317 7.785951 47.472191 84 42 48
4.923170 7.888047 47.470764 84 42 48
4.923205 7.990436 47.471107 83 42 48
4.923412 8.093108 47.473103 83 42 48
4.923772 8.196044 47.476578 82 41 48
4.924261 8.299211 47.481285 81 41 47
4.924844 8.402560 47.486916 81 41 47
4.925486 8.506034 47.493099 81 42 47
4.926142 8.609560 47.499428 82 43 48
4.926770 8.713063 47.505482 83 43 48
4.927324 8.816461 47.510830 83 43 47
4.927763 8.919672 47.515057 83 43 47
4.928048 9.022620 47.517803 81 43 46
4.928150 9.125241 47.518787 79 42 44
4.928051 9.227489 47.517826 78 42 43
4.927742 9.329336 47.514847 77 42 43
4.927232 9.430788 47.509937 76 42 43
4.926548 9.531879 47.503338 75 41 44
4.925730 9.632681 47.495449 75 41 44
4.924837 9.733300 47.486839 75 41 45
4.923944 9.833883 47.478237 73 40 45
4.923144 9.934615 47.470516 70 37 42
4.922537 10.035708 47.464668 70 36 43
4.922235 10.137404 47.461754 74 40 46
4.922355 10.239964 47.462906 78 43 50
4.923012 10.343660 47.469250 79 44 50
4.727736 -10.388865 44.658089 91 50 54
4.728863 -10.295052 44.668736 92 50 54
4.730004 -10.201221 44.679508 92 49 54
4.731149 -10.107354 44.690331 93 48 54
4.732294 -10.013439 44.701145 94 47 55
4.733433 -9.919465 44.711899 95 47 55
4.734564 -9.825428 44.722584 96 47 55
4.735685 -9.731326 44.733177 98 48 55
4.736799 -9.637163 44.743702 101 48 56
4.737907 -9.542942 44.754166 103 49 57
4.739012 -9.448668 44.764599 105 50 59
4.740116 -9.354350 44.775028 108 52 61
4.741223 -9.259994 44.785488 109 53 62
4.742338 -9.165605 44.796013 110 54 63
4.743462 -9.071190 44.806637 111 55 64
4.744600 -8.976755 44.817387 112 56 63
4.745754 -8.882304 44.828289 112 56 63
4.746927 -8.787841 44.839363 112 56 62
4.748119 -8.693364 44.850620 112 56 62
4.749331 -8.598876 44.862072 113 57 61
4.750562 -8.504373 44.873707 114 57 62
4.751813 -8.409854 44.885517 115 57 63
4.753080 -8.315311 44.897484 115 57 63
4.754359 -8.220739 44.909569 115 57 62
4.755645 -8.126128 44.921719 115 57 61
4.756933 -8.031466 44.933887 114 56 61
4.758216 -7.936744 44.946007 113 56 61
4.759486 -7.841948 44.957996 114 55 61
4.760735 -7.747065 44.969788 114 55 62
4.761954 -7.652085 44.981308 114 56 62
4.763136 -7.556997 44.992481 114 56 62
4.764276 -7.461793 45.003242 115 57 63
4.765367 -7.366468 45.013550 115 59 65
4.766406 -7.271018 45.023365 116 60 66
4.767390 -7.175444 45.032658 116 61 67
4.768320 -7.079750 45.041443 116 60 67
4.769198 -6.983942 45.049736 115 59 66
4.770029 -6.888029 45.057583 112 56 65
4.770817 -6.792023 45.065033 110 54 64
4.771571 -6.695935 45.072147 111 53 65
4.772297 -6.599779 45.079006 112 55 67
4.773005 -6.503569 45.085701 113 55 67
4.773705 -6.407318 45.092304 114 56 68
4.774404 -6.311038 45.098915 114 56 67
4.775114 -6.214744 45.105614 114 56 66
4.775841 -6.118444 45.112492 113 56 65
4.776597 -6.022149 45.119625 112 55 64
4.777388 -5.925868 45.127102 111 54 63
4.778224 -5.829608 45.134995 111 53 62
4.779111 -5.733377 45.143375 111 53 61
4.780058 -5.637180 45.152317 112 54 62
4.781070 -5.541020 45.161880 114 55 63
4.782153 -5.444899 45.172108 116 56 65
4.783311 -5.348818 45.183048 117 57 67
4.784546 -5.252775 45.194714 118 57 69
4.785859 -5.156765 45.207115 118 57 70
4.787246 -5.060780 45.220219 118 57 71
4.788703 -4.964811 45.233986 118 57 70
4.790223 -4.868847 45.248341 117 56 69
4.791795 -4.772872 45.263187 116 56 68
4.793406 -4.676871 45.278400 115 56 67
4.795041 -4.580829 45.293850 115 56 65
4.796684 -4.484727 45.309372 115 55 63
4.798318 -4.388549 45.324806 115 56 63
4.799927 -4.292283 45.340000 116 58 63
4.801493 -4.195913 45.354790 117 60 64
4.803002 -4.099432 45.369049 117 61 65
4.804443 -4.002832 45.382660 117 63 66
4.805805 -3.906109 45.395523 118 64 68
4.807082 -3.809264 45.407585 118 64 69
4.808271 -3.712298 45.418819 118 65 71
4.809371 -3.615218 45.429214 118 66 72
4.810389 -3.518032 45.438824 118 65 71
4.811327 -3.420749 45.447689 117 64 70
4.812199 -3.323380 45.455921 116 63 68
4.813014 -3.225939 45.463615 115 61 67
4.813786 -3.128436 45.470909 115 59 66
4.814531 -3.030885 45.477947 114 58 65
4.815266 -2.933298 45.484894 114 57 65
4.816008 -2.835685 45.491901 114 57 66
4.816776 -2.738056 45.499153 114 57 67
4.817586 -2.640420 45.506813 115 58 69
4.818460 -2.542783 45.515060 116 59 71
4.819411 -2.445151 45.524052 119 61 73
4.820460 -2.347527 45.533958 121 63 75
4.821622 -2.249913 45.544933 123 65 76
4.822913 -2.152310 45.557129 124 66 76
4.824347 -2.054715 45.570679 124 66 75
4.825941 -1.957126 45.585724 124 65 73
4.827704 -1.859538 45.602386 122 63 71
4.829652 -1.761945 45.620785 120 61 69
4.831794 -1.664340 45.641014 119 59 67
4.834140 -1.566714 45.663181 118 58 66
4.836701 -1.469057 45.687370 118 58 66
4.839484 -1.371359 45.713661 119 60 67
4.842498 -1.273609 45.742126 122 63 70
4.845750 -1.175793 45.772842 124 65 73
4.849245 -1.077899 45.805855 125 65 74
4.852989 -0.979913 45.841228 125 65 74
4.856988 -0.881821 45.878998 125 65 74
4.861244 -0.783607 45.919205 124 64 74
4.865761 -0.685257 45.961868 123 63 74
4.870539 -0.586755 46.007000 123 61 73
4.875577 -0.488083 46.054592 123 60 73
4.880873 -0.389228 46.104614 124 60 73
4.886421 -0.290171 46.157021 122 57 70
4.892211 -0.190898 46.211720 119 55 67
4.898232 -0.091393 46.268597 120 56 66
4.904466 0.008357 46.327473 122 58 67
4.910889 0.108365 46.388149 123 59 67
4.917476 0.208642 46.450371 124 60 68
4.924193 0.309195 46.513821 124 61 68
4.931005 0.410029 46.578156 124 62 68
4.937868 0.511146 46.642986 124 62 68
4.944737 0.612544 46.707874 122 62 67
4.951565 0.714215 46.772377 121 61 66
4.958304 0.816150 46.836033 119 59 66
4.964907 0.918334 46.898399 117 57 66
4.971326 1.020749 46.959030 116 56 67
4.977520 1.123375 47.017536 115 56 67
4.983452 1.226189 47.073578 115 55 69
4.989094 1.329166 47.126869 115 55 70
4.994421 1.432284 47.177193 115 54 70
4.999421 1.535517 47.224411 114 54 69
5.004085 1.638845 47.268475 112 53 67
5.008417 1.742247 47.309395 111 52 66
5.012425 1.845706 47.347260 111 52 64
5.016125 1.949208 47.382202 111 53 63
5.019535 2.052743 47.414413 111 53 63
5.022679 2.156302 47.444118 111 52 64
5.025583 2.259881 47.471546 112 52 64
5.028273 2.363478 47.496952 112 52 64
5.030773 2.467092 47.520569 113 52 64
5.033107 2.570723 47.542618 113 52 63
5.035297 2.674371 47.563301 113 51 61
5.037358 2.778039 47.582771 111 50 59
5.039305 2.881724 47.601162 110 50 57
5.041147 2.985427 47.618561 109 50 56
5.042890 3.089144 47.635021 109 51 57
5.044534 3.192870 47.650555 109 52 59
5.046080 3.296598 47.665157 109 53 59
5.047523 3.400320 47.678783 108 54 59
5.048856 3.504025 47.691380 106 53 58
5.050072 3.607701 47.702869 103 51 57
5.051165 3.711334 47.713188 100 50 55
5.052124 3.814913 47.722248 99 49 55
5.052943 3.918421 47.729984 100 49 56
5.053616 4.021845 47.736336 100 49 58
5.054137 4.125175 47.741264 101 49 59
5.054505 4.228396 47.744740 101 49 59
5.054718 4.331501 47.746754 100 48 58
5.054778 4.434479 47.747318 99 47 57
5.054688 4.537326 47.746471 97 46 55
5.054454 4.640036 47.744255 96 46 53
5.054080 4.742606 47.740726 95 45 52
5.053576 4.845035 47.735962 94 45 51
5.052949 4.947324 47.730042 94 44 50
5.052209 5.049474 47.723049 94 44 49
5.051364 5.151488 47.715073 96 44 48
5.050424 5.253367 47.706188 98 45 50
5.049395 5.355114 47.696465 99 46 51
5.048286 5.456734 47.685997 101 46 53
5.047104 5.558227 47.674835 102 47 55
5.045857 5.659599 47.663055 102 46 56
5.044550 5.760851 47.650703 102 47 56
5.043189 5.861988 47.637844 102 47 56
5.041777 5.963010 47.624516 102 47 56
5.040322 6.063922 47.610771 101 46 55
5.038829 6.164728 47.596664 99 47 53
5.037302 6.265431 47.582245 97 47 52
5.035750 6.366041 47.567585 97 48 51
5.034180 6.466563 47.552750 95 48 51
5.032601 6.567010 47.537838 93 47 49
5.031026 6.667398 47.522957 91 46 49
5.029467 6.767744 47.508228 90 45 48
5.027939 6.868069 47.493797 91 46 49
5.026461 6.968401 47.479839 90 46 50
5.025053 7.068770 47.466534 89 45 50
5.023734 7.169209 47.454071 88 44 50
5.022525 7.269754 47.442654 86 44 50
5.021447 7.370443 47.432476 85 43 50
5.020520 7.471311 47.423714 84 42 50
5.019760 7.572395 47.416538 85 43 51
5.019182 7.673725 47.411076 85 43 51
5.018795 7.775328 47.407421 85 43 51
5.018601 7.877219 47.405598 85 43 50
5.018600 7.979408 47.405586 84 43 50
5.018780 8.081887 47.407284 83 42 49
5.019123 8.184641 47.410522 82 42 49
5.019603 8.287635 47.415062 81 41 48
5.020190 8.390826 47.420601 81 41 47
5.020845 8.494158 47.426792 81 42 47
5.021527 8.597561 47.433231 83 43 48
5.022192 8.700963 47.439510 84 43 48
5.022794 8.804282 47.445198 84 43 48
5.023293 8.907443 47.449913 84 43 47
5.023651 9.010370 47.453289 82 43 46
5.023838 9.113003 47.455055 81 42 44
5.023834 9.215293 47.455021 79 42 44
5.023633 9.317219 47.453129 78 43 44
5.023244 9.418782 47.449451 77 42 44
5.022692 9.520020 47.444233 76 42 45
5.022016 9.620999 47.437851 75 42 45
5.021277 9.721828 47.430866 75 41 44
5.020549 9.822648 47.423992 74 40 44
5.019922 9.923640 47.418076 72 38 44
5.019500 10.025013 47.414082 73 39 45
5.019392 10.127005 47.413063 75 41 48
5.019715 10.229870 47.416119 77 43 50
4.816148 -10.371947 44.585365 92 50 54
4.817358 -10.278419 44.596569 93 50 54
4.818581 -10.184867 44.607883 93 49 54
4.819806 -10.091272 44.619221 94 48 54
4.821026 -9.997620 44.630524 95 48 55
4.822237 -9.903898 44.641735 96 48 55
4.823437 -9.810105 44.652836 97 48 55
4.824622 -9.716235 44.663811 99 48 56
4.825794 -9.622293 44.674660 101 49 57
4.826954 -9.528279 44.685402 102 49 58
4.828106 -9.434204 44.696068 105 50 59
4.829252 -9.340070 44.706673 108 53 62
4.830396 -9.245888 44.717266 110 54 64
4.831542 -9.151663 44.727875 111 55 65
4.832694 -9.057403 44.738533 111 56 65
4.833854 -8.963114 44.749279 112 56 64
4.835027 -8.868801 44.760136 112 56 64
4.836215 -8.774467 44.771133 113 57 64
4.837420 -8.680118 44.782280 114 57 63
4.838642 -8.585752 44.793602 114 56 63
4.839883 -8.491368 44.805088 115 56 62
4.841141 -8.396967 44.816738 115 56 63
4.842414 -8.302540 44.828526 115 56 63
4.843700 -8.208083 44.840427 115 56 62
4.844993 -8.113588 44.852398 115 56 61
4.846287 -8.019043 44.864376 114 55 60
4.847576 -7.924437 44.876305 114 55 60
4.848852 -7.829759 44.888115 114 55 61
4.850106 -7.734995 44.899727 115 56 62
4.851330 -7.640135 44.911064 115 56 63
4.852518 -7.545169 44.922058 115 57 64
4.853662 -7.450087 44.932644 116 58 65
4.854755 -7.354885 44.942772 116 60 66
4.855796 -7.259558 44.952400 116 61 67
4.856781 -7.164109 44.961517 116 61 67
4.857709 -7.068539 44.970119 116 60 67
4.858586 -6.972856 44.978230 114 59 67
4.859413 -6.877068 44.985886 112 56 66
4.860197 -6.781188 44.993141 111 55 65
4.860944 -6.685225 45.000057 112 55 67
4.861663 -6.589195 45.006718 114 56 68
4.862364 -6.493112 45.013206 115 57 69
4.863055 -6.396987 45.019600 115 57 69
4.863746 -6.300836 45.026001 115 57 68
4.864447 -6.204668 45.032486 115 57 67
4.865166 -6.108497 45.039146 114 56 66
4.865913 -6.012331 45.046066 113 56 65
4.866697 -5.916180 45.053322 112 55 63
4.867527 -5.820052 45.061001 111 54 61
4.868409 -5.723953 45.069172 111 54 61
4.869353 -5.627889 45.077904 113 55 62
4.870364 -5.531865 45.087265 115 56 64
4.871449 -5.435882 45.097305 118 58 67
4.872611 -5.339942 45.108067 120 58 69
4.873854 -5.244041 45.119576 119 58 70
4.875178 -5.148178 45.131836 119 57 70
4.876583 -5.052343 45.144833 118 56 71
4.878062 -4.956529 45.158527 117 56 71
4.879608 -4.860723 45.172844 117 56 70
4.881212 -4.764912 45.187695 116 56 69
4.882862 -4.669079 45.202965 116 55 68
4.884541 -4.573209 45.218506 116 55 66
4.886234 -4.477284 45.234184 116 56 65
4.887924 -4.381289 45.249828 116 57 65
4.889593 -4.285209 45.265278 117 58 65
4.891225 -4.189031 45.280392 117 60 65
4.892806 -4.092743 45.295017 117 61 66
4.894321 -3.996339 45.309048 117 62 67
4.895761 -3.899815 45.322372 117 64 68
4.897118 -3.803169 45.334942 117 64 70
4.898389 -3.706404 45.346706 118 65 72
4.899573 -3.609525 45.357670 118 66 73
4.900674 -3.512537 45.367859 118 66 72
4.901696 -3.415452 45.377327 117 65 71
4.902650 -3.318280 45.386158 116 64 69
4.903547 -3.221031 45.394455 115 62 67
4.904398 -3.123719 45.402340 113 59 65
4.905222 -3.026355 45.409966 112 58 65
4.906033 -2.928950 45.417473 112 57 64
4.906850 -2.831517 45.425030 113 56 65
4.907689 -2.734063 45.432800 113 56 67
4.908570 -2.636599 45.440960 114 58 68
4.909512 -2.539130 45.449677 115 59 70
4.910532 -2.441663 45.459118 118 61 73
4.911647 -2.344201 45.469440 120 63 76
4.912875 -2.246746 45.480804 122 65 76
4.914232 -2.149298 45.493370 123 65 76
4.915733 -2.051856 45.507267 123 65 76
4.917394 -1.954418 45.522640 123 64 74
4.919227 -1.856978 45.539612 122 62 72
4.921246 -1.759532 45.558304 120 59 69
4.923462 -1.662072 45.578819 119 58 68
4.925886 -1.564589 45.601261 118 58 67
4.928528 -1.467075 45.625721 119 58 66
4.931397 -1.369518 45.652283 120 60 67
4.934502 -1.271907 45.681026 122 63 69
4.937850 -1.174231 45.712013 124 64 72
4.941447 -1.076475 45.745316 125 64 73
4.945300 -0.978625 45.780979 125 64 73
4.949412 -0.880669 45.819054 125 64 74
4.953789 -0.782590 45.859573 124 63 74
4.958433 -0.684373 45.902557 123 62 74
4.963344 -0.586002 45.948025 122 60 73
4.968522 -0.487462 45.995956 121 59 72
4.973963 -0.388735 46.046329 121 58 71
4.979661 -0.289807 46.099083 120 57 69
4.985608 -0.190660 46.154133 119 56 67
4.991789 -0.091280 46.211353 120 57 67
4.998186 0.008346 46.270573 122 59 68
5.004776 0.108233 46.331585 123 60 68
5.011532 0.208389 46.394127 123 61 68
5.018420 0.308823 46.457893 124 63 68
5.025402 0.409539 46.522526 124 63 68
5.032435 0.510540 46.587635 123 63 67
5.039474 0.611822 46.652794 122 63 66
5.046469 0.713378 46.717548 120 61 66
5.053371 0.815199 46.781448 119 60 66
5.060132 0.917269 46.844032 118 59 67
5.066704 1.019572 46.904884 117 58 67
5.073047 1.122086 46.963596 116 57 69
5.079121 1.224788 47.019829 116 57 70
5.084898 1.327656 47.073303 116 56 72
5.090353 1.430663 47.123810 116 57 72
5.095473 1.533787 47.171207 116 56 72
5.100252 1.637006 47.215446 115 55 70
5.104691 1.740300 47.256542 114 55 68
5.108799 1.843652 47.294571 113 54 66
5.112592 1.947048 47.329681 113 54 65
5.116089 2.050476 47.362061 113 54 65
5.119315 2.153930 47.391926 113 53 65
5.122295 2.257405 47.419518 113 53 65
5.125056 2.360897 47.445072 114 53 64
5.127622 2.464406 47.468826 114 53 64
5.130019 2.567932 47.491013 114 52 63
5.132266 2.671476 47.511818 113 51 61
5.134382 2.775039 47.531403 112 50 59
5.136379 2.878621 47.549896 111 49 57
5.138268 2.982219 47.567383 110 50 56
5.140055 3.085831 47.583927 111 51 58
5.141742 3.189452 47.599541 111 53 59
5.143326 3.293075 47.614208 111 55 60
5.144805 3.396691 47.627899 111 55 60
5.146173 3.500291 47.640553 109 55 59
5.147420 3.603862 47.652111 105 53 58
5.148542 3.707391 47.662491 102 51 56
5.149528 3.810865 47.671616 101 50 56
5.150372 3.914270 47.679428 101 50 58
5.151066 4.017593 47.685860 101 50 60
5.151608 4.120820 47.690868 101 50 60
5.151992 4.223941 47.694427 101 50 60
5.152218 4.326944 47.696526 100 48 59
5.152289 4.429822 47.697178 98 47 57
5.152205 4.532568 47.696400 96 46 54
5.151971 4.635175 47.694241 94 45 52
5.151595 4.737641 47.690750 93 44 51
5.151081 4.839964 47.685997 92 44 50
5.150439 4.942143 47.680058 92 43 49
5.149677 5.044178 47.673000 93 43 48
5.148804 5.146072 47.664913 95 44 48
5.147827 5.247827 47.655872 97 45 49
5.146755 5.349442 47.645943 100 46 51
5.145595 5.450922 47.635208 102 47 53
5.144355 5.552269 47.623730 103 48 54
5.143041 5.653486 47.611568 103 48 55
5.141660 5.754575 47.598785 103 48 56
5.140218 5.855539 47.585434 103 47 56
5.138721 5.956382 47.571575 102 47 56
5.137174 6.057106 47.557251 100 46 55
5.135583 6.157716 47.542526 99 47 53
5.133956 6.258218 47.527466 97 47 52
5.132300 6.358619 47.512131 96 47 51
5.130624 6.458929 47.496613 96 48 51
5.128939 6.559161 47.481014 94 48 51
5.127256 6.659329 47.465443 92 47 50
5.125591 6.759453 47.450027 91 46 49
5.123961 6.859556 47.434933 90 46 49
5.122383 6.959666 47.420326 90 45 49
5.120878 7.059814 47.406395 89 44 50
5.119468 7.160034 47.393345 88 44 50
5.118174 7.260362 47.381359 87 43 51
5.117017 7.360836 47.370647 86 43 50
5.116017 7.461493 47.361397 85 43 51
5.115193 7.562370 47.353767 86 44 52
5.114558 7.663497 47.347885 86 44 53
5.114122 7.764902 47.343853 86 44 53
5.113889 7.866600 47.341690 85 44 52
5.113858 7.968604 47.341400 84 44 51
5.114016 8.070906 47.342865 83 43 50
5.114348 8.173491 47.345940 82 42 49
5.114828 8.276330 47.350384 81 41 48
5.115425 8.379380 47.355915 81 41 47
5.116103 8.482588 47.362190 82 42 47
5.116819 8.585887 47.368824 83 42 48
5.117532 8.689207 47.375416 85 43 48
5.118195 8.792473 47.381557 85 43 48
5.118769 8.895608 47.386871 85 43 47
5.119215 8.998543 47.391003 84 42 46
5.119505 9.101217 47.393684 82 42 44
5.119619 9.203588 47.394741 80 42 45
5.119551 9.305631 47.394108 79 42 45
5.119308 9.407349 47.391857 78 42 45
5.118914 9.508779 47.388214 77 42 45
5.118411 9.609987 47.383556 76 42 45
5.117856 9.711077 47.378418 76 42 45
5.117324 9.812189 47.373497 75 41 45
5.116904 9.913497 47.369606 74 40 46
5.116698 10.015205 47.367699 75 40 47
5.116815 10.117546 47.368782 76 42 49
5.117370 10.220765 47.373917 77 43 50
4.905674 -10.262060 44.525589 94 50 53
4.906978 -10.168782 44.537434 94 49 53
4.908284 -10.075454 44.549282 94 48 54
4.909583 -9.982061 44.561069 95 49 55
4.910869 -9.888593 44.572742 96 49 56
4.912138 -9.795041 44.584267 97 50 56
4.913390 -9.701404 44.595631 99 50 56
4.914625 -9.607683 44.606834 101 50 58
4.915842 -9.513883 44.617886 104 51 59
4.917046 -9.420008 44.628811 106 52 61
4.918239 -9.326065 44.639637 109 54 63
4.919425 -9.232062 44.650398 110 55 64
4.920607 -9.138006 44.661129 110 55 65
4.921790 -9.043906 44.671867 111 56 65
4.922978 -8.949769 44.682652 111 56 64
4.924175 -8.855600 44.693516 113 56 64
4.925383 -8.761405 44.704479 115 57 65
4.926605 -8.667187 44.715572 115 57 64
4.927843 -8.572948 44.726803 114 55 63
4.929097 -8.478689 44.738186 114 54 61
4.930366 -8.384408 44.749710 115 55 62
4.931651 -8.290102 44.761368 115 55 62
4.932946 -8.195765 44.773125 115 55 62
4.934248 -8.101385 44.784943 114 55 61
4.935551 -8.006959 44.796768 114 54 60
4.936848 -7.912471 44.808544 114 55 60
4.938131 -7.817910 44.820190 115 55 61
4.939393 -7.723266 44.831642 115 56 62
4.940624 -7.628525 44.842815 116 57 63
4.941818 -7.533679 44.853649 117 58 65
4.942966 -7.438717 44.864071 117 59 66
4.944063 -7.343635 44.874027 117 61 66
4.945106 -7.248429 44.883492 117 61 67
4.946091 -7.153101 44.892437 116 62 68
4.947020 -7.057652 44.900860 115 60 67
4.947893 -6.962091 44.908791 114 59 67
4.948717 -6.866425 44.916264 113 57 66
4.949495 -6.770666 44.923332 113 56 67
4.950236 -6.674826 44.930058 114 57 68
4.950949 -6.578918 44.936527 115 58 69
4.951642 -6.482958 44.942814 115 59 70
4.952325 -6.386957 44.949017 115 59 69
4.953008 -6.290930 44.955215 115 58 68
4.953701 -6.194888 44.961502 115 58 67
4.954412 -6.098842 44.967960 115 57 66
4.955153 -6.002803 44.974678 114 57 65
4.955931 -5.906780 44.981743 113 56 63
4.956755 -5.810781 44.989220 112 54 61
4.957634 -5.714813 44.997204 112 55 61
4.958576 -5.618882 45.005756 114 56 62
4.959588 -5.522991 45.014938 117 58 65
4.960676 -5.427145 45.024815 120 60 69
4.961845 -5.331342 45.035427 122 61 71
4.963099 -5.235584 45.046803 121 60 72
4.964438 -5.139864 45.058956 120 58 72
4.965861 -5.044178 45.071873 119 57 72
4.967364 -4.948515 45.085514 118 57 72
4.968939 -4.852865 45.099812 117 57 71
4.970578 -4.757213 45.114689 117 56 70
4.972267 -4.661545 45.130020 117 56 68
4.973993 -4.565844 45.145679 117 56 67
4.975738 -4.470092 45.161518 118 57 67
4.977485 -4.374275 45.177380 118 58 67
4.979218 -4.278376 45.193104 118 59 67
4.980918 -4.182383 45.208534 118 60 67
4.982571 -4.086284 45.223537 118 61 67
4.984163 -3.990072 45.237988 118 63 68
4.985682 -3.893740 45.251778 117 63 69
4.987122 -3.797289 45.264847 118 64 70
4.988478 -3.700720 45.277153 118 65 72
4.989748 -3.604035 45.288685 118 66 73
4.990935 -3.507242 45.299454 118 66 73
4.992044 -3.410349 45.309525 117 66 71
4.993084 -3.313367 45.318962 116 64 69
4.994066 -3.216307 45.327869 114 62 67
4.995001 -3.119179 45.336361 112 59 65
4.995906 -3.021997 45.344578 111 57 64
4.996798 -2.924771 45.352665 110 57 64
4.997692 -2.827512 45.360783 111 56 65
4.998608 -2.730230 45.369099 112 56 66
4.999564 -2.632933 45.377773 113 57 68
5.000579 -2.535628 45.386982 114 59 69
5.001670 -2.438321 45.396889 116 60 72
5.002856 -2.341016 45.407654 118 63 74
5.004155 -2.243714 45.419441 120 65 76
5.005582 -2.146417 45.432396 122 65 76
5.007154 -2.049124 45.446667 123 65 76
5.008887 -1.951831 45.462391 123 63 74
5.010794 -1.854535 45.479694 121 60 72
5.012887 -1.757230 45.498703 120 58 70
5.015182 -1.659910 45.519527 119 57 68
5.017687 -1.562565 45.542267 118 56 66
5.020415 -1.465188 45.567020 119 58 65
5.023373 -1.367766 45.593868 120 60 66
5.026571 -1.270289 45.622902 122 62 67
5.030018 -1.172745 45.654182 123 63 69
5.033719 -1.075121 45.687778 124 63 70
5.037682 -0.977402 45.723740 124 63 71
5.041910 -0.879575 45.762119 124 63 72
5.046408 -0.781624 45.802948 123 62 72
5.051179 -0.683534 45.846252 122 61 72
5.056224 -0.585288 45.892040 121 60 72
5.061541 -0.486872 45.940296 119 58 71
5.067126 -0.388268 45.990990 118 57 69
5.072974 -0.289461 46.044071 117 56 67
5.079074 -0.190434 46.099438 118 57 66
5.085413 -0.091173 46.156971 120 58 67
5.091971 0.008337 46.216492 122 60 68
5.098725 0.108107 46.277794 123 61 69
5.105646 0.208149 46.340611 124 63 70
5.112700 0.308469 46.404636 124 64 70
5.119848 0.409073 46.469513 123 64 69
5.127047 0.509961 46.534847 123 64 68
5.134248 0.611132 46.600212 122 63 67
5.141404 0.712578 46.665157 121 62 67
5.148463 0.814289 46.729233 119 61 67
5.155376 0.916250 46.791981 118 60 67
5.162097 1.018444 46.852978 118 59 69
5.168581 1.120849 46.911827 118 59 70
5.174791 1.223444 46.968197 118 59 71
5.180697 1.326203 47.021801 118 59 73
5.186275 1.429103 47.072433 119 59 74
5.191512 1.532121 47.119961 119 59 74
5.196400 1.635234 47.164322 117 58 72
5.200942 1.738423 47.205551 116 57 69
5.205147 1.841669 47.243713 115 55 67
5.209030 1.944961 47.278961 114 55 66
5.212612 2.048286 47.311470 114 55 66
5.215918 2.151637 47.341476 114 55 66
5.218972 2.255009 47.369198 114 55 65
5.221802 2.358399 47.394882 115 55 65
5.224433 2.461807 47.418766 116 54 64
5.226891 2.565232 47.441071 115 54 63
5.229195 2.668674 47.461987 114 52 60
5.231364 2.772136 47.481670 113 51 58
5.233412 2.875615 47.500256 112 50 57
5.235348 2.979112 47.517826 112 51 57
5.237178 3.082621 47.534435 113 52 58
5.238904 3.186140 47.550110 114 54 59
5.240527 3.289660 47.564835 114 55 61
5.242041 3.393174 47.578575 113 56 61
5.243440 3.496670 47.591278 111 56 61
5.244719 3.600138 47.602879 108 54 60
5.245867 3.703565 47.613308 104 52 58
5.246879 3.806937 47.622486 102 51 57
5.247745 3.910241 47.630348 102 50 59
5.248460 4.013463 47.636841 101 50 61
5.249019 4.116590 47.641911 101 50 62
5.249418 4.219611 47.645535 100 50 61
5.249656 4.322515 47.647694 99 49 59
5.249733 4.425292 47.648396 97 48 58
5.249652 4.527936 47.647663 95 46 55
5.249418 4.630442 47.645535 93 45 53
5.249034 4.732803 47.642048 92 45 51
5.248507 4.835018 47.637268 91 44 50
5.247847 4.937087 47.631271 92 44 49
5.247058 5.039006 47.624119 93 43 48
5.246151 5.140779 47.615879 96 44 50
5.245133 5.242405 47.606644 98 46 51
5.244011 5.343886 47.596462 100 47 53
5.242795 5.445224 47.585415 102 48 54
5.241489 5.546421 47.573570 103 48 55
5.240103 5.647479 47.560986 103 48 55
5.238641 5.748401 47.547722 103 48 55
5.237112 5.849190 47.533844 103 47 55
5.235521 5.949849 47.519402 101 47 56
5.233875 6.050382 47.504459 100 46 55
5.232180 6.150793 47.489079 99 46 54
5.230446 6.251091 47.473339 98 46 52
5.228680 6.351282 47.457310 97 47 51
5.226892 6.451378 47.441086 96 48 51
5.225096 6.551392 47.424778 94 48 51
5.223303 6.651341 47.408508 93 47 50
5.221529 6.751245 47.392410 92 47 50
5.219794 6.851129 47.376656 90 46 49
5.218115 6.951020 47.361416 89 45 49
5.216514 7.050951 47.346886 89 44 50
5.215013 7.150957 47.333260 88 43 50
5.213635 7.251075 47.320755 87 43 50
5.212401 7.351343 47.309559 87 43 51
5.211333 7.451799 47.299862 87 44 52
5.210448 7.552478 47.291824 87 45 54
5.209760 7.653414 47.285587 87 45 55
5.209281 7.754632 47.281239 87 45 55
5.209014 7.856153 47.278816 86 45 54
5.208959 7.957985 47.278316 84 44 52
5.209104 8.060125 47.279633 83 43 51
5.209432 8.162559 47.282608 82 41 49
5.209921 8.265260 47.287048 81 41 48
5.210539 8.368187 47.292652 81 41 48
5.211250 8.471290 47.299107 82 41 48
5.212013 8.574506 47.306034 83 42 48
5.212786 8.677768 47.313046 85 42 48
5.213525 8.781004 47.319756 85 42 47
5.214190 8.884143 47.325790 85 41 46
5.214744 8.987115 47.330814 84 41 45
5.215157 9.089865 47.334568 82 41 45
5.215411 9.192350 47.336876 81 41 45
5.215499 9.294550 47.337677 79 42 45
5.215428 9.396466 47.337032 78 42 45
5.215223 9.498135 47.335167 78 43 46
5.214922 9.599620 47.332436 77 42 45
5.214583 9.701022 47.329361 76 42 45
5.214279 9.802476 47.326599 75 41 45
5.214097 9.904151 47.324947 75 41 47
5.214138 10.006246 47.325317 76 42 49
5.214508 10.108981 47.328678 76 43 50
4.995231 -10.153020 44.468395 95 50 54
4.996618 -10.059954 44.480747 95 49 55
4.997997 -9.966818 44.493023 96 49 55
4.999360 -9.873598 44.505157 97 50 56
5.000704 -9.780288 44.517120 98 51 57
5.002027 -9.686886 44.528893 100 51 57
5.003327 -9.593390 44.540466 102 51 59
5.004606 -9.499803 44.551853 105 53 61
5.005867 -9.406134 44.563076 107 54 62
5.007111 -9.312385 44.574158 109 55 63
5.008344 -9.218567 44.585129 110 56 64
5.009569 -9.124687 44.596031 110 56 64
5.010789 -9.030754 44.606903 110 55 64
5.012012 -8.936775 44.617783 111 55 64
5.013237 -8.842757 44.628696 113 56 64
5.014472 -8.748706 44.639683 115 57 65
5.015717 -8.654626 44.650768 116 57 65
5.016975 -8.560520 44.661964 114 54 62
5.018248 -8.466392 44.673294 113 53 60
5.019534 -8.372236 44.684746 114 54 61
5.020833 -8.278053 44.696312 115 54 62
5.022142 -8.183837 44.707966 114 54 62
5.023458 -8.089579 44.719673 114 54 62
5.024773 -7.995271 44.731380 114 55 61
5.026081 -7.900902 44.743031 115 55 61
5.027375 -7.806461 44.754551 115 56 62
5.028646 -7.711935 44.765865 116 57 63
5.029886 -7.617312 44.776905 117 58 64
5.031087 -7.522584 44.787598 117 60 65
5.032241 -7.427741 44.797871 117 61 66
5.033343 -7.332777 44.807678 117 61 66
5.034389 -7.237690 44.816990 117 61 67
5.035376 -7.142479 44.825775 116 61 67
5.036304 -7.047149 44.834038 115 60 68
5.037176 -6.951705 44.841801 114 59 68
5.037996 -6.856158 44.849102 114 58 68
5.038770 -6.760517 44.855991 114 58 69
5.039506 -6.664795 44.862541 115 58 70
5.040212 -6.569007 44.868824 116 59 70
5.040898 -6.473166 44.874931 116 60 70
5.041574 -6.377285 44.880947 115 60 70
5.042250 -6.281379 44.886963 115 59 68
5.042935 -6.185459 44.893066 116 59 67
5.043640 -6.089536 44.899345 116 60 67
5.044375 -5.993621 44.905884 117 59 66
5.045149 -5.897723 44.912773 115 57 64
5.045970 -5.801851 44.920086 114 55 62
5.046848 -5.706011 44.927902 114 55 62
5.047791 -5.610210 44.936298 116 57 63
5.048807 -5.514452 44.945335 119 59 66
5.049901 -5.418738 44.955078 122 61 69
5.051080 -5.323073 44.965569 123 61 71
5.052347 -5.227453 44.976849 123 60 72
5.053703 -5.131875 44.988922 122 59 72
5.055147 -5.036333 45.001778 121 58 72
5.056677 -4.940819 45.015396 120 58 73
5.058284 -4.845321 45.029701 119 57 72
5.059959 -4.749825 45.044621 118 56 71
5.061692 -4.654316 45.060040 119 57 70
5.063466 -4.558779 45.075832 119 58 69
5.065265 -4.463197 45.091854 120 58 69
5.067072 -4.367551 45.107941 120 59 69
5.068870 -4.271829 45.123940 119 60 68
5.070640 -4.176015 45.139702 120 61 68
5.072367 -4.080098 45.155075 120 62 69
5.074038 -3.984070 45.169945 119 63 69
5.075639 -3.887926 45.184204 119 64 70
5.077164 -3.791663 45.197777 119 64 72
5.078606 -3.695281 45.210617 119 65 74
5.079965 -3.598785 45.222710 119 66 74
5.081241 -3.502179 45.234070 119 66 73
5.082439 -3.405473 45.244736 118 66 72
5.083568 -3.308675 45.254784 116 64 70
5.084637 -3.211796 45.264301 114 62 67
5.085659 -3.114847 45.273399 111 59 65
5.086649 -3.017841 45.282215 110 56 64
5.087624 -2.920787 45.290894 110 56 64
5.088600 -2.823697 45.299583 110 56 65
5.089596 -2.726580 45.308453 111 57 66
5.090630 -2.629445 45.317657 112 57 67
5.091722 -2.532298 45.327377 114 58 68
5.092889 -2.435145 45.337769 116 60 70
5.094151 -2.337991 45.348999 118 62 73
5.095524 -2.240838 45.361221 119 64 75
5.097026 -2.143686 45.374592 121 65 75
5.098673 -2.046535 45.389256 122 64 75
5.100481 -1.949382 45.405354 121 61 73
5.102466 -1.852224 45.423016 120 59 72
5.104639 -1.755054 45.442364 119 57 70
5.107015 -1.657867 45.463512 118 55 67
5.109605 -1.560655 45.486572 117 55 64
5.112420 -1.463406 45.511631 119 57 64
5.115470 -1.366113 45.538788 121 59 65
5.118765 -1.268764 45.568119 122 62 66
5.122312 -1.171345 45.599693 123 62 67
5.126120 -1.073846 45.633595 123 63 68
5.130194 -0.976250 45.669857 123 63 69
5.134539 -0.878545 45.708538 123 62 69
5.139159 -0.780715 45.749672 122 62 70
5.144059 -0.682744 45.793285 121 61 70
5.149236 -0.584617 45.839378 119 60 70
5.154691 -0.486317 45.887936 118 59 69
5.160419 -0.387829 45.938934 117 57 68
5.166415 -0.289135 45.992306 117 56 66
5.172666 -0.190221 46.047955 118 58 66
5.179159 -0.091072 46.105755 120 59 67
5.185874 0.008328 46.165535 121 60 69
5.192787 0.107989 46.227074 122 62 70
5.199868 0.207922 46.290108 123 63 71
5.207083 0.308135 46.354336 124 64 71
5.214390 0.408632 46.419388 124 64 71
5.221747 0.509414 46.484882 124 64 70
5.229105 0.610479 46.550388 123 64 69
5.236414 0.711819 46.615452 122 63 69
5.243624 0.813425 46.679630 121 62 68
5.250682 0.915281 46.742470 119 62 68
5.257543 1.017369 46.803547 118 61 70
5.264163 1.119670 46.862469 118 61 71
5.270502 1.222160 46.918903 118 61 72
5.276531 1.324815 46.972576 119 61 74
5.282226 1.427611 47.023273 119 61 74
5.287572 1.530525 47.070869 119 61 74
5.292564 1.633535 47.115311 118 60 72
5.297204 1.736620 47.156616 116 58 70
5.301501 1.839765 47.194862 115 56 68
5.305470 1.942955 47.230198 114 56 66
5.309134 2.046179 47.262814 115 55 66
5.312515 2.149430 47.292912 115 55 66
5.315640 2.252702 47.320732 115 55 66
5.318537 2.355993 47.346519 116 56 66
5.321231 2.459301 47.370506 118 57 66
5.323747 2.562627 47.392899 117 56 64
5.326106 2.665971 47.413898 116 54 61
5.328326 2.769333 47.433666 114 52 59
5.330421 2.872713 47.452320 114 52 58
5.332401 2.976110 47.469944 114 53 58
5.334272 3.079519 47.486603 114 53 59
5.336038 3.182937 47.502319 115 54 61
5.337695 3.286357 47.517071 115 56 62
5.339242 3.389770 47.530842 114 56 63
5.340672 3.493165 47.543568 112 56 63
5.341977 3.596532 47.555187 109 54 61
5.343151 3.699858 47.565639 104 51 59
5.344185 3.803129 47.574841 102 50 59
5.345071 3.906332 47.582733 101 50 60
5.345804 4.009454 47.589260 101 50 61
5.346378 4.112482 47.594364 101 50 62
5.346789 4.215403 47.598026 100 50 62
5.347035 4.318207 47.600216 98 49 61
5.347117 4.420885 47.600945 96 48 59
5.347036 4.523428 47.600227 94 47 57
5.346796 4.625831 47.598091 93 46 54
5.346402 4.728087 47.594578 92 45 52
5.345858 4.830194 47.589741 90 44 50
5.345173 4.932149 47.583641 91 44 49
5.344354 5.033952 47.576351 93 44 49
5.343408 5.135601 47.567924 96 46 51
5.342342 5.237097 47.558441 100 48 54
5.341165 5.338441 47.547962 101 49 55
5.339884 5.439633 47.536556 102 49 55
5.338506 5.540676 47.524288 102 48 55
5.337039 5.641571 47.511227 102 48 55
5.335489 5.742321 47.497437 102 47 54
5.333864 5.842929 47.482964 101 46 54
5.332171 5.943400 47.467896 100 46 54
5.330417 6.043736 47.452282 99 46 54
5.328611 6.143944 47.436199 99 46 53
5.326761 6.244032 47.419735 98 47 52
5.324878 6.344010 47.402969 97 47 52
5.322972 6.443887 47.386002 96 48 51
5.321057 6.543681 47.368958 94 48 51
5.319149 6.643408 47.351963 93 47 50
5.317262 6.743091 47.335167 91 46 50
5.315416 6.842754 47.318745 89 45 49
5.313633 6.942428 47.302868 88 44 49
5.311934 7.042144 47.287743 87 43 49
5.310343 7.141940 47.273575 87 43 49
5.308881 7.241852 47.260563 87 43 50
5.307572 7.341919 47.248913 88 44 52
5.306437 7.442181 47.238808 89 45 53
5.305495 7.542673 47.230423 89 47 55
5.304760 7.643426 47.223881 89 47 56
5.304244 7.744471 47.219284 88 47 56
5.303950 7.845825 47.216667 87 46 55
5.303877 7.947499 47.216019 85 45 53
5.304017 8.049493 47.217262 83 43 51
5.304352 8.151793 47.220245 82 41 49
5.304859 8.254373 47.224762 81 40 48
5.305509 8.357197 47.230541 82 41 48
5.306266 8.460217 47.237282 82 42 48
5.307089 8.563372 47.244606 83 42 48
5.307938 8.666602 47.252167 85 42 48
5.308770 8.769836 47.259575 85 42 47
5.309545 8.873006 47.266468 85 42 46
5.310226 8.976049 47.272537 85 41 45
5.310786 9.078909 47.277519 83 41 45
5.311204 9.181547 47.281246 82 41 46
5.311474 9.283941 47.283649 80 42 46
5.311604 9.386098 47.284801 79 42 46
5.311615 9.488049 47.284904 78 42 46
5.311547 9.589856 47.284298 76 42 46
5.311455 9.691617 47.283478 75 41 45
5.311409 9.793461 47.283073 75 41 45
5.311497 9.895550 47.283852 75 41 47
5.311813 9.998074 47.286667 76 42 49
5.083373 -10.137629 44.400990 97 49 55
5.084842 -10.044818 44.413822 97 49 55
5.086302 -9.951934 44.426579 98 49 55
5.087745 -9.858961 44.439178 99 50 56
5.089166 -9.765891 44.451591 100 51 57
5.090562 -9.672722 44.463783 101 52 58
5.091932 -9.579452 44.475758 103 52 59
5.093278 -9.486083 44.487511 106 54 61
5.094601 -9.392622 44.499065 108 55 63
5.095903 -9.299074 44.510441 109 56 64
5.097189 -9.205446 44.521675 110 56 63
5.098463 -9.111748 44.532795 110 56 63
5.099728 -9.017988 44.543850 110 55 63
5.100990 -8.924174 44.554871 110 55 63
5.102252 -8.830315 44.565899 112 56 63
5.103519 -8.736414 44.576962 115 57 65
5.104794 -8.642479 44.588097 115 56 64
5.106080 -8.548513 44.599323 114 55 62
5.107376 -8.454519 44.610649 113 54 61
5.108685 -8.360496 44.622078 113 54 62
5.110004 -8.266440 44.633610 113 54 62
5.111333 -8.172350 44.645214 113 54 62
5.112666 -8.078216 44.656857 113 54 62
5.113998 -7.984030 44.668488 113 54 62
5.115322 -7.889781 44.680050 114 55 62
5.116630 -7.795459 44.691475 115 57 63
5.117914 -7.701051 44.702694 115 58 63
5.119165 -7.606547 44.713623 116 59 64
5.120376 -7.511935 44.724197 117 61 65
5.121538 -7.417208 44.734348 117 61 66
5.122646 -7.322361 44.744030 117 61 66
5.123696 -7.227389 44.753201 117 61 67
5.124686 -7.132293 44.761845 116 60 67
5.125615 -7.037077 44.769962 115 60 68
5.126486 -6.941748 44.777569 115 59 69
5.127304 -6.846315 44.784714 114 58 68
5.128075 -6.750788 44.791443 114 58 69
5.128806 -6.655182 44.797829 115 59 70
5.129507 -6.559509 44.803947 116 59 70
5.130187 -6.463783 44.809887 116 60 70
5.130856 -6.368020 44.815739 115 60 69
5.131526 -6.272231 44.821590 115 60 67
5.132206 -6.176429 44.827530 116 60 67
5.132907 -6.080626 44.833649 117 60 67
5.133638 -5.984832 44.840038 117 59 66
5.134410 -5.889057 44.846775 116 57 64
5.135231 -5.793309 44.853947 115 55 62
5.136110 -5.697594 44.861629 116 55 62
5.137057 -5.601921 44.869900 117 56 64
5.138079 -5.506291 44.878826 119 57 65
5.139183 -5.410710 44.888470 120 58 67
5.140375 -5.315178 44.898880 121 59 68
5.141658 -5.219694 44.910088 122 59 70
5.143035 -5.124254 44.922112 122 59 71
5.144505 -5.028854 44.934952 122 59 72
5.146064 -4.933485 44.948570 121 58 73
5.147707 -4.838134 44.962917 121 58 73
5.149423 -4.742790 44.977905 120 58 73
5.151200 -4.647436 44.993431 121 58 73
5.153026 -4.552058 45.009377 122 59 72
5.154881 -4.456638 45.025589 123 60 72
5.156751 -4.361159 45.041916 123 61 71
5.158616 -4.265605 45.058205 122 61 70
5.160458 -4.169964 45.074295 122 62 70
5.162262 -4.074223 45.090050 122 63 71
5.164012 -3.978372 45.105343 122 65 72
5.165698 -3.882407 45.120060 122 65 73
5.167308 -3.786324 45.134132 121 64 74
5.168839 -3.690123 45.147503 120 65 74
5.170288 -3.593807 45.160152 120 65 74
5.171655 -3.497381 45.172092 119 65 74
5.172944 -3.400853 45.183353 119 65 72
5.174163 -3.304231 45.194004 117 64 70
5.175322 -3.207526 45.204128 114 62 67
5.176434 -3.110749 45.213837 112 59 65
5.177512 -3.013911 45.223259 110 57 63
5.178573 -2.917023 45.232525 109 56 63
5.179635 -2.820095 45.241795 110 57 64
5.180714 -2.723136 45.251221 112 58 65
5.181830 -2.626156 45.260971 113 58 66
5.183003 -2.529160 45.271217 114 59 67
5.184250 -2.432156 45.282108 116 60 69
5.185590 -2.335147 45.293816 118 62 71
5.187042 -2.238135 45.306492 120 63 73
5.188622 -2.141121 45.320297 120 63 74
5.190348 -2.044106 45.335377 121 62 73
5.192236 -1.947086 45.351864 120 60 72
5.194301 -1.850058 45.369900 120 57 71
5.196558 -1.753017 45.389610 119 55 69
5.199018 -1.655956 45.411106 118 54 66
5.201696 -1.558868 45.434494 117 54 64
5.204602 -1.461742 45.459877 119 56 63
5.207747 -1.364570 45.487347 121 59 64
5.211141 -1.267340 45.516991 122 62 65
5.214791 -1.170040 45.548874 122 62 66
5.218707 -1.072657 45.583073 122 62 66
5.222893 -0.975177 45.619637 122 62 67
5.227355 -0.877585 45.658615 121 62 67
5.232099 -0.779868 45.700047 121 62 68
5.237125 -0.682008 45.743950 120 62 69
5.242435 -0.583991 45.790329 118 61 69
5.248026 -0.485800 45.839165 117 60 68
5.253895 -0.387419 45.890430 116 58 67
5.260035 -0.288832 45.944054 116 57 66
5.266434 -0.190023 45.999947 117 59 67
5.273077 -0.090977 46.057972 119 60 68
5.279944 0.008319 46.117950 120 61 69
5.287010 0.107878 46.179672 121 62 71
5.294245 0.207710 46.242867 122 62 71
5.301613 0.307821 46.307224 123 62 72
5.309073 0.408218 46.372387 124 63 72
5.316582 0.508900 46.437969 125 64 72
5.324089 0.609864 46.503540 124 64 71
5.331543 0.711104 46.568649 123 63 71
5.338894 0.812610 46.632851 122 62 70
5.346090 0.914365 46.695709 121 62 70
5.353083 1.016353 46.756790 119 61 71
5.359829 1.118553 46.815712 119 61 72
5.366290 1.220941 46.872143 118 61 73
5.372433 1.323496 46.925808 118 62 74
5.378238 1.426191 46.976505 117 62 74
5.383687 1.529004 47.024105 117 61 73
5.388777 1.631914 47.068562 116 60 71
5.393508 1.734900 47.109890 115 58 69
5.397892 1.837945 47.148174 113 57 67
5.401941 1.941036 47.183548 113 56 66
5.405681 2.044162 47.216206 112 54 65
5.409133 2.147315 47.246365 113 54 65
5.412325 2.250489 47.274246 114 55 65
5.415285 2.353683 47.300095 116 56 66
5.418037 2.456894 47.324139 118 57 66
5.420608 2.560123 47.346588 117 57 65
5.423018 2.663370 47.367641 116 55 62
5.425285 2.766634 47.387444 115 53 59
5.427424 2.869917 47.406128 114 52 59
5.429446 2.973216 47.423782 114 53 60
5.431355 3.076527 47.440456 114 53 61
5.433154 3.179845 47.456173 115 55 62
5.434844 3.283165 47.470928 115 56 64
5.436419 3.386478 47.484692 115 56 65
5.437875 3.489774 47.497406 113 55 64
