ply
format ascii 1.0
element vertex 1201
property float x
property float y
property float z
property uchar red
property uchar green
property uchar blue
end_header
-8.125998 -1.368320 64.011246 155 64 70
-8.129974 -1.230935 64.042557 152 64 69
-8.133980 -1.093420 64.074112 149 64 69
-8.138052 -0.955776 64.106186 146 65 71
-8.142227 -0.818004 64.139076 144 66 75
-8.146538 -0.680101 64.173035 143 66 79
-8.151012 -0.542064 64.208282 142 66 83
-8.155677 -0.403883 64.245026 148 72 91
-8.160552 -0.265551 64.283424 163 87 106
-8.165652 -0.127057 64.323608 165 85 103
-8.170993 0.011611 64.365669 149 65 82
-8.176578 0.150464 64.409668 142 56 69
-8.182411 0.289516 64.455627 147 59 68
-8.188491 0.428779 64.503517 152 64 69
-8.194809 0.568265 64.553284 155 67 69
-8.201356 0.707985 64.604851 157 70 72
-8.208114 0.847950 64.658089 155 68 70
-8.215063 0.988167 64.712830 151 65 67
-8.222180 1.128643 64.768890 151 65 67
-8.229436 1.269382 64.826050 153 68 71
-8.236801 1.410386 64.884064 156 72 75
-8.244238 1.551654 64.942650 160 77 80
-8.251712 1.693182 65.001526 161 79 80
-8.259182 1.834963 65.060371 157 75 76
-8.266611 1.976988 65.118896 152 71 71
-8.273958 2.119244 65.176765 148 67 69
-8.281184 2.261717 65.233688 146 65 67
-8.288254 2.404389 65.289375 143 63 65
-8.295133 2.547244 65.343567 142 61 65
-8.301794 2.690261 65.396034 140 60 64
-8.308213 2.833422 65.446609 137 60 63
-8.314376 2.976709 65.495148 134 58 62
-8.320270 3.120105 65.541580 131 57 61
-8.325892 3.263594 65.585869 127 54 58
-8.331249 3.407166 65.628075 123 52 55
-8.336352 3.550812 65.668266 119 50 53
-8.341217 3.694525 65.706589 116 49 52
-8.345868 3.838306 65.743233 114 48 51
-8.350333 3.982155 65.778404 113 48 52
-8.354642 4.126079 65.812347 112 49 52
-8.358828 4.270087 65.845314 111 49 52
-8.362924 4.414189 65.877579 108 48 50
-8.366961 4.558398 65.909386 106 46 48
-8.370971 4.702730 65.940971 103 44 46
-8.374981 4.847197 65.972557 100 42 44
-8.379017 4.991816 66.004349 99 41 42
-8.383097 5.136599 66.036491 97 39 41
-8.387239 5.281560 66.069122 96 39 40
-8.391458 5.426711 66.102348 96 38 39
-8.395761 5.572061 66.136246 97 37 39
-8.400156 5.717620 66.170876 97 37 40
-8.404652 5.863398 66.206284 96 37 41
-8.409249 6.009402 66.242500 96 37 41
-8.413955 6.155641 66.279564 95 38 41
-8.418774 6.302125 66.317528 95 39 42
-8.423712 6.448864 66.356430 93 39 42
-8.428779 6.595871 66.396339 91 39 41
-8.433983 6.743160 66.437340 89 39 40
-8.439339 6.890749 66.479523 87 39 39
-8.444860 7.038658 66.523010 85 38 39
-8.450559 7.186907 66.567909 84 38 39
-8.456454 7.335519 66.614357 83 37 37
-8.462561 7.484518 66.662453 82 37 36
-8.468890 7.633924 66.712311 83 36 35
-8.475453 7.783762 66.764015 84 37 37
-8.482259 7.934048 66.817627 84 37 37
-8.489308 8.084798 66.873154 83 36 36
-8.496598 8.236020 66.930580 83 35 35
-8.504120 8.387719 66.989830 83 34 35
-8.511859 8.539890 67.050789 83 34 35
-8.519793 8.692524 67.113289 84 34 35
-8.527896 8.845603 67.177124 86 34 36
-8.536137 8.999102 67.242035 87 35 37
-8.544477 9.152988 67.307739 88 37 38
-8.552881 9.307225 67.373940 89 39 39
-8.561305 9.461771 67.440292 89 40 40
-8.569709 9.616580 67.506500 87 40 39
-8.578053 9.771606 67.572227 85 39 38
-8.586300 9.926804 67.637192 82 38 38
-8.594416 10.082128 67.701126 80 38 37
-8.602373 10.237538 67.763802 79 37 37
-8.610148 10.392999 67.825050 78 37 36
-8.617724 10.548481 67.884735 77 37 36
-8.625093 10.703963 67.942780 76 38 36
-8.632252 10.859429 67.999168 76 38 36
-8.639202 11.014874 68.053917 76 38 36
-8.645953 11.170298 68.107094 75 38 36
-8.652516 11.325705 68.158798 75 38 36
-8.658910 11.481109 68.209160 73 38 35
-8.665150 11.636525 68.258316 72 37 36
-8.671256 11.791970 68.306419 70 36 36
-8.677245 11.947463 68.353600 69 37 37
-8.683134 12.103018 68.399986 68 37 38
-8.688935 12.258650 68.445679 67 37 38
-8.694657 12.414367 68.490761 66 38 37
-8.700307 12.570171 68.535263 66 38 37
-8.705883 12.726061 68.579185 65 37 36
-8.711381 12.882026 68.622498 63 36 35
-8.716794 13.038049 68.665138 61 35 34
-8.722110 13.194109 68.707016 58 34 33
-8.727314 13.350179 68.748009 55 33 31
-8.732390 13.506228 68.787994 52 32 30
-8.737323 13.662224 68.826843 49 32 29
-7.566689 -13.190635 60.635006 98 33 39
-7.568024 -13.062230 60.645702 100 34 39
-7.569273 -12.933632 60.655708 101 36 39
-7.570436 -12.804847 60.665031 102 36 40
-7.571527 -12.675900 60.673779 102 36 40
-7.572568 -12.546832 60.682117 102 35 40
-7.573588 -12.417695 60.690292 102 35 41
-7.574624 -12.288548 60.698593 103 36 42
-7.575718 -12.159457 60.707359 104 36 42
-7.576913 -12.030491 60.716938 105 35 43
-7.578256 -11.901714 60.727695 107 36 44
-7.579788 -11.773187 60.739979 110 37 46
-7.581552 -11.644959 60.754108 116 40 49
-7.583579 -11.517073 60.770348 123 46 54
-7.585896 -11.389552 60.788921 129 50 57
-7.588523 -11.262410 60.809971 131 52 57
-7.591467 -11.135643 60.833565 133 53 57
-7.594728 -11.009233 60.859692 134 53 58
-7.598292 -10.883145 60.888256 134 53 58
-7.602139 -10.757334 60.919083 134 53 58
-7.606237 -10.631742 60.951923 132 53 57
-7.610548 -10.506300 60.986462 131 51 56
-7.615025 -10.380937 61.022335 130 50 55
-7.619616 -10.255572 61.059128 130 50 55
-7.624267 -10.130130 61.096401 132 52 59
-7.628924 -10.004534 61.133720 137 55 64
-7.633531 -9.878712 61.170639 143 61 70
-7.638037 -9.752602 61.206745 149 66 76
-7.642395 -9.626150 61.241673 153 68 80
-7.646567 -9.499317 61.275105 153 66 79
-7.650521 -9.372072 61.306789 149 62 75
-7.654236 -9.244402 61.336555 145 58 71
-7.657700 -9.116304 61.364315 143 56 69
-7.660913 -8.987794 61.390064 143 56 69
-7.663886 -8.858894 61.413887 144 57 69
-7.666639 -8.729640 61.435944 143 57 69
-7.669199 -8.600077 61.456463 141 57 67
-7.671605 -8.470253 61.475739 138 56 65
-7.673899 -8.340225 61.494125 133 54 64
-7.676128 -8.210049 61.511986 129 53 65
-7.678342 -8.079780 61.529728 127 55 68
-7.680591 -7.949470 61.547749 130 60 75
-7.682925 -7.819169 61.566448 138 71 87
-7.685389 -7.688917 61.586193 150 84 101
-7.688027 -7.558752 61.607334 161 95 112
-7.690877 -7.428700 61.630177 172 107 122
-7.693973 -7.298784 61.654984 187 121 136
-7.697342 -7.169014 61.681980 199 129 143
-7.701006 -7.039398 61.711342 195 119 132
-7.704982 -6.909935 61.743202 179 101 112
-7.709282 -6.780620 61.777668 172 92 102
-7.713917 -6.651444 61.814808 169 91 99
-7.718892 -6.522396 61.854668 163 87 92
-7.724208 -6.393458 61.897270 156 84 88
-7.729867 -6.264615 61.942623 158 88 92
-7.735871 -6.135849 61.990730 161 93 98
-7.742215 -6.007141 62.041569 158 91 97
-7.748897 -5.878469 62.095116 158 91 96
-7.755911 -5.749813 62.151325 167 101 106
-7.763250 -5.621150 62.210133 179 114 118
-7.770903 -5.492454 62.271454 190 126 130
-7.778853 -5.363700 62.335167 196 132 136
-7.787084 -5.234859 62.401123 190 127 132
-7.795570 -5.105902 62.469124 194 132 140
-7.804282 -4.976795 62.538933 207 146 154
-7.813184 -4.847505 62.610268 201 141 149
-7.822236 -4.717999 62.682812 183 124 131
-7.831393 -4.588241 62.756191 183 125 129
-7.840607 -4.458198 62.830025 206 149 153
-7.849824 -4.327839 62.903885 229 182 186
-7.858993 -4.197136 62.977356 237 204 208
-7.868059 -4.066063 63.050003 235 198 204
-7.876970 -3.934600 63.121414 224 172 180
-7.885677 -3.802731 63.191189 205 140 152
-7.894136 -3.670445 63.258976 182 113 126
-7.902309 -3.537739 63.324467 165 94 108
-7.910161 -3.404612 63.387390 157 84 98
-7.917669 -3.271072 63.447552 157 83 96
-7.924813 -3.137129 63.504803 161 84 96
-7.931586 -3.002798 63.559078 166 85 97
-7.937984 -2.868097 63.610344 168 84 96
-7.944013 -2.733049 63.658653 168 81 95
-7.949685 -2.597676 63.704109 167 78 94
-7.955019 -2.462002 63.746853 166 75 92
-7.960039 -2.326052 63.787083 165 74 91
-7.964775 -2.189851 63.825027 167 74 91
-7.969259 -2.053421 63.860970 169 76 92
-7.973530 -1.916785 63.895187 171 78 92
-7.977625 -1.779963 63.928009 170 76 88
-7.981588 -1.642971 63.959763 167 73 83
-7.985459 -1.505825 63.990780 163 70 77
-7.989280 -1.368537 64.021400 159 67 73
-7.993094 -1.231116 64.051964 155 67 71
-7.996942 -1.093568 64.082794 152 67 70
-8.000860 -0.955895 64.114197 149 68 72
-8.004886 -0.818098 64.146461 147 70 76
-8.009052 -0.680174 64.179848 146 71 80
-8.013389 -0.542117 64.214592 144 71 83
-8.017919 -0.403920 64.250900 150 76 90
-8.022664 -0.265574 64.288925 165 90 105
-8.027640 -0.127067 64.328796 168 89 104
-8.032858 0.011611 64.370605 153 69 83
-8.038324 0.150475 64.414413 146 59 70
-8.044041 0.289537 64.460220 150 61 70
-8.050003 0.428809 64.508003 151 62 69
-8.056204 0.568304 64.557693 151 63 68
-8.062630 0.708033 64.609184 152 64 69
-8.069265 0.848006 64.662354 152 64 69
-8.076087 0.988231 64.717026 152 64 69
-8.083072 1.128714 64.772987 152 65 70
-8.090189 1.269459 64.830025 154 68 73
-8.097407 1.410469 64.887871 157 73 78
-8.104693 1.551740 64.946251 163 80 84
-8.112007 1.693269 65.004868 165 83 85
-8.119312 1.835049 65.063408 160 79 79
-8.126570 1.977069 65.121559 153 72 72
-8.133739 2.119317 65.179008 147 68 67
-8.140783 2.261778 65.235458 143 64 65
-8.147668 2.404435 65.290627 141 62 63
-8.154361 2.547271 65.344261 139 60 62
-8.160835 2.690265 65.396149 138 59 61
-8.167069 2.833400 65.446106 136 58 61
-8.173049 2.976658 65.494019 133 58 60
-8.178764 3.120021 65.539818 130 56 60
-8.184214 3.263476 65.583488 127 54 57
-8.189403 3.407010 65.625069 122 52 54
-8.194343 3.550617 65.664658 119 50 52
-8.199053 3.694290 65.702400 115 49 51
-8.203557 3.838029 65.738487 114 48 50
-8.207880 3.981836 65.773132 113 48 51
-8.212053 4.125718 65.806580 112 48 51
-8.216109 4.269682 65.839081 111 47 50
-8.220079 4.413741 65.870895 109 47 49
-8.223995 4.557907 65.902275 108 46 48
-8.227886 4.702193 65.933449 106 44 47
-8.231777 4.846614 65.964630 103 42 45
-8.235693 4.991185 65.996010 101 41 43
-8.239652 5.135918 66.027733 99 40 42
-8.243670 5.280825 66.059929 98 39 40
-8.247757 5.425917 66.092682 98 38 39
-8.251924 5.571204 66.126076 98 38 39
-8.256175 5.716693 66.160149 97 38 39
-8.260516 5.862393 66.194931 97 37 40
-8.264949 6.008309 66.230453 96 37 41
-8.269479 6.154451 66.266747 95 38 41
-8.274108 6.300825 66.303848 95 39 42
-8.278843 6.447441 66.341789 93 39 42
-8.283691 6.594311 66.380638 91 39 41
-8.288664 6.741450 66.420486 88 39 40
-8.293771 6.888873 66.461418 86 38 39
-8.299029 7.036599 66.503548 84 38 39
-8.304452 7.184649 66.547005 82 37 39
-8.310057 7.333048 66.591919 81 37 37
-8.315859 7.481819 66.638412 80 37 36
-8.321876 7.630985 66.686623 81 36 36
-8.328116 7.780570 66.736641 82 36 36
-8.334593 7.930594 66.788536 82 36 36
-8.341308 8.081074 66.842346 82 35 36
-8.348263 8.232021 66.898079 82 35 36
-8.355450 8.383442 66.955673 82 34 35
-8.362858 8.535336 67.015030 83 34 35
-8.370466 8.687695 67.076004 85 33 34
-8.378253 8.840505 67.138405 87 34 36
-8.386187 8.993741 67.201981 88 36 37
-8.394234 9.147375 67.266464 89 38 38
-8.402357 9.301372 67.331558 90 40 39
-8.410518 9.455689 67.396950 90 41 40
-8.418674 9.610287 67.462318 89 41 40
-8.426789 9.765116 67.527344 87 40 40
-8.434825 9.920133 67.591736 85 39 39
-8.442750 10.075295 67.655243 82 38 38
-8.450535 10.230562 67.717628 80 38 37
-8.458158 10.385898 67.778709 79 37 36
-8.465602 10.541276 67.838364 78 38 35
-8.472858 10.696673 67.896515 77 38 35
-8.479923 10.852077 67.953133 76 38 36
-8.486801 11.007483 68.008247 76 38 36
-8.493500 11.162889 68.061920 75 38 36
-8.500031 11.318303 68.114258 74 38 36
-8.506412 11.473741 68.165390 73 38 35
-8.512658 11.629217 68.215446 72 37 36
-8.518791 11.784750 68.264595 70 37 37
-8.524826 11.940359 68.312958 69 37 38
-8.530778 12.096058 68.360649 68 37 38
-8.536660 12.251863 68.407784 67 38 38
-8.542480 12.407779 68.454422 67 38 37
-8.548240 12.563810 68.500580 66 38 37
-8.553940 12.719951 68.546257 65 38 37
-8.559574 12.876188 68.591400 63 37 36
-8.565130 13.032502 68.635925 61 35 34
-8.570596 13.188869 68.679726 58 34 33
-8.575953 13.345255 68.722649 55 34 32
-8.581182 13.501626 68.764557 52 33 31
-8.586264 13.657943 68.805275 50 32 30
-7.439860 -13.197517 60.666645 99 33 37
-7.441304 -13.069276 60.678413 101 36 39
-7.442651 -12.940817 60.689404 104 37 41
-7.443905 -12.812149 60.699627 105 39 42
-7.445077 -12.683296 60.709179 103 37 41
-7.446188 -12.554302 60.718243 102 35 40
-7.447270 -12.425219 60.727062 102 35 40
-7.448357 -12.296106 60.735931 103 35 41
-7.449493 -12.167036 60.745197 104 35 42
-7.450723 -12.038076 60.755219 106 35 44
-7.452090 -11.909293 60.766369 109 37 47
-7.453640 -11.780750 60.779003 113 39 49
-7.455410 -11.652499 60.793442 118 42 52
-7.457438 -11.524583 60.809975 124 47 56
-7.459749 -11.397028 60.828823 129 51 58
-7.462363 -11.269848 60.850132 131 52 58
-7.465287 -11.143041 60.873978 133 53 58
-7.468521 -11.016587 60.900349 134 53 58
-7.472053 -10.890454 60.929150 135 54 58
-7.475862 -10.764597 60.960213 135 54 58
-7.479918 -10.638956 60.993286 134 54 59
-7.484181 -10.513465 61.028053 133 53 58
-7.488607 -10.388047 61.064137 133 52 58
-7.493143 -10.262627 61.101128 132 52 58
-7.497737 -10.137124 61.138588 133 52 60
-7.502334 -10.011464 61.176067 137 56 64
-7.506879 -9.885574 61.213131 143 61 70
-7.511321 -9.759391 61.249355 148 66 76
-7.515616 -9.632863 61.284374 153 69 81
-7.519724 -9.505948 61.317875 153 68 81
-7.523615 -9.378618 61.349606 149 63 77
-7.527269 -9.250859 61.379402 144 57 71
-7.530676 -9.122673 61.407181 141 53 67
-7.533836 -8.994072 61.432945 142 55 68
-7.536759 -8.865081 61.456779 145 58 70
-7.539466 -8.735738 61.478855 146 60 71
-7.541987 -8.606087 61.499416 143 59 69
-7.544359 -8.476180 61.518757 138 57 66
-7.546625 -8.346072 61.537231 131 54 64
-7.548831 -8.215820 61.555222 126 53 64
-7.551026 -8.085478 61.573120 125 56 69
-7.553260 -7.955100 61.591335 128 63 79
-7.555581 -7.824733 61.610256 138 75 92
-7.558032 -7.694417 61.630245 154 91 109
-7.560656 -7.564188 61.651646 174 112 129
-7.563488 -7.434072 61.674740 195 137 153
-7.566560 -7.304088 61.699787 215 161 176
-7.569897 -7.174246 61.726997 222 163 177
-7.573517 -7.044551 61.756523 204 133 147
-7.577437 -6.915001 61.788479 174 97 111
-7.581666 -6.785592 61.822968 162 85 97
-7.586212 -6.656311 61.860031 164 87 97
-7.591078 -6.527145 61.899712 159 86 93
-7.596266 -6.398080 61.942017 155 85 91
-7.601776 -6.269098 61.986950 160 92 99
-7.607608 -6.140182 62.034508 168 102 110
-7.613760 -6.011314 62.084671 168 103 112
-7.620229 -5.882474 62.137417 161 97 105
-7.627010 -5.753642 62.192711 162 100 107
-7.634097 -5.624797 62.250500 170 110 116
-7.641480 -5.495916 62.310703 177 118 122
-7.649147 -5.366975 62.373222 184 126 131
-7.657080 -5.237946 62.437916 195 138 143
-7.665259 -5.108802 62.504604 213 158 164
-7.673655 -4.979511 62.573067 231 177 183
-7.682236 -4.850042 62.643044 224 170 175
-7.690964 -4.720362 62.714214 197 142 146
-7.699798 -4.590438 62.786247 182 128 130
-7.708690 -4.460237 62.858749 200 148 148
-7.717590 -4.329728 62.931328 230 190 192
-7.726447 -4.198882 63.003548 248 228 230
-7.735209 -4.067676 63.075001 251 233 235
-7.743827 -3.936088 63.145275 239 202 206
-7.752252 -3.804102 63.213970 210 154 162
-7.760440 -3.671708 63.280739 176 115 124
-7.768353 -3.538901 63.345264 160 97 107
-7.775959 -3.405680 63.407280 158 92 103
-7.783230 -3.272053 63.466576 159 90 102
-7.790151 -3.138028 63.523006 161 90 102
-7.796710 -3.003620 63.576488 164 88 100
-7.802903 -2.868848 63.626995 165 85 98
-7.808736 -2.733732 63.674557 164 80 96
-7.814219 -2.598294 63.719269 165 78 95
-7.819371 -2.462559 63.761280 165 76 94
-7.824214 -2.326552 63.800770 165 75 94
-7.828776 -2.190295 63.837971 168 77 96
-7.833091 -2.053813 63.873158 172 80 98
-7.837194 -1.917128 63.906612 175 82 98
-7.841125 -1.780259 63.938663 174 80 93
-7.844924 -1.643225 63.969646 169 76 86
-7.848634 -1.506040 63.999901 164 71 79
-7.852297 -1.368716 64.029770 161 68 74
-7.855956 -1.231263 64.059601 157 68 72
-7.859651 -1.093686 64.089729 155 69 72
-7.863420 -0.955989 64.120468 153 71 73
-7.867301 -0.818170 64.152115 152 73 77
-7.871327 -0.680228 64.184944 151 75 80
-7.875526 -0.542156 64.219185 150 74 83
-7.879925 -0.403946 64.255051 152 76 86
-7.884541 -0.265589 64.292694 159 82 93
-7.889392 -0.127074 64.332245 162 80 92
-7.894488 0.011612 64.373802 153 68 80
-7.899834 0.150482 64.417397 148 60 71
-7.905430 0.289549 64.463028 149 59 69
-7.911273 0.428826 64.510666 149 60 68
-7.917352 0.568326 64.560242 149 60 68
-7.923654 0.708059 64.611626 150 61 69
-7.930161 0.848036 64.664680 150 61 69
-7.936849 0.988264 64.719231 151 62 71
-7.943694 1.128750 64.775040 152 64 72
-7.950667 1.269496 64.831902 153 66 74
-7.957733 1.410504 64.889519 156 71 78
-7.964858 1.551772 64.947617 162 78 83
-7.972007 1.693296 65.005913 165 83 85
-7.979139 1.835067 65.064072 160 79 80
-7.986217 1.977076 65.121788 151 72 72
-7.993203 2.119308 65.178749 146 66 66
-8.000061 2.261751 65.234673 142 63 63
-8.006757 2.404386 65.289268 140 61 62
-8.013260 2.547194 65.342300 138 59 61
-8.019545 2.690159 65.393547 137 58 60
-8.025593 2.833260 65.442863 135 57 59
-8.031388 2.976481 65.490128 133 56 59
-8.036925 3.119805 65.535278 130 56 59
-8.042202 3.263218 65.578300 127 54 57
-8.047226 3.406709 65.619270 123 52 54
-8.052009 3.550271 65.658272 119 50 52
-8.056569 3.693899 65.695450 116 49 51
-8.060930 3.837593 65.731018 115 48 50
-8.065118 3.981354 65.765167 114 47 50
-8.069164 4.125190 65.798157 113 47 50
-8.073097 4.269109 65.830231 112 47 50
-8.076951 4.413122 65.861649 111 47 50
-8.080752 4.557241 65.892654 110 46 49
-8.084532 4.701482 65.923470 108 44 48
-8.088314 4.845856 65.954308 105 42 45
-8.092118 4.990378 65.985336 103 41 44
-8.095965 5.135060 66.016701 101 40 42
-8.099867 5.279912 66.048515 100 39 40
-8.103832 5.424946 66.080856 100 39 39
-8.107871 5.570168 66.113785 99 38 39
-8.111987 5.715588 66.147346 98 38 39
-8.116182 5.861208 66.181557 97 37 40
-8.120459 6.007037 66.216431 96 38 40
-8.124820 6.153080 66.251991 95 38 41
-8.129268 6.299344 66.288261 95 40 42
-8.133808 6.445837 66.325287 93 40 42
-8.138448 6.592570 66.363113 91 39 40
-8.143196 6.739556 66.401833 89 38 39
-8.148064 6.886811 66.441528 87 37 38
-8.153069 7.034354 66.482338 84 37 38
-8.158224 7.182207 66.524376 83 37 38
-8.163548 7.330391 66.567787 81 36 38
-8.169058 7.478934 66.612724 80 36 37
-8.174771 7.627859 66.659302 81 36 36
-8.180700 7.777191 66.707657 81 36 37
-8.186859 7.926953 66.757874 81 36 37
-8.193253 8.077164 66.810013 82 36 37
-8.199883 8.227838 66.864082 83 35 36
-8.206748 8.378983 66.920059 83 35 35
-8.213837 8.530602 66.977859 84 34 35
-8.221132 8.682689 67.037354 86 34 34
-8.228614 8.835232 67.098358 87 35 36
-8.236254 8.988210 67.160652 88 36 36
-8.244020 9.141597 67.223976 90 38 37
-8.251875 9.295358 67.288033 90 39 38
-8.259783 9.449456 67.352516 91 41 40
-8.267705 9.603848 67.417114 90 41 40
-8.275603 9.758489 67.481522 89 41 40
-8.283441 9.913336 67.545425 87 40 40
-8.291185 10.068347 67.608582 84 39 39
-8.298810 10.223480 67.670753 81 39 38
-8.306293 10.378705 67.731766 79 38 37
-8.313615 10.533991 67.791481 78 38 36
-8.320770 10.689318 67.849823 77 38 35
-8.327753 10.844672 67.906761 76 38 35
-8.334567 11.000050 67.962326 75 38 35
-8.341221 11.155452 68.016579 74 38 35
-8.347727 11.310887 68.069633 74 38 36
-8.354099 11.466370 68.121597 73 38 36
-8.360356 11.621915 68.172623 72 37 36
-8.366516 11.777544 68.222847 70 37 37
-8.372595 11.933273 68.272415 69 37 37
-8.378607 12.089120 68.321442 68 37 38
-8.384564 12.245098 68.370018 68 37 38
-8.390472 12.401214 68.418198 67 37 37
-8.396335 12.557467 68.465996 66 37 36
-8.402146 12.713851 68.513390 64 37 36
-8.407901 12.870352 68.560310 62 36 34
-8.413585 13.026945 68.606659 60 35 33
-8.419183 13.183603 68.652306 58 34 33
-8.424673 13.340289 68.697075 56 34 32
-8.430037 13.496964 68.740814 53 33 32
-8.435249 13.653584 68.783318 50 33 31
-7.313226 -13.204997 60.701023 99 33 37
-7.314778 -13.076921 60.713909 103 37 40
-7.316225 -12.948603 60.725918 105 40 43
-7.317568 -12.820051 60.737068 106 40 44
-7.318820 -12.691293 60.747456 104 38 42
-7.320001 -12.562369 60.757259 101 35 39
-7.321142 -12.433335 60.766731 101 34 39
-7.322280 -12.304255 60.776176 103 34 40
-7.323457 -12.175198 60.785942 104 34 41
-7.324717 -12.046237 60.796406 107 35 44
-7.326107 -11.917441 60.807941 111 37 47
-7.327670 -11.788874 60.820915 115 40 50
-7.329446 -11.660590 60.835655 120 43 53
-7.331470 -11.532634 60.852459 124 47 56
-7.333770 -11.405032 60.871548 128 50 58
-7.336364 -11.277802 60.893082 132 51 59
-7.339262 -11.150940 60.917133 134 53 58
-7.342463 -11.024428 60.943695 134 53 58
-7.345954 -10.898235 60.972679 135 54 58
-7.349718 -10.772314 61.003914 136 55 59
-7.353721 -10.646606 61.037148 135 55 59
-7.357927 -10.521045 61.072052 135 54 59
-7.362290 -10.395555 61.108265 134 54 59
-7.366760 -10.270058 61.145370 133 52 58
-7.371284 -10.144475 61.182922 132 51 59
-7.375808 -10.018730 61.220470 136 54 64
-7.380279 -9.892752 61.257580 142 60 69
-7.384646 -9.766478 61.293827 148 64 75
-7.388865 -9.639853 61.328850 150 67 78
-7.392900 -9.512840 61.362335 150 66 78
-7.396719 -9.385409 61.394032 146 62 74
-7.400304 -9.257549 61.423786 141 56 68
-7.403645 -9.129260 61.451519 139 52 65
-7.406744 -9.000557 61.477238 142 54 66
-7.409612 -8.871467 61.501049 147 60 71
-7.412270 -8.742026 61.523113 151 65 75
-7.414749 -8.612283 61.543690 148 65 74
-7.417086 -8.482287 61.563080 141 61 70
-7.419321 -8.352095 61.581638 132 56 67
-7.421504 -8.221764 61.599754 125 55 67
-7.423680 -8.091347 61.617813 124 59 73
-7.425899 -7.960898 61.636227 130 68 84
-7.428205 -7.830462 61.655373 141 80 98
-7.430643 -7.700080 61.675606 160 100 119
-7.433250 -7.569784 61.697254 189 130 148
-7.436062 -7.439599 61.720589 219 168 184
-7.439106 -7.309541 61.745857 236 196 210
-7.442405 -7.179620 61.773235 232 185 199
-7.445976 -7.049839 61.802876 200 134 150
-7.449831 -6.920193 61.834869 162 86 102
-7.453978 -6.790676 61.869289 149 73 88
-7.458423 -6.661276 61.906181 154 79 92
-7.463167 -6.531980 61.945560 153 81 92
-7.468212 -6.402772 61.987438 152 83 94
-7.473557 -6.273634 62.031803 161 95 105
-7.479201 -6.144552 62.078648 175 111 122
-7.485143 -6.015506 62.127964 180 118 129
-7.491379 -5.886479 62.179729 176 115 126
-7.497908 -5.757454 62.233917 176 119 128
-7.504723 -5.628410 62.290482 183 127 135
-7.511817 -5.499326 62.349365 182 128 135
-7.519180 -5.370181 62.410480 186 133 140
-7.526798 -5.240949 62.473713 208 157 163
-7.534650 -5.111604 62.538891 231 182 189
-7.542714 -4.982118 62.605816 245 197 204
-7.550959 -4.852458 62.674248 240 192 199
-7.559349 -4.722596 62.743893 214 164 170
-7.567846 -4.592497 62.814415 184 133 137
-7.576404 -4.462131 62.885448 179 129 131
-7.584977 -4.331467 62.956604 204 161 161
-7.593515 -4.200477 63.027477 234 205 205
-7.601969 -4.069136 63.097645 242 219 220
-7.610289 -3.937423 63.166702 224 189 191
-7.618429 -3.805323 63.234264 186 139 142
-7.626346 -3.672824 63.299973 160 109 113
-7.634000 -3.539920 63.363510 167 117 123
-7.641361 -3.406611 63.424603 180 131 138
-7.648401 -3.272902 63.483040 180 126 134
-7.655104 -3.138802 63.538670 176 115 124
-7.661455 -3.004324 63.591393 174 108 118
-7.667453 -2.869488 63.641174 171 100 112
-7.673099 -2.734310 63.688034 167 90 105
-7.678403 -2.598816 63.732063 162 81 97
-7.683383 -2.463027 63.773396 158 74 92
-7.688059 -2.326969 63.812206 159 72 91
-7.692459 -2.190664 63.848724 163 75 95
-7.696614 -2.054137 63.883213 171 81 100
-7.700561 -1.917409 63.915974 176 85 102
-7.704336 -1.780500 63.947311 175 83 97
-7.707983 -1.643429 63.977577 169 76 88
-7.711541 -1.506209 64.007111 163 71 80
-7.715055 -1.368855 64.036278 160 68 75
-7.718566 -1.231375 64.065422 158 68 73
-7.722116 -1.093774 64.094887 157 70 73
-7.725744 -0.956056 64.124992 157 73 75
-7.729486 -0.818220 64.156052 156 75 78
-7.733376 -0.680264 64.188339 157 77 81
-7.737442 -0.542180 64.222092 157 78 83
-7.741711 -0.403962 64.257530 156 77 83
-7.746201 -0.265598 64.294792 158 77 84
-7.750929 -0.127078 64.334038 157 74 82
-7.755902 0.011612 64.375313 153 66 75
-7.761127 0.150485 64.418678 148 60 69
-7.766602 0.289554 64.464127 148 58 68
-7.772321 0.428833 64.511597 147 58 68
-7.778275 0.568333 64.561012 148 58 68
-7.784449 0.708066 64.612251 148 58 69
-7.790822 0.848042 64.665154 149 59 70
-7.797372 0.988269 64.719521 150 61 72
-7.804071 1.128751 64.775131 152 62 73
-7.810892 1.269493 64.831741 153 65 75
-7.817799 1.410495 64.889069 154 68 77
-7.824759 1.551754 64.946838 158 74 80
-7.831734 1.693265 65.004738 161 78 82
-7.838688 1.835021 65.062447 157 76 77
-7.845582 1.977012 65.119675 149 69 70
-7.852380 2.119222 65.176102 144 65 65
-7.859047 2.261639 65.231438 141 62 62
-7.865551 2.404243 65.285416 139 61 61
-7.871862 2.547019 65.337807 138 60 60
-7.877957 2.689946 65.388397 136 58 59
-7.883818 2.833008 65.437035 133 56 58
-7.889432 2.976186 65.483635 132 55 58
-7.894793 3.119465 65.528137 130 54 58
-7.899901 3.262831 65.570534 127 53 56
-7.904764 3.406275 65.610893 124 51 54
-7.909394 3.549788 65.649323 121 50 52
-7.913811 3.693367 65.685982 118 48 50
-7.918036 3.837011 65.721054 117 48 50
-7.922097 3.980724 65.754761 116 47 51
-7.926023 4.124512 65.787346 115 47 51
-7.929843 4.268384 65.819054 114 46 51
-7.933588 4.412350 65.850136 113 46 51
-7.937285 4.556423 65.880829 112 46 50
-7.940962 4.700617 65.911346 110 44 48
-7.944643 4.844944 65.941895 107 42 46
-7.948346 4.989417 65.972633 105 40 44
-7.952089 5.134048 66.003700 103 39 42
-7.955882 5.278847 66.035187 102 39 40
-7.959735 5.423822 66.067169 101 39 40
-7.963655 5.568981 66.099693 100 38 39
-7.967641 5.714329 66.132790 98 38 39
-7.971699 5.859872 66.166466 97 37 40
-7.975827 6.005613 66.200729 96 37 40
-7.980027 6.151557 66.235588 95 38 41
-7.984301 6.297710 66.271065 95 40 42
-7.988654 6.444079 66.307198 94 40 41
-7.993092 6.590675 66.344032 91 38 40
-7.997624 6.737508 66.381653 88 37 38
-8.002263 6.884595 66.420151 86 36 37
-8.007023 7.031955 66.459656 84 36 38
-8.011920 7.179608 66.500305 83 36 38
-8.016973 7.327579 66.542252 81 36 38
-8.022202 7.475894 66.585648 81 36 37
-8.027622 7.624578 66.630638 80 36 37
-8.033252 7.773660 66.677368 80 36 37
-8.039104 7.923161 66.725937 81 36 38
-8.045187 8.073104 66.776428 82 36 37
-8.051507 8.223506 66.828888 83 36 36
-8.058062 8.374379 66.883286 84 35 36
-8.064843 8.525725 66.939575 85 34 35
-8.071837 8.677545 66.997635 87 34 35
-8.079026 8.829825 67.057304 88 35 36
-8.086385 8.982552 67.118378 89 36 36
-8.093880 9.135697 67.180588 90 37 37
-8.101480 9.289230 67.243675 90 39 38
-8.109149 9.443115 67.307327 91 40 39
-8.116848 9.597311 67.371231 91 41 40
-8.124541 9.751774 67.435081 90 41 41
-8.132193 9.906463 67.498596 87 41 41
-8.139771 10.061334 67.561493 85 40 40
-8.147247 10.216349 67.623543 82 40 39
-8.154600 10.371474 67.684578 80 39 38
-8.161814 10.526682 67.744446 78 39 37
-8.168878 10.681953 67.803078 76 39 36
-8.175788 10.837275 67.860435 75 38 36
-8.182548 10.992640 67.916542 75 38 35
-8.189164 11.148052 67.971466 74 38 35
-8.195650 11.303521 68.025299 74 38 36
-8.202021 11.459061 68.078171 73 38 36
-8.208290 11.614686 68.130211 72 37 36
-8.214478 11.770419 68.181580 71 37 36
-8.220600 11.926277 68.232391 70 37 36
-8.226669 12.082276 68.282761 68 36 36
-8.232696 12.238429 68.332779 67 36 36
-8.238685 12.394742 68.382492 66 36 37
-8.244637 12.551213 68.431900 65 36 36
-8.250549 12.707835 68.480972 63 36 35
-8.256410 12.864589 68.529617 61 35 33
-8.262205 13.021450 68.577721 58 34 32
-8.267918 13.178385 68.625130 57 34 32
-8.273524 13.335355 68.671669 56 34 33
-8.279002 13.492314 68.717133 53 34 33
-8.284326 13.649217 68.761322 50 33 32
-7.188451 -13.085206 60.752377 103 36 40
-7.189996 -12.957029 60.765438 105 40 43
-7.191427 -12.828592 60.777531 106 40 43
-7.192757 -12.699924 60.788765 103 37 41
-7.194005 -12.571066 60.799320 101 35 38
-7.195204 -12.442076 60.809452 101 34 38
-7.196389 -12.313019 60.819469 103 34 40
-7.197604 -12.183969 60.829731 104 35 41
-7.198892 -12.054997 60.840618 107 35 43
-7.200300 -11.926177 60.852516 111 37 47
-7.201871 -11.797574 60.865799 115 40 50
-7.203648 -11.669246 60.880810 119 43 53
-7.205663 -11.541235 60.897842 124 45 55
-7.207945 -11.413573 60.917130 127 48 57
-7.210513 -11.286276 60.938831 132 50 58
-7.213377 -11.159343 60.963036 133 52 58
-7.216535 -11.032756 60.989727 135 52 58
-7.219977 -10.906482 61.018818 136 54 58
-7.223683 -10.780477 61.050140 137 55 59
-7.227624 -10.654682 61.083447 137 55 59
-7.231761 -10.529030 61.118404 136 55 59
-7.236049 -10.403444 61.154644 135 54 59
-7.240440 -10.277849 61.191757 133 52 58
-7.244881 -10.152164 61.229290 131 50 57
-7.249320 -10.026312 61.266804 135 53 62
-7.253703 -9.900224 61.303844 142 60 69
-7.257982 -9.773836 61.340008 147 64 74
-7.262114 -9.647097 61.374931 148 65 75
-7.266062 -9.519965 61.408298 145 63 73
-7.269798 -9.392417 61.439873 143 60 70
-7.273304 -9.264439 61.469501 139 55 65
-7.276571 -9.136034 61.497116 137 53 62
-7.279602 -9.007216 61.522732 141 55 64
-7.282409 -8.878016 61.546452 148 61 71
-7.285013 -8.748470 61.568462 154 68 78
-7.287446 -8.618627 61.589020 154 71 80
-7.289743 -8.488537 61.608437 146 67 76
-7.291947 -8.358256 61.627068 136 61 72
-7.294104 -8.227841 61.645290 128 59 72
-7.296260 -8.097347 61.663513 128 63 79
-7.298461 -7.966825 61.682117 134 73 91
-7.300753 -7.836318 61.701481 146 87 106
-7.303175 -7.705867 61.721954 167 108 128
-7.305765 -7.575500 61.743843 199 140 160
-7.308552 -7.445241 61.767403 226 174 190
-7.311564 -7.315104 61.792850 230 185 200
-7.314819 -7.185097 61.820362 211 159 176
-7.318332 -7.055221 61.850056 179 111 129
-7.322114 -6.925469 61.882011 149 74 91
-7.326169 -6.795835 61.916290 141 67 82
-7.330502 -6.666304 61.952904 145 72 86
-7.335112 -6.536863 61.991867 146 76 89
-7.340000 -6.407496 62.033173 148 81 93
-7.345164 -6.278187 62.076817 161 97 109
-7.350603 -6.148921 62.122787 185 123 136
-7.356317 -6.019680 62.171074 196 136 149
-7.362303 -5.890450 62.221668 190 132 145
-7.368561 -5.761214 62.274555 188 132 143
-7.375085 -5.631953 62.329700 191 137 147
-7.381873 -5.502651 62.387062 188 137 146
-7.388915 -5.373286 62.446571 193 144 153
-7.396199 -5.243837 62.508133 216 169 178
-7.403709 -5.114278 62.571606 236 192 201
-7.411424 -4.984583 62.636806 245 202 211
-7.419317 -4.854724 62.703510 243 200 209
-7.427356 -4.724670 62.771454 224 178 185
-7.435503 -4.594391 62.840313 194 146 151
-7.443718 -4.463855 62.909744 171 124 127
-7.451956 -4.333032 62.979359 173 127 129
-7.460168 -4.201896 63.048767 194 153 153
-7.468308 -4.070420 63.117561 202 165 165
-7.476328 -3.938585 63.185341 183 143 144
-7.484182 -3.806373 63.251713 160 120 120
-7.491827 -3.673773 63.316326 169 131 132
-7.499227 -3.540777 63.378860 200 169 171
-7.506347 -3.407386 63.439037 219 194 196
-7.513162 -3.273602 63.496635 217 185 190
-7.519653 -3.139435 63.551491 212 168 175
-7.525806 -3.004896 63.603497 211 161 168
-7.531617 -2.870003 63.652607 207 153 161
-7.537087 -2.734774 63.698833 196 135 146
-7.542224 -2.599231 63.742249 179 110 124
-7.547043 -2.463397 63.782974 162 86 102
-7.551564 -2.327296 63.821190 152 72 90
-7.555814 -2.190952 63.857105 154 71 90
-7.559823 -2.054387 63.890987 164 78 97
-7.563625 -1.917623 63.923119 172 84 102
-7.567259 -1.780681 63.953831 174 84 100
-7.570765 -1.643580 63.983459 169 78 93
-7.574183 -1.506333 64.012352 164 72 84
-7.577559 -1.368954 64.040878 161 70 79
-7.580933 -1.231451 64.069397 160 69 76
-7.584347 -1.093832 64.098251 160 71 77
-7.587842 -0.956098 64.127777 160 73 78
-7.591452 -0.818249 64.158295 161 76 80
-7.595212 -0.680282 64.190079 163 79 83
-7.599153 -0.542191 64.223373 164 80 85
-7.603296 -0.403967 64.258400 162 79 84
-7.607664 -0.265600 64.295303 162 78 83
-7.612269 -0.127078 64.334229 159 74 79
-7.617121 0.011612 64.375237 153 66 73
-7.622224 0.150484 64.418365 148 59 67
-7.627576 0.289552 64.463600 146 56 66
-7.633171 0.428828 64.510872 146 56 66
-7.638997 0.568325 64.560112 146 56 67
-7.645037 0.708054 64.611160 147 57 68
-7.651272 0.848025 64.663857 148 58 70
-7.657677 0.988245 64.717995 149 59 71
-7.664227 1.128720 64.773338 151 61 73
-7.670889 1.269452 64.829651 151 63 74
-7.677631 1.410442 64.886635 152 66 75
-7.684420 1.551686 64.944000 154 70 76
-7.691217 1.693180 65.001450 155 72 77
-7.697987 1.834915 65.058662 152 71 73
-7.704693 1.976880 65.115341 146 67 68
-7.711300 2.119062 65.171181 143 63 64
-7.717773 2.261446 65.225883 140 61 61
-7.724084 2.404015 65.279221 138 60 61
-7.730203 2.546751 65.330933 138 60 61
-7.736109 2.689636 65.380852 136 58 60
-7.741785 2.832652 65.428818 134 55 58
-7.747221 2.975782 65.474754 133 54 59
-7.752409 3.119011 65.518608 131 54 59
-7.757354 3.262327 65.560402 129 53 57
-7.762063 3.405719 65.600189 126 52 55
-7.766548 3.549181 65.638100 123 50 53
-7.770828 3.692708 65.674271 120 49 52
-7.774926 3.836302 65.708908 119 47 51
-7.778869 3.979965 65.742226 119 47 51
-7.782683 4.123704 65.774467 117 47 51
-7.786399 4.267529 65.805870 116 46 51
-7.790044 4.411448 65.836678 115 46 51
-7.793646 4.555475 65.867119 114 45 50
-7.797231 4.699623 65.897415 112 44 48
-7.800819 4.843904 65.927742 108 41 45
-7.804430 4.988329 65.958252 106 40 43
-7.808076 5.132911 65.989075 104 39 41
-7.811770 5.277656 66.020287 103 38 40
-7.815518 5.422574 66.051964 101 38 40
-7.819324 5.567670 66.084129 99 38 39
-7.823190 5.712948 66.116798 97 37 39
-7.827116 5.858412 66.149979 96 37 39
-7.831102 6.004065 66.183670 96 37 39
-7.835148 6.149910 66.217865 95 38 40
-7.839255 6.295953 66.252579 95 40 41
-7.843428 6.442198 66.287842 95 40 41
-7.847671 6.588655 66.323700 92 38 39
-7.851995 6.735336 66.360245 88 35 37
-7.856411 6.882254 66.397568 86 35 36
-7.860934 7.029430 66.435799 84 34 37
-7.865583 7.176885 66.475082 83 35 37
-7.870374 7.324642 66.515579 82 35 37
-7.875330 7.472730 66.557457 81 35 37
-7.880469 7.621175 66.600891 80 35 37
-7.885810 7.770006 66.646027 80 35 38
-7.891367 7.919249 66.692993 81 36 39
-7.897152 8.068928 66.741882 83 36 39
-7.903172 8.219061 66.792763 84 36 38
-7.909428 8.369664 66.845634 85 35 37
-7.915915 8.520743 66.900459 87 35 37
-7.922621 8.672298 66.957130 88 34 36
-7.929530 8.824324 67.015518 89 35 37
-7.936617 8.976804 67.075424 90 36 37
-7.943856 9.129715 67.136597 91 37 38
-7.951213 9.283028 67.198776 91 38 39
-7.958654 9.436708 67.261665 91 40 40
-7.966142 9.590717 67.324951 91 41 40
-7.973642 9.745014 67.388336 90 41 41
-7.981120 9.899555 67.451530 87 41 41
-7.988542 10.054298 67.514252 85 41 41
-7.995881 10.209208 67.576286 83 40 40
-8.003117 10.364249 67.637428 80 40 39
-8.010231 10.519396 67.697556 78 40 38
-8.017214 10.674627 67.756577 76 39 37
-8.024061 10.829929 67.814445 74 38 36
-8.030776 10.985299 67.871193 74 37 36
-8.037364 11.140738 67.926872 74 37 36
-8.043837 11.296255 67.981575 73 37 35
-8.050208 11.451865 68.035423 72 37 35
-8.056495 11.607584 68.088554 71 37 35
-8.062713 11.763432 68.141106 71 36 35
-8.068876 11.919426 68.193199 70 36 35
-8.075000 12.075583 68.244942 68 35 35
-8.081089 12.231915 68.296410 66 36 35
-8.087152 12.388426 68.347641 64 36 35
-8.093184 12.545113 68.398636 63 35 35
-8.099184 12.701964 68.449333 62 35 34
-8.105138 12.858964 68.499649 60 34 33
-8.111029 13.016080 68.549438 57 34 33
-8.116838 13.173278 68.598534 57 34 33
-8.122541 13.330513 68.646736 55 34 33
-8.128114 13.487740 68.693832 53 34 33
-7.062321 -13.094165 60.793972 104 37 41
-7.063963 -12.966126 60.808102 106 40 43
-7.065480 -12.837801 60.821159 105 39 42
-7.066884 -12.709216 60.833248 103 37 40
-7.068197 -12.580418 60.844551 102 35 38
-7.069449 -12.451463 60.855328 102 35 38
-7.070678 -12.322420 60.865906 103 35 39
-7.071925 -12.193364 60.876644 105 35 40
-7.073236 -12.064371 60.887928 107 36 42
-7.074656 -11.935513 60.900154 110 38 46
-7.076231 -11.806862 60.913715 114 40 49
-7.078001 -11.678473 60.928947 119 43 52
-7.080000 -11.550391 60.946156 123 45 54
-7.082257 -11.422651 60.965584 127 47 56
-7.084790 -11.295269 60.987392 132 49 58
-7.087611 -11.168244 61.011669 134 51 58
-7.090717 -11.041561 61.038406 136 52 58
-7.094099 -10.915187 61.067520 137 54 59
-7.097737 -10.789076 61.098839 138 55 60
-7.101602 -10.663171 61.132107 138 56 60
-7.105657 -10.537403 61.167011 137 55 60
-7.109857 -10.411698 61.203167 136 55 59
-7.114155 -10.285980 61.240170 133 53 58
-7.118499 -10.160168 61.277565 131 51 58
-7.122838 -10.034185 61.314911 134 54 62
-7.127120 -9.907964 61.351772 142 61 69
-7.131298 -9.781440 61.387733 147 66 74
-7.135328 -9.654563 61.422432 145 64 73
-7.139178 -9.527295 61.455574 142 61 70
-7.142820 -9.399610 61.486923 140 59 68
-7.146236 -9.271497 61.516331 138 56 65
-7.149420 -9.142960 61.543736 137 55 63
-7.152374 -9.014015 61.569168 140 57 65
-7.155113 -8.884693 61.592739 147 63 71
-7.157658 -8.755033 61.614647 154 70 79
-7.160038 -8.625080 61.635143 156 74 84
-7.162292 -8.494889 61.654549 150 72 82
-7.164462 -8.364515 61.673218 141 68 80
-7.166590 -8.234015 61.691540 135 65 80
-7.168723 -8.103439 61.709900 133 68 85
-7.170905 -7.972839 61.728683 140 78 98
-7.173179 -7.842259 61.748257 153 93 113
-7.175583 -7.711734 61.768951 175 114 136
-7.178151 -7.581293 61.791054 205 143 164
-7.180910 -7.450955 61.814808 221 159 180
-7.183884 -7.320734 61.840408 206 144 164
-7.187089 -7.190634 61.868004 176 110 130
-7.190538 -7.060654 61.897690 152 80 99
-7.194238 -6.930788 61.929535 139 65 82
-7.198191 -6.801024 61.963570 137 64 79
-7.202400 -6.671350 61.999802 138 68 81
-7.206863 -6.541750 62.038223 140 72 84
-7.211580 -6.412211 62.078827 146 80 91
-7.216549 -6.282716 62.121601 166 103 115
-7.221769 -6.153250 62.166531 201 139 154
-7.227239 -6.023799 62.213615 217 157 172
-7.232958 -5.894349 62.262856 202 143 158
-7.238928 -5.764885 62.314240 183 125 139
-7.245146 -5.635393 62.367764 177 122 135
-7.251609 -5.505856 62.423401 181 127 140
-7.258312 -5.376257 62.481102 192 140 154
-7.265247 -5.246577 62.540798 207 158 172
-7.272400 -5.116793 62.602371 220 172 186
-7.279752 -4.986880 62.665661 228 183 196
-7.287280 -4.856811 62.730469 230 186 199
-7.294956 -4.726559 62.796543 223 178 189
-7.302745 -4.596093 62.863586 211 166 175
-7.310607 -4.465382 62.931271 192 148 154
-7.318502 -4.334399 62.999229 165 122 126
-7.326384 -4.203116 63.067078 151 109 112
-7.334206 -4.071507 63.134415 146 107 109
-7.341923 -3.939552 63.200848 134 98 99
-7.349491 -3.807232 63.265991 149 120 120
-7.356867 -3.674536 63.329487 200 179 179
-7.364014 -3.541456 63.391010 237 224 225
-7.370900 -3.407990 63.450283 247 238 240
-7.377497 -3.274140 63.507069 245 233 236
-7.383784 -3.139914 63.561192 243 223 227
-7.389749 -3.005324 63.612537 244 220 224
-7.395384 -2.870384 63.661045 243 216 221
-7.400689 -2.735112 63.706715 234 202 208
-7.405671 -2.599531 63.749599 215 171 180
-7.410343 -2.463662 63.789822 187 129 141
-7.414724 -2.327528 63.827534 161 92 108
-7.418839 -2.191152 63.862949 151 76 94
-7.422715 -2.054558 63.896320 156 78 97
-7.426388 -1.917768 63.927937 165 84 103
-7.429894 -1.780801 63.958118 169 84 103
-7.433273 -1.643676 63.987202 168 80 98
-7.436566 -1.506408 64.015549 165 76 91
-7.439816 -1.369010 64.043533 164 74 87
-7.443065 -1.231492 64.071495 162 72 83
-7.446355 -1.093858 64.099823 161 71 81
-7.449727 -0.956113 64.128838 161 72 81
-7.453215 -0.818256 64.158867 163 75 83
-7.456854 -0.680283 64.190201 165 78 85
-7.460674 -0.542188 64.223076 166 79 86
-7.464698 -0.403963 64.257721 166 78 85
-7.468947 -0.265596 64.294296 166 78 84
-7.473433 -0.127075 64.332909 164 76 81
-7.478166 0.011612 64.373650 156 67 74
-7.483148 0.150480 64.416542 148 58 66
-7.488376 0.289543 64.461540 145 55 64
-7.493844 0.428813 64.508606 145 54 65
-7.499537 0.568303 64.557625 145 54 66
-7.505441 0.708025 64.608444 146 56 68
-7.511534 0.847986 64.660896 148 58 70
-7.517791 0.988196 64.714752 149 59 71
-7.524184 1.128658 64.769783 150 61 73
-7.530684 1.269375 64.825737 151 63 73
-7.537256 1.410348 64.882317 151 64 74
-7.543868 1.551572 64.939224 151 66 74
-7.550483 1.693042 64.996170 150 67 73
-7.557065 1.834750 65.052834 146 65 70
-7.563581 1.976685 65.108925 142 62 66
-7.569994 2.118833 65.164131 139 60 63
-7.576274 2.261179 65.218193 137 59 61
-7.582391 2.403707 65.270851 137 59 61
-7.588320 2.546398 65.321877 137 58 61
-7.594039 2.689236 65.371117 136 56 60
-7.599535 2.832202 65.418419 135 55 59
-7.604796 2.975280 65.463715 135 54 59
-7.609820 3.118457 65.506958 133 54 60
-7.614608 3.261719 65.548180 132 53 59
-7.619170 3.405057 65.587440 129 52 57
-7.623518 3.548465 65.624870 126 51 55
-7.627670 3.691941 65.660622 123 49 53
-7.631651 3.835483 65.694885 121 47 52
-7.635485 3.979097 65.727882 120 46 51
-7.639197 4.122788 65.759850 118 46 51
-7.642818 4.266565 65.791016 117 45 51
-7.646375 4.410440 65.821625 116 45 50
-7.649891 4.554422 65.851898 114 44 49
-7.653391 4.698526 65.882034 111 42 47
-7.656896 4.842762 65.912201 108 41 44
-7.660422 4.987142 65.942551 106 40 41
-7.663981 5.131675 65.973183 104 39 40
-7.667582 5.276369 66.004189 102 38 40
-7.671231 5.421230 66.035599 100 38 39
-7.674931 5.566264 66.067444 98 37 38
-7.678681 5.711473 66.099731 97 37 38
-7.682482 5.856860 66.132454 96 37 38
-7.686331 6.002425 66.165588 96 37 39
-7.690229 6.148171 66.199135 95 38 39
-7.694175 6.294103 66.233109 95 39 39
-7.698173 6.440223 66.267517 95 39 40
-7.702228 6.586541 66.302429 93 38 39
-7.706350 6.733068 66.337906 89 35 37
-7.710550 6.879818 66.374062 86 35 36
-7.714845 7.026811 66.411041 85 34 36
-7.719252 7.174066 66.448975 83 34 36
-7.723791 7.321610 66.488045 81 34 36
-7.728484 7.469472 66.528442 80 34 36
-7.733351 7.617679 66.570343 80 34 37
-7.738413 7.766262 66.613914 80 34 38
-7.743686 7.915249 66.659302 81 36 39
-7.749184 8.064666 66.706627 83 36 40
-7.754916 8.214535 66.755974 85 36 40
-7.760884 8.364871 66.807350 86 35 38
-7.767088 8.515687 66.860756 87 34 38
-7.773518 8.666985 66.916100 88 34 37
-7.780158 8.818760 66.973259 90 35 38
-7.786987 8.970999 67.032051 91 36 38
-7.793979 9.123683 67.092239 91 37 39
-7.801105 9.276784 67.153580 91 38 40
-7.808329 9.430269 67.215759 91 39 41
-7.815618 9.584102 67.278503 90 40 41
-7.822936 9.738241 67.341499 89 41 42
-7.830249 9.892647 67.404457 87 42 42
-7.837526 10.047276 67.467102 85 42 42
-7.844740 10.202094 67.529198 83 41 42
-7.851868 10.357067 67.590553 81 41 41
-7.858893 10.512167 67.651031 78 40 39
-7.865805 10.667374 67.710533 76 39 38
-7.872600 10.822675 67.769020 75 38 37
-7.879276 10.978065 67.826500 74 38 37
-7.885843 11.133547 67.883026 73 37 37
-7.892308 11.289128 67.938683 73 36 36
-7.898687 11.444823 67.993591 72 36 36
-7.904993 11.600648 68.047867 72 36 36
-7.911241 11.756622 68.101654 71 36 35
-7.917447 11.912763 68.155075 69 35 35
-7.923620 12.069085 68.208214 67 35 34
-7.929769 12.225599 68.261147 66 35 34
-7.935896 12.382308 68.313896 64 35 34
-7.942001 12.539209 68.366447 62 35 34
-7.948077 12.696289 68.418747 60 35 34
-7.954109 12.853524 68.470673 59 34 33
-7.960081 13.010885 68.522079 57 34 33
-7.965971 13.168331 68.572777 56 34 33
-7.971753 13.325817 68.622559 54 34 33
-7.977401 13.483291 68.671173 52 33 32
-6.936380 -13.103818 60.838791 107 39 43
-6.938115 -12.975916 60.854012 108 41 44
-6.939715 -12.847697 60.868042 106 40 43
-6.941190 -12.719190 60.880981 104 37 40
-6.942563 -12.590440 60.893024 102 35 38
-6.943864 -12.461511 60.904438 102 35 38
-6.945131 -12.332471 60.915550 103 35 39
-6.946406 -12.203397 60.926727 105 35 40
-6.947733 -12.074366 60.938370 108 37 43
-6.949161 -11.945457 60.950890 111 39 46
-6.950731 -11.816738 60.964668 116 42 49
-6.952487 -11.688270 60.980064 120 44 52
-6.954462 -11.560101 60.997387 123 45 54
-6.956684 -11.432262 61.016880 127 46 55
-6.959174 -11.304775 61.038715 131 48 57
-6.961940 -11.177637 61.062981 135 50 57
-6.964983 -11.050836 61.089672 138 52 58
-6.968294 -10.924335 61.118706 139 55 60
-6.971852 -10.798095 61.149914 141 57 61
-6.975628 -10.672054 61.183037 141 58 62
-6.979587 -10.546145 61.217758 141 58 62
-6.983686 -10.420297 61.253712 139 57 61
-6.987876 -10.294428 61.290466 136 54 59
-6.992110 -10.168463 61.327599 132 51 58
-6.996334 -10.042325 61.364647 133 53 61
-7.000500 -9.915944 61.401188 140 60 68
-7.004562 -9.789260 61.436813 143 64 72
-7.008479 -9.662224 61.471169 141 62 71
-7.012218 -9.534796 61.503960 138 59 68
-7.015752 -9.406953 61.534962 137 59 67
-7.019067 -9.278687 61.564041 138 59 66
-7.022158 -9.150002 61.591145 139 59 67
-7.025026 -9.020917 61.616306 141 61 69
-7.027689 -8.891460 61.639656 146 66 74
-7.030166 -8.761674 61.661385 151 71 81
-7.032489 -8.631605 61.681767 155 75 87
-7.034695 -8.501306 61.701111 153 76 89
-7.036824 -8.370831 61.719788 148 75 90
-7.038920 -8.240238 61.738171 144 75 91
-7.041027 -8.109577 61.756645 142 76 95
-7.043186 -7.978898 61.775589 147 84 105
-7.045439 -7.848239 61.795345 159 97 120
-7.047820 -7.717637 61.816231 181 119 142
-7.050362 -7.587117 61.838520 208 144 168
-7.053088 -7.456696 61.862431 214 148 172
-7.056018 -7.326385 61.888138 187 118 141
-7.059168 -7.196185 61.915760 154 83 104
-7.062545 -7.066094 61.945381 137 65 84
-7.066154 -6.936103 61.977032 133 61 76
-7.069995 -6.806201 62.010731 133 62 75
-7.074070 -6.676372 62.046471 135 66 78
-7.078375 -6.546602 62.084229 140 74 83
-7.082910 -6.416877 62.123997 151 88 97
-7.087669 -6.287181 62.165749 176 114 126
-7.092655 -6.157501 62.209476 211 151 167
-7.097866 -6.027824 62.255184 231 172 190
-7.103304 -5.898139 62.302883 215 155 173
-7.108971 -5.768433 62.352585 183 123 141
-7.114867 -5.638693 62.404293 165 106 123
-7.120991 -5.508909 62.458012 165 107 124
-7.127342 -5.379064 62.513718 175 119 136
-7.133914 -5.249140 62.571354 185 131 148
-7.140696 -5.119120 62.630836 190 139 156
-7.147673 -4.988979 62.692039 193 144 160
-7.154826 -4.858693 62.754776 194 147 163
-7.162128 -4.728236 62.818825 197 151 165
-7.169549 -4.597579 62.883915 211 168 179
-7.177052 -4.466692 62.949726 217 179 188
-7.184599 -4.335547 63.015915 193 161 167
-7.192146 -4.204117 63.082104 162 132 136
-7.199649 -4.072378 63.147915 141 109 113
-7.207063 -3.940306 63.212944 124 92 95
-7.214346 -3.807884 63.276821 153 129 131
-7.221456 -3.675099 63.339184 219 209 210
-7.228355 -3.541942 63.399700 252 249 250
-7.235012 -3.408409 63.458084 252 248 251
-7.241397 -3.274502 63.514088 245 238 243
-7.247491 -3.140228 63.567535 242 232 237
-7.253277 -3.005595 63.618286 247 239 242
-7.258748 -2.870619 63.666275 252 246 248
-7.263902 -2.735317 63.711475 252 244 245
-7.268742 -2.599708 63.753933 243 226 229
-7.273282 -2.463814 63.793751 223 191 197
-7.277538 -2.327657 63.831081 194 146 158
-7.281532 -2.191261 63.866112 173 116 132
-7.285293 -2.054647 63.899097 171 108 126
-7.288852 -1.917839 63.930317 174 105 124
-7.292246 -1.780856 63.960083 171 93 114
-7.295514 -1.643715 63.988743 165 82 103
-7.298696 -1.506434 64.016655 164 78 97
-7.301836 -1.369024 64.044189 165 78 96
-7.304974 -1.231496 64.071716 164 76 92
-7.308153 -1.093855 64.099609 161 72 87
-7.311413 -0.956104 64.128197 159 71 85
-7.314789 -0.818243 64.157814 160 72 85
-7.318317 -0.680268 64.188751 162 74 85
-7.322025 -0.542173 64.221275 164 75 85
-7.325936 -0.403949 64.255577 165 76 85
-7.330070 -0.265586 64.291840 167 78 86
-7.334442 -0.127070 64.330177 168 78 85
-7.339057 0.011611 64.370659 160 70 77
-7.343919 0.150473 64.413300 150 60 68
-7.349023 0.289527 64.458069 146 56 65
-7.354362 0.428788 64.504898 145 54 65
-7.359921 0.568268 64.553665 144 54 65
-7.365686 0.707978 64.604225 146 56 68
-7.371632 0.847927 64.656380 149 59 71
-7.377736 0.988122 64.709908 150 62 73
-7.383969 1.128567 64.764580 151 63 74
-7.390301 1.269266 64.820122 151 64 74
-7.396699 1.410216 64.876236 150 64 73
-7.403131 1.551415 64.932655 149 64 72
-7.409561 1.692857 64.989044 146 63 70
-7.415954 1.834533 65.045120 142 60 66
-7.422277 1.976432 65.100578 138 58 63
-7.428497 2.118541 65.155136 136 57 61
-7.434584 2.260844 65.208519 135 56 60
-7.440509 2.403326 65.260498 135 56 59
-7.446251 2.545969 65.310852 135 56 59
-7.451788 2.688755 65.359421 135 55 59
-7.457108 2.831668 65.406090 136 54 59
-7.462203 2.974692 65.450768 136 54 59
-7.467069 3.117814 65.493446 135 54 60
-7.471709 3.261021 65.534149 134 54 60
-7.476132 3.404304 65.572945 133 53 59
-7.480353 3.547659 65.609962 130 51 57
-7.484388 3.691082 65.645355 126 49 54
-7.488261 3.834575 65.679329 123 46 52
-7.491996 3.978140 65.712082 120 46 51
-7.495618 4.121785 65.743851 119 45 50
-7.499154 4.265518 65.774872 117 44 50
-7.502631 4.409350 65.805359 115 44 49
