ply
format ascii 1.0
element vertex 1227
property float x
property float y
property float z
property uchar red
property uchar green
property uchar blue
end_header
-4.259446 13.692432 66.107407 65 46 47
-4.257259 13.827836 66.073471 64 45 46
-4.254995 13.962837 66.038330 63 44 45
-4.252645 14.097404 66.001862 61 42 43
-4.250203 14.231503 65.963951 59 40 40
-4.247666 14.365122 65.924583 59 40 40
-4.245037 14.498252 65.883774 58 40 40
-4.242317 14.630897 65.841568 58 40 40
-4.239515 14.763070 65.798073 59 39 41
-4.236639 14.894797 65.753441 59 40 42
-4.233701 15.026112 65.707840 59 40 43
-4.230714 15.157054 65.661476 59 40 43
-4.227693 15.287676 65.614601 59 40 43
-4.224654 15.418025 65.567421 59 40 43
-4.221610 15.548156 65.520180 57 39 42
-4.218575 15.678119 65.473091 56 39 41
-4.215562 15.807955 65.426315 55 38 39
-4.212577 15.937700 65.379990 54 37 39
-4.209626 16.067375 65.334198 53 37 39
-4.206710 16.196983 65.288933 53 37 39
-4.203823 16.326511 65.244118 53 37 40
-4.200954 16.455921 65.199608 54 37 40
-4.198090 16.585154 65.155151 54 37 40
-4.195209 16.714125 65.110428 54 37 40
-4.192284 16.842731 65.065033 54 37 41
-4.189287 16.970850 65.018524 54 37 41
-4.186186 17.098341 64.970398 53 37 41
-4.182948 17.225061 64.920135 53 37 41
-4.179539 17.350859 64.867241 53 37 41
-4.175932 17.475594 64.811256 53 36 40
-4.172101 17.599146 64.751801 53 36 38
-4.168029 17.721413 64.688591 54 36 37
-4.163706 17.842335 64.621498 53 36 36
-4.159133 17.961889 64.550529 54 36 36
-4.154324 18.080107 64.475891 54 36 36
-4.149301 18.197069 64.397942 54 36 37
-4.144101 18.312908 64.317223 53 36 37
-4.138767 18.427807 64.234444 53 36 37
-4.133354 18.541992 64.150436 52 37 37
-4.127922 18.655729 64.066124 54 39 39
-4.122533 18.769300 63.982494 55 40 41
-4.117252 18.883005 63.900536 54 41 41
-4.112141 18.997139 63.821201 55 41 41
-4.107255 19.111979 63.745365 55 41 41
-4.102642 19.227772 63.673771 54 39 39
-4.098341 19.344728 63.607014 52 37 37
-4.094378 19.463009 63.545517 52 37 36
-4.090768 19.582712 63.489494 52 38 37
-3.767158 -8.595343 60.490803 122 64 75
-3.770990 -8.473555 60.552334 121 64 74
-3.774964 -8.351817 60.616150 121 64 73
-3.779076 -8.230103 60.682171 121 65 72
-3.783317 -8.108383 60.750278 122 66 72
-3.787680 -7.986626 60.820335 122 67 72
-3.792155 -7.864798 60.892189 122 68 71
-3.796732 -7.742870 60.965687 122 68 70
-3.801402 -7.620809 61.040665 120 66 68
-3.806154 -7.498589 61.116978 119 65 67
-3.810981 -7.376184 61.194489 120 65 68
-3.815877 -7.253576 61.273102 121 65 69
-3.820835 -7.130745 61.352718 122 65 69
-3.825853 -7.007681 61.433292 122 64 69
-3.830929 -6.884373 61.514797 122 64 68
-3.836062 -6.760815 61.597229 122 64 67
-3.841255 -6.637004 61.680611 122 64 66
-3.846510 -6.512939 61.764988 122 64 65
-3.851829 -6.388616 61.850395 122 64 64
-3.857216 -6.264036 61.936897 122 64 64
-3.862674 -6.139195 62.024532 121 63 64
-3.868205 -6.014091 62.113354 120 62 63
-3.873811 -5.888718 62.203369 118 61 63
-3.879492 -5.763068 62.294601 117 61 63
-3.885248 -5.637133 62.387024 116 61 63
-3.891076 -5.510901 62.480598 115 62 63
-3.896971 -5.384360 62.575264 116 63 63
-3.902929 -5.257494 62.670940 117 64 64
-3.908944 -5.130291 62.767517 117 64 65
-3.915008 -5.002734 62.864887 117 64 65
-3.921113 -4.874809 62.962929 119 66 68
-3.927253 -4.746502 63.061512 120 67 70
-3.933418 -4.617801 63.160515 119 65 69
-3.939602 -4.488695 63.259811 117 62 69
-3.945798 -4.359172 63.359295 117 61 69
-3.951998 -4.229227 63.458862 117 61 69
-3.958199 -4.098851 63.558426 116 61 68
-3.964394 -3.968041 63.657898 117 61 67
-3.970578 -3.836793 63.757210 117 61 67
-3.976749 -3.705103 63.856293 116 60 66
-3.982902 -3.572969 63.955086 115 59 65
-3.989032 -3.440391 64.053528 114 59 65
-3.995136 -3.307367 64.151543 114 58 66
-4.001209 -3.173895 64.249054 114 58 66
-4.007246 -3.039975 64.345993 113 57 67
-4.013241 -2.905607 64.442261 111 57 67
-4.019190 -2.770792 64.537781 110 56 66
-4.025086 -2.635531 64.632454 109 56 66
-4.030924 -2.499826 64.726204 109 57 67
-4.036699 -2.363680 64.818939 109 58 68
-4.042408 -2.227098 64.910614 108 60 69
-4.048048 -2.090084 65.001175 107 60 68
-4.053618 -1.952646 65.090614 106 60 66
-4.059118 -1.814792 65.178925 103 60 63
-4.064551 -1.676529 65.266167 101 59 61
-4.069921 -1.537866 65.352394 100 60 61
-4.075233 -1.398812 65.437683 100 62 62
-4.080493 -1.259374 65.522156 103 63 64
-4.085710 -1.119560 65.605911 105 64 66
-4.090887 -0.979375 65.689056 107 65 68
-4.096034 -0.838825 65.771690 108 67 70
-4.101152 -0.697915 65.853874 110 68 71
-4.106245 -0.556647 65.935661 111 69 73
-4.111312 -0.415023 66.017021 110 68 73
-4.116349 -0.273047 66.097908 107 65 71
-4.121350 -0.130720 66.178207 103 61 67
-4.126304 0.011952 66.257759 99 58 63
-4.131197 0.154965 66.336327 96 55 59
-4.136013 0.298311 66.413651 92 53 55
-4.140730 0.441980 66.489403 89 52 53
-4.145330 0.585959 66.563263 86 51 51
-4.149788 0.730231 66.634857 85 50 49
-4.154082 0.874778 66.703804 85 51 50
-4.158188 1.019575 66.769737 85 52 52
-4.162086 1.164599 66.832314 85 52 52
-4.165753 1.309820 66.891205 86 53 52
-4.169172 1.455209 66.946114 86 53 52
-4.172328 1.600733 66.996788 85 53 53
-4.175208 1.746359 67.043022 84 53 53
-4.177801 1.892056 67.084671 83 53 52
-4.180101 2.037789 67.121597 81 54 54
-4.182103 2.183526 67.153740 79 55 55
-4.183806 2.329235 67.181084 77 56 57
-4.185209 2.474885 67.203629 75 57 59
-4.186316 2.620446 67.221397 72 56 59
-4.187130 2.765890 67.234467 69 55 59
-4.187656 2.911191 67.242920 67 53 58
-4.187901 3.056323 67.246849 65 50 58
-4.187871 3.201261 67.246368 63 48 56
-4.187574 3.345985 67.241600 65 49 58
-4.187020 3.490472 67.232697 76 59 67
-4.186215 3.634705 67.219780 94 75 83
-4.185172 3.778666 67.203018 102 82 90
-4.183898 3.922339 67.182571 96 75 83
-4.182407 4.065713 67.158630 88 67 74
-4.180711 4.208776 67.131386 81 60 67
-4.178823 4.351523 67.101074 73 52 58
-4.176759 4.493950 67.067932 69 47 53
-4.174537 4.636058 67.032257 70 48 54
-4.172175 4.777853 66.994331 70 48 54
-4.169697 4.919345 66.954529 70 48 53
-4.167123 5.060552 66.913208 70 48 52
-4.164482 5.201495 66.870804 68 46 49
-4.161802 5.342205 66.827759 67 45 48
-4.159111 5.482716 66.784546 68 45 48
-4.156442 5.623070 66.741692 69 45 49
-4.153827 5.763315 66.699699 70 46 51
-4.151299 5.903502 66.659119 71 46 52
-4.148892 6.043690 66.620461 72 46 54
-4.146636 6.183938 66.584244 73 46 56
-4.144563 6.324306 66.550941 71 44 54
-4.142697 6.464857 66.520996 69 41 51
-4.141064 6.605649 66.494766 70 42 51
-4.139682 6.746737 66.472580 73 44 53
-4.138566 6.888171 66.454643 75 46 54
-4.137722 7.029992 66.441109 76 47 54
-4.137156 7.172234 66.431999 76 48 54
-4.136862 7.314920 66.427292 76 48 53
-4.136832 7.458061 66.426811 75 49 52
-4.137052 7.601658 66.430336 74 49 52
-4.137501 7.745701 66.437553 73 49 51
-4.138156 7.890167 66.448067 72 49 52
-4.138988 8.035023 66.461441 72 49 52
-4.139968 8.180226 66.477165 72 48 53
-4.141061 8.325727 66.494720 72 47 52
-4.142233 8.471463 66.513542 71 46 52
-4.143450 8.617374 66.533073 69 45 51
-4.144676 8.763390 66.552757 68 45 50
-4.145877 8.909436 66.572052 69 45 51
-4.147021 9.055441 66.590416 71 47 53
-4.148077 9.201331 66.607384 72 49 55
-4.149018 9.347034 66.622490 75 51 56
-4.149817 9.492478 66.635323 76 52 59
-4.150454 9.637599 66.645546 75 51 59
-4.150909 9.782336 66.652847 74 49 59
-4.151167 9.926635 66.656990 73 49 59
-4.151218 10.070449 66.657814 72 49 59
-4.151055 10.213739 66.655197 72 48 58
-4.150676 10.356480 66.649109 71 47 56
-4.150083 10.498652 66.639580 71 46 54
-4.149281 10.640247 66.626701 70 46 52
-4.148280 10.781270 66.610626 71 46 52
-4.147094 10.921738 66.591591 71 47 53
-4.145739 11.061672 66.569832 71 48 53
-4.144235 11.201109 66.545685 71 48 53
-4.142602 11.340090 66.519463 69 47 51
-4.140862 11.478660 66.491524 68 45 50
-4.139038 11.616871 66.462227 68 44 51
-4.137149 11.754775 66.431900 69 44 53
-4.135217 11.892424 66.400871 70 44 53
-4.133258 12.029861 66.369423 69 43 52
-4.131289 12.167130 66.337799 69 42 50
-4.129320 12.304266 66.306183 68 41 49
-4.127359 12.441290 66.274704 68 41 49
-4.125412 12.578218 66.243431 69 43 51
-4.123478 12.715055 66.212387 70 45 51
-4.121556 12.851791 66.181519 69 45 50
-4.119638 12.988412 66.150726 67 44 48
-4.117718 13.124888 66.119881 66 44 47
-4.115783 13.261187 66.088821 65 45 47
-4.113823 13.397268 66.057343 65 45 47
-4.111825 13.533092 66.025269 65 45 47
-4.109777 13.668609 65.992386 65 46 46
-4.107669 13.803780 65.958527 64 45 45
-4.105490 13.938565 65.923531 63 44 44
-4.103232 14.072932 65.887283 60 41 41
-4.100890 14.206848 65.849670 59 39 39
-4.098462 14.340302 65.810684 60 39 39
-4.095949 14.473287 65.770325 60 39 39
-4.093354 14.605806 65.728661 60 39 40
-4.090684 14.737878 65.685799 60 40 41
-4.087950 14.869529 65.641891 59 40 42
-4.085162 15.000792 65.597115 59 40 43
-4.082334 15.131714 65.551704 59 40 43
-4.079480 15.262345 65.505882 59 40 43
-4.076616 15.392741 65.459900 58 40 42
-4.073757 15.522955 65.413979 57 39 41
-4.070915 15.653038 65.368347 55 38 40
-4.068102 15.783038 65.323189 54 37 39
-4.065327 15.912988 65.278618 53 37 39
-4.062593 16.042912 65.234718 53 37 38
-4.059901 16.172813 65.191505 53 37 39
-4.057247 16.302679 65.148880 53 37 39
-4.054620 16.432470 65.106689 53 37 39
-4.052004 16.562126 65.064690 53 37 39
-4.049378 16.691561 65.022530 53 37 39
-4.046717 16.820667 64.979797 53 36 39
-4.043991 16.949314 64.936020 53 37 39
-4.041167 17.077360 64.890678 52 37 40
-4.038211 17.204653 64.843216 53 37 40
-4.035092 17.331032 64.793121 53 37 39
-4.031776 17.456348 64.739883 52 36 38
-4.028239 17.580467 64.683083 52 36 37
-4.024460 17.703281 64.622406 52 36 36
-4.020428 17.824709 64.557663 52 36 35
-4.016142 17.944723 64.488846 53 36 35
-4.011611 18.063335 64.416077 53 36 36
-4.006854 18.180613 64.339699 53 35 36
-4.001904 18.296679 64.260223 52 35 36
-3.996803 18.411699 64.178307 51 34 35
-3.991599 18.525896 64.094749 51 36 37
-3.986350 18.639519 64.010460 53 37 38
-3.981116 18.752846 63.926403 54 39 40
-3.975957 18.866173 63.843571 55 40 41
-3.970934 18.979788 63.762913 55 42 42
-3.966101 19.093975 63.685318 56 42 42
-3.961507 19.208982 63.611546 54 40 40
-3.957190 19.325026 63.542225 53 38 38
-3.953179 19.442272 63.477814 52 37 37
-3.949490 19.560839 63.418579 51 38 36
-3.638300 -8.598983 60.516422 122 65 77
-3.641944 -8.477009 60.577019 121 65 76
-3.645724 -8.355089 60.639900 121 65 74
-3.649638 -8.233199 60.704994 121 65 73
-3.653677 -8.111307 60.772182 122 66 73
-3.657835 -7.989384 60.841343 122 67 72
-3.662102 -7.867399 60.912323 122 68 71
-3.666470 -7.745318 60.984966 122 68 70
-3.670928 -7.623114 61.059128 121 67 70
-3.675469 -7.500758 61.134655 120 66 69
-3.680084 -7.378225 61.211418 120 65 69
-3.684768 -7.255496 61.289322 121 65 70
-3.689515 -7.132553 61.368275 122 65 70
-3.694322 -7.009384 61.448231 122 65 71
-3.699187 -6.885980 61.529160 122 65 70
-3.704111 -6.762333 61.611061 122 65 69
-3.709095 -6.638441 61.693966 122 65 67
-3.714142 -6.514301 61.777908 122 65 66
-3.719254 -6.389913 61.862946 122 64 65
-3.724436 -6.265273 61.949123 121 63 64
-3.729689 -6.140379 62.036491 120 61 63
-3.735016 -6.015229 62.125099 119 60 63
-3.740419 -5.889816 62.214973 118 60 64
-3.745898 -5.764133 62.306114 117 60 64
-3.751453 -5.638171 62.398514 117 61 64
-3.757081 -5.511918 62.492119 117 62 65
-3.762779 -5.385359 62.586884 117 63 65
-3.768540 -5.258482 62.682713 119 65 66
-3.774359 -5.131270 62.779503 119 65 67
-3.780229 -5.003709 62.877132 118 65 67
-3.786141 -4.875781 62.975479 119 66 69
-3.792089 -4.747473 63.074406 121 67 70
-3.798063 -4.618771 63.173775 119 65 70
-3.804056 -4.489663 63.273457 117 63 69
-3.810061 -4.360138 63.373333 117 62 69
-3.816070 -4.230188 63.473289 116 61 69
-3.822078 -4.099806 63.573223 116 62 70
-3.828079 -3.968986 63.673046 117 62 70
-3.834069 -3.837723 63.772667 117 63 70
-3.840042 -3.706015 63.872017 117 62 69
-3.845994 -3.573859 63.971012 114 61 66
-3.851920 -3.441254 64.069588 112 59 65
-3.857816 -3.308198 64.167664 112 59 65
-3.863678 -3.174690 64.265160 112 59 65
-3.869499 -3.040730 64.361984 111 58 65
-3.875275 -2.906319 64.458046 110 57 66
-3.880999 -2.771457 64.553261 109 57 66
-3.886666 -2.636146 64.647530 109 56 66
-3.892271 -2.500388 64.740753 108 56 66
-3.897809 -2.364188 64.832870 108 57 67
-3.903277 -2.227551 64.923813 107 59 68
-3.908671 -2.090482 65.013535 106 60 67
-3.913990 -1.952989 65.102020 105 60 65
-3.919237 -1.815081 65.189285 102 60 63
-3.924412 -1.676766 65.275368 100 59 62
-3.929521 -1.538054 65.360344 99 60 61
-3.934569 -1.398953 65.444298 100 62 62
-3.939562 -1.259474 65.527351 102 63 63
-3.944507 -1.119623 65.609604 104 64 65
-3.949412 -0.979407 65.691185 106 65 67
-3.954282 -0.838832 65.772186 107 66 68
-3.959122 -0.697902 65.852692 108 67 69
-3.963935 -0.556622 65.932747 108 67 69
-3.968720 -0.414993 66.012337 107 66 70
-3.973474 -0.273020 66.091415 105 63 68
-3.978192 -0.130704 66.169891 101 59 65
-3.982863 0.011950 66.247581 98 56 61
-3.987474 0.154937 66.324287 94 54 58
-3.992010 0.298248 66.399727 90 52 56
-3.996451 0.441875 66.473602 88 52 54
-4.000778 0.585803 66.545570 86 51 53
-4.004969 0.730017 66.615273 85 50 52
-4.009000 0.874496 66.682327 85 51 52
-4.012852 1.019219 66.746384 85 52 52
-4.016501 1.164160 66.807098 85 52 52
-4.019930 1.309290 66.864128 86 52 52
-4.023121 1.454580 66.917206 86 52 52
-4.026059 1.599999 66.966072 86 52 52
-4.028732 1.745513 67.010536 84 52 52
-4.031132 1.891091 67.050453 82 52 53
-4.033252 2.036700 67.085716 80 53 54
-4.035089 2.182307 67.116264 79 54 55
-4.036641 2.327883 67.142082 77 55 57
-4.037911 2.473396 67.163200 74 55 58
-4.038900 2.618819 67.179665 71 55 58
-4.039615 2.764125 67.191551 68 54 58
-4.040061 2.909288 67.198959 65 52 57
-4.040244 3.054284 67.202003 63 50 56
-4.040172 3.199093 67.200813 62 48 56
-4.039854 3.343692 67.195518 67 51 60
-4.039298 3.488063 67.186279 76 58 68
-4.038514 3.632188 67.173233 88 68 77
-4.037510 3.776052 67.156540 94 73 82
-4.036297 3.919641 67.136368 91 70 77
-4.034886 4.062944 67.112892 84 63 70
-4.033288 4.205950 67.086311 77 56 63
-4.031516 4.348654 67.056839 71 50 56
-4.029584 4.491053 67.024696 68 47 53
-4.027507 4.633146 66.990158 69 47 53
-4.025302 4.774940 66.953491 69 47 53
-4.022990 4.916443 66.915024 69 47 52
-4.020591 5.057671 66.875114 67 46 51
-4.018127 5.198644 66.834145 65 44 48
-4.015626 5.339389 66.792534 65 43 47
-4.013113 5.479940 66.750740 66 43 47
-4.010618 5.620336 66.709236 67 43 48
-4.008171 5.760621 66.668526 68 44 50
-4.005801 5.900845 66.629112 69 45 52
-4.003539 6.041062 66.591492 70 47 54
-4.001415 6.181329 66.556160 70 46 54
-3.999456 6.321707 66.523582 68 43 52
-3.997689 6.462252 66.494179 66 39 49
-3.996134 6.603021 66.468315 68 41 50
-3.994809 6.744068 66.446274 72 44 53
-3.993728 6.885440 66.428299 74 46 54
-3.992899 7.027178 66.414513 76 47 54
-3.992324 7.169313 66.404953 76 47 53
-3.992001 7.311868 66.399582 76 47 52
-3.991920 7.454853 66.398239 75 47 52
-3.992069 7.598267 66.400696 74 47 51
-3.992426 7.742098 66.406654 74 48 51
-3.992971 7.886325 66.415718 73 48 51
-3.993676 8.030912 66.427444 72 47 52
-3.994512 8.175818 66.441345 72 46 51
-3.995447 8.320991 66.456902 70 45 51
-3.996449 8.466371 66.473557 69 44 50
-3.997483 8.611894 66.490761 69 43 49
-3.998517 8.757490 66.507957 68 44 49
-3.999519 8.903090 66.524628 68 44 50
-4.000458 9.048618 66.540245 70 46 52
-4.001306 9.194004 66.554344 72 48 53
-4.002035 9.339175 66.566475 74 50 55
-4.002624 9.484066 66.576271 74 52 57
-4.003051 9.628610 66.583382 74 51 57
-4.003301 9.772751 66.587540 73 50 57
-4.003360 9.916437 66.588516 72 50 58
-4.003220 10.059627 66.586182 72 50 58
-4.002874 10.202284 66.580437 72 49 57
-4.002323 10.344384 66.571266 71 48 56
-4.001570 10.485915 66.558739 71 47 54
-4.000620 10.626872 66.542946 70 46 52
-3.999486 10.767262 66.524078 69 45 52
-3.998181 10.907106 66.502380 69 45 51
-3.996722 11.046429 66.478104 69 46 52
-3.995127 11.185269 66.451576 69 46 52
-3.993418 11.323669 66.423149 68 46 50
-3.991616 11.461679 66.393166 67 45 50
-3.989741 11.599351 66.361984 67 44 51
-3.987815 11.736736 66.329948 68 44 52
-3.985857 11.873887 66.297371 68 43 52
-3.983882 12.010850 66.264534 68 43 52
-3.981906 12.147666 66.231674 68 42 51
-3.979940 12.284369 66.198959 68 42 51
-3.977990 12.420983 66.166527 68 42 51
-3.976060 12.557521 66.134430 69 43 51
-3.974150 12.693985 66.102669 69 44 51
-3.972259 12.830369 66.071198 68 45 50
-3.970377 12.966652 66.039902 67 44 48
-3.968499 13.102810 66.008659 66 44 47
-3.966612 13.238806 65.977280 65 44 46
-3.964705 13.374599 65.945564 64 44 46
-3.962767 13.510147 65.913322 64 45 46
-3.960785 13.645406 65.880363 64 45 46
-3.958749 13.780333 65.846489 64 44 45
-3.956648 13.914887 65.811546 63 43 43
-3.954477 14.049041 65.775429 60 40 40
-3.952227 14.182758 65.738014 59 39 38
-3.949900 14.316031 65.699303 60 39 39
-3.947495 14.448853 65.659294 60 40 40
-3.945016 14.581231 65.618065 60 40 41
-3.942471 14.713183 65.575729 60 40 41
-3.939868 14.844737 65.532448 59 40 42
-3.937220 14.975931 65.488403 59 40 42
-3.934541 15.106814 65.443832 58 40 42
-3.931844 15.237438 65.398979 58 40 42
-3.929145 15.367858 65.354080 57 39 41
-3.926458 15.498134 65.309387 56 38 40
-3.923796 15.628317 65.265114 55 37 39
-3.921171 15.758456 65.221451 54 38 39
-3.918591 15.888591 65.178535 54 38 39
-3.916060 16.018740 65.136436 54 38 39
-3.913579 16.148914 65.095169 54 37 38
-3.911142 16.279097 65.054634 53 37 38
-3.908740 16.409246 65.014679 53 38 37
-3.906356 16.539305 64.975029 53 37 37
-3.903970 16.669180 64.935341 52 37 37
-3.901556 16.798763 64.895187 52 36 37
-3.899083 16.927921 64.854057 52 37 38
-3.896520 17.056505 64.811424 51 37 38
-3.893831 17.184351 64.766708 51 37 38
-3.890984 17.311298 64.719345 51 36 38
-3.887945 17.437181 64.668800 51 35 37
-3.884687 17.561859 64.614616 50 35 36
-3.881190 17.685209 64.556442 51 36 36
-3.877439 17.807144 64.494049 51 36 36
-3.873430 17.927616 64.427361 52 36 36
-3.869169 18.046629 64.356499 52 36 36
-3.864674 18.164232 64.281731 52 36 36
-3.859973 18.280540 64.203545 51 35 36
-3.855104 18.395706 64.122551 51 35 35
-3.850113 18.509937 64.039536 51 36 36
-3.845053 18.623478 63.955372 52 37 37
-3.839982 18.736597 63.871017 53 38 39
-3.834958 18.849586 63.787449 54 40 40
-3.830038 18.962736 63.705627 56 42 41
-3.825278 19.076323 63.626438 56 42 41
-3.820722 19.190599 63.550674 55 40 40
-3.816412 19.305792 63.478985 53 38 38
-3.812377 19.422071 63.411861 52 38 37
-3.808635 19.539568 63.349617 51 38 36
-3.509236 -8.602386 60.540379 121 66 78
-3.512699 -8.480241 60.600109 121 66 77
-3.516294 -8.358153 60.662140 120 66 76
-3.520018 -8.236100 60.726387 121 67 75
-3.523865 -8.114053 60.792759 121 67 74
-3.527828 -7.991981 60.861115 122 68 73
-3.531898 -7.869853 60.931324 122 68 72
-3.536066 -7.747638 61.003231 122 68 71
-3.540323 -7.625306 61.076683 122 67 70
-3.544662 -7.502830 61.151543 121 66 69
-3.549076 -7.380185 61.227680 120 66 70
-3.553557 -7.257352 61.304996 121 65 70
-3.558102 -7.134312 61.383404 122 65 70
-3.562708 -7.011053 61.462856 122 66 71
-3.567373 -6.887566 61.543331 122 66 71
-3.572096 -6.763844 61.624825 122 66 70
-3.576880 -6.639882 61.707355 122 65 69
-3.581727 -6.515679 61.790977 122 65 68
-3.586640 -6.391233 61.875732 121 63 66
-3.591622 -6.266542 61.961674 119 62 65
-3.596675 -6.141603 62.048859 119 61 64
-3.601804 -6.016412 62.137325 118 60 64
-3.607008 -5.890965 62.227104 117 60 64
-3.612288 -5.765252 62.318203 118 61 64
-3.617644 -5.639264 62.410606 118 61 65
-3.623074 -5.512989 62.504269 118 62 65
-3.628572 -5.386414 62.599133 119 64 66
-3.634136 -5.259522 62.695110 120 65 67
-3.639757 -5.132299 62.792091 120 65 67
-3.645430 -5.004728 62.889950 119 65 68
-3.651145 -4.876793 62.988560 119 65 69
-3.656896 -4.748479 63.087769 119 65 69
-3.662674 -4.619771 63.187443 118 64 69
-3.668470 -4.490655 63.287441 117 63 69
-3.674278 -4.361122 63.387638 116 62 69
-3.680090 -4.231162 63.487900 116 62 70
-3.685899 -4.100767 63.588123 116 62 70
-3.691701 -3.969931 63.688206 116 63 71
-3.697488 -3.838649 63.788052 116 63 70
-3.703257 -3.706918 63.887573 116 63 69
-3.709002 -3.574735 63.986691 114 62 67
-3.714720 -3.442099 64.085320 112 60 65
-3.720404 -3.309008 64.183388 111 60 64
-3.726050 -3.175462 64.280792 110 59 64
-3.731652 -3.041461 64.377441 109 58 64
-3.737206 -2.907004 64.473244 109 58 65
-3.742704 -2.772094 64.568108 109 57 65
-3.748142 -2.636733 64.661926 108 56 65
-3.753515 -2.500924 64.754616 108 56 65
-3.758818 -2.364670 64.846092 107 57 66
-3.764046 -2.227979 64.936295 107 58 67
-3.769199 -2.090856 65.025185 105 59 65
-3.774274 -1.953310 65.112740 103 59 63
-3.779273 -1.815350 65.198975 102 59 62
-3.784198 -1.676986 65.283943 101 59 62
-3.789054 -1.538227 65.367714 100 60 61
-3.793846 -1.399083 65.450386 100 61 62
-3.798580 -1.259565 65.532066 101 63 63
-3.803265 -1.119678 65.612885 102 64 64
-3.807906 -0.979433 65.692955 103 64 65
-3.812511 -0.838834 65.772392 104 64 65
-3.817084 -0.697887 65.851280 104 64 65
-3.821627 -0.556596 65.929665 104 63 64
-3.826142 -0.414963 66.007553 103 61 64
-3.830626 -0.272993 66.084900 100 59 63
-3.835072 -0.130688 66.161606 98 56 61
-3.839472 0.011948 66.237511 95 53 59
-3.843813 0.154909 66.312408 92 52 58
-3.848081 0.298187 66.386040 90 51 57
-3.852257 0.441772 66.458084 88 51 56
-3.856323 0.585650 66.528229 87 51 55
-3.860257 0.729807 66.596100 86 50 55
-3.864039 0.874221 66.661331 86 51 54
-3.867646 1.018871 66.723572 86 52 54
-3.871061 1.163731 66.782486 86 52 53
-3.874264 1.308773 66.837746 86 52 53
-3.877239 1.453968 66.889061 86 51 53
-3.879972 1.599285 66.936211 84 51 52
-3.882452 1.744692 66.978996 82 50 51
-3.884672 1.890156 67.017288 80 51 52
-3.886625 2.035646 67.050987 79 52 54
-3.888309 2.181130 67.080048 78 52 55
-3.889725 2.326578 67.104469 76 53 56
-3.890874 2.471963 67.124283 73 54 57
-3.891759 2.617256 67.139565 70 53 57
-3.892387 2.762432 67.150398 66 52 57
-3.892764 2.907467 67.156898 63 50 56
-3.892898 3.052339 67.159203 61 48 55
-3.892796 3.197028 67.157440 62 48 56
-3.892466 3.341514 67.151756 67 52 62
-3.891919 3.485780 67.142319 76 58 69
-3.891163 3.629811 67.129265 86 66 77
-3.890207 3.773592 67.112778 92 70 80
-3.889060 3.917110 67.093002 88 66 75
-3.887734 4.060355 67.070122 80 59 66
-3.886238 4.203317 67.044319 75 53 60
-3.884584 4.345992 67.015785 71 50 56
-3.882785 4.488376 66.984741 68 46 52
-3.880854 4.630468 66.951431 67 45 51
-3.878806 4.772273 66.916100 67 45 51
-3.876659 4.913800 66.879066 66 44 50
-3.874432 5.055062 66.840630 64 43 49
-3.872144 5.196079 66.801170 63 41 47
-3.869820 5.336874 66.761070 63 41 47
-3.867483 5.477479 66.720749 63 41 47
-3.865159 5.617928 66.680656 64 42 47
-3.862876 5.758266 66.641273 65 43 49
-3.860662 5.898540 66.603081 67 45 51
-3.858544 6.038799 66.566544 68 46 52
-3.856550 6.179099 66.532143 68 46 53
-3.854706 6.319497 66.500328 67 44 51
-3.853035 6.460047 66.471497 67 41 50
-3.851557 6.600806 66.446014 69 43 51
-3.850291 6.741823 66.424164 72 46 54
-3.849247 6.883144 66.406158 75 47 55
-3.848434 7.024810 66.392128 76 47 54
-3.847854 7.166849 66.382126 76 46 52
-3.847504 7.309282 66.376091 75 46 51
-3.847377 7.452118 66.373886 74 46 51
-3.847457 7.595358 66.375282 74 46 50
-3.847729 7.738987 66.379967 73 46 50
-3.848170 7.882982 66.387566 72 46 50
-3.848754 8.027310 66.397652 72 46 51
-3.849453 8.171926 66.409714 72 45 51
-3.850239 8.316779 66.423256 70 43 49
-3.851078 8.461809 66.437737 68 42 48
-3.851939 8.606952 66.452599 67 42 48
-3.852792 8.752138 66.467316 67 43 48
-3.853606 8.897298 66.481346 67 44 49
-3.854351 9.042358 66.494209 69 45 50
-3.855002 9.187248 66.505440 70 47 51
-3.855534 9.331898 66.514610 71 49 53
-3.855925 9.476243 66.521355 72 50 54
-3.856158 9.620220 66.525368 72 51 55
-3.856216 9.763776 66.526382 72 50 56
-3.856091 9.906861 66.524216 72 50 57
-3.855773 10.049438 66.518738 72 50 58
-3.855260 10.191473 66.509888 72 49 57
-3.854552 10.332948 66.497665 71 48 55
-3.853653 10.473850 66.482155 70 47 53
-3.852571 10.614182 66.463493 69 45 51
-3.851317 10.753955 66.441864 68 44 50
-3.849906 10.893188 66.417519 67 43 49
-3.848354 11.031915 66.390755 67 43 50
-3.846681 11.170173 66.361893 68 45 51
-3.844907 11.308007 66.331276 67 45 50
-3.843052 11.445470 66.299271 67 44 50
-3.841136 11.582614 66.266235 67 44 51
-3.839181 11.719492 66.232498 67 43 52
-3.837203 11.856156 66.198372 67 43 52
-3.835219 11.992654 66.164146 67 42 52
-3.833242 12.129025 66.130035 68 42 52
-3.831281 12.265303 66.096214 69 43 52
-3.829344 12.401510 66.062798 69 43 52
-3.827434 12.537661 66.029831 69 43 52
-3.825549 12.673755 65.997314 69 44 50
-3.823687 12.809784 65.965195 68 44 48
-3.821841 12.945729 65.933342 67 44 47
-3.820002 13.081562 65.901619 66 43 45
-3.818160 13.217248 65.869843 65 44 45
-3.816303 13.352744 65.837814 66 45 46
-3.814420 13.488009 65.805321 66 45 46
-3.812498 13.622998 65.772179 65 44 45
-3.810528 13.757667 65.738182 64 44 44
-3.808500 13.891978 65.703194 63 43 43
-3.806407 14.025901 65.667091 61 41 40
-3.804244 14.159404 65.629761 60 39 38
-3.802008 14.292478 65.591202 60 39 39
-3.799703 14.425117 65.551437 61 40 40
-3.797331 14.557333 65.510521 60 40 41
-3.794901 14.689144 65.468590 60 40 41
-3.792421 14.820580 65.425804 60 40 41
-3.789903 14.951682 65.382362 59 40 41
-3.787361 15.082501 65.338509 59 40 41
-3.784809 15.213091 65.294479 58 40 40
-3.782262 15.343511 65.250542 57 39 40
-3.779734 15.473822 65.206932 56 38 39
-3.777239 15.604077 65.163887 56 38 39
-3.774788 15.734331 65.121597 55 38 39
-3.772388 15.864618 65.080193 55 38 39
-3.770044 15.994967 65.039764 55 38 39
-3.767757 16.125381 65.000305 54 38 38
-3.765521 16.255848 64.961739 53 37 37
-3.763326 16.386328 64.923874 52 37 37
-3.761157 16.516756 64.886452 51 37 36
-3.758993 16.647043 64.849113 51 37 36
-3.756807 16.777077 64.811401 51 36 37
-3.754570 16.906715 64.772812 51 37 37
-3.752249 17.035807 64.732773 51 37 37
-3.749810 17.164181 64.690689 51 36 37
-3.747217 17.291668 64.645950 51 36 37
-3.744438 17.418097 64.598022 50 35 36
-3.741445 17.543314 64.546379 50 35 36
-3.738214 17.667187 64.490646 51 36 36
-3.734731 17.789612 64.430550 51 36 37
-3.730988 17.910536 64.365982 52 36 37
-3.726990 18.029945 64.296997 52 36 37
-3.722750 18.147879 64.223854 52 36 37
-3.718294 18.264435 64.146980 52 35 37
-3.713656 18.379761 64.066971 52 35 36
-3.708879 18.494049 63.984566 52 36 37
-3.704014 18.607536 63.900627 52 37 37
-3.699114 18.720486 63.816093 53 39 38
-3.694235 18.833179 63.731926 54 40 39
-3.689433 18.945908 63.649094 56 41 40
-3.684761 19.058949 63.568493 56 41 39
-3.680265 19.172558 63.490925 55 40 38
-3.675984 19.286961 63.417068 54 39 37
-3.671949 19.402346 63.347454 53 38 36
-3.668180 19.518845 63.282433 52 38 36
-3.379949 -8.605488 60.562202 120 68 79
-3.383239 -8.483184 60.621143 120 68 78
-3.386658 -8.360947 60.682407 120 68 77
-3.390202 -8.238749 60.745911 120 68 75
-3.393866 -8.116563 60.811562 121 68 74
-3.397643 -7.994359 60.879230 122 68 73
-3.401524 -7.872108 60.948784 123 68 72
-3.405503 -7.749776 61.020065 123 68 71
-3.409570 -7.627336 61.092937 122 67 70
-3.413717 -7.504758 61.167255 121 66 69
-3.417938 -7.382019 61.242893 120 66 69
-3.422228 -7.259098 61.319748 121 65 69
-3.426580 -7.135978 61.397739 121 65 71
-3.430994 -7.012645 61.476814 122 66 72
-3.435466 -6.889090 61.556953 122 66 72
-3.439998 -6.765306 61.638149 122 66 72
-3.444589 -6.641288 61.720425 122 65 71
-3.449244 -6.517034 61.803822 121 65 70
-3.453964 -6.392541 61.888390 120 63 68
-3.458751 -6.267807 61.974182 119 62 67
-3.463611 -6.142829 62.061253 118 60 66
-3.468544 -6.017605 62.149643 118 60 65
-3.473552 -5.892127 62.239380 117 60 65
-3.478636 -5.766387 62.330475 118 61 64
-3.483795 -5.640376 62.422909 119 62 65
-3.489026 -5.514080 62.516636 120 63 66
-3.494326 -5.387486 62.611603 121 65 67
-3.499690 -5.260580 62.707714 122 66 68
-3.505111 -5.133343 62.804855 121 65 68
-3.510583 -5.005760 62.902908 120 64 67
-3.516098 -4.877813 63.001724 119 64 68
-3.521648 -4.749487 63.101170 118 63 68
-3.527224 -4.620768 63.201080 117 62 68
-3.532818 -4.491640 63.301319 116 61 68
-3.538423 -4.362092 63.401745 117 62 69
-3.544031 -4.232117 63.502232 117 62 70
-3.549636 -4.101704 63.602654 117 63 71
-3.555231 -3.970847 63.702908 117 63 71
-3.560810 -3.839541 63.802883 116 63 70
-3.566370 -3.707783 63.902493 115 63 68
-3.571903 -3.575571 64.001648 114 64 68
-3.577406 -3.442901 64.100250 113 63 67
-3.582874 -3.309773 64.198227 111 61 64
-3.588302 -3.176188 64.295471 109 59 63
-3.593683 -3.042143 64.391891 108 59 63
-3.599012 -2.907642 64.487389 108 58 63
-3.604284 -2.772685 64.581856 108 57 64
-3.609494 -2.637274 64.675201 108 57 65
-3.614636 -2.501415 64.767334 107 56 65
-3.619705 -2.365110 64.858162 107 56 65
-3.624698 -2.228368 64.947632 106 56 65
-3.629613 -2.091194 65.035698 105 57 64
-3.634449 -1.953599 65.122353 103 57 62
-3.639207 -1.815591 65.207603 101 57 60
-3.643889 -1.677180 65.291496 100 57 60
-3.648500 -1.538378 65.374115 100 58 60
-3.653046 -1.399194 65.455559 100 60 61
-3.657532 -1.259639 65.535942 101 61 62
-3.661966 -1.119721 65.615395 101 61 62
-3.666355 -0.979449 65.694038 101 61 62
-3.670705 -0.838829 65.771988 100 61 61
-3.675022 -0.697867 65.849342 100 60 60
-3.679308 -0.556566 65.926140 99 59 59
-3.683565 -0.414931 66.002411 98 57 59
-3.687789 -0.272965 66.078102 96 55 58
-3.691976 -0.130671 66.153122 94 53 57
-3.696117 0.011946 66.227318 92 51 56
-3.700201 0.154881 66.300491 90 50 57
-3.704212 0.298125 66.372375 89 50 57
-3.708136 0.441669 66.442673 89 50 57
-3.711953 0.585499 66.511063 88 50 58
-3.715643 0.729599 66.577187 87 50 57
-3.719187 0.873950 66.640678 86 50 57
-3.722564 1.018529 66.701195 86 51 56
-3.725756 1.163311 66.758392 86 51 56
-3.728745 1.308268 66.811958 86 51 55
-3.731517 1.453372 66.861618 85 51 53
-3.734058 1.598591 66.907150 83 50 52
-3.736359 1.743894 66.948372 80 49 51
-3.738411 1.889249 66.985153 79 49 52
-3.740211 2.034626 67.017403 78 50 53
-3.741757 2.179994 67.045105 77 51 54
-3.743049 2.325323 67.068253 75 51 55
-3.744091 2.470587 67.086914 73 52 56
-3.744885 2.615758 67.101151 70 52 56
-3.745439 2.760814 67.111076 66 51 56
-3.745760 2.905732 67.116821 62 49 54
-3.745855 3.050491 67.118530 62 49 56
-3.745733 3.195071 67.116341 66 51 60
-3.745402 3.339457 67.110413 70 54 65
-3.744873 3.483631 67.100922 76 58 71
-3.744152 3.627580 67.088013 86 66 78
-3.743250 3.771291 67.071846 91 69 81
-3.742176 3.914751 67.052597 86 64 74
-3.740938 4.057951 67.030426 78 55 64
-3.739548 4.200884 67.005508 74 52 60
-3.738014 4.343544 66.978027 72 50 57
-3.736348 4.485926 66.948189 68 46 52
-3.734563 4.628031 66.916191 65 44 50
-3.732671 4.769862 66.882294 65 43 50
-3.730688 4.911427 66.846756 64 42 49
-3.728629 5.052737 66.809875 63 41 48
-3.726515 5.193810 66.771988 62 40 48
-3.724365 5.334667 66.733459 62 40 47
-3.722200 5.475337 66.694664 62 40 46
-3.720044 5.615855 66.656052 62 40 46
-3.717923 5.756259 66.618042 63 42 48
-3.715862 5.896594 66.581108 65 45 50
-3.713886 6.036908 66.545700 67 46 52
-3.712020 6.177253 66.512268 67 46 52
-3.710289 6.317684 66.481247 66 45 51
-3.708714 6.458252 66.453033 67 44 51
-3.707315 6.599012 66.427956 69 45 53
-3.706106 6.740011 66.406311 73 47 55
-3.705102 6.881294 66.388306 75 48 55
-3.704307 7.022899 66.374062 75 48 53
-3.703725 7.164852 66.363632 75 47 51
-3.703352 7.307175 66.356956 74 46 50
-3.703182 7.449875 66.353905 73 45 49
-3.703201 7.592950 66.354240 71 45 48
-3.703392 7.736388 66.357674 70 44 47
-3.703735 7.880163 66.363815 70 44 48
-3.704206 8.024240 66.372253 71 45 50
-3.704778 8.168577 66.382500 71 45 51
-3.705422 8.313121 66.394043 69 43 49
-3.706109 8.457811 66.406349 67 41 48
-3.706808 8.602585 66.418884 67 42 47
-3.707491 8.747373 66.431122 67 43 47
-3.708129 8.892104 66.442543 67 44 48
-3.708694 9.036709 66.452660 68 45 49
-3.709161 9.181115 66.461044 69 46 50
-3.709509 9.325257 66.467270 70 47 51
-3.709717 9.469070 66.471008 70 48 52
-3.709770 9.612495 66.471947 70 49 53
-3.709653 9.755480 66.469864 71 50 54
-3.709359 9.897981 66.464584 71 50 55
-3.708880 10.039959 66.456001 71 50 56
-3.708215 10.181390 66.444084 71 49 56
-3.707365 10.322255 66.428856 70 48 54
-3.706336 10.462548 66.410416 69 47 52
-3.705136 10.602273 66.388916 68 45 50
-3.703777 10.741444 66.364563 67 43 49
-3.702274 10.880087 66.337639 66 42 48
-3.700643 11.018233 66.308418 65 42 48
-3.698904 11.155927 66.277260 68 45 51
-3.697076 11.293214 66.244499 68 46 51
-3.695179 11.430146 66.210503 67 45 51
-3.693233 11.566778 66.175629 67 44 52
-3.691256 11.703164 66.140213 67 43 52
-3.689266 11.839355 66.104568 67 43 52
-3.687279 11.975399 66.068954 68 43 53
-3.685305 12.111336 66.033592 70 44 53
-3.683355 12.247197 65.998650 71 44 53
-3.681434 12.383006 65.964226 71 44 53
-3.679544 12.518773 65.930359 70 43 52
-3.677685 12.654500 65.897049 69 43 49
-3.675853 12.790176 65.864220 67 43 47
-3.674041 12.925782 65.831749 66 43 45
-3.672240 13.061288 65.799484 66 43 45
-3.670440 13.196659 65.767235 66 44 45
-3.668630 13.331852 65.734795 67 46 47
-3.666797 13.466824 65.701958 68 46 47
-3.664931 13.601531 65.668533 67 45 45
-3.663022 13.735929 65.634315 65 43 44
-3.661060 13.869982 65.599159 64 42 43
-3.659039 14.003658 65.562958 62 41 41
-3.656954 14.136928 65.525589 62 40 40
-3.654803 14.269783 65.487053 63 41 41
-3.652589 14.402221 65.447380 62 41 41
-3.650316 14.534252 65.406654 62 41 41
-3.647991 14.665898 65.364983 62 41 41
-3.645622 14.797192 65.322556 61 41 41
-3.643224 14.928176 65.279572 60 41 41
-3.640808 15.058903 65.236282 59 40 41
-3.638388 15.189430 65.192932 58 40 40
-3.635981 15.319820 65.149796 57 39 39
-3.633599 15.450134 65.107117 57 38 39
-3.631256 15.580432 65.065140 56 38 39
-3.628964 15.710765 65.024063 56 38 39
-3.626729 15.841172 64.984016 56 38 39
-3.624556 15.971684 64.945091 55 38 39
-3.622446 16.102303 64.907280 54 38 38
-3.620394 16.233017 64.870499 53 37 37
-3.618389 16.363789 64.834572 51 37 36
-3.616416 16.494551 64.799217 51 36 36
-3.614454 16.625212 64.764061 51 36 36
-3.612477 16.755653 64.728645 51 36 36
-3.610456 16.885738 64.692444 51 36 36
-3.608358 17.015299 64.654854 51 36 36
-3.606149 17.144169 64.615257 51 36 36
-3.603792 17.272161 64.573029 51 36 36
-3.601256 17.399105 64.527580 50 35 35
-3.598510 17.524834 64.478386 50 35 36
-3.595530 17.649200 64.424995 51 35 36
-3.592300 17.772100 64.367119 51 36 37
-3.588811 17.893459 64.304611 52 36 37
-3.585065 18.013252 64.237473 52 36 37
-3.581072 18.131512 64.165932 52 36 37
-3.576856 18.248320 64.090385 53 35 37
-3.572447 18.363813 64.011383 53 36 37
-3.567885 18.478174 63.929646 53 37 37
-3.563217 18.591631 63.846008 53 38 38
-3.558495 18.704441 63.761395 54 39 38
-3.553772 18.816879 63.676762 55 40 39
-3.549101 18.929232 63.593071 55 40 39
-3.544533 19.041779 63.511227 55 40 38
-3.540114 19.154779 63.432049 55 39 38
-3.535884 19.268461 63.356243 54 38 37
-3.531872 19.383020 63.284363 53 38 36
-3.528101 19.498600 63.216793 52 37 35
-3.250431 -8.608224 60.581463 119 69 78
-3.253556 -8.485783 60.639713 119 69 77
-3.256807 -8.363412 60.700302 119 69 76
-3.260180 -8.241089 60.763168 119 69 75
-3.263670 -8.118785 60.828209 119 69 73
-3.267270 -7.996470 60.895306 121 69 72
-3.270973 -7.874115 60.964325 122 69 71
-3.274771 -7.751687 61.035110 123 68 69
-3.278657 -7.629158 61.107533 122 67 68
-3.282622 -7.506497 61.181435 121 66 66
-3.286661 -7.383684 61.256706 120 65 66
-3.290766 -7.260694 61.333229 120 65 67
-3.294935 -7.137511 61.410934 120 65 70
-3.299165 -7.014122 61.489758 121 65 72
-3.303453 -6.890515 61.569679 121 65 73
-3.307799 -6.766683 61.650692 121 65 73
-3.312206 -6.642622 61.732815 121 65 73
-3.316674 -6.518328 61.816093 121 64 72
-3.321206 -6.393798 61.900566 119 63 71
-3.325806 -6.269032 61.986290 118 61 69
-3.330475 -6.144024 62.073315 118 61 68
-3.335216 -6.018771 62.161686 117 60 66
-3.340031 -5.893267 62.251427 117 61 66
-3.344920 -5.767504 62.342548 117 61 65
-3.349882 -5.641471 62.435032 119 62 65
-3.354915 -5.515155 62.528831 120 64 66
-3.360015 -5.388544 62.623894 122 65 68
-3.365178 -5.261621 62.720119 123 66 69
-3.370398 -5.134367 62.817390 122 65 68
-3.375666 -5.006769 62.915588 121 64 67
-3.380976 -4.878807 63.014565 120 63 67
-3.386321 -4.750466 63.114170 119 62 67
-3.391690 -4.621730 63.214249 117 62 67
-3.397077 -4.492585 63.314648 117 61 68
-3.402473 -4.363020 63.415226 117 62 69
-3.407872 -4.233024 63.515842 118 63 70
-3.413266 -4.102589 63.616375 117 64 72
-3.418649 -3.971707 63.716705 117 64 72
-3.424016 -3.840374 63.816727 115 63 70
-3.429360 -3.708586 63.916332 114 63 69
-3.434677 -3.576341 64.015442 115 64 69
-3.439963 -3.443636 64.113945 114 64 68
-3.445210 -3.310471 64.211754 111 62 65
-3.450416 -3.176845 64.308777 109 60 64
-3.455574 -3.042758 64.404907 109 60 64
-3.460679 -2.908213 64.500053 109 59 64
-3.465724 -2.773210 64.594093 109 58 64
-3.470706 -2.637753 64.686943 108 57 64
-3.475619 -2.501846 64.778503 108 56 64
-3.480457 -2.365494 64.868683 107 56 64
-3.485219 -2.228704 64.957436 106 56 64
-3.489902 -2.091484 65.044708 106 56 63
-3.494504 -1.953843 65.130486 104 56 61
-3.499027 -1.815791 65.214790 101 54 59
-3.503474 -1.677338 65.297668 99 54 58
-3.507849 -1.538497 65.379204 99 56 59
-3.512156 -1.399278 65.459488 100 57 61
-3.516403 -1.259691 65.538643 99 58 61
-3.520597 -1.119746 65.616814 99 58 61
-3.524745 -0.979450 65.694115 99 59 60
-3.528852 -0.838812 65.770668 97 57 58
-3.532925 -0.697837 65.846573 96 56 57
-3.536966 -0.556530 65.921890 96 55 56
-3.540976 -0.414895 65.996620 95 53 56
-3.544953 -0.272934 66.070755 94 52 55
-3.548892 -0.130653 66.144180 92 51 55
-3.552787 0.011944 66.216759 91 50 55
-3.556625 0.154853 66.288292 90 50 56
-3.560393 0.298063 66.358536 89 49 57
-3.564076 0.441566 66.427177 88 49 58
-3.567657 0.585348 66.493904 88 50 59
-3.571115 0.729393 66.558372 88 50 59
-3.574434 0.873682 66.620209 87 50 59
-3.577593 1.018191 66.679092 87 50 58
-3.580575 1.162898 66.734673 86 51 57
-3.583364 1.307773 66.786652 86 51 56
-3.585945 1.452788 66.834770 85 51 54
-3.588308 1.597914 66.878799 83 50 53
-3.590441 1.743118 66.918564 79 49 52
-3.592341 1.888370 66.953964 78 49 52
-3.594001 2.033639 66.984909 77 50 53
-3.595422 2.178897 67.011383 76 50 54
-3.596604 2.324115 67.033417 74 50 55
-3.597550 2.469266 67.051064 72 50 55
-3.598267 2.614326 67.064415 69 50 55
-3.598759 2.759272 67.073593 66 49 55
-3.599036 2.904083 67.078743 64 48 55
-3.599103 3.048740 67.080009 66 51 60
-3.598972 3.193225 67.077553 71 56 66
-3.598649 3.337522 67.071541 74 56 69
-3.598145 3.481618 67.062141 79 60 73
-3.597467 3.625498 67.049507 86 66 80
-3.596625 3.769152 67.033813 90 68 81
-3.595627 3.912569 67.015221 85 62 74
-3.594482 4.055739 66.993881 79 55 66
-3.593199 4.198656 66.969963 75 53 62
-3.591787 4.341313 66.943642 72 50 58
-3.590255 4.483708 66.915085 67 46 53
-3.588614 4.625839 66.884506 64 43 50
-3.586876 4.767710 66.852112 64 42 49
-3.585054 4.909325 66.818153 64 41 49
-3.583162 5.050696 66.782898 63 40 49
-3.581217 5.191838 66.746643 63 40 49
-3.579237 5.332770 66.709732 62 40 48
-3.577241 5.473520 66.672531 62 40 47
-3.575250 5.614118 66.635429 63 42 48
-3.573287 5.754601 66.598846 65 44 50
-3.571376 5.895009 66.563217 67 47 51
-3.569538 6.035391 66.528976 67 48 52
-3.567799 6.175794 66.496552 66 47 51
-3.566179 6.316269 66.466362 66 46 51
-3.564700 6.456868 66.438789 67 45 51
-3.563378 6.597641 66.414162 69 46 52
-3.562230 6.738635 66.392754 71 47 54
-3.561265 6.879892 66.374779 73 48 53
-3.560491 7.021448 66.360352 73 48 51
-3.559910 7.163328 66.349518 73 47 50
-3.559519 7.305553 66.342224 72 46 49
-3.559310 7.448128 66.338348 71 45 47
-3.559273 7.591053 66.337662 70 44 46
-3.559391 7.734311 66.339859 69 43 46
-3.559645 7.877878 66.344574 69 44 47
-3.560010 8.021718 66.351395 70 45 50
-3.560464 8.165790 66.359848 70 45 51
-3.560977 8.310037 66.369408 69 44 50
-3.561522 8.454402 66.379578 68 43 48
-3.562072 8.598820 66.389816 67 43 48
-3.562597 8.743223 66.399605 67 43 48
-3.563072 8.887542 66.408447 67 44 49
-3.563470 9.031705 66.415871 68 45 50
-3.563769 9.175645 66.421440 69 46 50
-3.563947 9.319295 66.424774 69 47 51
-3.563989 9.462593 66.425537 69 48 52
-3.563877 9.605483 66.423454 70 49 53
-3.563601 9.747915 66.418320 71 49 54
-3.563154 9.889850 66.409981 72 49 55
-3.562530 10.031251 66.398354 72 49 55
-3.561729 10.172096 66.383430 72 49 55
-3.560754 10.312372 66.365257 70 48 54
-3.559611 10.452076 66.343948 69 47 52
-3.558309 10.591215 66.319672 68 45 51
-3.556859 10.729807 66.292664 66 44 49
-3.555279 10.867879 66.263206 66 43 49
-3.553583 11.005467 66.231598 66 43 49
-3.551790 11.142616 66.198181 68 45 51
-3.549920 11.279376 66.163330 69 46 52
-3.547992 11.415796 66.127388 69 46 52
-3.546024 11.551935 66.090714 68 46 52
-3.544035 11.687846 66.053650 67 44 52
-3.542042 11.823581 66.016487 67 44 52
-3.540057 11.959186 65.979500 69 44 53
-3.538093 12.094701 65.942894 71 45 55
-3.536157 12.230156 65.906815 72 45 55
-3.534255 12.365575 65.871368 72 45 54
-3.532389 12.500966 65.836578 71 43 52
-3.530557 12.636331 65.802437 69 43 49
-3.528755 12.771656 65.768852 68 42 47
-3.526976 12.906922 65.735695 67 42 46
-3.525212 13.042099 65.702812 66 42 45
-3.523452 13.177150 65.670013 67 44 45
-3.521685 13.312034 65.637077 68 45 46
-3.519899 13.446705 65.603806 68 45 46
-3.518085 13.581120 65.569984 67 44 45
-3.516231 13.715236 65.535439 65 43 44
-3.514330 13.849016 65.500000 64 42 43
-3.512375 13.982430 65.463562 63 41 42
-3.510361 14.115447 65.426025 63 42 42
-3.508287 14.248064 65.387383 64 42 42
-3.506157 14.380278 65.347672 63 42 42
-3.503973 14.512101 65.306969 63 42 42
-3.501744 14.643559 65.265419 63 41 41
-3.499478 14.774683 65.223190 62 41 41
-3.497187 14.905519 65.180496 61 41 42
-3.494886 15.036126 65.137611 60 40 41
-3.492588 15.166559 65.094772 58 40 40
-3.490307 15.296886 65.052261 57 39 40
-3.488058 15.427171 65.010345 57 39 39
-3.485854 15.557473 64.969261 56 38 39
-3.483705 15.687849 64.929214 56 38 40
-3.481620 15.818339 64.890343 56 38 40
-3.479602 15.948972 64.852737 55 38 39
-3.477652 16.079758 64.816399 54 38 38
-3.475765 16.210678 64.781227 52 37 37
-3.473931 16.341698 64.747047 51 37 36
-3.472135 16.472752 64.713577 51 36 36
-3.470357 16.603743 64.680428 51 36 36
-3.468570 16.734550 64.647125 52 35 36
-3.466745 16.865032 64.613121 52 35 36
-3.464850 16.995024 64.577805 52 35 35
-3.462851 17.124342 64.540535 52 35 35
-3.460711 17.252804 64.500664 51 35 36
-3.458399 17.380222 64.457558 51 35 36
-3.455882 17.506424 64.410652 51 34 36
-3.453137 17.631256 64.359497 51 34 36
-3.450146 17.754599 64.303734 52 35 37
-3.446897 17.876369 64.243195 52 35 37
-3.443391 17.996531 64.177841 52 35 37
-3.439636 18.115103 64.107864 52 35 37
-3.435653 18.232159 64.033623 53 35 37
-3.431468 18.347820 63.955635 54 36 37
-3.427121 18.462265 63.874599 54 37 37
-3.422653 18.575708 63.791325 53 38 37
-3.418113 18.688402 63.706722 54 38 38
-3.413554 18.800619 63.621738 54 39 38
-3.409025 18.912640 63.537331 55 39 38
-3.404576 19.024744 63.454407 55 39 38
-3.400252 19.137194 63.373814 55 39 38
-3.396091 19.250219 63.296261 54 38 37
-3.392125 19.364025 63.222343 53 38 36
-3.388376 19.478762 63.152477 52 37 35
-3.384859 19.594538 63.086926 52 38 35
-3.123649 -8.487988 60.655476 118 69 76
-3.126740 -8.365505 60.715492 118 69 75
-3.129951 -8.243077 60.777828 118 69 73
-3.133275 -8.120675 60.842373 119 69 72
-3.136707 -7.998271 60.909019 120 69 70
-3.140240 -7.875834 60.977627 122 68 69
-3.143867 -7.753331 61.048058 122 68 67
-3.147580 -7.630733 61.120155 121 66 66
-3.151371 -7.508012 61.193783 120 65 64
-3.155236 -7.385144 61.268818 119 64 63
-3.159166 -7.262105 61.345146 119 64 65
-3.163159 -7.138877 61.422688 119 64 68
-3.167212 -7.015448 61.501385 119 65 70
-3.171323 -6.891805 61.581207 120 65 73
-3.175491 -6.767941 61.662148 120 65 74
-3.179718 -6.643849 61.744225 120 65 74
-3.184005 -6.519528 61.827473 120 64 74
-3.188355 -6.394973 61.911938 119 62 73
-3.192770 -6.270182 61.997665 118 62 71
-3.197253 -6.145152 62.084709 117 61 70
-3.201805 -6.019877 62.173111 117 61 68
-3.206429 -5.894352 62.262894 116 61 67
-3.211124 -5.768569 62.354065 117 62 65
-3.215890 -5.642517 62.446609 118 63 65
-3.220724 -5.516183 62.540485 120 64 66
-3.225624 -5.389554 62.635624 121 65 67
-3.230583 -5.262612 62.731937 123 65 68
-3.235598 -5.135341 62.829304 122 64 68
-3.240660 -5.007725 62.927597 121 63 67
-3.245762 -4.879745 63.026672 120 62 67
-3.250896 -4.751385 63.126373 119 61 67
-3.256055 -4.622629 63.226543 118 61 68
-3.261230 -4.493464 63.327026 117 61 68
-3.266412 -4.363876 63.427670 117 62 69
-3.271597 -4.233857 63.528336 117 64 71
-3.276775 -4.103395 63.628891 117 65 73
-3.281941 -3.972486 63.729210 117 66 73
-3.287090 -3.841124 63.829182 116 65 72
-3.292215 -3.709305 63.928711 114 64 70
-3.297312 -3.577025 64.027679 113 63 69
-3.302376 -3.444284 64.126015 113 63 69
-3.307402 -3.311081 64.223602 111 62 67
-3.312383 -3.177416 64.320335 111 61 65
-3.317317 -3.043289 64.416130 111 61 65
-3.322196 -2.908701 64.510872 110 60 65
-3.327016 -2.773655 64.604469 110 59 65
-3.331770 -2.638155 64.696793 109 58 65
-3.336456 -2.502204 64.787781 108 57 65
-3.341067 -2.365809 64.877319 108 56 64
-3.345601 -2.228976 64.965363 107 56 64
-3.350056 -2.091714 65.051865 106 55 62
-3.354430 -1.954033 65.136810 104 55 60
-3.358726 -1.815942 65.220215 102 53 58
-3.362944 -1.677453 65.302139 99 53 57
-3.367090 -1.538578 65.382645 99 54 58
-3.371169 -1.399329 65.461853 98 55 60
-3.375187 -1.259714 65.539871 97 55 59
-3.379151 -1.119746 65.616844 97 55 59
-3.383068 -0.979432 65.692894 96 56 59
-3.386943 -0.838780 65.768150 94 55 56
-3.390783 -0.697796 65.842705 93 53 55
-3.394590 -0.556486 65.916634 93 53 54
-3.398365 -0.414853 65.989944 92 51 54
-3.402107 -0.272901 66.062607 92 50 54
-3.405812 -0.130634 66.134544 91 50 54
-3.409471 0.011942 66.205605 90 50 54
-3.413076 0.154823 66.275604 90 49 55
-3.416613 0.297999 66.344284 89 49 57
-3.420068 0.441461 66.411369 88 49 58
-3.423424 0.585195 66.476532 88 50 59
-3.426663 0.729186 66.539444 88 50 59
-3.429768 0.873413 66.599731 87 51 59
-3.432722 1.017855 66.657082 86 51 59
-3.435506 1.162488 66.711159 86 51 58
-3.438107 1.307284 66.761665 85 51 57
-3.440512 1.452214 66.808350 84 51 55
-3.442708 1.597249 66.850998 82 50 54
-3.444689 1.742359 66.889458 80 50 53
-3.446447 1.887514 66.923607 78 50 53
-3.447981 2.032682 66.953384 77 50 53
-3.449289 2.177838 66.978798 75 49 54
-3.450374 2.322952 66.999863 74 49 55
-3.451239 2.467999 67.016655 72 49 55
-3.451890 2.612957 67.029289 70 49 55
-3.452332 2.757803 67.037888 67 48 55
-3.452575 2.902519 67.042603 66 49 56
-3.452626 3.047085 67.043594 69 52 62
-3.452495 3.191487 67.041039 74 57 69
-3.452188 3.335709 67.035095 77 58 72
-3.451717 3.479738 67.025940 80 61 75
-3.451089 3.623564 67.013741 86 66 81
-3.450312 3.767175 66.998657 88 66 80
-3.449395 3.910562 66.980850 84 61 74
-3.448345 4.053716 66.960464 79 56 67
-3.447171 4.196630 66.937660 75 53 62
-3.445880 4.339300 66.912590 71 50 57
-3.444481 4.481720 66.885429 67 46 53
-3.442983 4.623892 66.856346 64 43 51
-3.441396 4.765814 66.825531 63 42 49
-3.439733 4.907493 66.793221 63 41 49
-3.438004 5.048938 66.759644 63 39 49
-3.436224 5.190161 66.725090 63 39 48
-3.434409 5.331182 66.689857 63 40 48
-3.432578 5.472022 66.654282 64 42 48
-3.430748 5.612712 66.618744 66 44 49
-3.428939 5.753285 66.583633 68 47 51
-3.427173 5.893781 66.549347 69 48 53
-3.425472 6.034242 66.516312 68 48 52
-3.423856 6.174714 66.484932 66 47 51
-3.422346 6.315248 66.455612 66 46 50
-3.420961 6.455890 66.428719 66 45 51
-3.419718 6.596688 66.404572 68 46 52
-3.418630 6.737690 66.383438 69 46 52
-3.417707 6.878933 66.365524 71 47 51
-3.416956 7.020452 66.350945 71 47 49
-3.416379 7.162272 66.339737 71 46 48
-3.415974 7.304412 66.331871 70 45 47
-3.415734 7.446878 66.327209 68 44 46
-3.415647 7.589664 66.325523 67 43 45
-3.415699 7.732756 66.326523 67 43 46
-3.415870 7.876130 66.329857 68 44 48
-3.416140 8.019749 66.335098 69 45 49
-3.416484 8.163568 66.341782 70 45 51
-3.416878 8.307534 66.349419 69 45 51
-3.417293 8.451590 66.357498 69 45 50
-3.417705 8.595669 66.365486 68 44 49
-3.418086 8.739703 66.372879 67 44 49
-3.418411 8.883626 66.379189 67 44 49
