ply
format ascii 1.0
element vertex 1235
property float x
property float y
property float z
property uchar red
property uchar green
property uchar blue
end_header
6.753991 -7.147921 65.124123 75 47 49
6.751272 -7.004715 65.097908 75 46 49
6.748567 -6.861636 65.071831 75 45 50
6.745847 -6.718653 65.045601 76 46 50
6.743080 -6.575739 65.018921 78 47 52
6.740234 -6.432864 64.991478 81 48 54
6.737279 -6.290006 64.962990 84 50 56
6.734185 -6.147143 64.933151 86 51 57
6.730925 -6.004260 64.901711 88 51 58
6.727474 -5.861348 64.868439 90 51 58
6.723815 -5.718401 64.833160 91 50 58
6.719936 -5.575425 64.795761 92 49 57
6.715828 -5.432424 64.756149 93 50 57
6.711491 -5.289413 64.714325 92 50 56
6.706927 -5.146409 64.670326 92 50 55
6.702147 -5.003433 64.624237 92 50 54
6.697164 -4.860509 64.576187 93 51 55
6.691998 -4.717662 64.526367 94 52 57
6.686666 -4.574917 64.474960 96 53 58
6.681195 -4.432302 64.422211 98 54 60
6.675608 -4.289838 64.368332 100 55 60
6.669929 -4.147551 64.313576 101 55 61
6.664182 -4.005458 64.258156 103 57 61
6.658388 -3.863577 64.202293 104 57 61
6.652569 -3.721923 64.146179 106 58 61
6.646741 -3.580506 64.089989 107 59 61
6.640920 -3.439335 64.033859 107 59 61
6.635117 -3.298414 63.977898 107 59 62
6.629341 -3.157749 63.922215 107 59 63
6.623600 -3.017339 63.866859 109 59 64
6.617900 -2.877185 63.811897 112 61 66
6.612243 -2.737286 63.757347 116 64 69
6.606631 -2.597640 63.703236 119 65 72
6.601067 -2.458245 63.649578 121 66 73
6.595549 -2.319098 63.596375 123 66 74
6.590079 -2.180196 63.543633 125 65 75
6.584657 -2.041537 63.491356 126 66 76
6.579284 -1.903116 63.439545 128 67 77
6.573958 -1.764932 63.388195 129 69 77
6.568681 -1.626982 63.337307 129 72 78
6.563451 -1.489261 63.286877 128 72 78
6.558267 -1.351767 63.236897 128 73 78
6.553128 -1.214498 63.187347 128 74 78
6.548033 -1.077448 63.138210 129 75 80
6.542976 -0.940617 63.089451 131 77 83
6.537956 -0.804000 63.041046 132 77 85
6.532967 -0.667595 62.992943 132 77 87
6.528007 -0.531399 62.945114 134 79 90
6.523069 -0.395412 62.897503 137 82 93
6.518151 -0.259630 62.850086 139 85 95
6.513250 -0.124053 62.802826 142 89 97
6.508362 0.011320 62.755695 147 94 100
6.503488 0.146490 62.708694 148 97 99
6.498627 0.281459 62.661827 146 97 96
6.493784 0.416226 62.615124 144 96 95
6.488962 0.550794 62.568630 144 97 96
6.484169 0.685164 62.522415 144 97 97
6.479414 0.819340 62.476562 143 96 97
6.474707 0.953326 62.431183 141 95 96
6.470062 1.087126 62.386398 140 94 96
6.465493 1.220747 62.342335 139 93 95
6.461014 1.354198 62.299152 139 92 94
6.456642 1.487486 62.256996 139 92 94
6.452393 1.620624 62.216022 139 91 93
6.448283 1.753623 62.176392 138 91 93
6.444326 1.886496 62.138245 138 91 93
6.440539 2.019258 62.101727 137 89 91
6.436934 2.151923 62.066963 134 87 89
6.433523 2.284507 62.034069 133 86 90
6.430315 2.417026 62.003139 135 87 92
6.427318 2.549495 61.974243 138 89 94
6.424538 2.681930 61.947433 138 89 94
6.421977 2.814345 61.922737 136 87 93
6.419635 2.946755 61.900158 135 87 91
6.417510 3.079171 61.879665 135 88 92
6.415598 3.211606 61.861233 135 88 94
6.413891 3.344068 61.844780 132 85 92
6.412382 3.476566 61.830223 130 83 90
6.411059 3.609107 61.817467 134 87 94
6.409911 3.741694 61.806396 141 93 101
6.408925 3.874332 61.796890 143 95 102
6.408088 4.007022 61.788822 144 95 101
6.407388 4.139765 61.782070 147 95 102
6.406810 4.272562 61.776497 149 96 102
6.406343 4.405409 61.771996 151 96 102
6.405974 4.538308 61.768440 152 97 102
6.405694 4.671256 61.765739 150 94 98
6.405491 4.804249 61.763779 144 88 92
6.405354 4.937286 61.762466 143 87 89
6.405276 5.070363 61.761703 146 90 90
6.405244 5.203475 61.761398 147 92 90
6.405249 5.336615 61.761440 145 91 89
6.405278 5.469777 61.761726 141 89 88
6.405319 5.602951 61.762123 138 89 88
6.405358 5.736124 61.762501 137 89 92
6.405379 5.869282 61.762699 138 91 98
6.405365 6.002408 61.762558 140 94 104
6.405297 6.135482 61.761906 141 95 108
6.405157 6.268483 61.760559 140 93 107
6.404928 6.401390 61.758350 142 93 107
6.404593 6.534177 61.755119 145 96 109
6.404137 6.666826 61.750725 148 97 107
6.403550 6.799316 61.745060 153 99 106
6.402824 6.931632 61.738064 156 101 105
6.401958 7.063764 61.729713 152 96 98
6.400956 7.195705 61.720051 146 90 90
6.399826 7.327459 61.709156 144 87 87
6.398585 7.459037 61.697189 142 85 85
6.397253 7.590455 61.684349 140 84 84
6.395856 7.721739 61.670876 139 82 83
6.394423 7.852921 61.657063 137 81 84
6.392989 7.984041 61.643227 136 81 87
6.391584 8.115140 61.629688 135 81 90
6.390246 8.246265 61.616783 135 82 92
6.389007 8.377465 61.604832 136 85 96
6.387898 8.508788 61.594139 137 87 100
6.386947 8.640278 61.584969 137 87 102
6.386178 8.771977 61.577557 135 87 101
6.385611 8.903927 61.572083 135 87 101
6.385259 9.036158 61.568695 138 89 102
6.385132 9.168697 61.567474 143 93 105
6.385235 9.301566 61.568466 147 97 107
6.385569 9.434780 61.571682 149 97 106
6.386128 9.568345 61.577072 148 96 104
6.386906 9.702267 61.584576 146 95 102
6.387893 9.836542 61.594093 143 93 100
6.389077 9.971167 61.605511 139 90 96
6.390444 10.106129 61.618690 135 87 92
6.391979 10.241417 61.633492 132 85 90
6.393666 10.377017 61.649761 133 86 91
6.395490 10.512911 61.667347 136 89 93
6.397434 10.649080 61.686089 137 90 93
6.399480 10.785503 61.705818 138 90 93
6.401612 10.922157 61.726372 138 91 93
6.403811 11.059016 61.747578 138 90 92
6.406059 11.196053 61.769253 138 88 91
6.408337 11.333234 61.791214 136 86 88
6.410623 11.470526 61.813259 135 84 86
6.412896 11.607889 61.835178 136 84 86
6.415133 11.745280 61.856747 135 83 84
6.417308 11.882651 61.877728 131 79 80
6.419399 12.019953 61.897881 128 75 77
6.421376 12.157126 61.916943 128 76 78
6.423214 12.294117 61.934669 127 75 79
6.424888 12.430865 61.950809 126 74 78
6.426371 12.567311 61.965107 125 72 77
6.427640 12.703395 61.977345 124 70 76
6.428674 12.839062 61.987312 123 69 76
6.429453 12.974258 61.994831 122 68 77
6.429963 13.108939 61.999748 121 69 78
6.430193 13.243062 62.001961 120 70 79
6.430135 13.376596 62.001400 121 72 80
6.429786 13.509518 61.998039 122 74 81
6.429147 13.641809 61.991879 122 76 83
6.428224 13.773465 61.982979 123 78 83
6.427026 13.904487 61.971424 124 79 84
6.425564 14.034883 61.957325 124 80 86
6.969194 -12.334219 65.830849 39 32 34
6.966979 -12.188434 65.809921 38 32 34
6.964967 -12.043092 65.790924 38 31 33
6.963154 -11.898170 65.773796 39 32 33
6.961530 -11.753642 65.758453 40 33 33
6.960080 -11.609470 65.744751 41 34 33
6.958785 -11.465613 65.732521 42 35 34
6.957619 -11.322019 65.721512 44 35 34
6.956552 -11.178630 65.711426 44 35 34
6.955549 -11.035388 65.701958 44 35 34
6.954572 -10.892226 65.692726 45 34 35
6.953580 -10.749083 65.683365 45 33 34
6.952533 -10.605893 65.673470 47 33 34
6.951390 -10.462603 65.662674 49 33 34
6.950115 -10.319163 65.650627 52 34 36
6.948674 -10.175532 65.637016 55 36 37
6.947042 -10.031684 65.621597 56 38 38
6.945197 -9.887600 65.604172 57 38 38
6.943128 -9.743277 65.584633 57 38 38
6.940832 -9.598723 65.562943 57 38 38
6.938314 -9.453960 65.539162 57 38 37
6.935587 -9.309021 65.513405 56 38 37
6.932673 -9.163943 65.485870 56 38 37
6.929597 -9.018774 65.456818 56 38 37
6.926391 -8.873564 65.426529 56 37 37
6.923089 -8.728363 65.395340 59 39 39
6.919728 -8.583224 65.363602 62 41 42
6.916344 -8.438193 65.331627 64 42 44
6.912970 -8.293313 65.299759 64 41 43
6.909636 -8.148616 65.268257 66 42 44
6.906365 -8.004129 65.237366 71 46 48
6.903177 -7.859870 65.207260 74 48 51
6.900084 -7.715847 65.178040 75 48 51
6.897090 -7.572058 65.149757 74 47 50
6.894191 -7.428493 65.122368 74 47 49
6.891376 -7.285136 65.095787 73 46 48
6.888631 -7.141965 65.069855 73 45 48
6.885931 -6.998951 65.044342 74 45 48
6.883248 -6.856065 65.019005 74 44 48
6.880552 -6.713276 64.993538 76 45 49
6.877810 -6.570552 64.967636 79 47 51
6.874987 -6.427865 64.940971 82 49 53
6.872050 -6.285188 64.913231 85 51 56
6.868967 -6.142499 64.884102 88 52 57
6.865709 -5.999784 64.853333 90 52 58
6.862250 -5.857030 64.820663 92 51 58
6.858573 -5.714235 64.785927 92 50 58
6.854662 -5.571400 64.748985 92 50 57
6.850511 -5.428533 64.709770 92 50 56
6.846115 -5.285647 64.668251 92 49 56
6.841480 -5.142760 64.624466 92 49 55
6.836615 -4.999893 64.578514 93 49 55
6.831535 -4.857072 64.530525 93 51 56
6.826260 -4.714323 64.480690 95 52 58
6.820809 -4.571671 64.429207 97 53 60
6.815208 -4.429143 64.376305 99 54 62
6.809484 -4.286766 64.322227 102 55 63
6.803659 -4.144560 64.267212 103 56 63
6.797760 -4.002549 64.211487 103 55 62
6.791810 -3.860748 64.155281 104 56 61
6.785830 -3.719173 64.098793 105 57 61
6.779838 -3.577836 64.042198 106 58 60
6.773850 -3.436744 63.985634 107 58 61
6.767879 -3.295905 63.929226 107 58 62
6.761933 -3.155321 63.873070 108 59 63
6.756022 -3.014994 63.817234 109 60 65
6.750150 -2.874925 63.761765 112 62 67
6.744320 -2.735112 63.706699 116 65 69
6.738536 -2.595553 63.652058 119 66 71
6.732798 -2.456248 63.597855 121 66 73
6.727107 -2.317192 63.544098 123 66 73
6.721464 -2.178383 63.490795 124 65 74
6.715869 -2.039819 63.437950 125 65 75
6.710324 -1.901497 63.385567 126 66 76
6.704828 -1.763414 63.333652 128 68 77
6.699382 -1.625566 63.282211 129 71 78
6.693985 -1.487952 63.231236 128 72 78
6.688638 -1.350567 63.180729 127 73 77
6.683340 -1.213408 63.130680 128 74 77
6.678088 -1.076473 63.081070 129 75 79
6.672881 -0.939759 63.031883 131 77 83
6.667716 -0.803261 62.983089 133 78 85
6.662588 -0.666977 62.934654 135 78 88
6.657494 -0.530905 62.886539 137 81 92
6.652430 -0.395042 62.838707 139 84 95
6.647393 -0.259386 62.791122 140 86 95
6.642378 -0.123936 62.743755 140 88 96
6.637384 0.011309 62.696583 141 91 96
6.632410 0.146352 62.649593 142 93 94
6.627456 0.281194 62.602798 142 95 93
6.622525 0.415835 62.556225 142 96 94
6.617622 0.550277 62.509914 143 98 95
6.612754 0.684523 62.463924 144 98 97
6.607929 0.818577 62.418350 144 98 98
6.603158 0.952442 62.373283 144 97 98
6.598455 1.086123 62.328857 143 97 99
6.593832 1.219628 62.285187 144 97 98
6.589306 1.352965 62.242435 144 96 98
6.584892 1.486142 62.200745 144 96 97
6.580608 1.619172 62.160275 143 95 97
6.576469 1.752066 62.121178 142 94 96
6.572492 1.884838 62.083607 143 95 97
6.568690 2.017501 62.047703 141 93 96
6.565080 2.150073 62.013592 138 90 93
6.561671 2.282568 61.981396 136 89 93
6.558475 2.415001 61.951202 137 90 94
6.555499 2.547391 61.923092 140 92 97
6.552748 2.679751 61.897106 140 92 98
6.550226 2.812098 61.873283 138 90 96
6.547931 2.944444 61.851608 136 89 94
6.545862 3.076803 61.832066 136 89 94
6.544014 3.209186 61.814613 135 89 94
6.542379 3.341602 61.799164 133 87 92
6.540946 3.474059 61.785637 134 87 93
6.539707 3.606565 61.773926 141 94 99
6.538647 3.739122 61.763908 148 101 106
6.537753 3.871735 61.755463 149 101 105
6.537010 4.004404 61.748451 148 98 103
6.536406 4.137130 61.742744 149 98 102
6.535926 4.269914 61.738216 151 98 103
6.535558 4.402752 61.734737 154 100 104
6.535290 4.535645 61.732201 156 102 105
6.535110 4.668591 61.730499 155 101 103
6.535007 4.801585 61.729530 152 97 98
6.534972 4.934627 61.729198 149 94 94
6.534995 5.067712 61.729416 149 93 92
6.535067 5.200837 61.730095 149 92 92
6.535176 5.333996 61.731129 146 90 90
6.535312 5.467181 61.732414 143 88 89
6.535462 5.600383 61.733826 141 87 89
6.535611 5.733592 61.735237 139 87 92
6.535744 5.866791 61.736488 139 89 95
6.535843 5.999965 61.737423 139 89 98
6.535889 6.133094 61.737862 139 89 100
6.535864 6.266156 61.737629 138 88 100
6.535749 6.399128 61.736538 139 88 99
6.535526 6.531989 61.734436 142 92 101
6.535180 6.664714 61.731163 149 96 103
6.534698 6.797285 61.726612 154 100 106
6.534073 6.929684 61.720711 155 100 104
6.533302 7.061900 61.713428 149 94 97
6.532388 7.193926 61.704792 144 89 90
6.531340 7.325766 61.694893 142 86 88
6.530173 7.457427 61.683868 139 84 85
6.528908 7.588925 61.671921 138 84 84
6.527571 7.720288 61.659286 137 82 83
6.526191 7.851545 61.646255 136 82 83
6.524803 7.982735 61.633141 135 82 85
6.523440 8.113900 61.620270 134 82 88
6.522139 8.245088 61.607979 135 84 91
6.520934 8.376346 61.596592 135 86 95
6.519856 8.507720 61.586411 136 88 99
6.518934 8.639258 61.577709 137 88 102
6.518194 8.771004 61.570717 135 87 101
6.517655 8.902993 61.565628 133 85 99
6.517333 9.035261 61.562580 138 89 102
6.517237 9.167833 61.561668 146 97 108
6.517371 9.300732 61.562939 151 101 110
6.517736 9.433969 61.566391 154 103 111
6.518329 9.567555 61.571991 156 105 111
6.519141 9.701492 61.579659 156 104 111
6.520163 9.835778 61.589310 152 101 108
6.521380 9.970406 61.600811 145 95 101
6.522780 10.105365 61.614033 136 87 94
6.524345 10.240642 61.628819 132 84 90
6.526061 10.376220 61.645023 132 85 90
6.527908 10.512080 61.662472 133 86 91
6.529870 10.648202 61.681000 135 89 92
6.531928 10.784564 61.700443 137 90 93
6.534063 10.921139 61.720615 138 91 93
6.536258 11.057901 61.741348 139 92 93
6.538493 11.194819 61.762455 138 90 91
6.540746 11.331862 61.783737 136 87 88
6.542996 11.468991 61.804989 135 85 86
6.545220 11.606167 61.826004 137 86 87
6.547396 11.743345 61.846558 136 84 85
6.549498 11.880478 61.866409 131 79 80
6.551500 12.017513 61.885319 128 76 77
6.553376 12.154396 61.903038 129 77 80
6.555099 12.291070 61.919319 129 77 81
6.556643 12.427475 61.933907 128 74 79
6.557985 12.563553 61.946575 127 73 79
6.559099 12.699244 61.957096 125 71 78
6.559964 12.834496 61.965271 123 69 77
6.560563 12.969257 61.970928 121 68 77
6.560881 13.103480 61.973934 120 68 78
6.560907 13.237128 61.974178 120 70 78
6.560636 13.370171 61.971619 122 72 80
6.560064 13.502584 61.966213 122 75 81
6.559193 13.634351 61.957985 122 76 82
6.558029 13.765470 61.946999 122 77 84
6.556583 13.895942 61.933338 123 78 85
6.554867 14.025777 61.917130 123 79 86
7.105136 -12.323870 65.775612 38 32 34
7.103066 -12.178531 65.756454 38 31 33
7.101179 -12.033583 65.738976 38 31 33
7.099469 -11.889008 65.723145 39 31 32
7.097927 -11.744780 65.708870 40 32 32
7.096538 -11.600864 65.696014 42 34 33
7.095284 -11.457221 65.684410 43 35 33
7.094141 -11.313803 65.673820 44 35 33
7.093077 -11.170558 65.663971 44 35 33
7.092060 -11.027426 65.654556 44 34 33
7.091050 -10.884347 65.645203 44 33 33
7.090010 -10.741262 65.635574 44 31 32
7.088898 -10.598112 65.625282 45 31 32
7.087676 -10.454844 65.613976 48 32 33
7.086309 -10.311413 65.601318 51 33 35
7.084764 -10.167782 65.587021 54 35 36
7.083017 -10.023926 65.570847 56 37 37
7.081049 -9.879831 65.552628 57 38 38
7.078851 -9.735498 65.532272 57 38 38
7.076421 -9.590940 65.509781 57 38 38
7.073766 -9.446177 65.485207 57 38 37
7.070903 -9.301247 65.458694 56 38 36
7.067853 -9.156189 65.430466 56 37 36
7.064646 -9.011052 65.400772 56 37 37
7.061316 -8.865890 65.369942 56 37 37
7.057899 -8.720752 65.338310 59 39 40
7.054433 -8.575691 65.306229 62 42 43
7.050956 -8.430755 65.274033 64 42 44
7.047502 -8.285985 65.242058 63 40 43
7.044101 -8.141415 65.210579 65 41 44
7.040779 -7.997070 65.179825 70 45 48
7.037555 -7.852966 65.149979 73 47 51
7.034438 -7.709109 65.121124 73 47 50
7.031434 -7.565498 65.093315 73 46 49
7.028537 -7.422119 65.066498 72 45 48
7.025736 -7.278955 65.040565 72 45 47
7.023011 -7.135982 65.015335 72 44 47
7.020338 -6.993168 64.990593 73 43 46
7.017688 -6.850483 64.966064 74 43 46
7.015026 -6.707893 64.941422 76 44 48
7.012317 -6.565365 64.916344 80 46 50
7.009525 -6.422868 64.890495 83 49 53
7.006613 -6.280376 64.863533 87 51 55
7.003548 -6.137866 64.835159 89 53 57
7.000298 -5.995320 64.805077 92 54 58
6.996838 -5.852727 64.773041 93 54 59
6.993145 -5.710084 64.738861 93 52 58
6.989207 -5.567391 64.702400 92 51 57
6.985013 -5.424657 64.663574 92 50 55
6.980561 -5.281896 64.622360 91 49 54
6.975855 -5.139125 64.578796 92 48 54
6.970907 -4.996368 64.532990 93 49 55
6.965729 -4.853650 64.485054 94 51 57
6.960343 -4.710996 64.435196 96 52 59
6.954772 -4.568436 64.383621 98 53 61
6.949040 -4.425996 64.330559 101 54 64
6.943175 -4.283702 64.276260 104 56 65
6.937203 -4.141579 64.220978 104 55 64
6.931150 -3.999647 64.164940 103 54 62
6.925041 -3.857926 64.108383 104 54 61
6.918897 -3.716430 64.051506 105 56 60
6.912738 -3.575171 63.994492 105 56 60
6.906581 -3.434159 63.937492 106 57 61
6.900438 -3.293399 63.880627 106 58 62
6.894320 -3.152896 63.823990 108 59 63
6.888235 -3.012652 63.767654 110 61 65
6.882189 -2.872667 63.711681 113 63 67
6.876184 -2.732939 63.656094 116 66 70
6.870224 -2.593468 63.600918 118 67 71
6.864311 -2.454252 63.546177 121 67 72
6.858445 -2.315287 63.491871 123 66 73
6.852627 -2.176572 63.438011 123 65 73
6.846858 -2.038104 63.384605 124 65 74
6.841139 -1.899880 63.331665 124 65 75
6.835471 -1.761897 63.279194 125 66 75
6.829855 -1.624153 63.227200 126 68 76
6.824291 -1.486645 63.175694 126 71 75
6.818779 -1.349368 63.124668 127 73 75
6.813321 -1.212322 63.074135 127 73 76
6.807912 -1.075501 63.024067 129 75 78
6.802554 -0.938902 62.974464 132 78 83
6.797242 -0.802524 62.925289 135 80 87
6.791975 -0.666361 62.876526 139 82 90
6.786747 -0.530412 62.828129 141 84 93
6.781556 -0.394674 62.780079 141 85 96
6.776398 -0.259144 62.732323 141 86 96
6.771269 -0.123820 62.684845 140 87 96
6.766168 0.011299 62.637623 139 89 95
6.761093 0.146215 62.590641 139 92 93
6.756045 0.280929 62.543911 140 94 92
6.751026 0.415444 62.497448 141 96 93
6.746041 0.549761 62.451298 142 98 94
6.741096 0.683883 62.405521 144 99 96
6.736200 0.817814 62.360195 145 100 98
6.731365 0.951558 62.315430 147 100 100
6.726601 1.085121 62.271332 147 101 101
6.721924 1.218509 62.228035 148 101 102
6.717350 1.351731 62.185688 150 101 103
6.712894 1.484797 62.144440 150 100 103
6.708574 1.617718 62.104446 147 98 100
6.704406 1.750506 62.065865 146 96 99
6.700407 1.883175 62.028843 145 96 100
6.696593 2.015740 61.993534 144 96 99
6.692977 2.148217 61.960060 142 94 98
6.689572 2.280621 61.928539 140 91 97
6.686388 2.412969 61.899067 139 90 96
6.683435 2.545278 61.871723 139 91 97
6.680716 2.677562 61.846550 140 91 98
6.678234 2.809839 61.823574 140 91 97
6.675990 2.942120 61.802795 140 91 97
6.673979 3.074420 61.784187 140 92 97
6.672198 3.206750 61.767696 139 92 96
6.670637 3.339119 61.753242 138 91 95
6.669285 3.471535 61.740734 139 91 96
6.668132 3.604004 61.730061 143 95 99
6.667163 3.736530 61.721092 148 100 103
6.666365 3.869116 61.713696 149 101 104
6.665721 4.001764 61.707737 148 98 101
6.665218 4.134472 61.703079 148 98 101
6.664841 4.267242 61.699593 151 99 102
6.664577 4.400072 61.697147 154 102 105
6.664414 4.532959 61.695637 158 105 108
6.664340 4.665902 61.694946 160 106 108
6.664343 4.798898 61.694984 159 105 106
6.664416 4.931946 61.695660 156 100 101
6.664549 5.065042 61.696884 151 94 96
6.664731 5.198181 61.698570 147 90 92
6.664953 5.331360 61.700630 145 88 91
6.665204 5.464571 61.702950 143 86 90
6.665471 5.597806 61.705421 142 86 90
6.665739 5.731053 61.707905 141 86 92
6.665993 5.864298 61.710258 140 88 94
6.666215 5.997525 61.712311 140 89 96
6.666386 6.130713 61.713894 141 90 97
6.666486 6.263841 61.714817 142 91 98
6.666494 6.396885 61.714897 146 96 100
6.666393 6.529823 61.713963 153 102 107
6.666166 6.662630 61.711857 158 107 111
6.665799 6.795286 61.708462 161 108 113
6.665284 6.927773 61.703690 156 103 108
6.664617 7.060078 61.697510 148 94 99
6.663798 7.192194 61.689938 142 88 92
6.662839 7.324122 61.681053 139 85 89
6.661753 7.455870 61.670998 138 84 86
6.660560 7.587453 61.659954 137 83 85
6.659286 7.718896 61.648170 137 84 85
6.657964 7.850229 61.635925 136 84 84
6.656625 7.981490 61.623535 135 84 85
6.655306 8.112721 61.611324 134 84 87
6.654044 8.243970 61.599632 135 85 90
6.652872 8.375283 61.588783 136 87 94
6.651824 8.506707 61.579079 138 89 98
6.650929 8.638290 61.570805 138 90 102
6.650215 8.770074 61.564190 135 87 100
6.649701 8.902097 61.559429 131 83 95
6.649403 9.034393 61.556671 135 87 99
6.649331 9.166989 61.556000 144 95 105
6.649489 9.299906 61.557472 149 101 109
6.649880 9.433157 61.561092 156 106 113
6.650499 9.566751 61.566814 163 113 119
6.651337 9.700692 61.574577 164 114 120
6.652385 9.834974 61.584274 159 108 115
6.653628 9.969592 61.595787 148 98 105
6.655052 10.104535 61.608971 138 89 96
6.656641 10.239786 61.623676 134 86 92
6.658375 10.375329 61.639732 133 86 92
6.660238 10.511144 61.656979 133 87 92
6.662210 10.647207 61.675240 135 89 93
6.664274 10.783497 61.694336 137 92 94
6.666407 10.919984 61.714085 139 93 95
6.668591 11.056640 61.734310 140 93 95
6.670806 11.193434 61.754807 138 91 92
6.673029 11.330331 61.775387 134 86 87
6.675238 11.467293 61.795837 134 85 86
6.677410 11.604279 61.815945 136 86 88
6.679520 11.741241 61.835480 136 85 86
6.681543 11.878135 61.854210 131 80 81
6.683453 12.014906 61.871891 130 79 80
6.685223 12.151498 61.888275 131 79 81
6.686827 12.287856 61.903126 130 78 81
6.688239 12.423921 61.916195 130 77 81
6.689434 12.559633 61.927254 128 74 80
6.690388 12.694939 61.936089 125 70 78
6.691081 12.829782 61.942505 123 68 77
6.691495 12.964110 61.946339 121 67 77
6.691616 13.097883 61.947460 120 67 77
6.691434 13.231061 61.945774 121 69 78
6.690944 13.363617 61.941238 123 73 80
6.690144 13.495525 61.933826 123 75 81
6.689034 13.626775 61.923561 122 75 82
6.687625 13.757362 61.910511 122 76 83
6.685925 13.887290 61.894775 123 77 85
6.683949 14.016570 61.876484 123 78 87
7.239048 -12.168835 65.704102 38 31 33
7.237269 -12.024244 65.687958 38 30 32
7.235646 -11.879979 65.673233 39 31 32
7.234170 -11.736015 65.659836 40 32 33
7.232827 -11.592321 65.647644 42 33 33
7.231598 -11.448862 65.636490 43 34 33
7.230459 -11.305592 65.626152 44 35 34
7.229382 -11.162459 65.616371 44 35 34
7.228332 -11.019411 65.606834 44 34 33
7.227273 -10.876391 65.597221 44 32 32
7.226167 -10.733344 65.587189 43 31 31
7.224974 -10.590212 65.576370 45 30 31
7.223659 -10.446949 65.564423 47 31 32
7.222185 -10.303512 65.551048 50 33 33
7.220523 -10.159867 65.535973 52 35 35
7.218651 -10.015996 65.518974 54 37 36
7.216550 -9.871885 65.499901 55 37 37
7.214214 -9.727540 65.478699 56 38 37
7.211643 -9.582973 65.455368 56 38 37
7.208847 -9.438213 65.429993 56 38 36
7.205844 -9.293295 65.402733 55 38 36
7.202658 -9.148262 65.373817 56 37 36
7.199322 -9.003166 65.343536 57 38 37
7.195870 -8.858059 65.312210 57 38 38
7.192342 -8.712994 65.280190 59 40 41
7.188778 -8.568023 65.247833 61 41 43
7.185215 -8.423194 65.215492 63 41 44
7.181689 -8.278547 65.183495 64 41 45
7.178233 -8.134116 65.152122 66 42 47
7.174870 -7.989925 65.121597 70 44 49
7.171619 -7.845989 65.092094 71 46 50
7.168492 -7.702312 65.063713 71 46 49
7.165489 -7.558890 65.036461 71 45 48
7.162607 -7.415709 65.010300 71 44 47
7.159831 -7.272749 64.985100 71 43 46
7.157140 -7.129982 64.960678 72 42 45
7.154507 -6.987377 64.936783 73 42 45
7.151900 -6.844900 64.913116 74 43 46
7.149283 -6.702516 64.889366 77 44 48
7.146617 -6.560190 64.865173 80 46 50
7.143865 -6.417890 64.840195 84 49 52
7.140987 -6.275587 64.814072 87 51 55
7.137947 -6.133257 64.786476 90 53 56
7.134713 -5.990883 64.757118 92 55 57
7.131255 -5.848454 64.725739 94 55 58
7.127553 -5.705963 64.692139 94 53 57
7.123590 -5.563413 64.656166 92 50 55
7.119357 -5.420813 64.617744 90 49 53
7.114850 -5.278176 64.576843 90 48 53
7.110075 -5.135521 64.533501 91 48 53
7.105042 -4.992872 64.487823 93 50 55
7.099767 -4.850254 64.439949 95 52 58
7.094271 -4.707696 64.390060 98 53 61
7.088577 -4.565226 64.338371 100 54 63
7.082712 -4.422872 64.285149 102 54 64
7.076704 -4.280660 64.230614 103 55 65
7.070582 -4.138617 64.175049 103 54 64
7.064373 -3.996764 64.118690 103 54 62
7.058101 -3.855120 64.061768 103 53 60
7.051790 -3.713701 64.004486 104 54 59
7.045461 -3.572520 63.947044 104 55 59
7.039131 -3.431586 63.889591 104 56 59
7.032814 -3.290905 63.832253 105 57 60
7.026520 -3.150483 63.775131 108 58 62
7.020258 -3.010320 63.718292 110 61 65
7.014034 -2.870418 63.661804 113 64 68
7.007852 -2.730775 63.605694 116 67 71
7.001715 -2.591391 63.549988 118 67 71
6.995624 -2.452264 63.494705 119 67 71
6.989580 -2.313390 63.439850 121 66 71
6.983586 -2.174769 63.385445 122 66 72
6.977641 -2.036396 63.331482 122 65 72
6.971748 -1.898270 63.277996 122 65 73
6.965907 -1.760388 63.224979 124 66 74
6.960119 -1.622747 63.172451 125 69 74
6.954387 -1.485344 63.120422 126 72 75
6.948710 -1.348176 63.068901 126 73 74
6.943090 -1.211241 63.017887 126 72 74
6.937525 -1.074533 62.967377 129 75 76
6.932014 -0.938051 62.917358 135 81 83
6.926556 -0.801791 62.867817 141 86 90
6.921147 -0.665748 62.818726 145 88 95
6.915785 -0.529922 62.770061 145 89 96
6.910465 -0.394307 62.721775 143 88 97
6.905186 -0.258902 62.673855 142 88 97
6.899942 -0.123704 62.626263 141 89 96
6.894732 0.011288 62.578976 139 89 94
6.889555 0.146078 62.531982 137 91 93
6.884410 0.280666 62.485294 139 93 93
6.879302 0.415055 62.438927 140 96 93
6.874233 0.549247 62.392914 142 99 95
6.869209 0.683245 62.347321 144 101 97
6.864240 0.817054 62.302219 147 102 99
6.859337 0.950677 62.257717 150 104 102
6.854512 1.084120 62.213924 151 104 103
6.849779 1.217391 62.170967 152 104 104
6.845155 1.350499 62.128994 154 105 106
6.840655 1.483452 62.088158 153 103 106
6.836298 1.616263 62.048607 151 99 104
6.832100 1.748945 62.010509 148 97 102
6.828080 1.881510 61.974014 147 97 102
6.824251 2.013975 61.939262 147 97 103
6.820630 2.146356 61.906395 145 95 102
6.817228 2.278668 61.875523 141 91 99
6.814057 2.410929 61.846745 138 88 96
6.811126 2.543156 61.820137 137 88 96
6.808439 2.675363 61.795750 139 89 97
6.805999 2.807567 61.773602 141 92 98
6.803805 2.939783 61.753693 142 93 99
6.801855 3.072022 61.735989 142 94 99
6.800141 3.204296 61.720436 140 93 97
6.798656 3.336616 61.706955 139 92 95
6.797387 3.468988 61.695438 138 91 93
6.796322 3.601418 61.685772 139 92 93
6.795447 3.733911 61.677830 144 96 97
6.794745 3.866468 61.671463 147 99 100
6.794203 3.999092 61.666538 148 100 101
6.793804 4.131781 61.662914 149 99 101
6.793533 4.264536 61.660454 151 99 103
6.793376 4.397354 61.659039 155 103 107
6.793322 4.530233 61.658543 160 107 111
6.793358 4.663173 61.658867 165 112 114
6.793473 4.796170 61.659912 169 114 115
6.793659 4.929223 61.661598 162 107 108
6.793906 5.062328 61.663841 152 95 98
6.794205 5.195484 61.666553 146 89 93
6.794546 5.328683 61.669647 144 87 92
6.794918 5.461922 61.673027 142 86 91
6.795309 5.595190 61.676579 142 85 91
6.795704 5.728477 61.680168 141 86 92
6.796088 5.861770 61.683647 141 87 93
6.796441 5.995050 61.686852 142 89 94
6.796744 6.128299 61.689602 144 91 95
6.796976 6.261495 61.691708 146 94 96
6.797116 6.394614 61.692982 156 104 106
6.797145 6.527630 61.693241 168 117 119
6.797044 6.660522 61.692326 171 120 123
6.796800 6.793265 61.690105 167 115 120
6.796401 6.925841 61.686481 160 108 114
6.795843 7.058237 61.681419 150 97 104
6.795127 7.190444 61.674923 141 89 95
6.794261 7.322461 61.667065 137 85 91
6.793260 7.454296 61.657974 137 84 89
6.792143 7.585962 61.647839 138 86 89
6.790937 7.717484 61.636898 138 87 88
6.789674 7.848892 61.625431 137 87 87
6.788387 7.980222 61.613747 137 88 87
6.787112 8.111518 61.602180 137 88 88
6.785887 8.242823 61.591057 137 89 91
6.784747 8.374186 61.580711 138 89 94
6.783727 8.505653 61.571453 140 91 98
6.782857 8.637274 61.563560 141 91 101
6.782165 8.769088 61.557270 136 87 98
6.781670 8.901135 61.552780 131 82 93
6.781390 9.033450 61.550243 131 84 94
6.781335 9.166058 61.549747 136 89 98
6.781512 9.298981 61.551350 140 93 100
6.781920 9.432232 61.555054 150 103 108
6.782556 9.565821 61.560829 163 116 121
6.783412 9.699749 61.568596 169 121 126
6.784477 9.834014 61.578262 162 114 120
6.785737 9.968607 61.589699 151 103 110
6.787177 10.103518 61.602768 143 95 102
6.788779 10.238729 61.617310 139 92 98
6.790525 10.374223 61.633160 137 91 97
6.792397 10.509977 61.650139 136 91 96
6.794372 10.645970 61.668072 136 92 96
6.796433 10.782176 61.686779 137 94 97
6.798558 10.918564 61.706066 139 95 96
6.800726 11.055106 61.725742 140 95 95
6.802916 11.191768 61.745617 137 91 91
6.805104 11.328513 61.765476 132 86 86
6.807268 11.465303 61.785118 132 84 85
6.809383 11.602096 61.804317 135 86 87
6.811425 11.738844 61.822849 135 85 86
6.813367 11.875499 61.840477 133 84 83
6.815183 12.012006 61.856956 133 83 82
6.816846 12.148313 61.872051 132 81 82
6.818329 12.284360 61.885513 131 79 82
6.819606 12.420091 61.897106 130 78 81
6.820653 12.555448 61.906612 128 75 80
6.821447 12.690373 61.913815 125 71 78
6.821966 12.824815 61.918526 122 69 76
6.822195 12.958724 61.920601 121 68 76
6.822118 13.092056 61.919903 121 69 77
6.821726 13.224776 61.916348 122 71 78
6.821016 13.356855 61.909901 123 73 80
6.819985 13.488274 61.900543 123 75 81
6.818636 13.619017 61.888302 122 74 81
6.816978 13.749084 61.873257 122 75 82
6.815022 13.878478 61.855503 123 77 84
7.374889 -12.159282 65.652519 38 30 32
7.373202 -12.015008 65.637497 39 30 32
7.371649 -11.871015 65.623672 39 30 32
7.370221 -11.727280 65.610962 40 31 32
7.368904 -11.583775 65.599236 41 32 32
7.367681 -11.440465 65.588348 43 33 33
7.366528 -11.297311 65.578087 44 35 34
7.365417 -11.154264 65.568199 45 35 34
7.364317 -11.011276 65.558403 44 34 33
7.363191 -10.868293 65.548386 43 32 31
7.362003 -10.725262 65.537804 43 31 31
7.360714 -10.582132 65.526337 44 31 30
7.359290 -10.438858 65.513649 46 31 31
7.357697 -10.295404 65.499474 49 33 33
7.355906 -10.151738 65.483536 51 35 34
7.353898 -10.007845 65.465652 53 36 36
7.351656 -9.863715 65.445694 55 37 36
7.349176 -9.719356 65.423615 55 37 37
7.346461 -9.574786 65.399445 55 37 37
7.343522 -9.430033 65.373276 55 37 36
7.340378 -9.285134 65.345299 55 37 36
7.337059 -9.140136 65.315750 56 38 36
7.333597 -8.995091 65.284927 57 38 37
7.330030 -8.850053 65.253181 58 39 39
7.326399 -8.705073 65.220848 59 40 41
7.322744 -8.560207 65.188316 61 41 43
7.319107 -8.415501 65.155930 62 42 44
7.315521 -8.270993 65.124016 64 42 46
7.312021 -8.126718 65.092857 67 43 48
7.308631 -7.982696 65.062675 69 44 49
7.305369 -7.838943 65.033638 69 45 48
7.302245 -7.695460 65.005821 69 45 47
7.299260 -7.552241 64.979256 69 44 46
7.296407 -7.409270 64.953857 69 43 45
7.293670 -7.266525 64.929489 70 42 44
7.291027 -7.123976 64.905960 71 41 44
7.288447 -6.981590 64.882996 73 41 44
7.285896 -6.839330 64.860291 75 42 46
7.283337 -6.697159 64.837509 77 43 48
7.280726 -6.555041 64.814270 80 45 50
7.278024 -6.412942 64.790215 84 48 52
7.275189 -6.270833 64.764977 87 50 54
7.272183 -6.128688 64.738213 89 52 55
7.268971 -5.986489 64.709618 92 53 56
7.265523 -5.844223 64.678925 93 54 56
7.261816 -5.701886 64.645920 92 53 55
7.257832 -5.559480 64.610458 91 51 53
7.253562 -5.417013 64.572449 90 48 52
7.249004 -5.274500 64.531868 90 48 52
7.244161 -5.131960 64.488754 91 50 53
7.239045 -4.989418 64.443207 94 51 56
7.233671 -4.846900 64.395370 96 53 59
7.228063 -4.704434 64.345444 99 54 62
7.222244 -4.562052 64.293648 101 55 64
7.216244 -4.419782 64.240234 102 55 64
7.210092 -4.277651 64.185463 103 55 64
7.203816 -4.135686 64.129601 103 54 63
7.197446 -3.993910 64.072891 103 53 62
7.191009 -3.852341 64.015587 103 54 60
7.184528 -3.710998 63.957890 103 54 59
7.178026 -3.569892 63.900005 104 55 59
7.171520 -3.429034 63.842087 105 56 59
7.165025 -3.288432 63.784271 106 57 60
7.158552 -3.148088 63.726646 108 58 62
7.152110 -3.008005 63.669304 110 61 65
7.145706 -2.868185 63.612293 113 64 68
7.139344 -2.728627 63.555656 116 67 71
7.133027 -2.589329 63.499416 118 67 72
7.126755 -2.450290 63.443592 118 67 72
7.120533 -2.311507 63.388195 120 67 72
7.114360 -2.172978 63.333244 121 67 72
7.108238 -2.034700 63.278744 122 67 72
7.102169 -1.896672 63.224716 123 68 73
7.096153 -1.758890 63.171165 124 69 74
7.090194 -1.621351 63.118118 126 72 75
7.084293 -1.484054 63.065586 127 74 75
7.078451 -1.346994 63.013573 126 74 74
7.072668 -1.210168 62.962097 124 71 71
7.066945 -1.073574 62.911152 128 74 73
7.061282 -0.937207 62.860737 138 84 84
7.055676 -0.801064 62.810833 148 93 95
7.050126 -0.665141 62.761421 152 97 101
7.044628 -0.529436 62.712479 150 95 100
7.039179 -0.393944 62.663971 146 92 98
7.033776 -0.258663 62.615871 144 91 98
7.028415 -0.123590 62.568150 142 91 98
7.023095 0.011278 62.520782 139 90 95
7.017813 0.145942 62.473766 137 91 94
7.012570 0.280404 62.427094 138 95 95
7.007369 0.414668 62.380791 140 98 96
7.002213 0.548736 62.334892 142 101 97
6.997108 0.682611 62.289448 146 103 99
6.992064 0.816297 62.244541 149 105 101
6.987090 0.949800 62.200264 154 108 105
6.982200 1.083124 62.156731 155 108 106
6.977408 1.216278 62.114079 155 106 105
6.972731 1.349270 62.072441 155 104 107
6.968186 1.482110 62.031975 154 102 107
6.963789 1.614810 61.992836 152 99 106
6.959559 1.747384 61.955181 150 97 105
6.955514 1.879845 61.919170 149 97 106
6.951670 2.012209 61.884945 150 98 107
6.948041 2.144492 61.852642 146 95 104
6.944642 2.276711 61.822380 140 88 98
6.941482 2.408883 61.794258 136 86 96
6.938572 2.541025 61.768353 137 87 96
6.935916 2.673153 61.744705 139 89 96
6.933517 2.805283 61.723347 140 91 97
6.931373 2.937429 61.704262 141 92 97
6.929482 3.069605 61.687424 141 92 96
6.927835 3.201822 61.672768 139 92 94
6.926425 3.334089 61.660217 137 90 91
6.925239 3.466413 61.649654 136 88 89
6.924262 3.598802 61.640961 137 89 90
6.923481 3.731258 61.634003 144 95 96
6.922877 3.863783 61.628632 150 101 101
6.922437 3.996379 61.624710 151 101 102
6.922143 4.129046 61.622089 150 100 102
6.921978 4.261781 61.620632 151 100 104
6.921931 4.394585 61.620209 154 103 107
6.921987 4.527454 61.620708 157 106 110
6.922135 4.660387 61.622028 162 110 113
6.922366 4.793383 61.624077 166 112 117
6.922667 4.926438 61.626762 160 105 110
6.923033 5.059552 61.630020 151 95 101
6.923453 5.192720 61.633755 145 89 96
6.923918 5.325940 61.637894 144 88 95
6.924417 5.459203 61.642334 142 87 94
6.924937 5.592504 61.646973 141 87 93
6.925465 5.725831 61.651672 141 87 93
6.925983 5.859169 61.656284 141 89 93
6.926474 5.992504 61.660648 144 92 95
6.926915 6.125813 61.664577 145 95 95
6.927286 6.259077 61.667877 147 96 96
6.927564 6.392268 61.670353 159 108 107
6.927728 6.525363 61.671810 172 122 122
6.927759 6.658337 61.672089 171 121 123
6.927641 6.791166 61.671043 163 113 118
6.927363 6.923830 61.668571 159 108 116
6.926919 7.056314 61.664619 152 101 109
6.926310 7.188610 61.659191 142 92 100
6.925541 7.320714 61.652348 137 88 95
6.924628 7.452632 61.644215 139 90 95
6.923590 7.584379 61.634975 143 95 98
6.922453 7.715977 61.624859 144 95 98
6.921250 7.847455 61.614143 141 93 94
6.920013 7.978848 61.603138 141 95 94
6.918782 8.110201 61.592178 142 96 95
6.917593 8.241556 61.581589 142 95 96
6.916483 8.372961 61.571709 142 93 97
6.915488 8.504465 61.562851 143 94 100
6.914638 8.636113 61.555286 142 93 102
6.913962 8.767947 61.549263 138 88 99
6.913481 8.900008 61.544987 133 84 95
6.913213 9.032329 61.542599 130 82 92
6.913169 9.164935 61.542206 129 82 91
6.913354 9.297849 61.543861 129 85 91
6.913772 9.431086 61.547573 140 96 100
6.914416 9.564653 61.553310 157 113 117
6.915281 9.698554 61.561008 168 124 128
6.916353 9.832784 61.570557 165 120 126
6.917621 9.967336 61.581844 156 111 118
6.919067 10.102197 61.594719 149 104 111
6.920675 10.237352 61.609024 145 100 107
6.922423 10.372781 61.624592 141 97 104
6.924294 10.508462 61.641251 138 95 101
6.926266 10.644370 61.658802 138 96 100
6.928319 10.780478 61.677071 138 97 100
6.930429 10.916758 61.695854 139 97 100
6.932575 11.053176 61.714966 140 96 98
6.934735 11.189698 61.734196 138 93 95
6.936886 11.326287 61.753338 134 89 90
6.939002 11.462902 61.772175 133 87 88
6.941059 11.599499 61.790485 135 87 89
6.943030 11.736032 61.808037 135 87 88
6.944891 11.872450 61.824600 135 86 86
6.946613 12.008699 61.839931 134 84 85
6.948169 12.144725 61.853783 133 82 84
6.949533 12.280471 61.865921 131 80 82
6.950677 12.415877 61.876114 130 78 81
6.951579 12.550889 61.884136 128 76 80
6.952213 12.685448 61.889786 126 74 79
6.952561 12.819503 61.892883 124 72 78
6.952606 12.953007 61.893280 123 72 78
6.952333 13.085915 61.890854 123 73 78
6.951735 13.218192 61.885525 123 74 78
6.950806 13.349813 61.877258 123 74 79
6.949547 13.480757 61.866047 123 75 79
6.947960 13.611011 61.851925 122 75 79
6.946055 13.740574 61.834965 122 75 79
6.943844 13.869453 61.815281 122 76 81
7.510558 -12.149810 65.601372 38 29 31
7.508943 -12.005812 65.587257 39 29 31
7.507438 -11.862051 65.574120 40 30 31
7.506037 -11.718507 65.561882 41 31 32
7.504726 -11.575156 65.550430 42 32 32
7.503489 -11.431966 65.539619 43 33 33
7.502302 -11.288898 65.529259 44 35 33
7.501139 -11.145912 65.519104 45 35 33
7.499970 -11.002959 65.508888 44 34 32
7.498759 -10.859991 65.498314 43 32 31
7.497472 -10.716959 65.487068 43 32 31
7.496072 -10.573816 65.474838 44 31 30
7.494525 -10.430522 65.461327 46 31 31
7.492800 -10.287041 65.446259 48 33 33
7.490870 -10.143348 65.429413 51 34 34
7.488718 -9.999430 65.410606 52 36 36
7.486329 -9.855282 65.389740 54 37 37
7.483701 -9.710914 65.366791 54 37 37
7.480839 -9.566344 65.341789 55 36 37
7.477757 -9.421607 65.314873 55 37 36
7.474477 -9.276739 65.286224 55 37 36
7.471029 -9.131789 65.256104 56 38 36
7.467449 -8.986811 65.224831 56 39 38
7.463776 -8.841857 65.192749 58 39 40
7.460052 -8.696981 65.160225 59 40 42
7.456319 -8.552237 65.127617 61 41 43
7.452620 -8.407670 65.095306 62 42 45
7.448990 -8.263320 65.063606 65 42 46
7.445462 -8.119218 65.032784 67 43 47
7.442060 -7.975384 65.003075 68 44 47
7.438804 -7.831831 64.974632 68 44 47
7.435700 -7.688558 64.947517 69 44 46
7.432749 -7.545557 64.921745 69 43 45
7.429942 -7.402811 64.897232 69 42 43
7.427262 -7.260294 64.873817 69 41 42
7.424682 -7.117975 64.851288 71 40 42
7.422172 -6.975818 64.829353 73 41 44
7.419692 -6.833784 64.807693 75 41 45
7.417203 -6.691834 64.785957 77 42 47
7.414660 -6.549932 64.763748 79 44 49
7.412020 -6.408040 64.740685 83 47 52
7.409238 -6.266129 64.716393 85 49 53
7.406275 -6.124172 64.690506 87 51 53
7.403093 -5.982150 64.662712 89 52 54
7.399661 -5.840050 64.632736 90 52 54
7.395954 -5.697867 64.600357 91 52 54
7.391954 -5.555605 64.565422 91 51 53
7.387652 -5.413271 64.527840 90 49 52
7.383043 -5.270880 64.487579 90 49 52
7.378132 -5.128454 64.444695 92 51 54
7.372933 -4.986016 64.399277 94 53 56
7.367461 -4.843596 64.351479 96 53 59
7.361739 -4.701222 64.301506 98 54 61
7.355794 -4.558925 64.249580 102 56 64
7.349658 -4.416737 64.195976 103 56 65
7.343357 -4.274684 64.140945 103 55 64
7.336925 -4.132795 64.084763 101 54 62
7.330392 -3.991092 64.027702 102 54 62
7.323785 -3.849598 63.969994 103 55 61
7.317131 -3.708328 63.911873 104 55 61
7.310452 -3.567296 63.853531 106 56 62
7.303766 -3.426512 63.795132 108 58 62
7.297090 -3.285985 63.736820 108 58 62
7.290434 -3.145719 63.678688 108 57 62
7.283810 -3.005715 63.620831 109 59 64
7.277223 -2.865976 63.563290 113 63 68
7.270678 -2.726501 63.506123 116 67 71
7.264178 -2.587288 63.449352 117 68 72
7.257725 -2.448335 63.392990 118 68 72
7.251322 -2.309642 63.337059 120 68 72
7.244969 -2.171205 63.281567 121 68 72
7.238669 -2.033022 63.226540 122 69 72
7.232422 -1.895090 63.171982 123 70 73
7.226233 -1.757407 63.117916 125 72 75
7.220101 -1.619970 63.064362 127 74 75
7.214030 -1.482777 63.011337 128 76 75
7.208022 -1.345824 62.958855 126 75 73
7.202077 -1.209108 62.906929 123 71 69
7.196197 -1.072625 62.855564 128 76 73
7.190380 -0.936372 62.804756 142 88 86
7.184626 -0.800345 62.754494 154 100 100
7.178932 -0.664541 62.704769 158 104 106
7.173297 -0.528955 62.655548 155 101 104
7.167717 -0.393584 62.606808 148 95 100
7.162189 -0.258426 62.558521 145 94 99
7.156709 -0.123476 62.510654 144 93 100
7.151275 0.011267 62.463196 141 93 98
7.145886 0.145807 62.416122 138 94 97
7.140542 0.280145 62.369446 139 97 98
7.135244 0.414285 62.323174 140 100 98
7.129998 0.548230 62.277351 143 103 99
7.124808 0.681982 62.232018 148 106 101
7.119684 0.815546 62.187263 152 109 104
7.114636 0.948928 62.143173 157 112 108
7.109678 1.082133 62.099865 158 110 108
7.104824 1.215169 62.057465 156 107 106
7.100091 1.348045 62.016117 155 103 106
7.095495 1.480772 61.975979 154 100 106
7.091055 1.613361 61.937202 152 98 106
7.086790 1.745826 61.899948 151 97 107
7.082717 1.878182 61.864376 150 96 108
7.078854 2.010443 61.830627 149 96 108
7.075215 2.142627 61.798847 146 92 105
7.071815 2.274751 61.769146 139 86 99
7.068665 2.406832 61.741631 136 84 96
7.065773 2.538887 61.716373 138 86 96
7.063146 2.670933 61.693424 139 89 96
7.060784 2.802986 61.672794 140 90 96
7.058688 2.935060 61.654488 140 90 94
7.056853 3.067169 61.638462 140 90 93
7.055273 3.199324 61.624657 138 90 91
7.053935 3.331534 61.612972 136 88 88
7.052829 3.463808 61.603310 134 86 86
7.051939 3.596150 61.595535 137 89 88
7.051249 3.728564 61.589512 146 97 96
7.050742 3.861053 61.585087 152 102 102
7.050402 3.993617 61.582111 150 100 101
7.050211 4.126256 61.580448 148 97 99
7.050154 4.258967 61.579945 149 97 100
7.050215 4.391751 61.580482 150 97 102
7.050383 4.524606 61.581944 151 98 104
7.050644 4.657528 61.584229 153 100 106
7.050990 4.790518 61.587246 155 100 107
7.051410 4.923573 61.590916 153 97 105
7.051896 5.056690 61.595161 149 93 102
7.052439 5.189868 61.599907 146 91 100
7.053030 5.323103 61.605072 144 90 98
7.053659 5.456390 61.610565 143 89 97
7.054314 5.589720 61.616280 142 89 96
7.054978 5.723083 61.622082 141 89 95
7.055635 5.856465 61.627823 144 93 98
7.056266 5.989850 61.633339 149 99 101
7.056850 6.123217 61.638439 149 99 100
7.057363 6.256543 61.642918 147 97 97
7.057783 6.389804 61.646580 151 101 102
7.058086 6.522974 61.649231 158 109 111
7.058252 6.656025 61.650684 157 108 112
7.058265 6.788936 61.650795 152 104 111
7.058111 6.921683 61.649448 152 104 113
7.057784 7.054251 61.646587 149 102 111
7.057281 7.186629 61.642204 142 97 105
7.056612 7.318814 61.636353 139 94 101
7.055788 7.450811 61.629150 144 100 106
7.054828 7.582632 61.620773 151 107 112
7.053761 7.714298 61.611450 149 106 109
7.052617 7.845839 61.601460 146 103 105
7.051431 7.977290 61.591103 148 104 105
7.050241 8.108690 61.580708 149 105 105
7.049086 8.240087 61.570614 148 101 104
7.048002 8.371526 61.561153 146 98 103
7.047027 8.503055 61.552635 146 96 104
7.046193 8.634719 61.545345 144 94 103
7.045527 8.766562 61.539536 140 90 101
7.045053 8.898622 61.535397 135 85 97
7.044790 9.030933 61.533092 131 83 94
7.044748 9.163523 61.532726 127 82 91
7.044935 9.296414 61.534363 126 82 90
7.045352 9.429619 61.538002 133 91 96
7.045996 9.563148 61.543625 149 108 112
7.046858 9.697002 61.551159 163 122 126
7.047929 9.831181 61.560516 167 126 131
7.049195 9.965672 61.571568 163 122 128
7.050638 10.100469 61.584179 156 115 121
7.052241 10.235549 61.598175 149 108 115
7.053984 10.370897 61.613403 143 103 108
7.055847 10.506488 61.629673 138 99 103
7.057807 10.642298 61.646797 138 99 102
7.059844 10.778296 61.664585 140 102 104
7.061934 10.914454 61.682842 142 104 104
7.064054 11.050739 61.701363 142 103 103
7.066181 11.187114 61.719940 141 100 101
7.068291 11.323542 61.738369 138 96 97
7.070357 11.459977 61.756416 134 91 93
7.072355 11.596379 61.773865 134 89 91
7.074257 11.732697 61.790482 136 89 91
7.076038 11.868883 61.806030 136 89 89
7.077668 12.004881 61.820267 135 87 87
7.079120 12.140635 61.832951 133 84 85
7.080367 12.276089 61.843845 130 81 82
7.081383 12.411184 61.852722 128 78 80
7.082143 12.545864 61.859360 127 77 79
7.082625 12.680074 61.863564 126 76 79
7.082807 12.813761 61.865158 126 77 81
7.082674 12.946877 61.863991 126 77 81
7.082211 13.079381 61.859955 126 77 81
7.081411 13.211238 61.852966 126 77 80
7.080271 13.342422 61.843002 125 77 79
7.078788 13.472913 61.830051 124 77 78
7.076969 13.602702 61.814163 123 77 78
7.074822 13.731785 61.795410 122 76 78
7.072361 13.860171 61.773914 122 76 79
7.644455 -11.996598 65.536926 40 30 31
7.642977 -11.853030 65.524254 41 31 32
7.641581 -11.709641 65.512276 42 32 32
7.640254 -11.566410 65.500900 43 33 33
7.638979 -11.423307 65.489983 43 34 33
7.637739 -11.280300 65.479340 44 34 33
7.636504 -11.137348 65.468758 44 34 32
7.635246 -10.994409 65.457977 44 33 31
7.633933 -10.851437 65.446716 43 32 30
7.632531 -10.708388 65.434700 44 31 30
7.631005 -10.565220 65.421616 44 31 29
7.629323 -10.421895 65.407188 46 31 30
7.627455 -10.278382 65.391182 47 32 32
7.625378 -10.134661 65.373375 50 34 34
7.623075 -9.990720 65.353630 53 37 37
7.620535 -9.846558 65.331856 55 38 38
7.617757 -9.702186 65.308037 54 37 37
7.614749 -9.557629 65.282249 54 37 37
7.611527 -9.412917 65.254631 54 37 36
7.608116 -9.268095 65.225388 54 37 36
7.604547 -9.123209 65.194786 55 38 37
7.600858 -8.978313 65.163162 56 39 38
7.597090 -8.833463 65.130859 57 40 40
7.593287 -8.688710 65.098251 59 41 42
7.589492 -8.544108 65.065720 61 42 44
7.585747 -8.399702 65.033615 63 43 45
7.582090 -8.255530 65.002266 65 43 46
7.578552 -8.111620 64.971931 67 44 46
7.575159 -7.967993 64.942841 68 44 46
7.571927 -7.824658 64.915123 68 44 45
7.568862 -7.681613 64.888855 68 43 44
7.565965 -7.538847 64.864014 68 42 43
7.563223 -7.396341 64.840508 68 41 42
7.560616 -7.254066 64.818169 68 40 41
7.558118 -7.111989 64.796745 70 40 42
7.555693 -6.970072 64.775955 73 41 44
7.553300 -6.828273 64.755440 75 41 46
7.550897 -6.686554 64.734833 76 42 47
7.548435 -6.544873 64.713730 78 44 49
7.545868 -6.403194 64.691727 82 46 51
7.543151 -6.261486 64.668434 83 49 52
7.540240 -6.119720 64.643478 85 50 52
7.537097 -5.977877 64.616531 87 51 53
7.533688 -5.835945 64.587303 89 52 54
7.529987 -5.693918 64.555573 90 53 55
7.525976 -5.551799 64.521187 91 51 54
7.521644 -5.409597 64.484047 89 49 52
7.516987 -5.267328 64.444122 90 49 53
7.512011 -5.125013 64.401459 93 52 56
7.506728 -4.982679 64.356171 95 54 58
7.501157 -4.840353 64.308411 96 53 58
7.495321 -4.698069 64.258377 98 54 59
7.489249 -4.555855 64.206322 101 56 63
7.482971 -4.413745 64.152504 104 57 65
7.476521 -4.271769 64.097198 102 56 63
7.469930 -4.129952 64.040695 100 54 61
7.463229 -3.988322 63.983253 101 54 61
7.456450 -3.846898 63.925133 103 56 62
7.449619 -3.705699 63.866566 105 58 63
7.442759 -3.564738 63.807755 108 59 65
7.435890 -3.424027 63.748867 111 60 66
7.429029 -3.283574 63.690044 110 59 65
7.422188 -3.143382 63.631393 107 55 61
7.415378 -3.003456 63.573009 106 55 60
7.408605 -2.863796 63.514946 111 61 66
7.401874 -2.724402 63.457241 116 66 71
7.395189 -2.585273 63.399933 118 68 72
7.388553 -2.446406 63.343040 118 68 72
7.381968 -2.307801 63.286583 120 69 72
7.375433 -2.169455 63.230568 121 69 72
7.368954 -2.031365 63.175014 121 71 72
7.362531 -1.893529 63.119949 124 72 74
7.356166 -1.755944 63.065380 125 74 75
7.349861 -1.618608 63.011330 127 76 76
7.343621 -1.481518 62.957832 128 77 76
7.337446 -1.344670 62.904896 126 76 73
7.331338 -1.208062 62.852531 124 73 70
7.325299 -1.071690 62.800758 132 81 78
7.319328 -0.935549 62.749569 148 96 94
7.313426 -0.799637 62.698963 162 109 108
7.307588 -0.663949 62.648918 164 112 114
7.301815 -0.528481 62.599419 156 105 108
7.296102 -0.393230 62.550442 147 97 101
7.290445 -0.258192 62.501949 144 95 101
7.284843 -0.123364 62.453926 144 96 101
7.279294 0.011257 62.406345 142 96 101
7.273794 0.145674 62.359196 140 97 100
7.268344 0.279890 62.312477 140 99 100
7.262947 0.413907 62.266205 140 101 99
7.257606 0.547729 62.220417 144 104 101
7.252327 0.681359 62.175159 150 109 105
7.247119 0.814802 62.130508 154 112 108
7.241992 0.948063 62.086559 158 113 109
7.236961 1.081149 62.043423 158 111 109
7.232040 1.214068 62.001236 158 108 107
7.227245 1.346828 61.960129 156 104 106
7.222595 1.479441 61.920265 154 100 106
7.218108 1.611918 61.881798 151 97 106
7.213803 1.744273 61.844891 150 96 107
7.209699 1.876522 61.809704 149 95 108
7.205812 2.008679 61.776379 147 93 108
7.202159 2.140763 61.745060 145 91 106
7.198754 2.272789 61.715866 140 86 100
7.195608 2.404776 61.688900 137 84 97
7.192731 2.536742 61.664234 138 86 96
7.190127 2.668703 61.641914 140 88 95
7.187800 2.800675 61.621956 141 90 94
7.185747 2.932674 61.604359 141 90 92
7.183965 3.064712 61.589081 141 91 91
7.182445 3.196800 61.576046 139 90 89
7.181176 3.328949 61.565170 137 88 87
7.180146 3.461166 61.556335 136 87 85
7.179338 3.593457 61.549412 138 89 88
7.178736 3.725824 61.544254 144 94 93
7.178322 3.858271 61.540707 149 97 98
7.178079 3.990796 61.538620 148 96 98
7.177989 4.123401 61.537849 146 93 96
7.178035 4.256083 61.538246 145 91 96
7.178204 4.388842 61.539692 145 91 97
