ply
format ascii 1.0
element vertex 1162
property float x
property float y
property float z
property uchar red
property uchar green
property uchar blue
end_header
14.852679 -11.478952 67.476814 190 156 168
14.850072 -11.331505 67.464966 170 127 138
14.847350 -11.184024 67.452606 136 84 93
14.844534 -11.036525 67.439812 133 78 84
14.841655 -10.889034 67.426727 139 84 88
14.838750 -10.741583 67.413528 138 81 85
14.835866 -10.594202 67.400429 158 103 107
14.833053 -10.446929 67.387650 186 131 137
14.830365 -10.299797 67.375443 181 123 132
14.827861 -10.152843 67.364059 160 100 111
14.825598 -10.006102 67.353775 150 88 103
14.823632 -9.859602 67.344849 147 84 100
14.822020 -9.713372 67.337524 145 81 99
14.820815 -9.567438 67.332047 144 79 98
14.820067 -9.421818 67.328651 147 81 101
14.819823 -9.276526 67.327545 155 89 109
14.820124 -9.131577 67.328911 162 96 117
14.821007 -8.986974 67.332924 157 92 113
14.822505 -8.842721 67.339729 145 83 104
14.824645 -8.698814 67.349449 140 80 101
14.827446 -8.555248 67.362175 140 82 103
14.830923 -8.412010 67.377975 141 85 106
14.835082 -8.269084 67.396866 144 90 110
14.839925 -8.126451 67.418869 147 94 114
14.845441 -7.984085 67.443932 148 95 115
14.851613 -7.841958 67.471970 147 96 115
14.858418 -7.700037 67.502884 147 96 115
14.865818 -7.558286 67.536499 146 96 115
14.873770 -7.416665 67.572624 145 97 115
14.882218 -7.275132 67.611015 146 98 117
14.891103 -7.133641 67.651375 146 99 119
14.900354 -6.992149 67.693405 146 99 119
14.909893 -6.850608 67.736740 145 99 119
14.919638 -6.708972 67.781006 145 99 119
14.929501 -6.567197 67.825813 143 99 119
14.939390 -6.425241 67.870743 141 99 118
14.949214 -6.283064 67.915375 141 100 117
14.958884 -6.140631 67.959312 141 101 116
14.968310 -5.997910 68.002136 142 104 117
14.977408 -5.854877 68.043465 143 106 117
14.986098 -5.711510 68.082947 143 107 116
14.994308 -5.567795 68.120247 144 108 117
15.001975 -5.423722 68.155075 144 108 117
15.009042 -5.279289 68.187180 144 108 117
15.015464 -5.134496 68.216354 144 107 117
15.021207 -4.989353 68.242447 143 106 116
15.026245 -4.843869 68.265335 142 105 116
15.030567 -4.698063 68.284973 140 104 116
15.034170 -4.551954 68.301338 137 103 116
15.037063 -4.405567 68.314484 133 102 115
15.039266 -4.258928 68.324486 127 100 113
15.040809 -4.112065 68.331497 118 97 109
15.041736 -3.965010 68.335709 109 92 103
15.042095 -3.817792 68.337341 104 92 103
15.041948 -3.670444 68.336678 112 103 114
15.041364 -3.522996 68.334023 126 119 132
15.040415 -3.375478 68.329712 136 129 145
15.039185 -3.227918 68.324120 136 129 146
15.037754 -3.080342 68.317619 130 125 144
15.036213 -2.932771 68.310616 126 122 141
15.034644 -2.785226 68.303490 122 118 137
15.033134 -2.637722 68.296638 118 116 134
15.031763 -2.490270 68.290405 118 116 133
15.030605 -2.342879 68.285141 122 121 137
15.029730 -2.195551 68.281166 132 131 146
15.029195 -2.048287 68.278740 138 137 151
15.029050 -1.901083 68.278076 140 137 151
15.029332 -1.753931 68.279358 140 137 150
15.030071 -1.606823 68.282722 141 137 150
15.031284 -1.459746 68.288223 148 144 155
15.032973 -1.312687 68.295898 155 151 161
15.035135 -1.165632 68.305725 156 154 162
15.037754 -1.018565 68.317619 157 155 164
15.040808 -0.871472 68.331497 160 158 166
15.044265 -0.724339 68.347198 165 161 170
15.048087 -0.577152 68.364563 168 163 173
15.052233 -0.429899 68.383400 170 161 173
15.056657 -0.282571 68.403496 172 160 172
15.061311 -0.135158 68.424637 175 160 172
15.066148 0.012347 68.446617 175 158 170
15.071121 0.159947 68.469208 173 154 166
15.076184 0.307647 68.492210 170 150 162
15.081296 0.455448 68.515434 168 149 160
15.086417 0.603349 68.538696 167 148 160
15.091514 0.751349 68.561859 167 149 161
15.096556 0.899445 68.584763 169 151 164
15.101521 1.047636 68.607323 169 151 164
15.106391 1.195915 68.629440 167 149 161
15.111154 1.344281 68.651085 166 150 160
15.115804 1.492729 68.672203 167 151 161
15.120338 1.641255 68.692810 164 148 159
15.124763 1.789857 68.712906 157 142 152
15.129086 1.938533 68.732552 146 133 142
15.133321 2.087281 68.751785 145 133 141
15.137482 2.236102 68.770691 158 146 154
15.141586 2.384995 68.789337 166 154 163
15.145654 2.533962 68.807816 165 154 162
15.149704 2.683006 68.826218 164 152 162
15.153755 2.832129 68.844627 165 151 161
15.157825 2.981335 68.863113 164 150 161
15.161927 3.130628 68.881752 163 147 160
15.166074 3.280010 68.900589 161 143 158
15.170272 3.429486 68.919662 158 138 155
15.174524 3.579057 68.938980 153 131 150
15.178828 3.728723 68.958534 145 121 143
15.183174 3.878484 68.978271 135 111 134
15.187549 4.028338 68.998154 125 102 125
15.191931 4.178281 69.018059 118 97 119
15.196293 4.328303 69.037872 118 98 120
15.200603 4.478395 69.057449 123 104 123
15.204822 4.628543 69.076622 131 112 129
15.208906 4.778733 69.095177 140 121 137
15.212811 4.928944 69.112915 151 132 146
15.216482 5.079154 69.129601 160 140 154
15.219870 5.229338 69.144989 164 143 156
15.222919 5.379468 69.158836 160 139 151
15.225574 5.529516 69.170906 151 130 143
15.227788 5.679451 69.180962 144 124 137
15.229507 5.829240 69.188774 145 127 139
15.230689 5.978851 69.194138 153 135 146
15.231296 6.128255 69.196899 160 142 153
15.231294 6.277419 69.196884 166 146 156
15.230660 6.426317 69.194008 170 149 158
15.229379 6.574923 69.188187 174 152 159
15.227446 6.723216 69.179405 176 152 159
15.224864 6.871178 69.167671 174 150 157
15.221651 7.018799 69.153084 173 147 154
15.217834 7.166072 69.135735 170 142 150
15.213450 7.312998 69.115822 165 136 145
15.208547 7.459583 69.093544 160 129 139
15.203185 7.605843 69.069183 156 124 136
15.197432 7.751799 69.043053 154 120 134
15.191365 7.897478 69.015488 154 117 132
15.185066 8.042916 68.986870 153 114 130
15.178629 8.188156 68.957626 153 111 128
15.172147 8.333244 68.928177 155 110 126
15.165714 8.478235 68.898956 159 112 127
15.159433 8.623185 68.870422 163 113 126
15.153399 8.768155 68.843010 161 109 119
15.147710 8.913210 68.817162 157 103 112
15.142451 9.058411 68.793266 155 99 108
15.137711 9.203823 68.771729 153 96 106
15.133561 9.349508 68.752876 152 93 105
15.130069 9.495524 68.737015 151 92 104
15.127288 9.641926 68.724380 149 93 105
15.125259 9.788760 68.715164 148 94 106
15.124014 9.936069 68.709511 147 96 108
15.123568 10.083885 68.707481 145 99 110
15.123923 10.232236 68.709091 144 102 110
15.125072 10.381138 68.714310 144 107 113
15.126990 10.530599 68.723030 148 114 118
15.129647 10.680618 68.735100 152 120 124
15.133000 10.831187 68.750336 155 125 128
15.136999 10.982291 68.768501 154 126 129
15.141585 11.133905 68.789337 150 124 129
15.146697 11.286000 68.812561 147 122 130
15.152267 11.438541 68.837860 145 119 129
15.158224 11.591489 68.864929 141 112 125
15.164497 11.744797 68.893425 138 103 119
15.171012 11.898417 68.923019 136 95 113
15.177695 12.052299 68.953384 135 88 107
15.184471 12.206387 68.984169 136 82 102
15.191264 12.360620 69.015030 136 77 96
15.197996 12.514936 69.045609 135 72 89
15.204593 12.669272 69.075577 129 67 80
15.210976 12.823557 69.104576 122 61 72
15.217070 12.977720 69.132263 120 61 69
15.222797 13.131687 69.158287 121 66 73
15.228085 13.285382 69.182304 121 72 77
15.232862 13.438730 69.204010 120 77 81
15.237061 13.591656 69.223083 118 82 85
15.240622 13.744089 69.239265 115 87 90
15.243491 13.895962 69.252304 113 90 93
15.245628 14.047215 69.262009 113 92 96
15.247002 14.197800 69.268250 114 92 98
15.247594 14.347676 69.270943 116 90 99
15.247403 14.496819 69.270073 119 87 98
15.246443 14.645220 69.265709 120 83 95
15.244742 14.792884 69.257988 120 77 90
15.242348 14.939834 69.247108 122 75 88
15.239322 15.086111 69.233360 134 86 99
15.235739 15.231773 69.217079 150 102 115
15.231688 15.376891 69.198669 147 102 114
15.227264 15.521552 69.178581 130 87 98
15.222573 15.665850 69.157272 124 84 95
15.217722 15.809889 69.135223 127 91 100
15.212815 15.953776 69.112938 127 95 103
15.207960 16.097622 69.090881 126 97 103
15.203251 16.241528 69.069481 122 97 102
15.198771 16.385588 69.049133 119 96 100
15.194593 16.529890 69.030151 121 101 104
15.190777 16.674507 69.012817 126 109 111
15.187360 16.819490 68.997292 129 115 116
15.184364 16.964878 68.983681 129 117 118
15.181797 17.110691 68.972015 129 119 119
15.179646 17.256926 68.962242 128 120 119
15.177883 17.403564 68.954239 127 120 119
15.176470 17.550571 68.947815 127 120 118
15.175357 17.697901 68.942764 127 121 119
15.008348 -12.068994 67.522758 151 112 130
15.005898 -11.921491 67.511734 155 115 134
15.003342 -11.773952 67.500229 151 108 127
15.000663 -11.626368 67.488182 150 104 122
14.997854 -11.478736 67.475540 150 101 117
14.994917 -11.331062 67.462326 142 89 102
14.991867 -11.183361 67.448601 137 81 90
14.988727 -11.035652 67.434479 142 85 90
14.985534 -10.887966 67.420113 138 81 83
14.982328 -10.740334 67.405693 135 78 80
14.979161 -10.592791 67.391441 168 111 114
14.976089 -10.445374 67.377625 199 143 148
14.973167 -10.298121 67.364479 185 126 134
14.970457 -10.151068 67.352280 158 96 108
14.968018 -10.004249 67.341309 146 84 98
14.965906 -9.857693 67.331810 143 79 96
14.964181 -9.711429 67.324043 140 76 94
14.962895 -9.565479 67.318260 140 74 94
14.962098 -9.419862 67.314674 141 76 96
14.961837 -9.274591 67.313499 147 83 103
14.962148 -9.129677 67.314903 153 89 109
14.963070 -8.985122 67.319046 150 88 108
14.964632 -8.840927 67.326073 143 83 103
14.966859 -8.697089 67.336098 141 82 103
14.969769 -8.553597 67.349182 141 84 105
14.973372 -8.410439 67.365395 142 86 106
14.977674 -8.267597 67.384758 144 89 108
14.982674 -8.125050 67.407242 146 92 111
14.988358 -7.982769 67.432816 146 93 112
14.994708 -7.840728 67.461388 146 93 112
15.001696 -7.698890 67.492821 145 93 112
15.009284 -7.557219 67.526970 145 93 113
15.017426 -7.415674 67.563591 145 94 114
15.026064 -7.274211 67.602455 145 95 115
15.035135 -7.132787 67.643272 145 96 117
15.044568 -6.991354 67.685707 144 96 116
15.054281 -6.849866 67.729408 143 95 115
15.064189 -6.708276 67.773979 143 95 116
15.074201 -6.566540 67.819023 143 95 116
15.084227 -6.424615 67.864128 142 96 116
15.094170 -6.282462 67.908867 141 97 115
15.103940 -6.140045 67.952827 140 99 115
15.113445 -5.997333 67.995590 141 101 115
15.122602 -5.854302 68.036781 141 103 115
15.131327 -5.710931 68.076035 142 104 115
15.139550 -5.567206 68.113029 143 106 116
15.147204 -5.423118 68.147469 143 107 116
15.154238 -5.278664 68.179115 143 107 116
15.160603 -5.133849 68.207748 142 104 116
15.166266 -4.988679 68.233231 141 103 115
15.171208 -4.843168 68.255463 139 102 115
15.175414 -4.697334 68.274384 137 100 114
15.178885 -4.551198 68.290001 134 99 114
15.181633 -4.404786 68.302368 129 98 112
15.183681 -4.258123 68.311577 121 95 109
15.185063 -4.111241 68.317802 114 93 106
15.185825 -3.964170 68.321228 110 94 105
15.186019 -3.816941 68.322098 112 100 111
15.185712 -3.669587 68.320717 119 111 122
15.184973 -3.522139 68.317390 128 121 134
15.183881 -3.374627 68.312477 132 126 140
15.182520 -3.227079 68.306358 130 125 141
15.180974 -3.079520 68.299400 126 122 139
15.179336 -2.931973 68.292030 123 119 137
15.177690 -2.784456 68.284622 119 116 133
15.176121 -2.636986 68.277565 116 114 131
15.174714 -2.489571 68.271240 117 116 132
15.173544 -2.342221 68.265976 123 122 138
15.172677 -2.194937 68.262077 129 128 143
15.172174 -2.047719 68.259811 134 133 147
15.172082 -1.900562 68.259399 137 135 149
15.172441 -1.753460 68.261009 138 135 148
15.173276 -1.606400 68.264763 140 136 148
15.174602 -1.459372 68.270729 145 141 152
15.176422 -1.312361 68.278923 150 147 156
15.178732 -1.165352 68.289314 154 151 159
15.181515 -1.018330 68.301834 157 155 163
15.184745 -0.871279 68.316368 160 157 165
15.188387 -0.724186 68.332756 163 159 168
15.192405 -0.577036 68.350830 166 161 171
15.196753 -0.429818 68.370392 167 160 171
15.201383 -0.282520 68.391220 168 158 169
15.206245 -0.135135 68.413094 170 158 169
15.211293 0.012345 68.435806 174 159 170
15.216474 0.159924 68.459114 175 159 168
15.221743 0.307605 68.482819 172 155 165
15.227056 0.455390 68.506721 169 153 162
15.232371 0.603278 68.530640 169 153 162
15.237657 0.751267 68.554413 170 155 164
15.242880 0.899356 68.577919 171 157 166
15.248019 1.047540 68.601036 170 155 165
15.253055 1.195815 68.623695 167 152 163
15.257977 1.344178 68.645836 166 152 163
15.262778 1.492625 68.667442 168 153 164
15.267460 1.641152 68.688499 167 153 164
15.272027 1.789757 68.709053 163 148 160
15.276490 1.938437 68.729126 149 137 147
15.280862 2.087191 68.748795 143 131 141
15.285160 2.236018 68.768135 154 143 152
15.289403 2.384921 68.787224 164 153 163
15.293612 2.533901 68.806160 164 154 163
15.297808 2.682959 68.825035 163 153 162
15.302009 2.832101 68.843941 165 153 162
15.306234 2.981328 68.862946 165 152 162
15.310498 3.130645 68.882133 164 149 161
15.314816 3.280056 68.901558 162 146 159
15.319190 3.429564 68.921234 160 141 156
15.323625 3.579171 68.941185 156 134 152
15.328117 3.728878 68.961403 148 125 145
15.332657 3.878684 68.981827 139 116 137
15.337228 4.028586 69.002388 129 107 128
15.341806 4.178579 69.022987 121 101 121
15.346367 4.328656 69.043503 120 102 121
15.350872 4.478805 69.063774 124 108 126
15.355281 4.629012 69.083611 131 114 131
15.359551 4.779262 69.102821 139 122 137
15.363633 4.929534 69.121185 150 131 146
15.367475 5.079806 69.138474 160 139 154
15.371023 5.230052 69.154434 164 143 156
15.374225 5.380246 69.168839 160 138 152
15.377026 5.530358 69.181442 151 129 142
15.379375 5.680358 69.192009 142 121 134
15.381226 5.830214 69.200340 141 120 133
15.382536 5.979896 69.206230 144 124 136
15.383269 6.129374 69.209526 148 129 139
15.383395 6.278617 69.210091 151 132 141
15.382893 6.427601 69.207832 157 137 145
15.381750 6.576301 69.202698 165 144 151
15.379964 6.724698 69.194656 172 149 156
15.377541 6.872776 69.183754 174 149 155
15.374500 7.020524 69.170074 173 146 153
15.370868 7.167937 69.153732 173 143 152
15.366682 7.315017 69.134903 171 139 148
15.361991 7.461770 69.113800 166 131 142
15.356853 7.608210 69.090683 162 125 137
15.351331 7.754357 69.065834 159 119 132
15.345501 7.900239 69.039612 157 116 129
15.339444 8.045888 69.012360 157 113 126
15.333244 8.191343 68.984467 156 109 123
15.326993 8.336650 68.956345 155 106 120
15.320781 8.481857 68.928398 158 108 120
15.314705 8.627021 68.901054 162 110 121
15.308855 8.772197 68.874741 159 105 115
15.303325 8.917444 68.849854 157 100 109
15.298199 9.062825 68.826797 156 97 107
15.293560 9.208400 68.805923 154 94 105
15.289479 9.354225 68.787567 153 91 104
15.286024 9.500360 68.772026 151 90 104
15.283245 9.646856 68.759521 149 90 104
15.281187 9.793759 68.750259 147 91 105
15.279881 9.941112 68.744385 145 93 107
15.279343 10.088946 68.741966 142 96 108
15.279579 10.237289 68.743027 141 100 110
15.280584 10.386159 68.747551 143 106 114
15.282339 10.535565 68.755447 147 114 120
15.284815 10.685510 68.766586 150 120 125
15.287972 10.835986 68.780792 153 124 128
15.291764 10.986978 68.797852 154 126 130
15.296138 11.138468 68.817520 152 126 130
15.301032 11.290426 68.839546 151 124 130
15.306383 11.442822 68.863617 150 121 129
15.312125 11.595616 68.889450 148 115 125
15.318186 11.748768 68.916718 145 108 120
15.324496 11.902230 68.945114 143 100 114
15.330983 12.055954 68.974297 141 92 108
15.337574 12.209886 69.003944 139 86 102
15.344193 12.363969 69.033722 138 79 95
15.350765 12.518141 69.063293 135 74 88
15.357215 12.672340 69.092308 131 70 81
15.363464 12.826498 69.120430 125 65 75
15.369440 12.980545 69.147308 123 65 72
15.375061 13.134405 69.172600 123 68 75
15.380256 13.288006 69.195969 124 72 79
15.384949 13.441270 69.217087 124 76 82
15.389073 13.594122 69.235641 123 80 86
15.392567 13.746490 69.251358 122 84 90
15.395373 13.898307 69.263985 121 86 92
15.397449 14.049511 69.273331 121 87 95
15.398760 14.200049 69.279221 122 88 96
15.399286 14.349882 69.281593 123 88 97
15.399022 14.498981 69.280403 124 86 97
15.397981 14.647335 69.275719 124 83 95
15.396189 14.794950 69.267654 122 79 91
15.393691 14.941842 69.256416 121 76 88
15.390549 15.088056 69.242279 125 78 90
15.386836 15.233643 69.225578 132 86 97
15.382641 15.378675 69.206703 134 91 101
15.378062 15.523240 69.186104 131 91 100
15.373206 15.667433 69.164253 128 91 100
15.368181 15.811357 69.141647 128 93 101
15.363096 15.955123 69.118774 127 95 101
15.358060 16.098841 69.096115 126 98 102
15.353170 16.242615 69.074112 123 98 102
15.348517 16.386547 69.053177 121 97 100
15.344175 16.530725 69.033646 122 101 104
15.340209 16.675228 69.015800 127 109 111
15.336660 16.820110 68.999832 131 115 116
15.333556 16.965416 68.985870 132 118 119
15.330906 17.111168 68.973946 131 119 119
15.328701 17.257370 68.964027 130 119 118
15.326918 17.404009 68.956001 128 119 118
15.325520 17.551054 68.949715 127 119 118
15.324460 17.698462 68.944946 127 120 118
15.152490 -11.922323 67.516449 167 121 140
15.149636 -11.774563 67.503738 150 100 120
15.146649 -11.626755 67.490425 137 84 103
15.143522 -11.478898 67.476494 136 80 96
15.140266 -11.331005 67.461983 138 81 94
15.136896 -11.183089 67.446968 143 84 93
15.133443 -11.035178 67.431580 145 85 89
15.129946 -10.887302 67.416000 137 77 80
15.126451 -10.739494 67.400429 139 78 80
15.123013 -10.591795 67.385109 165 104 107
15.119688 -10.444238 67.370293 185 125 130
15.116539 -10.296865 67.356262 172 109 118
15.113627 -10.149713 67.343285 152 89 101
15.111013 -10.002812 67.331642 144 80 96
15.108758 -9.856197 67.321587 141 77 93
15.106916 -9.709891 67.313385 139 74 93
15.105544 -9.563917 67.307274 138 74 94
15.104690 -9.418292 67.303467 139 76 96
15.104397 -9.273029 67.302162 142 79 99
15.104704 -9.128134 67.303528 144 82 102
15.105647 -8.983611 67.307732 144 84 103
15.107253 -8.839458 67.314888 143 84 103
15.109545 -8.695669 67.325096 142 85 104
15.112538 -8.552233 67.338432 142 86 106
15.116243 -8.409135 67.354942 142 87 107
15.120663 -8.266356 67.374634 143 88 108
15.125793 -8.123875 67.397491 144 89 109
15.131619 -7.981661 67.423454 144 89 110
15.138121 -7.839686 67.452423 144 89 110
15.145267 -7.697914 67.484268 143 89 110
15.153020 -7.556306 67.518814 143 89 111
15.161329 -7.414823 67.555840 144 91 113
15.170135 -7.273417 67.595078 144 92 114
15.179374 -7.132045 67.636238 144 92 116
15.188969 -6.990661 67.678993 144 92 115
15.198836 -6.849215 67.722961 143 92 115
15.208890 -6.707661 67.767761 143 93 115
15.219039 -6.565955 67.812981 143 93 115
15.229185 -6.424053 67.858192 142 94 115
15.239235 -6.281916 67.902969 141 95 115
15.249094 -6.139510 67.946899 140 96 114
15.258670 -5.996802 67.989571 140 98 113
15.267874 -5.853768 68.030579 139 98 112
15.276627 -5.710389 68.069580 140 100 113
15.284854 -5.566650 68.106239 141 103 114
15.292492 -5.422545 68.140274 143 105 116
15.299485 -5.278070 68.171432 143 104 116
15.305792 -5.133230 68.199532 141 102 114
15.311377 -4.988034 68.224419 139 100 113
15.316218 -4.842496 68.245995 137 99 112
15.320310 -4.696635 68.264221 134 97 111
15.323652 -4.550473 68.279114 130 96 111
15.326262 -4.404036 68.290741 125 94 109
15.328161 -4.257352 68.299210 117 90 105
15.329391 -4.110452 68.304688 111 91 103
15.330000 -3.963367 68.307404 113 97 109
15.330043 -3.816130 68.307594 120 107 119
15.329589 -3.668773 68.305565 125 116 128
15.328711 -3.521328 68.301659 129 122 135
15.327492 -3.373824 68.296227 130 124 139
15.326016 -3.226290 68.289650 129 124 139
15.324373 -3.078751 68.282333 126 122 138
15.322655 -2.931228 68.274673 124 120 136
15.320950 -2.783741 68.267075 121 118 134
15.319344 -2.636304 68.259918 118 117 133
15.317920 -2.488927 68.253571 120 119 135
15.316752 -2.341617 68.248375 124 123 139
15.315912 -2.194376 68.244629 127 127 141
15.315455 -2.047203 68.242592 130 130 143
15.315433 -1.900092 68.242493 133 133 145
15.315879 -1.753035 68.244484 135 134 145
15.316820 -1.606022 68.248672 139 136 147
15.318271 -1.459039 68.255142 142 139 149
15.320233 -1.312072 68.263885 146 143 152
15.322701 -1.165105 68.274872 151 148 156
15.325652 -1.018124 68.288033 157 154 161
15.329063 -0.871112 68.303230 160 157 165
15.332898 -0.724054 68.320312 161 158 166
15.337116 -0.576937 68.339111 163 159 168
15.341670 -0.429749 68.359398 164 159 169
15.346512 -0.282478 68.380974 165 157 167
15.351590 -0.135116 68.403603 167 157 167
15.356852 0.012343 68.427048 172 160 169
15.362247 0.159905 68.451088 174 161 170
15.367726 0.307572 68.475502 172 159 167
15.373245 0.455346 68.500092 168 155 162
15.378762 0.603225 68.524673 167 155 161
15.384242 0.751209 68.549095 169 158 164
15.389652 0.899294 68.573196 171 160 167
15.394970 1.047476 68.596893 171 159 168
15.400178 1.195753 68.620102 170 158 167
15.405264 1.344118 68.642761 169 157 167
15.410220 1.492569 68.664848 169 157 167
15.415052 1.641101 68.686378 169 156 168
15.419763 1.789713 68.707367 167 155 166
15.424365 1.938401 68.727875 160 148 159
15.428874 2.087165 68.747963 152 141 151
15.433306 2.236005 68.767708 154 144 154
15.437684 2.384921 68.787216 161 152 161
15.442027 2.533916 68.806572 163 155 162
15.446362 2.682992 68.825882 163 155 162
15.450703 2.832154 68.845230 165 154 161
15.455074 2.981404 68.864708 165 153 161
15.459491 3.130748 68.884384 165 151 160
15.463964 3.280188 68.904320 163 148 159
15.468502 3.429729 68.924538 162 143 157
15.473104 3.579371 68.945045 158 138 153
15.477769 3.729117 68.965828 152 130 148
15.482484 3.878966 68.986839 143 121 140
15.487232 4.028913 69.007996 132 112 132
15.491991 4.178955 69.029198 123 105 125
15.496727 4.329082 69.050301 121 104 124
15.501404 4.479282 69.071144 124 109 127
15.505981 4.629543 69.091537 130 115 132
15.510413 4.779847 69.111282 137 122 138
15.514647 4.930173 69.130150 148 131 146
15.518633 5.080499 69.147911 158 140 154
15.522315 5.230800 69.164322 164 144 157
15.525641 5.381047 69.179138 164 142 155
15.528559 5.531213 69.192139 160 138 151
15.531017 5.681268 69.203094 156 134 148
15.532971 5.831180 69.211800 154 132 145
15.534383 5.980921 69.218094 152 132 142
15.535216 6.130461 69.221802 148 127 137
15.535445 6.279772 69.222824 142 122 131
15.535053 6.428831 69.221077 144 123 131
15.534029 6.577615 69.216515 153 133 139
15.532374 6.726105 69.209137 166 143 149
15.530097 6.874289 69.198990 172 148 153
15.527217 7.022156 69.186157 173 145 153
15.523765 7.169703 69.170776 173 143 152
15.519775 7.316932 69.153000 173 139 149
15.515300 7.463850 69.133064 168 132 143
15.510392 7.610469 69.111191 164 125 137
15.505115 7.756809 69.087677 162 120 132
15.499539 7.902896 69.062836 160 115 128
15.493743 8.048761 69.037010 158 112 125
15.487807 8.194441 69.010559 156 108 121
15.481815 8.339977 68.983856 154 103 116
15.475856 8.485415 68.957306 154 102 114
15.470016 8.630806 68.931290 157 103 112
15.464388 8.776204 68.906204 155 100 109
15.459053 8.921664 68.882439 155 96 105
15.454098 9.067244 68.860352 155 95 104
15.449598 9.213001 68.840309 155 93 104
15.445625 9.358990 68.822609 154 91 103
15.442244 9.505266 68.807533 152 89 103
15.439504 9.651879 68.795326 149 89 103
15.437450 9.798876 68.786179 146 90 104
15.436114 9.946295 68.780228 143 91 105
15.435517 10.094172 68.777565 139 94 106
15.435665 10.242531 68.778221 137 96 107
15.436554 10.391392 68.782188 140 103 112
15.438169 10.540766 68.789375 145 112 120
15.440485 10.690656 68.799698 149 119 126
15.443467 10.841058 68.812988 151 123 128
15.447070 10.991960 68.829041 153 125 130
15.451246 11.143344 68.847649 153 126 130
15.455936 11.295184 68.868546 153 124 130
15.461082 11.447451 68.891472 152 121 130
15.466616 11.600108 68.916138 151 116 126
15.472475 11.753119 68.942245 148 110 121
15.478588 11.906438 68.969482 145 102 116
15.484886 12.060018 68.997543 143 95 109
15.491297 12.213807 69.026108 141 88 102
15.497747 12.367752 69.054848 138 82 95
15.504165 12.521793 69.083443 134 76 88
15.510472 12.675869 69.111549 131 72 83
15.516595 12.829912 69.138832 126 68 77
15.522454 12.983854 69.164940 124 68 75
15.527975 13.137622 69.189537 124 70 76
15.533080 13.291139 69.212288 124 72 79
15.537695 13.444330 69.232849 125 75 83
15.541750 13.597120 69.250916 126 78 86
15.545180 13.749436 69.266197 126 81 89
15.547929 13.901208 69.278450 126 82 92
15.549947 14.052373 69.287437 126 84 93
15.551199 14.202877 69.293022 126 86 95
15.551662 14.352676 69.295082 127 86 96
15.551328 14.501741 69.293594 128 87 97
15.550206 14.650060 69.288597 128 86 97
15.548323 14.797629 69.280205 128 86 96
15.545720 14.944472 69.268608 127 85 94
15.542459 15.090626 69.254074 127 85 94
15.538613 15.236143 69.236938 129 87 96
15.534270 15.381095 69.217590 129 89 97
15.529530 15.525564 69.196465 129 91 98
15.524498 15.669651 69.174049 128 93 99
15.519289 15.813458 69.150833 127 94 100
15.514013 15.957098 69.127327 127 96 100
15.508781 16.100681 69.104012 126 98 102
15.503695 16.244318 69.081352 125 100 102
15.498851 16.388111 69.059769 123 100 102
15.494326 16.532152 69.039604 123 103 104
15.490189 16.676525 69.021172 126 109 110
15.486485 16.821287 69.004662 130 115 116
15.483247 16.966492 68.990242 132 118 118
15.480488 17.112162 68.977943 131 119 119
15.478203 17.258307 68.967766 130 119 119
15.476372 17.404919 68.959602 128 118 118
15.474962 17.551973 68.953323 128 118 118
15.296463 -11.775573 67.509529 147 91 111
15.293176 -11.627545 67.495018 142 83 102
15.289744 -11.479472 67.479874 144 84 100
15.286179 -11.331366 67.464134 145 84 99
15.282502 -11.183245 67.447906 146 84 95
15.278747 -11.035138 67.431335 145 82 90
15.274958 -10.887078 67.414612 141 78 84
15.271185 -10.739102 67.397964 143 80 85
15.267484 -10.591248 67.381630 154 90 96
15.263917 -10.443555 67.365883 161 96 105
15.260547 -10.296062 67.351013 155 89 100
15.257439 -10.148809 67.337296 146 82 96
15.254652 -10.001825 67.324997 143 78 95
15.252250 -9.855144 67.314392 140 75 93
15.250288 -9.708787 67.305733 138 74 93
15.248821 -9.562779 67.299263 138 76 95
15.247897 -9.417134 67.295189 139 77 97
15.247559 -9.271862 67.293694 141 79 99
15.247845 -9.126971 67.294952 142 81 101
15.248788 -8.982461 67.299118 142 83 102
15.250415 -8.838330 67.306297 142 85 103
15.252746 -8.694569 67.316582 143 86 104
15.255796 -8.551167 67.330048 142 86 105
15.259575 -8.408109 67.346725 142 87 106
15.264084 -8.265373 67.366623 142 87 107
15.269315 -8.122936 67.389709 143 87 107
15.275252 -7.980769 67.415916 143 87 107
15.281878 -7.838841 67.445152 143 86 107
15.289154 -7.697115 67.477264 142 86 107
15.297044 -7.555554 67.512085 142 86 109
15.305494 -7.414114 67.549385 143 87 111
15.314444 -7.272750 67.588882 144 88 112
15.323825 -7.131417 67.630280 143 87 112
15.333559 -6.990067 67.673241 143 87 112
15.343563 -6.848651 67.717392 143 87 112
15.353745 -6.707123 67.762329 143 88 113
15.364011 -6.565437 67.807640 142 89 113
15.374264 -6.423551 67.852890 141 90 113
15.384404 -6.281423 67.897644 141 92 112
15.394338 -6.139020 67.941483 140 93 111
15.403970 -5.996311 67.983994 139 94 110
15.413211 -5.853270 68.024780 138 95 109
15.421981 -5.709878 68.063484 138 96 110
15.430205 -5.566123 68.099785 141 100 112
15.437819 -5.421997 68.133385 143 103 114
15.444769 -5.277499 68.164062 143 103 114
15.451012 -5.132634 68.191612 141 101 113
15.456514 -4.987411 68.215897 139 99 113
15.461258 -4.841846 68.236832 137 98 112
15.465237 -4.695959 68.254395 134 96 111
15.468454 -4.549772 68.268593 130 94 110
15.470930 -4.403312 68.279518 123 92 107
15.472692 -4.256609 68.287292 116 89 103
15.473780 -4.109694 68.292091 113 91 104
15.474246 -3.962599 68.294151 118 100 111
15.474150 -3.815356 68.293732 124 111 122
15.473564 -3.667999 68.291145 128 118 129
15.472566 -3.520559 68.286736 130 122 134
15.471237 -3.373066 68.280876 130 124 138
15.469668 -3.225548 68.273949 130 125 140
15.467949 -3.078030 68.266365 129 125 140
15.466172 -2.930535 68.258522 127 124 139
15.464428 -2.783078 68.250824 125 123 137
15.462803 -2.635675 68.243645 123 122 137
15.461382 -2.488337 68.237381 123 124 138
15.460238 -2.341067 68.232330 126 126 140
15.459443 -2.193868 68.228821 128 128 141
15.459051 -2.046738 68.227097 129 130 142
15.459112 -1.899670 68.227364 131 132 143
15.459661 -1.752658 68.229790 133 134 145
15.460724 -1.605687 68.234474 137 136 146
15.462311 -1.458747 68.241478 140 138 148
15.464425 -1.311820 68.250809 144 141 149
15.467056 -1.164893 68.262421 149 145 153
15.470187 -1.017948 68.276237 155 152 159
15.473787 -0.870970 68.292130 159 156 164
15.477820 -0.723944 68.309929 161 158 166
15.482244 -0.576856 68.329453 162 158 167
15.487011 -0.429693 68.350494 163 158 167
15.492069 -0.282444 68.372818 163 158 166
15.497366 -0.135102 68.396194 165 158 166
15.502847 0.012342 68.420380 169 160 168
15.508462 0.159891 68.445160 172 162 170
15.514157 0.307549 68.470299 172 162 168
15.519890 0.455316 68.495598 168 159 164
15.525615 0.603192 68.520866 166 157 162
15.531294 0.751174 68.545929 166 158 163
15.536898 0.899260 68.570663 168 159 166
15.542401 1.047447 68.594948 169 160 168
15.547787 1.195728 68.618713 170 161 169
15.553041 1.344101 68.641907 170 162 171
15.558160 1.492561 68.664497 171 161 172
15.563145 1.641104 68.686501 170 159 172
15.568003 1.789728 68.707939 169 158 170
15.572746 1.938429 68.728874 166 156 167
15.577392 2.087208 68.749374 161 152 162
15.581958 2.236064 68.769531 159 151 161
15.586468 2.384998 68.789429 162 155 163
15.590943 2.534012 68.809189 164 157 163
15.595408 2.683110 68.828896 164 157 162
15.599886 2.832294 68.848656 164 156 162
15.604395 2.981571 68.868553 164 154 161
15.608952 3.130942 68.888664 165 152 161
15.613571 3.280413 68.909050 165 149 160
15.618258 3.429987 68.929741 164 146 159
15.623014 3.579666 68.950729 160 141 156
15.627836 3.729452 68.972008 154 134 151
15.632710 3.879342 68.993523 146 126 144
15.637618 4.029333 69.015182 135 118 136
15.642535 4.179420 69.036880 126 110 129
15.647426 4.329594 69.058464 121 106 126
15.652255 4.479843 69.079781 123 109 128
15.656978 4.630152 69.100624 128 115 133
15.661545 4.780504 69.120781 134 121 138
15.665908 4.930878 69.140038 143 129 144
15.670012 5.081252 69.158150 154 139 153
15.673802 5.231598 69.174881 162 145 158
15.677227 5.381892 69.189995 164 145 158
15.680235 5.532103 69.203262 165 145 158
15.682776 5.682203 69.214485 167 146 159
15.684808 5.832161 69.223450 168 146 158
15.686295 5.981951 69.230011 166 144 155
15.687204 6.131543 69.234024 159 137 148
15.687515 6.280912 69.235397 148 127 137
15.687211 6.430036 69.234055 143 123 130
15.686287 6.578894 69.229980 148 128 134
15.684747 6.727470 69.223183 159 138 144
15.682602 6.875751 69.213715 166 143 149
15.679875 7.023731 69.201683 167 142 148
15.676596 7.171407 69.187210 171 142 150
15.672803 7.318780 69.170464 173 140 150
15.668543 7.465858 69.151665 170 135 145
15.663871 7.612655 69.131050 165 128 138
15.658850 7.759190 69.108887 162 121 132
15.653543 7.905486 69.085464 160 115 127
15.648025 8.051571 69.061111 158 111 123
15.642372 8.197481 69.036163 156 107 119
15.636663 8.343254 69.010971 153 102 113
15.630982 8.488934 68.985893 152 98 109
15.625411 8.634565 68.961304 151 96 105
15.620032 8.780199 68.937569 151 94 103
15.614928 8.925887 68.915039 153 93 101
15.610176 9.071684 68.894073 154 93 101
15.605852 9.217642 68.874985 154 92 101
15.602021 9.363814 68.858078 154 90 101
15.598748 9.510253 68.843628 153 89 101
15.596082 9.657005 68.831863 149 89 102
15.594065 9.804116 68.822960 146 89 103
15.592733 9.951625 68.817085 143 91 104
15.592105 10.099565 68.814308 139 92 105
15.592192 10.247962 68.814697 136 95 106
15.592991 10.396836 68.818222 136 100 111
15.594493 10.546201 68.824852 141 109 118
15.596673 10.696059 68.834473 146 117 124
15.599500 10.846409 68.846947 149 122 128
15.602934 10.997240 68.862106 151 125 130
15.606928 11.148537 68.879730 152 125 132
15.611430 11.300277 68.899605 153 125 132
15.616383 11.452434 68.921463 152 122 131
15.621724 11.604973 68.945030 151 117 129
15.627390 11.757857 68.970039 149 112 125
15.633315 11.911048 68.996185 147 105 119
15.639432 12.064500 69.023186 144 98 112
15.645671 12.218163 69.050720 141 90 105
15.651960 12.371984 69.078476 138 84 97
15.658229 12.525908 69.106148 133 77 90
15.664400 12.679873 69.133377 129 72 83
15.670400 12.833816 69.159859 125 69 78
15.676150 12.987665 69.185242 124 69 77
15.681575 13.141351 69.209175 124 70 78
15.686595 13.294797 69.231339 124 71 79
15.691137 13.447930 69.251381 125 73 82
15.695128 13.600671 69.268997 126 75 85
15.698501 13.752946 69.283882 126 77 88
15.701195 13.904684 69.295769 125 79 90
15.703158 14.055820 69.304436 125 81 92
15.704355 14.206300 69.309723 126 83 93
15.704759 14.356077 69.311501 126 84 95
15.704356 14.505118 69.309723 127 87 96
15.703157 14.653407 69.304436 128 89 97
15.701184 14.800944 69.295723 127 89 97
15.698479 14.947746 69.283783 126 89 97
15.695097 15.093846 69.268860 125 89 97
15.691115 15.239300 69.251289 125 89 96
15.686622 15.384175 69.231453 124 90 96
15.681715 15.528557 69.209801 125 92 97
15.676505 15.672541 69.186806 125 95 98
15.671103 15.816233 69.162964 126 97 100
15.665628 15.959747 69.138802 127 99 102
15.660192 16.103197 69.114807 127 101 103
15.654900 16.246693 69.091454 127 103 105
15.649849 16.390341 69.069160 125 104 105
15.645126 16.534239 69.048317 123 105 105
15.640800 16.678471 69.029221 124 107 108
15.636925 16.823105 69.012123 127 112 113
15.633533 16.968191 68.997154 130 117 118
15.630644 17.113762 68.984406 131 120 120
15.628257 17.259834 68.973869 131 120 120
15.626355 17.406399 68.965469 129 119 119
15.440289 -11.628763 67.502090 146 82 103
15.436564 -11.480481 67.485802 146 83 101
15.432703 -11.332170 67.468918 146 82 98
15.428733 -11.183851 67.451561 146 81 95
15.424689 -11.035556 67.433884 144 80 91
15.420622 -10.887319 67.416100 143 78 88
15.416582 -10.739179 67.398445 144 79 89
15.412629 -10.591174 67.381165 147 81 91
15.408829 -10.443347 67.364548 147 81 92
15.405244 -10.295735 67.348869 145 78 91
15.401940 -10.148377 67.334435 143 78 93
15.398983 -10.001307 67.321503 142 77 93
15.396431 -9.854550 67.310349 140 76 94
15.394343 -9.708136 67.301216 138 75 94
15.392773 -9.562081 67.294350 139 77 97
15.391766 -9.416401 67.289948 140 79 99
15.391365 -9.271106 67.288200 140 81 101
15.391610 -9.126201 67.289268 141 82 102
15.392530 -8.981684 67.293289 142 84 103
15.394152 -8.837553 67.300385 142 86 104
15.396496 -8.693800 67.310631 143 87 105
15.399574 -8.550410 67.324089 143 87 105
15.403396 -8.407368 67.340790 143 87 106
15.407960 -8.264652 67.360748 143 86 106
15.413260 -8.122238 67.383919 143 86 106
15.419280 -7.980097 67.410240 142 86 107
15.425995 -7.838195 67.439598 143 85 107
15.433372 -7.696497 67.471848 143 83 107
15.441369 -7.554963 67.506805 143 83 109
15.449931 -7.413549 67.544235 143 84 110
15.458998 -7.272212 67.583870 143 84 110
15.468495 -7.130902 67.625397 142 83 110
15.478346 -6.989573 67.668465 142 82 109
15.488462 -6.848176 67.712692 141 82 109
15.498751 -6.706662 67.757668 141 82 109
15.509115 -6.564986 67.802979 141 83 109
15.519454 -6.423105 67.848183 141 85 109
15.529670 -6.280979 67.892838 140 87 108
15.539663 -6.138572 67.936531 139 89 108
15.549338 -5.995855 67.978828 139 90 107
15.558605 -5.852801 68.019341 137 90 105
15.567381 -5.709393 68.057709 137 92 107
15.575592 -5.565618 68.093605 140 97 110
15.583175 -5.421469 68.126755 143 101 113
15.590074 -5.276946 68.156914 143 102 114
15.596249 -5.132054 68.183907 141 101 113
15.601666 -4.986804 68.207596 139 100 113
15.606312 -4.841213 68.227905 138 99 113
15.610180 -4.695300 68.244820 135 98 112
15.613278 -4.549090 68.258362 131 96 111
15.615626 -4.402610 68.268631 125 93 107
15.617257 -4.255890 68.275757 119 91 104
15.618213 -4.108962 68.279938 117 94 104
15.618550 -3.961859 68.281410 120 101 111
15.618333 -3.814614 68.280457 125 109 120
15.617632 -3.667260 68.277397 128 116 127
15.616529 -3.519829 68.272575 130 120 133
15.615112 -3.372350 68.266380 130 121 136
15.613470 -3.224851 68.259201 129 122 138
15.611695 -3.077358 68.251442 129 125 140
15.609882 -2.929890 68.243515 130 126 141
15.608121 -2.782466 68.235809 127 127 139
15.606501 -2.635099 68.228729 126 126 139
15.605103 -2.487798 68.222626 127 127 139
15.604007 -2.340569 68.217827 128 129 141
15.603275 -2.193412 68.214630 129 130 141
15.602968 -2.046323 68.213287 129 131 142
15.603130 -1.899298 68.213997 131 132 144
15.603799 -1.752327 68.216919 133 134 145
15.604996 -1.605397 68.222153 136 135 146
15.606733 -1.458496 68.229752 138 136 146
15.609011 -1.311607 68.239700 141 138 147
15.611819 -1.164715 68.251984 147 143 152
15.615136 -1.017803 68.266487 153 149 158
15.618933 -0.870855 68.283081 158 154 163
15.623172 -0.723856 68.301613 161 157 166
15.627807 -0.576792 68.321877 162 158 166
15.632792 -0.429650 68.343666 162 158 166
15.638071 -0.282419 68.366753 163 158 166
15.643591 -0.135091 68.390884 164 158 166
15.649299 0.012341 68.415833 166 159 167
15.655136 0.159882 68.441360 169 161 168
15.661055 0.307535 68.467232 170 163 168
15.667005 0.455300 68.493248 168 161 166
15.672942 0.603177 68.519203 165 158 163
15.678829 0.751163 68.544937 164 157 162
15.684633 0.899256 68.570312 164 157 164
15.690330 1.047451 68.595215 165 158 166
15.695899 1.195743 68.619560 167 160 168
15.701327 1.344128 68.643295 170 163 172
15.706614 1.492603 68.666405 172 164 175
15.711758 1.641162 68.688896 171 163 175
15.716767 1.789802 68.710800 170 161 173
15.721656 1.938522 68.732170 168 160 171
15.726439 2.087321 68.753082 166 159 169
15.731140 2.236197 68.773636 165 158 167
15.735782 2.385154 68.793922 165 158 165
15.740387 2.534192 68.814056 164 158 164
15.744981 2.683314 68.834145 164 158 163
15.749588 2.832526 68.854279 164 157 162
15.754228 2.981831 68.874565 165 155 162
15.758918 3.131233 68.895073 165 153 162
15.763671 3.280737 68.915848 166 151 162
15.768497 3.430346 68.936951 165 148 161
15.773394 3.580062 68.958351 162 143 159
15.778356 3.729886 68.980049 157 138 154
15.783373 3.879817 69.001984 149 130 148
15.788422 4.029851 69.024055 139 122 141
15.793477 4.179982 69.046158 129 113 133
15.798505 4.330200 69.068138 122 108 128
15.803462 4.480493 69.089813 122 109 129
15.808308 4.630847 69.110992 126 114 133
15.812990 4.781242 69.131462 130 119 137
15.817456 4.931659 69.150993 137 125 142
15.821655 5.082074 69.169342 148 135 151
15.825529 5.232461 69.186279 158 143 157
15.829027 5.382793 69.201576 161 145 158
15.832100 5.533042 69.215012 164 145 158
15.834700 5.683179 69.226379 167 147 160
15.836787 5.833177 69.235497 170 149 161
15.838326 5.983007 69.242233 171 149 161
15.839292 6.132643 69.246452 167 146 157
15.839663 6.282063 69.248070 161 140 149
15.839429 6.431243 69.247055 154 133 142
15.838591 6.580168 69.243385 153 132 139
15.837151 6.728822 69.237091 157 136 142
15.835127 6.877194 69.228241 159 136 142
15.832543 7.025281 69.216949 161 136 142
15.829432 7.173079 69.203346 168 141 148
15.825831 7.320593 69.187607 174 143 152
15.821790 7.467831 69.169937 172 138 148
15.817359 7.614804 69.150566 168 130 140
15.812597 7.761533 69.129753 163 123 132
15.807570 7.908038 69.107773 160 116 126
15.802344 8.054348 69.084923 158 111 121
15.796992 8.200493 69.061523 157 108 117
15.791588 8.346510 69.037903 154 103 113
15.786207 8.492438 69.014374 151 96 106
15.780928 8.638320 68.991295 148 91 101
15.775827 8.784202 68.968994 148 89 98
15.770981 8.930131 68.947807 151 90 98
15.766463 9.076159 68.928055 152 90 99
15.762343 9.222334 68.910049 153 89 98
15.758687 9.368707 68.894058 153 88 98
15.755551 9.515326 68.880356 152 88 99
15.752990 9.662237 68.869156 149 88 100
15.751041 9.809483 68.860634 146 89 101
15.749742 9.957102 68.854958 143 91 103
15.749113 10.105126 68.852203 140 93 105
15.749166 10.253583 68.852440 137 96 107
15.749905 10.402493 68.855667 137 101 111
15.751316 10.551868 68.861839 140 109 118
15.753382 10.701715 68.870872 143 116 124
15.756076 10.852033 68.882645 146 121 128
15.759360 11.002813 68.897011 148 125 131
15.763192 11.154043 68.913757 150 126 133
15.767522 11.305703 68.932686 151 126 133
15.772295 11.457767 68.953552 152 124 133
15.777456 11.610205 68.976120 151 120 131
15.782942 11.762982 69.000099 150 115 128
15.788690 11.916061 69.025230 148 109 123
15.794635 12.069399 69.051216 146 102 116
15.800710 12.222950 69.077774 142 94 108
15.806846 12.376663 69.104607 138 86 100
15.812971 12.530482 69.131378 132 78 91
15.819012 12.684350 69.157791 125 70 82
15.824894 12.838203 69.183510 121 65 77
15.830541 12.991974 69.208191 121 66 76
15.835876 13.145592 69.231514 121 67 77
15.840816 13.298980 69.253113 122 68 78
15.845289 13.452064 69.272675 122 69 80
15.849219 13.604765 69.289848 122 71 81
15.852537 13.757010 69.304359 122 73 83
15.855181 13.908726 69.315910 122 75 86
15.857096 14.059846 69.324287 121 77 88
15.858240 14.210311 69.329292 122 80 90
15.858586 14.360075 69.330803 122 83 93
15.858120 14.509103 69.328766 123 87 96
15.856846 14.657374 69.323196 125 90 98
15.854785 14.804887 69.314186 125 92 99
15.851976 14.951656 69.301903 124 92 99
15.848476 15.097713 69.286606 122 92 98
15.844361 15.243113 69.268616 121 93 98
15.839716 15.387919 69.248306 122 93 98
15.834642 15.532219 69.226128 123 95 99
15.829251 15.676109 69.202560 125 98 101
15.823657 15.819694 69.178101 127 101 103
15.817978 15.963087 69.153275 128 104 105
15.812331 16.106407 69.128586 130 107 108
15.806827 16.249765 69.104523 131 110 111
15.801563 16.393270 69.081512 128 110 111
15.796633 16.537025 69.059952 123 107 108
15.792109 16.681116 69.040176 119 106 107
15.788047 16.825615 69.022415 122 110 111
15.784489 16.970579 69.006859 127 117 118
15.781454 17.116043 68.993591 130 121 122
15.778946 17.262026 68.982635 130 122 123
15.776955 17.408533 68.973923 130 123 123
15.584021 -11.481939 67.494377 144 78 97
15.579879 -11.333431 67.476433 143 77 96
15.575629 -11.184924 67.458031 143 77 94
15.571313 -11.036448 67.439339 142 77 92
15.566978 -10.888040 67.420563 142 76 91
15.562682 -10.739738 67.401962 141 77 91
15.558488 -10.591588 67.383797 141 77 90
15.554460 -10.443626 67.366348 141 75 90
15.550666 -10.295896 67.349915 141 75 90
15.547172 -10.148431 67.334778 141 76 92
15.544041 -10.001265 67.321220 141 77 94
15.541335 -9.854427 67.309502 140 77 95
15.539112 -9.707942 67.299881 139 78 97
15.537426 -9.561829 67.292572 140 79 99
15.536322 -9.416100 67.287788 140 81 101
15.535841 -9.270762 67.285706 141 82 103
15.536022 -9.125824 67.286499 142 83 104
15.536895 -8.981281 67.290276 143 85 105
15.538486 -8.837131 67.297165 144 87 106
15.540812 -8.693362 67.307236 144 87 106
15.543888 -8.549962 67.320557 143 87 106
15.547720 -8.406914 67.337158 143 87 105
15.552308 -8.264195 67.357025 143 86 105
15.557643 -8.121782 67.380135 143 86 105
15.563711 -7.979644 67.406410 142 85 105
15.570485 -7.837749 67.435753 143 84 106
15.577930 -7.696058 67.467995 143 83 107
15.586002 -7.554532 67.502960 143 83 108
15.594648 -7.413128 67.540405 144 82 109
15.603802 -7.271800 67.580048 143 82 110
15.613391 -7.130499 67.621574 143 81 110
15.623332 -6.989177 67.664627 142 80 109
15.633537 -6.847785 67.708832 141 79 108
15.643910 -6.706275 67.753754 140 78 106
15.654352 -6.564599 67.798981 138 78 104
15.664760 -6.422714 67.844055 138 79 104
15.675032 -6.280581 67.888542 139 82 104
15.685069 -6.138164 67.932014 139 85 104
15.694771 -5.995432 67.974037 139 86 104
15.704049 -5.852361 68.014221 137 87 103
15.712821 -5.708932 68.052208 136 88 103
15.721009 -5.565133 68.087669 137 91 106
15.728552 -5.420959 68.120338 140 96 110
15.735394 -5.276408 68.149971 142 99 113
15.741495 -5.131489 68.176399 142 100 113
15.746828 -4.986212 68.199493 141 100 113
15.751373 -4.840594 68.219177 139 100 114
15.755134 -4.694656 68.235466 137 99 113
15.758115 -4.548425 68.248375 134 97 112
15.760343 -4.401927 68.258026 129 96 109
15.761851 -4.255192 68.264557 124 94 106
15.762687 -4.108254 68.268173 121 95 105
15.762908 -3.961147 68.269135 122 99 109
15.762583 -3.813903 68.267723 125 105 116
15.761786 -3.666555 68.264275 128 111 124
15.760598 -3.519136 68.259132 129 115 129
15.759112 -3.371674 68.252701 126 113 129
15.757418 -3.224197 68.245354 122 112 128
15.755610 -3.076730 68.237534 124 118 132
15.753783 -2.929294 68.229614 128 125 138
15.752029 -2.781904 68.222023 128 127 139
15.750437 -2.634574 68.215126 128 128 139
15.749087 -2.487312 68.209282 128 130 141
15.748057 -2.340122 68.204819 129 131 142
15.747413 -2.193006 68.202026 129 130 141
15.747209 -2.045959 68.201141 129 130 141
15.747494 -1.898975 68.202377 130 131 143
15.748298 -1.752043 68.205864 133 133 145
15.749646 -1.605152 68.211700 136 134 146
15.751547 -1.458286 68.219933 137 134 146
15.754001 -1.311431 68.230560 139 136 147
15.756995 -1.164570 68.243530 144 140 151
15.760509 -1.017687 68.258743 150 146 156
15.764511 -0.870765 68.276077 155 150 161
15.768961 -0.723789 68.295349 159 154 164
15.773814 -0.576745 68.316368 161 156 166
15.779021 -0.429620 68.338921 160 156 165
15.784527 -0.282403 68.362770 162 156 165
15.790277 -0.135085 68.387672 164 157 165
15.796212 0.012341 68.413376 165 157 165
15.802279 0.159878 68.439651 167 158 165
15.808425 0.307531 68.466270 169 161 166
15.814599 0.455299 68.493011 168 161 166
15.820755 0.603181 68.519669 166 159 164
15.826856 0.751176 68.546097 164 157 163
15.832867 0.899280 68.572128 163 156 164
15.838761 1.047488 68.597656 163 157 165
15.844521 1.195796 68.622597 165 159 168
15.850132 1.344199 68.646904 169 163 172
15.855592 1.492693 68.670547 172 166 176
15.860900 1.641273 68.693542 172 165 177
15.866066 1.789935 68.715912 170 163 175
15.871103 1.938679 68.737724 169 162 173
15.876029 2.087502 68.759064 167 161 171
15.880868 2.236405 68.780022 167 160 169
15.885641 2.385388 68.800697 165 159 167
15.890375 2.534454 68.821198 165 159 164
15.895095 2.683607 68.841637 164 158 163
15.899826 2.832849 68.862129 164 157 162
15.904591 2.982186 68.882759 165 156 163
15.909405 3.131622 68.903618 166 155 163
15.914285 3.281161 68.924744 167 153 164
15.919235 3.430806 68.946190 166 151 163
15.924259 3.580560 68.967949 165 147 162
15.929348 3.730424 68.989990 161 142 158
15.934490 3.880395 69.012260 153 135 153
15.939663 4.030470 69.034660 143 126 145
15.944839 4.180643 69.057083 132 117 137
15.949981 4.330903 69.079346 124 110 130
15.955049 4.481238 69.101295 122 109 129
15.959994 4.631632 69.122719 124 112 132
15.964768 4.782068 69.143394 128 116 134
15.969317 4.932523 69.163094 133 121 138
15.973586 5.082973 69.181580 143 130 145
15.977522 5.233395 69.198631 153 139 153
15.981073 5.383760 69.214012 159 144 157
15.984189 5.534041 69.227501 161 145 158
15.986826 5.684209 69.238922 164 146 158
15.988947 5.834239 69.248108 166 148 159
15.990520 5.984104 69.254921 167 149 160
15.991523 6.133779 69.259270 168 148 159
15.991939 6.283241 69.261070 165 146 156
15.991761 6.432474 69.260300 161 142 150
15.990993 6.581459 69.256973 160 140 147
15.989642 6.730186 69.251122 160 140 146
15.987732 6.878645 69.242844 159 138 144
15.985285 7.026834 69.232246 161 137 144
15.982336 7.174752 69.219482 169 142 149
15.978926 7.322403 69.204712 175 145 154
15.975101 7.469797 69.188148 174 140 149
15.970914 7.616946 69.170006 170 133 142
15.966421 7.763868 69.150551 164 125 133
15.961680 7.910584 69.130020 159 117 125
15.956758 8.057120 69.108704 158 112 120
15.951721 8.203505 69.086884 158 109 117
15.946637 8.349771 69.064865 157 105 113
15.941575 8.495953 69.042938 152 96 106
15.936608 8.642094 69.021431 147 89 99
15.931808 8.788232 69.000641 148 88 96
15.927243 8.934414 68.980873 149 88 96
15.922984 9.080685 68.962425 151 87 96
15.919096 9.227090 68.945587 151 86 95
15.915639 9.373677 68.930611 151 86 95
15.912671 9.520494 68.917763 150 86 95
15.910240 9.667580 68.907234 148 87 97
15.908389 9.814978 68.899216 145 88 98
15.907149 9.962726 68.893845 142 90 102
15.906547 10.110854 68.891235 140 93 105
15.906593 10.259390 68.891434 138 97 108
15.907292 10.408355 68.894463 137 102 112
15.908638 10.557761 68.900291 139 108 118
15.910614 10.707617 68.908852 141 115 124
15.913197 10.857923 68.920036 144 121 129
15.916350 11.008673 68.933693 147 125 132
15.920036 11.159855 68.949661 148 127 134
15.924211 11.311452 68.967735 149 127 135
15.928821 11.463441 68.987701 150 125 135
15.933813 11.615794 69.009323 151 123 133
15.939129 11.768480 69.032349 150 118 131
15.944711 11.921464 69.056519 149 114 126
15.950494 12.074704 69.081566 147 107 120
15.956412 12.228157 69.107208 144 99 113
