ply
format ascii 1.0
element vertex 1182
property float x
property float y
property float z
property uchar red
property uchar green
property uchar blue
end_header
6.750441 -11.493833 65.089897 154 154 167
6.755488 -11.362009 65.138557 181 182 195
6.760667 -11.230196 65.188499 212 213 224
6.765969 -11.098369 65.239624 220 219 229
6.771379 -10.966496 65.291786 231 231 237
6.776875 -10.834536 65.344788 248 247 249
6.782435 -10.702448 65.398399 252 251 252
6.788033 -10.570188 65.452370 238 235 238
6.793640 -10.437708 65.506432 205 202 205
6.799225 -10.304964 65.560287 180 178 180
6.804761 -10.171912 65.613663 184 183 183
6.810218 -10.038515 65.666283 213 212 212
6.815569 -9.904737 65.717880 241 240 241
6.820790 -9.770551 65.768219 250 250 250
6.825859 -9.635932 65.817093 241 241 240
6.830757 -9.500865 65.864326 195 194 191
6.835468 -9.365339 65.909760 114 114 109
6.839984 -9.229353 65.953293 94 93 87
6.844295 -9.092907 65.994865 168 167 162
6.848398 -8.956011 66.034431 226 225 221
6.852294 -8.818677 66.071999 204 202 200
6.855986 -8.680923 66.107590 155 152 152
6.859480 -8.542768 66.141289 139 135 138
6.862787 -8.404240 66.173172 164 159 165
6.865921 -8.265365 66.203384 207 204 209
6.868896 -8.126172 66.232071 238 238 241
6.871732 -7.986694 66.259415 245 245 248
6.874450 -7.846964 66.285629 243 242 244
6.877073 -7.707015 66.310921 245 245 246
6.879626 -7.566878 66.335541 251 251 251
6.882134 -7.426588 66.359726 242 242 242
6.884625 -7.286175 66.383743 194 192 193
6.887125 -7.145668 66.407845 136 132 134
6.889660 -7.005092 66.432289 135 130 132
6.892256 -6.864473 66.457329 176 170 174
6.894938 -6.723828 66.483185 191 185 189
6.897728 -6.583176 66.510086 187 181 186
6.900646 -6.442526 66.538216 208 204 208
6.903708 -6.301888 66.567749 237 235 238
6.906929 -6.161263 66.598808 238 235 239
6.910318 -6.020652 66.631485 200 195 203
6.913881 -5.880047 66.665840 152 145 156
6.917619 -5.739439 66.701874 141 134 142
6.921526 -5.598813 66.739548 166 158 163
6.925593 -5.458149 66.778763 200 194 197
6.929805 -5.317430 66.819382 232 228 229
6.934143 -5.176628 66.861214 239 236 237
6.938582 -5.035719 66.904007 206 203 206
6.943091 -4.894675 66.947487 169 166 170
6.947639 -4.753470 66.991341 183 179 185
6.952189 -4.612079 67.035217 225 221 226
6.956705 -4.470475 67.078758 231 223 229
6.961149 -4.328640 67.121613 186 171 179
6.965487 -4.186555 67.163445 157 136 143
6.969686 -4.044210 67.203926 190 172 175
6.973719 -3.901597 67.242813 234 224 225
6.977563 -3.758715 67.279884 249 242 239
6.981205 -3.615569 67.314995 218 206 199
6.984638 -3.472167 67.348091 159 144 136
6.987861 -3.328522 67.379181 154 140 134
6.990885 -3.184653 67.408340 198 185 183
6.993726 -3.040578 67.435722 227 213 215
6.996403 -2.896318 67.461540 225 208 214
6.998944 -2.751893 67.486038 207 185 195
7.001376 -2.607321 67.509491 191 165 179
7.003726 -2.462620 67.532158 181 149 168
7.006023 -2.317803 67.554298 164 127 149
7.008289 -2.172881 67.576149 153 111 134
7.010541 -2.027862 67.597870 149 102 124
7.012793 -1.882748 67.619576 131 77 99
7.015047 -1.737541 67.641312 110 50 70
7.017302 -1.592241 67.663048 107 42 59
7.019547 -1.446845 67.684700 116 44 57
7.021766 -1.301351 67.706100 137 60 67
7.023939 -1.155757 67.727043 173 91 93
7.026040 -1.010062 67.747314 201 117 111
7.028046 -0.864268 67.766647 209 121 110
7.029931 -0.718379 67.784828 213 127 111
7.031673 -0.572399 67.801628 228 161 141
7.033257 -0.426338 67.816902 246 203 179
7.034671 -0.280204 67.830536 247 194 169
7.035913 -0.134008 67.842514 229 152 128
7.036991 0.012240 67.852898 201 119 95
7.037916 0.158528 67.861824 193 114 90
7.038713 0.304850 67.869507 211 138 116
7.039413 0.451199 67.876259 228 164 145
7.040052 0.597571 67.882423 241 190 176
7.040672 0.743968 67.888397 250 215 205
7.041315 0.890394 67.894600 245 216 209
7.042025 1.036857 67.901443 216 180 174
7.042842 1.183367 67.909325 178 135 130
7.043805 1.329938 67.918602 175 131 126
7.044940 1.476586 67.929550 208 169 165
7.046271 1.623325 67.942383 240 214 210
7.047809 1.770172 67.957214 237 215 214
7.049554 1.917140 67.974037 201 164 166
7.051496 2.064238 67.992760 194 142 147
7.053612 2.211471 68.013168 221 166 173
7.055870 2.358839 68.034943 217 155 162
7.058228 2.506336 68.057671 198 131 134
7.060634 2.653950 68.080879 211 144 142
7.063032 2.801661 68.103996 226 157 148
7.065360 2.949442 68.126442 220 142 125
7.067554 3.097261 68.147598 215 135 109
7.069550 3.245080 68.166847 224 148 112
7.071287 3.392859 68.183601 232 161 114
7.072711 3.540553 68.197327 228 155 98
7.073771 3.688116 68.207550 219 143 75
7.074428 3.835504 68.213882 230 169 93
7.074652 3.982677 68.216042 227 192 113
7.074424 4.129594 68.213844 174 141 71
7.073738 4.276225 68.207222 145 105 47
7.072597 4.422544 68.196228 193 163 109
7.071019 4.568532 68.181007 227 207 156
7.069030 4.714181 68.161827 201 176 132
7.066665 4.859489 68.139030 181 145 108
7.063969 5.004464 68.113029 191 148 117
7.060991 5.149121 68.084320 213 168 141
7.057785 5.293483 68.053406 236 194 170
7.054406 5.437579 68.020821 247 204 182
7.050911 5.581442 67.987129 241 194 173
7.047355 5.725111 67.952835 235 198 181
7.043791 5.868625 67.918472 233 208 197
7.040268 6.012026 67.884506 213 179 175
7.036830 6.155355 67.851357 207 168 170
7.033518 6.298654 67.819420 233 210 217
7.030365 6.441960 67.789017 251 235 246
7.027399 6.585310 67.760414 244 222 234
7.024642 6.728738 67.733826 226 190 201
7.022110 6.872272 67.709419 211 164 171
7.019818 7.015940 67.687317 216 168 167
7.017770 7.159761 67.667572 230 184 176
7.015971 7.303757 67.650223 230 177 161
7.014419 7.447939 67.635254 231 180 159
7.013110 7.592321 67.622627 245 208 184
7.012038 7.736910 67.612297 249 216 189
7.011193 7.881710 67.604156 247 212 183
7.010568 8.026726 67.598122 250 230 202
7.010149 8.171957 67.594086 254 235 208
7.009929 8.317405 67.591957 253 212 188
7.009894 8.463068 67.591621 252 200 179
7.010036 8.608948 67.592995 253 204 188
7.010346 8.755043 67.595985 253 210 199
7.010819 8.901358 67.600548 252 211 205
7.011450 9.047895 67.606628 251 214 211
7.012236 9.194663 67.614204 253 223 223
7.013177 9.341671 67.623283 253 224 223
7.014276 9.488930 67.633873 241 192 189
7.015535 9.636456 67.646019 227 152 147
7.016960 9.784264 67.659752 231 150 142
7.018555 9.932373 67.675133 246 172 160
7.020327 10.080802 67.692223 253 186 170
7.022280 10.229569 67.711060 254 185 165
7.024419 10.378692 67.731682 252 174 148
7.026746 10.528185 67.754112 249 160 131
7.029261 10.678061 67.778366 247 155 122
7.031963 10.828328 67.804420 251 159 123
7.034847 10.978992 67.832230 252 161 123
7.037905 11.130053 67.861717 250 154 115
7.041129 11.281505 67.892799 247 146 107
7.044507 11.433340 67.925369 248 144 104
7.048025 11.585547 67.959290 249 143 104
7.051668 11.738111 67.994423 246 138 98
7.055422 11.891010 68.030624 240 131 91
7.059272 12.044230 68.067741 235 124 84
7.063200 12.197744 68.105621 231 119 79
7.067193 12.351535 68.144119 228 116 75
7.071235 12.505579 68.183090 228 116 75
7.075313 12.659856 68.222412 232 119 77
7.079413 12.814343 68.261955 237 122 80
7.083523 12.969018 68.301582 239 123 80
7.087630 13.123857 68.341179 237 121 77
7.091722 13.278840 68.380638 234 120 74
7.095788 13.433942 68.419838 232 118 71
7.099813 13.589138 68.458656 231 117 71
7.103789 13.744404 68.496994 235 121 77
7.107702 13.899713 68.534721 238 126 83
7.111542 14.055038 68.571747 238 125 86
7.115298 14.210358 68.607964 237 125 90
7.118964 14.365650 68.643311 236 126 95
7.122530 14.520894 68.677704 229 121 93
7.125995 14.676076 68.711105 212 106 82
7.129355 14.831183 68.743507 196 95 73
7.132613 14.986216 68.774918 193 95 77
7.135772 15.141175 68.805382 195 101 85
7.138842 15.296074 68.834976 198 107 92
7.141832 15.450927 68.863808 198 109 96
7.144755 15.605761 68.891998 200 113 101
7.147626 15.760597 68.919678 211 127 114
7.150457 15.915468 68.946983 229 149 136
7.153264 16.070398 68.974037 245 169 155
7.156054 16.225410 69.000946 252 175 161
7.158839 16.380526 69.027802 253 168 154
7.161621 16.535749 69.054626 249 158 142
7.164398 16.691076 69.081398 244 150 131
7.167160 16.846485 69.108032 246 160 140
7.169891 17.001938 69.134369 251 178 157
7.172571 17.157375 69.160202 250 176 155
7.175167 17.312725 69.185234 243 158 137
7.177640 17.467886 69.209091 236 144 124
7.179949 17.622746 69.231354 237 143 125
7.182042 17.777164 69.251534 241 148 131
7.183867 17.931004 69.269127 243 150 135
7.185366 18.084097 69.283585 243 149 135
7.186484 18.236286 69.294365 245 150 137
7.187166 18.387405 69.300934 248 154 141
7.187360 18.537296 69.302811 251 160 147
7.187023 18.685812 69.299561 253 171 159
7.186118 18.832827 69.290825 254 177 167
7.184617 18.978230 69.276360 254 172 165
7.182506 19.121946 69.256004 254 163 159
7.179783 19.263933 69.229752 252 156 155
7.176460 19.404182 69.197701 249 151 152
7.172558 19.542721 69.160088 245 144 150
7.168117 19.679611 69.117256 237 135 144
7.163182 19.814957 69.069679 229 128 138
7.157812 19.948879 69.017899 230 130 141
7.152069 20.081533 68.962524 238 140 150
7.146022 20.213091 68.904221 236 138 147
7.139743 20.343733 68.843666 232 133 142
7.133300 20.473642 68.781540 228 128 136
7.126760 20.603006 68.718483 223 121 129
7.120184 20.731993 68.655075 219 117 124
7.113627 20.860762 68.591850 219 117 124
7.107136 20.989454 68.529266 221 119 126
7.100750 21.118187 68.467690 216 114 121
7.094499 21.247059 68.407410 206 104 112
7.088405 21.376144 68.348656 200 101 111
7.082485 21.505507 68.291573 202 104 118
7.076750 21.635187 68.236275 205 109 125
6.684602 -17.683453 63.142601 37 28 30
6.688104 -17.556530 63.175682 38 30 31
6.691623 -17.429510 63.208916 40 31 33
6.695175 -17.302433 63.242470 40 32 33
6.698777 -17.175337 63.276493 39 31 32
6.702442 -17.048258 63.311115 37 29 31
6.706185 -16.921227 63.346474 36 29 30
6.710018 -16.794264 63.382675 36 28 29
6.713948 -16.667391 63.419804 36 28 30
6.717985 -16.540617 63.457935 36 29 31
6.722131 -16.413946 63.497093 37 30 32
6.726388 -16.287376 63.537308 38 31 35
6.730755 -16.160898 63.578560 41 33 37
6.735229 -16.034492 63.620815 43 34 39
6.739802 -15.908144 63.664021 46 35 41
6.744467 -15.781822 63.708088 49 36 43
6.749214 -15.655499 63.752922 53 39 45
6.754030 -15.529141 63.798412 57 41 48
6.758903 -15.402719 63.844444 61 44 49
6.763818 -15.276193 63.890869 66 49 52
6.768761 -15.149529 63.937565 73 58 58
6.773717 -15.022693 63.984379 81 67 66
6.778672 -14.895652 64.031181 84 72 70
6.783611 -14.768375 64.077835 79 69 67
6.788520 -14.640832 64.124207 71 62 62
6.793387 -14.513000 64.170181 63 57 59
6.798200 -14.384853 64.215645 55 51 56
6.802948 -14.256378 64.260498 50 48 54
6.807625 -14.127559 64.304672 49 48 56
6.812222 -13.998385 64.348091 54 54 63
6.816735 -13.868855 64.390724 72 72 81
6.821162 -13.738967 64.432541 98 98 107
6.825503 -13.608727 64.473549 113 113 121
6.829761 -13.478147 64.513763 114 112 120
6.833941 -13.347241 64.553253 116 112 119
6.838051 -13.216030 64.592079 133 126 131
6.842104 -13.084541 64.630363 161 152 155
6.846112 -12.952804 64.668221 179 169 170
6.850092 -12.820849 64.705811 167 155 156
6.854062 -12.688715 64.743317 132 119 121
6.858042 -12.556438 64.780914 104 91 94
6.862054 -12.424056 64.818810 97 85 90
6.866119 -12.291606 64.857208 103 92 99
6.870258 -12.159120 64.896301 108 98 107
6.874490 -12.026628 64.936272 113 104 115
6.878832 -11.894156 64.977295 129 122 134
6.883299 -11.761721 65.019485 144 139 152
6.887900 -11.629329 65.062950 141 139 151
6.892642 -11.496983 65.107735 144 144 156
6.897523 -11.364676 65.153847 179 181 194
6.902540 -11.232390 65.201241 209 212 224
6.907684 -11.100104 65.249832 217 218 229
6.912940 -10.967786 65.299469 233 233 239
6.918287 -10.835398 65.349983 249 249 251
6.923705 -10.702900 65.401161 252 252 253
6.929167 -10.570251 65.452759 244 242 245
6.934648 -10.437405 65.504524 232 230 234
6.940116 -10.304318 65.556183 218 216 219
6.945546 -10.170952 65.607468 199 196 198
6.950909 -10.037269 65.658127 201 199 200
6.956178 -9.903234 65.707901 229 229 229
6.961331 -9.768821 65.756577 249 249 249
6.966346 -9.634007 65.803947 249 249 247
6.971203 -9.498775 65.849831 204 204 200
6.975890 -9.363114 65.894096 118 119 112
6.980393 -9.227022 65.936638 95 96 88
6.984705 -9.090496 65.977364 170 170 164
6.988821 -8.953545 66.016243 232 232 229
6.992739 -8.816175 66.053261 226 225 224
6.996462 -8.678405 66.088425 189 186 188
6.999995 -8.540251 66.121796 171 167 172
7.003345 -8.401734 66.153442 192 189 194
7.006525 -8.262878 66.183472 228 227 230
7.009548 -8.123713 66.212029 245 246 249
7.012432 -7.984266 66.239273 247 247 250
7.015197 -7.844569 66.265396 248 249 251
7.017865 -7.704652 66.290596 252 253 253
7.020460 -7.564548 66.315102 254 254 254
7.023008 -7.424288 66.339172 239 238 239
7.025536 -7.283904 66.363052 179 175 179
7.028071 -7.143425 66.387001 105 100 105
7.030641 -7.002877 66.411278 96 89 95
7.033273 -6.862284 66.436134 142 136 141
7.035991 -6.721667 66.461807 172 165 170
7.038819 -6.581042 66.488525 177 170 175
7.041779 -6.440422 66.516487 199 194 199
7.044888 -6.299815 66.545853 234 232 235
7.048162 -6.159225 66.576775 247 246 248
7.051608 -6.018650 66.609337 225 223 229
7.055234 -5.878084 66.643585 181 177 187
7.059041 -5.737517 66.679543 144 139 149
7.063023 -5.596934 66.717155 144 139 146
7.067170 -5.456316 66.756332 185 181 185
7.071465 -5.315640 66.796906 231 229 231
7.075890 -5.174884 66.838692 245 244 245
7.080415 -5.034020 66.881439 214 212 215
7.085011 -4.893021 66.924858 175 172 178
7.089645 -4.751859 66.968628 188 184 192
7.094278 -4.610508 67.012390 231 229 233
7.098873 -4.468945 67.055794 236 233 236
7.103391 -4.327147 67.098473 193 181 189
7.107797 -4.185100 67.140091 169 151 159
7.112058 -4.042790 67.180336 207 193 197
7.116145 -3.900213 67.218948 246 241 242
7.120038 -3.757365 67.255714 253 249 247
7.123721 -3.614253 67.290504 218 207 200
7.127187 -3.470885 67.323242 150 135 126
7.130439 -3.327277 67.353966 129 115 108
7.133486 -3.183444 67.382751 168 154 152
7.136344 -3.039407 67.409744 213 199 200
7.139035 -2.895186 67.435165 233 217 224
7.141586 -2.750801 67.459267 220 200 212
7.144025 -2.606271 67.482307 198 174 188
7.146382 -2.461614 67.504562 188 159 177
7.148681 -2.316842 67.526283 180 145 166
7.150947 -2.171966 67.547684 173 131 154
7.153197 -2.026994 67.568939 165 116 139
7.155443 -1.881928 67.590149 141 84 107
7.157687 -1.736771 67.611343 116 53 73
7.159925 -1.591522 67.632492 111 42 58
7.162147 -1.446177 67.653481 118 43 54
7.164335 -1.300737 67.674149 141 61 66
7.166466 -1.155197 67.694275 177 94 93
7.168516 -1.009560 67.713646 199 113 105
7.170457 -0.863826 67.731979 204 116 102
7.172265 -0.718000 67.749046 213 125 105
7.173916 -0.572087 67.764648 232 157 132
7.175395 -0.426097 67.778618 247 189 160
7.176691 -0.280040 67.790855 246 180 149
7.177802 -0.133927 67.801353 228 145 115
7.178736 0.012232 67.810181 206 121 90
7.179509 0.158425 67.817482 208 129 98
7.180146 0.304643 67.823494 232 162 134
7.180679 0.450882 67.828529 246 184 159
7.181148 0.597136 67.832962 248 196 177
7.181596 0.743407 67.837189 251 214 201
7.182068 0.889700 67.841652 249 218 209
7.182610 1.036022 67.846771 228 191 185
7.183265 1.182384 67.852959 189 147 141
7.184072 1.328802 67.860573 175 130 126
7.185060 1.475289 67.869911 206 170 166
7.186253 1.621863 67.881180 242 219 216
7.187663 1.768539 67.894501 238 213 213
7.189290 1.915330 67.909874 208 165 170
7.191126 2.062248 67.927216 205 152 160
7.193147 2.209296 67.946304 218 160 172
7.195321 2.356477 67.966835 198 133 145
7.197604 2.503785 67.988403 189 125 135
7.199946 2.651208 68.010529 217 165 170
7.202290 2.798727 68.032669 232 178 179
7.204573 2.946316 68.054237 217 151 148
7.206733 3.093945 68.074638 206 133 124
7.208705 3.241578 68.093262 211 137 120
7.210428 3.389174 68.109543 226 158 131
7.211849 3.536692 68.122955 232 173 134
7.212917 3.684087 68.133049 225 162 108
7.213593 3.831319 68.139442 231 171 104
7.213849 3.978345 68.141853 226 184 113
7.213665 4.125131 68.140121 175 133 70
7.213036 4.271646 68.134178 151 103 49
7.211966 4.417864 68.124069 199 166 111
7.210472 4.563771 68.109955 226 203 151
7.208580 4.709358 68.092087 196 164 123
7.206326 4.854622 68.070786 179 135 105
7.203752 4.999574 68.046478 189 141 120
7.200907 5.144227 68.019608 212 168 152
7.197844 5.288603 67.990669 236 199 186
7.194617 5.432732 67.960190 241 200 187
7.191280 5.576643 67.928673 239 194 181
7.187888 5.720375 67.896629 243 212 200
7.184491 5.863965 67.864540 239 218 207
7.181137 6.007452 67.832855 211 179 172
7.177868 6.150876 67.801979 200 161 159
7.174722 6.294273 67.772263 228 201 202
7.171730 6.437682 67.743996 246 223 228
7.168919 6.581135 67.717445 223 187 195
7.166311 6.724664 67.692810 192 140 146
7.163921 6.868295 67.670235 199 146 150
7.161759 7.012053 67.649818 230 190 187
7.159834 7.155959 67.631630 236 195 186
7.158146 7.300028 67.615685 223 170 157
7.156695 7.444275 67.601974 227 174 158
7.155478 7.588712 67.590485 242 195 177
7.154490 7.733346 67.581146 248 204 184
7.153721 7.878181 67.573883 251 216 196
7.153163 8.023223 67.568619 253 238 216
7.152809 8.168472 67.565269 253 236 214
7.152647 8.313933 67.563744 251 210 188
7.152669 8.459603 67.563950 250 204 184
7.152867 8.605487 67.565819 252 214 197
7.153234 8.751585 67.569290 252 208 195
7.153765 8.897902 67.574310 245 191 181
7.154458 9.044445 67.580849 241 187 181
7.155309 9.191219 67.588882 248 210 207
7.156319 9.338238 67.598434 253 235 233
7.157492 9.485511 67.609512 248 219 216
7.158830 9.633056 67.622147 232 169 164
7.160339 9.780887 67.636398 224 143 135
7.162023 9.929023 67.652306 237 158 146
7.163888 10.077481 67.669922 250 183 167
7.165938 10.226281 67.689293 254 194 173
7.168178 10.375438 67.710442 253 186 161
7.170608 10.524965 67.733398 251 168 140
7.173227 10.674874 67.758148 251 159 129
7.176036 10.825174 67.784676 253 159 126
7.179026 10.975867 67.812920 253 159 124
7.182192 11.126953 67.842819 250 154 118
7.185521 11.278426 67.874275 246 146 109
7.189004 11.430278 67.907173 244 141 104
7.192625 11.582493 67.941376 248 142 104
7.196369 11.735058 67.976738 250 143 104
7.200221 11.887951 68.013123 248 139 99
7.204163 12.041153 68.050354 243 133 93
7.208179 12.194643 68.088303 239 128 87
7.212255 12.348395 68.126793 236 123 82
7.216373 12.502390 68.165703 233 119 78
7.220521 12.656602 68.204880 233 118 78
7.224684 12.811010 68.244202 236 120 80
7.228848 12.965590 68.283531 237 120 80
7.233001 13.120320 68.322769 235 119 78
7.237131 13.275176 68.361771 233 117 75
7.241225 13.430136 68.400452 232 116 73
7.245273 13.585173 68.438683 231 115 72
7.249262 13.740265 68.476364 236 122 78
7.253182 13.895388 68.513397 242 128 86
7.257024 14.050517 68.549690 241 128 87
7.260778 14.205631 68.585144 238 125 88
7.264437 14.360711 68.619705 233 123 90
7.267997 14.515742 68.653336 222 115 85
7.271455 14.670712 68.685997 207 103 77
7.274809 14.825611 68.717682 193 94 72
7.278064 14.980444 68.748428 188 94 75
7.281226 15.135215 68.778297 191 100 84
7.284305 15.289941 68.807381 195 107 93
7.287312 15.444639 68.835785 199 112 100
7.290262 15.599338 68.863647 207 123 112
7.293169 15.754063 68.891106 223 146 135
7.296047 15.908845 68.918289 239 169 157
7.298912 16.063715 68.945358 247 176 163
7.301773 16.218695 68.972389 248 169 156
7.304641 16.373802 68.999474 250 165 151
7.307517 16.529049 69.026642 252 163 148
7.310400 16.684425 69.053871 248 157 140
7.313279 16.839912 69.081062 247 156 138
7.316137 16.995468 69.108070 250 166 145
7.318952 17.151037 69.134659 252 170 150
7.321691 17.306543 69.160530 250 165 144
7.324316 17.461887 69.185326 246 156 136
7.326780 17.616955 69.208603 245 153 134
7.329033 17.771606 69.229881 246 154 137
7.331021 17.925703 69.248657 245 153 138
7.332685 18.079082 69.264374 243 149 136
7.333968 18.231583 69.276497 244 150 137
7.334814 18.383039 69.284485 248 154 142
7.335172 18.533298 69.287865 251 159 149
7.334996 18.682213 69.286209 252 167 158
7.334249 18.829653 69.279152 253 173 166
7.332905 18.975515 69.266449 254 170 165
7.330947 19.119724 69.247955 253 165 162
7.328373 19.262236 69.223648 252 163 162
7.325196 19.403042 69.193634 252 162 164
7.321436 19.542166 69.158127 249 157 161
7.317133 19.679672 69.117470 244 146 153
7.312332 19.815657 69.072121 237 137 146
7.307091 19.950243 69.022614 236 138 147
7.301472 20.083578 68.969543 240 144 154
7.295545 20.215828 68.913551 236 139 148
7.289380 20.347174 68.855316 229 131 140
7.283044 20.477789 68.795471 225 126 134
7.276607 20.607857 68.734665 220 120 128
7.270126 20.737541 68.673454 211 112 119
7.263659 20.866999 68.612358 206 106 114
7.257250 20.996361 68.551819 207 108 117
7.250937 21.125746 68.492195 211 112 121
7.244753 21.255245 68.433769 208 110 121
7.238717 21.384935 68.376762 211 118 132
7.232847 21.514870 68.321304 218 130 147
7.227153 21.645094 68.267517 218 130 150
6.825882 -17.696844 63.190422 33 25 27
6.829428 -17.569750 63.223251 34 27 28
6.832984 -17.442539 63.256172 35 28 29
6.836567 -17.315256 63.289341 36 29 30
6.840196 -17.187943 63.322929 37 29 30
6.843886 -17.060638 63.357094 37 29 30
6.847654 -16.933380 63.391979 37 29 29
6.851514 -16.806196 63.427711 36 29 29
6.855477 -16.679110 63.464397 36 29 29
6.859552 -16.552135 63.502121 37 29 30
6.863746 -16.425282 63.540943 37 30 31
6.868060 -16.298548 63.580883 38 30 32
6.872496 -16.171926 63.621952 39 30 33
6.877051 -16.045406 63.664116 40 30 34
6.881718 -15.918964 63.707325 42 31 35
6.886490 -15.792577 63.751503 45 31 37
6.891356 -15.666212 63.796551 48 33 39
6.896305 -15.539838 63.842358 51 36 41
6.901320 -15.413417 63.888786 55 38 42
6.906386 -15.286909 63.935688 60 43 44
6.911488 -15.160275 63.982914 69 53 52
6.916607 -15.033476 64.030304 82 67 65
6.921727 -14.906474 64.077705 88 75 73
6.926829 -14.779230 64.124931 84 73 71
6.931897 -14.651711 64.171860 75 66 65
6.936915 -14.523885 64.218315 66 58 60
6.941870 -14.395725 64.264175 57 51 55
6.946745 -14.267207 64.309311 52 48 53
6.951532 -14.138314 64.353630 52 50 58
6.956221 -14.009031 64.397034 57 56 63
6.960805 -13.879354 64.439468 66 65 73
6.965280 -13.749278 64.480896 78 77 85
6.969646 -13.618810 64.521317 86 85 93
6.973906 -13.487962 64.560745 88 85 93
6.978063 -13.356749 64.599236 90 85 92
6.982128 -13.225194 64.636864 108 100 105
6.986113 -13.093327 64.673752 147 137 140
6.990033 -12.961181 64.710045 189 177 176
6.993906 -12.828793 64.745903 200 188 186
6.997754 -12.696202 64.781517 174 161 159
7.001596 -12.563450 64.817093 131 118 117
7.005459 -12.430580 64.852852 103 91 92
7.009364 -12.297631 64.889008 101 90 94
7.013336 -12.164641 64.925774 107 97 103
7.017394 -12.031642 64.963341 110 101 109
7.021559 -11.898660 65.001892 120 114 123
7.025845 -11.765716 65.041573 135 131 140
7.030265 -11.632821 65.082489 139 138 147
7.034824 -11.499978 65.124695 153 154 163
7.039525 -11.367182 65.168213 192 195 204
7.044363 -11.234417 65.213005 219 223 234
7.049330 -11.101662 65.258980 226 229 241
7.054412 -10.968887 65.306030 240 241 249
7.059592 -10.836061 65.353989 251 252 254
7.064847 -10.703142 65.402641 254 254 254
7.070156 -10.570092 65.451782 250 249 251
7.075490 -10.436869 65.501167 241 239 242
7.080824 -10.303432 65.550545 214 210 213
7.086130 -10.169742 65.599663 175 171 173
7.091382 -10.035763 65.648277 174 172 172
7.096555 -9.901465 65.696175 215 214 214
7.101626 -9.766822 65.743118 245 245 244
7.106575 -9.631809 65.788933 244 244 242
7.111384 -9.496412 65.833450 198 199 194
7.116038 -9.360620 65.876541 123 124 117
7.120526 -9.224425 65.918083 114 116 108
7.124837 -9.087827 65.957993 185 186 181
7.128967 -8.950829 65.996223 239 238 236
7.132912 -8.813437 66.032745 241 240 239
7.136672 -8.675665 66.067558 228 227 227
7.140252 -8.537525 66.100693 224 222 225
7.143656 -8.399037 66.132210 234 232 235
7.146894 -8.260221 66.162186 243 242 246
7.149979 -8.121101 66.190742 238 238 244
7.152927 -7.981706 66.218033 231 232 239
7.155755 -7.842061 66.244209 237 239 244
7.158484 -7.702197 66.269478 249 250 252
7.161139 -7.562146 66.294052 254 254 254
7.163743 -7.421937 66.318161 239 238 239
7.166326 -7.281601 66.342072 179 176 181
7.168913 -7.141168 66.366020 109 104 111
7.171534 -7.000663 66.390289 103 96 104
7.174216 -6.860113 66.415115 152 145 151
7.176985 -6.719536 66.440742 183 176 179
7.179865 -6.578952 66.467415 186 180 183
7.182880 -6.438373 66.495323 206 202 205
7.186048 -6.297808 66.524643 237 235 237
7.189384 -6.157260 66.555527 246 246 249
7.192899 -6.016729 66.588074 229 228 235
7.196599 -5.876209 66.622322 189 187 198
7.200484 -5.735688 66.658287 137 134 146
7.204550 -5.595153 66.695930 118 114 124
7.208784 -5.454583 66.735130 165 160 167
7.213171 -5.313957 66.775742 226 223 226
7.217689 -5.173249 66.817566 239 237 239
7.222310 -5.032433 66.860344 202 199 203
7.227003 -4.891480 66.903786 169 165 172
7.231730 -4.750363 66.947548 191 187 196
7.236455 -4.609056 66.991287 234 232 237
7.241138 -4.467535 67.034645 230 228 232
7.245740 -4.325778 67.077248 174 164 173
7.250224 -4.183770 67.118759 149 133 142
7.254557 -4.041498 67.158867 199 184 190
7.258709 -3.898957 67.197311 244 237 239
7.262660 -3.756145 67.233879 251 247 245
7.266393 -3.613068 67.268440 219 209 202
7.269904 -3.469736 67.300941 153 138 129
7.273194 -3.326162 67.331406 118 105 99
7.276274 -3.182365 67.359909 143 130 128
7.279159 -3.038364 67.386620 195 184 185
7.281872 -2.894180 67.411736 232 220 226
7.284441 -2.749832 67.435516 219 203 212
7.286894 -2.605341 67.458229 190 168 181
7.289260 -2.460723 67.480141 190 162 179
7.291567 -2.315991 67.501488 193 160 180
7.293836 -2.171156 67.522491 183 142 165
7.296085 -2.026225 67.543312 168 118 142
7.298324 -1.881202 67.564041 142 83 106
7.300556 -1.736087 67.584702 120 53 75
7.302775 -1.590881 67.605255 116 42 60
7.304971 -1.445581 67.625572 122 43 56
7.307122 -1.300186 67.645493 146 63 69
7.309207 -1.154694 67.664787 178 93 91
7.311198 -1.009107 67.683220 191 106 98
7.313067 -0.863425 67.700531 193 107 93
7.314790 -0.717655 67.716476 203 117 96
7.316343 -0.571802 67.730850 226 146 119
7.317709 -0.425877 67.743500 244 171 139
7.318879 -0.279889 67.754326 240 165 128
7.319852 -0.133851 67.763336 222 141 100
7.320636 0.012225 67.770599 209 130 87
7.321250 0.158329 67.776276 221 146 103
7.321720 0.304451 67.780624 244 178 137
7.322080 0.450585 67.783958 251 195 159
7.322372 0.596728 67.786667 249 196 168
7.322642 0.742881 67.789162 246 198 179
7.322937 0.889048 67.791901 246 202 190
7.323306 1.035236 67.795311 238 199 190
7.323793 1.181458 67.799820 207 165 159
7.324437 1.327729 67.805779 187 138 132
7.325272 1.474063 67.813507 211 171 164
7.326320 1.620478 67.823219 242 215 207
7.327595 1.766989 67.835014 238 201 196
7.329098 1.913611 67.848930 219 163 164
7.330819 2.060354 67.864861 217 155 161
7.332736 2.207225 67.882607 212 148 158
7.334816 2.354225 67.901863 187 120 131
7.337015 2.501348 67.922226 190 129 138
7.339284 2.648585 67.943230 226 178 184
7.341564 2.795915 67.964333 239 193 197
7.343793 2.943317 67.984970 220 164 167
7.345908 3.090760 68.004547 202 140 141
7.347845 3.238208 68.022484 206 142 139
7.349545 3.385625 68.038223 228 175 165
7.350952 3.532969 68.051247 237 197 177
7.352018 3.680198 68.061119 224 173 137
7.352705 3.827272 68.067474 225 164 114
7.352983 3.974153 68.070053 222 173 113
7.352835 4.120806 68.068680 182 131 72
7.352255 4.267203 68.063309 169 114 57
7.351249 4.413320 68.053993 212 171 114
7.349832 4.559143 68.040878 231 198 146
7.348032 4.704663 68.024208 213 171 132
7.345881 4.849881 68.004303 202 154 127
7.343424 4.994803 67.981552 201 151 134
7.340708 5.139447 67.956406 216 174 163
7.337784 5.283833 67.929344 237 204 196
7.334705 5.427987 67.900833 233 195 188
7.331523 5.571940 67.871384 228 188 180
7.328292 5.715728 67.841469 241 217 208
7.325059 5.859385 67.811546 242 224 215
7.321871 6.002950 67.782028 210 179 170
7.318767 6.146459 67.753296 191 150 143
7.315784 6.289947 67.725670 216 183 177
7.312951 6.433448 67.699448 237 207 204
7.310293 6.576994 67.674843 205 161 160
7.307830 6.720614 67.652046 172 114 113
7.305577 6.864332 67.631187 200 150 147
7.303545 7.008172 67.612373 241 206 201
7.301737 7.152150 67.595634 245 205 196
7.300158 7.296285 67.581017 231 179 168
7.298806 7.440589 67.568504 229 175 162
7.297678 7.585072 67.558060 237 185 173
7.296770 7.729742 67.549652 246 201 189
7.296075 7.874607 67.543221 252 224 211
7.295585 8.019669 67.538689 254 241 227
7.295292 8.164931 67.535973 253 234 216
7.295189 8.310399 67.535027 246 203 184
7.295269 8.456074 67.535759 241 195 176
7.295523 8.601958 67.538116 247 215 197
7.295948 8.748056 67.542046 249 209 194
7.296538 8.894374 67.547508 240 181 169
7.297293 9.040918 67.554497 236 174 166
7.298210 9.187698 67.562988 245 202 197
7.299291 9.334724 67.572998 253 234 230
7.300539 9.482010 67.584549 252 228 224
7.301958 9.629569 67.597679 239 181 176
7.303551 9.777420 67.612427 226 145 136
7.305324 9.925578 67.628838 234 149 137
7.307281 10.074062 67.646965 249 172 156
7.309427 10.222887 67.666832 254 188 167
7.311764 10.372070 67.688469 254 187 163
7.314295 10.521624 67.711891 254 175 148
7.317017 10.671557 67.737091 254 165 137
7.319927 10.821878 67.764030 253 161 130
7.323020 10.972589 67.792664 252 158 125
7.326286 11.123687 67.822906 249 153 118
7.329717 11.275167 67.854660 245 146 110
7.333298 11.427018 67.887810 244 141 105
7.337014 11.579227 67.922218 246 141 105
7.340851 11.731777 67.957741 250 144 106
7.344791 11.884645 67.994209 251 143 104
7.348818 12.037814 68.031487 249 139 99
7.352913 12.191257 68.069405 245 134 92
7.357062 12.344954 68.107803 241 129 87
7.361247 12.498877 68.146545 238 124 84
7.365452 12.653003 68.185478 236 121 82
7.369665 12.807308 68.224480 236 121 82
7.373871 12.961771 68.263420 236 120 82
7.378057 13.116365 68.302170 234 118 79
7.382211 13.271070 68.340622 232 116 77
7.386321 13.425859 68.378670 231 115 75
7.390376 13.580712 68.416206 232 115 75
7.394365 13.735604 68.453140 236 120 80
7.398278 13.890512 68.489365 240 125 86
7.402107 14.045419 68.524811 238 124 86
7.405844 14.200300 68.559410 234 122 87
7.409485 14.355145 68.593109 229 120 87
7.413024 14.509936 68.625877 217 111 83
7.416463 14.664670 68.657707 201 100 74
7.419801 14.819341 68.688614 187 91 69
7.423045 14.973953 68.718643 182 90 71
7.426202 15.128519 68.747871 186 98 83
7.429284 15.283056 68.776398 195 109 97
7.432304 15.437588 68.804359 204 121 110
7.435277 15.592142 68.831879 219 142 131
7.438219 15.746748 68.859116 237 170 159
7.441145 15.901439 68.886208 247 185 174
7.444071 16.056246 68.913292 245 174 163
7.447007 16.211191 68.940475 241 157 146
7.449962 16.366295 68.967827 246 160 148
7.452939 16.521564 68.995384 253 169 156
7.455934 16.676994 69.023109 252 165 149
7.458937 16.832561 69.050911 247 156 139
7.461930 16.988226 69.078621 248 157 139
7.464889 17.143930 69.106010 251 163 144
7.467779 17.299597 69.132767 253 166 146
7.470562 17.455126 69.158531 252 164 144
7.473189 17.610397 69.182846 252 162 143
7.475608 17.765282 69.205246 253 162 145
7.477765 17.919634 69.225212 252 160 145
7.479598 18.073290 69.242180 249 157 142
7.481051 18.226093 69.255630 249 155 142
7.482066 18.377878 69.265030 249 155 144
7.482592 18.528490 69.269897 248 155 146
7.482581 18.677788 69.269798 246 157 150
7.481997 18.825640 69.264389 249 161 156
7.480812 18.971945 69.253418 251 161 158
7.479011 19.116627 69.236740 250 159 158
7.476591 19.259645 69.214340 251 162 162
7.473562 19.400986 69.186302 252 166 167
7.469949 19.540678 69.152863 251 163 166
7.465788 19.678780 69.114342 245 151 156
7.461127 19.815388 69.071190 239 142 148
7.456021 19.950619 69.023918 241 146 152
7.450534 20.084621 68.973122 246 156 164
7.444735 20.217554 68.919434 239 147 155
7.438693 20.349592 68.863495 224 128 136
7.432476 20.480906 68.805946 215 117 125
7.426151 20.611673 68.747391 210 113 121
7.419778 20.742056 68.688400 204 107 116
7.413411 20.872198 68.629456 198 101 111
7.407097 21.002237 68.571007 198 102 113
7.400872 21.132280 68.513382 204 109 123
7.394768 21.262419 68.456863 209 115 131
7.388804 21.392723 68.401665 219 131 150
7.382999 21.523251 68.347923 227 146 169
7.377361 21.654037 68.295731 220 139 164
6.967236 -17.709902 63.237045 30 24 26
6.970835 -17.582663 63.269714 31 25 26
6.974437 -17.455288 63.302402 33 26 27
6.978059 -17.327824 63.335278 34 27 28
6.981722 -17.200317 63.368523 35 28 28
6.985445 -17.072815 63.402313 36 28 28
6.989245 -16.945354 63.436806 36 29 29
6.993139 -16.817972 63.472153 36 29 30
6.997140 -16.690693 63.508469 37 29 30
7.001260 -16.563536 63.545856 37 30 30
7.005505 -16.436512 63.584389 38 30 32
7.009881 -16.309626 63.624104 38 30 32
7.014388 -16.182873 63.665016 39 30 32
7.019026 -16.056242 63.707108 39 29 32
7.023788 -15.929712 63.750336 40 29 32
7.028668 -15.803259 63.794624 42 29 34
7.033653 -15.676850 63.839870 45 30 34
7.038732 -15.550453 63.885967 48 31 35
7.043887 -15.424025 63.932758 50 33 36
7.049103 -15.297526 63.980095 56 39 39
7.054359 -15.170911 64.027802 66 49 48
7.059637 -15.044136 64.075706 78 63 60
7.064917 -14.917158 64.123627 87 73 70
7.070178 -14.789934 64.171379 87 74 72
7.075399 -14.662423 64.218773 78 67 66
7.080564 -14.534591 64.265648 66 56 57
7.085652 -14.406401 64.311829 57 49 52
7.090648 -14.277826 64.357178 55 48 52
7.095540 -14.148848 64.401573 56 52 58
7.100313 -14.019444 64.444901 61 58 65
7.104961 -13.889609 64.487083 67 64 72
7.109477 -13.759337 64.528076 71 68 77
7.113861 -13.628635 64.567863 71 68 77
7.118114 -13.497515 64.606468 70 65 74
7.122242 -13.365992 64.643936 70 64 71
7.126255 -13.234093 64.680359 91 82 87
7.130166 -13.101850 64.715851 143 133 135
7.133991 -12.969297 64.750572 202 193 192
7.137750 -12.836478 64.784691 231 222 220
7.141467 -12.703436 64.818428 215 204 201
7.145165 -12.570214 64.851990 165 152 149
7.148870 -12.436862 64.885620 120 107 106
7.152608 -12.303420 64.919548 107 96 97
7.156404 -12.169930 64.953995 110 101 104
7.160280 -12.036427 64.989174 112 104 110
7.164257 -11.902940 65.025276 120 114 120
7.168353 -11.769492 65.062447 132 128 135
7.172579 -11.636095 65.100807 143 142 149
7.176944 -11.502756 65.140427 171 173 179
7.181450 -11.369470 65.181328 215 218 223
7.186095 -11.236223 65.223488 233 237 245
7.190871 -11.102998 65.266838 226 230 243
7.195766 -10.969767 65.311264 227 228 241
7.200762 -10.836496 65.356613 238 238 245
7.205842 -10.703154 65.402710 250 249 252
7.210979 -10.569699 65.449348 251 250 252
7.216153 -10.436094 65.496307 237 236 239
7.221337 -10.302301 65.543350 207 204 207
7.226505 -10.168284 65.590256 176 173 174
7.231634 -10.034010 65.636810 182 180 180
7.236699 -9.899448 65.682785 217 217 215
7.241680 -9.764575 65.727997 234 235 233
7.246556 -9.629367 65.772255 221 223 221
7.251312 -9.493811 65.815414 182 186 182
7.255931 -9.357892 65.857338 144 148 142
7.260402 -9.221603 65.897919 160 161 157
7.264715 -9.084944 65.937065 214 214 212
7.268862 -8.947911 65.974709 245 244 244
7.272841 -8.810513 66.010826 246 245 246
7.276650 -8.672754 66.045395 247 246 247
7.280288 -8.534647 66.078407 249 249 250
7.283760 -8.396208 66.109924 247 247 251
7.287073 -8.257451 66.139992 240 239 246
7.290237 -8.118399 66.168716 229 228 237
7.293266 -7.979075 66.196213 224 224 232
7.296176 -7.839506 66.222626 233 234 240
7.298988 -7.699718 66.248138 243 245 249
7.301722 -7.559740 66.272957 243 245 248
7.304404 -7.419602 66.297295 232 233 236
7.307060 -7.279334 66.321411 193 192 197
7.309720 -7.138964 66.345543 150 147 153
7.312409 -6.998520 66.369957 156 153 157
7.315159 -6.858026 66.394913 195 190 192
7.317995 -6.717504 66.420647 203 199 199
7.320942 -6.576972 66.447411 194 190 189
7.324027 -6.436444 66.475395 211 209 208
7.327265 -6.295928 66.504799 236 235 235
7.330677 -6.155431 66.535759 232 233 236
7.334270 -6.014949 66.568375 214 214 220
7.338053 -5.874479 66.602715 184 184 193
7.342026 -5.734009 66.638771 131 129 139
7.346184 -5.593524 66.676514 95 92 100
7.350515 -5.453005 66.715820 137 133 138
7.355002 -5.312429 66.756546 210 207 210
7.359622 -5.171771 66.798477 230 227 229
7.364347 -5.031003 66.841362 193 188 192
7.369143 -4.890099 66.884895 163 159 165
7.373973 -4.749028 66.928734 186 183 190
7.378800 -4.607767 66.972542 228 227 232
7.383581 -4.466289 67.015938 223 220 224
7.388277 -4.324573 67.058556 152 146 153
7.392849 -4.182605 67.100060 119 107 116
7.397265 -4.040371 67.140137 175 161 167
7.401495 -3.897867 67.178528 232 220 221
7.405515 -3.755091 67.215012 248 241 240
7.409312 -3.612049 67.249474 231 223 220
7.412879 -3.468752 67.281860 181 170 165
7.416220 -3.325212 67.312180 139 126 122
7.419343 -3.181449 67.340530 141 129 127
7.422266 -3.037482 67.367058 192 183 181
7.425013 -2.893332 67.391991 231 222 222
7.427610 -2.749019 67.415558 209 195 200
7.430086 -2.604561 67.438034 178 158 168
7.432470 -2.459977 67.459679 187 162 176
7.434790 -2.315279 67.480728 193 162 179
7.437067 -2.170478 67.501396 177 139 159
7.439318 -2.025580 67.521828 158 110 133
7.441553 -1.880591 67.542107 136 77 101
7.443774 -1.735510 67.562263 123 55 78
7.445973 -1.590339 67.582230 124 48 69
7.448139 -1.445075 67.601891 128 48 64
7.450252 -1.299716 67.621063 150 67 75
7.452284 -1.154263 67.639511 172 88 91
7.454212 -1.008716 67.657005 176 92 89
7.456005 -0.863077 67.673279 174 91 82
7.457636 -0.717354 67.688087 184 103 88
7.459084 -0.571552 67.701225 212 134 112
7.460331 -0.425682 67.712547 233 160 130
7.461369 -0.279756 67.721970 229 156 118
7.462198 -0.133785 67.729485 215 142 95
7.462826 0.012218 67.735191 215 145 92
7.463275 0.158242 67.739265 231 163 108
7.463573 0.304277 67.741966 244 186 132
7.463755 0.450317 67.743622 243 192 143
7.463866 0.596358 67.744629 234 179 137
7.463954 0.742402 67.745430 232 173 143
7.464069 0.888452 67.746475 240 187 166
7.464260 1.034517 67.748207 244 199 184
7.464573 1.180609 67.751053 226 176 165
7.465051 1.326742 67.755386 209 148 137
7.465727 1.472933 67.761528 220 167 152
7.466625 1.619199 67.769676 239 197 180
7.467760 1.765556 67.779968 239 190 174
7.469132 1.912018 67.792427 230 167 156
7.470732 2.058596 67.806946 226 158 152
7.472538 2.205298 67.823341 209 140 140
7.474516 2.352125 67.841293 186 117 120
7.476624 2.499073 67.860428 196 134 137
7.478811 2.646130 67.880272 229 179 181
7.481018 2.793282 67.900307 243 201 202
7.483183 2.940503 67.919960 229 185 187
7.485244 3.087765 67.938667 211 162 165
7.487138 3.235036 67.955856 217 170 171
7.488803 3.382278 67.970970 238 203 200
7.490187 3.529453 67.983528 237 208 199
7.491241 3.676520 67.993095 219 171 152
7.491927 3.823440 67.999321 222 160 127
7.492218 3.970178 68.001968 222 164 120
7.492096 4.116700 68.000854 191 128 78
7.491555 4.262980 67.995949 185 123 71
7.490602 4.408995 67.987305 222 174 123
7.489253 4.554732 67.975052 238 192 147
7.487533 4.700184 67.959442 227 176 141
7.485477 4.845351 67.940788 219 168 142
7.483129 4.990242 67.919464 211 160 142
7.480532 5.134871 67.895897 222 179 166
7.477738 5.279259 67.870537 239 205 197
7.474798 5.423432 67.843849 229 191 184
7.471764 5.567420 67.816315 219 179 171
7.468684 5.711254 67.788361 233 205 196
7.465607 5.854970 67.760437 240 217 207
7.462576 5.998601 67.732918 210 176 164
7.459629 6.142184 67.706177 180 136 125
7.456800 6.285751 67.680496 200 162 152
7.454118 6.429334 67.656151 227 195 189
7.451604 6.572961 67.633339 197 152 147
7.449279 6.716659 67.612236 169 109 104
7.447155 6.860452 67.592957 206 156 151
7.445242 7.004360 67.575600 246 211 205
7.443546 7.148401 67.560204 250 208 199
7.442068 7.292589 67.546783 241 187 177
7.440808 7.436938 67.535347 233 176 167
7.439764 7.581458 67.525871 237 183 176
7.438931 7.726155 67.518311 247 208 202
7.438304 7.871039 67.512619 253 234 228
7.437877 8.016113 67.508751 254 245 237
7.437644 8.161383 67.506622 253 232 222
7.437597 8.306852 67.506203 242 197 184
7.437731 8.452526 67.507423 232 182 169
7.438041 8.598407 67.510231 241 208 194
7.438522 8.744502 67.514603 248 212 198
7.439172 8.890818 67.520500 242 187 176
7.439989 9.037361 67.527916 242 184 176
7.440973 9.184143 67.536842 250 210 204
7.442125 9.331175 67.547302 254 233 229
7.443449 9.478469 67.559311 254 224 219
7.444947 9.626041 67.572914 246 186 179
7.446623 9.773907 67.588135 237 157 147
7.448484 9.922083 67.605019 242 157 144
7.450532 10.070584 67.623611 250 169 152
7.452772 10.219429 67.643936 253 177 157
7.455205 10.368630 67.666016 254 183 160
7.457831 10.518200 67.689857 254 184 160
7.460650 10.668147 67.715446 254 177 151
7.463658 10.818478 67.742737 252 165 138
7.466846 10.969193 67.771683 251 157 128
7.470208 11.120290 67.802193 249 152 122
7.473732 11.271763 67.834175 247 148 116
7.477403 11.423599 67.867500 245 144 111
7.481207 11.575785 67.902023 247 143 108
7.485127 11.728302 67.937607 249 142 106
7.489147 11.881128 67.974083 249 141 104
7.493247 12.034243 68.011299 248 139 99
7.497410 12.187620 68.049088 245 136 94
7.501620 12.341236 68.087296 243 132 90
7.505858 12.495065 68.125763 240 128 86
7.510110 12.649082 68.164352 238 125 85
7.514359 12.803263 68.202927 237 123 84
7.518593 12.957582 68.241356 236 121 83
7.522799 13.112017 68.279526 233 119 81
7.526962 13.266543 68.317314 231 116 79
7.531073 13.421138 68.354630 230 115 77
7.535120 13.575780 68.391365 231 115 78
7.539095 13.730447 68.427437 234 119 82
7.542987 13.885118 68.462761 236 122 86
7.546790 14.039776 68.497284 233 121 86
7.550498 14.194404 68.530937 229 119 86
7.554107 14.348989 68.563690 223 116 86
7.557617 14.503524 68.595543 211 107 80
7.561027 14.658003 68.626495 193 95 71
7.564341 14.812428 68.656578 179 86 64
7.567566 14.966808 68.685852 178 88 71
7.570714 15.121158 68.714417 189 103 89
7.573796 15.275498 68.742393 202 119 107
7.576827 15.429856 68.769897 213 135 123
7.579823 15.584261 68.797096 229 160 149
7.582801 15.738748 68.824127 246 186 176
7.585779 15.893347 68.851151 251 191 181
7.588770 16.048094 68.878304 246 171 161
7.591786 16.203009 68.905678 240 154 144
7.594835 16.358112 68.933350 246 158 147
7.597919 16.513412 68.961342 252 168 156
7.601034 16.668900 68.989609 252 167 152
7.604168 16.824554 69.018066 248 159 142
7.607303 16.980331 69.046516 245 153 136
7.610413 17.136173 69.074745 246 156 137
7.613462 17.292000 69.102417 251 162 142
7.616408 17.447712 69.129158 254 166 146
7.619203 17.603189 69.154526 254 166 147
7.621794 17.758297 69.178040 254 166 148
7.624122 17.912893 69.199173 254 166 149
7.626128 18.066816 69.217377 253 164 149
7.627752 18.219904 69.232117 252 162 148
7.628937 18.372000 69.242874 250 158 147
7.629630 18.522945 69.249161 243 149 142
7.629783 18.672598 69.250549 239 144 140
7.629359 18.820833 69.246704 241 147 143
7.628332 18.967550 69.237381 243 148 146
7.626685 19.112677 69.222427 243 149 148
7.624415 19.256165 69.201836 245 152 152
7.621534 19.398008 69.175682 247 156 156
7.618067 19.538233 69.144211 247 154 156
7.614047 19.676897 69.107727 243 147 150
7.609524 19.814093 69.066673 239 141 144
7.604555 19.949942 69.021568 241 146 149
7.599200 20.084578 68.972969 244 154 158
7.593531 20.218164 68.921516 234 143 147
7.587614 20.350866 68.867813 215 120 125
7.581520 20.482859 68.812500 202 106 112
7.575314 20.614305 68.756172 198 103 110
7.569055 20.745365 68.699364 196 102 111
7.562798 20.876186 68.642563 191 99 109
7.556586 21.006889 68.586197 188 97 110
7.550459 21.137587 68.530586 194 104 121
7.544447 21.268364 68.476013 208 119 139
7.538568 21.399290 68.422661 222 136 161
7.532841 21.530415 68.370674 225 143 170
7.527274 21.661779 68.320145 210 127 156
7.108623 -17.722538 63.282169 30 24 26
7.112286 -17.595186 63.314777 30 24 26
7.115943 -17.467678 63.347336 31 25 26
7.119614 -17.340063 63.380016 32 26 26
7.123322 -17.212397 63.413025 33 27 26
7.127087 -17.084724 63.446541 35 28 27
7.130929 -16.957092 63.480747 36 29 28
7.134866 -16.829535 63.515793 36 29 30
7.138913 -16.702085 63.551819 37 30 30
7.143083 -16.574766 63.588943 38 31 31
7.147386 -16.447592 63.627251 40 33 34
7.151828 -16.320568 63.666790 42 33 35
7.156411 -16.193695 63.707592 41 32 34
7.161134 -16.066961 63.749638 41 30 33
7.165994 -15.940347 63.792896 41 29 32
7.170981 -15.813828 63.837292 42 29 32
7.176084 -15.687373 63.882725 43 28 32
7.181291 -15.560946 63.929073 45 29 32
7.186584 -15.434504 63.976192 48 31 33
7.191943 -15.308001 64.023903 53 36 37
7.197350 -15.181391 64.072037 62 45 45
7.202781 -15.054624 64.120377 72 56 54
7.208214 -14.927653 64.168747 80 66 64
7.213625 -14.800429 64.216919 84 70 69
7.218992 -14.672910 64.264702 77 64 64
7.224293 -14.545049 64.311890 64 52 53
7.229507 -14.416812 64.358307 57 47 49
7.234615 -14.288164 64.403778 57 49 52
7.239600 -14.159081 64.448158 60 52 58
7.244450 -14.029544 64.491325 65 59 66
7.249151 -13.899537 64.533180 70 65 73
7.253700 -13.769060 64.573677 71 66 75
7.258093 -13.638116 64.612778 66 62 71
7.262331 -13.506715 64.650505 60 55 64
7.266421 -13.374878 64.686920 57 50 59
7.270372 -13.242632 64.722092 79 70 76
7.274200 -13.110011 64.756165 139 130 132
7.277923 -12.977057 64.789307 207 200 200
7.281561 -12.843810 64.821693 243 238 237
7.285140 -12.710321 64.853561 233 226 223
7.288687 -12.576638 64.885132 190 178 175
7.292227 -12.442809 64.916649 144 132 129
7.295791 -12.308884 64.948372 124 113 112
7.299404 -12.174902 64.980530 120 111 111
7.303090 -12.040903 65.013351 119 112 114
7.306872 -11.906920 65.047020 120 114 119
7.310769 -11.772975 65.081703 123 120 124
7.314793 -11.639085 65.117538 134 134 139
7.318955 -11.505256 65.154579 173 174 179
7.323257 -11.371485 65.192886 223 225 228
7.327699 -11.237762 65.232422 239 242 249
7.332273 -11.104070 65.273140 217 221 235
7.336968 -10.970384 65.314941 190 192 211
7.341770 -10.836675 65.357689 201 201 215
7.346659 -10.702909 65.401215 236 236 241
7.351616 -10.569052 65.445343 251 251 251
7.356618 -10.435069 65.489868 244 244 245
7.361640 -10.300922 65.534576 230 229 230
7.366662 -10.166582 65.579277 219 218 218
7.371659 -10.032016 65.623764 224 224 223
7.376610 -9.897195 65.667831 234 235 234
7.381495 -9.762097 65.711319 225 227 226
7.386295 -9.626702 65.754059 203 206 206
7.390995 -9.490994 65.795898 190 193 193
7.395580 -9.354960 65.836716 194 198 197
7.400038 -9.218592 65.876396 217 219 218
7.404358 -9.081883 65.914856 240 240 240
7.408533 -8.944834 65.952019 247 247 249
7.412557 -8.807445 65.987839 246 246 249
7.416425 -8.669720 66.022278 249 249 251
7.420137 -8.531666 66.055328 248 248 251
7.423695 -8.393294 66.086990 238 239 247
7.427102 -8.254620 66.117325 233 233 243
7.430365 -8.115658 66.146378 236 236 242
7.433498 -7.976430 66.174263 239 239 243
7.436513 -7.836958 66.201103 240 241 245
7.439429 -7.697268 66.227066 224 228 234
7.442266 -7.557385 66.252319 204 209 217
7.445047 -7.417339 66.277084 207 210 218
7.447801 -7.277158 66.301590 212 213 219
7.450553 -7.136870 66.326088 204 203 207
7.453332 -6.996503 66.350830 212 210 212
7.456168 -6.856081 66.376076 229 227 226
7.459088 -6.715625 66.402077 218 216 213
7.462120 -6.575156 66.429062 203 200 195
7.465288 -6.434688 66.457260 214 211 207
7.468612 -6.294230 66.486855 221 220 218
7.472109 -6.153787 66.517990 206 206 207
7.475793 -6.013360 66.550781 202 201 205
7.479669 -5.872942 66.585289 198 197 201
7.483739 -5.732524 66.621521 147 145 150
7.487998 -5.592091 66.659431 89 86 90
7.492434 -5.451623 66.698921 115 111 113
7.497028 -5.311098 66.739822 195 192 194
7.501758 -5.170489 66.781929 228 224 226
7.506595 -5.029771 66.824982 196 191 194
7.511503 -4.888914 66.868683 155 151 154
7.516446 -4.747890 66.912682 158 155 161
7.521383 -4.606672 66.956635 200 198 204
7.526273 -4.465237 67.000160 209 208 214
7.531073 -4.323563 67.042892 150 146 154
7.535746 -4.181634 67.084496 119 110 118
7.540257 -4.039440 67.124657 169 157 161
7.544577 -3.896972 67.163109 224 214 214
7.548681 -3.754233 67.199646 246 241 240
7.552556 -3.611226 67.234138 248 244 243
7.556195 -3.467962 67.266541 227 221 219
7.559601 -3.324455 67.296852 181 172 169
7.562783 -3.180724 67.325180 153 143 139
7.565759 -3.036788 67.351677 189 180 177
7.568552 -2.892668 67.376534 221 211 210
7.571189 -2.748385 67.400017 193 179 181
7.573700 -2.603956 67.422363 171 153 158
7.576113 -2.459400 67.443848 182 160 168
7.578454 -2.314729 67.464691 175 147 159
7.580747 -2.169954 67.485107 154 118 135
7.583006 -2.025082 67.505219 145 100 120
7.585242 -1.880118 67.525116 134 78 100
