ply
format ascii 1.0
element vertex 1244
property float x
property float y
property float z
property uchar red
property uchar green
property uchar blue
end_header
20.566822 6.055949 62.313480 12 11 10
20.584429 6.195576 62.366833 11 12 9
20.601545 6.335281 62.418690 11 12 10
20.618122 6.475041 62.468914 12 12 10
19.861378 -10.041677 59.785648 17 16 14
19.868196 -9.916203 59.806171 17 16 13
19.875168 -9.790715 59.827164 16 15 12
19.882269 -9.665199 59.848534 15 14 11
19.889458 -9.539635 59.870178 15 14 11
19.896692 -9.413998 59.891953 15 14 11
19.903925 -9.288265 59.913723 15 14 11
19.911098 -9.162414 59.935318 15 14 11
19.918154 -9.036413 59.956554 16 15 12
19.925026 -8.910241 59.977242 17 15 13
19.931648 -8.783868 59.997173 18 15 14
19.937944 -8.657269 60.016125 19 15 15
19.943842 -8.530416 60.033882 19 15 14
19.949266 -8.403289 60.050209 18 14 14
19.954138 -8.275861 60.064873 18 14 14
19.958378 -8.148112 60.077637 18 14 14
19.961906 -8.020023 60.088257 18 14 14
19.964651 -7.891578 60.096516 17 14 13
19.966534 -7.762762 60.102184 17 15 13
19.967485 -7.633565 60.105049 17 15 13
19.967445 -7.503984 60.104931 17 14 13
19.966358 -7.374017 60.101658 15 15 12
19.964184 -7.243669 60.095112 15 14 12
19.960888 -7.112950 60.085194 14 14 12
19.956461 -6.981878 60.071865 14 13 12
19.950905 -6.850475 60.055138 15 13 12
19.944241 -6.718771 60.035080 15 13 13
19.936516 -6.586803 60.011826 16 14 13
19.927792 -6.454612 59.985565 16 15 12
19.918154 -6.322245 59.956554 17 15 12
19.907713 -6.189753 59.925125 17 15 12
19.896589 -6.057188 59.891640 17 16 12
19.884924 -5.924606 59.856529 17 16 13
19.872871 -5.792062 59.820248 17 16 13
19.860590 -5.659611 59.783279 17 16 13
19.848248 -5.527301 59.746128 17 15 14
19.836006 -5.395179 59.709278 16 14 13
19.824024 -5.263284 59.673210 16 14 12
19.812447 -5.131650 59.638359 16 14 11
19.801401 -5.000301 59.605114 16 14 11
19.791002 -4.869254 59.573807 15 14 10
19.781332 -4.738516 59.544701 15 14 10
19.772451 -4.608088 59.517967 15 14 10
19.764391 -4.477962 59.493706 15 13 10
19.757156 -4.348121 59.471928 15 13 12
19.750723 -4.218545 59.452560 15 13 12
19.745039 -4.089209 59.435452 15 13 12
19.740032 -3.960082 59.420383 15 13 13
19.735613 -3.831133 59.407082 15 13 13
19.731674 -3.702332 59.395222 15 13 13
19.728100 -3.573649 59.384464 15 13 12
19.724770 -3.445054 59.374439 15 12 11
19.721567 -3.316525 59.364803 14 11 10
19.718380 -3.188039 59.355206 14 10 10
19.715107 -3.059581 59.345356 13 11 9
19.711668 -2.931141 59.334999 13 12 9
19.707994 -2.802712 59.323944 13 13 9
19.704044 -2.674294 59.312054 14 13 9
19.699802 -2.545889 59.299282 14 14 10
19.695271 -2.417503 59.285641 14 14 11
19.690479 -2.289146 59.271221 14 13 11
19.685484 -2.160829 59.256180 14 12 11
19.680353 -2.032563 59.240742 13 12 10
19.675182 -1.904359 59.225178 13 11 10
19.670074 -1.776229 59.209801 14 11 11
19.665148 -1.648179 59.194969 14 11 11
19.660524 -1.520218 59.181053 14 12 11
19.656336 -1.392346 59.168446 14 11 11
19.652710 -1.264566 59.157528 14 12 11
19.649771 -1.136872 59.148685 13 11 11
19.647644 -1.009258 59.142281 13 12 11
19.646441 -0.881713 59.138657 14 12 12
19.646269 -0.754224 59.138138 14 12 12
19.647221 -0.626772 59.141003 15 12 12
19.649384 -0.499339 59.147514 15 12 12
19.652832 -0.371902 59.157898 15 12 12
19.657633 -0.244438 59.172344 15 12 12
19.663837 -0.116919 59.191025 14 11 11
19.671490 0.010681 59.214058 12 11 10
19.680628 0.138391 59.241570 12 11 9
19.691277 0.266240 59.273624 12 11 9
19.703457 0.394258 59.310284 12 12 10
19.717175 0.522474 59.351578 13 12 11
19.732433 0.650919 59.397507 13 12 11
19.749224 0.779623 59.448051 14 12 11
19.767530 0.908615 59.503155 14 12 11
19.787325 1.037922 59.562740 14 11 11
19.808565 1.167571 59.626675 14 11 11
19.831203 1.297587 59.694820 14 11 10
19.855171 1.427993 59.766968 14 11 10
19.880398 1.558808 59.842903 13 11 9
19.906788 1.690050 59.922340 13 10 10
19.934238 1.821731 60.004971 13 10 10
19.962633 1.953860 60.090443 13 10 9
19.991842 2.086444 60.178368 13 11 10
20.021730 2.219481 60.268333 14 11 10
20.052149 2.352969 60.359898 14 11 10
20.082947 2.486898 60.452602 14 11 10
20.113968 2.621256 60.545982 14 12 10
20.145060 2.756027 60.639576 14 12 10
20.176073 2.891189 60.732929 14 12 10
20.206863 3.026721 60.825611 14 12 10
20.237297 3.162596 60.917221 14 11 10
20.267256 3.298790 61.007404 13 11 10
20.296640 3.435275 61.095856 13 11 9
20.325365 3.572025 61.182316 12 11 10
20.353361 3.709015 61.266594 12 11 10
20.380590 3.846224 61.348553 12 12 11
20.407022 3.983631 61.428123 12 12 12
20.432659 4.121220 61.505291 13 13 12
20.457510 4.258978 61.580093 13 13 13
20.481600 4.396895 61.652611 14 13 13
20.504971 4.534966 61.722958 14 13 13
20.527670 4.673188 61.791286 14 13 13
20.549753 4.811560 61.857761 14 13 12
20.571270 4.950082 61.922531 14 12 11
20.592279 5.088758 61.985767 14 11 11
20.612820 5.227587 62.047600 13 10 10
20.632935 5.366573 62.108150 13 10 10
20.652651 5.505713 62.167500 12 10 10
20.671982 5.645004 62.225689 11 10 10
20.690931 5.784440 62.282730 11 10 10
20.709486 5.924007 62.338581 11 10 9
20.727625 6.063694 62.393177 11 11 9
20.745312 6.203482 62.446419 11 11 9
20.762503 6.343349 62.498169 11 12 10
19.997725 -9.916503 59.807991 17 15 13
20.005400 -9.791333 59.830940 16 15 12
20.013153 -9.666103 59.854134 15 14 11
20.020952 -9.540795 59.877457 15 14 11
20.028751 -9.415385 59.900780 14 14 10
20.036499 -9.289851 59.923950 15 14 11
20.044142 -9.164169 59.946808 16 14 11
20.051617 -9.038315 59.969170 17 15 12
20.058861 -8.912259 59.990829 18 15 13
20.065805 -8.785980 60.011600 18 15 14
20.072378 -8.659451 60.031258 19 15 14
20.078506 -8.532648 60.049587 19 15 14
20.084114 -8.405548 60.066357 18 14 14
20.089123 -8.278130 60.081337 18 14 14
20.093460 -8.150373 60.094307 18 15 14
20.097050 -8.022264 60.105042 17 15 13
20.099813 -7.893783 60.113308 17 15 13
20.101685 -7.764921 60.118904 17 15 13
20.102596 -7.635672 60.121632 17 15 12
20.102489 -7.506030 60.121315 17 15 12
20.101318 -7.375998 60.117809 16 14 12
20.099039 -7.245584 60.110996 15 14 11
20.095631 -7.114798 60.100803 14 14 11
20.091082 -6.983659 60.087196 14 13 11
20.085403 -6.852194 60.070213 14 13 12
20.078621 -6.720433 60.049927 15 13 12
20.070782 -6.588412 60.026485 16 13 12
20.061958 -6.456176 60.000095 16 14 12
20.052238 -6.323771 59.971027 17 15 12
20.041735 -6.191248 59.939610 17 15 12
20.030571 -6.058662 59.906223 17 16 12
20.018892 -5.926068 59.871296 17 16 13
20.006857 -5.793520 59.835297 17 16 14
19.994623 -5.661071 59.798710 17 15 14
19.982359 -5.528772 59.762035 17 15 14
19.970230 -5.396668 59.725761 16 14 13
19.958395 -5.264797 59.690361 15 13 12
19.946995 -5.133191 59.656265 15 13 11
19.936161 -5.001874 59.623867 15 14 11
19.926003 -4.870862 59.593487 15 14 11
19.916605 -4.740162 59.565380 15 14 11
19.908020 -4.609772 59.539707 15 14 11
19.900282 -4.479682 59.516563 15 13 11
19.893389 -4.349877 59.495949 15 13 11
19.887312 -4.220335 59.477776 15 13 11
19.882002 -4.091028 59.461891 15 13 12
19.877378 -3.961926 59.448063 15 13 12
19.873348 -3.832999 59.436008 15 13 12
19.869799 -3.704213 59.425396 15 13 12
19.866615 -3.575539 59.415874 15 13 11
19.863672 -3.446948 59.407070 15 12 11
19.860847 -3.318414 59.398624 14 11 10
19.858030 -3.189918 59.390198 13 11 9
19.855114 -3.061443 59.381477 13 11 9
19.852016 -2.932979 59.372215 14 12 10
19.848673 -2.804521 59.362217 13 13 9
19.845039 -2.676065 59.351349 14 13 10
19.841097 -2.547618 59.339558 14 14 10
19.836855 -2.419184 59.326870 14 14 11
19.832342 -2.290774 59.313370 14 13 11
19.827614 -2.162399 59.299232 13 12 10
19.822744 -2.034070 59.284668 13 11 10
19.817829 -1.905800 59.269970 14 11 11
19.812979 -1.777599 59.255459 13 10 10
19.808308 -1.649475 59.241493 13 11 11
19.803947 -1.521435 59.228451 14 11 11
19.800028 -1.393483 59.216728 14 11 12
19.796682 -1.265617 59.206722 14 11 12
19.794037 -1.137836 59.198811 13 11 12
19.792215 -1.010130 59.193363 13 11 12
19.791334 -0.882490 59.190727 14 11 12
19.791500 -0.754901 59.191223 14 12 12
19.792809 -0.627346 59.195137 14 12 12
19.795343 -0.499805 59.202721 15 12 12
19.799179 -0.372256 59.214191 15 12 12
19.804382 -0.244675 59.229752 15 12 12
19.811003 -0.117034 59.249554 14 11 11
19.819086 0.010692 59.273724 12 11 10
19.828661 0.138533 59.302364 11 11 9
19.839760 0.266518 59.335556 12 11 10
19.852392 0.394677 59.373337 12 12 10
19.866570 0.523039 59.415737 13 13 11
19.882292 0.651634 59.462757 14 13 12
19.899546 0.780493 59.514362 14 12 11
19.918314 0.909643 59.570492 14 12 11
19.938568 1.039112 59.631065 14 11 11
19.960266 1.168928 59.695957 14 11 11
19.983356 1.299113 59.765015 14 11 11
20.007772 1.429691 59.838036 14 11 10
20.033436 1.560681 59.914791 13 11 10
20.060257 1.692099 59.995003 13 11 10
20.088129 1.823959 60.078362 13 11 10
20.116932 1.956269 60.164509 13 11 10
20.146542 2.089033 60.253063 13 10 9
20.176815 2.222253 60.343601 13 10 10
20.207605 2.355923 60.435688 14 10 10
20.238760 2.490035 60.528862 14 11 10
20.270123 2.624576 60.622658 14 11 10
20.301537 2.759528 60.716610 14 12 11
20.332853 2.894871 60.810272 15 12 11
20.363928 3.030582 60.903206 14 11 11
20.394627 3.166636 60.995022 14 11 11
20.424831 3.303005 61.085354 13 10 10
20.454439 3.439663 61.173904 12 10 10
20.483366 3.576584 61.260418 12 10 10
20.511549 3.713744 61.344704 12 11 10
20.538944 3.851119 61.426632 12 12 11
20.565527 3.988690 61.506138 12 12 12
20.591297 4.126441 61.583206 13 13 13
20.616264 4.264358 61.657879 14 14 13
20.640463 4.402432 61.730251 13 13 13
20.663931 4.540659 61.800442 14 13 13
20.686722 4.679035 61.868603 14 13 13
20.708889 4.817560 61.934898 14 13 12
20.730490 4.956234 61.999500 14 12 11
20.751579 5.095062 62.062569 14 11 11
20.772202 5.234045 62.124249 13 10 10
20.792400 5.373183 62.184654 11 9 9
20.812201 5.512477 62.243877 10 9 9
20.831621 5.651923 62.301952 10 9 9
20.850660 5.791513 62.358898 10 9 9
20.869308 5.931238 62.414669 11 10 9
20.887545 6.071084 62.469208 11 10 9
20.135574 -9.791917 59.834507 16 15 12
20.144012 -9.666983 59.859577 15 15 11
20.152443 -9.541939 59.884636 15 14 11
20.160826 -9.416762 59.909546 14 14 10
20.169111 -9.291434 59.934162 15 14 11
20.177238 -9.165929 59.958313 16 14 11
20.185148 -9.040221 59.981819 17 15 12
20.192778 -8.914289 60.004494 18 15 13
20.200056 -8.788106 60.026119 18 15 13
20.206915 -8.661650 60.046497 18 15 14
20.213278 -8.534897 60.065411 18 15 14
20.219076 -8.407826 60.082638 18 15 14
20.224230 -8.280419 60.097954 18 15 14
20.228668 -8.152658 60.111145 17 15 14
20.232319 -8.024526 60.121990 17 15 13
20.235109 -7.896012 60.130287 17 15 13
20.236975 -7.767107 60.135826 17 15 12
20.237852 -7.637805 60.138432 17 15 12
20.237688 -7.508106 60.137947 17 15 12
20.236437 -7.378013 60.134224 16 14 12
20.234066 -7.247535 60.127182 15 14 11
20.230555 -7.116686 60.116749 15 14 11
20.225899 -6.985486 60.102913 15 13 11
20.220114 -6.853963 60.085720 15 13 12
20.213230 -6.722149 60.065266 15 12 12
20.205301 -6.590083 60.041706 16 13 12
20.196400 -6.457808 60.015255 16 13 12
20.186625 -6.325371 59.986202 16 14 13
20.176083 -6.192826 59.954880 17 15 13
20.164911 -6.060226 59.921680 17 16 13
20.153252 -5.927626 59.887039 17 16 14
20.141266 -5.795081 59.851418 17 16 14
20.129114 -5.662643 59.815311 17 15 14
20.116966 -5.530362 59.779213 17 15 14
20.104988 -5.398282 59.743618 16 14 13
20.093336 -5.266440 59.708996 15 14 12
20.082155 -5.134869 59.675766 14 13 12
20.071573 -5.003590 59.644321 15 14 12
20.061695 -4.872618 59.614967 15 14 12
20.052607 -4.741959 59.587959 15 14 12
20.044357 -4.611609 59.563446 15 14 12
20.036976 -4.481560 59.541515 15 13 11
20.030460 -4.351793 59.522152 15 13 11
20.024776 -4.222285 59.505264 15 13 11
20.019871 -4.093009 59.490688 15 13 11
20.015663 -3.963933 59.478180 15 13 11
20.012051 -3.835026 59.467445 15 13 10
20.008923 -3.706255 59.458153 15 13 10
20.006157 -3.577589 59.449932 15 13 10
20.003624 -3.448998 59.442406 14 12 10
20.001205 -3.320459 59.435219 14 12 10
19.998779 -3.191949 59.428009 14 12 10
19.996244 -3.063454 59.420479 14 12 10
19.993513 -2.934963 59.412361 14 12 10
19.990520 -2.806469 59.403469 14 13 10
19.987223 -2.677974 59.393665 14 13 10
19.983601 -2.549479 59.382904 14 13 10
19.979662 -2.420992 59.371201 14 13 10
19.975443 -2.292524 59.358662 13 13 10
19.970997 -2.164084 59.345451 13 12 10
19.966400 -2.035687 59.331791 13 11 10
19.961754 -1.907344 59.317982 13 10 10
19.957165 -1.779065 59.304348 13 10 10
19.952757 -1.650860 59.291248 14 11 11
19.948660 -1.522735 59.279076 14 11 11
19.945011 -1.394695 59.268230 14 11 12
19.941940 -1.266737 59.259109 14 11 12
19.939579 -1.138860 59.252094 14 12 13
19.938053 -1.011055 59.247559 13 11 12
19.937479 -0.883312 59.245850 13 11 12
19.937963 -0.755616 59.247292 13 11 12
19.939602 -0.627950 59.252159 14 12 11
19.942480 -0.500295 59.260712 14 12 11
19.946672 -0.372627 59.273170 14 12 11
19.952242 -0.244922 59.289719 14 11 11
19.959238 -0.117155 59.310513 13 11 10
19.967705 0.010703 59.335670 12 11 10
19.977674 0.138680 59.365292 11 10 10
19.989168 0.266805 59.399452 12 11 10
20.002203 0.395108 59.438183 13 12 11
20.016783 0.523618 59.481510 14 13 12
20.032909 0.652365 59.529430 14 13 12
20.050568 0.781379 59.581902 14 12 11
20.069738 0.910687 59.638870 14 12 11
20.090389 1.040318 59.700237 14 12 10
20.112480 1.170297 59.765881 14 12 11
20.135958 1.300648 59.835644 14 12 11
20.160753 1.431394 59.909328 13 12 11
20.186789 1.562554 59.986694 13 12 11
20.213974 1.694143 60.067474 12 11 10
20.242197 1.826175 60.151348 12 11 10
20.271343 1.958657 60.237957 12 11 10
20.301283 2.091594 60.326920 13 10 10
20.331873 2.224986 60.417824 14 11 10
20.362967 2.358829 60.510220 14 10 10
20.394407 2.493112 60.603653 14 11 10
20.426043 2.627823 60.697655 15 12 11
20.457712 2.762944 60.791763 14 12 11
20.489265 2.898454 60.885532 14 12 11
20.520561 3.034330 60.978527 14 11 11
20.551462 3.170547 61.070354 13 10 11
20.581854 3.307077 61.160664 13 10 10
20.611628 3.443893 61.249142 12 10 10
20.640705 3.580971 61.335548 11 11 10
20.669024 3.718283 61.419693 12 11 11
20.696535 3.855809 61.501450 12 12 11
20.723225 3.993529 61.580757 12 12 12
20.749086 4.131426 61.657608 13 13 13
20.774139 4.269487 61.732052 13 13 13
20.798412 4.407705 61.804184 13 13 13
20.821953 4.546073 61.874134 13 13 13
20.844809 4.684590 61.942051 14 13 12
20.867041 4.823255 62.008118 14 13 12
20.888708 4.962070 62.072506 14 12 12
20.909863 5.101039 62.135368 14 10 11
20.930559 5.240163 62.196873 13 10 10
20.950834 5.379445 62.257118 11 9 9
20.970720 5.518883 62.316208 10 9 9
20.990229 5.658475 62.374180 10 9 9
21.009365 5.798214 62.431049 10 9 8
21.028118 5.938090 62.486774 10 9 8
20.283932 -9.543066 59.891712 15 14 11
20.292921 -9.418132 59.918259 14 14 10
20.301760 -9.293014 59.944351 15 14 11
20.310390 -9.167690 59.969837 15 14 11
20.318750 -9.042136 59.994522 16 14 12
20.326778 -8.916328 60.018223 17 15 13
20.334402 -8.790246 60.040737 18 15 14
20.341555 -8.663865 60.061855 18 15 13
20.348166 -8.537165 60.081375 18 15 13
20.354160 -8.410127 60.099072 18 15 13
20.359467 -8.282732 60.114738 17 15 13
20.364014 -8.154965 60.128166 17 15 13
20.367731 -8.026815 60.139149 17 15 13
20.370554 -7.898270 60.147480 17 15 13
20.372417 -7.769323 60.152985 18 15 13
20.373266 -7.639972 60.155491 17 15 12
20.373053 -7.510217 60.154854 17 15 12
20.371731 -7.380065 60.150951 17 14 12
20.369278 -7.249527 60.143707 17 14 11
20.365675 -7.118618 60.133072 16 13 11
20.360926 -6.987362 60.119053 16 13 11
20.355049 -6.855786 60.101700 16 13 11
20.348083 -6.723925 60.081131 15 12 11
20.340084 -6.591818 60.057510 15 12 11
20.331129 -6.459509 60.031075 15 13 12
20.321320 -6.327048 60.002106 16 14 13
20.310770 -6.194487 59.970959 16 15 14
20.299618 -6.061879 59.938026 17 16 14
20.288008 -5.929280 59.903751 17 16 14
20.276102 -5.796744 59.868595 17 16 14
20.264069 -5.664323 59.833061 17 15 14
20.252071 -5.532066 59.797642 17 15 14
20.240278 -5.400016 59.762817 16 14 13
20.228846 -5.268210 59.729061 15 14 12
20.217918 -5.136679 59.696796 14 13 12
20.207621 -5.005442 59.666393 15 14 12
20.198061 -4.874514 59.638165 15 14 13
20.189314 -4.743899 59.612339 15 14 13
20.181435 -4.613594 59.589073 15 13 12
20.174446 -4.483586 59.568436 15 13 11
20.168339 -4.353858 59.550404 15 13 11
20.163080 -4.224386 59.534878 15 13 10
20.158609 -4.095141 59.521675 15 13 10
20.154842 -3.966091 59.510551 15 13 10
20.151674 -3.837203 59.501202 15 13 10
20.148993 -3.708445 59.493282 15 13 10
20.146669 -3.579784 59.486420 15 14 10
20.144571 -3.451193 59.480228 15 13 10
20.142576 -3.322644 59.474339 15 13 10
20.140566 -3.194118 59.468399 15 13 10
20.138430 -3.065600 59.462097 15 12 10
20.136086 -2.937077 59.455170 15 12 10
20.133461 -2.808546 59.447418 14 13 10
20.130514 -2.680005 59.438721 14 13 10
20.127228 -2.551459 59.429020 14 13 11
20.123611 -2.422914 59.418343 13 13 10
20.119699 -2.294382 59.406788 13 12 10
20.115547 -2.165874 59.394527 12 12 10
20.111235 -2.037403 59.381798 12 11 10
20.106863 -1.908980 59.368889 13 10 10
20.102545 -1.780619 59.356140 13 10 10
20.098406 -1.652327 59.343914 13 11 11
20.094576 -1.524111 59.332607 14 11 12
20.091192 -1.395975 59.322620 14 11 12
20.088394 -1.267918 59.314354 14 11 12
20.086309 -1.139938 59.308197 14 11 12
20.085064 -1.012027 59.304523 13 11 12
20.084778 -0.884174 59.303677 13 11 12
20.085560 -0.756364 59.305988 13 11 12
20.087505 -0.628582 59.311729 13 11 11
20.090696 -0.500805 59.321156 13 11 11
20.095211 -0.373012 59.334484 13 11 10
20.101109 -0.245179 59.351894 13 12 11
20.108438 -0.117279 59.373543 13 12 11
20.117247 0.010715 59.399544 12 11 11
20.127558 0.138831 59.429993 12 11 10
20.139399 0.267099 59.464951 12 11 10
20.152781 0.395548 59.504467 13 12 11
20.167709 0.524208 59.548546 13 12 11
20.184179 0.653108 59.597179 14 12 11
20.202181 0.782276 59.650330 14 12 11
20.221691 0.911742 59.707939 14 13 11
20.242678 1.041532 59.769905 14 12 11
20.265097 1.171672 59.836102 13 12 11
20.288897 1.302186 59.906372 13 12 11
20.314007 1.433095 59.980515 13 12 11
20.340349 1.564419 60.058292 12 12 11
20.367828 1.696173 60.139431 12 11 10
20.396338 1.828369 60.223610 13 11 11
20.425758 1.961015 60.310482 13 11 10
20.455959 2.094116 60.399654 13 10 10
20.486797 2.227670 60.490711 14 10 10
20.518126 2.361674 60.583210 14 10 10
20.549789 2.496117 60.676704 14 11 10
20.581631 2.630986 60.770718 14 11 10
20.613491 2.766263 60.864792 14 11 11
20.645220 2.901926 60.958473 14 11 11
20.676674 3.037954 61.051350 13 11 11
20.707718 3.174319 61.143017 13 10 10
20.738235 3.310995 61.233120 12 9 10
20.768122 3.447954 61.321365 12 10 10
20.797297 3.585172 61.407513 11 11 10
20.825699 3.722623 61.491371 12 12 11
20.853285 3.860284 61.572823 12 12 12
20.880035 3.998137 61.651810 12 12 12
20.905952 4.136165 61.728333 12 12 12
20.931053 4.274356 61.802444 13 13 12
20.955370 4.412702 61.874249 13 13 12
20.978951 4.551198 61.943874 13 13 12
21.001850 4.689841 62.011486 14 13 12
21.024126 4.828633 62.077263 14 12 12
21.045841 4.967577 62.141380 14 11 12
21.067051 5.106674 62.204006 14 10 11
21.087809 5.245928 62.265297 13 9 10
21.108154 5.385342 62.325371 12 9 9
21.128120 5.524916 62.384319 10 9 9
21.147718 5.664645 62.442188 10 9 8
20.425034 -9.419492 59.926907 14 13 11
20.434446 -9.294591 59.954521 14 13 11
20.443596 -9.169454 59.981369 15 13 12
20.452423 -9.044057 60.007267 16 14 13
20.460863 -8.918380 60.032028 17 15 13
20.468845 -8.792400 60.055454 17 15 13
20.476305 -8.666098 60.077339 18 15 13
20.483171 -8.539454 60.097481 17 15 14
20.489370 -8.412450 60.115673 17 15 14
20.494837 -8.285069 60.131710 17 15 14
20.499500 -8.157302 60.145390 17 15 14
20.503294 -8.029134 60.156521 17 15 14
20.506153 -7.900559 60.164913 17 15 13
20.508026 -7.771573 60.170406 17 15 12
20.508852 -7.642174 60.172832 17 14 12
20.508595 -7.512367 60.172073 17 14 12
20.507214 -7.382159 60.168022 17 14 11
20.504688 -7.251565 60.160614 17 13 11
20.501007 -7.120600 60.149815 17 13 11
20.496180 -6.989291 60.135651 16 13 11
20.490229 -6.857667 60.118187 16 13 11
20.483194 -6.725763 60.097553 15 12 11
20.475145 -6.593620 60.073933 15 12 11
20.466158 -6.461284 60.047565 15 13 12
20.456337 -6.328804 60.018753 16 14 14
20.445805 -6.196231 59.987850 16 15 14
20.434698 -6.063622 59.955261 16 15 14
20.423166 -5.931030 59.921429 16 16 14
20.411371 -5.798509 59.886822 17 16 15
20.399481 -5.666110 59.851936 17 15 15
20.387667 -5.533883 59.817276 17 15 14
20.376091 -5.401868 59.783310 16 15 13
20.364910 -5.270102 59.750504 15 14 12
20.354267 -5.138613 59.719280 15 14 13
20.344288 -5.007422 59.689999 15 13 13
20.335073 -4.876541 59.662964 15 14 13
20.326702 -4.745973 59.638401 15 14 13
20.319220 -4.615713 59.616451 15 13 12
20.312649 -4.485749 59.597172 15 13 11
20.306978 -4.356061 59.580536 15 13 10
20.302170 -4.226624 59.566425 15 14 10
20.298159 -4.097410 59.554653 14 13 9
20.294857 -3.968385 59.544971 14 13 9
20.292158 -3.839515 59.537052 15 13 9
20.289944 -3.710768 59.530552 15 13 10
20.288080 -3.582111 59.525085 15 13 10
20.286438 -3.453516 59.520267 15 13 10
20.284887 -3.324956 59.515720 15 13 10
20.283304 -3.196411 59.511078 15 13 10
20.281588 -3.067865 59.506035 15 13 10
20.279642 -2.939308 59.500328 15 13 10
20.277403 -2.810735 59.493755 14 12 10
20.274822 -2.682145 59.486191 14 12 10
20.271889 -2.553544 59.477577 14 12 10
20.268606 -2.424937 59.467949 13 12 10
20.265013 -2.296337 59.457409 12 12 9
20.261168 -2.167756 59.446125 12 11 9
20.257149 -2.039205 59.434334 12 11 9
20.253061 -1.910699 59.422344 12 10 10
20.249020 -1.782249 59.410484 13 10 10
20.245152 -1.653864 59.399136 13 11 11
20.241589 -1.525551 59.388680 14 11 11
20.238470 -1.397314 59.379532 14 10 12
20.235935 -1.269153 59.372097 14 11 12
20.234116 -1.141064 59.366756 13 11 11
20.233141 -1.013040 59.363892 13 11 11
20.233126 -0.885071 59.363850 13 11 11
20.234182 -0.757142 59.366951 13 11 11
20.236406 -0.629236 59.373478 13 11 11
20.239882 -0.501333 59.383675 13 11 11
20.244682 -0.373410 59.397758 13 11 10
20.250870 -0.245444 59.415913 13 11 11
20.258493 -0.117407 59.438282 13 11 11
20.267593 0.010727 59.464981 12 11 11
20.278202 0.138986 59.496105 12 11 10
20.290337 0.267399 59.531708 12 11 10
20.304012 0.395996 59.571831 13 12 10
20.319231 0.524806 59.616486 13 12 11
20.335991 0.653858 59.665653 14 12 11
20.354277 0.783181 59.719303 14 12 11
20.374063 0.912802 59.777363 14 12 11
20.395323 1.042749 59.839737 14 12 11
20.418009 1.173046 59.906300 13 12 11
20.442066 1.303718 59.976879 13 11 11
20.467428 1.434786 60.051289 12 12 12
20.494009 1.566268 60.129280 12 11 11
20.521719 1.698179 60.210583 12 11 10
20.550449 1.830532 60.294880 12 11 10
20.580080 1.963334 60.381813 12 11 10
20.610477 2.096590 60.471001 12 10 9
20.641500 2.230297 60.562019 13 10 9
20.673000 2.364451 60.654442 13 10 9
20.704821 2.499042 60.747799 13 10 9
20.736805 2.634056 60.841640 13 10 10
20.768793 2.769476 60.935493 13 11 10
20.800636 2.905280 61.028923 13 11 10
20.832190 3.041445 61.121498 13 10 10
20.863319 3.177944 61.212837 12 9 9
20.893909 3.314751 61.302586 12 10 9
20.923857 3.451839 61.390450 11 10 10
20.953079 3.589182 61.476189 11 11 10
20.981518 3.726755 61.559628 12 12 11
21.009132 3.864536 61.640648 12 12 12
21.035904 4.002507 61.719200 12 12 12
21.061838 4.140651 61.795284 12 12 12
21.086952 4.278957 61.868973 13 13 12
21.111282 4.417417 61.940357 13 13 12
21.134876 4.556026 62.009583 13 12 12
21.157791 4.694782 62.076813 13 12 12
21.180090 4.833688 62.142239 14 11 12
21.201836 4.972745 62.206039 14 11 12
21.223085 5.111959 62.268387 14 10 11
21.243893 5.251332 62.329430 14 9 11
21.264299 5.390867 62.389305 12 9 10
20.567160 -9.296160 59.964645 15 13 13
20.576847 -9.171214 59.992893 15 13 13
20.586159 -9.045981 60.020035 16 14 14
20.595026 -8.920439 60.045891 17 14 14
20.603382 -8.794567 60.070251 17 14 14
20.611160 -8.668347 60.092930 17 14 14
20.618292 -8.541762 60.113724 17 15 14
20.624708 -8.414795 60.132435 17 15 14
20.630344 -8.287434 60.148861 17 15 14
20.635130 -8.159665 60.162819 17 15 14
20.639009 -8.031485 60.174129 17 15 14
20.641918 -7.902883 60.182606 17 14 13
20.643805 -7.773860 60.188107 17 14 12
20.644621 -7.644416 60.190487 17 14 12
20.644327 -7.514559 60.189632 17 14 11
20.642897 -7.384299 60.185463 17 14 11
20.640312 -7.253651 60.177925 17 14 11
20.636566 -7.122635 60.167004 17 13 11
20.631674 -6.991277 60.152737 16 13 11
20.625662 -6.859609 60.135216 16 13 11
20.618582 -6.727667 60.114567 16 13 11
20.610498 -6.595494 60.091000 16 13 11
20.601498 -6.463134 60.064758 16 14 12
20.591690 -6.330639 60.036163 16 14 13
20.581196 -6.198061 60.005569 16 15 14
20.570158 -6.065455 59.973385 16 15 14
20.558729 -5.932874 59.940063 16 16 14
20.547070 -5.800373 59.906075 16 16 15
20.535353 -5.668001 59.871914 16 15 14
20.523746 -5.535807 59.838074 16 15 14
20.512415 -5.403831 59.805035 16 15 13
20.501513 -5.272108 59.773247 15 14 12
20.491182 -5.140665 59.743126 15 14 13
20.481546 -5.009522 59.715038 15 13 13
20.472706 -4.878690 59.689259 15 13 13
20.464733 -4.748170 59.666012 15 13 12
20.457674 -4.617957 59.645432 15 13 11
20.451544 -4.488037 59.627563 15 13 10
20.446331 -4.358388 59.612366 15 13 10
20.441994 -4.228987 59.599716 14 13 9
20.438461 -4.099802 59.589420 14 13 9
20.435644 -3.970799 59.581203 14 13 9
20.433430 -3.841946 59.574749 15 13 9
20.431698 -3.713208 59.569698 14 12 10
20.430311 -3.584553 59.565655 15 13 10
20.429138 -3.455951 59.562237 15 13 10
20.428045 -3.327377 59.559048 15 13 10
20.426908 -3.198810 59.555737 15 13 10
20.425619 -3.070234 59.551979 15 13 10
20.424088 -2.941639 59.547512 15 13 10
20.422245 -2.813021 59.542137 14 13 10
20.420046 -2.684379 59.535725 14 13 10
20.417473 -2.555718 59.528229 14 13 9
20.414537 -2.427046 59.519665 13 12 9
20.411276 -2.298374 59.510155 12 12 8
20.407745 -2.169715 59.499863 13 12 8
20.404030 -2.041082 59.489033 12 11 8
20.400234 -1.912488 59.477962 12 10 9
20.396475 -1.783944 59.467003 12 10 10
20.392878 -1.655462 59.456516 13 11 11
20.389582 -1.527047 59.446907 13 11 11
20.386726 -1.398703 59.438583 13 10 11
20.384449 -1.270432 59.431946 13 10 11
20.382885 -1.142229 59.427387 13 10 11
20.382166 -1.014088 59.425285 13 10 11
20.382404 -0.885997 59.425980 13 10 11
20.383715 -0.757944 59.429802 13 11 11
20.386192 -0.629909 59.437027 13 11 11
20.389921 -0.501875 59.447895 13 11 11
20.394974 -0.373818 59.462631 13 11 10
20.401413 -0.245714 59.481403 13 11 11
20.409286 -0.117538 59.504360 13 11 11
20.418638 0.010739 59.531624 13 11 11
20.429491 0.139143 59.563267 13 10 10
20.441872 0.267703 59.599358 12 11 10
20.455788 0.396449 59.639935 13 12 10
20.471243 0.525409 59.684994 14 12 10
20.488232 0.654613 59.734528 14 12 11
20.506742 0.784088 59.788498 14 12 11
20.526752 0.913863 59.846832 14 12 11
20.548223 1.043963 59.909435 14 12 11
20.571114 1.174415 59.976173 13 12 10
20.595369 1.305240 60.046890 12 11 11
20.620916 1.436461 60.121380 12 11 11
20.647678 1.568094 60.199402 11 11 11
20.675558 1.700157 60.280685 11 11 11
20.704447 1.832659 60.364910 11 11 10
20.734224 1.965608 60.451733 12 10 9
20.764757 2.099008 60.540749 12 10 9
20.795904 2.232857 60.631561 13 10 10
20.827513 2.367151 60.723721 13 10 10
20.859430 2.501879 60.816776 13 10 10
20.891497 2.637028 60.910267 13 9 9
20.923557 2.772578 61.003742 13 10 9
20.955460 2.908509 61.096752 12 10 9
20.987057 3.044797 61.188877 12 10 9
21.018219 3.181417 61.279736 12 9 9
21.048830 3.318341 61.368980 12 10 9
21.078785 3.455543 61.456318 11 10 10
21.108009 3.592996 61.541523 11 11 10
21.136442 3.730678 61.624420 12 12 11
21.164043 3.868564 61.704891 12 12 12
21.190800 4.006638 61.782902 12 12 12
21.216711 4.144883 61.858448 12 12 12
21.241804 4.283289 61.931610 12 12 12
21.266117 4.421848 62.002491 12 11 11
21.289696 4.560555 62.071236 12 11 11
21.312603 4.699411 62.138023 13 11 11
21.334904 4.838417 62.203045 14 11 11
21.356657 4.977576 62.266468 14 10 11
21.377928 5.116893 62.328484 14 10 11
21.398771 5.256372 62.389252 14 9 11
20.719944 -9.047904 60.032791 16 14 14
20.729254 -8.922501 60.059769 17 14 14
20.737999 -8.796741 60.085106 17 14 14
20.746111 -8.670609 60.108608 17 14 14
20.753523 -8.544086 60.130085 17 15 14
20.760168 -8.417161 60.149338 17 15 14
20.765985 -8.289821 60.166191 17 14 14
20.770908 -8.162058 60.180454 17 15 14
20.774881 -8.033865 60.191963 17 15 14
20.777847 -7.905240 60.200562 17 14 13
20.779762 -7.776184 60.206104 17 14 12
20.780577 -7.646700 60.208469 17 14 11
20.780264 -7.516798 60.207558 17 14 11
20.778795 -7.386488 60.203304 17 14 11
20.776161 -7.255791 60.195675 17 14 10
20.772364 -7.124726 60.184669 16 13 10
20.767420 -6.993324 60.170345 16 13 11
20.761366 -6.861616 60.152805 16 13 11
20.754253 -6.729640 60.132198 16 13 11
20.746155 -6.597440 60.108734 16 14 11
20.737162 -6.465062 60.082676 16 14 12
20.727385 -6.332557 60.054348 16 15 13
20.716951 -6.199978 60.024120 15 15 14
20.706003 -6.067378 59.992405 16 16 14
20.694698 -5.934813 59.959652 15 15 14
20.683201 -5.802334 59.926338 15 15 14
20.671680 -5.669993 59.892956 15 15 13
20.660303 -5.537835 59.859997 16 15 13
20.649239 -5.405900 59.827934 15 15 13
20.638638 -5.274222 59.797218 15 14 12
20.628641 -5.142828 59.768257 15 14 12
20.619370 -5.011734 59.741394 14 13 12
20.610922 -4.880951 59.716923 14 13 12
20.603369 -4.750480 59.695034 14 13 12
20.596750 -4.620313 59.675858 14 13 11
20.591080 -4.490435 59.659431 14 13 10
20.586342 -4.360826 59.645702 14 13 9
20.582489 -4.231458 59.634541 14 14 10
20.579451 -4.102300 59.625736 14 13 9
20.577129 -3.973319 59.619011 14 13 9
20.575415 -3.844480 59.614040 14 13 9
20.574175 -3.715748 59.610451 14 12 10
20.573277 -3.587092 59.607849 15 13 10
20.572584 -3.458481 59.605843 15 13 10
20.571959 -3.329890 59.604031 15 13 10
20.571278 -3.201297 59.602055 15 13 10
20.570427 -3.072688 59.599594 15 13 10
20.569321 -2.944053 59.596382 14 13 10
20.567883 -2.815387 59.592220 14 13 10
20.566072 -2.686690 59.586975 14 13 10
20.563873 -2.557966 59.580601 14 13 9
20.561293 -2.429226 59.573128 13 12 8
20.558369 -2.300479 59.564655 13 12 8
20.555164 -2.171739 59.555370 13 12 8
20.551762 -2.043020 59.545509 12 11 8
20.548262 -1.914334 59.535370 12 10 8
20.544788 -1.785694 59.525307 12 11 9
20.541468 -1.657109 59.515686 13 11 11
20.538439 -1.528588 59.506908 13 11 12
20.535841 -1.400134 59.499382 13 11 12
20.533815 -1.271748 59.493519 13 10 11
20.532499 -1.143427 59.489700 12 10 11
20.532019 -1.015163 59.488312 13 10 10
20.532495 -0.886947 59.489689 13 10 10
20.534037 -0.758764 59.494156 13 10 10
20.536741 -0.630598 59.501991 13 11 10
20.540693 -0.502428 59.513443 13 11 10
20.545965 -0.374234 59.528721 13 11 10
20.552622 -0.245989 59.548000 13 10 10
20.560705 -0.117670 59.571426 12 10 10
20.570263 0.010751 59.599113 13 11 10
20.581316 0.139301 59.631142 13 10 10
20.593891 0.268009 59.667576 12 11 10
20.607996 0.396904 59.708439 13 11 10
20.623634 0.526014 59.753750 13 12 10
20.640802 0.655369 59.803493 14 12 10
20.659483 0.784994 59.857616 14 12 10
20.679655 0.914920 59.916061 14 12 10
20.701281 1.045171 59.978722 13 13 11
20.724319 1.175771 60.045471 13 12 10
20.748713 1.306746 60.116146 12 12 10
20.774393 1.438113 60.190548 12 11 11
20.801275 1.569893 60.268436 11 11 11
20.829264 1.702098 60.349533 11 11 11
20.858253 1.834742 60.433525 11 10 10
20.888121 1.967830 60.520058 12 10 9
20.918732 2.101365 60.608749 12 10 9
20.949944 2.235348 60.699181 12 10 10
20.981607 2.369771 60.790924 12 10 10
21.013567 2.504625 60.883518 12 10 10
21.045662 2.639895 60.976513 12 9 9
21.077740 2.775564 61.069454 12 9 9
21.109648 2.911610 61.161896 12 10 9
21.141239 3.048010 61.253433 12 10 9
21.172386 3.184736 61.343674 12 9 9
21.202971 3.321764 61.432285 11 10 9
21.232891 3.459066 61.518978 11 10 9
21.262074 3.596616 61.603527 11 11 10
21.290457 3.734391 61.685764 11 11 11
21.318005 3.872369 61.765583 11 11 11
21.344706 4.010532 61.842941 12 11 11
21.370565 4.148865 61.917866 11 11 11
21.395605 4.287356 61.990417 12 11 11
21.419868 4.426000 62.060711 12 11 10
21.443405 4.564793 62.128910 12 10 10
21.466278 4.703734 62.195183 13 10 10
21.488554 4.842826 62.259720 13 10 10
21.510300 4.982073 62.322723 13 10 11
20.872683 -8.798917 60.099964 16 13 13
20.881144 -8.672875 60.124325 16 14 14
20.888851 -8.546421 60.146515 17 14 14
20.895741 -8.419541 60.166355 17 14 14
20.901751 -8.292228 60.183662 17 14 13
20.906824 -8.164474 60.198269 17 14 13
20.910906 -8.036275 60.210022 17 14 13
20.913944 -7.907631 60.218769 17 14 13
20.915895 -7.778546 60.224392 17 14 12
20.916725 -7.649026 60.226780 17 14 11
20.916403 -7.519081 60.225853 16 13 10
20.914911 -7.388728 60.221558 15 13 10
20.912245 -7.257985 60.213879 15 13 10
20.908411 -7.126877 60.202839 15 13 10
20.903431 -6.995434 60.188503 15 13 10
20.897350 -6.863690 60.170990 15 13 10
20.890223 -6.731685 60.150471 16 13 11
20.882128 -6.599463 60.127159 16 14 11
20.873158 -6.467070 60.101334 17 15 12
20.863432 -6.334558 60.073326 16 15 13
20.853077 -6.201981 60.043510 16 15 13
20.842241 -6.069391 60.012310 15 15 13
20.831079 -5.936844 59.980175 15 15 13
20.819761 -5.804392 59.947582 15 15 13
20.808455 -5.672083 59.915028 15 15 12
20.797327 -5.539962 59.882992 15 15 12
20.786549 -5.408071 59.851952 15 15 12
20.776266 -5.276439 59.822346 15 14 12
20.766621 -5.145092 59.794575 14 13 12
20.757732 -5.014048 59.768978 14 13 11
20.749691 -4.883314 59.745827 13 13 11
20.742569 -4.752890 59.725319 13 13 11
20.736404 -4.622768 59.707573 13 12 10
20.731207 -4.492932 59.692604 13 12 9
20.726954 -4.363359 59.680359 13 13 10
20.723597 -4.234023 59.670689 14 13 9
20.721060 -4.104890 59.663387 14 13 10
20.719244 -3.975928 59.658157 14 13 10
20.718031 -3.847100 59.654667 14 13 11
20.717293 -3.718372 59.652542 15 12 11
20.716890 -3.589711 59.651379 15 12 11
20.716681 -3.461088 59.650780 15 13 11
20.716530 -3.332477 59.650345 15 13 10
20.716309 -3.203857 59.649708 14 13 10
20.715906 -3.075212 59.648548 14 13 10
20.715229 -2.946534 59.646599 14 13 10
20.714207 -2.817817 59.643654 14 13 10
20.712793 -2.689062 59.639587 14 13 10
20.710974 -2.560274 59.634346 14 13 9
20.708757 -2.431462 59.627960 14 12 8
20.706182 -2.302638 59.620548 13 12 8
20.703306 -2.173814 59.612270 12 11 7
20.700220 -2.045005 59.603378 12 11 8
20.697023 -1.916225 59.594177 12 11 8
20.693838 -1.787485 59.585007 12 11 9
20.690796 -1.658795 59.576244 13 12 10
20.688032 -1.530165 59.568291 13 12 12
20.685692 -1.401597 59.561550 13 11 12
20.683912 -1.273093 59.556427 13 11 11
20.682833 -1.144649 59.553318 12 10 10
20.682579 -1.016260 59.552589 12 9 9
20.683275 -0.887915 59.554588 12 9 7
20.685026 -0.759599 59.559635 12 10 8
20.687935 -0.631298 59.568008 13 10 9
20.692083 -0.502990 59.579952 13 10 10
20.697544 -0.374654 59.595676 13 10 10
20.704378 -0.246268 59.615353 12 10 10
20.712635 -0.117804 59.639130 12 10 9
20.722355 0.010763 59.667114 12 10 9
20.733566 0.139461 59.699398 12 10 9
20.746290 0.268317 59.736034 12 10 10
20.760536 0.397360 59.777054 13 11 10
20.776308 0.526619 59.822468 13 11 10
20.793602 0.656122 59.872261 13 11 10
20.812401 0.785896 59.926392 13 12 10
20.832682 0.915969 59.984787 13 12 10
20.854412 1.046366 60.047356 13 12 10
20.877542 1.177113 60.113960 12 12 10
20.902021 1.308230 60.184444 12 12 11
20.927778 1.439739 60.258606 12 12 11
20.954727 1.571658 60.336201 12 11 11
20.982775 1.704000 60.416962 12 10 10
21.011812 1.836777 60.500565 11 10 10
21.041714 1.969995 60.586666 12 10 9
21.072351 2.103658 60.674881 12 10 9
21.103577 2.237764 60.764793 12 10 10
21.135244 2.372307 60.855972 12 10 10
21.167196 2.507277 60.947971 12 10 10
21.199272 2.642658 61.040333 12 9 9
21.231318 2.778435 61.132603 11 9 8
21.263184 2.914584 61.224354 11 9 8
21.294724 3.051082 61.315170 11 9 8
21.325809 3.187903 61.404678 11 9 8
21.356323 3.325022 61.492538 11 9 8
21.386169 3.462411 61.578476 10 10 8
21.415268 3.600045 61.662262 10 10 9
21.443565 3.737901 61.743740 10 10 10
21.471025 3.875957 61.822811 11 11 10
21.497637 4.014195 61.899433 11 11 10
21.523407 4.152601 61.973633 11 10 10
21.548365 4.291166 62.045498 11 10 10
21.572550 4.429881 62.115131 12 10 10
21.596016 4.568745 62.182701 12 10 10
21.618830 4.707758 62.248390 12 10 10
21.024256 -8.548759 60.162968 16 13 13
21.031404 -8.421931 60.183426 17 14 13
21.037628 -8.294649 60.201237 16 13 13
21.042866 -8.166909 60.216225 16 14 13
21.047073 -8.038710 60.228264 16 14 13
21.050200 -7.910053 60.237209 16 14 12
21.052208 -7.780944 60.242958 16 14 12
21.053066 -7.651392 60.245415 16 14 11
21.052752 -7.521411 60.244514 16 13 10
21.051252 -7.391018 60.240223 15 13 10
21.048569 -7.260235 60.232544 15 13 10
21.044714 -7.129088 60.221516 15 13 10
21.039719 -6.997609 60.207218 15 13 10
21.033627 -6.865834 60.189785 15 13 10
21.026503 -6.733803 60.169399 16 13 11
21.018427 -6.601562 60.146290 16 14 12
21.009501 -6.469159 60.120747 16 14 12
20.999842 -6.336644 60.093105 16 15 12
20.989584 -6.204072 60.063751 16 15 13
20.978874 -6.071495 60.033108 15 15 13
20.967875 -5.938968 60.001633 15 16 13
20.956751 -5.806543 59.969799 15 16 12
20.945675 -5.674267 59.938103 15 16 12
20.934813 -5.542186 59.907021 15 16 12
20.924332 -5.410336 59.877026 14 15 11
20.914381 -5.278750 59.848553 14 14 11
20.905100 -5.147451 59.821995 13 13 11
20.896601 -5.016455 59.797672 13 12 10
20.888979 -4.885769 59.775864 12 12 10
20.882299 -4.755391 59.756744 12 12 10
20.876595 -4.625312 59.740425 12 12 9
20.871874 -4.495514 59.726913 12 12 9
20.868109 -4.365976 59.716141 13 13 10
20.865250 -4.236668 59.707962 14 13 10
20.863218 -4.107557 59.702145 14 13 10
20.861910 -3.978610 59.698402 15 13 11
20.861204 -3.849790 59.696384 15 13 12
20.860970 -3.721063 59.695709 15 13 12
20.861061 -3.592395 59.695972 16 13 12
20.861340 -3.463757 59.696770 15 12 11
20.861666 -3.335123 59.697701 14 12 10
20.861908 -3.206472 59.698395 14 12 10
20.861954 -3.077789 59.698524 14 12 10
20.861710 -2.949065 59.697830 14 13 10
20.861107 -2.820295 59.696102 15 13 10
20.860096 -2.691480 59.693211 15 13 9
20.858662 -2.562625 59.689106 15 13 9
20.856813 -2.433740 59.683819 14 12 9
20.854591 -2.304836 59.677460 13 12 8
20.852053 -2.175927 59.670197 13 11 7
20.849289 -2.047026 59.662285 12 11 7
20.846399 -1.918149 59.654015 12 11 8
20.843508 -1.789306 59.645741 12 11 9
20.840744 -1.660510 59.637833 13 12 11
20.838245 -1.531767 59.630680 13 12 12
20.836157 -1.403083 59.624706 13 11 12
20.834616 -1.274458 59.620300 13 11 12
20.833763 -1.145890 59.617859 12 10 10
20.833727 -1.017372 59.617752 12 9 8
20.834625 -0.888895 59.620323 12 9 7
20.836571 -0.760444 59.625889 13 9 8
20.839657 -0.632005 59.634724 13 10 9
20.843975 -0.503557 59.647079 13 10 9
20.849592 -0.375079 59.663151 13 10 10
20.856573 -0.246548 59.683128 12 10 9
20.864965 -0.117938 59.707146 12 11 9
20.874813 0.010775 59.735325 12 10 9
20.886139 0.139620 59.767738 12 10 9
20.898968 0.268624 59.804447 12 10 9
20.913311 0.397815 59.845490 13 11 10
20.929171 0.527222 59.890877 13 11 10
20.946543 0.656871 59.940590 13 11 10
20.965414 0.786791 59.994587 13 12 10
20.985756 0.917008 60.052799 13 12 10
21.007538 1.047547 60.115131 13 12 10
21.030716 1.178434 60.181458 12 12 10
21.055231 1.309690 60.251606 12 12 11
21.081013 1.441335 60.325386 12 12 11
21.107981 1.573386 60.402557 12 11 11
21.136038 1.705858 60.482841 12 10 10
21.165071 1.838761 60.565929 12 10 10
21.194963 1.972102 60.651470 12 10 10
21.225580 2.105884 60.739079 12 10 10
21.256775 2.240104 60.828342 12 10 10
21.288399 2.374758 60.918842 12 10 10
21.320295 2.509833 61.010117 12 10 9
21.352308 2.645316 61.101727 11 10 8
21.384281 2.781189 61.193214 11 9 8
21.416061 2.917431 61.284161 10 9 7
21.447510 3.054017 61.374153 10 9 7
21.478493 3.190922 61.462814 10 8 7
21.508900 3.328120 61.549824 10 9 7
21.538631 3.465584 61.634907 10 9 8
21.567614 3.603290 61.717842 11 10 9
21.595789 3.741214 61.798470 11 10 10
21.623127 3.879336 61.876701 11 10 10
21.649618 4.017637 61.952503 12 10 9
21.675270 4.156105 62.025913 12 10 9
21.700115 4.294728 62.097008 12 10 9
21.724192 4.433502 62.165905 11 10 10
21.173595 -8.297077 60.218853 16 13 12
21.179022 -8.169358 60.234283 15 14 12
21.183372 -8.041164 60.246655 16 14 12
21.186604 -7.912500 60.255852 16 14 12
21.188688 -7.783375 60.261776 15 14 12
21.189594 -7.653798 60.264351 15 14 11
21.189306 -7.523786 60.263535 15 13 10
21.187820 -7.393359 60.259304 15 13 10
21.185139 -7.262541 60.251682 15 13 10
21.181284 -7.131361 60.240715 15 13 10
21.176287 -6.999851 60.226509 15 13 10
21.170204 -6.868049 60.209206 15 13 10
21.163101 -6.735998 60.189003 16 13 11
21.155064 -6.603742 60.166145 16 13 12
21.146196 -6.471330 60.140926 16 14 12
21.136621 -6.338815 60.113697 16 15 12
21.126476 -6.206250 60.084839 15 15 13
21.115911 -6.073688 60.054794 15 15 13
21.105085 -5.941183 60.024006 15 16 13
21.094170 -5.808785 59.992962 15 16 13
21.083336 -5.676544 59.962151 15 16 12
21.072750 -5.544500 59.932045 15 16 12
21.062578 -5.412693 59.903111 14 15 12
21.052969 -5.281152 59.875782 13 14 11
21.044054 -5.149898 59.850430 12 14 10
21.035955 -5.018949 59.827393 12 13 9
21.028755 -4.888307 59.806915 11 13 9
21.022516 -4.757971 59.789173 12 12 9
21.017275 -4.627932 59.774265 12 13 8
21.013029 -4.498170 59.762192 12 13 9
21.009754 -4.368662 59.752880 13 13 10
21.007395 -4.239378 59.746166 14 13 10
21.005863 -4.110286 59.741814 14 13 11
21.005060 -3.981351 59.739529 15 13 12
21.004858 -3.852535 59.738953 15 13 12
21.005123 -3.723805 59.739704 15 13 12
21.005709 -3.595127 59.741371 15 13 12
21.006472 -3.466471 59.743542 15 12 11
21.007271 -3.337811 59.745811 14 12 10
21.007977 -3.209126 59.747822 14 12 10
21.008471 -3.080403 59.749229 14 12 10
21.008663 -2.951631 59.749775 14 13 10
21.008478 -2.822806 59.749252 15 13 10
21.007872 -2.693929 59.747528 15 13 10
21.006828 -2.565006 59.744556 15 12 10
21.005354 -2.436046 59.740364 14 12 9
21.003489 -2.307060 59.735058 13 12 9
21.001293 -2.178064 59.728817 13 11 8
20.998854 -2.049071 59.721874 13 11 8
20.996275 -1.920095 59.714542 12 11 8
20.993679 -1.791149 59.707157 12 11 9
20.991194 -1.662244 59.700089 13 12 11
20.988960 -1.533387 59.693737 13 12 12
20.987120 -1.404584 59.688503 13 12 12
20.985815 -1.275837 59.684795 13 11 12
20.985180 -1.147142 59.682991 12 10 10
20.985348 -1.018494 59.683464 12 9 8
20.986433 -0.889882 59.686554 12 8 7
20.988552 -0.761295 59.692581 12 9 8
20.991800 -0.632716 59.701817 11 9 8
20.996260 -0.504126 59.714500 11 9 9
21.002008 -0.375504 59.730846 12 10 8
21.009106 -0.246828 59.751030 11 10 8
21.017601 -0.118073 59.775196 11 10 8
21.027538 0.010788 59.803455 11 10 7
21.038942 0.139779 59.835892 11 10 8
21.051838 0.268930 59.872570 12 10 8
21.066236 0.398268 59.913521 12 10 10
21.082142 0.527819 59.958752 12 11 10
21.099550 0.657613 60.008263 12 11 9
21.118446 0.787675 60.062004 12 11 9
21.138807 0.918033 60.119911 12 12 9
21.160599 1.048711 60.181889 12 12 10
21.183777 1.179734 60.247807 12 12 10
21.208284 1.311123 60.317509 12 12 11
21.234049 1.442898 60.390785 12 12 11
21.260992 1.575076 60.467411 12 11 11
21.289013 1.707671 60.547104 12 11 10
21.318005 1.840693 60.629562 12 11 10
21.347843 1.974149 60.714424 12 11 10
21.378395 2.108042 60.801315 12 11 11
21.409517 2.242369 60.889828 13 11 11
21.441059 2.377124 60.979530 12 11 11
21.472862 2.512296 61.069981 12 11 9
21.504772 2.647871 61.160736 11 10 8
21.536633 2.783831 61.251350 10 10 7
21.568293 2.920155 61.341393 10 9 7
21.599611 3.056819 61.430466 10 9 7
21.630459 3.193797 61.518196 11 9 7
21.660723 3.331064 61.604271 11 9 7
21.690308 3.468593 61.688412 11 9 8
21.719139 3.606359 61.770409 11 9 9
21.747164 3.744341 61.850109 11 9 9
21.774351 3.882516 61.927429 12 10 10
21.800690 4.020869 62.002342 12 11 10
21.826195 4.159385 62.074879 12 10 9
21.323145 -7.914968 60.274647 16 15 12
21.325327 -7.785833 60.280811 15 14 12
21.326303 -7.656239 60.283573 15 14 11
21.326065 -7.526204 60.282902 16 14 11
21.324610 -7.395750 60.278790 15 13 11
21.321955 -7.264904 60.271278 15 13 10
21.318119 -7.133696 60.260437 15 13 10
21.313145 -7.002160 60.246376 15 13 10
21.307087 -6.870337 60.229256 15 13 10
21.300024 -6.738268 60.209290 15 13 11
21.292044 -6.606001 60.186729 16 13 11
21.283253 -6.473585 60.161880 16 13 12
21.273779 -6.341072 60.135098 15 14 12
21.263762 -6.208516 60.106785 15 15 12
21.253351 -6.075971 60.077362 15 15 12
21.242714 -5.943488 60.047291 16 15 13
21.232019 -5.811119 60.017059 16 16 13
21.221436 -5.678910 59.987144 16 16 12
21.211134 -5.546904 59.958023 15 16 12
21.201275 -5.415136 59.930153 15 15 12
21.192011 -5.283638 59.903965 14 15 11
21.183470 -5.152427 59.879822 13 14 10
21.175766 -5.021520 59.858047 12 13 9
21.168987 -4.890920 59.838882 12 13 8
21.163189 -4.760623 59.822495 12 12 8
21.158405 -4.630619 59.808971 12 13 8
21.154633 -4.500888 59.798309 12 13 9
21.151842 -4.371407 59.790421 13 13 10
21.149971 -4.242143 59.785130 13 13 10
21.148935 -4.113065 59.782204 14 13 11
21.148628 -3.984137 59.781338 14 13 11
21.148922 -3.855322 59.782166 15 13 12
21.149677 -3.726585 59.784302 15 13 12
21.150749 -3.597893 59.787334 15 13 12
21.151993 -3.469215 59.790844 15 12 11
21.153261 -3.340527 59.794430 15 12 11
21.154425 -3.211807 59.797718 14 13 11
21.155365 -3.083040 59.800381 14 13 11
21.155991 -2.954218 59.802147 14 13 11
21.156227 -2.825336 59.802814 15 12 11
21.156027 -2.696396 59.802246 15 12 10
21.155373 -2.567403 59.800396 15 12 10
21.154274 -2.438367 59.797291 14 11 10
21.152767 -2.309300 59.793037 14 11 10
21.150917 -2.180215 59.787807 14 11 9
21.148808 -2.051128 59.781841 13 11 9
21.146542 -1.922053 59.775436 13 12 9
21.144241 -1.793002 59.768932 13 12 9
21.142036 -1.663987 59.762703 13 12 10
21.140066 -1.535016 59.757133 13 12 12
21.138474 -1.406093 59.752632 13 12 12
21.137396 -1.277222 59.749584 13 11 12
21.136972 -1.148399 59.748390 13 11 10
21.137333 -1.019619 59.749405 12 9 8
21.138594 -0.890872 59.752972 12 8 7
21.140871 -0.762147 59.759407 11 9 7
21.144257 -0.633428 59.768978 11 9 8
21.148840 -0.504695 59.781933 11 9 8
21.154694 -0.375929 59.798477 11 9 8
21.161879 -0.247108 59.818790 11 9 7
21.170448 -0.118207 59.843014 10 9 7
21.180443 0.010800 59.871265 10 9 7
21.191891 0.139938 59.903629 11 9 7
21.204819 0.269234 59.940166 11 9 8
21.219236 0.398716 59.980923 11 10 9
21.235149 0.528410 60.025906 11 10 9
21.252556 0.658345 60.075108 11 10 8
21.271439 0.788547 60.128487 11 11 8
21.291779 0.919041 60.185982 12 11 8
21.313540 1.049854 60.247494 12 12 9
21.336679 1.181008 60.312904 12 12 10
21.361141 1.312525 60.382050 12 12 10
21.386850 1.444425 60.454727 12 12 11
21.413729 1.576724 60.530704 11 11 10
21.441679 1.709436 60.609707 11 11 10
21.470589 1.842571 60.691429 11 11 10
21.500338 1.976136 60.775520 12 11 10
21.530790 2.110132 60.861599 12 11 11
21.561804 2.244558 60.949268 12 11 11
21.593225 2.379406 61.038086 13 12 11
21.624901 2.514667 61.127628 12 11 9
21.656675 2.650326 61.217445 11 11 8
21.688391 2.786365 61.307095 11 10 7
21.719898 2.922762 61.396156 10 10 6
21.751057 3.059494 61.484234 11 9 7
21.781738 3.196536 61.570961 11 10 8
21.811829 3.333862 61.656021 12 10 8
21.841238 3.471446 61.739151 11 10 8
21.869890 3.609263 61.820141 11 9 9
21.897732 3.747291 61.898846 12 10 9
21.463182 -7.658711 60.303040 15 14 12
21.463018 -7.528660 60.302578 15 13 11
21.461622 -7.398187 60.298653 15 13 11
21.459013 -7.267320 60.291321 14 13 11
21.455219 -7.136090 60.280666 14 12 10
21.450289 -7.004535 60.266811 14 12 10
21.444283 -6.872695 60.249935 14 12 10
21.437279 -6.740614 60.230259 15 12 10
21.429373 -6.608340 60.208046 15 12 11
21.420677 -6.475923 60.183613 15 13 11
21.411318 -6.343415 60.157322 15 14 11
21.401443 -6.210870 60.129574 15 15 12
21.391203 -6.078341 60.100807 15 15 12
21.380764 -5.945881 60.071476 16 15 13
21.370296 -5.813540 60.042065 17 16 13
21.359970 -5.681363 60.013054 16 16 13
21.349957 -5.549392 59.984921 16 16 13
21.340416 -5.417663 59.958115 15 15 12
21.331493 -5.286202 59.933044 14 15 11
21.323324 -5.155032 59.910091 14 14 10
21.316015 -5.024163 59.889557 13 13 9
21.309650 -4.893600 59.871674 13 13 8
21.304287 -4.763338 59.856606 12 13 7
21.299952 -4.633364 59.844425 12 12 8
21.296642 -4.503660 59.835129 12 12 9
21.294323 -4.374199 59.828613 12 12 10
21.292933 -4.244951 59.824699 13 12 10
21.292381 -4.115882 59.823151 13 12 10
21.292557 -3.986957 59.823650 14 12 11
