ply
format ascii 1.0
element vertex 1192
property float x
property float y
property float z
property uchar red
property uchar green
property uchar blue
end_header
-12.517383 -0.628661 59.319225 153 88 74
-12.518986 -0.500853 59.326828 155 91 75
-12.519855 -0.372990 59.330948 157 94 76
-12.520107 -0.245098 59.332142 157 94 75
-12.519877 -0.117195 59.331051 157 95 75
-12.519307 0.010702 59.328346 158 95 76
-12.518542 0.138585 59.324726 158 95 77
-12.517725 0.266452 59.320850 158 95 77
-12.516978 0.394304 59.317314 159 95 79
-12.516408 0.522149 59.314610 160 94 79
-12.516094 0.649995 59.313122 158 92 78
-12.516088 0.777853 59.313091 157 90 76
-12.516409 0.905736 59.314617 156 89 75
-12.517044 1.033650 59.317623 155 88 73
-12.517951 1.161603 59.321922 154 88 73
-12.519061 1.289596 59.327183 154 86 71
-12.520280 1.417623 59.332958 154 85 71
-12.521501 1.545676 59.338741 165 93 79
-12.522603 1.673737 59.343967 172 97 86
-12.523467 1.801787 59.348061 163 86 77
-12.523978 1.929801 59.350483 152 74 67
-12.524036 2.057750 59.350758 149 71 66
-12.523561 2.185607 59.348511 143 68 64
-12.522502 2.313347 59.343487 136 65 62
-12.520840 2.440947 59.335609 128 62 59
-12.518588 2.568393 59.324944 112 54 51
-12.515804 2.695678 59.311749 97 46 42
-12.512573 2.822805 59.296436 92 50 45
-12.509019 2.949790 59.279594 86 51 46
-12.505293 3.076660 59.261936 71 43 39
-12.501570 3.203455 59.244293 58 34 31
-12.498036 3.330224 59.227551 53 31 30
-12.494890 3.457028 59.212635 51 31 30
-12.492325 3.583935 59.200481 50 31 30
-12.490526 3.711017 59.191956 48 31 30
-12.489659 3.838348 59.187847 47 30 30
-12.489865 3.966002 59.188824 46 28 29
-12.491255 4.094049 59.195412 45 28 28
-12.493906 4.222551 59.207977 44 28 28
-12.497860 4.351560 59.226711 44 28 28
-12.503119 4.481118 59.251637 45 29 29
-12.509653 4.611253 59.282600 44 29 29
-12.517396 4.741979 59.319290 44 28 28
-12.526258 4.873299 59.361286 43 28 28
-12.536123 5.005201 59.408039 43 27 27
-12.546863 5.137662 59.458935 44 27 27
-12.558337 5.270652 59.513313 44 26 27
-12.570404 5.404130 59.570496 45 26 27
-12.582927 5.538055 59.629837 45 26 27
-12.595773 5.672382 59.690716 46 27 28
-12.608833 5.807070 59.752609 47 29 30
-12.622013 5.942081 59.815063 48 31 31
-12.635237 6.077383 59.877731 47 31 30
-12.648458 6.212953 59.940384 45 29 28
-12.661650 6.348780 60.002903 43 28 27
-12.674813 6.484860 60.065285 42 27 26
-12.687966 6.621205 60.127617 42 26 26
-12.701152 6.757835 60.190098 41 26 25
-12.714422 6.894781 60.252987 41 25 24
-12.727849 7.032084 60.316616 40 25 23
-12.741508 7.169792 60.381344 41 25 23
-12.755481 7.307960 60.447563 41 25 24
-12.769850 7.446644 60.515656 41 26 25
-12.784695 7.585904 60.586006 42 26 26
-12.800088 7.725797 60.658955 42 27 27
-12.816092 7.866381 60.734798 42 27 27
-12.832761 8.007706 60.813789 42 27 27
-12.850131 8.149817 60.896107 41 27 26
-12.868231 8.292752 60.981880 41 27 25
-12.887071 8.436543 61.071163 40 26 23
-12.906650 8.581208 61.163940 39 25 22
-12.926951 8.726762 61.260151 39 25 22
-12.947950 8.873209 61.359669 39 25 23
-12.969611 9.020546 61.462318 38 25 23
-12.991890 9.168760 61.567894 38 25 24
-13.014734 9.317835 61.676151 38 25 24
-13.038087 9.467746 61.786819 38 25 24
-13.061889 9.618464 61.899612 37 25 23
-13.086075 9.769957 62.014229 36 25 23
-13.110577 9.922182 62.130344 36 25 23
-13.135326 10.075097 62.247631 36 25 24
-13.160252 10.228655 62.365753 35 24 23
-13.185275 10.382799 62.484337 35 23 22
-13.210318 10.537470 62.603008 34 22 21
-13.235293 10.692598 62.721367 34 22 21
-13.260114 10.848110 62.838993 33 22 21
-13.284683 11.003922 62.955429 32 21 20
-13.308902 11.159940 63.070198 32 21 21
-13.332663 11.316065 63.182800 32 22 22
-13.355857 11.472189 63.292717 32 22 23
-13.378375 11.628199 63.399426 32 23 23
-13.400104 11.783975 63.502396 32 24 23
-13.420934 11.939395 63.601112 33 24 23
-13.440763 12.094341 63.695084 33 24 22
-13.459498 12.248695 63.783867 32 24 22
-13.477057 12.402350 63.867077 32 23 21
-13.493373 12.555208 63.944397 32 23 20
-13.508399 12.707186 64.015602 31 23 20
-13.522108 12.858217 64.080566 31 23 20
-13.534498 13.008263 64.139290 31 23 21
-13.545591 13.157300 64.191856 30 23 21
-13.555433 13.305336 64.238495 30 23 22
-13.564096 13.452404 64.279549 30 23 22
-13.571674 13.598562 64.315460 30 23 22
-13.578286 13.743897 64.346794 30 23 22
-13.584068 13.888519 64.374199 30 22 22
-13.589173 14.032559 64.398384 31 22 22
-13.593765 14.176170 64.420151 32 22 22
-13.598022 14.319520 64.440323 33 22 23
-13.602120 14.462790 64.459747 34 22 23
-13.606241 14.606167 64.479271 34 22 23
-13.610559 14.749842 64.499733 34 22 23
-13.615241 14.894003 64.521919 34 23 22
-13.620443 15.038835 64.546577 33 23 21
-13.626307 15.184508 64.574356 32 24 20
-13.632951 15.331182 64.605850 31 24 20
-13.640480 15.478994 64.641533 31 23 20
-13.648970 15.628060 64.681763 31 23 21
-13.658475 15.778473 64.726807 31 22 21
-13.669021 15.930292 64.776779 30 22 21
-13.680610 16.083553 64.831696 30 22 21
-13.693215 16.238258 64.891441 31 22 20
-13.706790 16.394379 64.955765 31 23 21
-13.721260 16.551857 65.024345 32 23 21
-13.736532 16.710606 65.096718 33 23 21
-13.752497 16.870516 65.172371 34 23 22
-13.769027 17.031452 65.250702 34 23 22
-13.785990 17.193266 65.331093 33 22 21
-13.803245 17.355793 65.412857 33 22 20
-13.820653 17.518867 65.495354 33 22 19
-13.838079 17.682322 65.577942 33 22 19
-13.855397 17.845991 65.660011 33 23 20
-13.872493 18.009726 65.741020 34 23 20
-13.889269 18.173393 65.820526 33 23 20
-13.905650 18.336880 65.898155 32 22 20
-13.921577 18.500099 65.973633 31 23 19
-13.937016 18.662991 66.046799 31 23 19
-13.951950 18.825516 66.117569 30 22 20
-13.966386 18.987669 66.185974 29 22 20
-13.980343 19.149462 66.252121 28 22 20
-13.993860 19.310932 66.316177 28 22 21
-14.006982 19.472130 66.378365 28 22 21
-14.019764 19.633118 66.438934 29 23 22
-14.032263 19.793970 66.498169 29 23 22
-14.044536 19.954754 66.556328 30 23 22
-14.056636 20.115543 66.613670 31 23 23
-14.068613 20.276402 66.670425 31 23 23
-14.080507 20.437384 66.726791 31 22 23
-14.092349 20.598534 66.782913 31 22 23
-14.104165 20.759888 66.838905 31 22 23
-14.115967 20.921461 66.894836 31 22 23
-14.127760 21.083263 66.950722 31 22 22
-14.139541 21.245289 67.006554 29 21 21
-14.151302 21.407524 67.062294 28 21 21
-14.163030 21.569948 67.117867 28 22 20
-14.174706 21.732533 67.173195 28 22 20
-14.186311 21.895247 67.228195 28 22 19
-14.197824 22.058054 67.282753 27 22 19
-14.209222 22.220919 67.336769 27 21 18
-14.220488 22.383808 67.390152 26 21 17
-14.231604 22.546688 67.442833 27 20 16
-14.242552 22.709530 67.494713 27 19 16
-14.253317 22.872299 67.545731 27 20 17
-14.263882 23.034967 67.595795 27 20 17
-14.274233 23.197502 67.644852 26 20 17
-14.284354 23.359873 67.692810 26 20 18
-14.294225 23.522039 67.739594 25 20 18
-14.303822 23.683954 67.785072 25 20 18
-14.313117 23.845562 67.829124 24 20 18
-14.322077 24.006796 67.871582 23 20 18
-14.330656 24.167574 67.912239 23 20 18
-14.338804 24.327793 67.950851 22 19 17
-14.346457 24.487335 67.987114 22 18 16
-14.353543 24.646061 68.020699 21 17 16
-14.359980 24.803806 68.051201 21 16 16
-14.365670 24.960390 68.078163 21 16 16
-14.370514 25.115608 68.101120 20 16 15
-14.374399 25.269241 68.119530 20 16 15
-14.377209 25.421053 68.132851 19 16 15
-14.378823 25.570795 68.140495 19 17 14
-14.379120 25.718214 68.141907 19 17 15
-14.377984 25.863062 68.136520 20 17 16
-14.375307 26.005098 68.123833 20 17 16
-14.370990 26.144096 68.103378 20 17 16
-12.193463 -7.792098 58.380581 163 86 67
-12.193856 -7.666496 58.382462 164 85 66
-12.194825 -7.541243 58.387104 165 85 67
-12.196341 -7.416301 58.394360 166 86 67
-12.198369 -7.291635 58.404068 166 87 67
-12.200875 -7.167208 58.416069 165 86 66
-12.203821 -7.042983 58.430176 163 86 64
-12.207164 -6.918921 58.446178 162 86 64
-12.210859 -6.794988 58.463875 160 86 64
-12.214856 -6.671142 58.483006 159 87 64
-12.219098 -6.547346 58.503315 160 88 65
-12.223526 -6.423559 58.524517 161 91 68
-12.228073 -6.299743 58.546291 163 93 71
-12.232668 -6.175857 58.568291 165 95 75
-12.237236 -6.051862 58.590160 167 95 77
-12.241694 -5.927720 58.611504 166 94 78
-12.245963 -5.803396 58.631943 166 93 77
-12.249959 -5.678858 58.651077 165 92 76
-12.253603 -5.554078 58.668522 164 91 76
-12.256820 -5.429033 58.683922 165 94 78
-12.259543 -5.303709 58.696968 170 100 83
-12.261724 -5.178098 58.707401 174 105 88
-12.263320 -5.052203 58.715046 176 108 90
-12.264312 -4.926031 58.719795 174 107 90
-12.264701 -4.799603 58.721657 173 107 91
-12.264514 -4.672948 58.720760 175 108 94
-12.263797 -4.546100 58.717331 175 108 96
-12.262624 -4.419103 58.711712 174 106 95
-12.261089 -4.292003 58.704365 172 103 94
-12.259309 -4.164851 58.695839 172 102 92
-12.257416 -4.037699 58.686775 173 100 90
-12.255554 -3.910596 58.677868 173 99 87
-12.253880 -3.783589 58.669846 172 97 84
-12.252545 -3.656719 58.663460 170 95 80
-12.251704 -3.530018 58.659431 168 92 77
-12.251496 -3.403510 58.658436 164 87 73
-12.252046 -3.277209 58.661064 159 82 69
-12.253453 -3.151118 58.667809 154 78 66
-12.255796 -3.025228 58.679024 150 75 64
-12.259117 -2.899521 58.694923 146 72 61
-12.263428 -2.773970 58.715561 145 71 60
-12.268702 -2.648537 58.740814 147 74 61
-12.274881 -2.523182 58.770401 150 78 65
-12.281873 -2.397858 58.803875 151 80 66
-12.289554 -2.272517 58.840652 152 81 67
-12.297773 -2.147112 58.880005 153 84 69
-12.306362 -2.021597 58.921127 154 86 71
-12.315134 -1.895933 58.963127 154 86 71
-12.323898 -1.770087 59.005085 154 87 72
-12.332463 -1.644034 59.046093 153 87 72
-12.340648 -1.517757 59.085278 153 86 74
-12.348285 -1.391250 59.121845 153 86 75
-12.355232 -1.264514 59.155109 153 86 77
-12.361376 -1.137561 59.184525 153 86 78
-12.366634 -1.010409 59.209702 153 86 78
-12.370964 -0.883082 59.230431 154 87 77
-12.374358 -0.755608 59.246681 155 87 76
-12.376844 -0.628018 59.258587 156 88 74
-12.378489 -0.500343 59.266464 157 91 74
-12.379386 -0.372612 59.270756 159 92 73
-12.379653 -0.244849 59.272030 159 92 73
-12.379426 -0.117077 59.270943 159 93 73
-12.378850 0.010691 59.268188 158 94 74
-12.378075 0.138445 59.264477 159 95 76
-12.377242 0.266181 59.260490 160 95 78
-12.376483 0.393902 59.256851 161 95 80
-12.375904 0.521616 59.254082 161 95 80
-12.375592 0.649331 59.252590 160 94 80
-12.375606 0.777061 59.252651 160 92 80
-12.375968 0.904816 59.254387 159 92 79
-12.376674 1.032607 59.257771 158 91 77
-12.377689 1.160442 59.262630 158 90 76
-12.378952 1.288324 59.268677 158 89 74
-12.380376 1.416250 59.275494 159 89 74
-12.381858 1.544213 59.282589 169 98 82
-12.383285 1.672199 59.289421 177 103 89
-12.384542 1.800190 59.295441 168 92 81
-12.385517 1.928163 59.300110 157 79 71
-12.386110 2.056092 59.302952 154 76 70
-12.386243 2.183953 59.303585 151 74 70
-12.385858 2.311719 59.301739 147 74 71
-12.384933 2.439372 59.297310 140 72 69
-12.383473 2.566894 59.290325 125 63 59
-12.381524 2.694280 59.280991 110 55 50
-12.379163 2.821532 59.269684 105 59 54
-12.376497 2.948662 59.256920 101 62 57
-12.373666 3.075696 59.243366 85 52 48
-12.370825 3.202669 59.229767 66 39 36
-12.368152 3.329629 59.216969 55 33 30
-12.365825 3.456630 59.205826 52 32 30
-12.364026 3.583737 59.197216 51 32 31
-12.362926 3.711016 59.191948 50 32 31
-12.362682 3.838538 59.190777 49 31 31
-12.363423 3.966372 59.194328 48 30 30
-12.365256 4.094581 59.203102 47 29 29
-12.368251 4.223226 59.217442 46 29 29
-12.372446 4.352355 59.237526 47 30 30
-12.377845 4.482006 59.263374 47 30 30
-12.384416 4.612205 59.294838 46 30 30
-12.392098 4.742964 59.331615 46 29 29
-12.400805 4.874286 59.373306 45 29 29
-12.410427 5.006156 59.419376 45 28 29
-12.420841 5.138553 59.469238 46 28 28
-12.431915 5.271444 59.522259 46 27 28
-12.443515 5.404792 59.577797 47 27 29
-12.455511 5.538556 59.635227 47 28 30
-12.467781 5.672692 59.693977 48 29 30
-12.480221 5.807160 59.753536 49 30 31
-12.492745 5.941926 59.813499 49 32 31
-12.505286 6.076958 59.873547 48 31 30
-12.517802 6.212237 59.933472 46 29 28
-12.530277 6.347753 59.993198 44 28 27
-12.542713 6.483506 60.052738 43 27 26
-12.555136 6.619509 60.112221 42 26 25
-12.567591 6.755786 60.171852 42 26 25
-12.580139 6.892372 60.231934 41 25 25
-12.592853 7.029308 60.292801 41 24 24
-12.605812 7.166646 60.354847 42 24 24
-12.619101 7.304443 60.418476 42 25 25
-12.632806 7.442760 60.484093 41 26 26
-12.647007 7.581656 60.552082 42 26 26
-12.661779 7.721194 60.622814 42 27 27
-12.677188 7.861432 60.696587 42 28 28
-12.693286 8.002422 60.773663 42 28 27
-12.710114 8.144213 60.854237 42 28 26
-12.727699 8.286843 60.938427 41 27 24
-12.746052 8.430345 61.026299 40 26 22
-12.765170 8.574739 61.117836 40 25 22
-12.785041 8.720041 61.212971 40 24 22
-12.805636 8.866256 61.311581 40 25 23
-12.826921 9.013379 61.413483 39 26 24
-12.848846 9.161400 61.518467 39 26 24
-12.871364 9.310300 61.626274 38 26 24
-12.894413 9.460055 61.736633 38 26 24
-12.917935 9.610639 61.849255 37 26 24
-12.941864 9.762014 61.963818 36 26 24
-12.966130 9.914142 62.080002 36 25 24
-12.990665 10.066978 62.197472 35 24 24
-13.015395 10.220475 62.315876 35 24 23
-13.040246 10.374578 62.434856 35 24 23
-13.065136 10.529225 62.554028 34 23 22
-13.089980 10.684349 62.672977 34 23 21
-13.114690 10.839874 62.791286 33 22 21
-13.139172 10.995719 62.908497 32 21 20
-13.163321 11.151789 63.024128 32 21 21
-13.187037 11.307983 63.137672 33 22 22
-13.210206 11.464193 63.248604 33 22 24
-13.232718 11.620306 63.356392 33 23 24
-13.254461 11.776198 63.460491 33 24 25
-13.275324 11.931748 63.560375 33 25 25
-13.295199 12.086833 63.655540 33 25 24
-13.313994 12.241333 63.745529 33 25 23
-13.331622 12.395137 63.829929 33 24 22
-13.348015 12.548143 63.908413 32 24 21
-13.363122 12.700266 63.980743 32 24 21
-13.376912 12.851435 64.046768 31 23 21
-13.389381 13.001606 64.106468 31 23 21
-13.400547 13.150756 64.159927 30 23 21
-13.410454 13.298887 64.207359 30 23 21
-13.419172 13.446033 64.249100 30 22 22
-13.426793 13.592247 64.285591 29 22 22
-13.433435 13.737617 64.317390 30 22 22
-13.439231 13.882251 64.345139 30 22 22
-13.444336 14.026283 64.369583 31 22 22
-13.448914 14.169866 64.391502 32 22 22
-13.453140 14.313169 64.411736 33 22 22
-13.457194 14.456373 64.431145 34 22 22
-13.461254 14.599669 64.450584 34 22 22
-13.465496 14.743246 64.470894 34 22 22
-13.470087 14.887299 64.492882 33 22 21
-13.475183 15.032009 64.517281 32 23 20
-13.480926 15.177550 64.544769 32 23 20
-13.487432 15.324080 64.575928 31 23 20
-13.494807 15.471740 64.611237 31 23 20
-13.503125 15.620642 64.651054 31 23 21
-13.512440 15.770879 64.695656 31 23 21
-13.522777 15.922513 64.745148 30 22 20
-13.534137 16.075575 64.799538 31 23 20
-13.546497 16.230070 64.858719 32 23 20
-13.559807 16.385967 64.922440 32 23 20
-13.573995 16.543209 64.990372 33 23 21
-13.588971 16.701714 65.062073 34 23 21
-13.604624 16.861364 65.137016 35 24 22
-13.620833 17.022036 65.214630 35 23 22
-13.637466 17.183575 65.294266 34 22 21
-13.654388 17.345823 65.375290 33 22 20
-13.671464 17.508619 65.457039 34 22 20
-13.688560 17.671793 65.538895 35 23 21
-13.705556 17.835190 65.620270 35 24 22
-13.722342 17.998663 65.700638 34 23 20
-13.738826 18.162083 65.779564 33 22 20
-13.754933 18.325340 65.856682 32 22 20
-13.770610 18.488352 65.931740 31 23 19
-13.785822 18.651060 66.004570 30 23 19
-13.800559 18.813433 66.075127 29 23 20
-13.814823 18.975462 66.143425 29 23 21
-13.828641 19.137165 66.209579 28 23 22
-13.842045 19.298580 66.273758 29 23 22
-13.855083 19.459755 66.336182 29 23 23
-13.867804 19.620752 66.397087 29 23 23
-13.880266 19.781643 66.456757 30 23 23
-13.892524 19.942497 66.515442 30 23 23
-13.904626 20.103378 66.573387 31 23 23
-13.916618 20.264351 66.630806 31 22 23
-13.928539 20.425467 66.687881 31 22 23
-13.940416 20.586763 66.744751 32 22 23
-13.952270 20.748268 66.801498 32 22 23
-13.964109 20.910000 66.858185 32 22 22
-13.975939 21.071959 66.914825 31 22 21
-13.987752 21.234138 66.971382 30 21 21
-13.999540 21.396523 67.027824 30 21 20
-14.011286 21.559084 67.084061 29 22 20
-14.022973 21.721798 67.140015 29 22 20
-14.034580 21.884628 67.195587 28 22 19
-14.046084 22.047537 67.250671 27 21 18
-14.057468 22.210495 67.305176 27 21 18
-14.068711 22.373461 67.359009 26 20 17
-14.079796 22.536406 67.412071 26 20 17
-14.090707 22.699301 67.464317 26 19 16
-14.101429 22.862114 67.515656 26 20 17
-14.111947 23.024817 67.566017 26 20 18
-14.122248 23.187380 67.615334 26 20 18
-14.132315 23.349768 67.663528 25 20 19
-14.142129 23.511944 67.710518 24 20 19
-14.151669 23.673862 67.756195 24 20 19
-14.160906 23.835470 67.800415 24 20 18
-14.169806 23.996698 67.843033 23 20 18
-14.178329 24.157465 67.883835 23 19 17
-14.186419 24.317669 67.922569 23 19 17
-14.194019 24.477194 67.958961 22 18 16
-14.201058 24.635902 67.992668 22 17 16
-14.207457 24.793636 68.023300 22 17 16
-14.213123 24.950220 68.050430 21 16 16
-14.217959 25.105453 68.073586 21 16 15
-14.221859 25.259123 68.092255 20 16 15
-14.224712 25.411005 68.105919 20 16 15
-14.226404 25.560856 68.114014 20 16 15
-14.226820 25.708439 68.116013 19 17 15
-14.225852 25.853516 68.111374 20 17 16
-14.223396 25.995852 68.099617 20 17 17
-14.219361 26.135235 68.080299 20 17 17
-12.055806 -7.910199 58.323456 167 92 72
-12.055674 -7.784388 58.322815 167 91 71
-12.056138 -7.658959 58.325062 168 90 71
-12.057170 -7.533875 58.330051 169 91 71
-12.058734 -7.409095 58.337620 171 92 72
-12.060793 -7.284583 58.347584 170 92 71
-12.063308 -7.160298 58.359749 169 92 70
-12.066236 -7.036202 58.373917 167 92 69
-12.069532 -6.912255 58.389862 165 92 69
-12.073148 -6.788419 58.407352 164 91 69
-12.077028 -6.664654 58.426125 163 92 69
-12.081117 -6.540920 58.445904 164 93 70
-12.085352 -6.417179 58.466393 165 96 73
-12.089667 -6.293392 58.487270 167 98 76
-12.093994 -6.169520 58.508202 169 100 79
-12.098257 -6.045527 58.528828 170 100 82
-12.102382 -5.921376 58.548779 170 99 83
-12.106290 -5.797036 58.567684 170 97 83
-12.109904 -5.672477 58.585171 168 95 81
-12.113153 -5.547675 58.600883 167 93 79
-12.115967 -5.422611 58.614502 166 93 79
-12.118292 -5.297274 58.625751 170 98 82
-12.120081 -5.171660 58.634403 175 105 88
-12.121303 -5.045772 58.640312 178 108 91
-12.121943 -4.919624 58.643417 176 107 90
-12.122012 -4.793235 58.643749 175 107 91
-12.121540 -4.666637 58.641460 176 108 94
-12.120577 -4.539865 58.636803 176 109 96
-12.119199 -4.412962 58.630138 175 107 97
-12.117503 -4.285976 58.621933 174 105 96
-12.115605 -4.158956 58.612751 173 103 94
-12.113638 -4.031951 58.603233 173 101 91
-12.111744 -3.905012 58.594070 173 100 89
-12.110073 -3.778182 58.585991 173 99 86
-12.108780 -3.651500 58.579731 172 98 83
-12.108009 -3.524997 58.576004 170 95 78
-12.107899 -3.398696 58.575470 166 91 74
-12.108569 -3.272608 58.578712 161 85 69
-12.110116 -3.146734 58.586197 156 80 66
-12.112613 -3.021065 58.598274 153 78 65
-12.116097 -2.895580 58.615135 149 76 63
-12.120580 -2.770250 58.636818 148 75 62
-12.126030 -2.645037 58.663181 149 77 64
-12.132386 -2.519899 58.693935 149 79 65
-12.139555 -2.394789 58.728615 149 80 65
-12.147409 -2.269658 58.766613 149 81 66
-12.155799 -2.144457 58.807201 151 83 67
-12.164551 -2.019141 58.849541 152 85 69
-12.173479 -1.893670 58.892735 153 86 71
-12.182391 -1.768010 58.935852 152 87 72
-12.191098 -1.642138 58.977970 152 87 73
-12.199414 -1.516034 59.018200 152 87 74
-12.207174 -1.389694 59.055744 152 87 75
-12.214233 -1.263120 59.089893 152 87 77
-12.220480 -1.136323 59.120113 154 88 79
-12.225830 -1.009322 59.145996 155 89 79
-12.230242 -0.882141 59.167339 157 90 79
-12.233706 -0.754810 59.184097 159 90 78
-12.236253 -0.627360 59.196419 160 90 76
-12.237946 -0.499821 59.204605 160 91 73
-12.238880 -0.372224 59.209129 161 91 72
-12.239174 -0.244595 59.210548 160 91 72
-12.238963 -0.116955 59.209534 160 91 71
-12.238396 0.010680 59.206787 160 92 72
-12.237623 0.138301 59.203049 160 93 74
-12.236787 0.265905 59.199005 161 95 77
-12.236023 0.393493 59.195309 163 96 80
-12.235442 0.521074 59.192501 163 96 81
-12.235136 0.648657 59.191017 162 95 81
-12.235168 0.776254 59.191166 162 94 82
-12.235566 0.903880 59.193096 162 94 82
-12.236335 1.031545 59.196819 162 94 80
-12.237447 1.159259 59.202198 162 93 79
-12.238847 1.287026 59.208969 162 93 78
-12.240457 1.414847 59.216755 163 94 78
-12.242181 1.542715 59.225098 169 98 83
-12.243912 1.670621 59.233475 174 101 87
-12.245542 1.798548 59.241356 169 94 84
-12.246961 1.926475 59.248222 162 86 78
-12.248072 2.054381 59.253597 160 83 77
-12.248796 2.182241 59.257099 159 83 78
-12.249074 2.310031 59.258446 156 83 80
-12.248878 2.437734 59.257496 149 80 76
-12.248208 2.565333 59.254257 134 71 66
-12.247100 2.692821 59.248894 122 64 59
-12.245617 2.820200 59.241722 118 68 62
-12.243856 2.947482 59.233204 115 72 66
-12.241940 3.074687 59.223934 100 64 59
-12.240011 3.201849 59.214603 79 49 44
-12.238229 3.329011 59.205978 60 35 33
-12.236758 3.456224 59.198864 53 32 30
-12.235765 3.583546 59.194061 52 33 32
-12.235409 3.711040 59.192337 51 33 33
-12.235832 3.838772 59.194382 51 33 32
-12.237155 3.966804 59.200783 49 32 31
-12.239476 4.095198 59.212013 48 31 31
-12.242860 4.224006 59.228382 48 31 30
-12.247342 4.353276 59.250069 48 31 30
-12.252923 4.483041 59.277069 48 31 30
-12.259574 4.613325 59.309242 48 31 30
-12.267234 4.744138 59.346302 48 31 30
-12.275823 4.875480 59.387852 48 30 30
-12.285235 5.007337 59.433388 47 30 30
-12.295355 5.139685 59.482342 48 29 29
-12.306056 5.272494 59.534115 48 29 29
-12.317215 5.405726 59.588097 49 28 30
-12.328708 5.539342 59.643696 49 28 30
-12.340422 5.673299 59.700363 49 29 31
-12.352261 5.807559 59.757641 50 30 31
-12.364146 5.942089 59.815140 50 31 31
-12.376019 6.076860 59.872578 49 31 30
-12.387846 6.211855 59.929794 47 30 29
-12.399613 6.347067 59.986725 45 29 28
-12.411333 6.482500 60.043423 44 28 27
-12.423036 6.618167 60.100033 44 27 26
-12.434770 6.754097 60.156803 44 26 26
-12.446602 6.890324 60.214043 43 26 26
-12.458608 7.026897 60.272125 43 25 25
-12.470872 7.163868 60.331455 43 24 26
-12.483481 7.301298 60.392460 43 25 26
-12.496525 7.439249 60.455559 43 26 27
-12.510085 7.577784 60.521160 42 27 27
-12.524239 7.716969 60.589634 42 28 28
-12.539053 7.856862 60.661301 42 28 28
-12.554582 7.997519 60.736427 42 28 28
-12.570868 8.138990 60.815212 43 28 27
-12.587936 8.281318 60.897793 42 27 25
-12.605801 8.424531 60.984215 41 26 23
-12.624459 8.568657 61.074482 41 25 23
-12.643897 8.713708 61.168514 41 25 23
-12.664085 8.859691 61.266186 41 25 23
-12.684989 9.006602 61.367310 40 26 24
-12.706560 9.154430 61.471668 40 27 25
-12.728746 9.303158 61.579002 39 27 25
-12.751490 9.452761 61.689026 39 27 25
-12.774726 9.603209 61.801437 38 26 25
-12.798390 9.754469 61.915924 37 26 25
-12.822412 9.906498 62.032139 36 25 25
-12.846725 10.059255 62.149750 36 25 24
-12.871251 10.212689 62.268410 36 24 24
-12.895917 10.366748 62.387737 35 24 23
-12.920641 10.521367 62.507347 35 24 22
-12.945340 10.676482 62.626835 34 23 22
-12.969925 10.832017 62.745770 33 22 21
-12.994300 10.987887 62.863693 32 22 20
-13.018366 11.144001 62.980118 32 21 21
-13.042016 11.300257 63.094536 33 22 22
-13.065142 11.456546 63.206409 34 23 24
-13.087630 11.612751 63.315205 34 24 25
-13.109367 11.768752 63.420364 34 24 25
-13.130240 11.924421 63.521343 34 25 25
-13.150146 12.079637 63.617638 34 26 24
-13.168982 12.234273 63.708763 34 26 23
-13.186662 12.388218 63.794296 33 25 22
-13.203115 12.541366 63.873894 32 24 22
-13.218287 12.693626 63.947296 31 24 21
-13.232145 12.844928 64.014336 31 24 21
-13.244682 12.995222 64.074989 31 23 21
-13.255912 13.144481 64.129311 30 23 21
-13.265876 13.292706 64.177521 30 23 21
-13.274644 13.439928 64.219933 29 22 22
-13.282304 13.586201 64.256996 29 22 22
-13.288972 13.731607 64.289253 30 22 22
-13.294783 13.876258 64.317368 30 22 22
-13.299889 14.020288 64.342072 31 22 22
-13.304454 14.163847 64.364151 32 22 22
-13.308652 14.307108 64.384460 33 23 22
-13.312664 14.450253 64.403870 33 22 22
-13.316666 14.593472 64.423233 34 22 22
-13.320836 14.736960 64.443405 34 22 21
-13.325339 14.880908 64.465187 32 23 20
-13.330332 15.025500 64.489342 31 23 19
-13.335953 15.170912 64.516533 31 23 19
-13.342322 15.317300 64.547348 30 23 20
-13.349540 15.464804 64.582268 30 23 20
-13.357684 15.613541 64.621666 30 22 20
-13.366803 15.763597 64.665787 30 23 20
-13.376925 15.915038 64.714752 30 23 20
-13.388051 16.067894 64.768578 31 23 20
-13.400157 16.222168 64.827141 32 23 20
-13.413193 16.377831 64.890205 33 24 20
-13.427088 16.534824 64.957428 34 24 22
-13.441754 16.693064 65.028381 34 24 22
-13.457084 16.852440 65.102539 35 24 22
-13.472957 17.012823 65.179337 35 23 22
-13.489246 17.174067 65.258141 34 22 21
-13.505818 17.336014 65.338310 33 21 20
-13.522544 17.498505 65.419228 34 21 21
-13.539293 17.661375 65.500259 35 23 22
-13.555951 17.824474 65.580841 35 24 22
-13.572409 17.987656 65.660461 34 23 20
-13.588580 18.150799 65.738693 32 22 19
-13.604394 18.313797 65.815201 31 22 19
-13.619799 18.476570 65.889725 30 22 18
-13.634765 18.639067 65.962128 29 23 19
-13.649281 18.801252 66.032349 29 23 20
-13.663353 18.963127 66.100433 28 23 21
-13.677005 19.124706 66.166473 28 23 22
-13.690271 19.286028 66.230659 29 23 23
-13.703198 19.447145 66.293198 29 23 23
-13.715835 19.608116 66.354324 29 23 23
-13.728235 19.769011 66.414314 30 23 23
-13.740449 19.929892 66.473404 30 23 23
-13.752526 20.090830 66.531830 30 22 23
-13.764507 20.251879 66.589790 31 22 23
-13.776427 20.413086 66.647461 31 22 23
-13.788311 20.574488 66.704948 32 22 23
-13.800176 20.736109 66.762352 32 22 22
-13.812029 20.897961 66.819695 32 22 21
-13.823871 21.060041 66.876984 32 22 20
-13.835693 21.222342 66.934181 31 21 20
-13.847486 21.384840 66.991226 30 21 20
-13.859232 21.547512 67.048050 30 21 19
-13.870912 21.710325 67.104553 29 21 19
-13.882506 21.873249 67.160645 28 21 18
-13.893991 22.036240 67.216209 27 21 18
-13.905350 22.199268 67.271164 27 21 18
-13.916562 22.362299 67.325401 27 20 18
-13.927611 22.525301 67.378853 26 19 18
-13.938484 22.688244 67.431458 26 19 18
-13.949164 22.851099 67.483124 26 19 18
-13.959639 23.013838 67.533798 25 20 19
-13.969893 23.176432 67.583412 25 20 19
-13.979913 23.338846 67.631882 25 20 19
-13.989680 23.501045 67.679131 24 20 20
-13.999172 23.662983 67.725052 24 20 19
-14.008361 23.824604 67.769508 24 21 19
-14.017215 23.985842 67.812340 23 20 18
-14.025690 24.146614 67.853340 23 20 18
-14.033735 24.306818 67.892265 23 20 18
-14.041295 24.466343 67.928833 23 19 17
-14.048299 24.625051 67.962715 22 18 17
-14.054669 24.782789 67.993538 22 17 17
-14.060320 24.939383 68.020874 21 17 17
-14.065154 25.094639 68.044258 21 17 16
-14.069074 25.248352 68.063217 21 17 16
-14.071973 25.400307 68.077248 21 17 16
-14.073742 25.550270 68.085808 21 17 16
-14.074275 25.698013 68.088379 21 17 17
-14.073466 25.843304 68.084473 21 18 17
-14.071222 25.985928 68.073616 21 17 17
-14.067455 26.125675 68.055397 21 17 17
-11.919056 -8.028500 58.269558 168 97 76
-11.918383 -7.902443 58.266270 170 97 77
-11.918331 -7.776807 58.266018 171 97 77
-11.918870 -7.651551 58.268654 172 96 77
-11.919963 -7.526634 58.273994 173 96 76
-11.921575 -7.402015 58.281872 173 96 76
-11.923661 -7.277653 58.292076 172 96 75
-11.926181 -7.153506 58.304394 170 96 73
-11.929088 -7.029534 58.318600 169 96 73
-11.932330 -6.905696 58.334457 168 95 72
-11.935860 -6.781952 58.351711 167 96 73
-11.939617 -6.658260 58.370079 166 96 73
-11.943545 -6.534584 58.389286 166 97 74
-11.947582 -6.410882 58.409016 167 99 77
-11.951661 -6.287117 58.428959 170 103 81
-11.955714 -6.163254 58.448772 173 105 84
-11.959670 -6.039256 58.468113 174 105 87
-11.963456 -5.915090 58.486626 175 105 90
-11.967000 -5.790728 58.503948 175 104 90
-11.970232 -5.666142 58.519753 175 102 89
-11.973086 -5.541315 58.533699 174 100 87
-11.975501 -5.416228 58.545509 172 98 84
-11.977428 -5.290875 58.554932 173 100 84
-11.978830 -5.165255 58.561783 178 105 89
-11.979683 -5.039373 58.565948 180 109 92
-11.979980 -4.913247 58.567402 178 108 91
-11.979736 -4.786898 58.566212 177 107 92
-11.978985 -4.660357 58.562542 177 108 94
-11.977785 -4.533662 58.556675 176 108 96
-11.976213 -4.406855 58.548988 176 107 97
-11.974366 -4.279983 58.539959 174 105 96
-11.972362 -4.153095 58.530159 173 102 94
-11.970328 -4.026240 58.520218 172 100 92
-11.968410 -3.899465 58.510838 172 100 90
-11.966751 -3.772812 58.502731 173 99 87
-11.965503 -3.646320 58.496628 172 99 84
-11.964807 -3.520016 58.493225 171 97 80
-11.964793 -3.393920 58.493160 167 93 76
-11.965581 -3.268044 58.497009 163 88 72
-11.967259 -3.142385 58.505215 159 84 70
-11.969897 -3.016932 58.518112 156 82 69
-11.973533 -2.891665 58.535885 153 81 68
-11.978166 -2.766551 58.558537 152 80 68
-11.983769 -2.641554 58.585930 151 81 68
-11.990277 -2.516628 58.617744 150 81 67
-11.997593 -2.391727 58.653511 149 82 67
-12.005590 -2.266799 58.692608 150 83 68
-12.014116 -2.141798 58.734291 151 84 68
-12.022999 -2.016676 58.777714 151 86 70
-12.032051 -1.891395 58.821968 152 87 71
-12.041081 -1.765918 58.866116 152 88 72
-12.049899 -1.640223 58.909222 151 88 73
-12.058320 -1.514292 58.950390 151 88 74
-12.066178 -1.388119 58.988811 151 88 74
-12.073332 -1.261707 59.023781 151 88 75
-12.079664 -1.135067 59.054741 154 89 77
-12.085097 -1.008218 59.081295 157 91 80
-12.089582 -0.881185 59.103226 160 92 80
-12.093115 -0.753999 59.120495 162 93 79
-12.095723 -0.626690 59.133247 163 93 77
-12.097469 -0.499291 59.141785 163 92 74
-12.098449 -0.371831 59.146572 164 91 71
-12.098779 -0.244338 59.148186 163 90 71
-12.098597 -0.116832 59.147293 162 91 70
-12.098048 0.010669 59.144615 162 91 71
-12.097285 0.138156 59.140884 163 93 73
-12.096457 0.265626 59.136829 164 94 76
-12.095693 0.393080 59.133099 165 96 79
-12.095113 0.520526 59.130264 166 97 81
-12.094811 0.647975 59.128788 165 96 82
-12.094855 0.775439 59.129005 164 95 83
-12.095284 0.902933 59.131096 165 96 83
-12.096104 1.030470 59.135105 165 96 83
-12.097295 1.158059 59.140930 165 96 82
-12.098812 1.285709 59.148350 166 96 81
-12.100585 1.413419 59.157013 167 97 81
-12.102525 1.541189 59.166496 169 99 83
-12.104534 1.669009 59.176319 170 99 85
-12.106506 1.796866 59.185963 169 96 85
-12.108341 1.924743 59.194931 167 93 83
-12.109942 2.052618 59.202759 164 90 84
-12.111232 2.180472 59.209064 163 90 85
-12.112149 2.308281 59.213551 160 89 85
-12.112662 2.436029 59.216061 152 84 79
-12.112767 2.563701 59.216572 140 76 69
-12.112487 2.691290 59.215199 131 72 64
-12.111876 2.818796 59.212215 129 77 68
-12.111018 2.946229 59.208019 127 81 72
-12.110022 3.073608 59.203148 114 77 68
-12.109015 3.200964 59.198223 93 61 55
-12.108138 3.328335 59.193939 68 42 38
-12.107543 3.455767 59.191029 56 34 31
-12.107381 3.583315 59.190239 54 35 33
-12.107795 3.711036 59.192261 53 35 34
-12.108916 3.838990 59.197742 52 34 34
-12.110855 3.967235 59.207222 50 33 33
-12.113700 4.095828 59.221130 49 32 32
-12.117511 4.224818 59.239761 49 32 31
-12.122317 4.354245 59.263256 48 31 30
-12.128119 4.484141 59.291622 49 31 30
-12.134886 4.614528 59.324703 49 32 30
-12.142562 4.745411 59.362232 50 32 31
-12.151068 4.876791 59.403812 50 32 31
-12.160306 5.008650 59.448975 50 31 31
-12.170164 5.140966 59.497169 50 30 30
-12.180526 5.273708 59.547829 50 30 30
-12.191274 5.406840 59.600372 50 29 30
-12.202292 5.540321 59.654240 51 29 30
-12.213478 5.674112 59.708923 51 29 31
-12.224743 5.808177 59.763996 51 30 31
-12.236015 5.942482 59.819103 50 30 31
-12.247244 6.077004 59.873997 49 30 30
-12.258402 6.211726 59.928547 48 30 29
-12.269485 6.346644 59.982727 47 29 29
-12.280507 6.481765 60.036610 46 29 28
-12.291506 6.617105 60.090385 45 28 27
-12.302537 6.752694 60.144310 45 27 27
-12.313668 6.888572 60.198730 45 27 27
-12.324981 7.024788 60.254036 44 26 27
-12.336563 7.161399 60.310658 44 25 27
-12.348504 7.298466 60.369034 44 26 28
-12.360896 7.436056 60.429619 43 26 28
-12.373825 7.574236 60.492825 42 27 28
-12.387369 7.713071 60.559040 42 28 29
-12.401596 7.852625 60.628590 43 29 29
-12.416564 7.992955 60.701763 43 28 28
-12.432313 8.134111 60.778759 43 28 27
-12.448872 8.276138 60.859711 43 27 25
-12.466254 8.419071 60.944691 43 26 24
-12.484457 8.562932 61.033676 42 26 24
-12.503466 8.707738 61.126606 42 26 24
-12.523252 8.853495 61.223339 42 26 24
-12.543778 9.000199 61.323685 41 27 25
-12.564998 9.147840 61.427422 41 27 26
-12.586854 9.296400 61.534271 41 28 26
-12.609290 9.445855 61.643955 40 28 26
-12.632240 9.596173 61.756157 39 27 26
-12.655639 9.747319 61.870544 38 26 25
-12.679415 9.899255 61.986782 37 26 25
-12.703499 10.051934 62.104523 37 25 25
-12.727816 10.205309 62.223404 36 25 24
-12.752290 10.359323 62.343052 36 25 23
-12.776840 10.513915 62.463070 35 24 23
-12.801382 10.669019 62.583054 34 24 22
-12.825830 10.824559 62.702572 34 23 21
-12.850086 10.980453 62.821156 33 22 21
-12.874052 11.136604 62.938316 33 22 22
-12.897621 11.292915 63.053543 34 23 22
-12.920686 11.449275 63.166298 35 23 23
-12.943130 11.605566 63.276028 35 24 25
-12.964843 11.761665 63.382175 35 25 25
-12.985710 11.917447 63.484192 35 25 25
-13.005623 12.072782 63.581539 34 26 24
-13.024482 12.227548 63.673737 34 26 23
-13.042198 12.381625 63.760345 33 25 22
-13.058695 12.534905 63.840996 32 25 22
-13.073917 12.687299 63.915417 31 24 22
-13.087831 12.838726 63.983433 30 23 21
-13.100422 12.989138 64.044991 30 23 21
-13.111704 13.138502 64.100143 30 23 21
-13.121717 13.286820 64.149101 29 23 21
-13.130527 13.434117 64.192169 29 22 22
-13.138221 13.580446 64.229782 29 22 22
-13.144913 13.725892 64.262497 29 22 22
-13.150736 13.870562 64.290962 30 22 22
-13.155841 14.014590 64.315918 31 22 21
-13.160392 14.158130 64.338173 31 22 21
-13.164563 14.301353 64.358559 32 22 21
-13.168531 14.444440 64.377960 33 23 21
-13.172478 14.587587 64.397255 33 22 21
-13.176575 14.730988 64.417282 32 22 20
-13.180989 14.874831 64.438866 31 22 19
-13.185877 15.019306 64.462761 30 22 19
-13.191375 15.164587 64.489639 29 22 19
-13.197603 15.310830 64.520088 29 23 19
-13.204660 15.458176 64.554588 29 23 20
-13.212624 15.606740 64.593521 30 22 20
-13.221542 15.756610 64.637115 30 23 20
-13.231441 15.907847 64.685516 30 23 20
-13.242324 16.060486 64.738716 31 23 20
-13.254163 16.214523 64.796593 32 23 21
-13.266912 16.369934 64.858917 33 24 21
-13.280502 16.526661 64.925362 34 24 22
-13.294845 16.684618 64.995483 34 24 22
-13.309836 16.843699 65.068771 34 23 22
-13.325359 17.003773 65.144661 34 22 21
-13.341289 17.164696 65.222534 34 21 20
-13.357495 17.326317 65.301765 33 20 20
-13.373855 17.488478 65.381737 34 22 21
-13.390241 17.651018 65.461853 34 23 22
-13.406540 17.813789 65.541534 34 23 22
-13.422652 17.976654 65.620300 33 22 20
-13.438494 18.139492 65.697746 32 22 20
-13.453996 18.302202 65.773529 30 22 18
-13.469110 18.464706 65.847420 30 22 18
-13.483809 18.626957 65.919281 29 22 18
-13.498082 18.788927 65.989059 28 23 20
-13.511940 18.950613 66.056808 28 23 21
-13.525406 19.112036 66.122635 28 23 22
-13.538510 19.273230 66.186707 28 23 22
-13.551302 19.434250 66.249237 28 23 23
-13.563827 19.595156 66.310471 28 22 23
-13.576138 19.756014 66.370659 29 22 23
-13.588282 19.916887 66.430023 29 22 23
-13.600305 20.077837 66.488808 30 22 23
-13.612247 20.238920 66.547188 31 22 23
-13.624136 20.400177 66.605309 31 22 23
-13.635999 20.561644 66.663307 32 22 22
-13.647847 20.723337 66.721230 31 22 21
-13.659687 20.885267 66.779106 31 22 21
-13.671514 21.047428 66.836929 31 22 20
-13.683322 21.209810 66.894653 31 21 20
-13.695096 21.372387 66.952217 31 21 19
-13.706820 21.535133 67.009537 30 21 19
-13.718474 21.698015 67.066505 29 21 18
-13.730037 21.860998 67.123032 28 21 18
-13.741488 22.024046 67.179016 27 21 18
-13.752808 22.187124 67.234360 27 21 18
-13.763979 22.350199 67.288971 27 20 18
-13.774985 22.513239 67.342781 26 20 19
-13.785812 22.676218 67.395714 26 20 19
-13.796448 22.839106 67.447701 26 19 19
-13.806875 23.001873 67.498680 25 20 19
-13.817084 23.164492 67.548592 25 20 20
-13.827060 23.326933 67.597359 25 20 20
-13.836782 23.489155 67.644890 24 20 20
-13.846230 23.651112 67.691078 24 20 20
-13.855376 23.812752 67.735794 23 20 20
-13.864188 23.974003 67.778870 23 20 19
-13.872622 24.134787 67.820107 23 20 18
-13.880630 24.294998 67.859253 23 19 18
-13.888154 24.454529 67.896034 23 19 18
-13.895127 24.613243 67.930122 22 19 18
-13.901475 24.770987 67.961159 22 18 17
-13.907112 24.927593 67.988716 22 17 17
-13.911948 25.082872 68.012360 21 17 16
-13.915889 25.236629 68.031624 22 17 17
-13.918831 25.388651 68.046005 22 17 17
-13.920674 25.538717 68.055016 22 18 17
-13.921316 25.686604 68.058151 22 18 17
-13.920659 25.832096 68.054947 22 18 17
-13.918615 25.974987 68.044952 22 18 17
-13.915103 26.115076 68.027786 21 18 17
-11.783215 -8.147034 58.219006 168 98 79
-11.781986 -8.020698 58.212940 171 101 81
-11.781405 -7.894821 58.210068 174 102 82
-11.781440 -7.769362 58.210236 175 102 82
-11.782054 -7.644279 58.213272 175 101 81
-11.783211 -7.519529 58.218987 176 100 80
-11.784868 -7.395069 58.227177 175 100 80
-11.786981 -7.270854 58.237614 174 100 78
-11.789502 -7.146842 58.250072 172 99 77
-11.792382 -7.022989 58.264305 171 99 76
-11.795569 -6.899255 58.280048 170 99 76
-11.799008 -6.775598 58.297039 169 99 77
-11.802640 -6.651976 58.314983 169 100 77
-11.806405 -6.528350 58.333584 169 101 78
-11.810240 -6.404683 58.352535 170 103 81
-11.814081 -6.280936 58.371513 172 105 85
-11.817861 -6.157076 58.390190 175 107 88
-11.821510 -6.033069 58.408218 178 108 92
-11.824961 -5.908885 58.425266 179 109 95
-11.828145 -5.784497 58.441002 181 109 96
-11.830999 -5.659883 58.455105 182 109 96
-11.833464 -5.535027 58.467281 181 107 94
-11.835487 -5.409915 58.477276 179 105 91
-11.837026 -5.284545 58.484875 178 104 90
-11.838049 -5.158917 58.489937 181 108 92
-11.838543 -5.033042 58.492374 182 110 94
-11.838507 -4.906938 58.492199 180 109 93
-11.837961 -4.780628 58.489502 178 108 93
-11.836946 -4.654145 58.484486 177 108 94
-11.835521 -4.527527 58.477444 176 107 95
-11.833767 -4.400817 58.468777 174 106 95
-11.831781 -4.274061 58.458969 172 103 93
-11.829681 -4.147307 58.448589 170 100 91
-11.827596 -4.020603 58.438286 169 98 89
-11.825662 -3.893992 58.428730 171 99 88
-11.824023 -3.767518 58.420635 171 98 86
-11.822825 -3.641214 58.414715 171 97 84
-11.822206 -3.515107 58.411655 170 96 80
-11.822290 -3.389215 58.412075 167 93 77
-11.823192 -3.263547 58.416527 164 90 74
-11.824995 -3.138100 58.425438 161 88 72
-11.827765 -3.012860 58.439121 157 86 72
-11.831533 -2.887805 58.457745 155 85 71
-11.836302 -2.762902 58.481300 153 84 71
-11.842035 -2.638114 58.509632 153 84 71
-11.848669 -2.513394 58.542408 151 84 70
-11.856104 -2.388694 58.579144 150 84 70
-11.864214 -2.263965 58.619209 151 85 71
-11.872845 -2.139157 58.661858 151 86 71
-11.881825 -2.014224 58.706226 151 88 71
-11.890969 -1.889126 58.751408 151 89 72
-11.900086 -1.763829 58.796452 152 90 72
-11.908985 -1.638308 58.840420 152 91 73
-11.917484 -1.512546 58.882412 152 91 74
-11.925418 -1.386538 58.921612 151 90 73
-11.932644 -1.260286 58.957314 151 88 73
-11.939048 -1.133802 58.988953 153 90 75
-11.944550 -1.007106 59.016136 159 93 79
-11.949102 -0.880222 59.038631 162 95 81
-11.952699 -0.753181 59.056400 164 96 80
-11.955366 -0.626015 59.069580 165 95 78
-11.957169 -0.498756 59.078487 166 94 75
-11.958198 -0.371435 59.083572 166 93 73
-11.958570 -0.244078 59.085411 165 92 72
-11.958423 -0.116709 59.084679 165 92 71
-11.957901 0.010657 59.082104 165 92 71
-11.957156 0.138010 59.078426 165 93 73
-11.956337 0.265345 59.074375 166 94 76
-11.955578 0.392664 59.070625 167 96 79
-11.954999 0.519976 59.067764 168 98 81
-11.954699 0.647290 59.066280 168 98 82
-11.954748 0.774620 59.066528 167 97 83
-11.955194 0.901981 59.068729 167 98 84
-11.956049 1.029387 59.072952 168 99 85
-11.957301 1.156849 59.079140 169 99 84
-11.958913 1.284377 59.087101 170 100 84
-11.960821 1.411974 59.096531 170 100 84
-11.962947 1.539640 59.107037 171 101 84
-11.965200 1.667369 59.118168 171 100 86
-11.967483 1.795150 59.129444 171 99 87
-11.969696 1.922969 59.140381 169 97 87
-11.971751 2.050808 59.150536 166 95 88
-11.973570 2.178647 59.159523 164 93 88
-11.975093 2.306468 59.167046 161 92 86
-11.976283 2.434255 59.172928 154 86 80
-11.977131 2.561993 59.177116 143 80 70
-11.977653 2.689676 59.179695 137 78 67
-11.977893 2.817304 59.180882 138 84 72
-11.977921 2.944885 59.181015 136 90 77
-11.977831 3.072436 59.180573 126 87 75
-11.977737 3.199985 59.180115 105 72 63
-11.977766 3.327565 59.180252 79 52 45
-11.978050 3.455220 59.181656 62 39 35
-11.978726 3.582998 59.184998 57 37 34
-11.979924 3.710951 59.190914 54 36 34
-11.981761 3.839136 59.199993 53 35 34
-11.984337 3.967604 59.212723 50 33 33
-11.987731 4.096406 59.229488 49 33 32
-11.991995 4.225588 59.250561 49 32 30
-11.997156 4.355186 59.276058 49 32 29
-12.003210 4.485227 59.305969 49 31 29
-12.010127 4.615729 59.340149 50 32 30
-12.017853 4.746697 59.378319 51 33 31
-12.026311 4.878128 59.420109 51 33 32
-12.035410 5.010005 59.465065 52 33 32
-12.045043 5.142305 59.512661 52 32 32
-12.055100 5.274995 59.562351 51 30 31
-12.065473 5.408040 59.613598 50 29 30
-12.076053 5.541402 59.665874 51 29 30
-12.086744 5.675041 59.718700 51 29 30
-12.097468 5.808924 59.771683 51 29 30
-12.108159 5.943019 59.824505 50 29 30
-12.118775 6.077304 59.876961 49 30 30
-12.129295 6.211767 59.928940 49 30 29
-12.139722 6.346404 59.980453 48 30 29
-12.150074 6.481224 60.031601 48 29 29
-12.160398 6.616248 60.082607 47 29 28
-12.170749 6.751508 60.133751 47 28 28
-12.181203 6.887047 60.185402 46 28 28
-12.191845 7.022916 60.237984 46 27 28
-12.202765 7.159176 60.291939 45 26 28
-12.214057 7.295890 60.347733 44 26 28
-12.225817 7.433129 60.405834 43 26 28
-12.238130 7.570961 60.466671 43 27 29
-12.251079 7.709456 60.530651 43 28 30
-12.264734 7.848678 60.598118 43 28 30
-12.279152 7.988688 60.669357 43 28 29
-12.294378 8.129539 60.744583 44 27 27
-12.310439 8.271275 60.823940 44 27 26
-12.327351 8.413933 60.907494 44 26 25
-12.345107 8.557538 60.995232 43 26 24
-12.363697 8.702107 61.087078 43 26 25
-12.383090 8.847647 61.182896 43 27 25
-12.403247 8.994153 61.282486 43 28 27
-12.424121 9.141616 61.385624 42 28 28
-12.445655 9.290017 61.492020 42 28 28
-12.467790 9.439331 61.601383 41 28 28
-12.490458 9.589527 61.713387 40 27 27
-12.513595 9.740569 61.827698 39 26 25
-12.537126 9.892417 61.943966 38 25 25
-12.560981 10.045024 62.061829 38 25 25
-12.585087 10.198342 62.180931 38 25 24
-12.609365 10.352316 62.300884 37 26 24
-12.633736 10.506884 62.421299 36 25 23
-12.658115 10.661978 62.541752 36 24 23
-12.682414 10.817522 62.661808 35 23 22
-12.706540 10.973435 62.781013 34 23 22
-12.730393 11.129624 62.898869 34 23 22
-12.753867 11.285985 63.014851 34 23 22
-12.776854 11.442410 63.128422 35 24 23
-12.799239 11.598780 63.239025 35 24 24
-12.820910 11.754971 63.346100 35 25 25
-12.841752 11.910854 63.449074 35 25 25
-12.861656 12.066302 63.547413 34 25 24
-12.880520 12.221188 63.640617 34 25 23
-12.898252 12.375388 63.728233 33 25 23
-12.914776 12.528795 63.809875 32 25 23
-12.930034 12.681312 63.885258 32 24 23
-12.943985 12.832859 63.954193 31 24 22
-12.956618 12.983381 64.016609 30 23 21
-12.967943 13.132849 64.072563 29 23 21
-12.977995 13.281254 64.122223 29 22 21
-12.986836 13.428623 64.165916 29 22 21
-12.994558 13.575009 64.204063 29 22 22
-13.001267 13.720492 64.237213 29 22 22
-13.007098 13.865182 64.266022 30 22 21
-13.012200 14.009210 64.291229 30 22 20
-13.016734 14.152730 64.313637 31 22 21
-13.020876 14.295916 64.334091 32 23 21
-13.024800 14.438949 64.353485 32 23 21
-13.028687 14.582024 64.372688 32 23 20
-13.032710 14.725335 64.392570 31 23 19
-13.037034 14.869074 64.413925 30 22 19
-13.041812 15.013431 64.437538 29 22 19
-13.047183 15.158576 64.464073 29 22 19
-13.053265 15.304669 64.494125 29 22 20
-13.060155 15.451848 64.528168 29 22 20
-13.067928 15.600230 64.566574 30 22 20
-13.076636 15.749901 64.609596 30 22 20
-13.086303 15.900924 64.657364 31 22 20
-13.096929 16.053328 64.709862 32 23 20
-13.108489 16.207113 64.766983 32 23 21
-13.120939 16.362255 64.828491 33 23 21
-13.134211 16.518694 64.894066 33 24 21
-13.148215 16.676346 64.963257 33 23 21
-13.162852 16.835106 65.035576 33 22 21
-13.178008 16.994846 65.110466 33 21 21
-13.193563 17.155428 65.187309 33 21 20
-13.209389 17.316698 65.265511 33 20 20
-13.225364 17.478500 65.344437 33 22 21
-13.241370 17.640684 65.423523 33 22 21
-13.257297 17.803102 65.502213 33 22 21
-13.273046 17.965622 65.580032 33 23 21
-13.288539 18.128126 65.656578 32 23 20
-13.303711 18.290518 65.731537 30 23 19
-13.318516 18.452724 65.804688 30 23 18
-13.332929 18.614700 65.875900 29 23 19
-13.346942 18.776421 65.945137 28 23 20
-13.360564 18.937883 66.012444 27 23 21
-13.373818 19.099113 66.077927 27 23 21
-13.386740 19.260145 66.141769 27 23 22
-13.399370 19.421032 66.204178 28 23 23
-13.411758 19.581833 66.265381 28 22 23
-13.423952 19.742613 66.325630 29 22 23
-13.435999 19.903433 66.385155 29 22 23
-13.447940 20.064354 66.444153 30 22 23
-13.459813 20.225426 66.502815 30 22 22
-13.471645 20.386688 66.561279 31 22 22
-13.483457 20.548172 66.619629 31 22 22
-13.495259 20.709894 66.677948 31 22 21
-13.507055 20.871857 66.736229 31 23 21
-13.518841 21.034056 66.794464 31 23 20
-13.530606 21.196474 66.852592 31 22 20
-13.542337 21.359089 66.910561 31 22 19
-13.554016 21.521868 66.968254 30 22 19
-13.565621 21.684780 67.025597 29 22 19
-13.577133 21.847790 67.082474 28 22 19
-13.588531 22.010859 67.138794 28 21 19
-13.599797 22.173956 67.194450 27 21 19
-13.610912 22.337046 67.249374 27 21 19
-13.621862 22.500101 67.303474 26 21 20
-13.632635 22.663092 67.356705 26 21 20
-13.643215 22.825993 67.408981 26 20 20
-13.653591 22.988773 67.460243 25 20 20
-13.663749 23.151405 67.510429 25 20 20
-13.673675 23.313860 67.559471 24 20 20
-13.683351 23.476095 67.607277 24 20 20
-13.692753 23.638063 67.653732 24 20 20
-13.701855 23.799713 67.698708 23 20 20
-13.710624 23.960974 67.742035 22 20 19
-13.719018 24.121763 67.783508 22 20 18
-13.726988 24.281979 67.822884 22 20 18
-13.734478 24.441511 67.859886 22 20 18
-13.741420 24.600222 67.894188 22 19 18
-13.747744 24.757967 67.925438 23 18 18
-13.753367 24.914577 67.953217 22 18 17
-13.758202 25.069872 67.977104 22 17 17
-13.762158 25.223660 67.996651 22 17 17
-13.765140 25.375732 68.011383 22 17 17
-13.767049 25.525883 68.020821 22 18 18
-13.767792 25.673899 68.024490 22 18 18
-13.767277 25.819571 68.021950 22 18 18
-13.765420 25.962700 68.012772 22 18 17
-13.762146 26.103104 67.996597 21 18 17
-11.648286 -8.265844 58.171921 169 100 83
-11.646493 -8.139193 58.162964 171 102 83
-11.645370 -8.013040 58.157356 174 105 85
-11.644887 -7.887345 58.154949 177 107 87
-11.645011 -7.762065 58.155567 178 106 87
-11.645704 -7.637156 58.159031 179 105 86
-11.646925 -7.512572 58.165127 178 105 85
-11.648627 -7.388268 58.173630 177 104 84
-11.650765 -7.264198 58.184307 176 103 83
-11.653288 -7.140317 58.196899 174 102 81
-11.656140 -7.016582 58.211147 173 101 80
-11.659267 -6.892947 58.226765 172 102 80
-11.662615 -6.769372 58.243481 172 102 81
-11.666120 -6.645816 58.260983 172 103 81
-11.669722 -6.522238 58.278969 172 103 82
-11.673357 -6.398601 58.297127 172 105 84
-11.676962 -6.274869 58.315128 174 108 87
-11.680471 -6.151010 58.332657 177 110 90
-11.683819 -6.026991 58.349377 179 111 94
-11.686940 -5.902786 58.364964 181 112 97
-11.689774 -5.778371 58.379112 183 112 98
-11.692260 -5.653728 58.391525 184 112 98
-11.694346 -5.528841 58.401947 185 111 98
-11.695987 -5.403705 58.410145 184 109 95
-11.697149 -5.278316 58.415947 182 108 93
-11.697809 -5.152682 58.419247 183 110 94
-11.697959 -5.026814 58.419991 183 111 95
-11.697604 -4.900732 58.418221 181 111 94
-11.696773 -4.774463 58.414066 180 110 95
-11.695508 -4.648039 58.407753 178 109 95
-11.693873 -4.521500 58.399590 176 107 94
-11.691952 -4.394887 58.389992 173 105 93
-11.689843 -4.268248 58.379459 170 101 90
-11.687660 -4.141628 58.368561 165 95 85
-11.685533 -4.015074 58.357933 165 94 85
-11.683594 -3.888629 58.348251 167 95 86
-11.681984 -3.762331 58.340210 169 96 84
-11.680843 -3.636214 58.334515 169 96 82
