ply
format ascii 1.0
element vertex 1128
property float x
property float y
property float z
property uchar red
property uchar green
property uchar blue
end_header
-11.810066 -5.663982 73.155869 175 103 111
-11.808660 -5.505627 73.147148 175 103 112
-11.806898 -5.347148 73.136238 176 103 113
-11.804819 -5.188578 73.123367 177 104 113
-11.802465 -5.029945 73.108780 178 105 114
-11.799876 -4.871278 73.092743 179 106 115
-11.797096 -4.712605 73.075523 179 106 115
-11.794164 -4.553946 73.057358 179 107 115
-11.791116 -4.395323 73.038483 180 108 115
-11.787982 -4.236750 73.019066 181 109 115
-11.784786 -4.078240 72.999275 183 110 116
-11.781549 -3.919801 72.979218 184 111 116
-11.778278 -3.761438 72.958961 184 111 115
-11.774985 -3.603155 72.938560 184 111 116
-11.771673 -3.444955 72.918045 186 112 117
-11.768343 -3.286838 72.897415 188 114 119
-11.764997 -3.128806 72.876694 189 115 122
-11.761641 -2.970860 72.855896 189 115 123
-11.758281 -2.813004 72.835083 187 114 122
-11.754931 -2.655239 72.814339 183 113 122
-11.751613 -2.497571 72.793785 180 113 122
-11.748355 -2.340003 72.773605 177 113 124
-11.745195 -2.182541 72.754028 176 112 125
-11.742180 -2.025187 72.735352 173 110 125
-11.739363 -1.867946 72.717903 176 114 132
-11.736803 -1.710818 72.702042 186 125 145
-11.734562 -1.553800 72.688164 190 128 151
-11.732705 -1.396888 72.676666 183 118 140
-11.731296 -1.240072 72.667931 186 120 139
-11.730388 -1.083341 72.662308 203 138 153
-11.730032 -0.926677 72.660103 201 138 148
-11.730268 -0.770062 72.661560 184 121 130
-11.731119 -0.613473 72.666840 177 115 124
-11.732598 -0.456885 72.676003 177 114 125
-11.734700 -0.300274 72.689026 181 117 130
-11.737404 -0.143614 72.705765 183 120 131
-11.740670 0.013119 72.725998 179 119 126
-11.744447 0.169946 72.749397 183 126 127
-11.748668 0.326887 72.775543 186 133 127
-11.753253 0.483955 72.803940 176 123 112
-11.758116 0.641161 72.834068 175 125 109
-11.763160 0.798509 72.865311 200 154 138
-11.768284 0.955998 72.897049 223 181 165
-11.773383 1.113622 72.928635 221 174 157
-11.778355 1.271368 72.959427 202 148 129
-11.783091 1.429219 72.988770 201 150 129
-11.787491 1.587150 73.016022 225 190 166
-11.791453 1.745135 73.040573 240 218 192
-11.794880 1.903138 73.061790 239 221 195
-11.797676 2.061124 73.079117 222 203 178
-11.799752 2.219048 73.091972 175 151 128
-11.801020 2.376865 73.099831 142 120 103
-11.801397 2.534525 73.102165 151 134 127
-11.800805 2.691973 73.098495 150 137 140
-11.799170 2.849154 73.088364 135 123 134
-11.796423 3.006008 73.071350 145 131 148
-11.792507 3.162475 73.047096 181 166 184
-11.787370 3.318493 73.015274 209 195 210
-11.780972 3.474003 72.975639 192 173 188
-11.773284 3.628944 72.928017 147 119 136
-11.764296 3.783262 72.872345 137 103 120
-11.754009 3.936905 72.808624 160 127 140
-11.742447 4.089829 72.737007 167 136 147
-11.729650 4.241998 72.657745 156 130 139
-11.715682 4.393385 72.571213 148 126 135
-11.700620 4.543974 72.477913 135 117 126
-11.684566 4.693763 72.378471 122 106 119
-11.667638 4.842761 72.273613 142 128 142
-11.649970 4.990989 72.164169 195 183 196
-11.631705 5.138482 72.051033 222 211 225
-11.612997 5.285285 71.935143 191 177 196
-11.594002 5.431455 71.817482 145 129 151
-11.574875 5.577053 71.699005 130 115 138
-11.555763 5.722149 71.580620 157 142 165
-11.536807 5.866812 71.463196 196 182 203
-11.518127 6.011114 71.347488 202 184 208
-11.499827 6.155121 71.234131 193 172 199
-11.481990 6.298892 71.123642 216 200 221
-11.464671 6.442478 71.016357 236 221 235
-11.447904 6.585920 70.912498 209 180 200
-11.431697 6.729243 70.812103 168 122 149
-11.416033 6.872460 70.715080 160 110 135
-11.400876 7.015571 70.621185 167 120 140
-11.386169 7.158560 70.530090 162 120 136
-11.371842 7.301401 70.441345 158 123 136
-11.357815 7.444055 70.354454 161 133 141
-11.343999 7.586476 70.268875 160 140 144
-11.330306 7.728612 70.184059 146 131 133
-11.316653 7.870409 70.099480 119 107 107
-11.302958 8.011813 70.014648 125 115 114
-11.289154 8.152772 69.929146 187 180 178
-11.275187 8.293242 69.842628 238 234 233
-11.261014 8.433186 69.754837 241 234 235
-11.246614 8.572577 69.665642 214 198 205
-11.231981 8.711405 69.574997 177 154 167
-11.217124 8.849663 69.482964 152 127 145
-11.202070 8.987368 69.389717 142 115 140
-11.186862 9.124543 69.295509 138 108 138
-11.171553 9.261230 69.200676 163 129 161
-11.156208 9.397477 69.105629 215 184 213
-11.140903 9.533350 69.010826 216 187 208
-11.125719 9.668918 68.916771 159 112 135
-11.110741 9.804261 68.823982 140 77 97
-11.096053 9.939466 68.733009 183 121 133
-11.081745 10.074624 68.644379 230 173 179
-11.067900 10.209826 68.558617 227 166 169
-11.054599 10.345169 68.476227 191 123 125
-11.041919 10.480744 68.397682 174 104 108
-11.029929 10.616646 68.323410 176 105 112
-11.018689 10.752960 68.253792 177 106 118
-11.008256 10.889771 68.189156 178 106 123
-10.998671 11.027154 68.129784 181 108 128
-10.989965 11.165174 68.075859 185 113 134
-10.982162 11.303890 68.027519 185 113 136
-10.975267 11.443347 67.984818 178 106 130
-10.969279 11.583575 67.947723 173 100 125
-10.964179 11.724594 67.916130 172 100 125
-10.959936 11.866405 67.889854 171 100 122
-10.956508 12.008994 67.868607 168 99 118
-10.953837 12.152334 67.852074 164 97 113
-10.951860 12.296380 67.839828 162 96 112
-10.950503 12.441078 67.831421 168 105 118
-10.949687 12.586361 67.826363 179 116 129
-10.949325 12.732150 67.824112 177 115 128
-10.949331 12.878365 67.824158 170 108 121
-10.949625 13.024920 67.825974 172 110 122
-10.950126 13.171732 67.829079 171 110 121
-10.950761 13.318722 67.833015 163 104 114
-10.951468 13.465816 67.837395 153 95 103
-10.952192 13.612950 67.841881 162 106 113
-10.952891 13.760074 67.846214 198 146 153
-10.953536 13.907145 67.850204 217 166 175
-10.954105 14.054138 67.853729 202 148 159
-10.954590 14.201036 67.856735 185 124 138
-10.954989 14.347836 67.859207 178 112 128
-10.955312 14.494543 67.861198 176 106 124
-10.955567 14.641171 67.862785 176 103 121
-10.955775 14.787741 67.864075 175 99 117
-10.955953 14.934275 67.865173 174 96 113
-10.956120 15.080798 67.866203 173 94 111
-10.956293 15.227337 67.867287 174 96 114
-10.956492 15.373917 67.868523 174 96 114
-11.610114 -9.728761 72.890594 160 91 98
-11.609508 -9.571133 72.886787 159 91 97
-11.609014 -9.413612 72.883682 159 91 96
-11.608669 -9.256225 72.881523 157 91 96
-11.608510 -9.098992 72.880524 156 92 96
-11.608572 -8.941934 72.880913 155 94 96
-11.608885 -8.785065 72.882874 154 95 98
-11.609471 -8.628389 72.886559 155 98 99
-11.610346 -8.471909 72.892052 156 100 101
-11.611514 -8.315615 72.899384 158 102 102
-11.612968 -8.159490 72.908516 161 103 104
-11.614688 -8.003509 72.919304 165 105 106
-11.616640 -7.847638 72.931564 168 106 106
-11.618784 -7.691842 72.945023 168 104 106
-11.621065 -7.536076 72.959351 168 102 104
-11.623423 -7.380297 72.974144 168 100 104
-11.625789 -7.224459 72.988998 168 99 106
-11.628095 -7.068522 73.003479 168 99 108
-11.630273 -6.912446 73.017159 167 99 109
-11.632257 -6.756198 73.029617 165 98 109
-11.633988 -6.599752 73.040482 160 95 106
-11.635417 -6.443093 73.049454 159 92 103
-11.636502 -6.286209 73.056267 163 96 106
-11.637216 -6.129100 73.060738 169 101 110
-11.637542 -5.971773 73.062790 172 103 112
-11.637478 -5.814242 73.062386 173 103 112
-11.637031 -5.656528 73.059586 175 103 111
-11.636221 -5.498652 73.054497 176 103 112
-11.635075 -5.340646 73.047302 177 103 113
-11.633624 -5.182534 73.038193 178 104 113
-11.631907 -5.024347 73.027420 179 105 114
-11.629964 -4.866111 73.015221 180 106 115
-11.627833 -4.707852 73.001839 180 107 116
-11.625548 -4.549591 72.987495 180 108 116
-11.623142 -4.391346 72.972389 181 109 118
-11.620642 -4.233130 72.956688 182 109 118
-11.618066 -4.074957 72.940514 183 110 118
-11.615428 -3.916832 72.923950 183 110 118
-11.612735 -3.758761 72.907051 183 110 117
-11.609993 -3.600748 72.889832 184 111 116
-11.607199 -3.442793 72.872292 185 112 117
-11.604351 -3.284899 72.854408 186 114 119
-11.601448 -3.127067 72.836189 187 115 122
-11.598492 -2.969300 72.817627 186 115 122
-11.595486 -2.811601 72.798752 184 115 122
-11.592443 -2.653975 72.779648 180 115 121
-11.589380 -2.496426 72.760422 176 114 122
-11.586328 -2.338963 72.741257 174 115 124
-11.583322 -2.181591 72.722382 171 114 125
-11.580407 -2.024317 72.704086 168 112 125
-11.577639 -1.867145 72.686707 182 128 144
-11.575077 -1.710078 72.670624 210 163 180
-11.572783 -1.553117 72.656219 219 175 192
-11.570824 -1.396258 72.643921 201 149 167
-11.569261 -1.239495 72.634109 197 140 157
-11.568153 -1.082817 72.627159 215 161 173
-11.567553 -0.926209 72.623383 208 154 163
-11.567497 -0.769654 72.623032 191 136 144
-11.568014 -0.613131 72.626282 190 135 144
-11.569118 -0.456616 72.633209 183 128 140
-11.570802 -0.300087 72.643784 185 129 143
-11.573049 -0.143520 72.657890 191 135 148
-11.575825 0.013109 72.675316 188 133 141
-11.579078 0.169821 72.695740 197 147 148
-11.582744 0.326632 72.718758 200 153 146
-11.586751 0.483556 72.743919 177 129 115
-11.591015 0.640603 72.770683 172 126 109
-11.595444 0.797777 72.798485 207 172 152
-11.599942 0.955076 72.826736 235 207 187
-11.604414 1.112495 72.854813 227 192 172
-11.608760 1.270020 72.882088 203 159 138
-11.612881 1.427636 72.907959 206 169 146
-11.616680 1.585320 72.931816 236 214 190
-11.620065 1.743044 72.953064 250 236 212
-11.622942 1.900777 72.971130 247 236 213
-11.625222 2.058482 72.985443 225 214 193
-11.626821 2.216118 72.995476 173 159 139
-11.627652 2.373642 73.000702 149 138 123
-11.627640 2.531004 73.000618 168 162 155
-11.626703 2.688152 72.994743 155 153 154
-11.624773 2.845032 72.982628 127 126 134
-11.621781 3.001585 72.963837 153 149 160
-11.617666 3.157752 72.938011 206 201 212
-11.612377 3.313473 72.904800 224 219 228
-11.605872 3.468687 72.863960 192 182 192
-11.598119 3.623335 72.815285 156 138 151
-11.589105 3.777362 72.758698 170 147 160
-11.578829 3.930717 72.694176 201 178 189
-11.567309 4.083354 72.621857 204 184 192
-11.554585 4.235239 72.541969 193 177 185
-11.540713 4.386343 72.454887 172 161 168
-11.525772 4.536650 72.361076 130 123 129
-11.509858 4.686156 72.261169 96 92 100
-11.493087 4.834872 72.155876 117 114 124
-11.475590 4.982818 72.046021 182 180 188
-11.457506 5.130028 71.932487 224 221 230
-11.438989 5.276549 71.816231 204 200 212
-11.420190 5.422434 71.698212 154 149 165
-11.401262 5.567749 71.579376 124 119 135
-11.382353 5.712559 71.460663 148 144 159
-11.363598 5.856938 71.342911 202 198 210
-11.345118 6.000954 71.226891 226 218 231
-11.327015 6.144675 71.113243 225 214 230
-11.309370 6.288160 71.002464 236 227 240
-11.292239 6.431461 70.894913 240 229 239
-11.275656 6.574617 70.790802 208 185 201
-11.259628 6.717656 70.690170 166 129 153
-11.244140 6.860590 70.592934 160 118 142
-11.229156 7.003419 70.498871 170 129 149
-11.214623 7.146131 70.407623 164 128 144
-11.200472 7.288697 70.318779 159 130 142
-11.186626 7.431083 70.231850 161 139 146
-11.172999 7.573243 70.146301 160 144 148
-11.159508 7.715127 70.061600 145 135 135
-11.146070 7.856685 69.977242 112 106 103
-11.132611 7.997862 69.892738 105 102 97
-11.119066 8.138613 69.807693 162 160 156
-11.105382 8.278893 69.721786 223 223 220
-11.091521 8.418670 69.634766 232 230 229
-11.077465 8.557920 69.546516 220 212 215
-11.063207 8.696630 69.457001 207 193 203
-11.048759 8.834803 69.366287 174 156 172
-11.034147 8.972452 69.274559 130 108 132
-11.019415 9.109606 69.182068 115 88 118
-11.004616 9.246305 69.089157 158 126 160
-10.989813 9.382600 68.996223 221 189 221
-10.975080 9.518554 68.903725 216 182 210
-10.960495 9.654241 68.812157 157 109 135
-10.946139 9.789738 68.722031 141 81 101
-10.932097 9.925131 68.633873 184 127 140
-10.918454 10.060512 68.548218 234 183 187
-10.905291 10.195971 68.465569 230 173 175
-10.892685 10.331602 68.386429 189 123 124
-10.880711 10.467501 68.311249 172 103 106
-10.869433 10.603756 68.240456 175 107 113
-10.858915 10.740456 68.174423 176 107 119
-10.849208 10.877684 68.113472 177 107 123
-10.840351 11.015513 68.057869 184 115 133
-10.832376 11.154013 68.007805 199 131 151
-10.825303 11.293235 67.963394 200 132 154
-10.819139 11.433228 67.924698 183 114 139
-10.813877 11.574018 67.891663 171 101 126
-10.809498 11.715624 67.864166 169 100 125
-10.805968 11.858042 67.842003 170 102 124
-10.803241 12.001257 67.824883 168 101 121
-10.801258 12.145235 67.812439 166 100 117
-10.799949 12.289927 67.804214 165 101 116
-10.799236 12.435268 67.799744 169 106 120
-10.799033 12.581185 67.798470 173 111 124
-10.799249 12.727591 67.799820 170 108 122
-10.799794 12.874393 67.803246 166 105 118
-10.800579 13.021502 67.808174 168 108 120
-10.801519 13.168819 67.814079 168 109 120
-10.802538 13.316259 67.820473 160 104 113
-10.803567 13.463739 67.826935 147 92 101
-10.804551 13.611191 67.833107 160 107 115
-10.805445 13.758554 67.838722 207 160 169
-10.806217 13.905787 67.843575 224 179 190
-10.806850 14.052857 67.847549 205 153 167
-10.807337 14.199753 67.850601 191 131 147
-10.807679 14.346470 67.852745 183 118 135
-10.807889 14.493018 67.854065 178 108 126
-10.807983 14.639418 67.854660 176 103 121
-10.807986 14.785693 67.854675 177 101 118
-10.807923 14.931878 67.854279 176 98 115
-10.807820 15.078006 67.853638 173 95 112
-10.807703 15.224110 67.852898 171 94 110
-10.807596 15.370226 67.852226 169 92 110
-10.807521 15.516384 67.851753 165 90 107
-11.433562 -9.869122 72.766975 158 92 98
-11.432707 -9.711533 72.761528 159 92 96
-11.431945 -9.554047 72.756676 158 90 95
-11.431310 -9.396686 72.752632 157 90 94
-11.430840 -9.239476 72.749649 156 90 94
-11.430574 -9.082441 72.747955 155 92 94
-11.430549 -8.925602 72.747795 155 93 96
-11.430796 -8.768971 72.749367 155 95 97
-11.431340 -8.612558 72.752831 156 98 99
-11.432200 -8.456364 72.758301 158 101 101
-11.433382 -8.300380 72.765823 160 103 104
-11.434878 -8.144587 72.775352 162 104 106
-11.436673 -7.988961 72.786766 166 106 108
-11.438735 -7.833470 72.799896 168 107 108
-11.441024 -7.678073 72.814461 168 105 107
-11.443485 -7.522728 72.830124 168 103 106
-11.446060 -7.367389 72.846512 168 102 105
-11.448681 -7.212007 72.863190 168 100 106
-11.451280 -7.056540 72.879730 168 100 108
-11.453786 -6.900946 72.895683 167 100 110
-11.456134 -6.745190 72.910622 166 100 110
-11.458262 -6.589243 72.924171 163 98 108
-11.460119 -6.433085 72.935989 162 97 106
-11.461665 -6.276706 72.945824 165 98 108
-11.462866 -6.120101 72.953468 171 103 111
-11.463706 -5.963275 72.958817 174 105 113
-11.464178 -5.806240 72.961823 175 104 112
-11.464288 -5.649012 72.962517 176 103 111
-11.464049 -5.491615 72.960999 177 102 111
-11.463489 -5.334075 72.957436 177 103 112
-11.462634 -5.176418 72.951996 178 104 113
-11.461521 -5.018671 72.944908 179 105 114
-11.460184 -4.860859 72.936401 180 106 115
-11.458658 -4.703006 72.926689 181 108 116
-11.456977 -4.545134 72.915993 181 109 118
-11.455165 -4.387258 72.904457 182 110 120
-11.453247 -4.229392 72.892250 183 110 120
-11.451238 -4.071546 72.879463 183 110 120
-11.449146 -3.913728 72.866158 183 110 119
-11.446978 -3.755941 72.852348 183 111 118
-11.444730 -3.598190 72.838051 184 112 118
-11.442399 -3.440475 72.823212 184 113 118
-11.439980 -3.282798 72.807808 185 114 120
-11.437466 -3.125162 72.791817 185 115 121
-11.434856 -2.967570 72.775208 184 117 122
-11.432154 -2.810027 72.758011 181 117 121
-11.429368 -2.652539 72.740280 178 118 121
-11.426516 -2.495112 72.722122 174 118 122
-11.423623 -2.337756 72.703720 171 118 124
-11.420729 -2.180479 72.685295 167 116 123
-11.417875 -2.023288 72.667137 166 117 125
-11.415120 -1.866192 72.649597 191 146 156
-11.412519 -1.709194 72.633049 229 194 203
-11.410140 -1.552298 72.617905 235 202 211
-11.408047 -1.395502 72.604584 209 165 176
-11.406302 -1.238802 72.593483 199 149 160
-11.404968 -1.082188 72.584984 210 161 170
-11.404093 -0.925648 72.579422 199 151 157
-11.403720 -0.769166 72.577042 190 143 149
-11.403876 -0.612723 72.578041 197 151 160
-11.404575 -0.456297 72.582489 189 142 154
-11.405816 -0.299867 72.590385 190 142 158
-11.407580 -0.143408 72.601616 197 149 163
-11.409837 0.013099 72.615974 192 143 153
-11.412537 0.169674 72.633156 203 159 162
-11.415620 0.326335 72.652779 205 164 159
-11.419016 0.483094 72.674393 175 131 119
-11.422647 0.639959 72.697510 168 125 108
-11.426429 0.796934 72.721573 200 166 147
-11.430268 0.954017 72.746010 217 190 170
-11.434075 1.111203 72.770241 199 168 147
-11.437758 1.268480 72.793678 186 150 129
-11.441226 1.425831 72.815742 208 181 159
-11.444386 1.583234 72.835861 238 223 201
-11.447155 1.740665 72.853477 245 233 212
-11.449443 1.898092 72.868042 239 228 210
-11.451170 2.055480 72.879028 211 203 187
-11.452251 2.212792 72.885918 159 151 137
-11.452612 2.369984 72.888206 147 142 132
-11.452173 2.527010 72.885422 173 175 171
-11.450863 2.683819 72.877075 158 164 164
-11.448607 2.840358 72.862724 133 140 143
-11.445343 2.996571 72.841949 167 170 175
-11.441009 3.152399 72.814362 213 214 220
-11.435551 3.307783 72.779625 218 216 224
-11.428924 3.462664 72.737450 190 184 193
-11.421100 3.616984 72.687653 175 165 174
-11.412058 3.770686 72.630112 201 189 197
-11.401796 3.923721 72.564804 226 215 220
-11.390330 4.076043 72.491829 229 219 222
-11.377695 4.227616 72.411415 227 220 223
-11.363943 4.378412 72.323891 202 199 201
-11.349151 4.528416 72.229744 134 135 138
-11.333408 4.677621 72.129562 76 80 86
-11.316831 4.826039 72.024048 91 96 103
-11.299542 4.973689 71.914024 165 169 175
-11.281683 5.120605 71.800362 227 229 232
-11.263398 5.266832 71.683990 226 228 233
-11.244840 5.412426 71.565880 174 176 183
-11.226156 5.557449 71.446968 119 121 129
-11.207492 5.701969 71.328186 127 130 137
-11.188980 5.846056 71.210365 193 194 199
-11.170739 5.989781 71.094276 239 237 241
-11.152870 6.133210 70.980553 248 244 249
-11.135454 6.276403 70.869713 248 242 249
-11.118544 6.419411 70.762093 243 232 242
-11.102175 6.562275 70.657906 216 196 211
-11.086354 6.705021 70.557220 178 149 169
-11.071069 6.847665 70.459946 166 131 152
-11.056286 6.990206 70.365860 170 135 154
-11.041953 7.132633 70.274643 164 133 149
-11.028006 7.274921 70.185875 161 137 148
-11.014368 7.417035 70.099083 165 147 153
-11.000963 7.558934 70.013771 164 153 153
-10.987708 7.700570 69.929405 150 145 140
-10.974525 7.841895 69.845512 116 114 107
-10.961344 7.982858 69.761620 96 98 89
-10.948104 8.123417 69.677353 143 145 138
-10.934755 8.263530 69.592400 205 206 203
-10.921263 8.403166 69.506531 213 212 209
-10.907609 8.542306 69.419632 209 207 206
-10.893791 8.680941 69.331688 215 209 213
-10.879822 8.819073 69.242783 177 164 177
-10.865726 8.956717 69.153076 111 91 112
-10.851547 9.093905 69.062836 96 71 98
-10.837337 9.230678 68.972389 157 126 158
-10.823156 9.367086 68.882141 224 190 223
-10.809075 9.503194 68.792534 215 177 209
-10.795171 9.639072 68.704041 161 112 141
-10.781522 9.774799 68.617165 151 92 115
-10.768207 9.910461 68.532425 187 127 143
-10.755307 10.046144 68.450333 224 169 177
-10.742900 10.181941 68.371368 220 160 164
-10.731063 10.317945 68.296028 185 120 123
-10.719864 10.454247 68.224762 172 105 109
-10.709369 10.590938 68.157959 173 108 115
-10.699633 10.728101 68.096001 174 110 120
-10.690706 10.865821 68.039192 175 111 125
-10.682631 11.004171 67.987793 187 123 140
-10.675432 11.143217 67.941978 209 146 166
-10.669131 11.283012 67.901878 209 144 167
-10.663731 11.423601 67.867508 184 118 143
-10.659225 11.565011 67.838829 167 102 128
-10.655590 11.707256 67.815697 167 102 127
-10.652791 11.850330 67.797890 169 104 127
-10.650778 11.994213 67.785072 167 103 124
-10.649491 12.138867 67.776878 166 104 122
-10.648852 12.284235 67.772820 168 106 122
-10.648783 12.430248 67.772369 169 107 122
-10.649189 12.576823 67.774963 167 106 120
-10.649976 12.723864 67.779968 164 103 117
-10.651049 12.871271 67.786797 164 104 118
-10.652313 13.018941 67.794846 168 109 122
-10.653679 13.166772 67.803535 166 109 121
-10.655065 13.314666 67.812355 156 101 112
-10.656401 13.462533 67.820854 144 90 101
-10.657626 13.610298 67.828659 155 105 115
-10.658698 13.757896 67.835480 197 149 162
-10.659583 13.905282 67.841110 208 161 176
-10.660264 14.052423 67.845444 197 144 160
-10.660736 14.199303 67.848450 194 134 151
-10.661006 14.345924 67.850166 187 121 139
-10.661089 14.492300 67.850700 177 107 124
-10.661010 14.638453 67.850189 176 103 119
-10.660796 14.784420 67.848831 179 103 119
-10.660481 14.930238 67.846825 178 101 116
-10.660098 15.075952 67.844391 174 98 112
-10.659679 15.221603 67.841728 172 96 110
-10.659256 15.367236 67.839027 169 95 110
-10.658857 15.512895 67.836494 165 91 107
-11.256776 -9.851683 72.638397 158 94 96
-11.255754 -9.694219 72.631805 158 92 95
-11.254839 -9.536874 72.625900 156 90 92
-11.254066 -9.379673 72.620911 154 88 91
-11.253474 -9.222642 72.617096 154 89 91
-11.253104 -9.065805 72.614700 155 90 93
-11.252995 -8.909185 72.613991 156 92 95
-11.253178 -8.752796 72.615173 156 95 97
-11.253683 -8.596649 72.618439 158 98 100
-11.254530 -8.440743 72.623901 160 102 102
-11.255726 -8.285070 72.631615 162 104 105
-11.257267 -8.129615 72.641563 165 106 108
-11.259137 -7.974349 72.653633 168 107 110
-11.261310 -7.819240 72.667656 168 106 109
-11.263742 -7.664248 72.683350 169 105 108
-11.266383 -7.509328 72.700394 169 104 107
-11.269174 -7.354431 72.718399 168 103 107
-11.272046 -7.199510 72.736931 167 102 107
-11.274930 -7.044516 72.755547 168 102 109
-11.277760 -6.889407 72.773796 168 102 110
-11.280462 -6.734145 72.791237 167 103 111
-11.282978 -6.578699 72.807480 167 102 110
-11.285254 -6.423046 72.822159 167 102 110
-11.287245 -6.267170 72.835007 169 102 111
-11.288917 -6.111068 72.845795 172 104 113
-11.290249 -5.954740 72.854393 175 105 113
-11.291234 -5.798196 72.860748 177 105 112
-11.291871 -5.641451 72.864861 178 104 112
-11.292175 -5.484527 72.866829 178 103 111
-11.292168 -5.327447 72.866768 178 103 111
-11.291872 -5.170236 72.864868 178 103 112
-11.291321 -5.012918 72.861305 179 104 113
-11.290546 -4.855521 72.856308 180 106 114
-11.289578 -4.698065 72.850067 181 108 117
-11.288448 -4.540570 72.842773 181 110 119
-11.287179 -4.383053 72.834587 182 111 121
-11.285789 -4.225525 72.825607 183 111 121
-11.284288 -4.067997 72.815933 183 111 121
-11.282685 -3.910475 72.805588 183 111 120
-11.280980 -3.752963 72.794586 183 111 119
-11.279168 -3.595465 72.782890 183 112 119
-11.277241 -3.437982 72.770454 183 113 119
-11.275191 -3.280517 72.757233 184 114 120
-11.273010 -3.123073 72.743149 183 116 121
-11.270693 -2.965653 72.728203 182 118 121
-11.268241 -2.808265 72.712379 180 120 121
-11.265662 -2.650914 72.695740 178 121 122
-11.262971 -2.493611 72.678375 175 121 122
-11.260196 -2.336365 72.660461 171 120 122
-11.257369 -2.179187 72.642227 165 118 120
-11.254539 -2.022086 72.623970 167 122 125
-11.251760 -1.865073 72.606033 195 154 157
-11.249090 -1.708153 72.588799 224 188 191
-11.246594 -1.551332 72.572693 219 180 183
-11.244338 -1.394610 72.558136 197 151 156
-11.242388 -1.237984 72.545547 195 146 152
-11.240800 -1.081447 72.535309 195 148 153
-11.239630 -0.924989 72.527748 178 133 138
-11.238916 -0.768595 72.523148 175 132 140
-11.238689 -0.612247 72.521683 186 145 156
-11.238964 -0.455926 72.523460 185 143 158
-11.239739 -0.299611 72.528458 192 150 167
-11.240998 -0.143280 72.536591 195 152 168
-11.242713 0.013086 72.547653 183 140 152
-11.244837 0.169507 72.561356 192 151 157
-11.247313 0.325996 72.577339 196 158 155
-11.250075 0.482567 72.595161 173 134 125
-11.253050 0.639227 72.614349 169 130 116
-11.256156 0.795978 72.634392 189 155 137
-11.259309 0.952821 72.654739 183 153 134
-11.262425 1.109747 72.674850 154 125 106
-11.265417 1.266746 72.694153 164 137 118
-11.268202 1.423802 72.712120 213 195 178
-11.270695 1.580894 72.728210 244 232 215
-11.272816 1.737999 72.741898 242 230 215
-11.274486 1.895086 72.752678 233 222 209
-11.275627 2.052124 72.760040 202 194 185
-11.276164 2.209076 72.763504 151 145 140
-11.276023 2.365900 72.762596 135 134 131
-11.275132 2.522552 72.756844 152 157 157
-11.273417 2.678984 72.745781 147 156 157
-11.270815 2.835144 72.728989 148 157 159
-11.267256 2.990979 72.706024 177 186 188
-11.262683 3.146431 72.676514 200 205 209
-11.257041 3.301442 72.640106 202 203 209
-11.250285 3.455955 72.596512 188 185 193
-11.242384 3.609911 72.545532 183 178 185
-11.233315 3.763257 72.487007 208 204 208
-11.223074 3.915941 72.420921 222 217 219
-11.211672 4.067919 72.347343 213 209 209
-11.199142 4.219155 72.266487 219 217 217
-11.185532 4.369620 72.178665 210 212 210
-11.170912 4.519299 72.084328 141 147 148
-11.155374 4.668186 71.984062 70 79 82
-11.139023 4.816290 71.878555 75 85 88
-11.121982 4.963630 71.768585 153 160 163
-11.104385 5.110241 71.655037 227 231 232
-11.086374 5.256166 71.538818 239 242 243
-11.068097 5.401460 71.420883 188 191 194
-11.049699 5.546185 71.302155 115 120 122
-11.031320 5.690408 71.183556 107 111 113
-11.013089 5.834198 71.065926 177 180 181
-10.995126 5.977626 70.950005 237 238 238
-10.977527 6.120757 70.836441 251 251 252
-10.960370 6.263652 70.725731 250 247 251
-10.943711 6.406361 70.618233 247 239 247
-10.927585 6.548925 70.514168 231 218 229
-10.912000 6.691373 70.413605 199 178 194
-10.896943 6.833719 70.316444 173 147 165
-10.882385 6.975966 70.222511 165 136 154
-10.868279 7.118103 70.131477 159 133 147
-10.854561 7.260108 70.042961 164 141 151
-10.841163 7.401948 69.956505 175 159 163
-10.828009 7.543587 69.871620 178 167 165
-10.815022 7.684978 69.787819 162 157 150
-10.802131 7.826078 69.704636 124 124 114
-10.789268 7.966840 69.621635 99 103 92
-10.776378 8.107223 69.538452 140 143 135
-10.763412 8.247190 69.454788 193 195 190
-10.750342 8.386715 69.370453 192 191 187
-10.737149 8.525779 69.285324 189 189 185
-10.723835 8.664376 69.199402 200 196 198
-10.710408 8.802512 69.112762 154 142 151
-10.696898 8.940205 69.025581 84 64 82
-10.683343 9.077483 68.938118 84 58 81
-10.669795 9.214391 68.850693 157 126 155
-10.656311 9.350977 68.763680 224 190 221
-10.642960 9.487307 68.677528 215 174 206
-10.629813 9.623450 68.592690 165 115 146
-10.616944 9.759484 68.509651 158 99 125
-10.604430 9.895490 68.428902 184 123 143
-10.592347 10.031556 68.350929 202 139 153
-10.580769 10.167771 68.276215 198 133 143
-10.569766 10.304226 68.205223 181 116 123
-10.559406 10.441010 68.138367 174 110 116
-10.549750 10.578210 68.076057 174 109 117
-10.540852 10.715913 68.018639 175 112 123
-10.532759 10.854198 67.966415 176 115 128
-10.525507 10.993137 67.919624 186 125 141
-10.519125 11.132795 67.878441 207 145 166
-10.513629 11.273225 67.842972 205 143 168
-10.509021 11.414466 67.813232 179 117 143
-10.505292 11.556546 67.789177 164 101 130
-10.502418 11.699476 67.770630 166 104 132
-10.500361 11.843247 67.757362 166 105 131
-10.499070 11.987834 67.749023 164 104 127
-10.498478 12.133195 67.745209 166 106 126
-10.498508 12.279265 67.745399 168 109 128
-10.499073 12.425970 67.749046 167 108 126
-10.500079 12.573218 67.755539 162 104 121
-10.501425 12.720907 67.764221 161 103 119
-10.503010 12.868926 67.774452 165 107 123
-10.504735 13.017162 67.785583 168 111 127
-10.506509 13.165508 67.797028 165 109 124
-10.508244 13.313853 67.808220 155 101 115
-10.509867 13.462105 67.818695 145 93 106
-10.511317 13.610176 67.828056 152 101 114
-10.512547 13.758001 67.835991 178 126 141
-10.513528 13.905530 67.842323 186 132 149
-10.514241 14.052728 67.846924 187 129 147
-10.514685 14.199582 67.849785 192 130 148
-10.514869 14.346094 67.850975 185 118 135
-10.514813 14.492283 67.850616 175 105 121
-10.514549 14.638177 67.848907 176 103 118
-10.514110 14.783819 67.846077 180 106 119
-10.513535 14.929255 67.842361 179 105 117
-10.512862 15.074537 67.838028 175 102 114
-10.512136 15.219722 67.833344 172 99 112
-10.511391 15.364858 67.828529 169 98 111
-10.510662 15.509998 67.823830 165 94 109
-10.509981 15.655189 67.819435 159 91 104
-11.081784 -9.991670 72.517937 158 94 95
-11.080514 -9.834218 72.509628 159 94 94
-11.079330 -9.676879 72.501884 158 93 93
-11.078266 -9.519673 72.494911 155 90 90
-11.077357 -9.362632 72.488968 152 87 89
-11.076648 -9.205780 72.484329 154 87 90
-11.076177 -9.049143 72.481239 156 90 93
-11.075985 -8.892744 72.479988 158 93 96
-11.076108 -8.736599 72.480797 159 96 99
-11.076577 -8.580718 72.483864 161 99 102
-11.077413 -8.425102 72.489326 162 102 104
-11.078624 -8.269744 72.497261 165 104 107
-11.080211 -8.114627 72.507645 167 106 110
-11.082159 -7.959724 72.520386 168 107 110
-11.084439 -7.805000 72.535309 168 106 110
-11.087014 -7.650415 72.552162 169 105 109
-11.089832 -7.495922 72.570602 169 104 108
-11.092833 -7.341470 72.590233 168 103 108
-11.095950 -7.187009 72.610641 168 103 108
-11.099115 -7.032491 72.631355 168 103 109
-11.102256 -6.877868 72.651901 169 104 111
-11.105304 -6.723100 72.671844 169 105 111
-11.108195 -6.568153 72.690765 169 105 111
-11.110872 -6.413002 72.708290 170 105 111
-11.113289 -6.257628 72.724106 172 104 112
-11.115411 -6.102024 72.737984 175 105 112
-11.117212 -5.946189 72.749779 177 106 113
-11.118682 -5.790130 72.759392 178 106 113
-11.119818 -5.633861 72.766823 179 106 113
-11.120629 -5.477400 72.772141 179 105 112
-11.121135 -5.320769 72.775444 179 104 112
-11.121357 -5.163993 72.776894 179 103 111
-11.121323 -5.007095 72.776672 180 104 112
-11.121061 -4.850100 72.774963 180 106 114
-11.120603 -4.693027 72.771957 182 108 116
-11.119969 -4.535898 72.767815 182 109 119
-11.119184 -4.378725 72.762672 182 110 121
-11.118260 -4.221523 72.756630 183 111 121
-11.117209 -4.064300 72.749756 183 111 121
-11.116033 -3.907063 72.742058 183 111 120
-11.114730 -3.749815 72.733528 182 111 119
-11.113291 -3.592561 72.724113 182 112 119
-11.111707 -3.435303 72.713745 183 114 119
-11.109966 -3.278043 72.702362 182 115 119
-11.108059 -3.120785 72.689873 182 116 119
-11.105978 -2.963535 72.676254 181 118 120
-11.103724 -2.806300 72.661507 180 121 121
-11.101300 -2.649088 72.645645 179 123 123
-11.098725 -2.491910 72.628799 175 124 123
-11.096022 -2.334778 72.611107 170 122 121
-11.093226 -2.177704 72.592812 164 119 117
-11.090384 -2.020701 72.574211 167 124 122
-11.087546 -1.863778 72.555649 189 148 146
-11.084777 -1.706946 72.537521 203 162 161
-11.082138 -1.550211 72.520256 190 146 146
-11.079696 -1.393574 72.504272 185 141 142
-11.077516 -1.237036 72.490005 200 156 159
-11.075656 -1.080591 72.477837 189 147 150
-11.074170 -0.924229 72.468109 159 118 123
-11.073100 -0.767938 72.461113 158 118 128
-11.072474 -0.611702 72.457016 174 135 150
-11.072309 -0.455502 72.455933 182 144 163
-11.072603 -0.299319 72.457855 196 158 178
-11.073343 -0.143134 72.462700 194 156 175
-11.074501 0.013072 72.470276 177 139 154
-11.076034 0.169317 72.480301 182 145 154
-11.077887 0.325615 72.492432 192 157 159
-11.079999 0.481976 72.506256 185 153 148
-11.082300 0.638408 72.521309 186 156 147
-11.084714 0.794912 72.537109 190 163 151
-11.087163 0.951488 72.553139 160 136 121
-11.089568 1.108129 72.568871 121 100 83
-11.091850 1.264823 72.583809 148 131 115
-11.093932 1.421556 72.597435 216 206 193
-11.095737 1.578308 72.609245 247 239 230
-11.097191 1.735057 72.618759 245 236 227
-11.098221 1.891774 72.625496 238 230 224
-11.098755 2.048428 72.628990 217 211 208
-11.098724 2.204986 72.628792 178 175 174
-11.098061 2.361408 72.624451 150 150 153
-11.096695 2.517652 72.615509 136 139 144
-11.094559 2.673672 72.601532 131 139 142
-11.091588 2.829418 72.582092 156 165 167
-11.087720 2.984839 72.556778 181 189 191
-11.082894 3.139880 72.525200 186 193 195
-11.077057 3.294484 72.487007 195 198 201
-11.070166 3.448595 72.441910 191 192 195
-11.062183 3.602156 72.389671 189 188 191
-11.053087 3.755113 72.330147 214 212 214
-11.042871 3.907418 72.263298 218 216 216
-11.031545 4.059026 72.189178 191 191 189
-11.019134 4.209899 72.107964 193 194 192
-11.005685 4.360012 72.019951 203 206 204
-10.991263 4.509346 71.925583 151 157 157
-10.975956 4.657897 71.825409 79 89 89
-10.959864 4.805673 71.720100 77 86 88
-10.943103 4.952691 71.610420 150 157 159
-10.925804 5.098986 71.497223 226 230 230
-10.908106 5.244601 71.381401 243 245 245
-10.890147 5.389587 71.263885 196 199 200
-10.872071 5.534007 71.145599 122 125 126
-10.854013 5.677927 71.027435 105 109 109
-10.836102 5.821415 70.910217 170 174 173
-10.818449 5.964541 70.794701 230 233 232
-10.801150 6.107370 70.681503 245 249 248
-10.784285 6.249960 70.571136 248 249 250
-10.767905 6.392365 70.463951 252 249 252
-10.752048 6.534624 70.360176 244 239 244
-10.736722 6.676766 70.259888 217 206 216
-10.721919 6.818809 70.163025 187 169 184
-10.707611 6.960755 70.069389 170 148 163
-10.693754 7.102598 69.978714 162 140 152
-10.680291 7.244317 69.890617 167 147 156
-10.667158 7.385883 69.804672 187 171 173
-10.654284 7.527263 69.720421 196 186 181
-10.641598 7.668416 69.637405 176 172 162
-10.629033 7.809299 69.555183 131 131 118
-10.616527 7.949871 69.473343 105 108 95
-10.604027 8.090096 69.391548 146 148 138
-10.591492 8.229940 69.309517 197 197 191
-10.578893 8.369381 69.227074 195 193 188
-10.566216 8.508403 69.144119 193 190 187
-10.553459 8.647002 69.060638 200 193 193
-10.540637 8.785187 68.976730 148 133 140
-10.527774 8.922976 68.892555 80 56 70
-10.514910 9.060399 68.808372 84 55 75
-10.502090 9.197499 68.724480 159 127 152
-10.489372 9.334330 68.641258 224 191 219
-10.476818 9.470948 68.559105 214 174 205
-10.464496 9.607426 68.478470 166 115 147
-10.452477 9.743837 68.399818 158 99 128
-10.440829 9.880262 68.323601 178 116 139
-10.429626 10.016787 68.250290 187 122 140
-10.418939 10.153495 68.180351 184 119 132
-10.408830 10.290475 68.114204 179 115 124
-10.399364 10.427815 68.052261 175 112 120
-10.390599 10.565600 67.994904 172 111 120
-10.382585 10.703912 67.942459 173 114 124
-10.375365 10.842828 67.895218 173 115 128
-10.368977 10.982420 67.853409 177 120 137
-10.363441 11.122748 67.817184 197 141 161
-10.358775 11.263865 67.786644 201 144 167
-10.354980 11.405810 67.761810 177 119 145
-10.352043 11.548606 67.742592 161 104 131
-10.349939 11.692260 67.728828 162 105 133
-10.348628 11.836761 67.720245 163 106 133
-10.348056 11.982080 67.716507 162 106 130
-10.348154 12.128169 67.717148 166 110 133
-10.348842 12.274960 67.721649 169 114 135
-10.350029 12.422370 67.729416 166 112 132
-10.351617 12.570300 67.739807 162 108 128
-10.353501 12.718639 67.752136 162 108 128
-10.355577 12.867270 67.765724 165 111 130
-10.357743 13.016071 67.779900 167 113 132
-10.359901 13.164925 67.794022 166 112 130
-10.361964 13.313715 67.807518 160 107 124
-10.363853 13.462339 67.819878 153 99 116
-10.365507 13.610708 67.830704 154 100 116
-10.366879 13.758749 67.839676 168 113 129
-10.367937 13.906408 67.846603 177 119 136
-10.368667 14.053651 67.851379 181 120 137
-10.369068 14.200465 67.854004 186 121 137
-10.369155 14.346856 67.854576 180 113 127
-10.368952 14.492844 67.853241 175 106 118
-10.368493 14.638465 67.850243 178 107 118
-10.367821 14.783769 67.845840 181 110 120
-10.366981 14.928810 67.840340 180 109 118
-10.366016 15.073650 67.834038 176 105 115
-10.364978 15.218351 67.827232 172 103 113
-10.363907 15.362977 67.820229 170 102 113
-10.362845 15.507586 67.813286 167 99 112
-10.361829 15.652234 67.806633 163 97 109
-10.906284 -9.974133 72.390656 158 94 94
-10.904844 -9.816787 72.381104 159 94 94
-10.903503 -9.659570 72.372200 159 93 93
-10.902294 -9.502505 72.364174 157 91 91
-10.901257 -9.345623 72.357285 155 89 91
-10.900431 -9.188950 72.351807 156 90 92
-10.899862 -9.032513 72.348038 159 92 95
-10.899592 -8.876335 72.346245 161 94 98
-10.899660 -8.720434 72.346687 163 96 101
-10.900095 -8.564820 72.349571 164 99 104
-10.900921 -8.409496 72.355057 165 102 106
-10.902151 -8.254455 72.363220 167 104 109
-10.903784 -8.099677 72.374062 168 106 110
-10.905807 -7.945137 72.387489 168 106 110
-10.908194 -7.790799 72.403336 168 105 110
-10.910909 -7.636621 72.421349 168 104 109
-10.913898 -7.482555 72.441193 168 103 109
-10.917105 -7.328549 72.462479 168 103 109
-10.920461 -7.174549 72.484756 168 103 109
-10.923895 -7.020504 72.507553 168 104 110
-10.927338 -6.866365 72.530403 169 105 111
-10.930716 -6.712088 72.552818 170 106 112
-10.933964 -6.557637 72.574387 171 106 112
-10.937025 -6.402983 72.594696 172 106 112
-10.939848 -6.248106 72.613434 174 106 112
-10.942393 -6.092993 72.630333 176 107 113
-10.944635 -5.937643 72.645218 179 107 113
-10.946559 -5.782060 72.657982 181 108 114
-10.948158 -5.626256 72.668594 182 107 114
-10.949440 -5.470247 72.677101 181 107 114
-10.950418 -5.314054 72.683594 180 105 113
-10.951111 -5.157700 72.688194 180 104 112
-10.951546 -5.001207 72.691078 180 104 112
-10.951746 -4.844598 72.692413 181 106 114
-10.951738 -4.687894 72.692360 183 108 116
-10.951545 -4.531114 72.691078 183 109 118
-10.951184 -4.374272 72.688683 183 110 121
-10.950666 -4.217381 72.685249 184 111 121
-10.950003 -4.060450 72.680840 184 112 121
-10.949189 -3.903485 72.675446 184 113 121
-10.948223 -3.746490 72.669029 183 114 120
-10.947094 -3.589470 72.661537 183 114 119
-10.945791 -3.432428 72.652885 183 115 118
-10.944300 -3.275366 72.642982 181 115 117
-10.942608 -3.118290 72.631760 180 116 117
-10.940708 -2.961206 72.619148 180 119 118
-10.938599 -2.804123 72.605141 180 123 120
-10.936284 -2.647051 72.589783 178 125 122
-10.933779 -2.490001 72.573158 174 125 121
-10.931108 -2.332988 72.555428 169 123 118
-10.928306 -2.176025 72.536827 163 120 114
-10.925416 -2.019126 72.517647 167 127 121
-10.922494 -1.862304 72.498253 186 148 143
-10.919599 -1.705570 72.479034 193 155 150
-10.916795 -1.548932 72.460419 178 139 135
-10.914147 -1.392394 72.442848 186 151 149
-10.911720 -1.235956 72.426735 212 180 181
-10.909575 -1.079617 72.412498 189 155 159
-10.907762 -0.923366 72.400459 144 108 115
-10.906322 -0.767194 72.390915 148 113 125
-10.905289 -0.611086 72.384048 176 142 159
-10.904674 -0.455024 72.379967 193 160 180
-10.904479 -0.298992 72.378670 207 177 198
-10.904692 -0.142971 72.380089 204 175 195
-10.905285 0.013057 72.384026 187 156 173
-10.906219 0.169107 72.390228 191 161 173
-10.907443 0.325192 72.398346 206 178 185
-10.908896 0.481323 72.407997 211 189 190
-10.910517 0.637505 72.418755 216 200 197
-10.912230 0.793740 72.430130 208 195 188
-10.913968 0.950026 72.441658 160 148 137
-10.915655 1.106357 72.452858 110 100 87
-10.917218 1.262722 72.463234 140 133 121
-10.918587 1.419106 72.472321 212 208 200
-10.919692 1.575491 72.479652 238 234 230
-10.920467 1.731856 72.484795 237 233 229
-10.920844 1.888174 72.487305 242 239 237
-10.920759 2.044416 72.486732 241 239 239
-10.920149 2.200550 72.482681 224 223 225
-10.918948 2.356539 72.474716 195 194 199
-10.917094 2.512344 72.462410 152 154 159
-10.914523 2.667920 72.445343 129 133 137
-10.911173 2.823220 72.423103 149 155 157
-10.906981 2.978196 72.395287 170 175 176
-10.901894 3.132794 72.361519 183 187 188
-10.895855 3.286959 72.321434 205 208 209
-10.888821 3.440637 72.274742 209 211 211
-10.880756 3.593773 72.221214 207 209 209
-10.871635 3.746315 72.160675 228 228 228
-10.861450 3.898214 72.093071 225 225 225
-10.850206 4.049426 72.018440 185 186 185
-10.837928 4.199915 71.936943 178 181 179
-10.824657 4.349654 71.848854 198 201 200
-10.810455 4.498626 71.754593 163 168 167
-10.795401 4.646825 71.654671 96 104 104
-10.779594 4.794258 71.549751 86 94 95
-10.763144 4.940943 71.440559 149 156 156
-10.746174 5.086912 71.327919 223 226 226
-10.728818 5.232207 71.212723 246 247 247
-10.711212 5.376880 71.095863 210 211 211
-10.693491 5.520989 70.978241 140 143 143
-10.675788 5.664601 70.860733 118 122 121
-10.658224 5.807782 70.744156 173 176 175
-10.640912 5.950602 70.629242 227 231 229
-10.623943 6.093122 70.516617 242 246 244
-10.607395 6.235404 70.406776 247 250 249
-10.591320 6.377499 70.300079 253 254 253
-10.575756 6.519447 70.196770 250 248 250
-10.560713 6.661279 70.096924 232 226 233
-10.546185 6.803013 70.000496 210 198 210
-10.532149 6.944656 69.907333 196 181 192
-10.518565 7.086201 69.817162 179 163 172
-10.505381 7.227633 69.729652 172 154 161
-10.492537 7.368926 69.644402 188 173 175
-10.479969 7.510049 69.560982 203 192 188
-10.467613 7.650969 69.478973 186 178 169
-10.455406 7.791645 69.397949 142 137 125
-10.443292 7.932042 69.317535 120 117 104
-10.431222 8.072126 69.237419 161 157 149
-10.419159 8.211872 69.157356 214 207 203
-10.407076 8.351256 69.077156 224 217 215
-10.394961 8.490268 68.996742 225 219 217
-10.382815 8.628908 68.916122 223 215 214
-10.370650 8.767183 68.835381 175 158 161
-10.358491 8.905116 68.754669 105 78 88
-10.346373 9.042737 68.674240 100 68 84
-10.334341 9.180087 68.594376 170 138 159
-10.322447 9.317218 68.515427 227 195 219
-10.310751 9.454189 68.437798 210 169 198
-10.299313 9.591067 68.361877 164 111 142
-10.288199 9.727924 68.288109 156 97 126
-10.277476 9.864838 68.216934 175 111 138
-10.267209 10.001888 68.148781 183 118 140
-10.257462 10.139159 68.084091 183 118 135
-10.248297 10.276735 68.023254 179 117 129
-10.239771 10.414699 67.966667 174 114 125
-10.231937 10.553133 67.914673 171 113 123
-10.224845 10.692117 67.867592 171 114 125
-10.218532 10.831725 67.825691 165 111 124
-10.213032 10.972025 67.789177 170 115 132
-10.208366 11.113077 67.758217 196 143 163
-10.204548 11.254930 67.732872 204 151 175
-10.201575 11.397617 67.713142 179 124 151
-10.199436 11.541164 67.698944 159 104 132
-10.198104 11.685573 67.690094 157 103 132
-10.197534 11.830829 67.686317 160 107 134
-10.197672 11.976899 67.687225 164 113 138
-10.198446 12.123732 67.692368 170 120 145
-10.199775 12.271252 67.701187 170 122 145
-10.201563 12.419370 67.713058 165 117 140
-10.203711 12.567981 67.727310 162 115 137
-10.206109 12.716967 67.743233 162 115 138
-10.208652 12.866203 67.760109 163 116 138
-10.211230 13.015558 67.777229 165 117 139
-10.213748 13.164908 67.793938 167 119 140
-10.216111 13.314129 67.809624 165 116 135
-10.218244 13.463113 67.823776 157 106 124
-10.220079 13.611763 67.835960 155 103 119
-10.221572 13.760004 67.845871 165 111 126
-10.222691 13.907779 67.853294 177 120 134
-10.223422 14.055053 67.858147 183 122 135
-10.223769 14.201815 67.860451 183 119 130
-10.223748 14.348069 67.860313 178 113 122
-10.223390 14.493844 67.857933 177 109 119
-10.222732 14.639182 67.853569 181 112 121
-10.221823 14.784137 67.847534 183 114 123
-10.220713 14.928772 67.840164 180 112 121
-10.219455 15.073157 67.831818 176 109 118
-10.218103 15.217367 67.822845 174 107 116
-10.216707 15.361470 67.813576 172 105 116
-10.215312 15.505536 67.804314 169 104 115
-10.213960 15.649628 67.795341 167 103 114
-10.731428 -9.956684 72.264015 157 94 93
-10.729826 -9.799444 72.253227 160 96 94
-10.728333 -9.642349 72.243179 161 96 94
-10.726986 -9.485426 72.234108 160 94 94
-10.725823 -9.328702 72.226273 160 93 94
-10.724890 -9.172209 72.219994 160 93 96
-10.724229 -9.015971 72.215538 162 94 98
-10.723886 -8.860015 72.213234 164 96 101
-10.723900 -8.704359 72.213326 165 98 104
-10.724304 -8.549013 72.216049 166 100 105
-10.725123 -8.393981 72.221565 167 102 107
-10.726372 -8.239255 72.229973 168 104 110
-10.728050 -8.084816 72.241272 168 105 111
-10.730148 -7.930639 72.255402 168 105 111
-10.732640 -7.776687 72.272186 167 104 110
-10.735489 -7.622915 72.291367 167 103 109
-10.738646 -7.469275 72.312622 167 102 110
-10.742049 -7.315711 72.335541 167 102 110
-10.745633 -7.162169 72.359673 166 102 109
-10.749327 -7.008594 72.384552 167 102 109
-10.753057 -6.854935 72.409660 169 104 111
-10.756748 -6.701144 72.434517 171 106 112
-10.760336 -6.547182 72.458679 172 107 112
-10.763757 -6.393018 72.481720 173 107 112
-10.766960 -6.238627 72.503288 175 107 112
-10.769902 -6.083997 72.523102 177 108 113
-10.772555 -5.929122 72.540962 180 108 114
-10.774898 -5.774004 72.556740 182 108 115
-10.776922 -5.618651 72.570374 182 108 115
-10.778633 -5.463080 72.581886 182 108 115
-10.780038 -5.307310 72.591354 181 107 115
-10.781156 -5.151362 72.598877 181 106 114
-10.782007 -4.995258 72.604614 181 105 114
-10.782616 -4.839020 72.608711 182 107 116
-10.783004 -4.682668 72.611320 184 109 118
-10.783191 -4.526221 72.612579 184 110 120
-10.783193 -4.369694 72.612595 184 112 122
-10.783020 -4.213098 72.611427 185 113 122
-10.782678 -4.056443 72.609123 185 114 122
-10.782164 -3.899737 72.605667 185 115 122
-10.781471 -3.742983 72.601006 184 116 122
-10.780590 -3.586187 72.595070 183 117 121
-10.779506 -3.429351 72.587769 183 117 120
-10.778205 -3.272481 72.579010 181 117 118
-10.776673 -3.115583 72.568695 179 119 117
-10.774901 -2.958663 72.556763 179 121 118
-10.772887 -2.801731 72.543205 178 124 119
-10.770636 -2.644799 72.528038 176 125 120
-10.768160 -2.487881 72.511368 172 127 121
-10.765484 -2.330992 72.493347 168 125 119
-10.762641 -2.174146 72.474205 160 119 113
-10.759678 -2.017361 72.454247 167 128 123
-10.756645 -1.860649 72.433830 196 162 157
-10.753604 -1.704024 72.413345 206 174 170
-10.750616 -1.547495 72.393234 184 150 147
-10.747749 -1.391069 72.373924 190 161 159
-10.745066 -1.234747 72.355850 219 196 198
-10.742625 -1.078527 72.339417 191 165 171
-10.740479 -0.922403 72.324959 137 105 116
-10.738667 -0.766366 72.312767 144 112 127
-10.737221 -0.610402 72.303024 186 156 176
-10.736155 -0.454495 72.295845 213 186 207
-10.735470 -0.298631 72.291237 226 206 223
-10.735156 -0.142791 72.289124 221 202 218
-10.735187 0.013040 72.289330 203 182 199
-10.735523 0.168877 72.291595 205 183 198
-10.736118 0.324731 72.295609 220 201 211
-10.736917 0.480612 72.300980 232 220 225
-10.737858 0.636524 72.307312 241 235 236
-10.738874 0.792469 72.314163 231 227 224
-10.739901 0.948445 72.321075 177 173 168
-10.740870 1.104444 72.327599 117 115 109
-10.741715 1.260457 72.333290 136 136 129
-10.742372 1.416470 72.337715 199 199 195
-10.742778 1.572465 72.340446 213 213 211
-10.742871 1.728422 72.341072 206 206 205
-10.742594 1.884316 72.339211 227 227 227
-10.741886 2.040121 72.334442 248 248 248
-10.740690 2.195805 72.326385 250 249 251
-10.738947 2.351335 72.314651 232 231 234
-10.736599 2.506672 72.298836 186 187 190
-10.733586 2.661777 72.278549 145 148 151
-10.729849 2.816604 72.253387 137 141 143
-10.725329 2.971106 72.222954 152 156 157
-10.719973 3.125233 72.186882 189 191 191
-10.713727 3.278932 72.144821 219 221 221
-10.706548 3.432151 72.096474 214 217 216
-10.698399 3.584836 72.041603 211 213 212
-10.689256 3.736937 71.980034 232 233 232
-10.679105 3.888405 71.911682 228 229 228
-10.667953 4.039200 71.836578 184 186 185
-10.655817 4.189284 71.754860 175 179 176
-10.642737 4.338632 71.666786 200 203 201
-10.628770 4.487225 71.572731 172 176 175
-10.613991 4.635057 71.473206 108 113 113
-10.598489 4.782135 71.368828 95 101 101
-10.582373 4.928476 71.260300 154 159 158
-10.565759 5.074111 71.148422 222 224 224
-10.548773 5.219079 71.034042 248 249 249
-10.531546 5.363431 70.918037 221 222 222
-10.514208 5.507225 70.801285 154 157 157
-10.496885 5.650524 70.684639 127 130 130
-10.479697 5.793394 70.568893 178 180 179
-10.462750 5.935903 70.454781 231 233 232
-10.446136 6.078112 70.342903 246 249 247
-10.429928 6.220082 70.233757 250 252 251
-10.414182 6.361863 70.127724 254 254 254
-10.398932 6.503497 70.025032 252 252 252
-10.384192 6.645015 69.925774 244 241 244
-10.369960 6.786438 69.829941 234 226 234
-10.356215 6.927773 69.737389 223 213 221
-10.342924 7.069020 69.647888 198 184 193
-10.330040 7.210165 69.561127 173 156 164
-10.317510 7.351186 69.476746 179 161 165
-10.305273 7.492059 69.394348 195 180 179
-10.293274 7.632752 69.313545 187 174 169
-10.281454 7.773232 69.233955 157 145 138
-10.269763 7.913469 69.155228 143 131 124
-10.258158 8.053432 69.077080 172 158 154
-10.246602 8.193100 68.999268 216 199 199
-10.235076 8.332456 68.921646 239 225 225
-10.223566 8.471490 68.844139 247 240 239
-10.212074 8.610206 68.766762 242 235 233
-10.200612 8.748613 68.689575 201 183 185
-10.189203 8.886734 68.612747 139 108 116
-10.177880 9.024601 68.536507 131 97 110
-10.166685 9.162252 68.461113 191 162 178
-10.155665 9.299741 68.386909 227 197 216
-10.144874 9.437121 68.314240 198 154 180
-10.134369 9.574459 68.243500 158 102 132
-10.124208 9.711823 68.175087 158 98 126
-10.114454 9.849287 68.109398 176 113 139
