ply
format ascii 1.0
element vertex 1225
property float x
property float y
property float z
property uchar red
property uchar green
property uchar blue
end_header
12.990958 -2.018949 72.511299 91 53 59
12.994276 -1.863115 72.529816 92 53 58
12.996806 -1.707097 72.543938 93 54 58
12.998568 -1.550927 72.553772 96 57 60
12.999594 -1.394636 72.559502 99 60 62
12.999921 -1.238253 72.561325 100 62 63
12.999595 -1.081808 72.559502 101 63 64
12.998664 -0.925328 72.554306 100 63 65
12.997186 -0.768838 72.546059 98 62 66
12.995218 -0.612361 72.535080 97 62 66
12.992825 -0.455915 72.521721 96 60 66
12.990070 -0.299519 72.506340 94 58 65
12.987019 -0.143187 72.489304 94 57 64
12.983736 0.013073 72.470985 93 57 63
12.980289 0.169251 72.451752 95 57 63
12.976744 0.325343 72.431961 97 59 63
12.973157 0.481349 72.411942 101 61 65
12.969591 0.637270 72.392036 105 63 67
12.966098 0.793109 72.372536 107 64 68
12.962728 0.948873 72.353722 108 64 69
12.959523 1.104570 72.335838 108 65 70
12.956527 1.260210 72.319115 109 65 71
12.953769 1.415805 72.303719 110 66 72
12.951278 1.571365 72.289818 110 67 74
12.949076 1.726904 72.277527 110 68 76
12.947181 1.882434 72.266953 110 68 77
12.945608 2.037970 72.258171 109 68 76
12.944364 2.193523 72.251221 107 67 74
12.943456 2.349108 72.246155 106 66 73
12.942889 2.504736 72.242996 106 66 72
12.942666 2.660422 72.241745 105 66 72
12.942788 2.816177 72.242432 103 64 70
12.943255 2.972015 72.245041 101 60 66
12.944070 3.127948 72.249580 101 58 65
12.945230 3.283988 72.256065 102 57 65
12.946738 3.440148 72.264481 104 58 68
12.948595 3.596442 72.274841 106 59 70
12.950797 3.752880 72.287132 108 60 73
12.953345 3.909476 72.301353 110 62 75
12.956236 4.066240 72.317490 111 63 76
12.959464 4.223185 72.335510 111 64 78
12.963022 4.380318 72.355370 112 64 78
12.966899 4.537648 72.377007 112 65 77
12.971083 4.695183 72.400360 114 67 78
12.975552 4.852925 72.425301 117 69 79
12.980283 5.010876 72.451714 119 71 80
12.985250 5.169035 72.479439 122 73 81
12.990419 5.327396 72.508293 125 74 83
12.995755 5.485952 72.538078 125 72 82
13.001214 5.644690 72.568542 122 69 80
13.006753 5.803595 72.599457 119 68 80
13.012322 5.962646 72.630547 118 68 83
13.017872 6.121823 72.661522 117 71 87
13.023349 6.281098 72.692093 118 75 93
13.028702 6.440444 72.721970 120 80 100
13.033878 6.599830 72.750862 122 84 105
13.038827 6.759221 72.778488 124 88 109
13.043500 6.918586 72.804565 125 91 112
13.047850 7.077888 72.828850 125 93 112
13.051835 7.237092 72.851097 123 92 110
13.055419 7.396165 72.871101 124 93 110
13.058568 7.555072 72.888672 127 96 111
13.061254 7.713781 72.903664 129 96 111
13.063450 7.872261 72.915924 129 96 111
13.065142 8.030483 72.925369 127 94 109
13.066315 8.188420 72.931915 123 91 106
13.066958 8.346047 72.935501 119 88 102
13.067070 8.503345 72.936127 113 85 97
13.066647 8.660290 72.933769 104 78 89
13.065694 8.816868 72.928444 89 66 74
13.064215 8.973061 72.920189 74 52 59
13.062220 9.128858 72.909058 64 42 47
13.059719 9.284247 72.895096 57 35 38
13.056723 9.439219 72.878380 52 30 33
13.053246 9.593765 72.858971 53 31 33
13.049302 9.747878 72.836960 57 33 35
13.044908 9.901554 72.812424 59 35 37
13.040076 10.054789 72.785461 61 36 38
13.034825 10.207577 72.756149 62 36 38
13.029167 10.359916 72.724571 62 36 37
13.023120 10.511805 72.690819 63 35 37
13.016699 10.663241 72.654976 65 36 38
13.009919 10.814225 72.617134 68 39 41
13.002794 10.964755 72.577362 71 42 43
12.995338 11.114831 72.535751 71 42 43
12.987566 11.264452 72.492363 70 42 43
12.979488 11.413618 72.447273 69 41 44
12.971115 11.562326 72.400543 68 40 43
12.962459 11.710577 72.352219 66 39 42
12.953525 11.858366 72.302361 66 38 41
12.944324 12.005691 72.250999 66 37 41
12.934856 12.152545 72.198158 67 37 41
12.925129 12.298923 72.143860 67 37 42
12.915142 12.444818 72.088112 69 39 43
12.904893 12.590217 72.030907 70 40 44
12.894379 12.735106 71.972221 69 40 44
12.709970 -8.298450 70.099464 71 46 49
12.718482 -8.152796 70.146408 71 45 49
12.726931 -8.006899 70.193008 70 45 48
12.735364 -7.860792 70.239517 71 45 49
12.743832 -7.714505 70.286217 72 45 49
12.752381 -7.568066 70.333374 73 45 49
12.761063 -7.421499 70.381256 75 46 51
12.769919 -7.274827 70.430107 78 49 52
12.778992 -7.128064 70.480141 80 50 54
12.788310 -6.981219 70.531532 82 51 56
12.797903 -6.834300 70.584442 83 52 56
12.807789 -6.687305 70.638962 83 52 56
12.817975 -6.540229 70.695145 82 51 55
12.828465 -6.393062 70.752998 79 49 53
12.839254 -6.245790 70.812508 77 47 49
12.850330 -6.098399 70.873596 75 46 48
12.861676 -5.950869 70.936172 75 46 48
12.873269 -5.803180 71.000107 76 47 48
12.885082 -5.655313 71.065262 75 47 48
12.897089 -5.507247 71.131485 75 47 48
12.909256 -5.358963 71.198586 74 46 48
12.921552 -5.210440 71.266403 74 44 47
12.933940 -5.061662 71.334724 74 43 47
12.946385 -4.912611 71.403366 74 44 48
12.958846 -4.763269 71.472092 76 45 49
12.971282 -4.613623 71.540680 79 48 52
12.983645 -4.463656 71.608864 80 50 55
12.995889 -4.313355 71.676392 82 52 57
13.007957 -4.162707 71.742958 83 52 57
13.019794 -4.011700 71.808235 82 52 56
13.031339 -3.860326 71.871910 81 50 55
13.042528 -3.708576 71.933624 80 49 53
13.053297 -3.556445 71.993019 82 49 53
13.063582 -3.403933 72.049744 86 51 55
13.073319 -3.251039 72.103447 88 53 57
13.082448 -3.097770 72.153801 89 53 57
13.090914 -2.944134 72.200485 88 52 55
13.098665 -2.790146 72.243240 88 52 56
13.105663 -2.635821 72.281830 90 55 57
13.111874 -2.481181 72.316086 90 55 59
13.117272 -2.326249 72.345863 90 54 58
13.121849 -2.171053 72.371101 90 53 58
13.125597 -2.015621 72.391777 90 52 58
13.128527 -1.859984 72.407936 90 52 57
13.130654 -1.704173 72.419670 92 52 57
13.132006 -1.548220 72.427124 95 56 59
13.132616 -1.392156 72.430489 99 59 63
13.132526 -1.236012 72.429993 101 61 64
13.131786 -1.079816 72.425911 101 62 65
13.130449 -0.923597 72.418541 100 62 65
13.128576 -0.767377 72.408203 98 62 66
13.126228 -0.611180 72.395256 97 62 66
13.123472 -0.455025 72.380058 95 60 66
13.120375 -0.298927 72.362976 93 58 65
13.117004 -0.142900 72.344383 92 56 64
13.113427 0.013046 72.324654 91 55 63
13.109713 0.168906 72.304169 92 55 63
13.105924 0.324676 72.283272 95 57 64
13.102123 0.480355 72.262314 100 60 66
13.098367 0.635945 72.241592 105 63 69
13.094710 0.791453 72.221428 108 65 70
13.091202 0.946884 72.202072 108 65 71
13.087882 1.102248 72.183769 109 65 71
13.084790 1.257555 72.166710 109 66 73
13.081959 1.412816 72.151093 110 66 74
13.079412 1.568044 72.137047 110 67 75
13.077169 1.723252 72.124680 110 67 76
13.075250 1.878452 72.114098 110 68 76
13.073664 2.033659 72.105347 109 68 76
13.072417 2.188886 72.098473 106 67 74
13.071518 2.344144 72.093513 105 66 73
13.070967 2.499448 72.090469 104 66 72
13.070765 2.654810 72.089363 103 65 72
13.070913 2.810242 72.090179 102 63 70
13.071410 2.965757 72.092918 100 60 67
13.072256 3.121367 72.097580 100 57 65
13.073449 3.277084 72.104164 101 57 66
13.074989 3.432921 72.112656 104 58 69
13.076874 3.588889 72.123055 107 59 72
13.079102 3.745000 72.135338 109 60 75
13.081672 3.901265 72.149513 111 62 77
13.084579 4.057697 72.165543 112 63 79
13.087816 4.214304 72.183403 112 63 80
13.091377 4.371096 72.203041 112 63 80
13.095251 4.528081 72.224411 113 64 80
13.099422 4.685264 72.247406 114 66 81
13.103871 4.842650 72.271950 117 69 82
13.108576 5.000238 72.297897 121 71 83
13.113510 5.158029 72.325111 124 74 85
13.118639 5.316016 72.353401 127 75 86
13.123928 5.474192 72.382568 126 73 85
13.129338 5.632545 72.412407 122 69 81
13.134823 5.791060 72.442657 119 68 80
13.140335 5.949718 72.473061 118 70 83
13.145827 6.108497 72.503349 118 72 87
13.151247 6.267373 72.533249 119 77 92
13.156543 6.426317 72.562447 121 82 99
13.161662 6.585299 72.590683 124 87 105
13.166555 6.744286 72.617676 126 91 110
13.171174 6.903246 72.643150 128 95 114
13.175472 7.062144 72.666855 129 96 116
13.179406 7.220944 72.688553 129 96 115
13.182940 7.379614 72.708038 129 97 115
13.186036 7.538118 72.725113 131 97 116
13.188666 7.696424 72.739624 131 96 115
13.190806 7.854501 72.751427 131 96 114
13.192437 8.012319 72.760422 130 95 113
13.193542 8.169850 72.766518 126 93 109
13.194113 8.327070 72.769661 121 89 103
13.194141 8.483955 72.769821 116 86 98
13.193627 8.640486 72.766983 106 80 89
13.192573 8.796643 72.761162 91 67 75
13.190983 8.952414 72.752396 74 52 58
13.188868 9.107782 72.740730 63 42 46
13.186234 9.262737 72.726212 56 36 38
13.183101 9.417273 72.708931 52 32 33
13.179478 9.571377 72.688950 53 31 32
13.175382 9.725046 72.666351 56 34 35
13.170830 9.878277 72.641251 58 35 37
13.165841 10.031066 72.613731 60 35 37
13.160430 10.183409 72.583885 60 35 37
13.154616 10.335308 72.551826 61 35 37
13.148418 10.486762 72.517639 63 36 37
13.141853 10.637772 72.481430 65 37 39
13.134937 10.788337 72.443291 67 39 41
13.127688 10.938460 72.403313 69 40 42
13.120122 11.088142 72.361580 69 40 41
13.112253 11.237386 72.318184 69 40 42
13.104095 11.386190 72.273186 68 40 43
13.095656 11.534555 72.226646 67 39 43
13.086951 11.682480 72.178635 67 39 42
13.077988 11.829965 72.129196 67 39 42
13.068771 11.977004 72.078362 67 38 41
13.059306 12.123594 72.026161 67 37 41
13.049596 12.269729 71.972603 66 37 41
13.039640 12.415399 71.917694 67 37 41
12.854280 -8.143031 70.062393 70 44 48
12.862844 -7.997324 70.109070 69 43 48
12.871383 -7.851402 70.155617 70 44 49
12.879950 -7.705295 70.202309 71 44 49
12.888593 -7.559031 70.249413 72 45 49
12.897361 -7.412637 70.297203 75 46 51
12.906299 -7.266131 70.345924 78 49 53
12.915447 -7.119533 70.395782 81 50 55
12.924840 -6.972850 70.446983 82 51 55
12.934502 -6.826089 70.499641 82 51 55
12.944452 -6.679250 70.553879 82 51 55
12.954701 -6.532328 70.609741 81 50 54
12.965250 -6.385312 70.667236 80 49 52
12.976094 -6.238191 70.726349 79 48 50
12.987221 -6.090947 70.786987 78 48 49
12.998611 -5.943563 70.849075 77 48 49
13.010246 -5.796019 70.912491 78 48 49
13.022097 -5.648295 70.977081 77 48 49
13.034135 -5.500373 71.042694 76 48 48
13.046329 -5.352231 71.109154 76 47 47
13.058644 -5.203852 71.176285 75 45 47
13.071047 -5.055216 71.243881 75 45 47
13.083498 -4.906308 71.311752 76 45 48
13.095960 -4.757110 71.379669 78 45 49
13.108385 -4.607607 71.447403 80 48 52
13.120730 -4.457785 71.514687 82 51 55
13.132943 -4.307630 71.581253 83 52 57
13.144971 -4.157128 71.646805 83 52 57
13.156751 -4.006269 71.711014 83 52 57
13.168223 -3.855042 71.773544 82 51 55
13.179323 -3.703442 71.834045 81 49 53
13.189984 -3.551463 71.892159 82 49 54
13.200139 -3.399102 71.947502 83 50 54
13.209724 -3.246363 71.999748 85 51 54
13.218678 -3.093251 72.048553 86 52 55
13.226944 -2.939776 72.093605 86 51 55
13.234473 -2.785952 72.134636 86 52 55
13.241222 -2.631795 72.171432 88 54 57
13.247162 -2.477329 72.203804 89 55 58
13.252270 -2.322577 72.231644 89 53 57
13.256535 -2.167567 72.254890 88 52 57
13.259955 -2.012329 72.273529 89 51 57
13.262542 -1.856894 72.287628 89 51 56
13.264314 -1.701293 72.297287 91 52 57
13.265304 -1.545560 72.302681 95 54 59
13.265547 -1.389725 72.304008 99 57 63
13.265090 -1.233820 72.301521 101 60 65
13.263987 -1.077872 72.295502 100 61 65
13.262294 -0.921910 72.286278 99 61 65
13.260075 -0.765957 72.274178 98 62 65
13.257395 -0.610035 72.259575 96 61 65
13.254322 -0.454162 72.242828 95 60 65
13.250927 -0.298354 72.224327 93 58 64
13.247279 -0.142624 72.204445 90 55 63
13.243449 0.013021 72.183563 89 52 61
13.239502 0.168574 72.162048 89 52 60
13.235504 0.324033 72.140259 92 54 63
13.231518 0.479399 72.118530 99 59 67
13.227599 0.634674 72.097176 106 64 71
13.223802 0.789864 72.076477 108 66 73
13.220173 0.944978 72.056702 109 65 72
13.216754 1.100023 72.038063 109 65 73
13.213580 1.255011 72.020767 109 65 73
13.210684 1.409955 72.004974 109 66 74
13.208087 1.564866 71.990822 109 66 75
13.205811 1.719757 71.978416 110 66 76
13.203867 1.874642 71.967827 109 66 76
13.202270 2.029535 71.959114 108 67 76
13.201020 2.184448 71.952309 106 66 75
13.200126 2.339394 71.947426 105 65 74
13.199587 2.494387 71.944489 103 65 73
13.199403 2.649438 71.943489 102 64 72
13.199572 2.804560 71.944412 101 62 70
13.200094 2.959765 71.947258 100 60 67
13.200965 3.115064 71.952003 100 58 66
13.202183 3.270470 71.958641 102 57 68
13.203746 3.425995 71.967163 105 58 71
13.205651 3.581648 71.977547 109 60 75
13.207897 3.737443 71.989784 111 61 78
13.210477 3.893389 72.003845 112 62 80
13.213386 4.049497 72.019707 113 62 82
13.216620 4.205776 72.037338 113 62 83
13.220168 4.362235 72.056671 113 63 83
13.224019 4.518881 72.077660 113 63 82
13.228158 4.675719 72.100220 114 64 83
13.232565 4.832752 72.124245 117 67 85
13.237218 4.989982 72.149605 121 71 86
13.242090 5.147406 72.176155 125 74 88
13.247149 5.305019 72.203735 127 75 89
13.252361 5.462815 72.232140 126 74 87
13.257687 5.620781 72.261169 123 71 83
13.263082 5.778902 72.290573 120 70 81
13.268500 5.937161 72.320107 119 71 83
13.273896 6.095536 72.349518 118 73 86
13.279217 6.254004 72.378517 120 78 91
13.284413 6.412536 72.406837 122 83 97
13.289435 6.571104 72.434212 125 88 104
13.294231 6.729675 72.460358 127 93 110
13.298756 6.888218 72.485016 130 96 114
13.302959 7.046699 72.507927 132 98 117
13.306803 7.205082 72.528877 132 98 119
13.310246 7.363335 72.547646 132 98 119
13.313254 7.521423 72.564041 133 98 119
13.315797 7.679313 72.577896 133 97 118
13.317849 7.836974 72.589081 133 96 117
13.319388 7.994375 72.597473 132 95 114
13.320399 8.151489 72.602982 128 93 110
13.320870 8.308291 72.605553 123 90 104
13.320795 8.464756 72.605141 118 87 99
13.320170 8.620864 72.601738 110 82 91
13.318998 8.776597 72.595352 95 70 76
13.317284 8.931937 72.585999 78 55 59
13.315034 9.086874 72.573738 66 44 47
13.312262 9.241393 72.558624 59 38 39
13.308980 9.395489 72.540741 56 34 35
13.305203 9.549151 72.520157 55 33 34
13.300948 9.702377 72.496964 57 34 35
13.296235 9.855163 72.471275 58 35 36
13.291082 10.007506 72.443192 60 36 37
13.285510 10.159409 72.412819 61 36 38
13.279537 10.310868 72.380264 62 36 38
13.273184 10.461888 72.345634 64 37 39
13.266472 10.612472 72.309052 66 38 40
13.259418 10.762620 72.270607 67 39 41
13.252043 10.912338 72.230408 68 39 41
13.244362 11.061627 72.188538 68 39 41
13.236392 11.210492 72.145103 68 39 41
13.228148 11.358932 72.100166 68 39 42
13.219641 11.506951 72.053795 68 40 42
13.210882 11.654549 72.006058 68 40 42
13.201881 11.801723 71.957001 68 40 42
13.192644 11.948472 71.906654 67 39 42
13.183175 12.094790 71.855042 66 38 41
13.173475 12.240673 71.802170 66 37 41
12.989536 -8.133154 69.977417 71 45 48
12.998198 -7.987629 70.024078 70 44 48
13.006828 -7.841884 70.070564 71 44 49
13.015478 -7.695950 70.117165 73 45 50
13.024198 -7.549855 70.164139 74 46 51
13.033036 -7.403626 70.211761 77 47 52
13.042042 -7.257285 70.260269 79 48 53
13.051251 -7.110845 70.309883 81 49 54
13.060702 -6.964320 70.360802 82 50 54
13.070417 -6.817713 70.413139 82 50 54
13.080420 -6.671027 70.467018 82 49 54
13.090714 -6.524255 70.522484 81 49 53
13.101306 -6.377388 70.579536 81 49 52
13.112189 -6.230414 70.638168 81 49 51
13.123352 -6.083316 70.698311 81 50 51
13.134776 -5.936077 70.759850 81 50 51
13.146440 -5.788679 70.822685 80 50 51
13.158316 -5.641100 70.886665 80 50 50
13.170377 -5.493323 70.951637 79 50 50
13.182590 -5.345327 71.017433 79 49 49
13.194921 -5.197094 71.083862 78 47 49
13.207334 -5.048607 71.150734 78 47 49
13.219793 -4.899848 71.217857 79 46 49
13.232256 -4.750801 71.284996 80 47 50
13.244678 -4.601450 71.351921 82 48 52
13.257013 -4.451781 71.418365 83 50 55
13.269208 -4.301781 71.484062 84 52 57
13.281206 -4.151436 71.548706 84 52 57
13.292948 -4.000735 71.611954 83 52 56
13.304368 -3.849668 71.673477 82 51 54
13.315400 -3.698228 71.732910 81 49 53
13.325977 -3.546411 71.789894 81 49 52
13.336030 -3.394215 71.844048 81 49 52
13.345493 -3.241642 71.895027 83 50 53
13.354305 -3.088698 71.942505 84 51 54
13.362407 -2.935395 71.986145 85 52 55
13.369752 -2.781745 72.025711 86 52 55
13.376296 -2.627767 72.060966 87 54 56
13.382009 -2.473484 72.091751 87 54 57
13.386870 -2.318921 72.117943 87 53 56
13.390872 -2.164105 72.139496 87 52 56
13.394013 -2.009068 72.156418 87 51 56
13.396309 -1.853841 72.168785 89 51 57
13.397782 -1.698456 72.176720 90 52 58
13.398464 -1.542946 72.180397 93 53 59
13.398397 -1.387342 72.180038 97 55 62
13.397631 -1.231676 72.175903 98 57 63
13.396220 -1.075976 72.168312 98 58 63
13.394228 -0.920268 72.157578 98 59 64
13.391718 -0.764578 72.144051 97 61 64
13.388760 -0.608925 72.128113 96 61 65
13.385424 -0.453328 72.110146 95 60 65
13.381782 -0.297802 72.090523 93 58 64
13.377904 -0.142358 72.069633 90 54 63
13.373862 0.012996 72.047859 87 51 60
13.369724 0.168255 72.025566 86 48 57
13.365554 0.323417 72.003105 89 50 60
13.361415 0.478483 71.980804 97 57 66
13.357363 0.633457 71.958969 105 64 72
13.353449 0.788346 71.937889 108 66 73
13.349722 0.943156 71.917809 108 65 73
13.346220 1.097899 71.898949 109 65 74
13.342978 1.252584 71.881485 109 65 74
13.340028 1.407225 71.865585 109 64 74
13.337389 1.561834 71.851372 109 64 75
13.335082 1.716425 71.838943 109 64 76
13.333117 1.871009 71.828362 108 65 76
13.331508 2.025603 71.819687 107 65 76
13.330255 2.180217 71.812935 106 65 75
13.329362 2.334865 71.808128 104 64 74
13.328831 2.489560 71.805267 103 63 73
13.328660 2.644314 71.804344 102 62 71
13.328846 2.799139 71.805344 101 61 70
13.329385 2.954046 71.808250 100 59 68
13.330274 3.109048 71.813034 101 58 67
13.331510 3.264155 71.819695 103 58 68
13.333087 3.419379 71.828194 107 59 71
13.335004 3.574730 71.838524 110 60 76
13.337255 3.730219 71.850647 113 62 79
13.339832 3.885856 71.864532 114 62 82
13.342733 4.041650 71.880165 114 62 84
13.345948 4.197611 71.897476 115 62 85
13.349467 4.353745 71.916435 114 62 85
13.353276 4.510060 71.936958 114 62 84
13.357362 4.666559 71.958969 114 63 84
13.361703 4.823245 71.982353 116 66 86
13.366280 4.980120 72.007011 120 69 88
13.371062 5.137180 72.032776 124 72 89
13.376021 5.294422 72.059486 127 75 90
13.381123 5.451836 72.086975 126 74 89
13.386328 5.609413 72.115013 123 72 85
13.391595 5.767137 72.143394 120 71 82
13.396881 5.924991 72.171867 118 72 83
13.402139 6.082956 72.200195 118 74 85
13.407320 6.241007 72.228104 120 79 90
13.412375 6.399118 72.255341 123 84 96
13.417254 6.557261 72.281624 127 89 103
13.421910 6.715405 72.306709 130 93 109
13.426295 6.873519 72.330330 132 95 113
13.430365 7.031569 72.352249 133 97 117
13.434074 7.189521 72.372231 134 98 119
13.437387 7.347343 72.390083 133 97 119
13.440268 7.505001 72.405602 134 96 120
13.442685 7.662460 72.418625 134 96 120
13.444613 7.819692 72.429008 134 95 119
13.446029 7.976664 72.436630 132 94 115
13.446916 8.133349 72.441414 129 92 110
13.447261 8.289721 72.443275 125 90 105
13.447057 8.445757 72.442169 121 89 100
13.446300 8.601433 72.438095 115 85 92
13.444991 8.756733 72.431046 100 74 77
13.443134 8.911639 72.421043 82 58 60
13.440738 9.066138 72.408134 69 46 47
13.437814 9.220220 72.392380 62 39 40
13.434375 9.373874 72.373856 59 36 36
13.430437 9.527094 72.352638 57 34 34
13.426019 9.679876 72.328842 58 34 35
13.421140 9.832218 72.302551 59 35 36
13.415820 9.984119 72.273895 60 36 37
13.410083 10.135581 72.242989 61 37 38
13.403949 10.286605 72.209938 63 37 39
13.397439 10.437194 72.174873 65 38 40
13.390577 10.587354 72.137909 67 39 41
13.383384 10.737087 72.099152 68 40 42
13.375878 10.886400 72.058723 69 40 42
13.368081 11.035298 72.016716 69 39 41
13.360008 11.183784 71.973221 68 39 41
13.351674 11.331861 71.928329 68 40 41
13.343093 11.479531 71.882103 68 40 42
13.334276 11.626797 71.834602 69 41 42
13.325233 11.773658 71.785881 69 41 43
13.315969 11.920112 71.735977 68 40 43
13.306488 12.066153 71.684898 65 38 41
13.132921 -7.977773 69.937675 72 45 50
13.141625 -7.832199 69.984024 73 46 50
13.150344 -7.686432 70.030449 75 46 51
13.159124 -7.540502 70.077217 76 47 52
13.168021 -7.394435 70.124588 78 47 52
13.177078 -7.248252 70.172821 80 48 53
13.186336 -7.101969 70.222122 81 49 53
13.195829 -6.955598 70.272682 82 49 53
13.205585 -6.809144 70.324631 82 49 53
13.215620 -6.662607 70.378075 82 49 53
13.225947 -6.515984 70.433075 82 49 53
13.236567 -6.369264 70.489624 82 50 53
13.247477 -6.222436 70.547722 83 50 53
13.258662 -6.075484 70.607292 83 51 53
13.270105 -5.928391 70.668228 84 51 53
13.281787 -5.781138 70.730431 83 51 52
13.293679 -5.633708 70.793770 83 51 52
13.305754 -5.486078 70.858063 84 52 52
13.317979 -5.338233 70.923172 83 51 51
13.330320 -5.190151 70.988892 83 50 52
13.342744 -5.041818 71.055054 83 49 51
13.355210 -4.893215 71.121445 82 49 51
13.367679 -4.744326 71.187843 83 49 51
13.380104 -4.595136 71.254013 84 49 52
13.392438 -4.445631 71.319695 84 50 53
13.404625 -4.295795 71.384598 85 52 55
13.416610 -4.145617 71.448418 85 52 56
13.428329 -3.995085 71.510834 84 52 55
13.439718 -3.844189 71.571480 82 50 53
13.450707 -3.692922 71.629997 81 48 52
13.461227 -3.541280 71.686020 81 48 52
13.471208 -3.389260 71.739174 81 49 52
13.480582 -3.236865 71.789093 83 50 53
13.489286 -3.084102 71.835449 84 51 55
13.497265 -2.930982 71.877937 85 52 56
13.504466 -2.777518 71.916283 86 53 57
13.510849 -2.623731 71.950279 86 53 56
13.516383 -2.469641 71.979744 86 53 56
13.521049 -2.315276 72.004601 85 52 56
13.524840 -2.160664 72.024788 85 51 56
13.527760 -2.005836 72.040337 86 51 56
13.529821 -1.850823 72.051315 87 51 57
13.531053 -1.695659 72.057869 88 52 58
13.531488 -1.540376 72.060188 91 52 60
13.531173 -1.385007 72.058510 94 53 61
13.530158 -1.229581 72.053108 95 55 62
13.528504 -1.074127 72.044296 96 56 63
13.526273 -0.918672 72.032410 98 58 64
13.523532 -0.763240 72.017815 98 60 65
13.520354 -0.607851 72.000893 97 60 66
13.516810 -0.452523 71.982025 97 60 66
13.512975 -0.297269 71.961594 95 58 66
13.508919 -0.142102 71.939995 92 55 64
13.504712 0.012973 71.917595 88 51 60
13.500426 0.167950 71.894768 86 48 57
13.496124 0.322828 71.871864 88 50 59
13.491867 0.477608 71.849190 96 57 66
13.487711 0.632296 71.827057 103 62 71
13.483709 0.786898 71.805748 106 64 72
13.479905 0.941421 71.785484 107 64 73
13.476338 1.095876 71.766495 109 65 75
13.473045 1.250275 71.748955 109 64 75
13.470050 1.404629 71.733009 107 62 74
13.467378 1.558952 71.718773 107 62 74
13.465043 1.713256 71.706345 107 62 75
13.463061 1.867556 71.695793 107 63 76
13.461439 2.021865 71.687149 107 64 76
13.460180 2.176194 71.680450 106 64 76
13.459288 2.330559 71.675697 104 63 75
13.458760 2.484970 71.672890 103 62 73
13.458596 2.639440 71.672012 102 61 71
13.458792 2.793982 71.673050 101 59 70
13.459342 2.948605 71.675980 101 58 68
13.460241 3.103322 71.680771 102 57 67
13.461487 3.258143 71.687408 104 58 68
13.463070 3.413078 71.695839 107 58 71
13.464989 3.568139 71.706055 110 60 75
13.467233 3.723333 71.718002 113 61 78
13.469797 3.878671 71.731659 114 62 81
13.472675 4.034163 71.746986 116 63 84
13.475855 4.189813 71.763916 116 63 86
13.479327 4.345632 71.782410 116 64 86
13.483075 4.501622 71.802376 115 63 86
13.487086 4.657788 71.823730 115 63 85
13.491339 4.814134 71.846382 116 64 86
13.495811 4.970657 71.870193 119 67 88
13.500476 5.127357 71.895035 123 71 90
13.505303 5.284227 71.920746 126 74 91
13.510261 5.441261 71.947144 127 76 90
13.515311 5.598447 71.974037 124 75 87
13.520414 5.755771 72.001213 121 74 84
13.525527 5.913217 72.028442 119 74 84
13.530605 6.070764 72.055489 120 77 87
13.535603 6.228391 72.082100 122 81 91
13.540473 6.386073 72.108032 125 85 96
13.545165 6.543780 72.133026 129 90 103
13.549635 6.701485 72.156830 132 93 108
13.553835 6.859157 72.179192 134 95 113
13.557723 7.016763 72.199898 134 95 116
13.561255 7.174270 72.218712 134 96 118
13.564395 7.331646 72.235428 133 95 119
13.567106 7.488858 72.249863 134 95 120
13.569358 7.645874 72.261864 134 95 120
13.571124 7.802661 72.271263 134 95 119
13.572381 7.959190 72.277954 132 94 115
13.573112 8.115435 72.281845 129 92 110
13.573302 8.271366 72.282867 127 92 106
13.572944 8.426960 72.280952 126 93 103
13.572031 8.582196 72.276093 121 90 96
13.570565 8.737056 72.268288 106 78 81
13.568549 8.891521 72.257553 85 60 60
13.565991 9.045579 72.243935 71 46 46
13.562902 9.199217 72.227478 64 40 39
13.559297 9.352428 72.208282 61 37 36
13.555190 9.505205 72.186409 59 35 35
13.550602 9.657544 72.161972 59 35 35
13.545552 9.809444 72.135086 60 35 36
13.540064 9.960906 72.105858 61 35 37
13.534159 10.111930 72.074409 62 36 38
13.527861 10.262521 72.040871 64 38 40
13.521195 10.412683 72.005379 66 39 40
13.514184 10.562423 71.968040 67 39 41
13.506850 10.711745 71.928978 69 40 42
13.499215 10.860657 71.888321 70 40 42
13.491298 11.009164 71.846161 69 40 42
13.483120 11.157272 71.802612 69 40 41
13.474694 11.304986 71.757744 69 40 41
13.466038 11.452309 71.711639 69 41 42
13.457158 11.599242 71.664352 69 41 42
13.448068 11.745786 71.615944 69 42 43
13.275730 -7.822324 69.895798 76 47 52
13.284500 -7.676721 69.941971 77 47 52
13.293330 -7.530952 69.988457 78 48 52
13.302269 -7.385043 70.035522 79 48 53
13.311364 -7.239016 70.083412 80 48 53
13.320656 -7.092887 70.132332 81 48 53
13.330178 -6.946668 70.182465 81 48 53
13.339959 -6.800364 70.233963 81 48 53
13.350017 -6.653976 70.286911 81 49 53
13.360362 -6.507501 70.341377 82 50 53
13.370997 -6.360928 70.397377 83 50 54
13.381918 -6.214246 70.454865 84 51 54
13.393112 -6.067441 70.513809 86 52 54
13.404565 -5.920495 70.574104 86 52 53
13.416252 -5.773390 70.635635 86 51 52
13.428151 -5.626109 70.698280 86 52 53
13.440231 -5.478631 70.761887 87 53 54
13.452462 -5.330940 70.826279 88 53 54
13.464811 -5.183016 70.891296 88 53 55
13.477242 -5.034842 70.956749 88 53 54
13.489717 -4.886402 71.022423 86 51 53
13.502194 -4.737679 71.088120 86 50 51
13.514627 -4.588659 71.153580 85 50 52
13.526969 -4.439326 71.218552 85 50 52
13.539162 -4.289666 71.282745 86 52 54
13.551148 -4.139666 71.345856 86 52 55
13.562863 -3.989314 71.407532 85 51 54
13.574242 -3.838601 71.467438 83 50 53
13.585211 -3.687519 71.525192 82 49 53
13.595700 -3.536063 71.580421 83 49 53
13.605640 -3.384232 71.632751 84 50 54
13.614960 -3.232028 71.681816 85 52 56
13.623595 -3.079458 71.727287 85 53 57
13.631489 -2.926533 71.768845 86 53 58
13.638590 -2.773268 71.806229 86 54 58
13.644858 -2.619681 71.839233 86 54 58
13.650263 -2.465796 71.867691 85 53 57
13.654788 -2.311640 71.891510 85 53 57
13.658424 -2.157240 71.910660 85 52 57
13.661179 -2.002629 71.925156 85 51 58
13.663069 -1.847838 71.935104 85 51 58
13.664121 -1.692901 71.940643 86 50 59
13.664372 -1.537849 71.941978 89 51 60
13.663875 -1.382716 71.939354 91 52 61
13.662678 -1.227532 71.933052 93 52 61
13.660843 -1.072324 71.923393 95 55 62
13.658437 -0.917120 71.910721 97 57 65
13.655530 -0.761943 71.895416 98 59 66
13.652193 -0.606812 71.877853 98 60 67
13.648501 -0.451745 71.858414 99 61 68
13.644528 -0.296757 71.837502 98 60 69
13.640346 -0.141856 71.815475 95 57 67
13.636025 0.012950 71.792725 91 53 63
13.631636 0.167657 71.769615 88 51 60
13.627242 0.322264 71.746483 89 52 60
13.622904 0.476774 71.723648 94 56 65
13.618678 0.631190 71.701393 100 60 68
13.614614 0.785520 71.680000 103 61 70
13.610757 0.939771 71.659691 105 62 72
13.607146 1.093955 71.640678 107 63 74
13.603813 1.248082 71.623131 108 63 74
13.600787 1.402166 71.607201 106 61 73
13.598089 1.556218 71.592995 105 60 73
13.595735 1.710252 71.580597 106 61 75
13.593738 1.864282 71.570084 107 62 76
13.592103 2.018320 71.561485 106 62 76
13.590837 2.172380 71.554817 106 62 76
13.589942 2.326475 71.550102 105 62 74
13.589415 2.480617 71.547325 104 61 73
13.589252 2.634817 71.546471 104 61 71
13.589452 2.789088 71.547516 103 60 70
13.590005 2.943440 71.550438 103 59 70
13.590909 3.097885 71.555191 104 58 69
13.592155 3.252432 71.561752 106 57 69
13.593734 3.407091 71.570068 107 58 70
13.595643 3.561872 71.580116 109 59 72
13.597871 3.716784 71.591843 112 61 75
13.600410 3.871834 71.605217 114 62 78
13.603250 4.027031 71.620163 116 64 82
13.606379 4.182382 71.636642 118 65 85
13.609785 4.337893 71.654572 117 65 86
13.613454 4.493567 71.673889 116 64 86
13.617369 4.649408 71.694504 115 63 85
13.621508 4.805417 71.716293 115 63 85
13.625850 4.961595 71.739151 117 65 87
13.630367 5.117936 71.762939 121 69 88
13.635033 5.274437 71.787498 124 73 89
13.639812 5.431090 71.812668 126 77 90
13.644670 5.587884 71.838249 125 78 89
13.649571 5.744806 71.864044 123 78 87
13.654471 5.901838 71.889847 122 78 87
13.659328 6.058963 71.915421 122 80 89
13.664099 6.216159 71.940536 124 82 93
13.668737 6.373401 71.964958 127 86 98
13.673197 6.530663 71.988434 131 89 104
13.677435 6.687918 72.010742 134 92 109
13.681403 6.845135 72.031639 135 93 113
13.685063 7.002283 72.050911 135 93 115
13.688372 7.159331 72.068329 134 93 116
13.691293 7.316247 72.083710 133 93 116
13.693792 7.472999 72.096863 134 93 118
13.695837 7.629555 72.107635 134 94 119
13.697403 7.785885 72.115875 134 94 118
13.698464 7.941957 72.121460 133 94 115
13.699004 8.097747 72.124306 131 93 111
13.699008 8.253224 72.124329 131 94 108
13.698466 8.408367 72.121475 130 96 106
13.697373 8.563154 72.115723 124 93 99
13.695728 8.717565 72.107063 108 79 82
13.693536 8.871582 72.095512 87 60 62
13.690800 9.025192 72.081116 72 47 47
13.687533 9.178385 72.063911 66 42 41
13.683751 9.331150 72.043999 63 39 38
13.679468 9.483483 72.021446 60 36 36
13.674704 9.635381 71.996368 60 34 35
13.669480 9.786841 71.968864 61 34 36
13.663820 9.937865 71.939064 61 34 37
13.657748 10.088456 71.907097 62 36 37
13.651288 10.238618 71.873085 64 37 39
13.644465 10.388358 71.837166 66 38 41
13.637305 10.537683 71.799469 68 40 41
13.629832 10.686599 71.760124 70 41 42
13.622067 10.835113 71.719238 70 41 43
13.614034 10.983233 71.676941 70 41 43
13.605749 11.130968 71.633324 70 41 43
13.597232 11.278320 71.588486 70 41 43
13.588495 11.425295 71.542480 70 41 43
13.417925 -7.666809 69.851669 78 48 52
13.426789 -7.521198 69.897812 78 48 52
13.435759 -7.375445 69.944504 78 48 53
13.444879 -7.229573 69.991982 79 48 53
13.454191 -7.083597 70.040466 79 48 53
13.463731 -6.937529 70.090126 79 48 52
13.473525 -6.791375 70.141113 79 48 52
13.483591 -6.645135 70.193520 79 48 52
13.493941 -6.498806 70.247398 80 49 52
13.504580 -6.352381 70.302780 82 51 54
13.515500 -6.205846 70.359627 85 52 54
13.526692 -6.059188 70.417892 87 52 54
13.538141 -5.912391 70.477501 87 52 54
13.549826 -5.765437 70.538322 87 52 53
13.561721 -5.618308 70.600250 88 52 53
13.573799 -5.470985 70.663132 89 53 54
13.586031 -5.323452 70.726807 90 53 55
13.598383 -5.175690 70.791107 91 55 56
13.610819 -5.027682 70.855850 91 55 57
13.623303 -4.879413 70.920837 89 53 55
13.635792 -4.730864 70.985847 87 51 52
13.648240 -4.582021 71.050652 86 50 51
13.660596 -4.432870 71.114975 86 51 52
13.672806 -4.283395 71.178535 87 52 53
13.684808 -4.133583 71.241020 86 52 53
13.696536 -3.983423 71.302078 85 51 54
13.707923 -3.832903 71.361359 84 51 53
13.718897 -3.682018 71.418488 84 50 54
13.729384 -3.530760 71.473076 85 50 55
13.739311 -3.379130 71.524757 87 52 57
13.748610 -3.227129 71.573166 89 54 60
13.757213 -3.074764 71.617950 88 55 60
13.765063 -2.922047 71.658821 88 55 60
13.772108 -2.768991 71.695496 88 55 60
13.778310 -2.615617 71.727776 87 56 60
13.783637 -2.461947 71.755508 86 55 59
13.788073 -2.308009 71.778603 85 55 59
13.791612 -2.153831 71.797028 84 54 59
13.794261 -1.999445 71.810814 84 52 59
13.796039 -1.844883 71.820068 84 50 59
13.796976 -1.690178 71.824951 84 49 59
13.797112 -1.535363 71.825653 87 50 60
13.796495 -1.380469 71.822449 89 51 60
13.795181 -1.225528 71.815605 91 51 60
13.793235 -1.070566 71.805473 94 53 63
13.790720 -0.915611 71.792381 97 56 66
13.787710 -0.760685 71.776718 99 58 68
13.784278 -0.605807 71.758850 100 60 69
13.780499 -0.450996 71.739174 101 62 71
13.776444 -0.296263 71.718071 102 62 72
13.772191 -0.141619 71.695923 99 60 70
13.767805 0.012929 71.673096 94 56 65
13.763359 0.167378 71.649948 91 54 62
13.758916 0.321727 71.626816 92 54 62
13.754534 0.475979 71.604004 94 56 64
13.750270 0.630137 71.581802 98 58 66
13.746173 0.784210 71.560478 101 60 68
13.742287 0.938205 71.540245 103 60 70
13.738651 1.092132 71.521317 104 60 72
13.735296 1.246004 71.503853 104 60 72
13.732250 1.399832 71.487999 104 59 72
13.729535 1.553628 71.473869 104 58 72
13.727166 1.707407 71.461533 105 59 74
13.725157 1.861182 71.451073 106 60 75
13.723515 2.014965 71.442520 106 60 76
13.722240 2.168770 71.435890 107 61 76
13.721340 2.322609 71.431198 107 61 75
13.720808 2.476495 71.428429 107 61 74
13.720644 2.630439 71.427574 107 61 73
13.720840 2.784452 71.428596 106 61 72
13.721391 2.938546 71.431465 105 60 71
13.722290 3.092731 71.436150 106 59 70
13.723527 3.247016 71.442589 106 58 69
13.725095 3.401411 71.450745 107 57 69
13.726983 3.555923 71.460579 109 59 71
13.729182 3.710563 71.472031 112 61 73
13.731682 3.865336 71.485039 114 63 76
13.734469 4.020250 71.499550 116 65 80
13.737532 4.175309 71.515495 118 67 83
13.740856 4.330520 71.532799 117 66 85
13.744425 4.485886 71.551376 114 65 84
13.748220 4.641408 71.571136 113 63 83
13.752223 4.797087 71.591972 113 62 84
13.756408 4.952922 71.613762 115 64 85
13.760751 5.108910 71.636368 117 67 86
13.765222 5.265043 71.659637 121 71 88
13.769790 5.421316 71.683426 125 76 90
13.774422 5.577717 71.707535 126 80 90
13.779080 5.734233 71.731789 125 80 89
13.783729 5.890849 71.755981 124 80 89
13.788321 6.047545 71.779900 125 82 91
13.792822 6.204303 71.803329 127 83 95
13.797184 6.361098 71.826035 130 86 100
13.801364 6.517905 71.847794 133 89 105
13.805323 6.674698 71.868401 136 91 110
13.809013 6.831448 71.887611 136 91 113
13.812399 6.988126 71.905235 136 91 114
13.815437 7.144701 71.921059 133 89 114
13.818094 7.301143 71.934891 131 89 114
13.820336 7.457420 71.946564 131 90 115
13.822133 7.613502 71.955917 132 91 117
13.823457 7.769359 71.962807 132 93 116
13.824285 7.924961 71.967117 133 94 114
13.824600 8.080282 71.968758 133 95 113
13.824385 8.235294 71.967636 134 97 111
13.823630 8.389975 71.963707 133 98 108
13.822330 8.544300 71.956947 124 92 99
13.820484 8.698254 71.947334 107 78 81
13.818094 8.851816 71.934891 87 60 62
13.815166 9.004975 71.919640 73 48 48
13.811710 9.157719 71.901657 67 43 43
13.807741 9.310038 71.880989 64 39 40
13.803273 9.461926 71.857735 61 36 37
13.798328 9.613382 71.831993 60 34 36
13.792929 9.764405 71.803879 61 33 36
13.787096 9.914996 71.773521 61 34 36
13.780857 10.065158 71.741035 62 35 37
13.774236 10.214898 71.706573 64 37 39
13.767260 10.364221 71.670250 66 38 41
13.759953 10.513136 71.632217 68 40 42
13.752344 10.661652 71.592606 70 41 43
13.744452 10.809774 71.551521 71 41 44
13.736304 10.957515 71.509102 70 41 44
13.727916 11.104879 71.465431 70 41 44
13.719306 11.251873 71.420616 71 42 44
13.559503 -7.511248 69.805344 77 48 52
13.568490 -7.365650 69.851608 76 48 52
13.577624 -7.219931 69.898636 76 48 52
13.586947 -7.074107 69.946625 76 47 52
13.596492 -6.928189 69.995766 77 47 51
13.606288 -6.782184 70.046196 77 47 51
13.616351 -6.636093 70.098000 77 48 51
13.626696 -6.489912 70.151260 79 49 52
13.637324 -6.343634 70.205971 81 50 53
13.648233 -6.197247 70.262131 84 51 54
13.659413 -6.050737 70.319687 86 52 54
13.670850 -5.904091 70.378563 88 52 54
13.682520 -5.757289 70.438644 88 52 54
13.694404 -5.610316 70.499825 89 52 54
13.706474 -5.463153 70.561958 90 51 54
13.718699 -5.315782 70.624901 91 52 55
13.731050 -5.168187 70.688484 92 53 56
13.743490 -5.020351 70.752525 92 54 57
13.755983 -4.872257 70.816841 91 53 55
13.768486 -4.723890 70.881203 89 52 53
13.780952 -4.575233 70.945381 88 52 52
13.793332 -4.426271 71.009109 87 52 52
13.805567 -4.276989 71.072098 87 52 52
13.817597 -4.127376 71.134033 86 51 53
13.829356 -3.977416 71.194565 85 51 54
13.840772 -3.827101 71.253334 84 51 54
13.851771 -3.676423 71.309967 85 51 55
13.862281 -3.525375 71.364067 86 52 56
13.872225 -3.373957 71.415260 90 54 60
13.881534 -3.222170 71.463181 93 57 64
13.890141 -3.070022 71.507492 92 57 64
13.897986 -2.917523 71.547882 91 56 63
13.905019 -2.764688 71.584084 90 56 63
13.911199 -2.611537 71.615898 89 57 63
13.916497 -2.458093 71.643173 88 57 62
13.920897 -2.304383 71.665825 86 56 62
13.924395 -2.150436 71.683838 85 55 61
13.926997 -1.996283 71.697235 84 53 61
13.928726 -1.841956 71.706131 83 50 59
13.929611 -1.687489 71.710686 83 49 58
13.929694 -1.532914 71.711113 85 49 58
13.929026 -1.378263 71.707672 87 50 59
13.927663 -1.223566 71.700653 90 50 60
13.925669 -1.068850 71.690392 93 53 63
13.923112 -0.914142 71.677231 97 56 66
13.920062 -0.759464 71.661530 99 58 69
13.916597 -0.604835 71.643692 101 60 71
13.912789 -0.450272 71.624084 103 62 73
13.908711 -0.295788 71.603096 104 63 74
13.904438 -0.141393 71.581093 102 62 73
13.900040 0.012908 71.558449 99 59 69
13.895582 0.167110 71.535500 96 57 65
13.891129 0.321214 71.512581 95 57 64
13.886743 0.475221 71.489998 95 57 64
13.882473 0.629136 71.468018 97 59 65
13.878371 0.782965 71.446899 99 59 67
13.874481 0.936718 71.426872 101 59 68
13.870840 1.090404 71.408127 100 57 68
13.867480 1.244034 71.390831 100 56 68
13.864428 1.397621 71.375122 101 55 69
13.861706 1.551177 71.361107 102 55 70
13.859329 1.704716 71.348877 103 56 72
13.857312 1.858249 71.338486 104 57 73
13.855661 2.011791 71.329987 106 58 75
13.854382 2.165354 71.323402 107 60 76
13.853473 2.318952 71.318718 108 61 75
13.852935 2.472595 71.315956 109 61 75
13.852763 2.626296 71.315071 109 62 74
13.852952 2.780065 71.316040 108 62 72
13.853494 2.933913 71.318832 107 61 71
13.854381 3.087850 71.323395 107 60 70
13.855601 3.241884 71.329681 107 59 69
13.857146 3.396026 71.337639 108 59 69
13.859005 3.550282 71.347206 110 60 71
13.861165 3.704660 71.358322 113 62 73
13.863611 3.859165 71.370918 114 64 76
13.866331 4.013804 71.384918 116 66 78
13.869312 4.168582 71.400261 117 68 81
13.872535 4.323501 71.416855 115 67 82
13.875983 4.478565 71.434608 113 64 82
13.879640 4.633774 71.453430 112 63 82
13.883479 4.789129 71.473198 111 62 83
13.887482 4.944626 71.493805 113 64 84
13.891620 5.100262 71.515106 116 68 85
13.895867 5.256031 71.536972 120 71 87
13.900190 5.411923 71.559227 123 76 89
13.904561 5.567931 71.581726 125 79 89
13.908940 5.724039 71.604271 125 80 89
13.913294 5.880234 71.626686 125 81 90
13.917583 6.036498 71.648766 126 83 92
13.921770 6.192811 71.670319 129 84 96
13.925811 6.349150 71.691124 131 86 101
13.929667 6.505493 71.710976 134 88 106
13.933299 6.661814 71.729675 136 90 110
13.936666 6.818086 71.747002 136 90 113
13.939729 6.974281 71.762772 135 89 114
13.942452 7.130370 71.776794 131 86 112
13.944800 7.286324 71.788879 127 84 109
13.946741 7.442112 71.798874 127 85 110
13.948246 7.597706 71.806625 129 88 113
13.949288 7.753076 71.811989 132 91 114
13.949845 7.908194 71.814857 132 93 113
13.949899 8.063033 71.815132 133 94 111
13.949433 8.217568 71.812737 134 97 111
13.948438 8.371775 71.807610 132 96 108
13.946906 8.525632 71.799721 124 90 98
13.944837 8.679119 71.789070 107 77 81
13.942229 8.832221 71.775650 88 62 63
13.939092 8.984922 71.759491 75 51 51
13.935433 9.137214 71.740662 68 45 45
13.931268 9.289084 71.719215 64 40 41
13.926610 9.440530 71.695236 61 36 38
13.921482 9.591547 71.668839 60 34 36
13.915903 9.742135 71.640114 60 33 36
13.909900 9.892298 71.609207 60 34 37
13.903495 10.042037 71.576241 62 35 38
13.896716 10.191360 71.541344 64 36 39
13.889591 10.340275 71.504662 66 38 41
13.882145 10.488789 71.466324 68 40 43
13.874402 10.636910 71.426468 69 40 43
13.866390 10.784651 71.385223 70 40 43
13.858130 10.932017 71.342697 70 41 44
13.691491 -7.501118 69.711205 75 48 51
13.700486 -7.355674 69.757004 73 47 51
13.709624 -7.210107 69.803535 73 47 51
13.718947 -7.064435 69.850998 74 47 51
13.728488 -6.918668 69.899582 75 47 51
13.738274 -6.772812 69.949402 76 48 51
13.748326 -6.626871 70.000587 77 48 51
13.758655 -6.480838 70.053177 79 49 52
13.769263 -6.334708 70.107193 80 49 52
13.780152 -6.188470 70.162628 83 50 52
13.791309 -6.042111 70.219437 85 50 53
13.802722 -5.895617 70.277550 87 50 53
13.814372 -5.748970 70.336861 88 50 54
13.826237 -5.602155 70.397270 88 50 53
13.838290 -5.455153 70.458641 89 50 53
13.850506 -5.307950 70.520844 91 51 55
13.862851 -5.160526 70.583694 93 53 56
13.875293 -5.012866 70.647049 93 53 56
13.887794 -4.864954 70.710693 91 53 55
13.900312 -4.716774 70.774437 91 53 54
13.912801 -4.568309 70.838020 90 54 54
13.925210 -4.419544 70.901199 89 53 53
13.937480 -4.270465 70.963676 87 53 53
13.949550 -4.121057 71.025131 87 52 53
13.961351 -3.971308 71.085220 86 51 54
13.972813 -3.821206 71.143578 86 51 56
13.983859 -3.670744 71.199821 86 51 57
13.994413 -3.519916 71.253555 88 53 58
14.004400 -3.368720 71.304405 92 56 62
14.013750 -3.217158 71.352013 95 59 66
14.022393 -3.065236 71.396019 95 60 67
14.030272 -2.912966 71.436134 94 59 66
14.037332 -2.760362 71.472084 93 58 65
14.043534 -2.607445 71.503662 91 58 65
14.048853 -2.454236 71.530739 90 57 64
14.053267 -2.300762 71.553215 88 57 65
14.056778 -2.147054 71.571091 87 57 64
14.059390 -1.993141 71.584389 85 54 62
14.061128 -1.839056 71.593239 83 51 59
14.062021 -1.684833 71.597786 83 50 57
14.062115 -1.530502 71.598267 84 49 58
14.061458 -1.376096 71.594917 86 49 58
14.060108 -1.221644 71.588051 89 50 60
14.058131 -1.067175 71.577980 93 53 63
14.055594 -0.912712 71.565063 96 56 66
14.052570 -0.758278 71.549667 99 58 69
14.049131 -0.603894 71.532158 102 60 71
14.045353 -0.449573 71.512917 104 63 74
14.041306 -0.295331 71.492317 105 64 75
14.037067 -0.141175 71.470734 105 64 74
14.032701 0.012888 71.448502 103 62 71
14.028277 0.166854 71.425980 100 60 67
14.023858 0.320724 71.403473 98 58 65
14.019501 0.474498 71.381287 97 59 64
14.015259 0.628182 71.359688 98 59 65
14.011180 0.781782 71.338928 100 60 67
14.007310 0.935306 71.319221 100 59 67
14.003684 1.088764 71.300758 97 55 65
14.000335 1.242168 71.283707 96 53 65
13.997290 1.395528 71.268204 98 53 67
13.994571 1.548857 71.254364 100 54 68
13.992195 1.702168 71.242264 101 54 70
13.990176 1.855475 71.231987 103 56 72
13.988520 2.008789 71.223549 105 57 74
13.987234 2.162124 71.217003 108 59 75
13.986318 2.315493 71.212334 110 60 76
13.985771 2.468906 71.209557 110 62 76
13.985589 2.622375 71.208626 110 62 75
13.985765 2.775912 71.209526 110 62 73
13.986292 2.929526 71.212204 109 62 71
13.987161 3.083227 71.216629 108 61 70
13.988357 3.237023 71.222717 109 61 69
13.989870 3.390922 71.230423 110 61 70
13.991688 3.544931 71.239677 112 63 71
13.993795 3.699057 71.250412 114 64 73
13.996176 3.853304 71.262527 115 66 75
13.998815 4.007678 71.275970 116 68 78
14.001697 4.162182 71.290642 116 69 80
14.004801 4.316817 71.306442 114 68 81
14.008110 4.471586 71.323296 112 65 80
14.011602 4.626488 71.341080 111 64 81
14.015259 4.781523 71.359688 111 63 82
14.019052 4.936686 71.379005 113 66 84
14.022958 5.091973 71.398888 117 69 86
14.026949 5.247378 71.419212 120 73 88
14.030995 5.402893 71.439819 122 76 89
14.035069 5.558506 71.460556 124 78 89
14.039133 5.714205 71.481247 125 80 90
14.043155 5.869976 71.501724 126 82 91
14.047100 6.025802 71.521812 127 83 94
14.050930 6.181664 71.541313 130 84 97
14.054607 6.337541 71.560036 132 86 102
14.058095 6.493411 71.577797 134 88 107
14.061356 6.649250 71.594398 136 89 110
14.064352 6.805033 71.609650 136 89 113
14.067048 6.960734 71.623383 134 87 112
14.069410 7.116325 71.635414 129 84 110
14.071405 7.271777 71.645569 125 80 107
14.073002 7.427064 71.653694 124 81 106
14.074175 7.582157 71.659668 127 85 109
14.074895 7.737027 71.663338 131 90 112
14.075144 7.891648 71.664604 131 91 111
14.074903 8.045995 71.663376 131 92 109
14.074154 8.200041 71.659561 133 95 109
14.072889 8.353765 71.653122 131 95 106
14.071100 8.507143 71.644012 122 89 97
14.068785 8.660157 71.632225 107 77 83
14.065944 8.812793 71.617760 89 63 67
14.062584 8.965034 71.600647 76 52 55
14.058712 9.116870 71.580940 69 46 48
14.054341 9.268292 71.558685 63 41 42
14.049489 9.419295 71.533981 59 36 38
14.044173 9.569877 71.506912 58 33 36
14.038417 9.720036 71.477608 58 33 36
14.032244 9.869775 71.446175 59 33 36
14.025678 10.019099 71.412743 61 34 38
14.018747 10.168015 71.377457 64 36 39
14.011479 10.316528 71.340446 66 38 42
14.003900 10.464650 71.301857 68 39 43
13.996034 10.612389 71.261810 69 39 42
13.831785 -7.345545 69.660942 71 47 51
13.840919 -7.200130 69.706947 71 46 51
13.850232 -7.054610 69.753853 72 47 51
13.859760 -6.908994 69.801834 74 48 52
13.869530 -6.763288 69.851036 76 48 51
13.879560 -6.617495 69.901550 77 48 51
13.889864 -6.471612 69.953445 78 48 51
13.900446 -6.325632 70.006744 80 48 51
13.911304 -6.179544 70.061432 81 48 51
13.922431 -6.033337 70.117462 84 48 52
13.933813 -5.886996 70.174789 85 48 52
13.945434 -5.740506 70.233315 86 48 52
13.957272 -5.593852 70.292931 86 48 52
13.969304 -5.447015 70.353531 88 49 52
13.981504 -5.299982 70.414978 91 51 56
13.993841 -5.152733 70.477104 94 54 58
14.006282 -5.005254 70.539764 93 54 57
14.018789 -4.857528 70.602753 91 53 55
14.031324 -4.709540 70.665886 92 54 55
14.043839 -4.561273 70.728912 92 56 56
14.056281 -4.412711 70.791573 90 54 55
14.068593 -4.263840 70.853584 87 53 54
14.080713 -4.114645 70.914619 88 53 55
14.092568 -3.965112 70.974327 88 53 57
14.104090 -3.815232 71.032349 88 53 59
14.115198 -3.664995 71.088295 87 52 58
14.125819 -3.514395 71.141785 89 53 60
14.135875 -3.363430 71.192429 93 57 64
14.145291 -3.212101 71.239853 97 61 69
14.154002 -3.060415 71.283722 98 62 69
14.161945 -2.908383 71.323730 96 61 67
14.169070 -2.756019 71.359612 94 59 65
14.175338 -2.603343 71.391182 92 58 65
14.180718 -2.450377 71.418274 91 58 65
14.185196 -2.297148 71.440826 90 58 66
14.188767 -2.143686 71.458817 89 57 65
14.191444 -1.990020 71.472298 86 54 62
14.193246 -1.836183 71.481369 83 51 58
14.194207 -1.682207 71.486206 83 50 57
14.194368 -1.528124 71.487022 84 49 57
14.193784 -1.373966 71.484077 85 49 57
14.192508 -1.219760 71.477654 88 50 59
14.190608 -1.065536 71.468086 92 53 63
14.188150 -0.911317 71.455704 96 56 66
14.185208 -0.757126 71.440887 100 59 69
14.181852 -0.602980 71.423988 102 61 71
14.178159 -0.448897 71.405388 105 63 74
14.174197 -0.294889 71.385429 106 65 75
14.170038 -0.140965 71.364487 107 66 75
14.165752 0.012869 71.342903 106 65 73
14.161405 0.166609 71.321007 102 61 68
14.157056 0.320255 71.299103 99 58 65
14.152762 0.473808 71.277481 99 59 64
14.148579 0.627273 71.256409 99 60 65
14.144553 0.780655 71.236137 100 60 66
14.140725 0.933964 71.216858 99 59 66
14.137135 1.087207 71.198776 96 56 64
14.133813 1.240396 71.182045 95 53 63
14.130790 1.393543 71.166824 96 53 64
14.128085 1.546658 71.153198 98 53 66
14.125719 1.699756 71.141281 99 53 68
14.123701 1.852848 71.131119 102 55 70
14.122046 2.005947 71.122780 105 56 73
14.120755 2.159067 71.116280 108 58 74
14.119831 2.312218 71.111633 110 60 76
14.119274 2.465413 71.108826 111 62 76
14.119079 2.618664 71.107841 112 63 75
14.119240 2.771980 71.108650 111 63 74
14.119746 2.925371 71.111206 110 63 72
14.120588 3.078847 71.115448 110 62 70
14.121753 3.232414 71.121307 110 62 70
14.123226 3.386081 71.128731 111 63 71
14.124993 3.539853 71.137627 113 65 72
14.127037 3.693736 71.147919 114 66 74
14.129339 3.847734 71.159515 116 67 76
14.131883 4.001851 71.172325 116 69 78
14.134648 4.156087 71.186249 116 69 79
14.137617 4.310446 71.201202 114 68 80
14.140766 4.464926 71.217064 113 66 80
14.144075 4.619527 71.233734 112 64 80
14.147522 4.774246 71.251091 111 64 81
14.151081 4.929079 71.269012 114 66 84
14.154727 5.084020 71.287376 118 70 87
14.158433 5.239063 71.306038 121 74 90
14.162171 5.394199 71.324867 123 77 90
14.165914 5.549417 71.343712 125 78 90
14.169626 5.704705 71.362411 126 80 91
14.173281 5.860049 71.380821 126 81 92
14.176842 6.015433 71.398750 127 82 95
14.180275 6.170839 71.416039 129 83 97
14.183547 6.326247 71.432526 132 85 101
14.186623 6.481637 71.448013 134 87 106
14.189470 6.636987 71.462349 136 88 109
14.192054 6.792272 71.475365 136 88 112
14.194339 6.947467 71.486877 134 88 112
14.196298 7.102549 71.496735 130 85 109
14.197897 7.257489 71.504791 126 82 107
14.199110 7.412262 71.510902 124 81 105
14.199910 7.566843 71.514931 126 84 107
14.200273 7.721201 71.516754 130 88 109
14.200178 7.875316 71.516281 131 90 109
14.199610 8.029159 71.513420 131 91 107
