ply
format ascii 1.0
element vertex 1237
property float x
property float y
property float z
property uchar red
property uchar green
property uchar blue
end_header
-4.838467 -4.379518 53.582035 40 23 21
-4.839181 -4.264643 53.589951 39 22 21
-4.840268 -4.150052 53.601982 38 22 22
-4.841730 -4.035723 53.618176 38 23 22
-4.843565 -3.921627 53.638504 38 23 22
-4.845766 -3.807729 53.662865 39 23 22
-4.848310 -3.693988 53.691040 40 23 21
-4.851172 -3.580361 53.722744 42 23 21
-4.854320 -3.466801 53.757595 43 23 22
-4.857708 -3.353256 53.795120 45 22 22
-4.861291 -3.239680 53.834801 46 23 23
-4.865016 -3.126024 53.876049 46 23 23
-4.868826 -3.012243 53.918247 46 23 23
-4.872665 -2.898297 53.960758 46 24 23
-4.876474 -2.784150 54.002945 44 24 22
-4.880199 -2.669776 54.044193 44 24 23
-4.883789 -2.555153 54.083950 44 24 24
-4.887198 -2.440269 54.121704 45 25 24
-4.890390 -2.325118 54.157043 46 26 25
-4.893333 -2.209702 54.189640 47 27 25
-4.896009 -2.094032 54.219273 48 28 26
-4.898406 -1.978122 54.245811 48 28 26
-4.900521 -1.861990 54.269241 49 28 27
-4.902363 -1.745659 54.289639 49 28 27
-4.903947 -1.629156 54.307178 48 27 27
-4.905295 -1.512503 54.322105 48 27 28
-4.906434 -1.395727 54.334713 49 26 28
-4.907394 -1.278850 54.345348 50 26 28
-4.908210 -1.161893 54.354393 52 26 29
-4.908916 -1.044873 54.362206 53 27 29
-4.909544 -0.927805 54.369160 55 27 29
-4.910125 -0.810700 54.375591 57 28 30
-4.910687 -0.693564 54.381821 58 29 30
-4.911254 -0.576401 54.388103 59 29 30
-4.911846 -0.459214 54.394653 59 29 30
-4.912477 -0.342002 54.401646 59 29 29
-4.913158 -0.224761 54.409191 60 29 29
-4.913896 -0.107489 54.417351 62 30 29
-4.914690 0.009818 54.426155 63 30 30
-4.915543 0.127164 54.435589 65 31 31
-4.916448 0.244554 54.445618 68 31 32
-4.917401 0.361990 54.456169 70 31 33
-4.918394 0.479476 54.467163 73 32 34
-4.919418 0.597014 54.478504 75 32 35
-4.920465 0.714603 54.490101 77 33 36
-4.921526 0.832245 54.501858 79 34 36
-4.922595 0.949938 54.513683 79 35 35
-4.923662 1.067683 54.525501 79 36 35
-4.924721 1.185477 54.537231 80 36 35
-4.925766 1.303317 54.548809 79 37 35
-4.926793 1.421202 54.560177 79 37 35
-4.927796 1.539129 54.571289 79 37 36
-4.928771 1.657094 54.582088 80 37 37
-4.929715 1.775094 54.592541 82 38 38
-4.930625 1.893127 54.602615 83 38 39
-4.931497 2.011187 54.612270 86 39 41
-4.932328 2.129272 54.621475 87 40 42
-4.933116 2.247376 54.630203 89 41 43
-4.933858 2.365496 54.638416 90 43 45
-4.934552 2.483627 54.646099 91 44 47
-4.935195 2.601765 54.653221 93 45 48
-4.935786 2.719905 54.659767 94 46 49
-4.936326 2.838043 54.665745 95 47 49
-4.936813 2.956176 54.671146 95 47 49
-4.937253 3.074302 54.676014 95 47 49
-4.937646 3.192420 54.680370 97 48 50
-4.938001 3.310529 54.684292 98 49 50
-4.938323 3.428634 54.687866 98 49 51
-4.938623 3.546738 54.691185 99 48 51
-4.938913 3.664849 54.694397 99 48 52
-4.939207 3.782977 54.697647 99 49 52
-4.939520 3.901134 54.701126 100 49 52
-4.939871 4.019337 54.705013 100 49 52
-4.940279 4.137604 54.709530 100 48 52
-4.940764 4.255958 54.714901 99 47 52
-4.941347 4.374420 54.721352 98 46 51
-4.942049 4.493019 54.729122 96 44 49
-4.942890 4.611782 54.738438 96 42 47
-4.943892 4.730737 54.749531 95 41 46
-4.945073 4.849918 54.762615 96 41 44
-4.946452 4.969353 54.777889 97 43 45
-4.948047 5.089076 54.795544 99 45 48
-4.949870 5.209115 54.815735 100 45 49
-4.951935 5.329502 54.838600 99 45 49
-4.954252 5.450264 54.864265 97 44 48
-4.956830 5.571431 54.892815 96 43 47
-4.959674 5.693026 54.924305 95 41 46
-4.962788 5.815073 54.958790 95 40 45
-4.966172 5.937591 54.996265 96 40 46
-4.969826 6.060601 55.036736 97 40 47
-4.973749 6.184119 55.080173 98 41 48
-4.977932 6.308155 55.126511 98 41 48
-4.982373 6.432723 55.175682 97 42 48
-4.987061 6.557826 55.227589 96 42 48
-4.991984 6.683470 55.282116 94 43 48
-4.997131 6.809654 55.339115 93 43 49
-5.002488 6.936373 55.398434 91 43 49
-5.008035 7.063618 55.459866 90 43 49
-5.013753 7.191372 55.523190 88 42 48
-5.019619 7.319615 55.588150 86 41 47
-5.025606 7.448318 55.654453 85 40 45
-5.031685 7.577445 55.721771 85 39 43
-5.037823 7.706953 55.789749 84 39 42
-5.043986 7.836791 55.857990 83 39 41
-5.050133 7.966901 55.926075 82 39 40
-5.056226 8.097216 55.993546 80 39 39
-5.062223 8.227666 56.059956 77 39 38
-5.068082 8.358174 56.124840 76 38 38
-5.073761 8.488663 56.187733 75 37 37
-5.079222 8.619051 56.248207 74 37 37
-5.084427 8.749260 56.305851 74 36 37
-5.089345 8.879216 56.360310 73 36 37
-5.093948 9.008850 56.411282 73 35 35
-5.098215 9.138102 56.458534 73 35 35
-5.102132 9.266923 56.501915 72 34 35
-5.105691 9.395270 56.541328 72 34 35
-5.108893 9.523124 56.576786 71 34 34
-5.111744 9.650466 56.608356 69 33 33
-5.114257 9.777299 56.636185 68 33 32
-5.116449 9.903630 56.660461 67 31 31
-5.118345 10.029487 56.681458 67 30 31
-5.119969 10.154895 56.699448 68 30 31
-5.121351 10.279892 56.714748 68 31 31
-5.122518 10.404521 56.727673 70 32 32
-5.123498 10.528821 56.738529 71 33 33
-5.124319 10.652835 56.747612 70 34 34
-5.125002 10.776602 56.755184 69 33 34
-5.125572 10.900159 56.761497 68 32 34
-5.126044 11.023533 56.766724 67 31 34
-5.126434 11.146749 56.771034 68 31 34
-5.126751 11.269826 56.774548 69 32 34
-5.127003 11.392773 56.777336 70 32 34
-5.127195 11.515598 56.779472 71 33 35
-5.127331 11.638303 56.780972 76 37 39
-5.127410 11.760886 56.781853 79 38 41
-5.127435 11.883346 56.782124 77 36 38
-5.127405 12.005678 56.781792 76 33 36
-5.127322 12.127884 56.780872 76 32 35
-5.127185 12.249958 56.779358 76 33 33
-5.127000 12.371908 56.777306 75 33 33
-5.126770 12.493742 56.774765 74 33 33
-5.126502 12.615468 56.771793 73 34 33
-5.126202 12.737103 56.768467 72 34 34
-5.125877 12.858662 56.764870 72 35 34
-5.125535 12.980163 56.761086 71 35 34
-5.125184 13.101622 56.757191 71 36 34
-5.124829 13.223056 56.753265 71 36 35
-5.124475 13.344477 56.749352 72 37 37
-5.124124 13.465884 56.745453 73 38 39
-5.123772 13.587276 56.741562 73 39 41
-5.123414 13.708633 56.737595 74 41 44
-5.123038 13.829926 56.733433 79 48 51
-5.122629 13.951110 56.728901 84 53 58
-5.122164 14.072122 56.723755 78 48 52
-5.121618 14.192884 56.717701 69 41 44
-5.120957 14.313303 56.710388 65 39 41
-5.120148 14.433270 56.701424 63 38 39
-5.119151 14.552666 56.690392 61 37 38
-5.117926 14.671357 56.676815 60 37 37
-5.116431 14.789213 56.660263 58 36 36
-5.114628 14.906098 56.640293 57 34 34
-5.112478 15.021879 56.616489 54 33 33
-5.109952 15.136443 56.588516 53 32 31
-5.107025 15.249688 56.556099 52 31 31
-5.103680 15.361536 56.519054 51 30 31
-5.099913 15.471944 56.477341 51 30 31
-5.095729 15.580898 56.431011 51 31 31
-5.091148 15.688428 56.380280 51 31 32
-5.086201 15.794600 56.325489 51 31 32
-5.080928 15.899521 56.267101 51 30 32
-5.075387 16.003342 56.205742 52 29 31
-5.069641 16.106247 56.142105 52 29 31
-5.063761 16.208448 56.076984 51 28 30
-5.057826 16.310192 56.011257 51 26 28
-5.051916 16.411734 55.945808 50 25 27
-5.046111 16.513340 55.881531 50 25 27
-5.040492 16.615278 55.819302 50 24 26
-5.035131 16.717804 55.759930 50 24 26
-5.030095 16.821163 55.704159 50 25 26
-5.025440 16.925566 55.652611 50 26 26
-5.021214 17.031200 55.605816 49 26 26
-5.017453 17.138220 55.564159 48 26 26
-5.014179 17.246737 55.527905 46 26 26
-5.011405 17.356831 55.497189 45 26 26
-5.009133 17.468540 55.472027 42 27 26
-5.007354 17.581871 55.452320 41 27 26
-5.006049 17.696793 55.437870 40 27 26
-5.005193 17.813253 55.428394 39 27 26
-5.004756 17.931175 55.423561 38 26 26
-5.004704 18.050459 55.422974 36 26 25
-5.004998 18.171000 55.426231 36 25 24
-5.005600 18.292685 55.432911 35 23 22
-5.006474 18.415390 55.442577 35 23 22
-5.007581 18.539005 55.454845 35 22 21
-5.008889 18.663420 55.469326 36 23 20
-5.010368 18.788538 55.485699 36 23 20
-5.011992 18.914274 55.503681 36 23 21
-5.013739 19.040556 55.523029 36 23 21
-5.015592 19.167330 55.543560 34 23 20
-5.017541 19.294556 55.565136 33 24 20
-5.019578 19.422220 55.587704 33 24 20
-5.021703 19.550320 55.611229 32 23 20
-5.023916 19.678867 55.635738 32 23 20
-4.765718 -7.915678 54.067104 49 22 23
-4.763972 -7.796271 54.047302 50 22 23
-4.762276 -7.677029 54.028057 50 22 23
-4.760611 -7.557919 54.009163 50 22 23
-4.758961 -7.438915 53.990452 51 22 22
-4.757314 -7.319995 53.971760 52 22 21
-4.755656 -7.201140 53.952957 52 23 21
-4.753979 -7.082337 53.933929 51 23 21
-4.752274 -6.963575 53.914585 50 24 22
-4.750536 -6.844850 53.894871 50 25 23
-4.748764 -6.726159 53.874756 49 26 24
-4.746953 -6.607504 53.854225 49 26 26
-4.745110 -6.488892 53.833313 48 26 26
-4.743237 -6.370330 53.812061 47 26 26
-4.741341 -6.251829 53.790550 47 26 26
-4.739431 -6.133403 53.768879 46 25 25
-4.737517 -6.015066 53.747169 45 24 25
-4.735614 -5.896834 53.725574 44 24 24
-4.733737 -5.778729 53.704277 43 23 23
-4.731905 -5.660769 53.683495 43 24 23
-4.730137 -5.542974 53.663441 43 23 23
-4.728458 -5.425367 53.644394 43 23 23
-4.726893 -5.307971 53.626640 43 23 23
-4.725470 -5.190806 53.610493 43 24 24
-4.724217 -5.073895 53.596275 43 25 24
-4.723164 -4.957254 53.584332 43 25 24
-4.722342 -4.840901 53.575008 43 25 24
-4.721780 -4.724850 53.568634 43 25 23
-4.721508 -4.609108 53.565544 41 24 22
-4.721551 -4.493680 53.566032 41 23 21
-4.721931 -4.378562 53.570347 41 22 21
-4.722667 -4.263747 53.578693 40 22 21
-4.723770 -4.149218 53.591209 40 23 22
-4.725247 -4.034955 53.607964 40 23 22
-4.727095 -3.920927 53.628929 40 24 22
-4.729305 -3.807100 53.653999 40 24 22
-4.731858 -3.693433 53.682964 41 24 21
-4.734729 -3.579881 53.715534 42 24 21
-4.737883 -3.466396 53.751320 44 23 21
-4.741280 -3.352929 53.789860 45 23 22
-4.744872 -3.239428 53.830608 47 23 23
-4.748606 -3.125845 53.872967 47 24 23
-4.752427 -3.012135 53.916317 46 24 23
-4.756277 -2.898256 53.959995 46 24 23
-4.760099 -2.784172 54.003357 45 24 22
-4.763838 -2.669854 54.045780 43 24 23
-4.767444 -2.555282 54.086685 44 24 23
-4.770871 -2.440443 54.125565 44 25 24
-4.774080 -2.325329 54.161968 44 26 24
-4.777042 -2.209944 54.195576 45 26 24
-4.779736 -2.094298 54.226139 46 27 25
-4.782150 -1.978403 54.253532 47 28 26
-4.784284 -1.862281 54.277737 48 28 27
-4.786142 -1.745955 54.298820 48 28 28
-4.787741 -1.629449 54.316956 49 28 28
-4.789100 -1.512789 54.332378 49 27 28
-4.790248 -1.396001 54.345398 50 27 28
-4.791214 -1.279109 54.356361 51 26 29
-4.792032 -1.162133 54.365643 53 26 29
-4.792736 -1.045093 54.373627 55 27 29
-4.793358 -0.928002 54.380684 57 27 30
-4.793929 -0.810872 54.387161 59 28 30
-4.794477 -0.693711 54.393383 60 29 31
-4.795028 -0.576523 54.399624 60 30 31
-4.795598 -0.459311 54.406097 61 30 31
-4.796206 -0.342073 54.412994 62 30 31
-4.796861 -0.224808 54.420422 62 31 31
-4.797570 -0.107511 54.428463 63 31 31
-4.798335 0.009820 54.437149 64 32 32
-4.799157 0.127190 54.446472 66 32 32
-4.800032 0.244602 54.456394 68 32 33
-4.800954 0.362062 54.466858 70 32 33
-4.801917 0.479570 54.477783 72 32 33
-4.802913 0.597129 54.489082 74 32 34
-4.803932 0.714741 54.500648 76 33 35
-4.804969 0.832406 54.512405 78 34 35
-4.806013 0.950123 54.524250 79 35 35
-4.807058 1.067891 54.536110 79 36 35
-4.808097 1.185708 54.547894 81 38 35
-4.809124 1.303573 54.559544 82 38 35
-4.810133 1.421484 54.570995 82 38 36
-4.811121 1.539437 54.582199 82 38 37
-4.812082 1.657429 54.593109 82 39 38
-4.813014 1.775456 54.603676 83 39 38
-4.813912 1.893517 54.613873 84 39 39
-4.814775 2.011607 54.623657 85 40 41
-4.815598 2.129721 54.632996 86 41 42
-4.816379 2.247855 54.641853 87 42 43
-4.817114 2.366006 54.650200 89 43 45
-4.817803 2.484169 54.658012 90 44 46
-4.818442 2.602338 54.665268 92 45 46
-4.819031 2.720510 54.671940 95 47 47
-4.819568 2.838681 54.678028 96 47 48
-4.820054 2.956846 54.683544 97 48 48
-4.820491 3.075005 54.688503 97 48 49
-4.820883 3.193154 54.692951 98 49 50
-4.821235 3.311296 54.696949 99 50 51
-4.821555 3.429431 54.700577 99 49 51
-4.821852 3.547566 54.703949 99 49 51
-4.822138 3.665706 54.707191 99 48 52
-4.822427 3.783864 54.710468 99 48 52
-4.822734 3.902050 54.713959 99 48 52
-4.823079 4.020281 54.717861 99 48 52
-4.823478 4.138577 54.722393 99 48 52
-4.823952 4.256959 54.727772 99 47 52
-4.824522 4.375451 54.734245 99 46 51
-4.825211 4.494080 54.742050 99 45 50
-4.826036 4.612875 54.751423 99 43 49
-4.827022 4.731866 54.762596 98 42 47
-4.828185 4.851085 54.775795 98 42 46
-4.829545 4.970562 54.791218 99 43 46
-4.831117 5.090330 54.809055 101 44 49
-4.832916 5.210420 54.829472 101 45 50
-4.834956 5.330863 54.852608 100 45 50
-4.837245 5.451686 54.878582 98 44 49
-4.839792 5.572919 54.907475 97 43 48
-4.842601 5.694584 54.939342 96 42 46
-4.845675 5.816706 54.974224 96 40 45
-4.849016 5.939303 55.012119 96 40 46
-4.852621 6.062394 55.053020 97 40 46
-4.856487 6.185995 55.096882 98 41 47
-4.860609 6.310115 55.143639 98 42 48
-4.864977 6.434765 55.193207 97 42 48
-4.869585 6.559950 55.245480 96 42 48
-4.874420 6.685673 55.300335 95 42 48
-4.879470 6.811931 55.357624 93 43 47
-4.884719 6.938720 55.417179 92 43 48
-4.890150 7.066028 55.478790 90 43 48
-4.895742 7.193839 55.542233 88 42 48
-4.901474 7.322132 55.607258 87 42 47
-4.907320 7.450877 55.673576 86 41 45
-4.913249 7.580040 55.740849 85 39 43
-4.919233 7.709577 55.808743 84 39 42
-4.925237 7.839437 55.876850 84 39 41
-4.931224 7.969564 55.944771 83 39 41
-4.937155 8.099893 56.012058 81 39 40
-4.942991 8.230352 56.078266 79 39 39
-4.948691 8.360869 56.142941 78 38 38
-4.954217 8.491366 56.205631 77 37 38
-4.959531 8.621764 56.265911 77 37 38
-4.964597 8.751986 56.323387 76 36 38
-4.969384 8.881956 56.377701 76 35 37
-4.973868 9.011611 56.428570 75 35 36
-4.978027 9.140890 56.475761 74 35 35
-4.981849 9.269744 56.519115 74 35 35
-4.985327 9.398136 56.558571 73 35 35
-4.988460 9.526041 56.594120 72 35 35
-4.991256 9.653445 56.625835 71 34 34
-4.993727 9.780352 56.653870 70 33 33
-4.995891 9.906769 56.678421 68 32 32
-4.997770 10.032722 56.699741 68 31 32
-4.999391 10.158239 56.718124 68 30 32
-5.000779 10.283360 56.733875 68 31 31
-5.001963 10.408122 56.747307 68 31 32
-5.002970 10.532571 56.758736 69 32 32
-5.003826 10.656747 56.768444 69 33 34
-5.004554 10.780687 56.776703 69 33 34
-5.005174 10.904429 56.783733 68 32 34
-5.005702 11.028001 56.789734 68 32 34
-5.006154 11.151426 56.794853 68 31 34
-5.006536 11.274717 56.799191 69 32 34
-5.006857 11.397888 56.802830 71 32 35
-5.007120 11.520940 56.805809 72 33 36
-5.007325 11.643871 56.808140 75 34 37
-5.007474 11.766681 56.809830 77 35 37
-5.007565 11.889360 56.810863 77 33 36
-5.007598 12.011904 56.811237 77 33 35
-5.007572 12.134306 56.810940 77 33 35
-5.007486 12.256561 56.809963 78 33 34
-5.007343 12.378672 56.808342 77 34 34
-5.007146 12.500639 56.806107 77 34 34
-5.006899 12.622472 56.803310 75 34 35
-5.006610 12.744184 56.800026 75 35 35
-5.006283 12.865786 56.796318 74 35 35
-5.005927 12.987296 56.792278 74 36 35
-5.005549 13.108730 56.787991 74 37 35
-5.005156 13.230107 56.783527 74 37 37
-5.004751 13.351433 56.778934 74 39 39
-5.004337 13.472716 56.774242 75 40 41
-5.003914 13.593951 56.769440 75 42 44
-5.003476 13.715127 56.764469 77 45 48
-5.003014 13.836213 56.759224 85 54 57
-5.002512 13.957170 56.753544 91 60 65
-5.001954 14.077939 56.747208 81 52 57
-5.001313 14.198447 56.739933 70 41 46
-5.000560 14.318603 56.731388 65 38 41
-4.999662 14.438305 56.721207 64 38 40
-4.998583 14.557435 56.708969 63 38 39
-4.997285 14.675868 56.694241 63 38 39
-4.995728 14.793471 56.676579 62 38 38
-4.993876 14.910113 56.655552 60 36 37
-4.991691 15.025669 56.630772 58 35 35
-4.989146 15.140022 56.601894 56 33 33
-4.986216 15.253074 56.568653 55 32 32
-4.982887 15.364751 56.530888 54 32 32
-4.979153 15.475009 56.488529 54 32 32
-4.975022 15.583838 56.441658 54 32 33
-4.970511 15.691267 56.390484 54 32 33
-4.965650 15.797362 56.335339 55 33 34
-4.960482 15.902234 56.276707 55 32 35
-4.955060 16.006031 56.215187 55 31 34
-4.949445 16.108938 56.151489 55 31 33
-4.943709 16.211176 56.086418 54 30 32
-4.937929 16.312981 56.020840 54 28 30
-4.932181 16.414614 55.955627 53 26 29
-4.926546 16.516344 55.891701 52 25 28
-4.921100 16.618437 55.829910 52 25 27
-4.915915 16.721149 55.771084 52 26 27
-4.911055 16.824724 55.715950 52 27 27
-4.906576 16.929379 55.665146 51 28 27
-4.902525 17.035295 55.619186 50 28 27
-4.898936 17.142632 55.578465 48 28 28
-4.895830 17.251497 55.543228 46 27 28
-4.893221 17.361971 55.513626 45 27 28
-4.891108 17.474091 55.489658 43 27 27
-4.889482 17.587862 55.471218 41 27 26
-4.888327 17.703251 55.458099 40 27 26
-4.887615 17.820206 55.450027 39 26 26
-4.887317 17.938644 55.446648 37 26 26
-4.887398 18.058468 55.447567 36 25 24
-4.887820 18.179565 55.452358 36 24 23
-4.888547 18.301823 55.460606 35 23 22
-4.889539 18.425117 55.471863 34 22 21
-4.890761 18.549328 55.485718 35 22 20
-4.892179 18.674349 55.501808 36 22 20
-4.893763 18.800077 55.519779 36 22 20
-4.895487 18.926424 55.539333 36 22 21
-4.897329 19.053314 55.560230 36 23 21
-4.899272 19.180693 55.582279 35 23 21
-4.901305 19.308517 55.605343 34 23 21
-4.903420 19.436769 55.629345 33 23 21
-4.905615 19.565441 55.654243 33 23 21
-4.644808 -7.791815 54.016411 50 22 23
-4.643216 -7.672742 53.997890 51 22 23
-4.641655 -7.553802 53.979744 52 22 23
-4.640112 -7.434966 53.961792 53 22 23
-4.638572 -7.316214 53.943882 53 23 22
-4.637024 -7.197526 53.925880 53 24 22
-4.635458 -7.078888 53.907665 53 24 22
-4.633865 -6.960290 53.889153 52 25 23
-4.632242 -6.841726 53.870274 51 26 24
-4.630585 -6.723194 53.851006 50 26 25
-4.628893 -6.604695 53.831329 49 27 26
-4.627168 -6.486234 53.811260 48 26 26
-4.625412 -6.367818 53.790844 47 26 26
-4.623632 -6.249457 53.770145 46 25 26
-4.621837 -6.131166 53.749268 45 25 25
-4.620035 -6.012956 53.728313 45 24 24
-4.618241 -5.894845 53.707443 44 24 24
-4.616468 -5.776851 53.686829 43 23 23
-4.614735 -5.658996 53.666679 43 23 23
-4.613062 -5.541299 53.647224 43 24 23
-4.611471 -5.423782 53.628723 43 24 24
-4.609988 -5.306469 53.611469 43 23 23
-4.608639 -5.189383 53.595787 43 24 24
-4.607454 -5.072543 53.582001 44 25 25
-4.606462 -4.955971 53.570465 44 25 25
-4.605693 -4.839684 53.561527 43 24 24
-4.605179 -4.723696 53.555546 43 24 23
-4.604948 -4.608016 53.552853 42 23 23
-4.605024 -4.492649 53.553749 42 23 22
-4.605433 -4.377594 53.558502 42 22 21
-4.606193 -4.262843 53.567329 42 22 22
-4.607315 -4.148380 53.580383 41 23 22
-4.608806 -4.034184 53.597721 41 24 22
-4.610664 -3.920225 53.619335 41 24 22
-4.612882 -3.806470 53.645123 41 24 22
-4.615440 -3.692876 53.674873 42 24 21
-4.618314 -3.579399 53.708298 43 24 21
-4.621470 -3.465989 53.745003 45 24 21
-4.624867 -3.352595 53.784508 46 24 22
-4.628459 -3.239168 53.826283 47 24 23
-4.632194 -3.125656 53.869713 48 25 23
-4.636015 -3.012014 53.914154 48 25 24
-4.639867 -2.898199 53.958950 48 25 24
-4.643692 -2.784175 54.003429 46 25 23
-4.647435 -2.669913 54.046963 44 25 23
-4.651046 -2.555390 54.088959 43 25 23
-4.654480 -2.440592 54.128883 43 25 22
-4.657697 -2.325515 54.166294 43 25 22
-4.660668 -2.210160 54.200848 44 26 23
-4.663372 -2.094535 54.232296 45 26 25
-4.665797 -1.978657 54.260498 47 27 26
-4.667940 -1.862545 54.285423 48 27 27
-4.669808 -1.746222 54.307144 49 28 28
-4.671415 -1.629715 54.325832 50 28 28
-4.672781 -1.513049 54.341721 51 27 29
-4.673934 -1.396251 54.355122 52 27 29
-4.674902 -1.279345 54.366383 53 27 29
-4.675719 -1.162352 54.375889 55 27 29
-4.676419 -1.045293 54.384022 57 27 29
-4.677033 -0.928181 54.391163 59 27 30
-4.677592 -0.811029 54.397671 60 28 31
-4.678126 -0.693845 54.403877 61 29 31
-4.678658 -0.576634 54.410061 61 30 31
-4.679208 -0.459398 54.416458 62 31 32
-4.679791 -0.342137 54.423244 62 31 32
-4.680420 -0.224849 54.430561 63 32 32
-4.681102 -0.107531 54.438484 64 33 33
-4.681839 0.009821 54.447052 66 33 33
-4.682631 0.127212 54.456272 68 33 33
-4.683478 0.244646 54.466114 69 33 33
-4.684371 0.362126 54.476509 71 33 33
-4.685307 0.479654 54.487389 72 32 33
-4.686277 0.597234 54.498665 74 33 34
-4.687273 0.714867 54.510246 75 33 34
-4.688286 0.832553 54.522030 77 34 35
-4.689310 0.950291 54.533939 79 35 35
-4.690337 1.068082 54.545879 80 36 35
-4.691360 1.185923 54.557774 81 38 35
-4.692372 1.303813 54.569557 83 38 36
-4.693370 1.421749 54.581158 84 39 37
-4.694348 1.539728 54.592529 84 39 38
-4.695302 1.657748 54.603626 85 39 39
-4.696228 1.775805 54.614391 85 39 40
-4.697123 1.893896 54.624802 85 40 41
-4.697983 2.012017 54.634808 85 41 42
-4.698806 2.130164 54.644375 86 42 43
-4.699588 2.248333 54.653469 87 43 43
-4.700326 2.366519 54.662052 88 44 44
-4.701019 2.484719 54.670109 89 45 44
-4.701663 2.602926 54.677605 92 46 45
-4.702259 2.721137 54.684528 94 47 46
-4.702803 2.839347 54.690861 96 48 47
-4.703298 2.957553 54.696609 97 48 48
-4.703744 3.075752 54.701801 97 49 49
-4.704146 3.193944 54.706470 98 50 49
-4.704507 3.312127 54.710678 98 50 50
-4.704837 3.430305 54.714508 99 50 51
-4.705142 3.548481 54.718063 99 49 51
-4.705437 3.666664 54.721485 99 48 51
-4.705732 3.784863 54.724922 99 48 52
-4.706045 3.903091 54.728554 99 47 52
-4.706391 4.021363 54.732590 99 47 52
-4.706792 4.139700 54.737244 99 47 51
-4.707265 4.258123 54.742744 100 46 51
-4.707832 4.376657 54.749340 100 46 51
-4.708513 4.495329 54.757263 102 45 51
-4.709331 4.614168 54.766769 102 44 50
-4.710305 4.733205 54.778095 102 44 49
-4.711453 4.852472 54.791454 102 43 47
-4.712796 4.972000 54.807064 102 43 47
-4.714348 5.091822 54.825115 103 44 48
-4.716124 5.211969 54.845776 103 45 50
-4.718137 5.332474 54.869183 102 46 50
-4.720396 5.453362 54.895451 100 45 50
-4.722908 5.574663 54.924660 99 44 49
-4.725677 5.696401 54.956871 98 43 47
-4.728708 5.818598 54.992111 96 41 46
-4.731998 5.941274 55.030380 96 40 45
-4.735547 6.064445 55.071644 96 40 45
-4.739348 6.188125 55.115860 97 41 46
-4.743398 6.312325 55.162949 98 42 47
-4.747687 6.437054 55.212833 97 42 47
-4.752206 6.562314 55.265381 96 42 47
-4.756943 6.688107 55.320473 95 42 46
-4.761885 6.814432 55.377949 93 42 46
-4.767017 6.941281 55.437630 92 42 46
-4.772322 7.068643 55.499317 90 42 46
-4.777778 7.196500 55.562775 89 42 46
-4.783366 7.324831 55.627758 88 42 46
-4.789060 7.453607 55.693974 87 42 44
-4.794832 7.582793 55.761097 86 40 43
-4.800652 7.712345 55.828785 85 40 41
-4.806489 7.842216 55.896660 84 40 41
-4.812305 7.972347 55.964306 84 40 41
-4.818066 8.102675 56.031300 83 40 41
-4.823733 8.233132 56.097202 82 40 41
-4.829268 8.363644 56.161564 81 39 40
-4.834631 8.494133 56.223946 80 38 38
-4.839790 8.624525 56.283932 79 37 38
-4.844709 8.754744 56.341137 78 36 38
-4.849359 8.884716 56.395218 77 36 37
-4.853716 9.014376 56.445881 77 35 36
-4.857760 9.143667 56.492920 76 36 36
-4.861480 9.272542 56.536175 77 37 37
-4.864867 9.400961 56.575569 76 37 38
-4.867924 9.528902 56.611118 74 36 37
-4.870657 9.656355 56.642899 72 35 34
-4.873078 9.783318 56.671051 71 33 33
-4.875204 9.909803 56.695782 70 32 32
-4.877059 10.035836 56.717346 69 31 33
-4.878665 10.161446 56.736027 69 31 33
-4.880050 10.286670 56.752140 68 32 33
-4.881242 10.411550 56.765995 68 32 32
-4.882266 10.536129 56.777908 68 33 33
-4.883147 10.660446 56.788155 69 33 34
-4.883909 10.784545 56.797016 69 33 35
-4.884570 10.908455 56.804695 69 33 35
-4.885146 11.032207 56.811398 69 32 35
-4.885650 11.155825 56.817257 70 32 34
-4.886090 11.279319 56.822372 71 32 34
-4.886471 11.402699 56.826805 72 32 34
-4.886797 11.525968 56.830597 73 32 34
-4.887067 11.649118 56.833740 75 33 35
-4.887281 11.772149 56.836227 76 33 35
-4.887436 11.895046 56.838036 77 33 35
-4.887531 12.017802 56.839130 78 34 35
-4.887563 12.140408 56.839504 78 34 35
-4.887529 12.262850 56.839111 79 34 36
-4.887433 12.385131 56.837990 79 34 36
-4.887274 12.507248 56.836143 79 35 36
-4.887057 12.629207 56.833618 78 35 36
-4.886786 12.751015 56.830471 77 35 36
-4.886468 12.872686 56.826778 77 36 35
-4.886111 12.994235 56.822624 77 37 36
-4.885720 13.115675 56.818073 77 38 37
-4.885302 13.237023 56.813213 77 39 39
-4.884862 13.358291 56.808098 77 41 41
-4.884404 13.479485 56.802765 78 42 43
-4.883926 13.600602 56.797215 78 44 46
-4.883427 13.721635 56.791405 80 47 50
-4.882896 13.842555 56.785240 86 56 58
-4.882324 13.963326 56.778576 90 61 64
-4.881691 14.083896 56.771214 81 52 56
-4.880975 14.204191 56.762886 70 41 45
-4.880149 14.324129 56.753284 66 37 40
-4.879182 14.443608 56.742043 65 38 40
-4.878041 14.562517 56.728767 66 39 40
-4.876688 14.680733 56.713036 67 39 40
-4.875087 14.798126 56.694412 66 39 39
-4.873201 14.914571 56.672489 64 38 38
-4.870999 15.029942 56.646877 61 36 36
-4.868450 15.144124 56.617233 59 34 34
-4.865533 15.257025 56.583309 57 33 33
-4.862233 15.368569 56.544937 57 33 33
-4.858546 15.478716 56.502060 57 33 34
-4.854479 15.587455 56.454758 57 34 34
-4.850049 15.694817 56.403240 57 34 35
-4.845285 15.800868 56.347843 58 34 36
-4.840229 15.905720 56.289040 58 34 37
-4.834933 16.009523 56.227448 58 33 36
-4.829457 16.112463 56.163773 58 32 35
-4.823872 16.214758 56.098812 57 30 33
-4.818249 16.316647 56.033421 56 29 32
-4.812667 16.418394 55.968510 55 27 30
-4.807202 16.520262 55.904961 54 27 29
-4.801930 16.622524 55.843647 54 27 29
-4.796921 16.725439 55.785393 54 28 29
-4.792237 16.829245 55.730919 53 29 29
-4.787933 16.934160 55.680874 52 29 29
-4.784054 17.040371 55.635757 51 29 29
-4.780633 17.148033 55.595978 49 29 28
-4.777692 17.257256 55.561771 46 28 28
-4.775242 17.368116 55.533279 44 28 28
-4.773284 17.480658 55.510509 42 27 27
-4.771807 17.594873 55.493336 40 27 26
-4.770795 17.710743 55.481567 39 26 25
-4.770222 17.828199 55.474899 38 26 25
-4.770057 17.947165 55.472980 38 25 25
-4.770266 18.067537 55.475410 37 24 24
-4.770812 18.189203 55.481758 36 23 23
-4.771656 18.312042 55.491573 35 23 22
-4.772761 18.435934 55.504429 35 22 20
-4.774091 18.560755 55.519897 35 21 20
-4.775613 18.686392 55.537598 35 21 20
-4.777296 18.812738 55.557167 36 21 20
-4.779114 18.939707 55.578312 36 22 20
-4.781045 19.067215 55.600769 35 22 21
-4.783072 19.195206 55.624336 35 22 21
-4.785182 19.323635 55.648880 34 22 21
-4.787368 19.452478 55.674301 33 23 21
-4.523979 -7.667935 53.964062 50 22 23
-4.522522 -7.549177 53.946693 50 22 23
-4.521086 -7.430525 53.929558 51 23 23
-4.519655 -7.311956 53.912495 52 24 23
-4.518219 -7.193453 53.895363 53 24 23
-4.516768 -7.074999 53.878048 53 25 23
-4.515294 -6.956585 53.860470 52 26 24
-4.513792 -6.838205 53.842552 51 26 25
-4.512259 -6.719855 53.824265 50 26 26
-4.510692 -6.601535 53.805576 48 26 26
-4.509093 -6.483250 53.786499 47 26 25
-4.507464 -6.365004 53.767071 45 25 25
-4.505812 -6.246809 53.747360 44 25 25
-4.504141 -6.128675 53.727436 44 24 25
-4.502463 -6.010616 53.707417 44 24 24
-4.500788 -5.892648 53.687431 44 24 24
-4.499131 -5.774789 53.667667 43 23 24
-4.497508 -5.657059 53.648312 43 23 23
-4.495940 -5.539479 53.629604 43 24 24
-4.494447 -5.422071 53.611801 43 24 24
-4.493055 -5.304858 53.595196 43 24 23
-4.491791 -5.187865 53.580112 43 24 24
-4.490682 -5.071112 53.566883 44 24 25
-4.489758 -4.954620 53.555866 44 24 25
-4.489051 -4.838410 53.547428 44 24 24
-4.488590 -4.722495 53.541931 44 24 24
-4.488404 -4.606885 53.539715 43 23 23
-4.488520 -4.491588 53.541092 43 23 23
-4.488961 -4.376601 53.546356 44 23 22
-4.489746 -4.261919 53.555717 43 23 22
-4.490888 -4.147525 53.569336 43 23 23
-4.492393 -4.033399 53.587288 42 24 23
-4.494260 -3.919512 53.609573 42 24 22
-4.496482 -3.805828 53.636078 42 24 22
-4.499043 -3.692307 53.666615 43 24 22
-4.501914 -3.578903 53.700871 44 24 22
-4.505066 -3.465567 53.738464 45 24 22
-4.508457 -3.352247 53.778919 46 24 23
-4.512042 -3.238890 53.821674 48 25 23
-4.515768 -3.125448 53.866116 49 25 24
-4.519581 -3.011872 53.911602 50 27 25
-4.523425 -2.898119 53.957455 49 27 25
-4.527242 -2.784152 54.002987 47 26 24
-4.530979 -2.669943 54.047569 45 26 23
-4.534585 -2.555466 54.090584 43 25 23
-4.538015 -2.440710 54.131496 42 25 22
-4.541231 -2.325668 54.169853 43 25 23
-4.544202 -2.210341 54.205299 43 25 24
-4.546907 -2.094739 54.237568 45 26 25
-4.549335 -1.978877 54.266521 46 26 26
-4.551481 -1.862775 54.292130 47 27 27
-4.553353 -1.746457 54.314449 49 27 28
-4.554963 -1.629950 54.333652 51 28 29
-4.556331 -1.513279 54.349976 53 28 29
-4.557484 -1.396472 54.363728 54 28 29
-4.558451 -1.279554 54.375263 56 28 29
-4.559265 -1.162547 54.384972 57 28 29
-4.559958 -1.045470 54.393238 59 27 29
-4.560563 -0.928339 54.400452 60 28 30
-4.561110 -0.811168 54.406979 61 29 31
-4.561627 -0.693963 54.413158 62 29 32
-4.562141 -0.576732 54.419281 62 30 32
-4.562669 -0.459475 54.425583 62 31 32
-4.563230 -0.342194 54.432270 62 31 32
-4.563834 -0.224886 54.439472 63 32 33
-4.564488 -0.107549 54.447277 65 33 34
-4.565198 0.009823 54.455750 66 33 34
-4.565963 0.127233 54.464878 68 34 34
-4.566782 0.244684 54.474644 70 34 34
-4.567650 0.362182 54.484993 71 33 34
-4.568560 0.479729 54.495850 72 33 33
-4.569506 0.597327 54.507133 73 33 33
-4.570480 0.714979 54.518757 75 33 33
-4.571475 0.832684 54.530617 76 34 34
-4.572482 0.950443 54.542625 78 34 35
-4.573494 1.068255 54.554703 80 36 35
-4.574505 1.186118 54.566765 82 37 36
-4.575509 1.304032 54.578735 84 38 37
-4.576499 1.421993 54.590557 86 39 39
-4.577473 1.540000 54.602169 87 40 40
-4.578425 1.658048 54.613522 87 40 41
-4.579351 1.776136 54.624573 87 40 43
-4.580248 1.894259 54.635273 87 41 43
-4.581113 2.012414 54.645592 87 42 44
-4.581943 2.130598 54.655487 87 43 44
-4.582734 2.248805 54.664921 87 44 44
-4.583483 2.367030 54.673855 88 44 44
-4.584188 2.485271 54.682270 90 46 43
-4.584847 2.603522 54.690132 92 47 44
-4.585458 2.721778 54.697422 94 48 45
-4.586020 2.840036 54.704124 95 48 46
-4.586534 2.958291 54.710255 96 49 47
-4.587000 3.076540 54.715813 96 50 48
-4.587422 3.194783 54.720848 96 50 48
-4.587805 3.313019 54.725407 97 50 50
-4.588154 3.431249 54.729576 98 50 50
-4.588480 3.549480 54.733463 97 49 50
-4.588793 3.667717 54.737194 97 48 51
-4.589106 3.785970 54.740929 97 47 51
-4.589434 3.904253 54.744846 97 46 50
-4.589795 4.022580 54.749146 98 46 50
-4.590206 4.140971 54.754047 98 46 50
-4.590686 4.259449 54.759785 100 45 50
-4.591258 4.378037 54.766605 101 46 51
-4.591942 4.496765 54.774757 103 46 51
-4.592757 4.615660 54.784481 105 46 51
-4.593725 4.734755 54.796024 105 45 51
-4.594863 4.854080 54.809608 104 45 49
-4.596192 4.973669 54.825462 103 44 47
-4.597726 5.093553 54.843758 104 44 48
-4.599481 5.213767 54.864685 105 46 50
-4.601466 5.334338 54.888371 104 47 51
-4.603693 5.455297 54.914928 102 46 51
-4.606167 5.576671 54.944443 100 45 50
-4.608894 5.698484 54.976971 99 44 49
-4.611875 5.820758 55.012531 97 42 47
-4.615109 5.943512 55.051105 96 41 46
-4.618594 6.066762 55.092682 96 40 44
-4.622325 6.190519 55.137180 96 41 45
-4.626295 6.314795 55.184540 98 43 47
-4.630496 6.439597 55.234653 98 44 47
-4.634918 6.564927 55.287392 96 43 46
-4.639548 6.690786 55.342628 94 42 45
-4.644373 6.817169 55.400188 92 42 44
-4.649379 6.944069 55.459896 91 42 44
-4.654548 7.071475 55.521553 90 42 45
-4.659860 7.199368 55.584923 90 43 45
-4.665295 7.327726 55.649746 89 43 45
-4.670828 7.456522 55.715752 89 43 43
-4.676434 7.585719 55.782616 88 41 42
-4.682082 7.715275 55.849995 86 40 41
-4.687743 7.845142 55.917515 86 40 41
-4.693382 7.975264 55.984783 86 41 42
-4.698964 8.105577 56.051373 85 41 42
-4.704454 8.236016 56.116856 85 40 42
-4.709815 8.366508 56.180801 84 39 41
-4.715010 8.496978 56.242771 83 38 40
-4.720006 8.627350 56.302368 82 37 38
-4.724771 8.757550 56.359200 80 37 38
-4.729276 8.887509 56.412949 80 36 37
-4.733499 9.017160 56.463318 78 36 37
-4.737421 9.146448 56.510101 78 36 37
-4.741030 9.275326 56.553154 80 39 39
-4.744321 9.403758 56.592407 80 40 42
-4.747293 9.531720 56.627857 77 38 40
-4.749954 9.659203 56.659603 74 35 36
-4.752316 9.786204 56.687775 72 34 34
-4.754396 9.912742 56.712589 71 33 34
-4.756217 10.038836 56.734299 70 33 34
-4.757800 10.164518 56.753185 70 33 34
-4.759173 10.289828 56.769566 69 33 33
-4.760362 10.414807 56.783752 68 33 33
-4.761393 10.539495 56.796051 68 33 34
-4.762290 10.663938 56.806751 69 33 35
-4.763075 10.788171 56.816113 69 33 35
-4.763767 10.912233 56.824371 70 33 35
-4.764380 11.036148 56.831688 71 33 35
-4.764928 11.159940 56.838215 72 32 34
-4.765416 11.283620 56.844040 73 32 33
-4.765851 11.407196 56.849220 74 32 33
-4.766232 11.530668 56.853779 75 32 34
-4.766562 11.654033 56.857716 76 33 34
-4.766837 11.777276 56.860985 77 33 34
-4.767053 11.900389 56.863564 78 34 35
-4.767207 12.023355 56.865398 78 35 36
-4.767296 12.146167 56.866467 78 34 36
-4.767317 12.268805 56.866714 79 34 36
-4.767269 12.391266 56.866142 79 34 36
-4.767154 12.513547 56.864765 79 35 36
-4.766973 12.635650 56.862614 80 35 36
-4.766731 12.757578 56.859722 80 36 36
-4.766433 12.879343 56.856167 79 36 35
-4.766085 13.000956 56.852013 79 38 37
-4.765694 13.122433 56.847347 80 40 39
-4.765266 13.243788 56.842247 80 41 40
-4.764806 13.365032 56.836765 80 42 42
-4.764320 13.486176 56.830963 80 43 43
-4.763806 13.607217 56.824837 80 46 46
-4.763263 13.728147 56.818356 80 48 48
-4.762684 13.848946 56.811455 83 53 53
-4.762059 13.969577 56.803993 85 55 57
-4.761371 14.089992 56.795788 79 50 52
-4.760600 14.210122 56.786591 72 42 44
-4.759720 14.329887 56.776100 69 39 41
-4.758705 14.449193 56.763981 69 39 41
-4.757519 14.567927 56.749840 70 40 41
-4.756130 14.685972 56.733276 70 41 41
-4.754503 14.803205 56.713867 69 40 40
-4.752604 14.919496 56.691204 66 38 38
-4.750399 15.034727 56.664913 63 36 35
-4.747863 15.148785 56.634655 61 34 34
-4.744974 15.261577 56.600189 60 34 33
-4.741717 15.373030 56.561348 59 34 34
-4.738091 15.483106 56.518085 59 34 35
-4.734098 15.591793 56.470470 60 35 36
-4.729760 15.699124 56.418720 61 35 37
-4.725103 15.805165 56.363167 61 35 38
-4.720168 15.910031 56.304298 61 35 39
-4.715005 16.013870 56.242714 61 34 39
-4.709674 16.116867 56.179127 60 33 38
-4.704243 16.219244 56.114338 59 32 36
-4.698782 16.321241 56.049202 58 31 34
-4.693368 16.423119 55.984623 56 29 32
-4.688076 16.525148 55.921497 55 29 30
-4.682979 16.627596 55.860687 55 29 30
-4.678144 16.730722 55.803017 55 30 30
-4.673635 16.834772 55.749226 54 30 30
-4.669503 16.939960 55.699944 54 30 30
-4.665792 17.046474 55.655682 52 30 30
-4.662536 17.154469 55.616840 50 30 30
-4.659754 17.264053 55.583656 47 29 29
-4.657459 17.375311 55.556278 44 28 28
-4.655650 17.488274 55.534695 43 27 27
-4.654316 17.602945 55.518791 41 27 26
-4.653441 17.719292 55.508350 40 26 25
-4.653000 17.837257 55.503086 40 25 25
-4.652961 17.956755 55.502625 40 26 25
-4.653291 18.077681 55.506557 39 25 24
-4.653953 18.199921 55.514450 37 23 23
-4.654908 18.323351 55.525845 37 23 22
-4.656119 18.447845 55.540291 36 22 21
-4.657550 18.573280 55.557369 36 22 20
-4.659169 18.699541 55.576679 36 21 20
-4.660944 18.826515 55.597851 35 21 21
-4.662849 18.954107 55.620571 35 21 21
-4.664862 19.082241 55.644585 34 21 21
-4.666965 19.210850 55.669670 34 21 21
-4.669146 19.339888 55.695683 33 22 21
-4.403242 -7.544055 53.910091 48 22 22
-4.401911 -7.425598 53.893799 49 22 22
-4.400590 -7.307228 53.877625 51 23 23
-4.399268 -7.188924 53.861435 52 25 23
-4.397934 -7.070674 53.845112 52 25 24
-4.396582 -6.952463 53.828552 52 26 25
-4.395205 -6.834287 53.811699 51 26 25
-4.393801 -6.716139 53.794502 50 26 25
-4.392366 -6.598021 53.776932 48 26 24
-4.390901 -6.479934 53.758991 45 25 23
-4.389407 -6.361882 53.740704 44 24 23
-4.387889 -6.243876 53.722118 43 23 24
-4.386352 -6.125923 53.703308 43 23 24
-4.384806 -6.008038 53.684376 43 24 24
-4.383259 -5.890234 53.665440 43 24 24
-4.381728 -5.772532 53.646683 43 24 24
-4.380225 -5.654947 53.628284 43 24 24
-4.378770 -5.537503 53.610470 43 24 24
-4.377385 -5.420221 53.593513 43 24 24
-4.376092 -5.303126 53.577690 43 24 23
-4.374919 -5.186240 53.563332 43 24 24
-4.373895 -5.069588 53.550785 44 24 24
-4.373047 -4.953190 53.540405 44 24 24
-4.372407 -4.837068 53.532574 45 24 25
-4.372005 -4.721235 53.527649 44 23 24
-4.371870 -4.605705 53.525993 43 23 23
-4.372028 -4.490483 53.527931 44 23 23
-4.372504 -4.375571 53.533756 45 23 22
-4.373316 -4.260962 53.543705 44 23 22
-4.374478 -4.146641 53.557930 43 23 23
-4.375998 -4.032588 53.576530 43 24 23
-4.377873 -3.918775 53.599495 43 24 22
-4.380098 -3.805165 53.626728 43 24 22
-4.382655 -3.691717 53.658035 43 24 22
-4.385520 -3.578387 53.693115 44 24 22
-4.388661 -3.465122 53.731571 45 23 22
-4.392039 -3.351873 53.772930 46 24 23
-4.395608 -3.238587 53.816628 48 25 24
-4.399318 -3.125211 53.862041 49 25 24
-4.403113 -3.011699 53.908516 51 26 25
-4.406939 -2.898006 53.955353 50 26 25
-4.410739 -2.784096 54.001881 48 26 25
-4.414461 -2.669937 54.047447 47 26 24
-4.418052 -2.555506 54.091419 45 25 24
-4.421470 -2.440790 54.133263 44 25 24
-4.424675 -2.325781 54.172501 44 25 24
-4.427638 -2.210483 54.208778 45 25 25
-4.430337 -2.094903 54.241821 46 25 26
-4.432759 -1.979058 54.271481 48 26 26
-4.434902 -1.862967 54.297718 49 26 27
-4.436771 -1.746655 54.320602 51 27 29
-4.438379 -1.630149 54.340282 53 28 30
-4.439745 -1.513475 54.357010 55 28 30
-4.440895 -1.396661 54.371086 57 28 30
-4.441858 -1.279733 54.382881 59 28 29
-4.442666 -1.162713 54.392769 60 28 29
-4.443350 -1.045622 54.401150 61 27 29
-4.443944 -0.928475 54.408421 62 28 30
-4.444479 -0.811287 54.414967 62 28 31
-4.444981 -0.694065 54.421116 62 29 32
-4.445476 -0.576815 54.427166 62 30 32
-4.445983 -0.459541 54.433384 62 30 32
-4.446521 -0.342243 54.439964 62 31 33
-4.447100 -0.224918 54.447060 63 32 33
-4.447730 -0.107563 54.454762 65 33 35
-4.448413 0.009824 54.463135 67 33 35
-4.449152 0.127250 54.472179 69 34 35
-4.449945 0.244717 54.481892 70 34 35
-4.450788 0.362230 54.492210 70 34 34
-4.451676 0.479793 54.503078 71 33 34
-4.452601 0.597407 54.514404 73 33 33
-4.453556 0.715075 54.526100 74 33 33
-4.454534 0.832798 54.538071 76 33 34
-4.455527 0.950575 54.550228 78 34 36
-4.456529 1.068407 54.562492 80 35 36
-4.457531 1.186293 54.574772 83 36 37
-4.458529 1.304229 54.586990 85 38 39
-4.459518 1.422216 54.599098 87 39 41
-4.460492 1.540249 54.611019 88 40 43
-4.461447 1.658327 54.622715 89 41 44
-4.462379 1.776446 54.634121 89 41 46
-4.463284 1.894604 54.645210 89 42 46
-4.464161 2.012795 54.655937 89 43 47
-4.465003 2.131017 54.666256 88 43 46
-4.465810 2.249266 54.676128 88 44 45
-4.466578 2.367536 54.685528 89 45 43
-4.467304 2.485823 54.694420 90 46 43
-4.467986 2.604124 54.702766 91 47 43
-4.468621 2.722432 54.710548 92 48 44
-4.469210 2.840743 54.717758 93 49 45
-4.469752 2.959055 54.724392 94 49 47
-4.470247 3.077363 54.730457 94 49 47
-4.470700 3.195667 54.735992 94 49 47
-4.471113 3.313966 54.741058 96 50 49
-4.471494 3.432261 54.745716 97 50 50
-4.471850 3.550558 54.750076 96 49 50
-4.472192 3.668861 54.754269 96 47 50
-4.472534 3.787182 54.758446 96 46 49
-4.472888 3.905532 54.762787 96 45 48
-4.473272 4.023927 54.767487 96 45 48
-4.473703 4.142387 54.772770 97 45 48
-4.474202 4.260933 54.778870 99 45 49
-4.474787 4.379591 54.786041 101 46 50
-4.475480 4.498387 54.794514 103 46 51
-4.476299 4.617352 54.804554 106 47 51
-4.477267 4.736516 54.816402 106 47 51
-4.478401 4.855911 54.830288 106 46 50
-4.479720 4.975571 54.846432 105 45 49
-4.481239 5.095529 54.865025 105 44 48
-4.482972 5.215815 54.886242 106 46 50
-4.484931 5.336462 54.910225 105 47 50
-4.487123 5.457498 54.937077 104 47 50
-4.489559 5.578949 54.966888 102 47 50
-4.492239 5.700841 54.999710 100 45 50
-4.495167 5.823195 55.035553 99 44 49
-4.498340 5.946027 55.074398 98 42 47
-4.501756 6.069354 55.116222 97 41 45
-4.505409 6.193188 55.160954 97 42 45
-4.509293 6.317538 55.208504 98 44 46
-4.513398 6.442409 55.258766 99 45 47
-4.517715 6.567802 55.311607 96 43 45
-4.522229 6.693718 55.366886 93 42 44
-4.526930 6.820153 55.424438 91 41 43
-4.531802 6.947097 55.484081 91 40 43
-4.536827 7.074538 55.545609 91 41 43
-4.541986 7.202458 55.608776 91 43 43
-4.547260 7.330834 55.673347 91 44 44
-4.552626 7.459638 55.739037 91 44 43
-4.558056 7.588835 55.805527 89 43 42
-4.563526 7.718382 55.872486 88 41 41
-4.569003 7.848233 55.939548 88 41 42
-4.574457 7.978333 56.006325 88 41 42
-4.579855 8.108620 56.072411 88 41 42
-4.585161 8.239028 56.137375 88 40 42
-4.590341 8.369486 56.200794 88 40 41
-4.595360 8.499920 56.262249 86 39 40
-4.600187 8.630259 56.321346 84 38 39
-4.604791 8.760427 56.377712 83 37 38
-4.609145 8.890356 56.431019 82 37 38
-4.613227 9.019983 56.480991 80 37 37
-4.617019 9.149252 56.527424 79 37 38
-4.620511 9.278117 56.570168 82 41 41
-4.623696 9.406545 56.609177 84 43 45
-4.626576 9.534511 56.644436 80 41 42
-4.629158 9.662004 56.676044 77 38 39
-4.631453 9.789029 56.704136 75 37 38
-4.633478 9.915599 56.728935 74 36 36
-4.635254 10.041736 56.750683 72 35 36
-4.636806 10.167473 56.769676 71 34 35
-4.638157 10.292848 56.786221 70 34 34
-4.639335 10.417903 56.800636 69 33 33
-4.640362 10.542682 56.813221 69 33 34
-4.641265 10.667226 56.824272 69 33 35
-4.642064 10.791577 56.834049 70 33 35
-4.642776 10.915768 56.842777 71 33 36
-4.643418 11.039826 56.850632 72 33 35
-4.643999 11.163774 56.857746 73 32 35
-4.644527 11.287625 56.864216 74 32 34
-4.645007 11.411383 56.870083 76 32 33
-4.645438 11.535047 56.875366 77 33 34
-4.645821 11.658610 56.880047 77 34 35
-4.646150 11.782060 56.884079 77 34 35
-4.646422 11.905381 56.887417 77 35 36
-4.646635 12.028560 56.890011 77 35 36
-4.646780 12.151576 56.891796 77 34 36
-4.646856 12.274415 56.892719 78 34 36
-4.646860 12.397069 56.892773 78 34 36
-4.646792 12.519527 56.891941 79 35 36
-4.646653 12.641788 56.890240 80 36 36
-4.646446 12.763858 56.887711 81 36 36
-4.646177 12.885740 56.884411 81 37 36
-4.645849 13.007447 56.880398 82 39 38
-4.645471 13.128992 56.875763 84 42 41
-4.645047 13.250387 56.870571 84 43 42
-4.644583 13.371647 56.864899 82 43 43
-4.644085 13.492781 56.858795 81 43 43
-4.643552 13.613787 56.852272 81 45 44
-4.642983 13.734658 56.845310 81 47 46
-4.642375 13.855381 56.837856 81 49 48
-4.641715 13.975919 56.829781 81 49 49
-4.640991 14.096226 56.820919 78 47 47
-4.640184 14.216240 56.811039 75 43 43
-4.639271 14.335884 56.799858 73 41 42
-4.638224 14.455063 56.787041 74 42 43
-4.637014 14.573674 56.772228 75 42 43
-4.635608 14.691599 56.755013 75 42 43
-4.633973 14.808718 56.734989 74 41 41
-4.632075 14.924905 56.711758 70 39 38
-4.629886 15.040045 56.684952 66 36 35
-4.627377 15.154023 56.654240 63 34 33
-4.624531 15.266753 56.619389 62 35 33
-4.621332 15.378160 56.580223 62 35 34
-4.617777 15.488206 56.536701 62 35 35
-4.613873 15.596883 56.488903 62 36 37
-4.609636 15.704221 56.437035 63 37 39
-4.605095 15.810289 56.381439 64 37 41
-4.600289 15.915200 56.322594 64 37 42
-4.595266 16.019104 56.261097 64 36 42
-4.590086 16.122189 56.197678 63 35 41
-4.584813 16.224672 56.133118 61 34 38
-4.579518 16.326799 56.068291 59 33 35
-4.574275 16.428829 56.004089 57 31 33
-4.569155 16.531034 55.941414 56 30 31
-4.564232 16.633682 55.881130 56 31 31
-4.559571 16.737036 55.824074 56 31 31
-4.555234 16.841339 55.770969 56 32 32
-4.551271 16.946806 55.722454 56 32 32
-4.547726 17.053629 55.679043 54 32 32
-4.544629 17.161961 55.641129 51 30 31
-4.542002 17.271915 55.608967 49 29 29
-4.539855 17.383568 55.582680 46 28 28
-4.538188 17.496958 55.562267 44 27 27
-4.536991 17.612083 55.547611 42 26 25
-4.536246 17.728914 55.538490 41 25 25
-4.535928 17.847387 55.534603 40 25 25
-4.536008 17.967417 55.535580 41 26 25
-4.536451 18.088900 55.541004 41 26 25
-4.537220 18.211714 55.550423 39 24 23
-4.538279 18.335739 55.563377 38 23 23
-4.539587 18.460838 55.579411 37 23 22
-4.541113 18.586893 55.598087 37 22 21
-4.542820 18.713778 55.618988 36 22 21
-4.544680 18.841381 55.641750 36 22 21
-4.546664 18.969604 55.666046 35 22 21
-4.548751 19.098364 55.691593 34 22 21
-4.550922 19.227591 55.718182 34 22 21
-4.282622 -7.420205 53.854660 48 23 22
-4.281410 -7.302045 53.839413 49 24 22
-4.280200 -7.183956 53.824211 50 25 23
-4.278985 -7.065922 53.808926 51 25 23
-4.277756 -6.947932 53.793472 52 25 24
-4.276508 -6.829978 53.777771 51 26 24
-4.275235 -6.712053 53.761772 49 25 24
-4.273936 -6.594157 53.745434 47 25 23
-4.272609 -6.476288 53.728748 45 24 22
-4.271255 -6.358452 53.711727 43 23 22
-4.269878 -6.240655 53.694408 42 23 23
-4.268483 -6.122906 53.676857 42 23 23
-4.267075 -6.005215 53.659153 43 24 24
-4.265665 -5.887598 53.641418 43 24 24
-4.264264 -5.770070 53.623810 43 24 24
-4.262889 -5.652651 53.606510 43 24 24
-4.261555 -5.535361 53.589741 42 24 23
-4.260284 -5.418223 53.573757 42 24 23
-4.259099 -5.301261 53.558857 43 24 24
-4.258026 -5.184499 53.545353 43 24 23
-4.257091 -5.067961 53.533600 43 24 24
-4.256325 -4.951669 53.523968 44 24 24
-4.255758 -4.835645 53.516834 44 24 24
-4.255420 -4.719906 53.512585 44 23 24
-4.255339 -4.604464 53.511574 43 23 23
-4.255543 -4.489326 53.514141 44 23 23
-4.256056 -4.374496 53.520592 45 22 22
-4.256897 -4.259964 53.531166 45 22 22
-4.258080 -4.145721 53.546040 43 23 22
-4.259612 -4.031744 53.565304 43 23 22
-4.261494 -3.918005 53.588966 43 24 22
-4.263718 -3.804470 53.616936 43 24 22
-4.266268 -3.691096 53.649002 43 24 22
-4.269122 -3.577839 53.684891 44 23 23
-4.272246 -3.464646 53.724186 45 23 23
-4.275604 -3.351467 53.766411 46 23 23
-4.279150 -3.238248 53.811005 48 24 24
-4.282835 -3.124938 53.857338 50 25 25
-4.286604 -3.011488 53.904739 51 25 26
-4.290404 -2.897854 53.952515 51 25 26
-4.294178 -2.783998 53.999981 50 25 26
-4.297874 -2.669888 54.046455 49 25 26
-4.301443 -2.555502 54.091335 47 25 25
-4.304839 -2.440825 54.134037 46 25 25
-4.308025 -2.325850 54.174107 47 25 25
-4.310971 -2.210580 54.211151 48 25 26
-4.313656 -2.095023 54.244915 49 25 26
-4.316067 -1.979195 54.275242 50 25 27
-4.318201 -1.863116 54.302071 51 26 28
-4.320062 -1.746812 54.325474 53 27 29
-4.321663 -1.630308 54.345604 54 28 30
-4.323023 -1.513634 54.362709 56 28 30
-4.324167 -1.396815 54.377094 58 28 30
-4.325123 -1.279880 54.389118 60 28 29
-4.325923 -1.162850 54.399181 61 28 30
-4.326598 -1.045747 54.407669 62 27 30
-4.327181 -0.928588 54.414997 63 27 31
-4.327702 -0.811385 54.421539 63 28 31
-4.328187 -0.694148 54.427654 63 29 32
-4.328664 -0.576884 54.433640 63 29 32
-4.329151 -0.459595 54.439770 62 30 32
-4.329667 -0.342282 54.446255 63 31 33
-4.330222 -0.224943 54.453239 64 32 34
-4.330827 -0.107575 54.460846 66 33 35
-4.331486 0.009825 54.469128 68 34 36
-4.332200 0.127263 54.478115 69 35 37
-4.332969 0.244743 54.487785 70 35 37
-4.333790 0.362269 54.498104 71 34 36
-4.334656 0.479845 54.508999 72 34 34
-4.335562 0.597473 54.520393 72 33 34
-4.336501 0.715155 54.532200 74 33 34
-4.337466 0.832893 54.544327 76 33 34
-4.338448 0.950688 54.556679 78 34 36
-4.339442 1.068538 54.569176 80 35 36
-4.340439 1.186444 54.581722 83 36 38
-4.341436 1.304403 54.594261 85 38 40
-4.342426 1.422414 54.606709 87 39 42
-4.343405 1.540475 54.619015 89 41 44
-4.344368 1.658583 54.631126 90 41 46
-4.345311 1.776734 54.642982 90 42 48
-4.346230 1.894927 54.654541 91 43 49
-4.347123 2.013157 54.665771 90 43 48
-4.347985 2.131421 54.676617 90 44 48
-4.348814 2.249714 54.687042 89 45 46
-4.349607 2.368033 54.697010 89 45 44
-4.350361 2.486372 54.706490 90 46 43
-4.351073 2.604727 54.715443 91 47 43
-4.351742 2.723094 54.723850 92 48 44
-4.352365 2.841467 54.731697 93 49 45
-4.352944 2.959843 54.738968 93 49 46
-4.353478 3.078220 54.745686 92 49 46
-4.353970 3.196594 54.751869 92 49 47
-4.354424 3.314966 54.757580 94 50 49
-4.354845 3.433337 54.762875 95 50 50
-4.355242 3.551711 54.767868 95 48 49
-4.355624 3.670094 54.772667 94 47 49
-4.356003 3.788495 54.777435 94 45 48
-4.356393 3.906927 54.782345 94 44 47
-4.356810 4.025404 54.787590 95 45 47
-4.357272 4.143947 54.793396 96 45 47
-4.357796 4.262576 54.799988 97 45 48
-4.358403 4.381317 54.807621 100 46 49
-4.359112 4.500196 54.816540 102 46 51
-4.359944 4.619242 54.826992 105 47 52
-4.360918 4.738489 54.839237 106 47 52
-4.362051 4.857966 54.853500 106 47 52
-4.363364 4.977709 54.870003 106 46 50
-4.364870 5.097750 54.888943 105 46 49
-4.366584 5.218120 54.910492 104 46 48
-4.368516 5.338850 54.934788 104 47 48
-4.370677 5.459969 54.961956 105 48 49
-4.373070 5.581504 54.992062 104 48 51
-4.375702 5.703479 55.025158 103 47 51
-4.378572 5.825913 55.061253 102 46 50
-4.381680 5.948826 55.100334 101 45 48
-4.385022 6.072232 55.142357 99 44 46
-4.388592 6.196141 55.187252 99 44 46
-4.392383 6.320561 55.234921 99 44 46
