ply
format ascii 1.0
element vertex 1206
property float x
property float y
property float z
property uchar red
property uchar green
property uchar blue
end_header
5.831102 -11.867741 56.225342 39 29 29
5.829871 -11.744057 56.213463 42 31 31
5.828634 -11.620414 56.201542 45 32 32
5.827423 -11.496873 56.189861 46 31 32
5.826266 -11.373487 56.178707 47 30 31
5.825185 -11.250299 56.168285 48 28 30
5.824199 -11.127335 56.158779 50 27 30
5.823319 -11.004613 56.150295 53 28 30
5.822550 -10.882134 56.142879 57 31 32
5.821892 -10.759892 56.136532 63 36 37
5.821338 -10.637868 56.131187 70 42 42
5.820877 -10.516035 56.126743 73 46 46
5.820496 -10.394364 56.123066 74 49 48
5.820177 -10.272819 56.119991 75 51 50
5.819901 -10.151362 56.117336 73 48 48
5.819651 -10.029961 56.114922 65 41 42
5.819408 -9.908584 56.112583 60 35 38
5.819157 -9.787201 56.110165 60 35 38
5.818886 -9.665796 56.107548 64 38 43
5.818585 -9.544353 56.104641 73 46 53
5.818249 -9.422867 56.101406 78 51 58
5.817877 -9.301335 56.097816 76 49 57
5.817472 -9.179770 56.093914 82 55 64
5.817042 -9.058180 56.089771 99 72 83
5.816597 -8.936586 56.085484 106 79 90
5.816151 -8.815008 56.081177 96 69 80
5.815718 -8.693468 56.077000 81 55 65
5.815316 -8.571993 56.073120 71 45 54
5.814962 -8.450604 56.069714 69 42 49
5.814674 -8.329324 56.066936 71 45 51
5.814468 -8.208172 56.064953 77 50 56
5.814361 -8.087166 56.063919 83 56 61
5.814366 -7.966318 56.063961 88 59 64
5.814495 -7.845636 56.065205 89 60 65
5.814757 -7.725127 56.067738 86 57 62
5.815161 -7.604793 56.071632 82 52 58
5.815713 -7.484632 56.076954 83 52 59
5.816416 -7.364638 56.083729 84 53 61
5.817272 -7.244806 56.091980 78 49 57
5.818281 -7.125127 56.101711 71 42 50
5.819443 -7.005589 56.112915 68 40 48
5.820756 -6.886182 56.125580 72 44 53
5.822217 -6.766892 56.139660 82 55 64
5.823822 -6.647707 56.155144 96 69 78
5.825567 -6.528611 56.171970 111 83 92
5.827450 -6.409593 56.190121 120 90 101
5.829463 -6.290639 56.209534 118 87 98
5.831604 -6.171737 56.230183 107 76 86
5.833869 -6.052873 56.252022 100 70 79
5.836253 -5.934036 56.275005 102 73 81
5.838752 -5.815215 56.299099 105 79 85
5.841362 -5.696399 56.324276 107 81 87
5.844082 -5.577579 56.350498 110 85 90
5.846909 -5.458745 56.377754 121 98 101
5.849841 -5.339890 56.406021 135 113 116
5.852876 -5.221005 56.435291 140 117 122
5.856016 -5.102085 56.465565 137 113 120
5.859261 -4.983124 56.496857 138 114 123
5.862612 -4.864117 56.529171 141 116 127
5.866072 -4.745058 56.562531 134 108 122
5.869644 -4.625943 56.596970 122 97 113
5.873331 -4.506767 56.632519 111 86 103
5.877136 -4.387527 56.669209 102 79 95
5.881062 -4.268218 56.707069 103 82 98
5.885113 -4.148832 56.746128 116 96 112
5.889290 -4.029364 56.786404 128 109 124
5.893594 -3.909807 56.827908 130 114 127
5.898026 -3.790153 56.870636 128 113 126
5.902580 -3.670391 56.914555 123 110 123
5.907255 -3.550513 56.959633 124 113 126
5.912044 -3.430506 57.005806 138 126 141
5.916937 -3.310358 57.052982 148 137 152
5.921925 -3.190058 57.101078 137 125 141
5.926994 -3.069592 57.149963 118 104 120
5.932133 -2.948951 57.199512 115 102 116
5.937326 -2.828122 57.249584 143 130 141
5.942557 -2.707094 57.300022 185 172 180
5.947811 -2.585859 57.350685 220 210 214
5.953072 -2.464407 57.401409 237 232 233
5.958322 -2.342734 57.452030 220 214 215
5.963548 -2.220833 57.502426 171 165 167
5.968733 -2.098700 57.552418 119 114 118
5.973862 -1.976333 57.601875 92 88 92
5.978922 -1.853732 57.650669 116 114 117
5.983898 -1.730896 57.698647 167 165 166
5.988778 -1.607827 57.745697 207 207 206
5.993547 -1.484528 57.791691 233 233 232
5.998198 -1.361004 57.836533 247 249 248
6.002719 -1.237260 57.880123 254 254 254
6.007102 -1.113302 57.922394 252 253 253
6.011344 -0.989139 57.963295 224 227 229
6.015443 -0.864779 58.002811 198 204 208
6.019400 -0.740231 58.040962 221 226 230
6.023221 -0.615505 58.077812 232 234 238
6.026919 -0.490609 58.113468 200 203 209
6.030508 -0.365554 58.148071 196 198 206
6.034009 -0.240346 58.181828 230 230 236
6.037446 -0.114991 58.214977 249 249 252
6.040850 0.010507 58.247791 243 243 246
6.044250 0.136146 58.280571 213 212 220
6.047678 0.261928 58.313633 160 158 171
6.051169 0.387856 58.347294 120 118 134
6.054753 0.513938 58.381851 118 117 133
6.058459 0.640181 58.417587 135 134 151
6.062310 0.766596 58.454723 151 151 167
6.066326 0.893196 58.493439 168 169 183
6.070517 1.019993 58.533848 180 181 193
6.074886 1.146997 58.575977 185 187 197
6.079429 1.274219 58.619785 203 205 211
6.084134 1.401668 58.665154 229 231 233
6.088980 1.529347 58.711880 239 240 241
6.093938 1.657258 58.759689 243 243 244
6.098975 1.785399 58.808254 251 251 251
6.104051 1.913761 58.857193 254 254 254
6.109122 2.042333 58.906094 254 254 254
6.114144 2.171098 58.954521 254 254 254
6.119073 2.300037 59.002048 245 245 247
6.123865 2.429126 59.048252 225 225 230
6.128479 2.558340 59.092739 219 219 224
6.132880 2.687653 59.135178 236 236 238
6.137038 2.817037 59.175266 251 250 251
6.140930 2.946466 59.212795 253 253 254
6.144540 3.075916 59.247608 252 252 253
6.147861 3.205365 59.279625 246 245 246
6.150892 3.334796 59.308853 237 235 236
6.153639 3.464192 59.335346 232 229 231
6.156116 3.593545 59.359226 212 209 216
6.158341 3.722849 59.380684 172 169 180
6.160336 3.852101 59.399918 141 139 153
6.162125 3.981303 59.417164 153 150 166
6.163734 4.110459 59.432682 188 185 200
6.165189 4.239576 59.446709 209 204 219
6.166513 4.368661 59.459476 220 214 228
6.167727 4.497722 59.471188 235 229 240
6.168850 4.626764 59.482014 240 235 243
6.169895 4.755793 59.492092 223 217 223
6.170871 4.884810 59.501499 211 205 210
6.171784 5.013817 59.510300 227 223 225
6.172635 5.142809 59.518505 231 228 230
6.173422 5.271783 59.526093 210 208 210
6.174141 5.400731 59.533031 211 209 213
6.174789 5.529645 59.539280 236 235 238
6.175361 5.658514 59.544788 249 247 250
6.175851 5.787333 59.549519 245 242 244
6.176259 5.916092 59.553452 225 221 225
6.176584 6.044788 59.556587 211 205 209
6.176831 6.173418 59.558964 225 222 223
6.177005 6.301985 59.560646 246 246 245
6.177117 6.430495 59.561729 235 233 233
6.177181 6.558957 59.562340 198 194 193
6.177212 6.687387 59.562637 190 183 181
6.177227 6.815801 59.562786 203 195 193
6.177246 6.944219 59.562969 207 199 196
6.177287 7.072664 59.563362 222 216 213
6.177368 7.201157 59.564148 244 242 241
6.177505 7.329720 59.565472 234 234 232
6.177712 7.458373 59.567467 179 179 175
6.177999 7.587132 59.570221 154 155 149
6.178368 7.716007 59.573792 195 196 193
6.178823 7.845005 59.578171 229 231 230
6.179356 7.974124 59.583317 226 228 229
6.179958 8.103355 59.589123 217 219 221
6.180613 8.232681 59.595436 212 215 216
6.181298 8.362076 59.602043 213 217 218
6.181990 8.491508 59.608707 217 222 222
6.182656 8.620933 59.615131 202 208 208
6.183265 8.750304 59.621002 173 180 182
6.183782 8.879569 59.625984 169 178 182
6.184170 9.008669 59.629734 190 200 204
6.184396 9.137544 59.631908 178 187 193
6.184425 9.266134 59.632195 119 126 133
6.184228 9.394382 59.630295 91 96 105
6.183778 9.522232 59.625954 140 141 149
6.183055 9.649636 59.618980 207 206 212
6.182044 9.776555 59.609226 241 240 244
6.180735 9.902956 59.596611 231 229 235
6.179129 10.028820 59.581123 179 177 187
6.177231 10.154137 59.562820 113 112 125
6.175053 10.278909 59.541821 75 77 91
6.172614 10.403150 59.518303 80 84 98
6.169938 10.526885 59.492496 106 112 126
6.167052 10.650148 59.464676 126 133 148
6.163989 10.772980 59.435139 134 142 157
6.160780 10.895428 59.404202 149 155 170
6.157461 11.017544 59.372196 181 184 198
6.154064 11.139381 59.339439 198 198 211
6.150619 11.260989 59.306221 169 166 179
6.147153 11.382418 59.272808 125 120 130
6.143692 11.503707 59.239426 108 102 110
6.140252 11.624895 59.206257 103 99 104
6.136847 11.746008 59.173431 93 88 93
6.133486 11.867063 59.141022 83 79 84
6.130171 11.988068 59.109055 97 93 98
6.126900 12.109022 59.077515 153 149 154
6.123666 12.229914 59.046329 206 202 206
6.120458 12.350725 59.015400 189 183 187
6.117265 12.471432 58.984608 133 127 131
6.114070 12.592005 58.953812 105 98 102
6.110861 12.712412 58.922859 99 91 95
6.107621 12.832623 58.891624 88 81 85
6.104341 12.952612 58.859989 77 69 72
6.101007 13.072352 58.827850 75 67 70
6.097616 13.191829 58.795151 92 84 86
6.094164 13.311032 58.761868 128 118 120
6.090653 13.429961 58.728016 160 151 152
6.087090 13.548629 58.693661 163 154 155
6.083485 13.667052 58.658897 138 128 129
6.079852 13.785264 58.623867 109 100 101
6.076208 13.903300 58.588730 94 85 86
6.072574 14.021207 58.553692 99 89 90
6.068972 14.139035 58.518951 119 109 111
6.065423 14.256842 58.484737 141 130 132
6.061951 14.374681 58.451256 155 142 145
6.058576 14.492609 58.418713 151 137 141
6.055316 14.610676 58.387283 134 119 124
6.052189 14.728929 58.357132 113 98 105
6.049207 14.847406 58.328369 96 79 88
6.046378 14.966140 58.301090 85 68 78
6.043706 15.085149 58.275333 86 68 77
6.041193 15.204447 58.251102 98 79 86
6.038836 15.324034 58.228371 116 96 100
6.036628 15.443906 58.207081 134 114 116
6.034561 15.564050 58.187149 149 130 129
6.032624 15.684446 58.168476 147 129 127
6.030806 15.805074 58.150948 129 111 110
6.029096 15.925912 58.134460 117 100 100
6.027484 16.046938 58.118916 112 95 96
6.025961 16.168137 58.104229 105 88 91
6.024521 16.289495 58.090343 94 78 82
6.023159 16.411005 58.077206 83 66 71
6.021873 16.532673 58.064819 74 56 61
6.020667 16.654503 58.053181 68 49 53
5.959405 -13.216719 56.292408 33 25 25
5.960005 -13.096690 56.298077 34 25 25
5.960369 -12.976122 56.301510 34 25 26
5.960490 -12.855017 56.302658 35 26 26
5.960369 -12.733387 56.301510 36 27 27
5.960013 -12.611267 56.298145 37 28 28
5.959437 -12.488700 56.292706 37 28 28
5.958662 -12.365744 56.285385 37 28 28
5.957715 -12.242465 56.276440 37 27 27
5.956625 -12.118936 56.266148 36 26 26
5.955429 -11.995235 56.254848 37 27 27
5.954163 -11.871445 56.242889 40 29 29
5.952862 -11.747637 56.230602 44 32 32
5.951562 -11.623884 56.218323 46 32 33
5.950295 -11.500248 56.206360 46 32 32
5.949091 -11.376783 56.194981 47 30 31
5.947972 -11.253528 56.184410 48 28 30
5.946957 -11.130513 56.174820 50 27 29
5.946055 -11.007750 56.166302 52 27 29
5.945274 -10.885245 56.158928 56 29 31
5.944613 -10.762987 56.152679 64 35 36
5.944063 -10.640957 56.147488 71 43 43
5.943616 -10.519131 56.143265 75 47 46
5.943254 -10.397472 56.139847 76 49 48
5.942962 -10.275948 56.137081 78 53 52
5.942718 -10.154517 56.134777 76 51 51
5.942503 -10.033149 56.132755 67 42 44
5.942301 -9.911807 56.130836 60 34 38
5.942093 -9.790465 56.128876 60 34 38
5.941866 -9.669101 56.126732 64 38 42
5.941610 -9.547700 56.124317 73 45 50
5.941319 -9.426253 56.121571 78 49 55
5.940993 -9.304763 56.118488 76 49 56
5.940633 -9.183234 56.115089 82 55 62
5.940247 -9.061680 56.111439 97 70 78
5.939845 -8.940117 56.107639 104 77 87
5.939439 -8.818565 56.103809 99 72 82
5.939046 -8.697049 56.100094 87 60 70
5.938682 -8.575591 56.096657 76 49 58
5.938365 -8.454214 56.093662 72 44 52
5.938113 -8.332941 56.091282 73 45 52
5.937943 -8.211792 56.089672 75 48 54
5.937870 -8.090781 56.088982 78 50 55
5.937909 -7.969925 56.089348 80 51 55
5.938071 -7.849229 56.090881 80 51 55
5.938367 -7.728703 56.093681 79 51 55
5.938806 -7.608346 56.097828 79 50 55
5.939393 -7.488158 56.103374 80 52 57
5.940132 -7.368134 56.110352 82 53 59
5.941025 -7.248269 56.118793 77 49 56
5.942074 -7.128553 56.128693 70 42 49
5.943276 -7.008976 56.140049 67 40 47
5.944631 -6.889528 56.152847 71 43 51
5.946136 -6.770195 56.167061 78 51 58
5.947786 -6.650963 56.182652 89 61 69
5.949579 -6.531821 56.199593 101 72 82
5.951510 -6.412754 56.217831 110 79 91
5.953576 -6.293751 56.237343 111 79 93
5.955770 -6.174798 56.258072 107 75 89
5.958091 -6.055883 56.279995 104 73 87
5.960532 -5.936994 56.303055 105 76 88
5.963092 -5.818121 56.327236 107 80 91
5.965768 -5.699255 56.352509 107 81 90
5.968555 -5.580384 56.378838 106 82 88
5.971453 -5.461500 56.406212 112 89 92
5.974461 -5.342597 56.434620 123 101 103
5.977576 -5.223666 56.464050 132 109 111
5.980803 -5.104702 56.494526 136 113 116
5.984139 -4.985699 56.526043 140 116 121
5.987588 -4.866651 56.558624 142 116 124
5.991154 -4.747555 56.592300 136 108 120
5.994837 -4.628405 56.627094 126 98 113
5.998643 -4.509197 56.663052 116 88 107
6.002575 -4.389926 56.700188 107 80 101
6.006635 -4.270586 56.738541 103 78 99
6.010828 -4.151173 56.778145 108 84 105
6.015154 -4.031678 56.819008 116 93 113
6.019613 -3.912093 56.861130 120 99 118
6.024204 -3.792409 56.904495 120 101 119
6.028923 -3.672617 56.949070 121 103 120
6.033764 -3.552705 56.994797 122 106 124
6.038720 -3.432660 57.041611 126 111 129
6.043780 -3.312471 57.089409 127 112 132
6.048931 -3.192124 57.138069 118 104 125
6.054161 -3.071607 57.187469 105 91 112
6.059452 -2.950907 57.237446 103 89 108
6.064788 -2.830012 57.287849 119 106 121
6.070152 -2.708912 57.338516 148 135 145
6.075525 -2.587598 57.389271 188 178 182
6.080890 -2.466062 57.439949 228 222 222
6.086231 -2.344298 57.490395 234 227 224
6.091528 -2.222301 57.540443 192 185 182
6.096769 -2.100068 57.589943 130 125 123
6.101936 -1.977598 57.638748 87 83 83
6.107015 -1.854891 57.686726 85 81 81
6.111993 -1.731949 57.733749 115 113 113
6.116859 -1.608774 57.779709 158 158 156
6.121600 -1.485371 57.824493 195 197 194
6.126206 -1.361745 57.868004 228 230 229
6.130670 -1.237902 57.910172 249 250 249
6.134986 -1.113851 57.950939 253 253 253
6.139150 -0.989599 57.990273 223 226 229
6.143161 -0.865157 58.028156 198 204 210
6.147022 -0.740533 58.064629 222 227 231
6.150741 -0.615737 58.099762 223 226 230
6.154330 -0.490780 58.133659 186 188 195
6.157804 -0.365670 58.166473 191 192 200
6.161184 -0.240414 58.198406 233 232 237
6.164496 -0.115020 58.229687 253 253 254
6.167767 0.010509 58.260586 252 252 253
6.171028 0.136171 58.291393 235 233 238
6.174313 0.261967 58.322414 187 182 193
6.177652 0.387901 58.353958 133 127 141
6.181077 0.513977 58.386314 116 110 126
6.184618 0.640205 58.419762 128 124 139
6.188297 0.766594 58.454514 137 135 150
6.192133 0.893155 58.490753 140 140 154
6.196139 1.019901 58.528587 144 145 157
6.200318 1.146842 58.568062 153 155 165
6.204666 1.273988 58.609135 180 183 190
6.209173 1.401346 58.651707 210 214 217
6.213818 1.528923 58.695587 221 226 226
6.218576 1.656718 58.740528 232 234 234
6.223413 1.784730 58.786221 246 247 248
6.228292 1.912952 58.832302 247 247 249
6.233171 2.041372 58.878391 237 238 242
6.238008 2.169977 58.924080 235 236 241
6.242758 2.298747 58.968956 237 237 244
6.247381 2.427660 59.012623 233 233 241
6.251837 2.556694 59.054714 235 235 241
6.256093 2.685823 59.094910 247 246 249
6.260118 2.815022 59.132935 253 252 254
6.263892 2.944266 59.168583 253 252 254
6.267400 3.073534 59.201717 246 244 247
6.270635 3.202805 59.232273 219 216 220
6.273596 3.332063 59.260250 195 190 195
6.276293 3.461295 59.285721 200 194 200
6.278737 3.590492 59.308804 202 197 204
6.280947 3.719651 59.329685 180 176 184
6.282946 3.848771 59.348564 169 165 176
6.284758 3.977853 59.365681 191 188 200
6.286409 4.106904 59.381275 221 217 228
6.287923 4.235930 59.395580 229 224 236
6.289325 4.364940 59.408825 230 224 236
6.290634 4.493941 59.421188 240 235 245
6.291868 4.622939 59.432838 241 238 243
6.293037 4.751939 59.443890 217 214 219
6.294151 4.880944 59.454414 202 199 204
6.295213 5.009953 59.464436 221 218 223
6.296221 5.138961 59.473965 232 231 235
6.297173 5.267963 59.482952 211 211 215
6.298062 5.396950 59.491348 203 203 209
6.298881 5.525911 59.499084 224 224 230
6.299623 5.654838 59.506092 242 242 246
6.300281 5.783717 59.512314 246 244 248
6.300852 5.912541 59.517708 231 227 233
6.301333 6.041303 59.522255 208 202 209
6.301728 6.169999 59.525978 214 210 214
6.302040 6.298629 59.528927 240 238 238
6.302279 6.427197 59.531181 230 230 228
6.302457 6.555711 59.532864 195 192 190
6.302589 6.684185 59.534119 191 187 184
6.302695 6.812634 59.535114 207 202 198
6.302791 6.941077 59.536015 207 202 198
6.302896 7.069536 59.537018 219 214 211
6.303031 7.198031 59.538292 242 241 239
6.303212 7.326586 59.539997 240 240 238
6.303452 7.455218 59.542271 198 197 192
6.303763 7.583945 59.545208 167 167 161
6.304151 7.712779 59.548866 188 188 184
6.304616 7.841724 59.553257 215 216 215
6.305154 7.970782 59.558346 228 229 229
6.305757 8.099944 59.564037 228 229 229
6.306408 8.229194 59.570190 209 212 212
6.307087 8.358507 59.576607 196 199 199
6.307770 8.487852 59.583050 190 194 193
6.308426 8.617189 59.589249 169 174 173
6.309023 8.746472 59.594891 152 158 157
6.309528 8.875648 59.599659 169 176 175
6.309904 9.004662 59.603210 202 209 209
6.310118 9.133456 59.605232 191 199 200
6.310136 9.261971 59.605404 127 134 137
6.309928 9.390152 59.603443 95 99 104
6.309469 9.517943 59.599102 143 145 152
6.308738 9.645302 59.592201 212 212 217
6.307722 9.772187 59.582596 242 241 245
6.306410 9.898569 59.570210 219 218 227
6.304804 10.024428 59.555035 156 155 170
6.302908 10.149756 59.537128 94 94 111
6.300737 10.274557 59.516617 69 71 87
6.298308 10.398846 59.493675 81 85 100
6.295647 10.522645 59.468536 106 111 125
6.292780 10.645990 59.441463 122 129 142
6.289741 10.768922 59.412754 131 138 151
6.286562 10.891489 59.382729 152 157 170
6.283279 11.013742 59.351711 187 190 203
6.279922 11.135733 59.320004 201 200 213
6.276524 11.257511 59.287903 163 159 173
6.273112 11.379127 59.255672 114 108 121
6.269709 11.500621 59.223534 101 95 105
6.266335 11.622029 59.191662 103 97 105
6.263003 11.743378 59.160183 95 90 96
6.259720 11.864686 59.129177 87 81 88
6.256490 11.985960 59.098663 102 97 103
6.253310 12.107199 59.068623 155 151 156
6.250173 12.228394 59.038990 197 193 197
6.247068 12.349524 59.009663 173 168 172
6.243982 12.470567 58.980518 125 118 124
6.240901 12.591493 58.951412 104 97 103
6.237810 12.712271 58.922207 98 91 97
6.234692 12.832871 58.892761 85 78 84
6.231537 12.953265 58.862957 72 65 70
6.228333 13.073428 58.832691 72 64 69
6.225073 13.193343 58.801899 98 89 93
6.221755 13.313001 58.770557 144 134 137
6.218380 13.432399 58.738674 179 169 172
6.214953 13.551547 58.706303 176 166 168
6.211484 13.670465 58.673538 147 137 139
6.207987 13.789178 58.640511 120 111 112
6.204480 13.907723 58.607372 104 96 98
6.200980 14.026147 58.574322 106 98 100
6.197511 14.144494 58.541546 120 112 113
6.194092 14.262818 58.509254 134 124 126
6.190748 14.381176 58.477661 146 134 135
6.187496 14.499615 58.446949 148 136 137
6.184356 14.618184 58.417290 139 125 127
6.181344 14.736930 58.388832 119 103 107
6.178469 14.855885 58.361679 95 79 85
6.175741 14.975078 58.335911 80 64 71
6.173164 15.094528 58.311565 81 64 70
6.170736 15.214243 58.288635 95 77 81
6.168455 15.334224 58.267090 111 93 97
6.166313 15.454459 58.246857 129 111 113
6.164301 15.574937 58.227852 147 129 130
6.162408 15.695634 58.209969 147 130 130
6.160622 15.816530 58.193100 127 111 111
6.158932 15.937601 58.177132 113 96 98
6.157327 16.058825 58.161968 110 93 96
6.155797 16.180183 58.147522 108 91 95
6.154337 16.301662 58.133732 100 84 88
6.152944 16.423258 58.120567 89 72 77
6.151615 16.544973 58.108013 78 61 66
6.150352 16.666813 58.096088 70 52 57
6.083329 -13.222319 56.316261 32 24 23
6.083867 -13.102077 56.321236 33 25 24
6.084162 -12.981297 56.323967 33 25 25
6.084209 -12.859982 56.324406 34 26 26
6.084011 -12.738150 56.322567 35 27 27
6.083574 -12.615831 56.318523 36 28 27
6.082915 -12.493075 56.312428 36 28 27
6.082057 -12.369941 56.304489 37 28 27
6.081028 -12.246494 56.294960 37 27 27
6.079861 -12.122812 56.284149 36 26 26
6.078589 -11.998974 56.272381 38 27 27
6.077252 -11.875057 56.260002 41 29 30
6.075888 -11.751140 56.247368 45 32 32
6.074530 -11.627291 56.234798 47 32 33
6.073214 -11.503575 56.222618 47 32 32
6.071969 -11.380043 56.211086 47 30 31
6.070817 -11.256737 56.200428 48 28 30
6.069778 -11.133682 56.190815 50 27 29
6.068864 -11.010895 56.182350 52 27 28
6.068079 -10.888375 56.175079 56 29 30
6.067422 -10.766116 56.168999 63 35 35
6.066886 -10.644094 56.164040 71 42 42
6.066460 -10.522284 56.160091 75 47 46
6.066127 -10.400651 56.157009 78 50 49
6.065868 -10.279158 56.154617 81 54 54
6.065666 -10.157768 56.152744 80 54 54
6.065497 -10.036443 56.151184 71 45 47
6.065344 -9.915149 56.149765 62 35 39
6.065188 -9.793857 56.148319 60 33 36
6.065015 -9.672544 56.146717 64 36 40
6.064815 -9.551195 56.144863 70 42 47
6.064580 -9.429801 56.142693 75 46 51
6.064310 -9.308362 56.140190 76 48 53
6.064005 -9.186880 56.137367 81 53 59
6.063672 -9.065369 56.134285 90 63 69
6.063322 -8.943845 56.131039 97 70 77
6.062966 -8.822329 56.127747 96 69 76
6.062621 -8.700840 56.124550 89 62 70
6.062302 -8.579403 56.121597 80 53 61
6.062028 -8.458042 56.119064 75 48 54
6.061817 -8.336778 56.117107 74 47 53
6.061686 -8.215631 56.115891 75 48 53
6.061649 -8.094615 56.115555 76 49 53
6.061723 -7.973746 56.116241 77 49 53
6.061920 -7.853033 56.118061 76 48 52
6.062249 -7.732481 56.121109 75 47 51
6.062720 -7.612095 56.125473 75 48 52
6.063340 -7.491872 56.131207 77 49 54
6.064111 -7.371810 56.138344 77 51 56
6.065036 -7.251901 56.146912 74 49 54
6.066117 -7.132138 56.156921 69 43 49
6.067354 -7.012512 56.168365 67 40 47
6.068742 -6.893009 56.181221 70 42 50
6.070283 -6.773621 56.195488 76 48 56
6.071972 -6.654333 56.211121 83 54 64
6.073804 -6.535132 56.228077 91 62 74
6.075776 -6.416006 56.246334 99 68 82
6.077884 -6.296942 56.265854 102 69 86
6.080125 -6.177928 56.286598 102 70 88
6.082493 -6.058953 56.308521 102 71 90
6.084986 -5.940003 56.331593 105 75 93
6.087599 -5.821070 56.355785 109 81 96
6.090331 -5.702144 56.381077 108 82 94
6.093179 -5.583215 56.407440 104 79 88
6.096140 -5.464274 56.434860 105 81 86
6.099216 -5.345315 56.463329 113 90 93
6.102407 -5.226331 56.492867 122 100 101
6.105711 -5.107316 56.523457 129 105 108
6.109132 -4.988265 56.555134 135 109 114
6.112673 -4.869171 56.587910 137 109 117
6.116336 -4.750031 56.621819 133 103 115
6.120125 -4.630841 56.656898 126 94 111
6.124045 -4.511595 56.693184 118 87 107
6.128098 -4.392288 56.730701 110 79 102
6.132287 -4.272915 56.769485 104 75 98
6.136616 -4.153469 56.809559 103 75 99
6.141085 -4.033943 56.850929 106 80 103
6.145694 -3.914327 56.893597 108 84 106
6.150441 -3.794612 56.937546 108 85 106
6.155320 -3.674787 56.982712 112 91 110
6.160325 -3.554839 57.029045 122 102 123
6.165445 -3.434757 57.076447 132 113 135
6.170670 -3.314525 57.124809 126 109 132
6.175983 -3.194131 57.174000 107 91 116
6.181369 -3.073562 57.223866 94 80 104
6.186811 -2.952804 57.274242 94 81 103
6.192288 -2.831845 57.324947 100 88 105
6.197783 -2.710675 57.375816 115 103 115
6.203274 -2.589283 57.426643 156 145 150
6.208743 -2.467664 57.477272 207 198 196
6.214170 -2.345812 57.527512 233 226 219
6.219539 -2.223721 57.577213 217 211 202
6.224831 -2.101391 57.626209 170 165 159
6.230033 -1.978820 57.674366 126 121 116
6.235129 -1.856011 57.721542 87 83 81
6.240107 -1.732965 57.767628 79 77 75
6.244955 -1.609687 57.812508 115 114 114
6.249663 -1.486182 57.856091 156 158 157
6.254223 -1.362458 57.898304 198 200 201
6.258626 -1.238520 57.939068 236 238 238
6.262870 -1.114378 57.978355 248 250 251
6.266952 -0.990041 58.016140 217 220 226
6.270871 -0.865519 58.052425 189 195 205
6.274633 -0.740821 58.087250 217 222 229
6.278245 -0.615959 58.120689 230 233 238
6.281721 -0.490942 58.152863 211 214 219
6.285075 -0.365779 58.183918 221 222 227
6.288330 -0.240479 58.214050 244 244 247
6.291510 -0.115047 58.243488 253 252 254
6.294643 0.010511 58.272495 253 253 254
6.297760 0.136195 58.301350 246 245 248
6.300893 0.262003 58.330353 211 205 212
6.304074 0.387939 58.359802 151 142 152
6.307334 0.514009 58.389977 116 107 118
6.310701 0.640220 58.421150 120 114 125
6.314199 0.766581 58.453533 130 126 136
6.317847 0.893103 58.487305 126 125 135
6.321658 1.019796 58.522583 123 124 133
6.325636 1.146672 58.559414 131 135 142
6.329780 1.273741 58.597771 157 163 168
6.334078 1.401008 58.637562 183 190 194
6.338513 1.528481 58.678619 199 206 207
6.343060 1.656159 58.720711 221 225 226
6.347688 1.784042 58.763554 241 243 244
6.352360 1.912123 58.806808 231 233 237
6.357038 2.040392 58.850113 203 206 216
6.361681 2.168835 58.893085 197 199 211
6.366244 2.297436 58.935341 213 214 226
6.370691 2.426174 58.976505 226 228 240
6.374982 2.555027 59.016228 236 238 247
6.379085 2.683973 59.054211 245 246 251
6.382972 2.812987 59.090195 249 249 253
6.386623 2.942047 59.123993 250 250 253
6.390024 3.071133 59.155476 231 229 233
6.393168 3.200226 59.184586 182 177 185
6.396057 3.329312 59.211330 154 147 156
6.398699 3.458380 59.235786 178 172 178
6.401107 3.587422 59.258080 206 201 206
6.403301 3.716436 59.278389 210 205 210
6.405303 3.845421 59.296917 214 211 217
6.407137 3.974383 59.313900 231 229 235
6.408829 4.103328 59.329567 240 238 243
6.410404 4.232262 59.344143 232 227 235
6.411884 4.361195 59.357853 229 223 232
6.413290 4.490135 59.370865 242 237 243
6.414636 4.619087 59.383324 242 240 243
6.415934 4.748058 59.395336 218 216 219
6.417189 4.877048 59.406956 203 202 206
6.418403 5.006057 59.418198 217 217 222
6.419574 5.135079 59.429039 224 227 231
6.420695 5.264107 59.439419 199 202 208
6.421759 5.393132 59.449261 180 182 191
6.422754 5.522141 59.458481 202 203 212
6.423673 5.651121 59.466984 228 226 235
6.424506 5.780061 59.474693 237 234 243
6.425246 5.908949 59.481541 227 222 231
6.425889 6.037776 59.487499 201 196 204
6.426436 6.166536 59.492569 204 200 205
6.426891 6.295227 59.496777 233 232 233
6.427261 6.423852 59.500202 229 229 227
6.427558 6.552417 59.502949 199 198 195
6.427796 6.680933 59.505150 195 195 191
6.427993 6.809414 59.506973 205 205 200
6.428167 6.937880 59.508591 204 203 198
6.428339 7.066349 59.510178 216 215 211
6.428527 7.194843 59.511921 240 241 239
6.428750 7.323384 59.513977 247 247 245
6.429021 7.451991 59.516495 224 224 220
6.429354 7.580680 59.519569 196 195 192
6.429754 7.709465 59.523277 189 189 187
6.430224 7.838350 59.527634 201 201 201
6.430763 7.967339 59.532616 220 220 220
6.431359 8.096422 59.538139 225 224 224
6.432000 8.225586 59.544075 208 208 208
6.432666 8.354807 59.550232 193 193 193
6.433332 8.484056 59.556400 175 175 175
6.433969 8.613293 59.562305 146 147 146
6.434548 8.742476 59.567657 140 142 140
6.435032 8.871551 59.572140 174 176 173
6.435389 9.000466 59.575443 216 218 216
6.435584 9.129168 59.577244 210 211 211
6.435584 9.257596 59.577244 144 144 146
6.435359 9.385698 59.575172 104 104 108
6.434886 9.513422 59.570793 147 145 151
6.434144 9.640725 59.563923 212 210 215
6.433119 9.767569 59.554432 234 233 239
6.431804 9.893924 59.542255 205 204 216
6.430197 10.019773 59.527382 143 142 160
6.428307 10.145111 59.509880 85 86 105
6.426145 10.269939 59.489868 67 69 86
6.423732 10.394275 59.467525 81 86 100
6.421091 10.518141 59.443081 104 110 123
6.418252 10.641572 59.416794 124 129 141
6.415246 10.764611 59.388966 143 147 158
6.412107 10.887303 59.359905 172 174 186
6.408868 11.009701 59.329929 204 203 215
6.405564 11.131854 59.299343 203 200 212
6.402225 11.253814 59.268429 153 147 162
6.398879 11.375628 59.237450 102 95 110
6.395548 11.497336 59.206619 93 85 98
6.392252 11.618975 59.176102 100 93 104
6.389004 11.740569 59.146034 93 87 95
6.385812 11.862139 59.116482 85 79 87
6.382678 11.983689 59.087467 108 102 109
6.379599 12.105221 59.058971 165 159 164
6.376569 12.226722 59.030918 196 190 195
6.373576 12.348174 59.003212 163 157 162
6.370607 12.469554 58.975731 118 110 116
6.367648 12.590834 58.948330 101 94 100
6.364681 12.711982 58.920868 95 88 95
6.361693 12.832968 58.893208 82 75 82
6.358670 12.953763 58.865219 67 60 67
6.355602 13.074345 58.836815 69 61 67
6.352480 13.194693 58.807915 104 95 100
6.349301 13.314797 58.778492 158 148 152
6.346068 13.434658 58.748554 193 183 186
6.342783 13.554280 58.718143 185 175 178
6.339457 13.673684 58.687355 156 147 149
6.336103 13.792893 58.656311 131 123 126
6.332738 13.911942 58.625153 115 108 111
6.329380 14.030874 58.594063 114 106 109
6.326049 14.149734 58.563232 121 113 115
6.322768 14.268573 58.532860 129 119 120
6.319558 14.387441 58.503136 139 127 127
6.316436 14.506385 58.474243 146 133 132
6.313423 14.625455 58.446346 143 128 127
6.310531 14.744689 58.419575 122 107 107
6.307772 14.864120 58.394028 95 79 81
6.305152 14.983772 58.369781 78 61 65
6.302675 15.103662 58.346848 79 61 65
6.300340 15.223794 58.325226 91 73 77
6.298141 15.344166 58.304871 107 90 93
6.296071 15.464767 58.285706 125 107 110
6.294119 15.585580 58.267639 145 126 130
6.292274 15.706581 58.250565 147 129 132
6.290524 15.827746 58.234367 125 108 111
6.288858 15.949053 58.218933 106 88 92
6.287262 16.070475 58.204163 103 85 90
6.285729 16.191994 58.189968 106 88 94
6.284251 16.313597 58.176289 103 85 91
6.282826 16.435276 58.163097 94 75 81
6.281453 16.557037 58.150383 83 64 70
6.280133 16.678885 58.138168 74 55 60
6.207242 -13.227676 56.339077 31 24 23
6.207715 -13.107225 56.343365 33 25 24
6.207939 -12.986238 56.345402 33 26 25
6.207911 -12.864719 56.345154 34 26 26
6.207634 -12.742688 56.342632 35 27 26
6.207117 -12.620181 56.337940 36 27 26
6.206377 -12.497247 56.331226 36 27 26
6.205439 -12.373943 56.322708 37 27 26
6.204332 -12.250345 56.312660 37 26 26
6.203088 -12.126522 56.301373 38 26 27
6.201746 -12.002560 56.289196 40 28 29
6.200344 -11.878531 56.276463 44 29 30
6.198920 -11.754519 56.263542 46 31 32
6.197511 -11.630590 56.250759 48 32 32
6.196153 -11.506809 56.238426 48 31 32
6.194873 -11.383226 56.226810 48 29 31
6.193697 -11.259884 56.216141 49 28 29
6.192643 -11.136805 56.206573 50 27 29
6.191723 -11.014006 56.198223 53 27 29
6.190942 -10.891487 56.191132 56 29 30
6.190298 -10.769237 56.185284 62 34 34
6.189784 -10.647236 56.180618 68 39 40
6.189388 -10.525456 56.177025 74 45 45
6.189093 -10.403861 56.174347 78 50 50
6.188879 -10.282413 56.172405 83 56 56
6.188726 -10.161075 56.171024 83 57 58
6.188613 -10.039804 56.169994 76 49 52
6.188519 -9.918571 56.169144 64 37 41
6.188426 -9.797341 56.168293 59 31 34
6.188319 -9.676093 56.167320 62 34 38
6.188184 -9.554809 56.166103 67 39 43
6.188016 -9.433477 56.164577 72 43 47
6.187812 -9.312098 56.162724 74 46 50
6.187572 -9.190674 56.160549 77 49 54
6.187304 -9.069216 56.158108 83 55 60
6.187014 -8.947740 56.155479 88 60 65
6.186718 -8.826264 56.152790 89 62 68
6.186428 -8.704810 56.150158 86 60 66
6.186162 -8.583401 56.147747 81 54 61
6.185937 -8.462057 56.145706 76 50 55
6.185772 -8.340804 56.144211 75 48 54
6.185683 -8.219657 56.143398 76 49 54
6.185687 -8.098636 56.143433 77 49 54
6.185796 -7.977751 56.144428 76 49 53
6.186027 -7.857015 56.146515 74 47 50
6.186388 -7.736434 56.149796 73 46 49
6.186888 -7.616009 56.154335 72 46 49
6.187534 -7.495742 56.160202 72 47 50
6.188332 -7.375630 56.167439 72 48 51
6.189282 -7.255667 56.176071 71 47 50
6.190388 -7.135845 56.186104 69 44 49
6.191649 -7.016156 56.197552 69 42 48
6.193064 -6.896588 56.210392 71 44 50
6.194631 -6.777132 56.224613 75 47 54
6.196346 -6.657773 56.240185 79 50 59
6.198207 -6.538502 56.257076 84 54 65
6.200210 -6.419304 56.275253 90 58 72
6.202351 -6.300169 56.294685 93 61 77
6.204626 -6.181083 56.315334 96 64 81
6.207031 -6.062035 56.337166 99 67 86
6.209564 -5.943014 56.360149 102 72 91
6.212220 -5.824011 56.384254 106 78 95
6.214997 -5.705015 56.409470 105 77 91
6.217895 -5.586018 56.435764 98 72 83
6.220911 -5.467012 56.463142 98 73 80
6.224046 -5.347991 56.491592 104 80 85
6.227299 -5.228946 56.521126 114 89 93
6.230673 -5.109872 56.551746 124 99 103
6.234170 -4.990765 56.583488 132 105 112
6.237792 -4.871619 56.616364 132 103 113
6.241545 -4.752430 56.650421 127 95 109
6.245431 -4.633194 56.685692 122 88 105
6.249454 -4.513905 56.722214 116 82 103
6.253619 -4.394558 56.760014 108 75 99
6.257930 -4.275147 56.799137 103 71 96
6.262387 -4.155665 56.839596 102 70 97
6.266993 -4.036105 56.881397 102 72 99
6.271745 -3.916455 56.924530 102 74 100
6.276642 -3.796707 56.968971 100 74 98
6.281675 -3.676847 57.014660 104 79 103
6.286839 -3.556864 57.061523 122 99 124
6.292119 -3.436743 57.109451 149 127 153
6.297504 -3.316470 57.158325 147 127 154
6.302976 -3.196030 57.207989 114 97 124
6.308517 -3.075410 57.258278 92 77 104
6.314106 -2.954596 57.309010 90 77 102
6.319723 -2.833576 57.359989 92 80 99
6.325346 -2.712338 57.411030 99 88 100
6.330953 -2.590874 57.461922 131 120 124
6.336524 -2.469176 57.512482 176 167 162
6.342036 -2.347239 57.562519 211 204 193
6.347474 -2.225060 57.611870 225 221 207
6.352818 -2.102637 57.660378 218 213 202
6.358054 -1.979971 57.707901 189 184 176
6.363167 -1.857064 57.754307 118 115 110
6.368144 -1.733921 57.799477 66 64 62
6.372974 -1.610545 57.843319 96 95 96
6.377649 -1.486944 57.885750 144 145 147
6.382161 -1.363126 57.926704 179 182 187
6.386505 -1.239098 57.966133 216 219 223
6.390677 -1.114871 58.003994 229 232 238
6.394676 -0.990453 58.040291 198 202 212
6.398503 -0.865856 58.075031 172 178 192
6.402165 -0.741089 58.108269 207 211 221
6.405671 -0.616165 58.140087 239 241 246
6.409032 -0.491092 58.170597 242 243 247
6.412266 -0.365880 58.199951 247 247 250
6.415395 -0.240538 58.228344 248 248 251
6.418442 -0.115072 58.255997 247 246 250
6.421435 0.010513 58.283165 252 251 252
6.424405 0.136215 58.310120 251 251 251
6.427383 0.262034 58.337154 229 225 228
6.430402 0.387971 58.364552 177 168 173
6.433492 0.514032 58.392597 129 119 123
6.436680 0.640224 58.421535 122 114 117
6.439992 0.766555 58.451599 132 126 127
6.443447 0.893036 58.482956 123 121 121
6.447057 1.019677 58.515724 110 112 112
6.450829 1.146487 58.549957 115 120 120
6.454761 1.273477 58.585648 136 143 144
6.458845 1.400653 58.622711 154 163 164
6.463063 1.528022 58.660995 171 180 180
6.467393 1.655583 58.700298 200 207 208
6.471806 1.783337 58.740349 226 230 233
6.476267 1.911278 58.780838 221 226 230
6.480738 2.039397 58.821423 199 205 211
6.485181 2.167681 58.861744 190 196 206
6.489555 2.296115 58.901443 197 202 216
6.493821 2.424679 58.940163 207 211 227
6.497943 2.553355 58.977581 219 223 237
6.501891 2.682119 59.013412 228 231 242
6.505637 2.810950 59.047409 233 234 244
6.509161 2.939828 59.079403 238 237 244
6.512453 3.068735 59.109276 214 211 219
6.515504 3.197652 59.136974 167 162 171
6.518319 3.326568 59.162518 159 152 161
6.520904 3.455472 59.185982 198 192 198
6.523275 3.584360 59.207500 229 223 227
6.525450 3.713229 59.227245 238 233 236
6.527453 3.842082 59.245426 243 240 243
6.529308 3.970923 59.262260 248 247 249
6.531041 4.099761 59.277985 239 236 239
6.532676 4.228602 59.292824 220 214 221
6.534235 4.357457 59.306976 223 218 223
6.535736 4.486333 59.320606 241 238 241
6.537196 4.615239 59.333851 239 239 239
6.538622 4.744178 59.346798 216 216 217
6.540020 4.873151 59.359486 201 203 204
6.541389 5.002157 59.371914 209 213 215
6.542725 5.131191 59.384037 211 217 220
6.544019 5.260243 59.395779 181 188 193
6.545259 5.389302 59.407043 162 167 174
6.546436 5.518354 59.417717 191 194 202
6.547534 5.647387 59.427692 224 225 233
6.548545 5.776384 59.436859 236 234 243
6.549458 5.905333 59.445141 232 229 236
6.550267 6.034222 59.452488 211 207 214
6.550971 6.163043 59.458878 209 206 212
6.551571 6.291793 59.464325 233 232 234
6.552074 6.420472 59.468891 234 233 233
6.552491 6.549083 59.472679 212 211 210
6.552835 6.677638 59.475803 200 203 200
6.553124 6.806147 59.478424 197 200 197
6.553377 6.934630 59.480721 197 200 197
6.553613 7.063105 59.482864 214 217 215
6.553853 7.191593 59.485035 239 240 240
6.554114 7.320114 59.487404 251 251 251
6.554413 7.448689 59.490120 243 243 242
6.554762 7.577333 59.493290 218 217 217
6.555171 7.706060 59.496994 192 191 193
6.555641 7.834878 59.501266 188 186 188
6.556172 7.963788 59.506084 199 198 200
6.556756 8.092783 59.511383 207 204 206
6.557378 8.221851 59.517036 208 206 206
6.558022 8.350969 59.522881 202 199 198
6.558664 8.480110 59.528706 167 165 163
6.559275 8.609237 59.534252 130 129 126
6.559826 8.738305 59.539249 137 136 132
6.560283 8.867270 59.543396 180 179 175
6.560612 8.996077 59.546383 225 224 220
6.560780 9.124673 59.547913 224 222 221
6.560756 9.253003 59.547688 164 161 162
6.560510 9.381017 59.545464 121 117 120
6.560019 9.508665 59.541000 150 146 151
6.559262 9.635903 59.534134 199 195 204
6.558227 9.762698 59.524738 212 209 220
6.556906 9.889022 59.512753 187 185 200
6.555301 10.014858 59.498177 136 135 153
6.553417 10.140202 59.481079 85 87 105
6.551269 10.265057 59.461582 69 73 88
6.548876 10.389439 59.439861 86 90 102
6.546262 10.513374 59.416142 110 115 124
6.543458 10.636896 59.390686 136 140 148
6.540493 10.760046 59.363781 169 171 178
6.537404 10.882871 59.335739 205 203 211
6.534222 11.005421 59.306862 221 217 226
6.530982 11.127746 59.277454 194 187 198
6.527714 11.249894 59.247787 133 125 138
6.524445 11.371915 59.218117 90 81 95
6.521198 11.493846 59.188648 91 82 95
6.517992 11.615725 59.159550 102 94 106
6.514840 11.737573 59.130939 92 86 96
6.511749 11.859410 59.102886 81 75 84
6.508721 11.981243 59.075405 110 105 113
6.505754 12.103069 59.048473 175 169 175
6.502840 12.224879 59.022026 199 191 197
6.499968 12.346656 58.995956 154 147 153
6.497124 12.468373 58.970146 108 100 106
6.494293 12.590006 58.944454 96 88 95
6.491459 12.711520 58.918728 93 85 92
6.488606 12.832888 58.892838 81 73 80
6.485722 12.954079 58.866657 66 58 65
6.482794 13.075071 58.840084 70 61 67
6.479816 13.195845 58.813053 107 97 102
6.476783 13.316390 58.785522 161 151 155
6.473695 13.436704 58.757500 193 184 187
6.470558 13.556792 58.729027 187 177 180
6.467381 13.676674 58.700191 161 153 155
6.464176 13.796371 58.671097 138 130 132
6.460958 13.915915 58.641891 121 114 117
6.457747 14.035348 58.612743 118 110 113
6.454562 14.154713 58.583836 121 113 115
6.451425 14.274057 58.555359 126 115 116
6.448355 14.393432 58.527500 134 120 120
6.445371 14.512878 58.500416 144 129 127
6.442491 14.632444 58.474274 144 128 125
6.439726 14.752163 58.449188 124 108 106
6.437089 14.872066 58.425247 95 79 78
6.434584 14.992175 58.402512 77 61 61
6.432214 15.112502 58.381001 77 60 63
6.429976 15.233051 58.360691 88 72 75
6.427866 15.353815 58.341534 103 87 90
6.425873 15.474781 58.323448 121 104 108
6.423987 15.595929 58.306332 143 124 129
6.422196 15.717234 58.290073 147 127 134
6.420486 15.838671 58.274559 124 104 110
6.418846 15.960212 58.259666 101 80 87
6.417263 16.081831 58.245296 97 76 84
6.415727 16.203512 58.231361 103 82 90
6.414233 16.325237 58.217804 104 83 91
6.412777 16.447001 58.204586 96 76 83
6.411358 16.568804 58.191708 86 67 73
6.409980 16.690655 58.179199 77 59 63
6.331110 -13.232734 56.360619 32 24 22
6.331515 -13.112080 56.364231 34 26 24
6.331668 -12.990891 56.365589 34 26 25
6.331564 -12.869173 56.364662 35 27 26
6.331209 -12.746955 56.361500 35 27 26
6.330613 -12.624269 56.356190 36 26 26
6.329794 -12.501168 56.348904 36 26 26
6.328778 -12.377711 56.339859 36 26 26
6.327596 -12.253972 56.329334 37 25 26
6.326282 -12.130026 56.317635 39 25 26
6.324873 -12.005951 56.305099 42 27 28
6.323411 -11.881829 56.292088 45 29 30
6.321936 -11.757738 56.278950 47 30 31
6.320483 -11.633745 56.266018 49 32 33
6.319089 -11.509915 56.253609 50 32 32
6.317783 -11.386297 56.241978 49 30 31
6.316590 -11.262932 56.231361 49 27 29
6.315529 -11.139845 56.221916 50 27 28
6.314612 -11.017049 56.213749 52 27 29
6.313843 -10.894544 56.206905 56 29 31
6.313221 -10.772319 56.201366 60 32 34
6.312738 -10.650353 56.197067 65 37 38
6.312380 -10.528615 56.193886 70 43 43
6.312132 -10.407071 56.191677 76 49 50
6.311973 -10.285681 56.190258 82 55 57
6.311880 -10.164405 56.189434 86 59 61
6.311833 -10.043203 56.189011 81 54 57
6.311809 -9.922041 56.188797 68 41 44
6.311789 -9.800886 56.188622 59 31 34
6.311757 -9.679713 56.188335 60 33 36
6.311700 -9.558504 56.187828 65 37 40
6.311610 -9.437247 56.187023 68 40 43
6.311483 -9.315940 56.185894 71 43 46
6.311319 -9.194584 56.184441 74 46 50
6.311124 -9.073189 56.182701 77 49 53
6.310906 -8.951768 56.180763 81 53 57
6.310678 -8.830341 56.178726 83 56 61
6.310452 -8.708927 56.176712 82 56 61
6.310246 -8.587549 56.174885 79 53 58
6.310077 -8.466228 56.173378 75 50 54
6.309962 -8.344986 56.172359 75 49 53
6.309919 -8.223842 56.171978 76 49 54
6.309964 -8.102811 56.172375 77 50 55
6.310111 -7.981908 56.173683 76 49 53
6.310373 -7.861144 56.176018 73 46 50
6.310763 -7.740524 56.179485 71 46 48
6.311287 -7.620054 56.184155 70 45 47
6.311955 -7.499733 56.190102 70 45 47
6.312772 -7.379561 56.197372 69 45 47
6.313739 -7.259531 56.205982 69 45 47
6.314861 -7.139637 56.215965 69 44 47
6.316137 -7.019873 56.227325 70 44 48
6.317565 -6.900226 56.240040 72 45 50
6.319146 -6.780688 56.254116 74 46 53
6.320877 -6.661246 56.269520 77 48 56
6.322753 -6.541890 56.286224 80 50 60
6.324773 -6.422607 56.304207 84 53 65
6.326933 -6.303386 56.323433 87 56 70
6.329229 -6.184215 56.343872 90 59 76
6.331658 -6.065083 56.365498 94 64 82
6.334217 -5.945980 56.388275 98 68 86
6.336902 -5.826896 56.412182 101 71 89
6.339713 -5.707820 56.437206 99 70 85
6.342648 -5.588747 56.463329 93 66 78
6.345705 -5.469666 56.490543 92 65 73
6.348886 -5.350572 56.518860 96 69 76
6.352190 -5.231458 56.548275 106 79 85
6.355621 -5.112319 56.578819 125 98 104
6.359181 -4.993149 56.610512 143 113 122
6.362873 -4.873944 56.643379 139 109 120
6.366703 -4.754700 56.677475 125 92 108
6.370674 -4.635412 56.712822 119 83 102
6.374791 -4.516074 56.749470 114 78 99
6.379058 -4.396683 56.787460 107 72 95
6.383478 -4.277230 56.826805 102 67 93
6.388054 -4.157709 56.867546 102 68 95
6.392787 -4.038111 56.909679 102 71 98
6.397674 -3.918426 56.953182 100 71 97
6.402712 -3.798643 56.998032 94 68 93
6.407892 -3.678749 57.044144 93 69 94
6.413207 -3.558730 57.091461 116 94 119
6.418642 -3.438571 57.139839 160 140 167
6.424181 -3.318258 57.189148 174 157 185
6.429806 -3.197776 57.239231 137 122 150
6.435496 -3.077108 57.289886 103 89 117
6.441230 -2.956242 57.340927 96 83 109
6.446984 -2.835164 57.392151 93 82 102
6.452734 -2.713864 57.443333 96 85 97
6.458455 -2.592332 57.494263 119 108 110
6.464126 -2.470562 57.544750 148 138 131
6.469725 -2.348547 57.594593 175 167 151
6.475232 -2.226286 57.643616 205 198 179
6.480628 -2.103777 57.691658 231 226 211
6.485899 -1.981024 57.738579 223 219 210
6.491030 -1.858027 57.784252 144 141 135
6.496008 -1.734793 57.828571 70 67 63
6.500823 -1.611328 57.871441 99 97 97
6.505469 -1.487639 57.912792 158 157 161
6.509937 -1.363735 57.952568 187 188 197
6.514224 -1.239624 57.990730 210 212 222
6.518327 -1.115318 58.027256 210 213 225
6.522247 -0.990826 58.062157 164 169 185
6.525988 -0.866160 58.095451 138 144 161
6.529553 -0.741331 58.127197 183 188 201
6.532955 -0.616349 58.157475 238 239 244
6.536205 -0.491225 58.186413 253 253 254
6.539321 -0.365969 58.214153 252 252 253
6.542325 -0.240590 58.240894 243 243 247
6.545240 -0.115093 58.266846 237 236 243
6.548095 0.010515 58.292259 245 245 248
6.550919 0.136232 58.317390 252 252 253
6.553743 0.262058 58.342533 243 242 242
6.556599 0.387994 58.367958 207 201 201
6.559517 0.514044 58.393936 163 152 150
6.562526 0.640215 58.420723 153 142 136
6.565650 0.766515 58.448536 156 148 139
6.568909 0.892954 58.477547 130 126 115
6.572316 1.019540 58.507881 100 100 91
6.575879 1.146284 58.539597 102 106 100
6.579597 1.273196 58.572701 123 129 126
6.583464 1.400281 58.607121 137 145 144
6.587463 1.527546 58.642723 148 157 157
6.591575 1.654992 58.679325 169 177 180
6.595771 1.782619 58.716675 196 201 206
6.600019 1.910422 58.754490 217 221 225
6.604282 2.038393 58.792446 226 231 233
6.608525 2.166520 58.830215 222 227 231
6.612708 2.294790 58.867451 208 213 224
6.616793 2.423184 58.903820 200 203 221
6.620747 2.551685 58.939018 204 207 226
6.624539 2.680272 58.972775 208 210 228
6.628144 2.808925 59.004864 212 212 228
6.631542 2.937625 59.035118 219 218 230
6.634724 3.066355 59.063442 210 207 217
6.637682 3.195100 59.089779 191 187 195
6.640421 3.323849 59.114162 201 197 203
6.642950 3.452593 59.136669 232 228 232
6.645282 3.581329 59.157433 247 243 245
6.647438 3.710055 59.176624 246 242 244
6.649440 3.838776 59.194450 247 243 246
6.651315 3.967498 59.211140 244 241 243
6.653087 4.096228 59.226910 224 220 224
6.654779 4.224976 59.241978 210 204 210
6.656415 4.353752 59.256542 224 220 223
6.658012 4.482564 59.270760 239 237 238
6.659584 4.611420 59.284748 228 226 226
6.661138 4.740324 59.298584 204 204 204
6.662678 4.869277 59.312298 191 193 191
6.664202 4.998278 59.325863 197 203 201
6.665703 5.127318 59.339226 199 207 206
6.667170 5.256390 59.352280 177 186 187
6.668589 5.385480 59.364914 173 180 183
6.669946 5.514573 59.376999 208 212 216
6.671227 5.643653 59.388393 237 240 243
6.672416 5.772703 59.398983 246 247 250
6.673502 5.901708 59.408657 245 245 247
6.674479 6.030655 59.417347 234 233 236
6.675340 6.159534 59.425011 228 226 230
6.676086 6.288337 59.431660 237 235 239
6.676723 6.417064 59.437332 236 237 239
6.677260 6.545717 59.442108 221 223 224
6.677711 6.674304 59.446117 204 209 209
6.678091 6.802837 59.449497 192 197 196
6.678419 6.931332 59.452427 191 196 196
6.678717 7.059805 59.455074 207 211 213
6.679004 7.188280 59.457634 231 233 236
6.679300 7.316775 59.460266 247 248 250
6.679622 7.445309 59.463127 243 243 244
6.679982 7.573901 59.466339 212 210 215
6.680392 7.702562 59.469986 183 179 186
6.680855 7.831303 59.474113 177 173 180
6.681372 7.960124 59.478710 181 178 183
6.681934 8.089022 59.483719 190 185 190
6.682531 8.217982 59.489033 207 202 205
6.683146 8.346988 59.494499 204 199 200
6.683754 8.476009 59.499916 159 155 154
6.684331 8.605014 59.505051 127 123 120
6.684846 8.733959 59.509636 145 141 138
6.685267 8.862801 59.513386 190 186 182
6.685561 8.991488 59.516006 229 227 224
6.685697 9.119968 59.517212 232 230 229
6.685642 9.248192 59.516727 185 179 182
6.685370 9.376109 59.514305 140 133 138
6.684856 9.503671 59.509731 146 137 146
6.684083 9.630838 59.502838 172 166 177
6.683036 9.757579 59.493523 182 177 190
6.681710 9.883866 59.481724 166 163 178
6.680107 10.009686 59.467449 129 129 144
6.678232 10.135033 59.450764 90 93 107
6.676102 10.259913 59.431793 77 81 93
6.673734 10.384345 59.410717 92 96 105
6.671155 10.508351 59.387756 119 122 129
6.668393 10.631968 59.363167 154 155 160
6.665480 10.755234 59.337234 197 197 200
6.662449 10.878197 59.310253 230 227 231
6.659335 11.000905 59.282532 224 217 224
6.656169 11.123408 59.254353 173 162 171
6.652983 11.245754 59.225983 108 96 108
6.649802 11.367989 59.197674 80 70 82
6.646651 11.490151 59.169617 93 83 97
6.643546 11.612273 59.141975 106 99 111
6.640500 11.734381 59.114861 97 90 102
6.637520 11.856491 59.088337 81 75 85
6.634609 11.978609 59.062420 111 105 115
6.631763 12.100734 59.037079 174 167 175
6.628973 12.222854 59.012245 189 181 188
6.626229 12.344952 58.987816 141 132 140
6.623517 12.467005 58.963673 98 89 96
6.620821 12.588985 58.939674 92 83 89
6.618124 12.710860 58.915672 93 84 90
6.615413 12.832603 58.891529 82 73 79
6.612672 12.954184 58.867130 70 60 65
6.609890 13.075579 58.842365 76 67 70
6.607059 13.196769 58.817169 112 102 104
6.604177 13.317745 58.791504 159 149 151
6.601240 13.438502 58.765366 186 177 180
6.598256 13.559048 58.738796 180 172 174
6.595232 13.679396 58.711872 155 147 149
6.592180 13.799570 58.684704 133 125 127
6.589116 13.919602 58.657429 121 114 116
6.586057 14.039527 58.630199 118 111 113
6.583024 14.159390 58.603199 120 112 113
6.580036 14.279235 58.576599 123 112 112
6.577113 14.399107 58.550579 130 116 115
6.574273 14.519052 58.525299 142 126 123
6.571532 14.639106 58.500896 144 127 123
6.568902 14.759306 58.477486 124 107 102
6.566393 14.879679 58.455154 94 78 75
6.564010 15.000241 58.433937 78 61 60
6.561753 15.121004 58.413841 79 63 63
6.559619 15.241967 58.394852 89 71 74
6.557602 15.363121 58.376896 102 84 89
6.555693 15.484451 58.359894 120 101 108
6.553877 15.605933 58.343735 146 125 133
6.552144 15.727541 58.328300 151 128 137
6.550478 15.849246 58.313469 124 102 111
6.548867 15.971021 58.299126 99 75 85
6.547298 16.092838 58.285160 94 70 80
6.545762 16.214678 58.271488 100 76 86
6.544252 16.336521 58.258045 102 80 89
6.542765 16.458364 58.244804 97 76 84
6.541299 16.580208 58.231762 90 69 77
6.539859 16.702057 58.218941 82 63 69
6.454902 -13.237446 56.380688 34 26 23
6.455238 -13.116590 56.383621 36 27 25
