ply
format ascii 1.0
element vertex 1197
property float x
property float y
property float z
property uchar red
property uchar green
property uchar blue
end_header
-12.938887 4.071599 72.412788 91 81 94
-12.907405 4.217410 72.236603 91 81 95
-12.907405 4.373127 72.236603 93 82 97
-12.907405 4.528845 72.236603 95 83 99
-12.938887 4.695989 72.412788 96 84 99
-12.970522 4.863950 72.589836 97 84 99
-12.970522 5.020429 72.589836 98 84 98
-12.938887 5.164282 72.412788 99 84 98
-12.970522 5.333387 72.589836 100 83 97
-12.970522 5.489867 72.589836 100 82 96
-13.098625 5.702112 73.306770 99 81 95
-13.163631 5.889220 73.670578 96 79 93
-13.163631 6.048028 73.670578 94 77 91
-13.196377 6.222277 73.853836 91 75 89
-13.196377 6.381481 73.853836 89 74 88
-13.163631 6.524455 73.670578 87 75 89
-13.131048 6.666721 73.488220 86 76 89
-13.131048 6.825137 73.488220 85 76 89
-13.163631 7.000882 73.670578 84 76 87
-13.196377 7.177501 73.853836 82 74 85
-13.262359 7.373389 74.223106 81 73 83
-13.131048 7.458801 73.488220 81 72 82
-13.034259 7.561070 72.946541 82 71 82
-12.970522 7.680576 72.589836 82 71 82
-12.907405 7.798918 72.236603 83 71 83
-12.907405 7.954636 72.236603 82 71 84
-13.002312 8.169989 72.767754 82 72 85
-13.002312 8.326852 72.767754 82 73 87
-13.002312 8.483714 72.767754 83 75 89
-12.970522 8.619451 72.589836 85 76 90
-12.938887 8.754525 72.412788 87 80 93
-12.907405 8.888943 72.236603 90 83 96
-12.907405 9.044661 72.236603 90 81 95
-12.938887 9.222818 72.412788 90 80 94
-13.002312 9.424891 72.767754 91 79 93
-13.034259 9.605296 72.946541 91 78 91
-13.034259 9.762544 72.946541 89 75 87
-12.938887 9.847208 72.412788 86 71 83
-12.938887 10.003306 72.412788 85 70 80
-13.002312 10.209205 72.767754 83 68 78
-13.002312 10.366067 72.767754 82 67 76
-12.844899 10.395534 71.886787 81 68 77
-12.813873 10.525013 71.713142 81 68 77
-12.782996 10.653869 71.540344 81 69 78
-12.752268 10.782104 71.368370 81 71 79
-12.752268 10.935950 71.368370 80 71 80
-12.630817 10.984179 70.688675 79 72 80
-12.423755 10.953994 69.529839 78 74 82
-12.423755 11.103877 69.529839 79 77 84
-12.600816 11.414146 70.520767 80 80 87
-12.630817 11.593703 70.688675 84 85 91
-12.660963 11.774118 70.857384 89 90 96
-12.721686 11.984066 71.197220 93 93 100
-12.752268 12.166719 71.368370 93 93 100
-12.752268 12.320566 71.368370 94 93 101
-12.721686 12.444497 71.197220 94 92 101
-12.752268 12.628259 71.368370 94 92 101
-12.752268 12.782104 71.368370 94 91 101
-12.782996 12.967122 71.540344 93 91 101
-12.630817 14.641322 70.688675 88 83 101
-12.691252 14.864487 71.026894 88 83 101
-12.752268 15.089797 71.368370 88 82 100
-12.752268 15.243643 71.368370 89 82 100
-12.752268 15.397490 71.368370 89 81 99
-12.752268 15.551335 71.368370 90 81 98
-12.600816 15.518659 70.520767 91 81 98
-12.279962 15.419805 68.725098 92 81 97
-11.948071 15.147197 66.867661 92 81 97
-11.841392 15.154811 66.270630 92 81 96
-15.835651 21.221956 88.624603 87 78 95
-15.648801 21.160341 87.578888 87 77 95
-15.376647 20.977842 86.055771 86 76 94
-15.113799 20.801582 84.584732 86 76 93
-14.943502 20.747480 83.631668 86 76 93
-14.494381 20.298786 81.118149 85 75 92
-14.454886 20.417862 80.897118 85 74 89
-14.415606 20.536291 80.677292 84 74 87
-14.415606 20.710205 80.677292 83 73 86
-14.415606 20.884119 80.677292 82 73 85
-14.415606 21.058031 80.677292 81 73 85
-14.299039 21.060257 80.024910 80 72 85
-14.299039 21.232763 80.024910 79 72 85
-14.184340 21.233570 79.383003 78 71 85
-13.923736 21.011431 77.924522 77 70 85
-14.034242 21.347502 78.542969 76 70 84
-13.997212 21.460041 78.335732 75 70 82
-14.260600 22.035902 79.809792 74 69 81
-11.921221 19.140125 66.717400 73 64 81
-11.894492 19.240707 66.567810 72 63 81
-11.841392 19.297668 66.270630 70 61 81
-11.841392 19.440525 66.270630 70 61 81
-11.841392 19.583384 66.270630 69 60 81
-11.841392 19.726240 66.270630 69 60 80
-11.841392 19.869097 66.270630 69 61 79
-11.841392 20.011953 66.270630 69 61 79
-11.788763 20.065235 65.976097 69 61 78
-11.788763 20.207457 65.976097 68 61 76
-11.762624 20.304558 65.829803 66 60 74
-11.736600 20.401230 65.684166 65 60 71
-11.736600 20.542822 65.684166 64 60 69
-11.736600 20.684414 65.684166 63 59 67
-11.841392 21.011953 66.270630 62 58 65
-11.815019 21.107697 66.123032 61 57 63
-11.788763 21.203012 65.976097 61 56 61
-11.788763 21.345234 65.976097 60 56 59
-11.841392 21.583384 66.270630 60 55 57
-11.894492 21.823668 66.567810 60 54 55
-13.637386 25.186005 76.321960 58 52 54
-13.637386 25.350529 76.321960 58 52 53
-13.567630 25.384541 75.931564 57 51 53
-13.828346 -2.856582 78.335732 85 68 83
-13.938679 -2.709161 78.960747 85 68 85
-13.901707 -2.532214 78.751305 86 69 88
-13.828346 -2.349986 78.335732 87 69 90
-13.683926 -2.158341 77.517601 88 70 92
-13.683926 -1.991239 77.517601 89 69 93
-13.648290 -1.819387 77.315735 89 69 92
-13.612840 -1.648427 77.114914 89 69 91
-13.577574 -1.478354 76.915138 87 66 89
-13.472862 -1.302428 76.321960 87 64 86
-13.268211 -1.120619 75.162636 88 65 85
-13.168200 -0.951368 74.596085 90 65 85
-13.102359 -0.786611 74.223106 90 66 85
-12.877010 -0.615834 72.946541 90 67 84
-12.877010 -0.458586 72.946541 89 67 82
-12.940601 -0.302826 73.306770 88 67 81
-13.004822 -0.145520 73.670578 87 67 80
-13.004822 0.013289 73.670578 87 68 79
-13.004822 0.172098 73.670578 88 70 81
-13.004822 0.330907 73.670578 91 72 85
-13.069684 0.492158 74.038010 93 74 88
-13.102359 0.653389 74.223106 95 75 90
-13.135197 0.815427 74.409126 96 76 92
-13.135197 0.975828 74.409126 98 77 93
-13.135197 1.136229 74.409126 98 77 93
-13.102359 1.293389 74.223106 97 77 92
-13.102359 1.453389 74.223106 97 76 91
-13.102359 1.613389 74.223106 96 76 90
-13.102359 1.773389 74.223106 96 75 89
-13.102359 1.933389 74.223106 95 75 88
-13.037172 2.082974 73.853836 94 74 88
-13.004822 2.236614 73.670578 93 74 88
-12.940601 2.383594 73.306770 92 74 88
-12.908728 2.535358 73.126213 93 75 88
-12.908728 2.692994 73.126213 95 78 91
-12.908728 2.850629 73.126213 96 81 93
-12.782788 2.978916 72.412788 97 82 95
-12.782788 3.135013 72.412788 96 83 96
-12.751687 3.283103 72.236603 95 83 96
-12.845449 3.464107 72.767754 94 83 95
-12.908728 3.638807 73.126213 93 83 96
-12.908728 3.796442 73.126213 92 83 97
-12.908728 3.954077 73.126213 92 83 97
-12.877010 4.101611 72.946541 91 83 97
-12.814042 4.238033 72.589836 91 83 98
-12.814042 4.394512 72.589836 92 84 100
-12.814042 4.550992 72.589836 94 86 101
-12.877010 4.730603 72.946541 96 87 101
-12.877010 4.887851 72.946541 97 87 102
-12.877010 5.045099 72.946541 98 87 101
-12.845449 5.189597 72.767754 99 87 101
-12.845449 5.346459 72.767754 100 86 100
-12.877010 5.516844 72.946541 100 85 99
-12.972632 5.716227 73.488220 100 83 98
-13.004822 5.889220 73.670578 98 81 95
-13.037172 6.063073 73.853836 95 79 93
-13.037172 6.222277 73.853836 92 78 91
-13.004822 6.365646 73.670578 90 76 90
-12.972632 6.508306 73.488220 87 76 89
-12.940601 6.650260 73.306770 86 76 89
-12.908728 6.791516 73.126213 85 76 87
-12.908728 6.949152 73.126213 83 76 85
-12.877010 7.089325 72.946541 81 75 83
-12.845449 7.228812 72.767754 81 73 81
-12.814042 7.367617 72.589836 81 72 80
-12.689936 7.451224 71.886787 82 70 79
-12.689936 7.606187 71.886787 82 70 79
-12.628779 7.723748 71.540344 82 70 79
-12.628779 7.877965 71.540344 82 70 81
-12.720737 8.090669 72.061264 82 71 83
-12.751687 8.266071 72.236603 82 72 85
-12.751687 8.421789 72.236603 84 74 88
-12.751687 8.577507 72.236603 85 76 90
-12.751687 8.733225 72.236603 88 79 94
-12.751687 8.888943 72.236603 90 81 96
-12.751687 9.044661 72.236603 91 80 96
-12.751687 9.200378 72.236603 92 79 95
-12.845449 9.424891 72.767754 92 78 93
-12.908728 9.628954 73.126213 91 76 90
-12.908728 9.786590 73.126213 89 73 85
-12.782788 9.847208 72.412788 85 71 81
-12.782788 10.003306 72.412788 84 69 78
-12.845449 10.209205 72.767754 82 68 76
-12.845449 10.366067 72.767754 81 66 75
-12.720737 10.420766 72.061264 80 67 75
-12.689936 10.550497 71.886787 81 68 76
-12.659284 10.679603 71.713142 81 69 78
-12.628779 10.808085 71.540344 80 71 79
-12.598421 10.935950 71.368370 79 72 80
-12.508218 11.010395 70.857384 78 73 81
-12.273872 10.953994 69.529839 79 75 83
-12.273872 11.103877 69.529839 79 77 85
-12.448796 11.414146 70.520767 81 80 87
-12.448796 11.566165 70.520767 84 84 91
-12.478436 11.746084 70.688675 89 90 97
-12.508218 11.926863 70.857384 93 93 101
-12.538142 12.108506 71.026894 94 94 103
-12.538142 12.261616 71.026894 94 93 103
-12.538142 12.414726 71.026894 94 93 103
-12.568210 12.597975 71.197220 94 93 103
-12.598421 12.782104 71.368370 93 93 103
-12.598421 12.935950 71.368370 93 93 103
-12.538142 14.711377 71.026894 88 84 104
-12.538142 14.864487 71.026894 88 84 104
-12.598421 15.089797 71.368370 88 83 103
-12.598421 15.243643 71.368370 88 83 103
-12.598421 15.397490 71.368370 89 81 101
-12.448796 15.366640 70.520767 89 81 99
-12.419297 15.481885 70.353653 90 81 99
-12.331632 15.523190 69.857040 92 81 99
-12.159962 15.455581 68.884552 92 81 99
-12.048145 15.460588 68.251129 92 81 97
-11.857338 15.360533 67.170235 90 79 97
-12.389937 16.201786 70.187332 90 80 96
-15.644607 21.413002 88.624603 87 77 95
-15.460010 21.349131 87.578888 87 77 95
-15.191140 21.163349 86.055771 87 77 94
-14.763221 20.747480 83.631668 86 76 93
-14.319517 20.298786 81.118149 86 76 92
-14.241693 20.362379 80.677292 86 75 90
-14.241693 20.536291 80.677292 85 75 88
-14.241693 20.710205 80.677292 84 75 87
-14.164712 20.771231 80.241196 82 74 86
-14.088557 20.831600 79.809792 81 74 86
-14.050786 20.947334 79.595825 81 73 86
-14.013218 21.062449 79.383003 80 73 87
-13.755756 20.843452 77.924522 79 72 87
-13.719747 20.956429 77.720528 78 72 86
-13.755756 21.179411 77.924522 77 71 85
-13.828346 21.460041 78.335732 76 70 84
-14.088557 22.035902 79.809792 75 70 83
-12.131813 19.567953 68.725098 74 65 81
-11.803926 19.183233 66.867661 74 64 82
-11.750994 19.240707 66.567810 73 62 82
-11.698534 19.297668 66.270630 71 61 81
-11.698534 19.440525 66.270630 69 60 81
-11.698534 19.583384 66.270630 69 60 81
-11.724706 19.770370 66.418884 69 60 80
-11.724706 19.913548 66.418884 69 61 79
-11.698534 20.011953 66.270630 68 62 79
-11.698534 20.154812 66.270630 68 62 77
-11.646541 20.207457 65.976097 66 61 75
-11.620717 20.304558 65.829803 65 60 73
-11.595008 20.401230 65.684166 64 60 70
-11.620717 20.588371 65.829803 63 60 69
-11.698534 20.869097 66.270630 62 59 67
-11.724706 21.058960 66.418884 62 58 65
-11.724706 21.202137 66.418884 61 57 63
-11.698534 21.297668 66.270630 60 56 61
-11.698534 21.440525 66.270630 61 56 60
-11.698534 21.583384 66.270630 61 55 58
-11.698534 21.726240 66.270630 60 53 56
-11.884225 22.216225 67.322548 58 51 54
-13.069684 24.591909 74.038010 58 51 53
-13.069684 24.751511 74.038010 57 51 53
-12.216651 23.285212 69.205696 57 51 53
-13.004822 24.946291 73.670578 57 51 53
-13.516824 -2.993850 77.517601 87 69 82
-13.552208 -2.834148 77.720528 86 69 84
-13.659481 -2.687716 78.335732 86 70 86
-13.659481 -2.518851 78.335732 87 71 89
-13.587778 -2.337650 77.924522 89 71 92
-13.481624 -2.152720 77.315735 90 72 94
-13.481624 -1.986053 77.315735 91 72 95
-13.481624 -1.819387 77.315735 92 72 95
-13.481624 -1.652720 77.315735 92 71 94
-13.446606 -1.482194 77.114914 91 69 91
-13.411771 -1.312551 76.915138 90 66 88
-13.308337 -1.137904 76.321960 92 67 88
-13.040159 -0.953765 74.783989 93 68 88
-12.942358 -0.786611 74.223106 93 68 87
-12.751092 -0.617351 73.126213 93 69 86
-12.719763 -0.458586 72.946541 92 69 85
-12.814217 -0.303576 73.488220 91 70 84
-12.877969 -0.145882 73.853836 90 70 83
-12.877969 0.013322 73.853836 89 71 83
-12.846013 0.172098 73.670578 90 72 84
-12.846013 0.330907 73.670578 92 74 87
-12.910083 0.492158 74.038010 94 76 90
-12.942358 0.653389 74.223106 96 77 92
-12.942358 0.813389 74.223106 97 78 93
-12.974795 0.975828 74.409126 97 79 95
-12.974795 1.136229 74.409126 97 79 94
-12.942358 1.293389 74.223106 96 78 93
-12.942358 1.453389 74.223106 96 78 92
-12.942358 1.613389 74.223106 96 77 92
-12.942358 1.773389 74.223106 96 77 92
-12.942358 1.933389 74.223106 96 77 91
-12.942358 2.093389 74.223106 95 76 90
-12.877969 2.242178 73.853836 94 75 90
-12.814217 2.389494 73.488220 93 75 88
-12.782577 2.541618 73.306770 93 76 88
-12.782577 2.699643 73.306770 96 79 90
-12.782577 2.857668 73.306770 98 81 94
-12.688586 2.993518 72.767754 100 84 96
-12.688586 3.150381 72.767754 100 85 97
-12.626691 3.291111 72.412788 99 85 98
-12.719763 3.472618 72.946541 97 85 97
-12.782577 3.647791 73.306770 95 85 98
-12.814217 3.815236 73.488220 94 84 99
-12.782577 3.963841 73.306770 92 85 100
-12.751092 4.111713 73.126213 92 85 100
-12.751092 4.269349 73.126213 91 86 101
-12.751092 4.426984 73.126213 92 87 102
-12.751092 4.584620 73.126213 94 89 103
-12.751092 4.742255 73.126213 96 89 103
-12.751092 4.899890 73.126213 97 89 104
-12.751092 5.057526 73.126213 99 90 103
-12.751092 5.215161 73.126213 100 89 102
-12.719763 5.359596 72.946541 101 88 102
-12.719763 5.516844 72.946541 100 86 100
-12.814217 5.716227 73.488220 100 84 99
-12.846013 5.889220 73.670578 98 82 97
-12.877969 6.063073 73.853836 96 81 95
-12.877969 6.222277 73.853836 94 80 94
-12.846013 6.365646 73.670578 91 79 92
-12.814217 6.508306 73.488220 88 77 90
-12.782577 6.650260 73.306770 86 77 88
-12.751092 6.791516 73.126213 84 77 86
-12.719763 6.932077 72.946541 82 77 84
-12.688586 7.071949 72.767754 81 76 82
-12.657563 7.211138 72.589836 81 74 80
-12.565396 7.313970 72.061264 81 72 78
-12.534972 7.451224 71.886787 82 70 77
-12.504694 7.587815 71.713142 82 69 77
-12.444575 7.705182 71.368370 82 69 77
-12.444575 7.859027 71.368370 83 70 79
-12.444575 8.012874 71.368370 83 71 82
-12.534972 8.226043 71.886787 84 72 85
-12.565396 8.401348 72.061264 85 73 88
-12.565396 8.556688 72.061264 87 75 91
-12.565396 8.712028 72.061264 89 77 94
-12.565396 8.867368 72.061264 91 79 95
-12.565396 9.022707 72.061264 92 79 95
-12.595969 9.200378 72.236603 92 78 95
-12.688586 9.424891 72.767754 92 77 92
-12.751092 9.628954 73.126213 90 75 88
-12.751092 9.786590 73.126213 88 73 83
-12.626691 9.847208 72.412788 84 70 79
-12.626691 10.003306 72.412788 82 69 78
-12.688586 10.209205 72.767754 81 68 76
-12.688586 10.366067 72.767754 79 67 75
-12.595969 10.446120 72.236603 79 66 75
-12.565396 10.576105 72.061264 79 68 77
-12.565396 10.731445 72.061264 79 70 79
-12.504694 10.834192 71.713142 79 72 80
-12.474563 10.962302 71.540344 79 73 82
-12.385032 11.036736 71.026894 79 74 83
-12.152450 10.979708 69.693054 80 76 85
-12.152450 11.129942 69.693054 81 78 88
-12.267638 11.387098 70.353653 83 81 90
-12.296778 11.566165 70.520767 86 85 94
-12.296778 11.718184 70.520767 91 90 99
-12.296778 11.870203 70.520767 94 93 103
-12.326056 12.050846 70.688675 95 94 105
-12.326056 12.203227 70.688675 95 94 105
-12.326056 12.355608 70.688675 94 94 105
-12.326056 12.507989 70.688675 93 94 104
-12.385032 12.720946 71.026894 92 94 104
-12.444575 12.935950 71.368370 93 94 104
-12.414732 14.746655 71.197220 88 85 106
-12.414732 14.900133 71.197220 88 85 107
-12.444575 15.089797 71.368370 88 84 107
-12.444575 15.243643 71.368370 88 83 105
-12.414732 15.360564 71.197220 87 81 102
-12.267638 15.330226 70.353653 88 80 100
-12.238637 15.445285 70.187332 89 80 100
-12.181044 15.523190 69.857040 91 81 100
-12.067467 15.527636 69.205696 92 81 100
-11.983665 15.567952 68.725098 92 81 99
-12.011470 15.752564 68.884552 90 80 98
-15.499830 21.477112 88.889946 87 77 96
-15.316401 21.412294 87.837997 87 77 95
-15.005633 21.163349 86.055771 87 77 95
-14.624134 20.806089 83.867912 86 77 94
-14.183407 20.354399 81.340393 86 76 92
-14.029656 20.307196 80.458649 85 76 89
-13.731945 20.046036 78.751305 85 76 88
-13.916514 20.487514 79.809792 84 75 87
-13.842094 20.549078 79.383003 83 75 86
-13.842094 20.720201 79.383003 82 75 86
-13.516824 20.400406 77.517601 81 74 87
-13.481624 20.513947 77.315735 80 74 87
-13.411771 20.573460 76.915138 79 74 87
-13.411771 20.739264 76.915138 78 73 87
-13.446606 20.959364 77.114914 77 72 86
-13.516824 21.235914 77.517601 76 71 85
-13.516824 21.403017 77.517601 76 70 84
-12.123989 19.347437 69.529839 75 69 83
-12.039403 19.361292 69.044746 75 67 82
-11.983665 19.419804 68.725098 75 65 81
-11.955989 19.522760 68.566376 75 64 82
-11.765780 19.357626 67.475548 74 63 82
-11.659782 19.327377 66.867661 73 62 82
-11.581529 19.340839 66.418884 72 61 81
-11.555677 19.440525 66.270630 70 60 81
-11.581529 19.627193 66.418884 70 60 81
-11.607496 19.814699 66.567810 69 60 80
-11.607496 19.958197 66.567810 69 61 79
-11.581529 20.056725 66.418884 68 61 77
-11.555677 20.154812 66.270630 67 61 75
-11.529941 20.252462 66.123032 66 61 74
-11.504318 20.349678 65.976097 64 60 72
-11.478810 20.446465 65.829803 63 60 70
-11.529941 20.680079 66.123032 62 60 69
-11.659782 21.057106 66.867661 62 59 67
-11.712542 21.297184 67.170235 62 58 65
-11.659782 21.345396 66.867661 61 57 63
-11.607496 21.393173 66.567810 61 56 62
-11.555677 21.440525 66.270630 61 56 60
-11.555677 21.583384 66.270630 61 54 59
-11.555677 21.726240 66.270630 60 52 56
-11.504318 21.771900 65.976097 59 51 54
-11.633580 22.160349 66.717400 59 51 53
-11.478810 22.007441 65.829803 59 51 53
-12.011470 23.177158 68.884552 58 51 53
-13.308337 25.844101 76.321960 57 51 53
-13.481624 26.347281 77.315735 56 50 53
-13.245967 -3.136385 76.915138 89 69 83
-13.245967 -2.970582 76.915138 88 71 84
-13.280373 -2.812064 77.114914 87 72 86
-13.349722 -2.659646 77.517601 88 72 89
-13.349722 -2.492544 77.517601 89 73 92
-13.349722 -2.325443 77.517601 91 74 94
-13.245967 -2.141566 76.915138 93 75 96
-13.245967 -1.975763 76.915138 94 75 97
-13.314957 -1.819387 77.315735 95 75 97
-13.349722 -1.657035 77.517601 96 74 97
-13.314957 -1.486053 77.315735 95 72 95
-13.314957 -1.319387 77.315735 94 70 92
-13.245967 -1.146747 76.915138 95 70 91
-13.010034 -0.963472 75.545143 95 70 90
-12.878950 -0.792556 74.783989 95 70 89
-12.782358 -0.626611 74.223106 94 71 88
-12.655801 -0.461991 73.488220 94 72 87
-12.846591 -0.308152 74.596085 93 73 87
-12.782358 -0.146611 74.223106 92 73 86
-12.782358 0.013389 74.223106 91 74 87
-12.718764 0.172526 73.853836 92 74 87
-12.718764 0.331730 73.853836 93 76 89
-12.750483 0.492158 74.038010 95 78 91
-12.782358 0.653389 74.223106 96 79 93
-12.782358 0.813389 74.223106 97 80 95
-12.782358 0.973389 74.223106 98 81 96
-12.782358 1.133389 74.223106 97 81 96
-12.782358 1.293389 74.223106 96 80 94
-12.782358 1.453389 74.223106 95 80 94
-12.782358 1.613389 74.223106 95 80 95
-12.782358 1.773389 74.223106 96 79 94
-12.782358 1.933389 74.223106 97 79 94
-12.782358 2.093389 74.223106 97 79 93
-12.750483 2.247769 74.038010 95 78 92
-12.687204 2.395423 73.670578 94 77 90
-12.687204 2.554232 73.670578 95 78 90
-12.687204 2.713041 73.670578 97 80 92
-12.655801 2.864741 73.488220 101 83 95
-12.655801 3.023157 73.488220 103 85 98
-12.562514 3.158122 72.946541 103 86 99
-12.562514 3.315370 72.946541 102 86 99
-12.593456 3.481171 73.126213 99 86 99
-12.655801 3.656821 73.488220 97 86 99
-12.687204 3.824703 73.670578 95 86 101
-12.655801 3.973652 73.488220 93 86 102
-12.624552 4.121865 73.306770 93 87 103
-12.624552 4.279890 73.306770 93 89 103
-12.624552 4.437915 73.306770 93 90 104
-12.624552 4.595940 73.306770 95 91 105
-12.624552 4.753964 73.306770 97 92 106
-12.624552 4.911989 73.306770 99 92 106
-12.624552 5.070014 73.306770 100 92 105
-12.624552 5.228038 73.306770 101 91 104
-12.562514 5.359596 72.946541 101 90 103
-12.562514 5.516844 72.946541 101 88 102
-12.624552 5.702112 73.306770 100 85 100
-12.687204 5.889220 73.670578 98 83 99
-12.718764 6.063073 73.853836 97 82 97
-12.750483 6.237794 74.038010 96 82 96
-12.750483 6.397395 74.038010 93 81 94
-12.687204 6.524455 73.670578 89 79 91
-12.655801 6.666721 73.488220 86 79 89
-12.593456 6.791516 73.126213 84 79 86
-12.593456 6.949152 73.126213 83 78 84
-12.501084 7.054659 72.589836 82 77 81
-12.501084 7.211138 72.589836 82 75 79
-12.410057 7.313970 72.061264 82 73 77
-12.380008 7.451224 71.886787 82 71 75
-12.350104 7.587815 71.713142 83 70 75
-12.290730 7.705182 71.368370 83 70 77
-12.290730 7.859027 71.368370 83 70 79
-12.290730 8.012874 71.368370 84 71 82
-12.380008 8.226043 71.886787 85 72 85
-12.410057 8.401348 72.061264 86 73 88
-12.410057 8.556688 72.061264 88 75 91
-12.380008 8.690933 71.886787 90 76 95
-12.380008 8.845897 71.886787 92 78 95
-12.380008 9.000861 71.886787 93 78 95
-12.410057 9.178047 72.061264 93 77 94
-12.470593 9.378916 72.412788 91 76 91
-12.593456 9.628954 73.126213 90 75 88
-12.593456 9.786590 73.126213 87 73 83
-12.501084 9.871284 72.589836 84 71 80
-12.501084 10.027764 72.589836 82 70 79
-12.531724 10.209205 72.767754 81 69 78
-12.531724 10.366067 72.767754 79 68 78
-12.531724 10.522930 72.767754 79 68 78
-12.440251 10.601838 72.236603 78 69 80
-12.440251 10.757556 72.236603 78 71 81
-12.410057 10.886786 72.061264 79 73 83
-12.320346 10.962302 71.540344 79 74 84
-12.231922 11.036736 71.026894 80 76 85
-12.002214 10.979708 69.693054 81 78 88
-12.002214 11.129942 69.693054 84 80 91
-12.058828 11.333385 70.021797 86 83 94
-12.087337 11.511478 70.187332 90 87 99
-12.058828 11.635272 70.021797 94 91 104
-12.087337 11.814079 70.187332 95 94 107
-12.087337 11.965380 70.187332 95 94 107
-12.087337 12.116679 70.187332 95 94 108
-12.058828 12.239046 70.021797 94 94 108
-12.115979 12.448709 70.353653 93 94 107
-12.173675 12.660370 70.688675 93 94 107
-12.261255 14.746655 71.197220 88 87 109
-12.231922 14.864487 71.026894 88 86 110
-12.290730 15.089797 71.368370 88 84 109
-12.290730 15.243643 71.368370 88 83 107
-12.231922 15.323817 71.026894 87 81 104
-12.087337 15.293984 70.187332 88 80 102
-12.087337 15.445285 70.187332 89 80 101
-12.087337 15.596585 70.187332 91 81 101
-12.087337 15.747886 70.187332 91 81 100
-12.030455 15.824366 69.857040 91 81 99
-15.354184 21.541609 89.156883 88 77 97
-15.171939 21.475832 88.098640 87 77 96
-14.950127 21.348993 86.810646 87 77 95
-14.820126 21.348856 86.055771 86 76 94
-13.856215 20.133755 80.458649 85 76 91
-13.455114 19.719357 78.129585 84 76 89
-13.314957 19.680613 77.315735 84 76 88
-13.314957 19.847281 77.315735 83 76 87
-13.314957 20.013947 77.315735 82 75 86
-13.314957 20.180613 77.315735 82 75 87
-13.143813 20.085747 76.321960 81 75 87
-12.977014 19.993288 75.353409 79 75 87
-12.782358 19.853388 74.223106 78 74 88
-12.350104 19.336607 71.713142 78 74 88
-11.946130 18.853634 69.367386 78 73 87
-11.974106 19.047670 69.529839 77 72 87
-11.974106 19.197554 69.529839 77 70 85
-11.918283 19.257238 69.205696 77 69 84
-11.862978 19.316370 68.884552 76 67 83
-11.835517 19.419804 68.725098 76 66 82
-11.808184 19.522760 68.566376 76 65 82
-11.700099 19.490517 67.938766 75 63 81
-11.567745 19.414831 67.170235 74 62 81
-11.438352 19.340839 66.418884 72 61 80
-11.438352 19.484016 66.418884 71 60 80
-11.463999 19.671200 66.567810 70 60 79
-11.515638 19.903954 66.867661 70 60 78
-11.515638 20.048098 66.867661 69 61 77
-11.463999 20.101694 66.567810 68 61 76
-11.438352 20.199900 66.418884 67 61 75
-11.412820 20.297668 66.270630 66 60 73
-11.387402 20.395000 66.123032 65 60 72
-11.387402 20.537540 66.123032 64 60 70
-11.438352 20.772608 66.418884 63 59 68
-11.700099 21.394405 67.938766 63 59 67
-11.700099 21.540859 67.938766 62 58 66
-11.593976 21.490602 67.322548 61 57 63
-11.463999 21.393173 66.567810 61 56 61
-11.438352 21.488491 66.418884 61 55 60
-11.412820 21.583384 66.270630 61 54 58
-11.412820 21.726240 66.270630 61 52 57
-11.336904 21.723627 65.829803 61 52 55
-11.286851 21.768997 65.539169 61 51 55
-10.995577 21.344851 63.847832 60 51 55
-10.995577 21.482485 63.847832 59 50 55
-13.384668 26.652763 77.720528 57 49 55
-12.946009 -3.268319 76.126259 90 71 85
-12.912899 -3.096277 75.931564 90 72 86
-12.912899 -2.932595 75.931564 89 74 87
-12.979289 -2.783148 76.321960 89 75 89
-13.080164 -2.638975 76.915138 90 75 91
-13.148290 -2.486053 77.315735 92 76 94
-13.114139 -2.313362 77.114914 94 77 97
-13.080164 -2.141566 76.915138 95 78 98
-13.080164 -1.975763 76.915138 97 78 98
-13.182620 -1.824137 77.517601 99 78 98
-13.217129 -1.661373 77.720528 99 77 98
-13.217129 -1.493834 77.720528 99 75 97
-13.321751 -1.336793 78.335732 98 74 95
-13.251820 -1.161797 77.924522 98 73 93
-13.148290 -0.986053 77.315735 97 72 92
-13.148290 -0.819387 77.315735 96 73 91
-13.080164 -0.483535 76.915138 95 75 90
-12.912899 -0.313669 75.931564 93 75 89
-12.749857 -0.148092 74.972832 92 76 88
-12.622358 0.013389 74.223106 92 76 89
-12.559561 0.172526 73.853836 93 76 89
-12.559561 0.331730 73.853836 94 78 91
-12.559561 0.490934 73.853836 95 80 93
-12.590881 0.651759 74.038010 97 81 95
-12.590881 0.811360 74.038010 98 82 96
-12.622358 0.973389 74.223106 99 83 98
-12.622358 1.133389 74.223106 98 83 98
-12.622358 1.293389 74.223106 97 83 97
-12.622358 1.453389 74.223106 96 83 98
-12.590881 1.609365 74.038010 96 84 98
-12.590881 1.768966 74.038010 96 83 98
-12.590881 1.928567 74.038010 97 82 97
-7.696560 1.276456 45.257992 98 82 97
-12.590881 2.247769 74.038010 98 81 96
-12.528396 2.395423 73.670578 97 80 95
-12.528396 2.554232 73.670578 98 81 94
-12.528396 2.713041 73.670578 100 83 96
-12.559561 2.878994 73.853836 103 84 98
-12.528396 3.030659 73.670578 104 86 99
-12.497385 3.181573 73.488220 104 87 100
-12.497385 3.339989 73.488220 103 87 100
-12.528396 3.507086 73.670578 101 87 100
-12.559561 3.675014 73.853836 99 88 100
-12.590881 3.843779 74.038010 96 88 102
-12.528396 3.983512 73.670578 95 89 103
-12.528396 4.142321 73.670578 94 90 104
-12.497385 4.290484 73.488220 94 91 105
-12.497385 4.448900 73.488220 95 92 106
-12.497385 4.607316 73.488220 97 93 107
-12.497385 4.765731 73.488220 99 94 107
-12.497385 4.924147 73.488220 101 94 107
-12.497385 5.082563 73.488220 101 94 107
-12.466527 5.228038 73.306770 102 93 106
-12.405266 5.359596 72.946541 102 91 104
-12.405266 5.516844 72.946541 101 89 103
-12.466527 5.702112 73.306770 100 86 102
-12.528396 5.889220 73.670578 98 85 100
-12.590881 6.078193 74.038010 97 84 99
-12.590881 6.237794 74.038010 96 83 97
-12.590881 6.397395 74.038010 94 82 95
-12.590881 6.556996 74.038010 91 81 92
-12.590881 6.716597 74.038010 87 81 90
-12.497385 6.825137 73.488220 85 80 87
-12.653994 7.071066 74.409126 84 79 84
-12.559561 7.177501 73.853836 83 77 81
-12.559561 7.336705 73.853836 83 75 78
-12.314496 7.349648 72.412788 83 73 76
-12.254717 7.469309 72.061264 84 72 75
-12.225044 7.606187 71.886787 84 71 76
-12.166128 7.723748 71.540344 85 70 77
-12.136883 7.859027 71.368370 84 70 78
-12.136883 8.012874 71.368370 84 70 81
-12.195516 8.206173 71.713142 85 71 84
-12.225044 8.381006 71.886787 87 72 88
-12.225044 8.535970 71.886787 89 74 91
-12.225044 8.690933 71.886787 91 76 95
-12.195516 8.824530 71.713142 93 77 95
-12.195516 8.979119 71.713142 94 77 95
-12.225044 9.155825 71.886787 94 77 93
-12.284534 9.356096 72.236603 91 76 91
-12.435822 9.628954 73.126213 89 75 87
-12.435822 9.786590 73.126213 88 74 85
-12.374861 9.895479 72.767754 85 72 82
-12.374861 10.052341 72.767754 82 71 81
-12.374861 10.209205 72.767754 80 69 81
-12.374861 10.366067 72.767754 79 69 82
-12.405266 10.548785 72.946541 79 68 82
-12.314496 10.627696 72.412788 78 69 83
-12.344604 10.810160 72.589836 77 71 84
-12.284534 10.913274 72.236603 78 73 85
-12.195516 10.988781 71.713142 79 75 86
-12.078812 11.036736 71.026894 81 77 87
-11.851979 10.979708 69.693054 83 79 90
-11.851979 11.129942 69.693054 85 81 92
-11.824224 11.253760 69.529839 88 84 96
-11.851979 11.430412 69.693054 92 88 101
-11.796597 11.526531 69.367386 95 93 106
-11.824224 11.703408 69.529839 95 94 107
-11.824224 11.853292 69.529839 95 94 108
-11.824224 12.003175 69.529839 95 95 108
-11.824224 12.153057 69.529839 94 95 108
-11.851979 12.331820 69.693054 93 95 108
-11.964321 12.600368 70.353653 93 94 108
-12.049984 14.676266 70.857384 88 87 111
-12.049984 14.829011 70.857384 88 86 111
-12.107778 15.053610 71.197220 88 84 111
-12.078812 15.170707 71.026894 88 83 109
-12.049984 15.287245 70.857384 88 82 107
-11.936036 15.293984 70.187332 89 81 104
-11.936036 15.445285 70.187332 90 81 103
-11.936036 15.596585 70.187332 91 81 102
-15.253605 21.671768 89.695595 87 76 97
-15.161992 21.733801 89.156883 87 76 96
-14.982028 21.665743 88.098640 86 76 95
-14.719952 21.473339 86.557556 85 76 94
-13.286693 19.550936 78.129585 84 76 91
-13.148290 19.513947 77.315735 83 76 89
-13.046366 19.528049 76.716385 82 76 87
-13.012741 19.642670 76.518669 82 76 87
-13.012741 19.807617 76.518669 81 76 86
-12.979289 19.921223 76.321960 81 76 87
-12.814577 19.830851 75.353409 80 76 87
-12.622358 19.693388 74.223106 79 75 87
-12.195516 19.182018 71.713142 78 75 88
-11.796597 18.704102 69.367386 78 74 88
-11.687369 18.679064 68.725098 78 73 88
-11.687369 18.827211 68.725098 78 72 87
-11.796597 19.152700 69.367386 78 70 85
-11.796597 19.302233 69.367386 78 69 84
-11.741729 19.361292 69.044746 77 67 83
-11.687369 19.419804 68.725098 77 66 82
-11.660378 19.522760 68.566376 76 65 81
-11.580145 19.535219 68.094589 75 64 81
-11.448852 19.458857 67.322548 74 63 80
-11.320500 19.384205 66.567810 73 62 79
-11.320500 19.527702 66.567810 71 61 78
-11.397163 19.804415 67.018608 70 61 77
-11.422949 19.994017 67.170235 70 61 76
-11.422949 20.138813 67.170235 69 61 75
-11.345941 20.146866 66.717400 68 61 74
-11.320500 20.245192 66.567810 68 61 73
-11.295176 20.343077 66.418884 67 60 72
-11.295176 20.486254 66.418884 66 60 71
-11.295176 20.629431 66.418884 65 59 69
-11.371494 20.912962 66.867661 64 59 69
-11.687369 21.642027 68.725098 63 59 67
-11.687369 21.790174 68.725098 62 58 65
-11.448852 21.490602 67.322548 62 57 63
-11.320500 21.393173 66.567810 61 55 62
-11.269963 21.440525 66.270630 62 54 60
-11.194997 21.439812 65.829803 62 53 59
-11.194997 21.581720 65.829803 62 52 57
-11.096579 21.532650 65.251083 62 51 56
-10.952155 21.391226 64.401825 62 51 56
-10.788341 21.208025 63.438553 62 51 55
-10.788341 21.344776 63.438553 61 50 55
-13.182620 26.583174 77.517601 58 49 55
-13.182620 26.750275 77.517601 58 49 55
-12.524983 -3.363428 74.596085 90 73 91
-12.556533 -3.210691 74.783989 90 74 90
-12.556533 -3.049482 74.783989 90 76 90
-12.556533 -2.888273 74.783989 90 77 91
-12.749216 -2.768912 75.931564 90 78 92
-12.781906 -2.611909 76.126259 91 79 94
-12.880991 -2.466782 76.716385 94 80 96
-12.880991 -2.301407 76.716385 96 81 99
-12.880991 -2.136032 76.716385 98 81 100
-12.914361 -1.975763 76.915138 100 81 100
-13.049590 -1.828912 77.720528 101 81 100
-13.083840 -1.665734 77.924522 101 80 100
-13.152884 -1.505658 78.335732 101 79 99
-13.152884 -1.336793 78.335732 101 78 98
-13.152884 -1.167928 78.335732 100 76 96
-13.118272 -0.996433 78.129585 99 76 94
-13.083840 -0.825839 77.924522 98 76 93
-12.947905 -0.484791 77.114914 96 78 91
-12.880991 -0.316911 76.716385 94 78 91
-12.749216 -0.149986 75.931564 93 78 90
-12.493592 0.013422 74.409126 93 78 90
-12.431280 0.172956 74.038010 93 79 91
-12.400356 0.331730 73.853836 94 80 93
-12.400356 0.490934 73.853836 95 82 94
-12.431280 0.651759 74.038010 97 83 96
-12.431280 0.811360 74.038010 99 84 97
-12.431280 0.970961 74.038010 100 85 99
-12.431280 1.130562 74.038010 99 86 100
-12.431280 1.290163 74.038010 98 86 100
-12.369587 1.442569 73.670578 97 87 100
-12.369587 1.601378 73.670578 97 87 101
-12.369587 1.760187 73.670578 97 87 101
-12.278186 1.904816 73.126213 98 86 101
-7.598999 1.276456 45.257992 98 85 102
-12.431280 2.247769 74.038010 99 85 101
-12.431280 2.407370 74.038010 100 84 101
-12.431280 2.566971 74.038010 101 84 101
-12.431280 2.726572 74.038010 103 85 101
-12.431280 2.886173 74.038010 104 86 102
-12.431280 3.045774 74.038010 105 87 102
-12.431280 3.205375 74.038010 105 88 102
-12.369587 3.348277 73.670578 104 89 102
-12.431280 3.524577 74.038010 102 90 102
-12.462358 3.693389 74.223106 100 90 102
-12.462358 3.853389 74.223106 98 91 102
-12.431280 4.003380 74.038010 97 91 104
-12.369587 4.142321 73.670578 96 92 105
-12.369587 4.301130 73.670578 96 93 106
-12.369587 4.459939 73.670578 98 94 108
-12.338968 4.607316 73.488220 100 96 109
-12.338968 4.765731 73.488220 102 97 109
-12.369587 4.936366 73.670578 104 97 110
-12.369587 5.095175 73.670578 104 97 109
-12.338968 5.240979 73.488220 104 95 107
-12.308502 5.386063 73.306770 102 92 105
-12.308502 5.544087 73.306770 101 90 104
-12.369587 5.730411 73.670578 100 88 102
-12.431280 5.918592 74.038010 99 87 101
-12.556533 6.139434 74.783989 97 85 101
-12.588241 6.316554 74.972832 96 84 99
-12.588241 6.478170 74.972832 94 83 97
-12.652141 6.673491 75.353409 92 82 95
-12.620110 6.818622 75.162636 89 81 92
-12.620110 6.980647 75.162636 86 81 89
-12.620110 7.142672 75.162636 84 80 85
-12.620110 7.304698 75.162636 84 78 82
-12.400356 7.336705 73.853836 84 76 80
-12.158399 7.349648 72.412788 85 74 78
-12.099377 7.469309 72.061264 86 72 77
-12.070081 7.606187 71.886787 86 71 77
-12.011911 7.723748 71.540344 86 71 78
-11.983037 7.859027 71.368370 85 69 79
-11.983037 8.012874 71.368370 85 69 81
-12.011911 8.186399 71.540344 86 70 84
-12.040926 8.360762 71.713142 88 71 88
-12.040926 8.515351 71.713142 90 73 91
-12.040926 8.669941 71.713142 92 75 95
-12.011911 8.803267 71.540344 94 77 96
-12.011911 8.957483 71.540344 94 77 94
-12.040926 9.133709 71.713142 94 77 92
-12.070081 9.310788 71.886787 91 76 90
-12.278186 9.628954 73.126213 89 75 87
-12.278186 9.786590 73.126213 86 74 85
-12.217999 9.895479 72.767754 83 72 83
-12.217999 10.052341 72.767754 80 69 83
-12.217999 10.209205 72.767754 79 68 84
-12.217999 10.366067 72.767754 79 68 85
-12.248018 10.548785 72.946541 78 68 86
-12.217999 10.679792 72.767754 78 70 86
-12.217999 10.836656 72.767754 78 71 87
-12.158399 10.939892 72.412788 79 73 87
-12.040926 10.988781 71.713142 81 75 87
-11.925702 11.036736 71.026894 82 77 89
-11.701745 10.979708 69.693054 85 79 91
-11.674340 11.103877 69.529839 87 81 93
-11.647064 11.227466 69.367386 89 84 96
-11.647064 11.376999 69.367386 92 88 101
-11.592892 11.472919 69.044746 95 92 106
-11.592892 11.621757 69.044746 96 94 108
-11.647064 11.825597 69.367386 96 95 108
-11.647064 11.975129 69.367386 95 95 109
-11.647064 12.124662 69.367386 94 95 109
-11.647064 12.274195 69.367386 93 95 109
-11.784736 12.570580 70.187332 94 95 110
-11.868913 14.641322 70.688675 88 88 111
-11.868913 14.793703 70.688675 88 86 111
-11.925702 15.017597 71.026894 89 85 111
-11.925702 15.170707 71.026894 89 83 110
-11.897240 15.287245 70.857384 89 82 109
-11.729279 15.222013 69.857040 90 82 106
-11.701745 15.336515 69.693054 91 82 105
-15.060252 21.478415 89.695595 87 78 99
-15.060252 21.671768 89.695595 86 77 98
-15.060252 21.865122 89.695595 86 76 97
-13.509332 19.960314 80.458649 84 76 94
-13.015518 19.397795 77.517601 83 76 92
-12.880991 19.362675 76.716385 82 76 89
-12.781906 19.377834 76.126259 81 76 87
-12.781906 19.541937 76.126259 81 76 87
-12.814764 19.756699 76.321960 81 76 87
-12.749216 19.819323 75.931564 80 76 87
-12.524983 19.631546 74.596085 80 76 87
-12.400356 19.595411 73.853836 79 75 87
-11.983037 19.089796 71.368370 78 75 87
-11.592892 18.617105 69.044746 78 74 87
-11.565994 18.722403 68.884552 79 73 87
-11.592892 18.914780 69.044746 79 72 86
-11.674340 19.197554 69.529839 79 70 84
-11.674340 19.347437 69.529839 78 69 83
-11.592892 19.361292 69.044746 78 68 82
-11.539221 19.419804 68.725098 77 68 82
-11.539221 19.567953 68.725098 76 67 81
-11.512571 19.670567 68.566376 75 66 80
-11.433356 19.682009 68.094589 73 64 79
-11.303726 19.603981 67.322548 72 63 78
-11.252694 19.659945 67.018608 71 62 76
-11.355224 19.984865 67.629250 70 61 76
-11.355224 20.130650 67.629250 69 61 75
-11.355224 20.276436 67.629250 69 61 74
-11.278152 20.283609 67.170235 69 61 73
-11.202120 20.290686 66.717400 68 60 72
-11.202120 20.434507 66.717400 68 59 71
-11.227350 20.624674 66.867661 67 59 70
-11.227350 20.768818 66.867661 66 59 70
-11.647064 21.694756 69.367386 65 59 70
-11.592892 21.742687 69.044746 64 58 69
-11.539221 21.790174 68.725098 63 57 67
-11.252694 21.393579 67.018608 62 56 65
-11.127106 21.297668 66.270630 62 55 63
-11.102324 21.392775 66.123032 63 54 61
-11.053089 21.439812 65.829803 63 53 59
-10.860443 21.205568 64.682442 63 52 58
-10.789921 21.206398 64.262428 64 52 57
-10.743412 21.252922 63.985435 64 52 56
-10.583744 21.072941 63.034485 63 51 56
-10.583744 21.208822 63.034485 62 51 55
-13.015518 26.583174 77.517601 60 50 56
-13.015518 26.750275 77.517601 59 50 56
-13.187681 27.273428 78.542969 58 50 56
-12.333191 -3.515400 74.409126 89 76 96
-12.333191 -3.354999 74.409126 91 78 96
-12.364180 -3.202625 74.596085 91 79 95
-12.364180 -3.041821 74.596085 91 81 95
-12.364180 -2.881016 74.596085 91 81 95
-12.395324 -2.727064 74.783989 91 82 96
-12.585533 -2.605229 75.931564 92 82 96
-12.650240 -2.454099 76.321960 94 83 98
-12.650240 -2.289575 76.321960 97 84 101
-12.650240 -2.125050 76.321960 100 85 102
-12.682844 -1.965579 76.518669 102 85 102
-12.882051 -1.828912 77.720528 102 84 102
-12.949851 -1.670117 78.129585 102 83 102
-12.984019 -1.505658 78.335732 102 83 101
-13.228342 -1.361948 79.809792 102 82 100
-13.228342 -1.189905 79.809792 102 81 99
-12.949851 -0.996433 78.129585 101 80 97
-12.814957 -0.819387 77.315735 99 80 96
-12.715616 -0.647660 76.716385 98 80 94
-12.748558 -0.483535 76.915138 97 81 93
-12.715616 -0.316911 76.716385 96 81 93
-12.617804 -0.150371 76.126259 95 80 92
-12.364180 0.013456 74.596085 94 81 92
-12.302359 0.173389 74.223106 94 81 93
-12.271679 0.332557 74.038010 94 82 94
-12.271679 0.492158 74.038010 96 83 95
-12.271679 0.651759 74.038010 97 85 96
-12.241153 0.809342 73.853836 99 86 98
-12.241153 0.968546 73.853836 101 87 100
-12.241153 1.127750 73.853836 101 88 101
-12.180552 1.280583 73.488220 100 89 102
-12.180552 1.438999 73.488220 98 89 102
-12.180552 1.597414 73.488220 98 89 103
-12.210777 1.760187 73.670578 98 90 104
-12.210777 1.918996 73.670578 99 89 105
-12.120550 2.062452 73.126213 100 89 106
-12.302359 2.253389 74.223106 101 88 106
-12.302359 2.413389 74.223106 102 88 107
-12.302359 2.573389 74.223106 103 87 107
-12.302359 2.733389 74.223106 105 88 107
-12.302359 2.893389 74.223106 106 88 107
-12.271679 3.045774 74.038010 106 89 107
-12.271679 3.205375 74.038010 106 91 106
-12.241153 3.356606 73.853836 105 92 106
-12.271679 3.524577 74.038010 104 92 105
-12.271679 3.684178 74.038010 102 93 105
-12.271679 3.843779 74.038010 100 94 105
-12.241153 3.993422 73.853836 99 94 106
-12.241153 4.152626 73.853836 98 94 107
-12.210777 4.301130 73.670578 99 95 108
-12.210777 4.459939 73.670578 101 97 110
-12.210777 4.618748 73.670578 103 98 111
-12.210777 4.777557 73.670578 105 99 111
-12.241153 4.948646 73.853836 106 99 111
-12.241153 5.107850 73.853836 106 99 111
-12.210777 5.253984 73.670578 105 96 108
-12.180552 5.399395 73.488220 103 94 106
-12.210777 5.571602 73.670578 102 92 105
-12.271679 5.758991 74.038010 100 90 103
-12.395324 5.978225 74.783989 99 88 103
-12.426624 6.154938 74.972832 98 87 103
-12.585533 6.397328 75.931564 96 86 101
-12.617804 6.577835 76.126259 94 85 99
-12.617804 6.741937 76.126259 92 84 97
-12.521484 6.853322 75.545143 89 83 94
-12.521484 7.016171 75.545143 87 81 91
-12.458084 7.142672 75.162636 85 80 87
-12.458084 7.304698 75.162636 85 79 84
-12.210777 7.318500 73.670578 85 77 82
-11.973098 7.331765 72.236603 86 75 81
-11.915117 7.451224 71.886787 87 73 80
-11.857695 7.569531 71.540344 88 72 79
-11.829191 7.705182 71.368370 87 71 79
-11.800823 7.840181 71.197220 86 69 80
-11.800823 7.993658 71.197220 85 69 82
-11.829191 8.166719 71.368370 86 70 85
-11.857695 8.340615 71.540344 88 71 89
-11.857695 8.494832 71.540344 91 73 92
-11.857695 8.649050 71.540344 93 75 95
-11.829191 8.782104 71.368370 94 77 96
-11.829191 8.935950 71.368370 94 77 94
-11.829191 9.089797 71.368370 93 77 92
-11.886336 9.288299 71.713142 91 76 89
-12.090770 9.605296 72.946541 88 75 87
-12.090770 9.762544 72.946541 85 73 85
-12.061135 9.895479 72.767754 83 71 84
-12.061135 10.052341 72.767754 80 68 85
-12.031647 10.184243 72.589836 80 68 86
-11.973098 10.290402 72.236603 80 68 88
-12.031647 10.497202 72.589836 80 69 89
-12.061135 10.679792 72.767754 79 70 89
-12.061135 10.836656 72.767754 79 72 89
-12.002301 10.939892 72.412788 81 74 89
-11.886336 10.988781 71.713142 82 76 89
-11.772592 11.036736 71.026894 84 78 90
-11.551510 10.979708 69.693054 86 79 92
-11.470731 11.052111 69.205696 88 81 94
-11.444055 11.175245 69.044746 90 84 97
-11.444055 11.324082 69.044746 92 87 102
-11.417502 11.446301 68.884552 96 92 106
-11.417502 11.594792 68.884552 97 94 108
-11.444055 11.770594 69.044746 97 95 108
-11.444055 11.919432 69.044746 96 95 109
-11.444055 12.068269 69.044746 95 95 109
-11.470731 12.245584 69.205696 94 95 110
-11.605998 12.540933 70.021797 95 95 111
-11.661003 14.420274 70.353653 89 88 110
-11.661003 14.571933 70.353653 89 88 111
-11.661003 14.723591 70.353653 89 87 111
-11.716532 14.946084 70.688675 89 86 110
-11.744494 15.134500 70.857384 89 84 110
-11.716532 15.250846 70.688675 89 84 109
-11.578691 15.222013 69.857040 90 83 107
-11.497531 15.264850 69.367386 91 83 105
-11.497531 15.414382 69.367386 92 83 104
-11.633436 15.747886 70.187332 92 83 103
-11.633436 15.899185 70.187332 92 83 102
-11.551510 15.937454 69.693054 91 84 102
-14.866899 21.478415 89.695595 86 79 100
-14.822119 21.606493 89.425430 86 78 99
-13.335890 19.960314 80.458649 84 77 94
-12.814957 19.347281 77.315735 83 76 92
-12.617804 19.213732 76.126259 82 76 90
-12.553427 19.278969 75.737862 81 77 88
-12.553427 19.442234 75.737862 81 77 87
-12.585533 19.655640 75.931564 81 77 87
-12.585533 19.819323 75.931564 80 77 87
-12.333191 19.582344 74.409126 80 76 87
-12.241153 19.595411 73.853836 79 75 87
-11.829191 19.089796 71.368370 78 74 87
-11.444055 18.617105 69.044746 78 73 86
-11.444055 18.765944 69.044746 79 73 86
-11.829191 19.551334 71.368370 80 72 85
-11.688702 19.471153 70.520767 80 71 83
-11.524458 19.347437 69.529839 79 70 82
-11.444055 19.361292 69.044746 78 69 81
-11.417502 19.464863 68.884552 77 69 81
-11.391072 19.567953 68.725098 75 68 80
-11.444055 19.807804 69.044746 74 67 79
-14.100124 24.588411 85.069466 73 66 78
-14.100124 24.771791 85.069466 72 64 77
-14.100124 24.955173 85.069466 71 63 75
-14.140642 25.210791 85.313911 70 62 75
-14.140642 25.394699 85.313911 70 61 74
-14.140642 25.578608 85.313911 70 61 73
-14.100124 25.688698 85.069466 70 61 72
-14.100124 25.872078 85.069466 70 60 71
-11.524458 21.595680 69.529839 68 59 71
-11.578691 21.847895 69.857040 67 58 71
-11.497531 21.844288 69.367386 66 57 71
-11.391072 21.790174 68.725098 65 56 70
-11.108224 21.393579 67.018608 64 56 67
-10.984248 21.297668 66.270630 64 55 64
-10.959785 21.392775 66.123032 64 54 63
-10.911182 21.439812 65.829803 64 53 61
-10.721009 21.205568 64.682442 64 53 59
-10.651393 21.206398 64.262428 64 52 57
-10.628387 21.298824 64.123634 64 51 56
-10.628387 21.437054 64.123634 64 51 56
-12.814957 26.513947 77.315735 62 50 56
-12.814957 26.680613 77.315735 61 50 56
-13.018369 27.273428 78.542969 60 50 56
-13.228342 27.885365 79.809792 59 50 56
-12.172791 -3.675801 74.409126 88 79 101
-12.172791 -3.515400 74.409126 90 81 102
-12.203375 -3.363428 74.596085 92 84 102
-12.203375 -3.202625 74.596085 93 85 101
-12.203375 -3.041821 74.596085 93 85 100
-12.203375 -2.881016 74.596085 92 85 99
-12.265009 -2.733951 74.972832 93 85 100
-12.390162 -2.598583 75.737862 94 85 100
-12.421850 -2.441546 75.931564 95 85 101
-12.421850 -2.277863 75.931564 98 87 103
-12.421850 -2.114180 75.931564 100 88 105
-12.421850 -1.950498 75.931564 102 88 105
-12.714512 -1.828912 77.720528 102 88 104
-12.781430 -1.670117 78.129585 102 87 105
-12.815154 -1.505658 78.335732 102 86 103
-12.951849 -1.351052 79.171310 102 86 102
-12.951849 -1.180385 79.171310 102 85 101
-12.648290 -0.986053 77.315735 101 85 100
-12.550241 -0.813035 76.716385 100 84 98
-12.550241 -0.647660 76.716385 99 84 97
-12.550241 -0.482286 76.716385 98 84 96
-12.582755 -0.317732 76.915138 97 84 96
-12.517896 -0.151146 76.518669 96 84 95
-12.296060 0.013558 75.162636 95 84 95
-12.203375 0.174260 74.596085 94 83 95
-12.142359 0.333389 74.223106 95 84 95
-12.142359 0.493389 74.223106 95 85 96
-12.142359 0.653389 74.223106 97 86 97
-12.112079 0.811360 74.038010 99 88 99
-12.081948 0.968546 73.853836 101 89 101
-12.081948 1.127750 73.853836 102 91 103
-12.022137 1.280583 73.488220 101 91 104
-12.022137 1.438999 73.488220 100 92 105
-11.962914 1.589545 73.126213 100 92 105
-11.992453 1.751495 73.306770 100 92 106
-11.992453 1.909520 73.306770 101 91 108
-12.081948 2.082974 73.853836 102 91 109
-12.172791 2.259036 74.409126 103 91 111
-12.172791 2.419437 74.409126 104 90 112
-12.142359 2.573389 74.223106 106 91 113
-12.142359 2.733389 74.223106 106 91 113
-12.142359 2.893389 74.223106 107 92 112
-12.142359 3.053389 74.223106 107 93 111
-12.112079 3.205375 74.038010 107 94 111
-12.081948 3.356606 73.853836 106 95 110
-12.051969 3.507086 73.670578 105 95 109
-12.051969 3.665895 73.670578 104 96 108
-12.081948 3.834218 73.853836 103 96 108
-12.051969 3.983512 73.670578 102 96 108
-12.051969 4.142321 73.670578 101 96 108
-12.051969 4.301130 73.670578 103 97 110
-12.051969 4.459939 73.670578 104 98 111
-12.051969 4.618748 73.670578 106 99 112
-12.051969 4.777557 73.670578 107 100 112
-12.081948 4.948646 73.853836 108 100 112
-12.081948 5.107850 73.853836 107 99 111
-12.051969 5.253984 73.670578 106 97 109
-12.051969 5.412793 73.670578 104 95 107
-12.081948 5.585461 73.853836 102 93 106
-12.112079 5.758991 74.038010 101 91 105
-12.234115 5.978225 74.783989 99 90 105
-12.265009 6.154938 74.972832 98 89 104
-12.421850 6.397328 75.931564 97 88 103
-12.453701 6.577835 76.126259 96 87 101
-12.453701 6.741937 76.126259 94 86 99
-12.358635 6.853322 75.545143 91 84 97
-12.296060 6.980647 75.162636 88 82 94
-12.234115 7.106689 74.783989 87 81 90
-12.142359 7.213388 74.223106 86 79 87
-11.933522 7.246573 72.946541 86 77 84
-11.760154 7.296260 71.886787 87 75 83
-11.703478 7.415314 71.540344 88 73 81
-11.675344 7.551335 71.368370 88 72 81
-11.647346 7.686704 71.197220 87 71 81
-11.591750 7.802758 70.857384 86 70 82
-11.591750 7.955503 70.857384 86 70 84
-11.647346 8.147136 71.197220 87 70 87
-11.675344 8.320566 71.368370 90 71 89
-11.675344 8.474412 71.368370 92 73 92
-11.675344 8.628259 71.368370 94 75 94
-11.675344 8.782104 71.368370 94 76 95
-11.675344 8.935950 71.368370 94 77 93
-11.675344 9.089797 71.368370 92 77 91
-11.675344 9.243643 71.368370 90 76 89
-11.817381 9.511814 72.236603 88 75 87
-11.846203 9.691111 72.412788 85 73 86
-11.846203 9.847208 72.412788 83 70 86
-11.817381 9.978967 72.236603 82 69 87
-11.817381 10.134685 72.236603 81 68 88
-11.817381 10.290402 72.236603 81 69 89
-11.817381 10.446120 72.236603 82 69 89
-11.846203 10.627696 72.412788 81 70 89
-11.904273 10.836656 72.767754 81 72 90
-11.760154 10.860425 71.886787 83 74 90
-11.703478 10.962302 71.540344 84 76 91
-11.564151 10.984179 70.688675 86 78 92
-11.374575 10.953994 69.529839 88 80 94
-11.295218 11.026408 69.044746 90 82 96
-11.242925 11.123508 68.725098 91 84 99
-11.242925 11.271656 68.725098 93 88 103
-11.242925 11.419805 68.725098 97 92 107
-11.242925 11.567952 68.725098 98 94 108
-11.242925 11.716101 68.725098 98 95 108
-11.242925 11.864249 68.725098 97 95 108
-11.269011 12.040268 68.884552 96 95 109
-11.295218 12.217106 69.044746 95 94 109
-11.401276 12.482055 69.693054 95 94 110
-11.482136 12.721881 70.187332 96 94 111
-11.374575 14.101535 69.529839 91 89 108
-11.347999 14.218121 69.367386 90 89 110
-11.374575 14.401300 69.529839 90 89 110
-11.374575 14.551184 69.529839 90 88 109
-11.455055 14.805083 70.021797 90 87 109
-11.509344 15.026909 70.353653 90 86 108
-11.455055 15.106971 70.021797 90 85 107
-11.347999 15.115316 69.367386 90 85 106
-11.242925 15.123508 68.725098 91 84 105
-11.242925 15.271656 68.725098 92 84 104
-11.295218 15.491525 69.044746 92 84 104
-11.242925 15.567952 68.725098 92 84 104
-11.139778 15.571917 68.094589 91 85 104
-11.139778 15.718705 68.094589 91 85 103
-14.673545 21.478415 89.695595 86 81 100
-14.629348 21.606493 89.425430 85 80 99
-14.673545 21.865122 89.695595 85 79 97
-12.849056 19.315756 78.542969 84 79 96
-12.849056 19.485067 78.542969 84 78 94
-12.648290 19.347281 77.315735 83 77 92
-12.453701 19.213732 76.126259 82 77 90
-12.327268 19.181105 75.353409 81 77 88
