ply
format ascii 1.0
element vertex 1227
property float x
property float y
property float z
property uchar red
property uchar green
property uchar blue
end_header
-11.055836 -0.149223 75.545143 45 26 26
-11.256330 0.013874 76.915138 46 26 26
-11.314957 0.180613 77.315735 47 27 27
-11.314957 0.347280 77.315735 47 27 27
-11.256330 0.511284 76.915138 48 28 28
-11.256330 0.677087 76.915138 48 29 29
-11.256330 0.842890 76.915138 48 29 29
-11.256330 1.008693 76.915138 47 28 28
-11.285567 1.177547 77.114914 47 27 28
-11.314957 1.347280 77.315735 46 26 27
-11.227243 1.502210 76.716385 46 26 28
-10.999857 1.633811 75.162636 46 26 28
-10.916944 1.782300 74.596085 46 27 28
-10.916944 1.943104 74.596085 46 27 28
-10.944442 2.109208 74.783989 46 27 28
-10.944442 2.270417 74.783989 46 27 27
-10.889583 2.579838 74.409126 46 26 27
-10.916944 2.747124 74.596085 46 27 27
-10.916944 2.907928 74.596085 46 28 27
-10.916944 3.068732 74.596085 45 28 27
-10.944442 3.237671 74.783989 43 27 26
-10.972079 3.407463 74.972832 43 26 25
-10.944442 3.560089 74.783989 42 25 25
-10.916944 3.711948 74.596085 42 26 24
-10.862358 3.853389 74.223106 41 26 24
-10.862358 4.013389 74.223106 41 27 24
-10.889583 4.183848 74.409126 40 27 24
-11.027775 4.399379 75.353409 40 28 25
-11.084039 4.585091 75.737862 39 28 25
-11.112387 4.760500 75.931564 39 28 25
-11.084039 4.911621 75.737862 37 26 23
-10.889583 4.985853 74.409126 36 24 22
-10.889583 5.146255 74.409126 37 23 22
-10.972079 7.447867 74.972832 38 26 24
-10.972079 7.609484 74.972832 38 26 24
-10.944442 7.751525 74.783989 38 26 24
-10.972079 7.932716 74.972832 38 26 24
-11.140881 8.218861 76.126259 38 25 24
-3.774929 3.062863 25.794302 39 25 25
-3.758601 3.104979 25.682735 39 25 25
-3.735979 3.141320 25.528152 39 25 25
-3.729565 3.190863 25.484327 39 25 24
-4.779916 4.159907 32.661434 38 25 24
-4.429096 4.246030 30.264263 34 24 22
-4.375572 4.516974 29.898531 29 24 21
-4.375572 4.581426 29.898531 28 24 21
-10.781497 11.447533 73.670578 28 23 22
-10.781497 11.606341 73.670578 28 23 22
-5.390749 6.120789 36.835289 28 21 21
-5.364128 6.169575 36.653385 28 21 21
-5.324686 6.202641 36.383877 29 21 21
-5.311666 6.265716 36.294918 29 21 21
-5.311666 6.343956 36.294918 29 20 20
-5.298711 6.406531 36.206394 29 20 19
-5.253861 6.429692 35.899929 29 20 19
-7.193615 8.909529 49.154373 29 21 19
-7.193615 9.015490 49.154373 28 21 19
-13.047878 18.082150 89.156883 28 21 22
-12.893007 18.057434 88.098640 28 22 21
-12.170710 17.225086 83.163147 28 22 21
-4.034302 5.769132 27.566612 27 22 20
-4.000869 5.780254 27.338160 27 21 20
-4.000869 5.839186 27.338160 27 21 20
-5.241186 7.726605 35.813320 27 21 19
-5.253861 7.822679 35.899929 26 20 20
-5.253861 7.900067 35.899929 26 20 20
-5.234871 7.948621 35.770172 26 20 20
-5.222288 8.006437 35.684185 26 20 20
-5.203525 8.054317 35.555977 27 19 20
-6.180574 9.657689 42.232208 27 19 20
-6.207062 9.790508 42.413204 27 19 19
-6.315325 10.054296 43.152969 26 19 19
-6.315325 10.147319 43.152969 26 19 18
-6.315325 10.240342 43.152969 27 18 18
-6.180574 10.385997 42.232208 26 19 18
-4.915094 9.345425 33.585117 30 21 19
-3.997188 7.659021 27.313011 29 21 20
-4.493219 8.874205 30.702421 27 20 20
-4.493219 8.940389 30.702421 27 20 20
-5.129803 10.584835 35.052235 25 19 19
-5.117719 10.635283 34.969662 25 19 19
-5.105691 10.685494 34.887478 25 19 19
-5.046392 10.635720 34.482281 25 19 19
-3.487113 7.400767 23.827642 25 19 19
-3.481525 7.440189 23.789457 25 19 19
-3.481525 7.491471 23.789457 25 19 19
-3.484317 7.548801 23.808535 25 19 19
-3.481525 7.594035 23.789457 24 19 19
-3.464867 7.608737 23.675632 25 19 19
-3.459350 7.647576 23.637932 25 19 19
-11.601473 -7.270040 80.458649 16 12 12
-11.601473 -7.096598 80.458649 17 12 13
-11.601473 -6.923156 80.458649 18 13 14
-11.385488 -6.624054 78.960747 17 14 14
-11.265640 -6.385907 78.129585 17 14 14
-11.265640 -6.217485 78.129585 17 14 14
-11.295365 -6.065025 78.335732 18 15 15
-11.295365 -5.896160 78.335732 18 15 15
-11.265640 -5.712223 78.129585 19 17 17
-11.265640 -5.543801 78.129585 20 18 17
-11.295365 -5.389564 78.335732 20 18 17
-11.325247 -5.234509 78.542969 20 18 16
-11.325247 -5.065197 78.542969 21 18 16
-11.446373 -4.948247 79.383003 23 20 18
-11.507913 -4.802808 79.809792 25 21 19
-11.477060 -4.618350 79.595825 27 22 21
-11.446373 -4.434878 79.383003 29 23 22
-11.446373 -4.263755 79.383003 30 24 23
-11.446373 -4.092632 79.383003 31 25 25
-11.415849 -3.911052 79.171310 33 27 27
-11.325247 -3.710700 78.542969 35 28 29
-11.325247 -3.541388 78.542969 37 30 31
-11.295365 -3.363178 78.335732 39 32 32
-11.295365 -3.194313 78.335732 39 32 32
-11.236072 -3.009566 77.924522 39 32 31
-11.177398 -2.826748 77.517601 40 32 30
-11.177398 -2.659646 77.517601 41 32 31
-11.148290 -2.486053 77.315735 42 32 31
-11.148290 -2.319387 77.315735 44 32 31
-11.090527 -2.141566 76.915138 46 32 30
-11.033360 -1.965579 76.518669 47 32 30
-10.976778 -1.791396 76.126259 48 32 30
-10.948705 -1.623132 75.931564 48 32 30
-10.920774 -1.455726 75.737862 48 32 30
-10.920774 -1.292461 75.737862 48 32 30
-10.948705 -1.132083 75.931564 47 31 30
-10.948705 -0.968400 75.931564 47 30 30
-10.948705 -0.804717 75.931564 46 29 30
-10.976778 -0.642678 76.126259 46 28 29
-10.976778 -0.478576 76.126259 45 27 29
-10.865338 -0.311281 75.353409 45 27 28
-10.865338 -0.148844 75.353409 45 26 27
-11.033360 0.013803 76.518669 46 27 27
-11.090527 0.179677 76.915138 47 27 28
-11.090527 0.345481 76.915138 47 28 29
-11.033360 0.508648 76.518669 48 29 29
-10.976778 0.670142 76.126259 49 30 29
-10.976778 0.834245 76.126259 48 29 29
-11.004995 1.000914 76.321960 48 28 28
-11.061870 1.171461 76.716385 47 27 28
-10.837831 1.633811 75.162636 47 27 28
-10.756139 1.782300 74.596085 47 27 28
-10.756139 1.943104 74.596085 47 28 28
-10.783233 2.109208 74.783989 47 27 28
-10.783233 2.270417 74.783989 46 27 27
-10.729181 2.579838 74.409126 47 27 28
-10.756139 2.747124 74.596085 47 28 28
-10.756139 2.907928 74.596085 48 29 28
-10.756139 3.068732 74.596085 47 28 27
-10.756139 3.229536 74.596085 45 26 26
-10.756139 3.390340 74.596085 43 25 25
-10.756139 3.551144 74.596085 43 25 25
-10.729181 3.702645 74.409126 42 26 25
-10.702358 3.853389 74.223106 42 26 25
-10.702358 4.013389 74.223106 41 27 24
-10.729181 4.183848 74.409126 40 28 24
-10.865338 4.399379 75.353409 40 28 24
-10.920774 4.585091 75.737862 40 28 24
-10.948705 4.760500 75.931564 40 28 24
-10.920774 4.911621 75.737862 39 27 23
-10.702358 4.973389 74.223106 37 25 21
-10.702358 5.133389 74.223106 38 24 21
-10.756139 7.410441 74.596085 39 27 24
-10.756139 7.571245 74.596085 39 27 24
-10.729181 7.712670 74.409126 39 26 24
-10.729181 7.873071 74.409126 39 26 24
-10.729181 8.033472 74.409126 39 25 24
-3.719325 3.007259 25.794302 40 25 24
-3.703238 3.049615 25.682735 39 26 25
-3.684117 3.088946 25.550123 39 25 25
-3.680949 3.141320 25.528152 39 25 25
-3.674629 3.190863 25.484327 39 25 24
-4.709508 4.159907 32.661434 38 25 24
-4.311121 4.516974 29.898531 29 23 20
-4.311121 4.581426 29.898531 27 23 20
-4.311121 4.645876 29.898531 27 23 21
-4.302455 4.700860 29.838434 28 24 22
-4.306784 4.769975 29.868452 26 22 21
-5.311344 5.961979 36.835289 26 21 21
-5.311344 6.041384 36.835289 27 20 21
-5.285115 6.090562 36.653385 28 20 21
-5.259144 6.139257 36.473270 28 20 21
-5.246254 6.202641 36.383877 28 20 21
-5.246254 6.281073 36.383877 28 20 21
-5.278598 6.398712 36.608189 28 20 20
-13.091570 18.413931 90.792793 29 21 22
-3.974878 5.769132 27.566612 28 22 20
-3.941937 5.780254 27.338160 27 22 20
-3.927471 5.817757 27.237837 27 22 20
-3.927471 5.876473 27.237837 27 21 20
-6.098210 9.215606 42.292366 27 21 21
-6.186334 9.626236 42.903530 27 20 21
-6.133157 9.635180 42.534733 28 20 21
-6.177407 9.797050 42.841618 28 20 20
-6.195287 9.918025 42.965618 27 19 20
-6.240442 10.083609 43.278778 27 19 20
-6.222301 10.147319 43.152969 27 19 19
-6.222301 10.240342 43.152969 27 18 18
-4.864708 9.315177 33.737774 30 20 19
-3.938310 7.600143 27.313011 30 21 20
-3.931077 7.644955 27.262848 30 21 20
-6.418206 12.577744 44.511608 29 21 19
-5.120746 10.341334 35.513447 27 20 20
-4.427035 9.006573 30.702421 27 19 20
-4.399736 9.016809 30.513096 27 19 20
-4.404263 9.091929 30.544487 26 18 20
-4.422462 9.195615 30.670704 26 18 19
-5.030486 10.535083 34.887478 26 19 19
-5.001102 10.548312 34.683693 26 19 19
-4.972060 10.561388 34.482281 26 19 19
-4.966291 10.623383 34.442276 26 19 19
-4.246968 9.148170 29.453613 26 19 19
-3.430243 7.440189 23.789457 26 19 19
-3.430243 7.491471 23.789457 25 19 19
-3.430243 7.542753 23.789457 25 19 19
-3.422017 7.575824 23.732409 25 19 19
-3.408394 7.596621 23.637932 26 19 18
-3.408394 7.647576 23.637932 26 19 19
-3.411110 7.704666 23.656767 26 19 19
-3.411110 7.755662 23.656767 27 20 19
-11.428031 -7.790365 80.458649 15 9 10
-11.428031 -7.616923 80.458649 16 10 11
-11.397144 -7.423364 80.241196 16 11 11
-11.397144 -7.250391 80.241196 16 12 11
-11.490309 -7.135271 80.897118 17 12 12
-11.553269 -6.999026 81.340393 17 13 13
-11.428031 -6.749714 80.458649 16 13 12
-11.215275 -6.453842 78.960747 16 13 12
-11.245182 -6.300385 79.171310 16 14 13
-11.305478 -6.162586 79.595825 17 14 13
-11.305478 -5.991004 79.595825 17 14 14
-11.245182 -5.788385 79.171310 18 15 15
-11.245182 -5.617719 79.171310 18 15 15
-11.275249 -5.461617 79.383003 18 16 15
-11.275249 -5.290493 79.383003 19 16 15
-11.275249 -5.119370 79.383003 19 17 16
-11.335869 -4.974851 79.809792 21 17 17
-11.335869 -4.802808 79.809792 23 19 18
-11.335869 -4.630765 79.809792 25 20 19
-11.275249 -4.434878 79.383003 27 21 20
-11.275249 -4.263755 79.383003 28 22 22
-11.275249 -4.092632 79.383003 29 24 23
-11.275249 -3.921510 79.383003 31 26 25
-11.155935 -3.710700 78.542969 33 27 27
-11.155935 -3.541388 78.542969 34 28 28
-11.155935 -3.372076 78.542969 35 29 29
-11.126499 -3.194313 78.335732 35 30 29
-11.068092 -3.009566 77.924522 36 30 29
-11.010296 -2.826748 77.517601 37 31 29
-11.010296 -2.659646 77.517601 39 31 30
-10.981624 -2.486053 77.315735 41 32 31
-10.981624 -2.319387 77.315735 44 32 32
-10.924724 -2.141566 76.915138 46 33 32
-10.812675 -1.955499 76.126259 48 33 32
-10.812675 -1.791396 76.126259 49 33 32
-10.785022 -1.623132 75.931564 49 33 32
-10.812675 -1.463191 76.126259 48 33 32
-10.812675 -1.299089 76.126259 48 33 31
-10.812675 -1.134986 76.126259 47 32 31
-10.812675 -0.970883 76.126259 47 31 31
-10.812675 -0.806781 76.126259 46 30 31
-10.812675 -0.642678 76.126259 45 30 30
-10.812675 -0.478576 76.126259 45 29 30
-10.702902 -0.311281 75.353409 45 28 29
-10.702902 -0.148844 75.353409 45 27 28
-10.868411 0.013803 76.518669 45 27 28
-10.868411 0.178751 76.518669 46 28 29
-10.868411 0.343700 76.518669 47 29 29
-10.840471 0.507341 76.321960 49 30 30
-10.757508 0.666723 75.737862 49 30 30
-10.757508 0.829988 75.737862 49 29 29
-10.812675 0.998347 76.126259 48 28 29
-10.812675 1.162450 76.126259 48 28 28
-10.812675 1.326553 76.126259 48 27 27
-10.702902 1.475521 75.353409 48 27 28
-10.675806 1.633811 75.162636 48 28 28
-10.568780 1.777833 74.409126 48 28 28
-10.568780 1.938234 74.409126 48 28 28
-10.568780 2.098635 74.409126 47 28 28
-10.568780 2.259036 74.409126 47 27 28
-10.542358 2.413389 74.223106 47 26 27
-10.542358 2.573389 74.223106 48 27 28
-10.568780 2.740239 74.409126 49 28 29
-10.568780 2.900640 74.409126 50 29 29
-10.568780 3.061041 74.409126 49 28 28
-10.568780 3.221442 74.409126 47 27 26
-10.568780 3.381843 74.409126 44 26 26
-10.568780 3.542244 74.409126 43 26 26
-10.568780 3.702645 74.409126 43 26 26
-10.542358 3.853389 74.223106 42 26 25
-10.542358 4.013389 74.223106 41 27 25
-10.542358 4.173388 74.223106 41 28 24
-10.648847 4.377160 74.972832 41 28 24
-10.702902 4.561816 75.353409 41 28 24
-10.757508 4.748356 75.737862 41 28 24
-10.757508 4.911621 75.737862 40 27 24
-10.568780 4.985853 74.409126 39 26 23
-10.568780 5.146255 74.409126 40 25 23
-10.812675 5.429117 76.126259 42 27 25
-14.541184 10.170191 102.376694 39 27 24
-10.622024 7.590316 74.783989 40 27 24
-10.622024 7.751525 74.783989 40 26 25
-10.622024 7.912734 74.783989 40 26 25
-14.343345 10.902570 100.983818 40 26 25
-3.647875 3.104979 25.682735 39 25 24
-4.246670 4.516974 29.898531 29 23 20
-4.233879 4.567626 29.808475 28 22 19
-4.238134 4.636538 29.838434 28 23 21
-4.233879 4.696140 29.808475 29 24 22
-4.242398 4.769975 29.868452 27 22 21
-5.231940 5.961979 36.835289 27 21 21
-5.231940 6.041384 36.835289 27 21 21
-5.206103 6.090562 36.653385 28 20 21
-5.199684 6.161967 36.608189 28 20 21
-5.186892 6.225530 36.518131 28 20 21
-5.199684 6.319797 36.608189 28 20 21
-13.015257 18.386900 91.633461 28 21 22
-12.895851 18.413931 90.792793 29 21 21
-3.915453 5.828557 27.566612 27 22 21
-3.883005 5.839186 27.338160 27 22 21
-6.093849 9.718721 42.903530 29 21 22
-6.093849 9.811208 42.903530 28 20 21
-6.102668 9.918025 42.965618 28 20 21
-6.183201 10.142750 43.532612 27 19 20
-6.147148 10.176903 43.278778 27 19 19
-6.147148 10.270198 43.278778 27 19 18
-6.360397 12.364036 44.780155 30 20 20
-6.322254 12.385840 44.511608 30 21 20
-3.883005 7.666073 27.338160 30 21 20
-6.322254 12.577744 44.511608 29 21 19
-6.322254 12.673697 44.511608 28 20 19
-5.044190 10.341334 35.513447 27 19 20
-4.329511 8.941843 30.481768 28 20 20
-4.329511 9.007552 30.481768 27 19 19
-4.329511 9.073260 30.481768 27 19 19
-4.333960 9.148361 30.513096 27 19 20
-4.329511 9.204677 30.481768 27 19 19
-4.320639 9.251389 30.419306 27 19 18
-4.281161 9.231833 30.141363 27 19 18
-4.221165 9.166522 29.718962 26 19 18
-4.187630 9.157254 29.482862 26 19 18
-4.154624 9.148133 29.250484 26 19 18
-3.378961 7.491471 23.789457 26 19 18
-3.376256 7.536714 23.770411 26 19 18
-3.370858 7.575824 23.732409 26 19 18
-3.357439 7.596621 23.637932 26 19 18
-3.357439 7.647576 23.637932 27 20 19
-3.360114 7.704666 23.656767 27 20 20
-3.360114 7.755662 23.656767 28 20 20
-3.360114 7.806658 23.656767 28 21 20
-11.193917 -8.093382 80.024910 13 10 10
-11.193917 -7.920875 80.024910 14 9 10
-11.193917 -7.748368 80.024910 15 9 11
-11.254589 -7.616923 80.458649 16 10 11
-11.254589 -7.443481 80.458649 16 11 11
-11.377927 -7.349711 81.340393 16 12 11
-12.250570 -7.724615 87.578888 16 12 12
-12.396846 -7.625804 88.624603 16 12 11
-11.377927 -6.823684 81.340393 16 13 11
-11.315922 -6.612111 80.897118 15 13 11
-11.285172 -6.420230 80.677292 16 13 12
-11.285172 -6.246316 80.677292 16 13 12
-11.224172 -6.039580 80.241196 16 13 13
-11.163826 -5.835066 79.809792 17 14 13
-11.163826 -5.663023 79.809792 17 14 13
-11.193917 -5.505780 80.024910 18 15 14
-11.163826 -5.318937 79.809792 18 16 15
-11.163826 -5.146894 79.809792 20 16 16
-11.163826 -4.974851 79.809792 21 17 17
-11.163826 -4.802808 79.809792 23 18 17
-11.163826 -4.630765 79.809792 25 19 18
-11.104127 -4.434878 79.383003 26 21 19
-11.104127 -4.263755 79.383003 28 22 21
-11.104127 -4.092632 79.383003 30 24 23
-11.074515 -3.911052 79.171310 31 26 24
-10.986623 -3.710700 78.542969 32 27 25
-10.986623 -3.541388 78.542969 32 27 25
-10.986623 -3.372076 78.542969 32 26 25
-10.928799 -3.185907 78.129585 32 27 25
-10.900114 -3.009566 77.924522 32 27 26
-10.843194 -2.826748 77.517601 34 28 27
-10.814957 -2.652720 77.315735 36 29 29
-10.814957 -2.486053 77.315735 39 31 31
-10.814957 -2.319387 77.315735 42 31 32
-10.758921 -2.141566 76.915138 44 32 32
-10.675947 -1.960526 76.321960 47 33 33
-10.648573 -1.791396 76.126259 48 33 33
-10.648573 -1.627294 76.126259 48 33 32
-10.648573 -1.463191 76.126259 47 33 32
-10.675947 -1.302428 76.321960 46 33 31
-10.675947 -1.137904 76.321960 46 32 31
-10.675947 -0.973379 76.321960 46 31 32
-10.675947 -0.808855 76.321960 46 31 32
-10.648573 -0.642678 76.126259 46 31 32
-10.648573 -0.478576 76.126259 45 31 31
-10.540465 -0.311281 75.353409 45 30 31
-10.540465 -0.148844 75.353409 45 29 30
-10.675947 0.013767 76.321960 45 28 29
-10.703463 0.178751 76.518669 46 29 29
-10.675947 0.342816 76.321960 47 29 30
-10.648573 0.506040 76.126259 49 30 30
-10.540465 0.663339 75.353409 50 30 31
-10.540465 0.825775 75.353409 50 30 30
-10.540465 0.988212 75.353409 49 29 29
-10.594243 1.156519 75.737862 49 28 28
-10.540465 1.313085 75.353409 49 28 28
-10.487230 1.468069 74.972832 49 28 28
-10.487230 1.629686 74.972832 49 29 28
-10.382359 1.773389 74.223106 50 29 28
-10.382359 1.933389 74.223106 50 29 28
-10.382359 2.093389 74.223106 49 28 28
-10.382359 2.253389 74.223106 49 27 28
-10.382359 2.413389 74.223106 49 27 28
-10.382359 2.573389 74.223106 49 27 28
-10.382359 2.733389 74.223106 50 28 29
-10.408380 2.900640 74.409126 50 28 29
-10.408380 3.061041 74.409126 49 28 28
-10.408380 3.221442 74.409126 47 28 27
-10.408380 3.381843 74.409126 45 27 26
-10.408380 3.542244 74.409126 44 27 26
-10.408380 3.702645 74.409126 44 27 26
-10.382359 3.853389 74.223106 43 27 26
-10.382359 4.013389 74.223106 42 27 25
-10.408380 4.183848 74.409126 42 27 24
-10.487230 4.377160 74.972832 42 28 24
-10.540465 4.561816 75.353409 42 28 24
-10.621339 4.760500 75.931564 42 28 24
-10.621339 4.924183 75.931564 43 28 25
-10.621339 5.087866 75.931564 42 27 25
-10.648573 5.265014 76.126259 42 27 25
-10.703463 5.457102 76.518669 43 27 26
-14.419942 10.463039 103.087646 39 27 24
-14.419942 10.685262 103.087646 40 26 25
-14.222408 10.758067 101.675484 41 26 26
-14.125658 10.902570 100.983818 41 26 26
-4.169622 4.439112 29.808475 33 24 22
-4.169622 4.503369 29.808475 31 24 22
-4.169622 4.567626 29.808475 30 23 21
-4.169622 4.631883 29.808475 30 23 21
-4.169622 4.696140 29.808475 29 23 21
-5.178234 5.911914 37.019005 29 22 20
-5.178234 5.991715 37.019005 28 21 20
-5.152535 6.041384 36.835289 28 21 21
-5.146151 6.113204 36.789642 28 21 21
-5.127090 6.169575 36.653385 28 21 21
-5.127090 6.248587 36.653385 28 21 21
-12.897340 18.501104 92.202614 28 20 21
-12.897340 18.699862 92.202614 29 21 22
-6.018758 9.746892 43.027885 29 21 22
-6.010048 9.825406 42.965618 28 21 22
-6.125285 10.108194 43.789444 28 20 21
-6.125285 10.202589 43.789444 28 20 20
-6.098301 10.251623 43.596539 28 20 19
-6.098301 10.345603 43.596539 27 20 19
-6.263866 12.170974 44.780155 29 20 18
-6.263866 12.267505 44.780155 30 20 19
-6.254433 12.345415 44.712715 30 20 20
-6.226302 12.385840 44.511608 30 21 20
-6.216981 12.463107 44.444973 29 21 20
-6.216981 12.558915 44.444973 28 20 19
-6.216981 12.654724 44.444973 27 20 19
-6.216981 12.750532 44.444973 27 20 20
-6.216981 12.846340 44.444973 27 19 20
-4.967636 10.341334 35.513447 28 19 20
-4.263802 8.941843 30.481768 28 19 20
-4.263802 9.007552 30.481768 28 19 20
-4.263802 9.073260 30.481768 28 19 19
-4.263802 9.138968 30.481768 28 19 19
-4.259429 9.195236 30.450504 28 19 19
-4.216186 9.166859 30.141363 28 19 18
-4.169622 9.129875 29.808475 27 19 18
-4.157101 9.166522 29.718962 27 19 18
-4.136398 9.184617 29.570959 27 19 18
-4.128174 9.229976 29.512169 27 19 18
-4.091570 9.211187 29.250484 27 19 17
-3.322355 7.530684 23.751394 27 19 17
-3.317047 7.569773 23.713451 26 19 17
-3.309118 7.602674 23.656767 26 19 18
-3.309118 7.653670 23.656767 27 20 18
-3.309118 7.704666 23.656767 28 21 20
-3.309118 7.755662 23.656767 28 21 20
-12.622929 32.502602 90.240860 29 20 17
-11.021411 -8.265888 80.024910 12 11 10
-11.051198 -7.942283 80.241196 13 10 10
-11.051198 -7.769310 80.241196 14 9 11
-11.111259 -7.637621 80.677292 15 10 11
-11.202584 -7.525054 81.340393 15 10 11
-12.061780 -7.913406 87.578888 15 11 11
-12.097466 -7.747469 87.837997 15 12 10
-12.279109 -7.671605 89.156883 15 12 10
-12.097466 -7.368771 87.837997 15 12 9
-11.326713 -6.722007 82.241669 15 12 9
-11.171976 -6.455313 81.118149 15 12 10
-11.141535 -6.263337 80.897118 15 12 11
-11.111259 -6.072403 80.677292 16 13 12
-11.051198 -5.866607 80.241196 16 13 12
-11.051198 -5.693634 80.241196 17 14 12
-11.051198 -5.520661 80.241196 17 14 13
-11.021411 -5.333274 80.024910 18 15 14
-11.021411 -5.160767 80.024910 20 16 15
-10.991783 -4.974851 79.809792 22 16 16
-10.991783 -4.802808 79.809792 25 18 17
-10.933003 -4.606001 79.383003 27 20 18
-10.903849 -4.423052 79.171310 29 22 20
-10.903849 -4.252386 79.171310 30 23 21
-10.903849 -4.081719 79.171310 32 25 23
-10.846004 -3.890304 78.751305 33 26 24
-10.788769 -3.700909 78.335732 33 27 24
-10.760377 -3.522749 78.129585 32 26 24
-10.760377 -3.354328 78.129585 31 25 23
-10.732135 -3.177545 77.924522 30 25 22
-10.704041 -3.001687 77.720528 30 25 23
-10.648290 -2.819387 77.315735 31 25 25
-10.648290 -2.652720 77.315735 33 26 27
-10.648290 -2.486053 77.315735 36 28 29
-10.648290 -2.319387 77.315735 39 29 30
-10.593118 -2.141566 76.915138 41 30 31
-10.565745 -1.970658 76.716385 43 30 31
-10.538514 -1.800630 76.518669 45 30 31
-10.565745 -1.639908 76.716385 45 30 31
-10.565745 -1.474534 76.716385 45 30 30
-10.593118 -1.312551 76.915138 44 31 30
-10.593118 -1.146747 76.915138 44 31 31
-10.565745 -0.978410 76.716385 45 32 32
-10.538514 -0.810939 76.518669 46 32 33
-10.511422 -0.644330 76.321960 46 32 33
-10.484470 -0.478576 76.126259 46 32 33
-10.457656 -0.313669 75.931564 45 31 32
-10.457656 -0.149986 75.931564 46 30 31
-10.511422 0.013767 76.321960 46 29 30
-10.511422 0.178292 76.321960 47 29 30
-10.511422 0.342816 76.321960 48 29 30
-10.457656 0.504745 75.931564 50 30 31
-10.325615 0.659989 74.972832 51 31 32
-10.325615 0.821605 74.972832 51 30 32
-10.351755 0.985710 75.162636 50 29 31
-10.351755 1.147735 75.162636 50 29 29
-10.325615 1.306453 74.972832 50 29 28
-10.299605 1.464371 74.783989 50 29 28
-10.273727 1.621496 74.596085 50 29 29
-10.222359 1.773389 74.223106 51 30 28
-10.222359 1.933389 74.223106 52 30 28
-10.222359 2.093389 74.223106 51 29 29
-10.222359 2.253389 74.223106 51 28 29
-10.222359 2.413389 74.223106 50 27 29
-10.222359 2.573389 74.223106 50 27 29
-10.222359 2.733389 74.223106 50 28 29
-10.247978 2.900640 74.409126 50 28 28
-10.273727 3.068732 74.596085 49 28 28
-10.247978 3.221442 74.409126 47 28 27
-10.247978 3.381843 74.409126 46 27 26
-10.247978 3.542244 74.409126 45 27 26
-10.247978 3.702645 74.409126 44 27 26
-10.247978 3.863046 74.409126 44 27 26
-10.247978 4.023448 74.409126 43 27 26
-10.273727 4.194360 74.596085 43 28 26
-10.378029 4.399379 75.353409 43 28 26
-10.484470 4.608604 76.126259 43 28 26
-10.511422 4.784976 76.321960 43 28 26
-10.457656 4.924183 75.931564 44 28 26
-10.484470 5.100912 76.126259 44 28 26
-10.484470 5.265014 76.126259 43 27 27
-10.511422 5.443073 76.321960 44 27 27
-10.511422 5.607598 76.321960 43 27 26
-14.099805 9.949502 102.376694 38 27 23
-14.099805 10.170191 102.376694 39 27 24
-14.148593 10.426835 102.730942 39 26 24
-14.148593 10.648289 102.730942 40 25 25
-14.003231 10.758067 101.675484 41 26 26
-13.907970 10.902570 100.983818 42 26 27
-13.907970 11.120256 100.983818 42 26 27
-4.105365 4.439112 29.808475 34 25 23
-4.105365 4.503369 29.808475 33 24 22
-4.105365 4.567626 29.808475 32 24 21
-4.105365 4.631883 29.808475 31 23 20
-4.105365 4.696140 29.808475 30 23 21
-5.111179 5.926694 37.111553 30 23 21
-5.111179 6.006694 37.111553 30 22 21
-5.085751 6.056412 36.926918 29 22 22
-5.073131 6.120789 36.835289 29 22 22
-5.066844 6.192510 36.789642 29 22 22
-12.818005 18.474468 93.069725 29 20 21
-12.738141 18.558741 92.489853 29 20 22
-12.738141 18.758118 92.489853 29 21 22
-12.738141 18.957493 92.489853 29 22 21
-6.167336 9.950763 44.780155 28 22 22
-5.986740 9.753082 43.468876 29 22 21
-5.943232 9.775226 43.152969 29 21 21
-5.926005 9.839645 43.027885 29 21 21
-6.084737 10.198445 44.180420 29 20 21
-6.139555 12.020053 44.578442 30 20 18
-6.139555 12.116149 44.578442 30 21 19
-6.158047 12.249029 44.712715 30 21 19
-6.158047 12.345415 44.712715 30 21 20
-6.130350 12.385840 44.511608 30 21 19
-6.130350 12.481792 44.511608 29 21 19
-6.121173 12.558915 44.444973 28 20 19
-6.093805 12.598145 44.246262 27 19 19
-6.084737 12.674636 44.180420 27 19 20
-6.066681 12.731981 44.049320 27 18 20
-4.198094 8.876135 30.481768 28 19 20
-4.198094 8.941843 30.481768 28 19 20
-4.198094 9.007552 30.481768 29 19 20
-4.198094 9.073260 30.481768 29 19 19
-4.198094 9.138968 30.481768 29 19 19
-4.189491 9.185815 30.419306 29 20 18
-4.168138 9.204236 30.264263 28 20 17
-4.151212 9.231833 30.141363 28 20 17
-4.101247 9.184910 29.778578 28 20 17
-4.072653 9.184617 29.570959 28 19 17
-4.064556 9.229976 29.512169 28 19 17
-4.036469 9.229374 29.308235 28 19 17
-3.271155 7.530684 23.751394 27 19 17
-3.265929 7.569773 23.713451 27 19 17
-3.260720 7.608737 23.675632 27 19 17
-3.260720 7.659773 23.675632 28 20 18
-12.698582 33.209179 92.202614 29 20 18
-10.733182 -8.860385 79.171310 11 12 8
-10.761881 -8.712954 79.383003 12 12 9
-10.790733 -8.564731 79.595825 12 12 9
-10.848904 -8.438395 80.024910 12 12 10
-10.937346 -7.985447 80.677292 13 10 10
-10.878225 -7.769310 80.241196 14 9 10
-10.997113 -7.679357 81.118149 15 9 11
-11.087998 -7.566514 81.788544 15 10 11
-11.872990 -7.913406 87.578888 15 10 11
-11.908116 -7.747469 87.837997 15 11 10
-12.014756 -7.625804 88.624603 15 11 9
-11.908116 -7.368771 87.837997 14 11 9
-11.434498 -6.893877 84.344437 14 11 9
-11.149427 -6.544722 82.241669 14 12 9
-10.997113 -6.280449 81.118149 15 12 10
-10.967148 -6.088950 80.897118 16 13 11
-10.937346 -5.898490 80.677292 16 13 11
-10.937346 -5.724577 80.677292 16 13 12
-10.907705 -5.535622 80.458649 17 14 12
-10.907705 -5.362180 80.458649 19 15 13
-10.848904 -5.160767 80.024910 21 15 15
-10.819740 -4.974851 79.809792 23 16 16
-10.790733 -4.789932 79.595825 26 18 17
-10.733182 -4.593719 79.171310 30 21 19
-10.733182 -4.423052 79.171310 32 24 21
-10.676242 -4.229826 78.751305 34 26 23
-10.676242 -4.060065 78.751305 35 27 24
-10.619904 -3.869775 78.335732 36 28 24
-10.591956 -3.691170 78.129585 34 28 24
-10.564156 -3.513503 77.924522 33 26 23
-10.536501 -3.336766 77.720528 31 25 22
-10.536501 -3.169226 77.720528 29 24 21
-10.508990 -2.993850 77.517601 28 23 22
-10.481624 -2.819387 77.315735 29 23 24
-10.481624 -2.652720 77.315735 31 24 25
-10.481624 -2.486053 77.315735 33 24 27
-10.481624 -2.319387 77.315735 35 25 27
-10.427315 -2.141566 76.915138 37 26 28
-10.427315 -1.975763 76.915138 38 26 28
-10.400371 -1.805283 76.716385 39 26 27
-10.454398 -1.648427 77.114914 40 27 27
-10.454398 -1.482194 77.114914 40 28 27
-10.481624 -1.319387 77.315735 41 29 28
-10.454398 -1.149726 77.114914 42 30 30
-10.427315 -0.980944 76.915138 44 32 32
-10.400371 -0.813035 76.716385 46 33 34
-10.373566 -0.645991 76.518669 47 33 34
-10.346898 -0.479806 76.321960 46 33 34
-10.320368 -0.314473 76.126259 46 32 33
-10.320368 -0.150371 76.126259 46 31 32
-10.320368 0.013732 76.126259 47 30 31
-10.346898 0.178292 76.321960 48 30 31
-10.320368 0.341937 76.126259 49 30 31
-10.267713 0.503458 75.737862 51 30 32
-10.163999 0.659989 74.972832 53 31 33
-10.163999 0.821605 74.972832 53 31 33
-10.163999 0.983221 74.972832 52 30 32
-10.163999 1.144837 74.972832 52 30 30
-10.138396 1.303162 74.783989 52 30 29
-10.112923 1.460692 74.596085 52 30 29
-10.087577 1.617432 74.409126 52 30 29
-10.062359 1.773389 74.223106 53 30 29
-10.062359 1.933389 74.223106 53 30 29
-10.062359 2.093389 74.223106 53 30 29
-10.062359 2.253389 74.223106 52 29 29
-10.062359 2.413389 74.223106 51 28 29
-10.062359 2.573389 74.223106 50 28 29
-10.062359 2.733389 74.223106 50 28 29
-10.112923 2.907928 74.596085 50 29 29
-10.112923 3.068732 74.596085 49 29 28
-10.112923 3.229536 74.596085 48 28 27
-10.112923 3.390340 74.596085 46 27 27
-10.087577 3.542244 74.409126 45 27 26
-10.087577 3.702645 74.409126 45 27 26
-10.087577 3.863046 74.409126 45 27 27
-10.112923 4.033556 74.596085 45 28 27
-10.112923 4.194360 74.596085 45 28 27
-10.320368 4.444501 76.126259 45 28 28
-10.346898 4.620451 76.321960 45 28 28
-10.373566 4.797308 76.518669 45 28 27
-10.346898 4.949500 76.321960 44 28 27
-10.346898 5.114024 76.321960 44 28 26
-10.346898 5.278549 76.321960 43 27 27
-10.346898 5.443073 76.321960 43 26 27
-10.346898 5.607598 76.321960 43 27 26
-13.643876 9.780866 100.641502 39 27 24
-13.643876 9.997815 100.641502 39 27 25
-13.784053 10.319711 101.675484 39 26 25
-13.784053 10.538889 101.675484 40 25 25
-13.690284 10.684882 100.983818 41 26 27
-13.371904 10.649021 98.635353 42 26 27
-13.371904 10.861646 98.635353 42 26 27
-4.037055 4.434659 29.778578 36 26 23
-4.037055 4.498852 29.778578 35 25 22
-4.037055 4.563045 29.778578 34 25 21
-4.028972 4.617973 29.718962 32 24 21
-4.028972 4.682037 29.718962 32 23 21
-5.031179 5.926694 37.111553 32 23 22
-5.031179 6.006694 37.111553 31 23 22
-5.006148 6.056412 36.926918 31 22 22
-4.993726 6.120789 36.835289 30 22 22
-4.969066 6.169575 36.653385 30 22 22
-4.969066 6.248587 36.653385 29 22 22
-12.696982 18.389133 93.656914 29 20 21
-12.617377 18.474468 93.069725 29 20 21
-12.577948 18.616735 92.778885 29 20 22
-12.538764 18.758118 92.489853 29 21 21
-12.538764 18.957493 92.489853 29 21 20
-6.070805 9.854232 44.780155 28 21 21
-5.945263 9.744986 43.854126 28 21 21
-5.893036 9.753082 43.468876 29 21 20
-5.850208 9.775226 43.152969 29 21 20
-5.841718 9.853927 43.090336 29 21 20
-5.841718 9.946815 43.090336 29 20 20
-9.652143 16.588383 71.197220 29 21 20
-9.515232 16.655687 70.187332 28 20 19
-4.685615 8.276316 34.562565 28 21 19
-4.680167 8.341111 34.522373 28 21 18
-7.830629 14.080458 57.761173 27 21 18
-6.043458 12.116149 44.578442 30 21 19
-6.043458 12.212245 44.578442 30 21 19
-6.016358 12.253147 44.378540 30 21 19
-6.016358 12.348812 44.378540 29 21 19
-6.016358 12.444477 44.378540 28 21 19
-6.007378 12.521426 44.312302 28 20 19
-5.989499 12.579398 44.180420 27 19 19
-5.989499 12.674636 44.180420 27 19 20
-4.132385 8.810427 30.481768 27 19 20
-4.128147 8.867031 30.450504 28 19 20
-4.123918 8.923520 30.419306 29 19 20
-4.128147 8.998313 30.450504 29 19 20
-4.128147 9.063954 30.450504 30 20 19
-4.128147 9.129596 30.450504 30 20 18
-4.123918 9.185815 30.419306 29 20 18
-4.102899 9.204236 30.264263 29 20 17
-4.090390 9.241215 30.171993 28 20 17
-4.041108 9.194132 29.808475 28 20 17
-4.012905 9.193774 29.600441 28 19 17
-4.000938 9.229976 29.512169 29 20 17
-3.973291 9.229374 29.308235 28 19 17
-3.222533 7.536714 23.770411 28 19 16
-3.219955 7.581884 23.751394 28 19 16
-3.217381 7.626983 23.732409 28 20 17
-13.879115 36.432259 102.376694 30 21 19
-13.975498 36.907486 103.087646 30 21 19
-13.975498 37.129707 103.087646 30 21 19
-9.902358 -8.466611 74.223106 11 11 8
-10.288164 -8.630245 77.114914 12 12 8
-10.562515 -8.689719 79.171310 13 12 9
-10.619151 -8.564731 79.595825 13 12 9
-10.705253 -7.942283 80.241196 13 9 9
-4.000953 -2.903681 29.989134 14 9 10
-10.705253 -7.596336 80.241196 15 9 11
-10.881713 -7.545727 81.563850 15 10 11
-11.684198 -7.913406 87.578888 15 10 11
-11.718767 -7.747469 87.837997 15 11 10
-11.753541 -7.580547 88.098640 15 11 10
-11.684198 -7.347034 87.578888 14 10 9
-11.284739 -6.913517 84.584732 13 11 8
-11.095079 -6.618052 83.163147 14 11 9
-10.911690 -6.332354 81.788544 14 12 9
-10.822249 -6.105586 81.118149 15 13 10
-10.792761 -5.914563 80.897118 16 13 11
-10.792761 -5.740176 80.897118 16 13 11
-10.763433 -5.550664 80.677292 17 14 11
-10.734263 -5.362180 80.458649 19 14 12
-10.676397 -5.160767 80.024910 21 15 14
-10.647697 -4.974851 79.809792 24 16 15
-10.619151 -4.789932 79.595825 28 18 17
-10.562515 -4.593719 79.171310 32 22 19
-10.506481 -4.399588 78.751305 35 26 22
-10.478686 -4.218637 78.542969 38 28 24
-10.478686 -4.049324 78.542969 39 29 26
-10.451038 -3.869775 78.335732 38 29 26
-10.396176 -3.681482 77.924522 35 29 25
-10.396176 -3.513503 77.924522 33 27 24
-10.368961 -3.336766 77.720528 31 25 23
-10.368961 -3.169226 77.720528 29 24 22
-10.341888 -2.993850 77.517601 28 23 23
-10.314957 -2.819387 77.315735 29 23 24
-10.314957 -2.652720 77.315735 29 22 25
-10.314957 -2.486053 77.315735 30 22 25
-10.314957 -2.319387 77.315735 31 22 25
-10.288164 -2.147129 77.114914 32 22 25
-10.261511 -1.975763 76.915138 33 22 25
-10.288164 -1.814661 77.114914 34 22 24
-10.288164 -1.648427 77.114914 35 23 23
-10.314957 -1.486053 77.315735 35 24 24
-10.314957 -1.319387 77.315735 37 26 26
-10.314957 -1.152720 77.315735 40 29 29
-10.288164 -0.983492 77.114914 43 32 33
-10.261511 -0.815141 76.915138 46 34 36
-10.234996 -0.647660 76.716385 47 35 37
-10.208617 -0.481043 76.518669 47 33 36
-10.182374 -0.315282 76.321960 46 32 34
-10.156265 -0.150371 76.126259 47 31 33
-10.156265 0.013732 76.126259 47 31 32
-10.156265 0.177835 76.126259 49 31 32
-10.078736 0.339327 75.545143 51 31 33
-10.053156 0.500902 75.353409 53 31 34
-10.002382 0.659989 74.972832 55 32 34
-10.002382 0.821605 74.972832 55 32 33
-10.002382 0.983221 74.972832 55 31 32
-9.977187 1.141953 74.783989 54 31 31
-9.952119 1.299888 74.596085 54 31 30
-9.927176 1.457031 74.409126 54 31 30
-9.902358 1.613389 74.223106 54 31 29
-9.902358 1.773389 74.223106 54 31 30
-9.902358 1.933389 74.223106 54 31 30
-9.902358 2.093389 74.223106 53 30 29
-9.902358 2.253389 74.223106 53 30 29
-9.902358 2.413389 74.223106 51 29 29
-9.902358 2.573389 74.223106 50 29 29
-9.902358 2.733389 74.223106 50 29 29
-9.952119 2.907928 74.596085 50 29 29
-9.977187 3.076462 74.783989 49 29 29
-9.977187 3.237671 74.783989 48 28 28
-9.952119 3.390340 74.596085 46 27 27
-9.952119 3.551144 74.596085 45 27 26
-9.952119 3.711948 74.596085 45 26 27
-9.952119 3.872752 74.596085 45 27 27
-9.952119 4.033556 74.596085 45 28 28
-9.977187 4.204926 74.783989 45 29 29
-10.156265 4.444501 76.126259 45 29 29
-10.182374 4.620451 76.321960 45 28 29
-10.208617 4.797308 76.518669 45 28 28
-10.182374 4.949500 76.321960 44 28 27
-10.182374 5.114024 76.321960 44 27 26
-10.182374 5.278549 76.321960 43 27 26
-10.182374 5.443073 76.321960 43 26 27
-10.002382 5.508473 74.972832 43 27 27
-10.002382 5.670090 74.972832 42 27 27
-13.564875 9.662176 101.675484 39 27 25
-13.159280 9.585898 98.635353 39 27 26
-13.159280 9.798523 98.635353 39 27 26
-13.247302 10.078112 99.295128 39 26 25
-13.381565 10.396471 100.301491 39 26 25
-13.381565 10.612687 100.301491 40 25 26
-13.072420 10.578731 97.984299 41 26 26
-13.029419 10.754458 97.661980 42 26 26
-12.944260 10.893318 97.023666 43 27 27
-9.756018 8.367870 73.126213 43 27 26
-9.804316 8.567712 73.488220 43 26 26
-9.877665 8.791410 74.038010 43 26 26
-3.972862 4.434659 29.778578 37 26 24
-3.972862 4.498852 29.778578 35 25 23
-3.976851 4.567626 29.808475 34 25 22
-3.964908 4.617973 29.718962 33 24 21
-3.964908 4.682037 29.718962 32 24 22
-3.976851 4.760397 29.808475 32 23 22
-4.926547 5.976810 36.926918 31 23 22
-4.926547 6.056412 36.926918 31 23 22
-4.920426 6.128392 36.881046 31 22 22
-4.908232 6.192510 36.789642 31 22 22
-4.420696 5.720263 33.135315 31 22 23
-12.736153 18.126545 95.463799 30 20 21
-12.495090 18.187241 93.656914 30 21 20
-12.455797 18.331306 93.362396 30 21 20
-12.416750 18.474468 93.069725 30 21 21
-12.377948 18.616735 92.778885 30 21 21
-12.339387 18.758118 92.489853 30 21 20
-12.339387 18.957493 92.489853 29 21 20
-6.038023 9.861822 45.257992 28 21 21
-5.947362 9.809843 44.578442 29 21 21
-5.850729 9.744986 43.854126 29 21 20
-5.807835 9.767384 43.532612 29 20 19
-5.765565 9.789454 43.215782 29 20 19
-5.748829 9.853927 43.090336 29 20 19
-5.748829 9.946815 43.090336 29 20 19
-9.386122 16.391838 70.353653 28 20 19
-9.475941 16.701807 71.026894 28 20 19
-9.211496 16.384548 69.044746 28 20 19
-4.600399 8.257092 34.482281 28 21 19
-4.584425 8.302495 34.362549 28 22 19
-4.584425 8.376569 34.362549 28 21 18
-4.944998 9.115300 37.065220 28 21 19
-4.938832 9.183735 37.019005 28 21 19
-4.944998 9.275101 37.065220 28 21 18
-5.929556 12.175682 44.444973 29 21 19
-3.694910 7.646787 27.695189 29 21 19
-5.911856 12.330381 44.312302 29 21 18
-5.911856 12.425903 44.312302 28 21 18
-5.894261 12.484159 44.180420 28 20 19
-3.681174 7.856278 27.592232 28 20 19
-5.894261 12.674636 44.180420 28 19 20
-4.062506 8.867031 30.450504 28 19 20
-4.058343 8.923520 30.419306 29 20 19
-4.058343 8.989094 30.419306 29 20 19
-4.058343 9.054667 30.419306 30 20 18
-4.058343 9.120241 30.419306 30 21 18
-4.050045 9.167030 30.357098 30 21 18
-4.025349 9.176174 30.171993 29 21 17
-3.988865 9.157457 29.898531 29 21 17
-3.972862 9.184910 29.778578 29 20 16
-3.941237 9.175478 29.541534 29 20 16
-3.917847 9.184328 29.366215 29 19 16
-3.173833 7.491471 23.789457 29 19 16
-3.173833 7.542753 23.789457 29 19 16
-3.171292 7.587955 23.770411 28 20 17
-13.753276 36.685261 103.087646 32 22 19
-9.105008 -8.062254 69.367386 11 11 9
-9.062659 -7.875917 69.044746 11 10 8
-9.062659 -7.727080 69.044746 12 11 8
-9.020702 -7.543159 68.725098 12 12 8
-10.419635 -8.541830 79.383003 12 12 9
-3.936306 -2.968328 29.989134 13 10 9
-3.908669 -2.883294 29.778578 13 10 9
-3.908669 -2.819102 29.778578 14 10 10
-10.735381 -7.566514 81.788544 15 10 11
-11.773243 -8.104667 89.695595 15 11 12
-11.702533 -7.863797 89.156883 15 10 11
-11.563630 -7.580547 88.098640 15 10 10
-11.230384 -7.177650 85.559776 14 10 9
-11.102403 -6.913517 84.584732 13 10 8
-10.977305 -6.655337 83.631668 13 11 8
-10.885317 -6.420795 82.930847 14 11 9
-10.735381 -6.156045 81.788544 15 12 10
-10.705889 -5.963309 81.563850 15 13 10
-10.647387 -5.755859 81.118149 16 13 10
-10.618374 -5.565789 80.897118 17 13 11
-10.589520 -5.376751 80.677292 19 14 12
-10.503890 -5.160767 80.024910 21 14 13
-10.475655 -4.974851 79.809792 25 16 15
-10.447569 -4.789932 79.595825 29 19 18
-10.391849 -4.593719 79.171310 33 23 20
-10.336720 -4.399588 78.751305 38 27 24
-10.309374 -4.218637 78.542969 40 29 26
-10.309374 -4.049324 78.542969 41 30 28
-10.282172 -3.869775 78.335732 39 30 28
-10.255115 -3.691170 78.129585 36 29 27
-10.228198 -3.513503 77.924522 33 27 25
-10.228198 -3.345524 77.924522 31 25 24
-10.201423 -3.169226 77.720528 30 24 24
-10.174787 -2.993850 77.517601 29 24 25
-10.148290 -2.819387 77.315735 29 23 25
-10.148290 -2.652720 77.315735 29 23 25
-10.148290 -2.486053 77.315735 29 22 24
-10.148290 -2.319387 77.315735 29 21 23
-10.148290 -2.152720 77.315735 29 20 22
-10.121931 -1.980895 77.114914 29 20 22
-10.148290 -1.819387 77.315735 29 20 21
-10.148290 -1.652720 77.315735 30 20 20
-10.148290 -1.486053 77.315735 31 21 21
-10.174787 -1.322832 77.517601 33 23 23
-10.148290 -1.152720 77.315735 37 26 27
-10.148290 -0.986053 77.315735 41 30 32
-10.121931 -0.817259 77.114914 45 34 36
-10.095708 -0.649338 76.915138 46 35 37
-10.069621 -0.482286 76.716385 46 33 36
-10.043669 -0.316094 76.518669 46 32 35
-10.017849 -0.150757 76.321960 47 32 34
-9.992163 0.013732 76.126259 48 31 33
-9.915887 0.176477 75.545143 50 32 33
-9.890719 0.338466 75.353409 52 32 35
-9.840766 0.498372 74.972832 55 33 36
-9.840766 0.659989 74.972832 56 33 36
-9.840766 0.821605 74.972832 57 32 35
-9.840766 0.983221 74.972832 57 32 33
-9.815978 1.141953 74.783989 57 32 32
-9.791315 1.299888 74.596085 56 32 31
-9.766775 1.457031 74.409126 56 32 30
-9.742358 1.613389 74.223106 55 32 30
-9.742358 1.773389 74.223106 55 33 30
-9.742358 1.933389 74.223106 54 32 30
-9.742358 2.093389 74.223106 53 31 29
-9.742358 2.253389 74.223106 52 30 29
-9.742358 2.413389 74.223106 51 30 29
-9.742358 2.573389 74.223106 50 29 29
-9.742358 2.733389 74.223106 50 29 29
-9.791315 2.907928 74.596085 50 29 29
-9.815978 3.076462 74.783989 49 29 29
-9.815978 3.237671 74.783989 47 28 28
-9.815978 3.398880 74.783989 46 28 27
-9.815978 3.560089 74.783989 45 27 27
-9.815978 3.721298 74.783989 45 27 27
-9.815978 3.882508 74.783989 45 27 28
-9.815978 4.043716 74.783989 45 28 29
-9.815978 4.204926 74.783989 46 29 30
-9.941182 4.421825 75.737862 46 29 29
-9.966607 4.596817 75.931564 45 28 29
-9.966607 4.760500 75.931564 45 28 28
-9.966607 4.924183 75.931564 44 27 27
-10.017849 5.114024 76.321960 43 27 26
-10.017849 5.278549 76.321960 43 26 26
-10.017849 5.443073 76.321960 44 27 27
-9.815978 5.494598 74.783989 44 27 28
-9.815978 5.655807 74.783989 44 27 28
-9.742358 7.213388 74.223106 40 27 26
-9.718063 7.355001 74.038010 40 27 26
-9.718063 7.514602 74.038010 40 27 26
-12.903786 10.189919 98.308746 39 26 26
-12.861199 10.367510 97.984299 39 26 27
-12.735109 10.475018 97.023666 41 26 27
-12.652413 10.614791 96.393646 42 27 27
-9.598383 8.210236 73.126213 43 27 27
-9.574800 8.347311 72.946541 43 27 27
-9.574800 8.504559 72.946541 43 27 27
-9.598383 8.683142 73.126213 43 27 27
-9.718063 9.429814 74.038010 43 27 26
-9.693889 9.565561 73.853836 43 27 27
-3.912594 4.439112 29.808475 37 26 25
-3.912594 4.503369 29.808475 35 26 24
-3.912594 4.696140 29.808475 33 24 22
-3.912594 4.760397 29.808475 32 23 22
-3.916526 4.829503 29.838434 32 23 22
-4.816988 6.018981 36.698692 32 23 22
-4.816988 6.098091 36.698692 32 23 22
-12.293197 18.389133 93.656914 32 23 20
-12.254539 18.532564 93.362396 32 22 20
-12.254539 18.733822 93.362396 31 21 19
-12.177948 18.816736 92.778885 30 21 19
-12.140011 18.957493 92.489853 30 21 19
-5.877743 9.854232 44.780155 30 21 21
-5.833747 9.876281 44.444973 29 21 19
-5.722384 9.781726 43.596539 29 21 19
-5.680676 9.803725 43.278778 30 21 18
-5.655941 9.853927 43.090336 30 21 18
-5.655941 9.946815 43.090336 29 20 18
-9.234463 16.391838 70.353653 28 20 18
-9.234463 16.543497 70.353653 28 20 19
-4.531330 8.192274 34.522373 28 20 19
-4.520816 8.247512 34.442276 28 21 19
-4.510351 8.302495 34.362549 28 22 19
-4.489566 8.337967 34.204197 28 21 18
-4.489566 8.411700 34.204197 28 21 18
-4.859032 9.183735 37.019005 28 21 18
-3.638602 7.594170 27.721048 29 21 19
-3.621695 7.618360 27.592232 29 21 19
-3.621695 7.677840 27.592232 28 20 18
-3.614975 7.722964 27.541040 28 20 18
-3.601611 7.753563 27.439226 28 20 19
-3.608281 7.827181 27.490040 29 20 20
-3.992770 8.923520 30.419306 28 20 18
-3.988683 8.979893 30.388170 30 20 18
-3.988683 9.045400 30.388170 30 20 18
-3.984605 9.101590 30.357098 30 21 17
-3.984605 9.167030 30.357098 30 21 17
-3.948271 9.148283 30.080286 30 21 16
-3.920466 9.148245 29.868452 29 20 16
-3.885288 9.129966 29.600441 29 20 17
-3.127563 7.400767 23.827642 29 20 17
-3.135111 7.470117 23.885151 29 20 16
-9.018690 -8.420341 69.857040 13 11 10
-8.997519 -8.250340 69.693054 12 11 9
-8.913822 -8.024755 69.044746 11 10 8
-8.913822 -7.875917 69.044746 11 10 8
-8.872554 -7.691307 68.725098 11 11 8
-8.632755 -7.339290 66.867661 12 11 8
-8.632755 -7.195145 66.867661 12 11 8
-3.867753 -2.965333 29.958872 14 10 9
-3.844477 -2.883294 29.778578 14 10 10
-3.844477 -2.819102 29.778578 15 10 11
-5.538936 -3.969140 42.903530 16 11 12
-11.721539 -8.203806 90.792793 16 11 13
-11.721539 -8.008087 90.792793 16 11 13
-11.510341 -7.671605 89.156883 15 11 12
-11.014205 -7.157024 85.313911 15 11 11
-10.920067 -6.913517 84.584732 14 11 10
-10.827523 -6.674137 83.867912 14 11 9
-10.736536 -6.438780 83.163147 14 11 9
-10.647065 -6.207346 82.470116 14 12 9
-10.530065 -5.963309 81.563850 15 12 10
-10.530065 -5.787485 81.563850 16 12 10
-10.472523 -5.580996 81.118149 17 13 11
-10.415606 -5.376751 80.677292 19 14 11
-10.331384 -5.160767 80.024910 21 15 13
-10.303611 -4.974851 79.809792 25 17 16
-10.275988 -4.789932 79.595825 30 19 19
-10.221182 -4.593719 79.171310 34 23 22
-10.193998 -4.411289 78.960747 38 27 25
-10.166959 -4.229826 78.751305 41 30 28
-10.166959 -4.060065 78.751305 41 30 29
-10.113307 -3.869775 78.335732 40 30 29
-10.113307 -3.700909 78.335732 37 29 27
-10.086693 -3.522749 78.129585 33 26 25
-10.086693 -3.354328 78.129585 31 25 24
-10.060219 -3.177545 77.924522 30 24 25
-10.033883 -3.001687 77.720528 29 24 26
-10.007685 -2.826748 77.517601 29 24 26
-10.007685 -2.659646 77.517601 28 23 25
-10.007685 -2.492544 77.517601 28 21 23
-9.981624 -2.319387 77.315735 27 20 21
-9.981624 -2.152720 77.315735 26 19 20
-9.981624 -1.986053 77.315735 26 18 20
-10.007685 -1.824137 77.517601 26 18 19
-10.007685 -1.657035 77.517601 27 18 18
-10.007685 -1.489933 77.517601 28 19 19
-10.007685 -1.322832 77.517601 30 21 22
-10.007685 -1.155730 77.517601 33 24 25
-9.981624 -0.986053 77.315735 37 27 29
-9.981624 -0.819387 77.315735 41 31 33
-9.955697 -0.651025 77.114914 43 32 35
-9.955697 -0.484791 77.114914 44 31 34
-9.904246 -0.316911 76.716385 45 31 34
-9.878720 -0.151146 76.518669 46 31 33
-9.828060 0.013732 76.126259 48 32 34
-9.753036 0.176477 75.545143 50 32 35
-9.728283 0.338466 75.353409 53 33 36
-9.703654 0.499634 75.162636 56 34 38
-9.679150 0.659989 74.972832 58 34 38
-9.703654 0.823685 75.162636 59 33 37
-9.679150 0.983221 74.972832 59 33 36
-9.679150 1.144837 74.972832 59 33 35
-9.630511 1.299888 74.596085 58 33 34
-9.606375 1.457031 74.409126 57 34 32
-9.582358 1.613389 74.223106 56 34 32
-9.582358 1.773389 74.223106 55 33 31
-9.606375 1.938234 74.409126 54 33 30
-9.606375 2.098635 74.409126 53 32 29
-9.582358 2.253389 74.223106 52 31 29
-9.582358 2.413389 74.223106 51 30 28
-9.582358 2.573389 74.223106 50 29 29
-9.582358 2.733389 74.223106 50 30 29
-9.606375 2.900640 74.409126 50 30 29
-9.679150 3.084231 74.972832 49 30 29
-9.679150 3.245847 74.972832 48 29 29
-9.679150 3.407463 74.972832 47 28 28
-9.679150 3.569079 74.972832 46 28 28
-9.679150 3.730696 74.972832 46 28 28
-9.654769 3.882508 74.783989 46 28 29
-9.654769 4.043716 74.783989 46 28 29
-9.654769 4.204926 74.783989 46 28 29
-9.728283 4.399379 75.353409 46 28 29
-9.777917 4.585091 75.737862 46 28 29
-9.728283 4.724252 75.353409 45 27 28
-9.703654 4.874318 75.162636 44 27 26
-9.802924 5.087866 75.931564 43 26 25
-9.828060 5.265014 76.126259 43 27 26
-9.828060 5.429117 76.126259 44 27 27
-9.630511 5.480793 74.596085 44 27 28
-9.606375 5.627457 74.409126 45 28 28
-9.630511 5.802401 74.596085 44 28 27
-9.582358 7.213388 74.223106 40 27 26
-9.534685 7.336705 73.853836 40 27 26
-9.558462 7.514602 74.038010 40 27 26
-9.582358 7.693388 74.223106 39 27 27
-12.608366 10.333406 97.661980 39 27 27
-12.444621 10.406999 96.393646 40 27 27
-9.440747 8.052600 73.126213 41 27 27
-9.417551 8.190063 72.946541 42 27 27
-9.417551 8.347311 72.946541 43 27 27
-9.417551 8.504559 72.946541 43 27 27
-9.417551 8.661807 72.946541 44 27 27
-9.440747 8.840777 73.126213 44 27 27
-9.558462 9.110612 74.038010 44 26 27
-9.534685 9.247153 73.853836 44 27 27
-9.534685 9.406357 73.853836 44 27 27
-9.534685 9.565561 73.853836 44 27 26
-3.848337 4.439112 29.808475 37 26 25
-3.848337 4.503369 29.808475 36 26 24
-3.852204 4.765182 29.838434 32 24 22
-3.848337 4.824654 29.808475 32 23 22
-3.848337 4.888911 29.808475 32 23 22
-4.441418 5.716518 34.402367 32 23 22
-12.053281 18.935080 93.362396 30 21 17
-11.977948 19.016735 92.778885 30 21 18
-11.940634 19.156870 92.489853 30 22 19
-5.661659 9.839520 43.854126 30 22 19
-5.587381 9.803725 43.278778 31 22 19
-5.563053 9.853927 43.090336 31 21 19
-5.563053 9.946815 43.090336 29 21 19
-9.169721 16.548697 71.026894 28 20 18
-9.169721 16.701807 71.026894 28 20 18
-9.082804 16.695154 70.353653 27 20 18
-4.446570 8.247512 34.442276 28 21 19
-4.420927 8.273767 34.243649 28 21 19
-4.405682 8.318799 34.125565 28 21 18
-4.405682 8.392363 34.125565 28 21 18
-4.112600 8.108750 31.855410 28 20 18
-4.081942 8.116460 31.617937 28 20 18
-3.575507 7.706488 27.695189 28 20 18
-3.558908 7.730135 27.566612 28 20 19
-3.555606 7.782333 27.541040 28 20 20
-3.555606 7.841702 27.541040 29 20 21
-3.549022 7.886440 27.490040 29 20 20
-3.923177 8.979893 30.388170 30 21 18
-3.919165 9.036151 30.357098 30 21 18
-3.919165 9.101590 30.357098 31 21 17
-3.919165 9.167030 30.357098 31 21 17
-3.883428 9.148283 30.080286 30 21 16
-3.856080 9.148245 29.868452 29 20 16
-3.821479 9.129966 29.600441 29 20 17
-3.076199 7.400767 23.827642 29 20 17
-8.847285 -8.550809 69.693054 15 12 11
-8.826565 -8.380900 69.529839 14 12 10
-8.826565 -8.231018 69.529839 12 11 9
-8.764984 -8.024755 69.044746 11 11 8
-8.724406 -7.839455 68.725098 10 10 8
-8.704257 -7.673544 68.566376 11 10 7
-8.450545 -7.306378 66.567810 11 10 7
-8.450545 -7.162880 66.567810 12 10 7
-3.803172 -2.900751 29.958872 14 10 10
-5.446450 -4.061625 42.903530 15 10 11
-11.561176 -8.425290 91.071297 16 10 12
-11.561176 -8.228971 91.071297 17 11 13
-11.561176 -8.032652 91.071297 17 11 13
-11.150720 -7.558120 87.837997 17 11 13
-10.799265 -7.136517 85.069466 16 11 12
-10.707226 -6.893877 84.344437 15 11 11
-10.646732 -6.674137 83.867912 15 11 10
-10.557264 -6.438780 83.163147 14 11 10
-10.469287 -6.207346 82.470116 15 12 10
-10.354240 -5.963309 81.563850 16 12 10
-10.297660 -5.755859 81.118149 17 13 10
-10.241693 -5.550664 80.677292 19 14 11
-10.186334 -5.347688 80.241196 21 15 12
-10.131568 -5.146894 79.809792 23 16 14
-10.104405 -4.961514 79.595825 27 18 16
-10.077389 -4.777124 79.383003 30 20 19
-10.023786 -4.581501 78.960747 34 23 22
