ply
format ascii 1.0
element vertex 1219
property float x
property float y
property float z
property uchar red
property uchar green
property uchar blue
end_header
-5.130418 8.839844 37.251244 98 69 82
-5.149803 8.953848 37.391994 98 69 83
-5.182438 9.091705 37.628952 99 68 83
-5.195608 9.196132 37.724579 99 68 83
-5.189014 9.265679 37.676704 99 67 82
-5.175878 9.323235 37.581318 98 66 81
-5.156297 9.368670 37.439144 97 65 81
-5.130418 9.401952 37.251244 96 64 79
-8.210730 15.303926 59.616951 91 63 76
-8.194275 15.401514 59.497478 89 62 75
-8.017536 15.194815 58.214199 88 62 73
-7.986217 15.260460 57.986801 86 61 71
-7.955142 15.325594 57.761173 84 60 69
-7.908981 15.360456 57.425999 83 59 68
-7.586166 14.852237 55.082081 82 59 68
-7.434443 14.671556 53.980442 82 58 68
-7.301684 14.523849 53.016502 82 57 69
-7.301684 14.638135 53.016502 82 57 70
-7.502648 15.158450 54.475674 82 58 71
-7.488907 15.247904 54.375900 81 59 71
-7.488907 15.365120 54.375900 79 59 71
-7.488907 15.482336 54.375900 78 59 70
-7.488907 15.599552 54.375900 77 59 70
-7.502648 15.745606 54.475674 76 59 70
-7.488907 15.833984 54.375900 75 58 69
-7.447984 15.864036 54.078766 75 58 68
-7.354215 15.779416 53.397919 75 57 67
-7.327856 15.837555 53.206528 76 56 68
-7.314746 15.923713 53.111347 77 56 68
-7.354215 16.124741 53.397919 78 55 68
-7.354215 16.239847 53.397919 79 56 69
-7.407506 16.473471 53.784859 80 57 70
-9.443287 21.148626 68.566376 82 58 71
-9.443287 21.296432 68.566376 83 59 73
-9.465147 21.493879 68.725098 83 60 73
-9.465147 21.642027 68.725098 83 61 73
-9.465147 21.790174 68.725098 82 61 74
-9.465147 21.938322 68.725098 82 61 74
-9.378310 21.883842 68.094589 83 61 73
-7.488907 18.178307 54.375900 87 67 71
-7.367465 17.998838 53.494129 88 67 72
-7.341012 18.049112 53.302052 89 67 73
-7.249899 17.938574 52.640499 90 68 75
-7.249899 18.052050 52.640499 91 68 78
-7.224282 18.101336 52.454491 91 68 80
-7.249899 18.278999 52.640499 91 67 82
-7.211540 18.295160 52.361980 91 67 84
-7.211540 18.408035 52.361980 91 67 84
-7.173585 18.423431 52.086391 91 67 84
-7.148502 18.470901 51.904270 91 68 85
-7.136027 18.550358 51.813686 91 68 84
-7.098860 18.564854 51.543823 90 69 84
-7.098860 18.675964 51.543823 90 69 84
-7.049902 18.657509 51.188347 89 69 84
-7.025676 18.703360 51.012444 89 69 84
-6.837698 18.309959 49.647564 89 69 83
-6.792265 18.294611 49.317677 90 69 83
-6.736315 18.249350 48.911438 91 69 85
-6.714193 18.294508 48.750809 92 69 85
-6.736315 18.460222 48.911438 92 70 86
-6.792265 18.719860 49.317677 92 70 87
-6.826283 18.920460 49.564678 92 70 87
-3.184291 -3.995763 23.488325 63 43 51
-3.184291 -3.945130 23.488325 63 43 51
-4.507215 -5.512480 33.246632 63 43 51
-4.522408 -5.459151 33.358700 64 44 51
-4.497143 -5.357145 33.172337 65 44 51
-4.472159 -5.256272 32.988049 66 44 51
-4.532594 -5.255230 33.433830 66 44 51
-4.355999 -4.773425 32.131214 67 44 47
-4.351290 -4.699075 32.096478 68 45 47
-4.337224 -4.614919 31.992718 68 46 47
-4.327896 -4.536177 31.923916 69 46 47
-4.286415 -4.424541 31.617937 70 47 47
-4.263711 -4.333310 31.450468 70 48 47
-4.236783 -4.238573 31.251833 70 48 48
-4.210192 -4.145026 31.055693 70 48 49
-4.210192 -4.078080 31.055693 70 48 50
-4.192649 -3.994421 30.926294 69 49 52
-3.672394 -3.440369 27.088724 70 50 53
-3.603351 -3.318393 26.579447 71 50 55
-3.388000 -2.904583 24.990944 71 52 59
-3.365337 -2.831643 24.823782 70 51 58
-3.365337 -2.778131 24.823782 71 51 59
-7.537347 -3.705327 55.597832 81 55 71
-7.385217 -3.513109 54.475674 83 57 74
-7.265241 -3.340514 53.590691 84 59 76
-7.200256 -3.196144 53.111347 86 61 77
-10.112923 -4.328253 74.596085 86 61 76
-10.012297 -4.125981 73.853836 86 61 76
-10.112923 -4.006645 74.596085 87 63 77
-7.770161 -2.213599 57.315140 96 66 83
-7.385217 1.653863 54.475674 128 116 135
-4.132385 0.991125 30.481768 128 117 137
-4.090390 1.046093 30.171993 129 118 137
-4.073829 1.106635 30.049841 130 119 138
-4.073829 1.171412 30.049841 130 120 138
-4.057403 1.231205 29.928671 130 118 136
-4.033010 1.287931 29.748739 128 116 133
-4.004919 1.342642 29.541534 126 113 129
-3.977217 1.396596 29.337196 125 110 126
-3.969372 1.456958 29.279331 124 108 123
-3.689224 1.706100 27.212872 117 84 102
-3.645782 1.743981 26.892429 114 78 95
-10.647998 6.448030 78.542969 103 65 84
-10.591956 6.582514 78.129585 103 65 84
-10.454398 6.663261 77.114914 103 66 85
-10.454398 6.829495 77.114914 104 67 86
-10.346898 6.923793 76.321960 104 67 88
-10.536501 7.218208 77.720528 105 68 89
-10.508990 7.366463 77.517601 106 69 89
-10.373566 7.436483 76.518669 107 70 89
-7.770161 5.693737 57.315140 107 70 90
-7.770161 5.817288 57.315140 108 70 90
-7.770161 7.299914 57.315140 114 79 95
-7.666559 7.324487 56.550938 114 79 96
-7.666559 7.446392 56.550938 113 78 96
-7.651984 7.553908 56.443428 111 77 96
-7.651984 7.675581 56.443428 109 77 95
-7.681190 7.827014 56.658859 106 77 94
-7.681190 7.949152 56.658859 104 77 93
-7.681190 8.071289 56.658859 103 77 93
-7.594233 8.342180 56.017437 102 76 93
-7.537347 8.399542 55.597832 102 76 93
-7.537347 8.519392 55.597832 103 76 94
-7.495239 8.590979 55.287228 104 76 95
-3.851620 5.333354 28.410759 105 73 87
-3.844263 5.384294 28.356487 105 72 85
-3.829632 5.424696 28.248566 104 72 84
-3.822358 5.475172 28.194912 104 71 83
-3.800702 5.504585 28.035168 104 72 83
-3.800702 5.565019 28.035168 106 72 84
-7.385217 10.930927 54.475674 107 72 84
-7.861217 11.760460 57.986801 107 71 84
-7.815424 11.816224 57.649014 107 70 85
-7.622999 11.646506 56.229626 107 70 85
-7.467427 11.527561 55.082081 107 70 85
-7.412419 11.560508 54.676319 107 69 84
-7.453599 11.743251 54.980080 106 69 84
-7.551488 12.017552 55.702145 106 69 83
-7.594233 12.206331 56.017437 104 69 81
-7.594233 12.327085 56.017437 103 69 80
-7.608589 12.471372 56.123333 101 68 80
-7.608589 12.592355 56.123333 99 68 79
-7.622999 12.737415 56.229626 97 67 78
-7.594233 12.810104 56.017437 96 67 79
-7.622999 12.979840 56.229626 97 67 79
-7.608589 13.076286 56.123333 98 68 81
-7.565683 13.122849 55.806847 99 68 82
-5.069198 8.873243 37.391994 99 68 83
-7.398793 13.068668 54.575813 99 69 84
-5.114286 9.277453 37.724579 99 67 82
-5.107796 9.346898 37.676704 98 66 81
-5.088424 9.392359 37.533810 96 66 80
-5.062822 9.425605 37.344959 94 65 78
-8.066019 15.273257 59.497478 90 63 75
-8.033819 15.340031 59.259964 89 63 74
-7.892046 15.194815 58.214199 87 62 72
-7.876602 15.290324 58.100277 85 62 70
-7.830629 15.325594 57.761173 84 61 69
-7.800278 15.390224 57.537292 83 60 69
-7.637464 15.190428 56.336323 82 60 69
-7.385217 14.806157 54.475674 82 59 70
-7.344787 14.841889 54.177448 83 59 71
-7.467427 15.208451 55.082081 82 59 72
-7.412419 15.214283 54.676319 81 59 72
-7.331409 15.164582 54.078766 79 60 73
-7.278378 15.170625 53.687599 78 60 73
-7.278378 15.286357 53.687599 77 60 73
-7.318079 15.486101 53.980442 76 60 73
-7.371691 15.716768 54.375900 76 60 73
-7.331409 15.747459 54.078766 75 59 72
-7.304797 15.806453 53.882473 75 58 71
-7.226110 15.751087 53.302052 76 58 70
-7.187399 15.780992 53.016502 77 57 70
-7.187399 15.895278 53.016502 78 56 70
-7.187399 16.009563 53.016502 79 56 70
-7.239107 16.239847 53.397919 80 56 71
-7.291564 16.473471 53.784859 82 57 72
-7.291564 16.589413 53.784859 83 58 73
-9.316998 21.345730 68.725098 84 59 74
-9.360333 21.593849 69.044746 84 60 74
-9.404074 21.844288 69.367386 84 61 75
-9.515232 22.253796 70.187332 84 61 75
-9.252744 22.081278 68.251129 86 62 72
-9.252744 22.228403 68.251129 87 63 71
-9.252744 22.375530 68.251129 87 64 70
-9.231522 22.470999 68.094589 87 64 70
-6.833520 16.742538 50.406185 87 65 70
-6.741949 16.625385 49.730724 88 66 70
-6.619973 16.429861 48.830990 88 67 72
-6.641821 16.589695 48.992149 89 67 74
-6.685952 16.806238 49.317677 90 68 76
-6.685952 16.912550 49.317677 90 69 79
-7.111207 18.101336 52.454491 91 69 82
-7.149100 18.311466 52.734001 91 68 84
-7.136425 18.392475 52.640499 91 67 86
-7.098666 18.408035 52.361980 90 67 86
-7.086168 18.488302 52.269794 90 68 87
-7.061304 18.535711 52.086391 91 68 87
-7.036614 18.582788 51.904270 91 69 87
-7.024334 18.662052 51.813686 91 70 86
-6.987749 18.675964 51.543823 91 70 86
-6.987749 18.787075 51.543823 90 70 86
-6.939558 18.767855 51.188347 90 70 85
-6.730675 18.309959 49.647564 91 70 85
-6.641821 18.173855 48.992149 92 70 85
-6.598268 18.159599 48.670887 93 70 85
-6.598268 18.264517 48.670887 93 70 86
-6.609102 18.399599 48.750809 94 71 87
-6.619973 18.535124 48.830990 94 71 88
-6.619973 18.640387 48.830990 94 71 88
-3.133658 -3.945130 23.488325 61 42 50
-4.425635 -5.500162 33.172337 62 43 51
-4.435547 -5.440811 33.246632 63 43 51
-4.425635 -5.357145 33.172337 64 44 51
-4.401048 -5.256272 32.988049 65 43 52
-5.065145 -5.967576 37.965782 66 43 53
-5.084651 -5.908401 38.111992 66 43 53
-5.084651 -5.744088 38.111992 67 44 50
-5.039368 -5.611507 37.772572 68 45 48
-4.282101 -4.699075 32.096478 69 45 47
-4.259079 -4.604994 31.923916 69 46 46
-4.240839 -4.516750 31.787197 69 46 46
-4.195915 -4.401106 31.450468 70 47 47
-4.169414 -4.305942 31.251833 70 48 47
-4.160655 -4.229669 31.186178 70 48 48
-4.143246 -4.145026 31.055693 70 49 48
-4.125983 -4.061088 30.926294 70 48 50
-3.613999 -3.498763 27.088724 69 49 51
-3.549232 -3.378714 26.603264 70 50 53
-3.546055 -3.318393 26.579447 70 51 55
-3.311826 -2.831643 24.823782 70 51 59
-3.311826 -2.778131 24.823782 70 51 59
-7.544654 -3.890752 56.550938 81 54 69
-7.403633 -3.698401 55.493912 82 55 70
-7.267786 -3.513109 54.475674 83 57 72
-7.227999 -3.377089 54.177448 85 59 74
-10.027704 -4.523151 75.162636 86 61 74
-10.002382 -4.350112 74.972832 87 62 75
-9.952119 -4.167449 74.596085 88 62 75
-10.002382 -4.026880 74.972832 88 63 75
-7.646609 -2.213599 57.315140 96 65 82
-7.308013 1.544936 54.777199 128 115 135
-7.241213 1.647816 54.276493 129 116 136
-4.041779 0.985057 30.295145 129 117 136
-4.009052 1.041858 30.049841 129 119 137
-3.972862 1.096645 29.778578 131 120 138
-3.949096 1.153894 29.600441 132 120 138
-3.968881 1.223803 29.748739 131 119 136
-3.953037 1.282790 29.629982 129 116 133
-3.933409 1.339976 29.482862 127 112 128
-3.906256 1.393842 29.279331 126 110 125
-3.898566 1.454090 29.221695 125 107 123
-10.451038 6.431017 78.335732 104 66 85
-10.423535 6.582514 78.129585 103 66 85
-10.314957 6.680613 77.315735 103 66 86
-10.314957 6.847280 77.315735 103 67 87
-10.368961 7.050669 77.720528 104 68 88
-10.368961 7.218208 77.720528 105 69 90
-10.341888 7.366463 77.517601 106 70 91
-10.208617 7.436483 76.518669 107 71 91
-10.208617 7.601432 76.518669 108 71 91
-7.646609 7.299914 57.315140 113 80 95
-7.544654 7.324487 56.550938 113 80 96
-7.544654 7.446392 56.550938 113 79 96
-7.530311 7.553908 56.443428 111 78 96
-7.530311 7.675581 56.443428 109 77 96
-7.559052 7.827014 56.658859 106 77 95
-7.559052 7.949152 56.658859 104 77 93
-7.588014 8.102214 56.875942 103 77 92
-7.487606 8.357950 56.123333 102 76 92
-7.445382 8.431119 55.806847 102 76 92
-7.445382 8.551420 55.806847 102 76 93
-4.648994 5.715206 34.846527 110 74 93
-4.648994 5.790323 34.846527 110 73 92
-3.768738 5.424696 28.248566 104 72 84
-3.761580 5.475172 28.194912 103 71 84
-3.740268 5.504585 28.035168 104 72 83
-3.740268 5.565019 28.035168 106 72 84
-7.736217 11.635460 57.986801 107 72 84
-7.736217 11.760460 57.986801 107 71 84
-7.736217 11.885460 57.986801 107 70 85
-7.661399 11.894304 57.425999 107 70 85
-7.617199 11.948761 57.094696 107 70 86
-7.588014 12.025585 56.875942 108 70 86
-7.501787 12.010143 56.229626 108 70 86
-7.487606 12.108422 56.123333 107 71 86
-7.487606 12.229405 56.123333 106 70 84
-7.487606 12.350389 56.123333 104 69 82
-7.487606 12.471372 56.123333 103 69 81
-7.487606 12.592355 56.123333 101 68 80
-7.473478 12.689350 56.017437 100 67 79
-7.431414 12.738003 55.702145 99 67 80
-7.431414 12.858078 55.702145 100 67 81
-7.473478 13.051614 56.017437 100 68 82
-7.445382 13.122849 55.806847 100 68 84
-7.281146 12.951021 54.575813 100 68 85
-7.281146 13.068668 54.575813 100 69 85
-5.045788 9.301090 37.820690 97 68 82
-5.032965 9.358774 37.724579 96 67 81
-5.032965 9.440096 37.724579 95 66 79
-7.906075 15.340031 59.259964 87 63 72
-7.797132 15.254637 58.443390 86 63 71
-7.766556 15.320305 58.214199 85 62 70
-7.736217 15.385460 57.986801 84 61 69
-7.736217 15.510460 57.986801 83 61 69
-7.676247 15.514255 57.537292 83 61 70
-7.736217 15.760460 57.986801 82 60 71
-7.676247 15.762317 57.537292 82 60 72
-7.706116 15.948162 57.761173 83 60 73
-7.676247 16.010378 57.537292 81 60 74
-7.214833 15.164582 54.078766 80 60 74
-7.073113 14.980992 53.016502 78 61 75
-7.073113 15.095278 53.016502 77 61 75
-7.149717 15.374288 53.590691 76 61 75
-7.254475 15.716768 54.375900 76 60 74
-7.188645 15.690300 53.882473 75 59 74
-7.149717 15.720859 53.590691 76 59 73
-7.111209 15.751087 53.302052 76 59 72
-7.073113 15.780992 53.016502 78 57 72
-7.073113 15.895278 53.016502 79 56 71
-7.073113 16.009563 53.016502 80 56 71
-7.175622 16.357529 53.784859 81 57 72
-7.175622 16.473471 53.784859 83 58 73
-7.175622 16.589413 53.784859 84 58 74
-7.188645 16.735672 53.882473 85 59 75
-9.254540 21.694756 69.367386 85 61 75
-9.363933 22.102495 70.187332 86 61 75
-9.475941 22.519989 71.026894 86 62 75
-9.147676 22.183270 68.566376 89 63 72
-9.084732 22.177422 68.094589 89 63 71
-9.084732 22.324209 68.094589 89 64 70
-6.736298 16.662169 50.491909 89 64 70
-6.645878 16.545898 49.814163 88 65 69
-6.514709 16.324598 48.830990 88 66 70
-6.388618 16.111864 47.885876 88 67 72
-6.388618 16.215090 47.885876 89 67 74
-6.525442 16.667801 48.911438 89 68 77
-6.536210 16.800917 48.992149 90 69 81
-7.035423 18.197790 52.734001 90 70 84
-7.035423 18.311466 52.734001 90 69 87
-7.035423 18.425142 52.734001 90 69 88
-6.985791 18.408035 52.361980 90 69 89
-6.985791 18.520908 52.361980 90 69 89
-6.973492 18.600979 52.269794 90 70 89
-6.961236 18.680765 52.177929 91 70 88
-6.936853 18.727417 51.995171 91 71 88
-6.912641 18.773745 51.813686 91 71 88
-6.876638 18.787075 51.543823 91 71 87
-6.876638 18.898186 51.543823 91 71 86
-6.817459 18.845707 51.100246 92 70 85
-6.514709 18.114071 48.830990 93 70 85
-6.493350 18.159599 48.670887 93 70 85
-6.409294 18.028084 48.040844 93 70 86
-6.409294 18.131643 48.040844 94 71 87
-6.504012 18.504688 48.750809 95 72 88
-3.083025 -3.945130 23.488325 60 42 48
-3.083025 -3.894497 23.488325 61 42 49
-4.354126 -5.428653 33.172337 62 42 50
-4.983304 -6.049417 37.965782 65 43 53
-4.983304 -5.967576 37.965782 66 43 54
-4.983304 -5.885735 37.965782 67 43 54
-5.002495 -5.826244 38.111992 67 44 52
-4.989684 -5.729378 38.014393 68 44 51
-4.964259 -5.618656 37.820690 69 45 49
-4.889515 -5.453757 37.251244 70 45 48
-4.190262 -4.604994 31.923916 70 46 47
-4.132495 -4.473642 31.483820 70 46 46
-4.097732 -4.368711 31.218971 70 47 47
-4.084846 -4.287888 31.120798 71 47 47
-4.076301 -4.211971 31.055693 71 48 48
-4.076301 -4.145026 31.055693 70 48 48
-3.565364 -3.566921 27.163076 70 48 50
-3.539458 -3.482874 26.965706 70 49 52
-3.510760 -3.396977 26.747065 70 50 53
-3.504446 -3.333313 26.698959 70 51 54
-7.408638 -3.761682 56.443428 83 56 70
-7.284006 -3.578775 55.493912 84 58 71
-9.865680 -4.361125 75.162636 87 62 72
-9.791315 -4.167449 74.596085 88 63 73
-7.098258 1.641813 54.078766 129 117 136
-7.021520 1.739379 53.494129 130 118 137
-3.908669 1.032453 29.778578 130 119 137
-3.885288 1.090085 29.600441 132 119 137
-3.885288 1.153894 29.600441 133 119 137
-3.889165 1.218918 29.629982 132 118 136
-3.889165 1.282790 29.629982 129 115 131
-3.866015 1.338646 29.453613 126 110 126
-3.835574 1.391098 29.221695 125 107 124
-3.824282 1.449809 29.135664 125 106 121
-10.391849 6.499615 79.171310 105 67 88
-10.255115 6.582514 78.129585 104 68 88
-10.148290 6.680613 77.315735 104 68 88
-10.148290 6.847280 77.315735 104 69 89
-10.174787 7.032260 77.517601 105 70 90
-10.174787 7.199361 77.517601 107 70 91
-10.148290 7.347280 77.315735 108 71 93
-9.966607 7.379426 75.931564 108 72 94
-9.865680 7.466722 75.162636 109 72 93
-7.422749 7.324487 56.550938 114 81 96
-7.394579 7.418132 56.336323 113 80 97
-7.394579 7.539574 56.336323 112 78 97
-7.394579 7.661016 56.336323 110 78 96
-7.422749 7.812106 56.550938 108 77 95
-7.436915 7.949152 56.658859 106 77 93
-7.451135 8.086721 56.767193 104 77 92
-7.465409 8.224819 56.875942 103 77 91
-7.394579 8.268227 56.336323 103 77 90
-7.366622 8.357950 56.123333 102 76 90
-7.352723 8.462934 56.017437 102 76 91
-7.366622 8.599916 56.123333 103 75 91
-4.573877 5.640089 34.846527 110 75 93
-4.547192 5.681862 34.643223 111 74 93
-4.563166 5.776763 34.764919 111 74 93
-3.707843 5.424696 28.248566 103 71 85
-3.700801 5.475172 28.194912 103 71 85
-3.679833 5.504585 28.035168 103 71 84
-3.679833 5.565019 28.035168 105 72 84
-7.611217 11.635460 57.986801 106 71 85
-7.611217 11.760460 57.986801 107 71 85
-7.611217 11.885460 57.986801 107 70 85
-7.537608 11.894304 57.425999 107 70 85
-7.537608 12.018096 57.425999 107 70 86
-7.494122 12.071837 57.094696 108 71 86
-7.494122 12.194915 57.094696 109 71 87
-7.380575 12.131355 56.229626 109 72 88
-7.366622 12.229405 56.123333 108 71 86
-7.366622 12.350389 56.123333 106 69 84
-7.366622 12.471372 56.123333 104 69 83
-7.352723 12.568595 56.017437 103 69 82
-7.338876 12.665453 55.911945 102 68 81
-7.270417 12.666708 55.390377 101 68 82
-7.270417 12.786111 55.390377 101 68 83
-7.284006 12.929636 55.493912 101 68 84
-7.284006 13.049263 55.493912 100 68 85
-7.163499 12.951021 54.575813 100 68 86
-7.137259 13.020798 54.375900 99 69 86
-6.921747 12.854983 52.734001 98 68 84
-4.970591 9.312953 37.868931 96 68 83
-4.964259 9.382619 37.820690 95 67 81
-7.888549 15.427845 60.099682 89 65 74
-7.809506 15.401514 59.497478 88 64 73
-7.732030 15.375706 58.907227 87 63 71
-7.686279 15.410957 58.558662 86 62 70
-7.656077 15.476140 58.328571 85 62 69
-7.641066 15.571285 58.214199 84 61 69
-7.641066 15.696775 58.214199 83 61 70
-7.641066 15.822266 58.214199 83 61 71
-7.626112 15.916547 58.100277 83 61 73
-7.641066 16.073246 58.214199 82 61 73
-7.904551 16.757313 60.221588 80 61 74
-7.904551 16.887131 60.221588 79 61 75
-7.085351 15.253373 53.980442 78 61 76
-7.085351 15.369738 53.980442 76 61 77
-7.163499 15.656903 54.575813 75 61 77
-7.163499 15.774550 54.575813 75 60 76
-7.137259 15.833984 54.375900 76 59 76
-7.021520 15.692533 53.494129 76 59 75
-7.008891 15.779416 53.397919 77 58 74
-6.996308 15.865989 53.302052 79 58 73
-6.983769 15.952250 53.206528 80 57 73
-6.983769 16.066946 53.206528 81 58 72
-7.085351 16.417009 53.980442 82 58 73
-7.111210 16.593714 54.177448 83 58 73
-7.111210 16.710503 54.177448 84 59 74
-7.111210 16.827291 54.177448 85 60 75
-9.322831 22.213770 71.026894 86 61 75
-9.256397 22.207495 70.520767 87 61 75
-9.322831 22.519989 71.026894 88 62 75
-9.212632 22.858995 70.187332 91 64 71
-8.958490 22.375530 68.251129 91 65 70
-6.672848 16.776293 50.837742 90 65 69
-6.560511 16.601608 49.981888 89 65 69
-6.420005 16.351492 48.911438 89 66 70
-6.285392 16.111864 47.885876 89 67 72
-6.285392 16.215090 47.885876 88 68 74
-6.409446 16.640387 48.830990 89 69 77
-6.494905 16.968925 49.482071 89 70 80
-6.921747 18.197790 52.734001 89 71 84
-6.921747 18.311466 52.734001 89 71 86
-6.921747 18.425142 52.734001 89 70 88
-6.872916 18.408035 52.361980 89 70 88
-6.872916 18.520908 52.361980 89 70 89
-6.872916 18.633783 52.361980 90 71 89
-6.872916 18.746658 52.361980 91 71 88
-6.860816 18.826330 52.269794 91 71 88
-6.824769 18.839502 51.995171 92 72 87
-6.765527 18.787075 51.543823 91 71 87
-6.765527 18.898186 51.543823 92 71 86
-6.051154 17.002106 46.101307 92 70 85
-6.388432 18.054682 48.670887 93 70 86
-6.388432 18.159599 48.670887 93 70 86
-6.388432 18.264517 48.670887 94 70 87
-6.409446 18.429861 48.830990 95 71 87
-6.409446 18.535124 48.830990 95 72 88
-3.032392 -3.894497 23.488325 60 42 48
-3.032392 -3.843864 23.488325 61 42 49
-4.901462 -6.049417 37.965782 65 44 52
-4.901462 -5.967576 37.965782 66 43 53
-4.901462 -5.885735 37.965782 67 43 54
-4.901462 -5.803893 37.965782 67 44 53
-4.895202 -5.714744 37.917294 68 44 52
-4.876518 -5.611507 37.772572 69 45 50
-4.851827 -5.502082 37.581318 70 46 49
-4.809214 -5.373456 37.251244 70 46 47
-4.030435 -4.436009 31.218971 70 46 46
-4.009355 -4.345862 31.055693 71 46 46
-4.009355 -4.278917 31.055693 71 47 47
-3.513239 -3.690783 27.212872 70 47 48
-3.513239 -3.632122 27.212872 70 48 50
-3.481329 -3.541003 26.965706 70 48 51
-3.471869 -3.473410 26.892429 70 49 53
-3.465591 -3.409263 26.843800 70 51 54
-3.465591 -3.351397 26.843800 70 52 55
-3.196784 -2.931313 24.761669 69 51 58
-6.981682 1.641813 54.078766 130 118 136
-6.906204 1.739379 53.494129 130 119 137
-6.906204 1.854694 53.494129 131 119 137
-3.844477 1.096645 29.778578 131 119 137
-3.825293 1.282790 29.629982 129 113 130
-3.802523 1.338646 29.453613 126 107 124
-3.772582 1.391098 29.221695 125 105 122
-3.772582 1.454090 29.221695 126 104 121
-10.221182 6.499615 79.171310 106 70 90
-10.113307 6.599883 78.335732 106 70 90
-10.033883 6.715590 77.720528 106 70 91
-9.981624 6.847280 77.315735 106 71 91
-10.007685 7.032260 77.517601 107 71 92
-10.007685 7.199361 77.517601 108 72 93
-9.955697 7.328196 77.114914 109 73 94
-9.802924 7.379426 75.931564 109 73 94
-9.679150 7.447867 74.972832 110 73 94
-7.385247 5.806080 57.204704 110 72 94
-7.273137 7.296690 56.336323 115 81 97
-7.231968 7.376143 56.017437 114 80 97
-7.231968 7.496897 56.017437 113 79 97
-7.231968 7.617652 56.017437 112 78 96
-7.245640 7.753035 56.123333 110 78 95
-7.245640 7.874018 56.123333 108 78 93
-7.259362 8.010143 56.229626 106 77 91
-7.259362 8.131355 56.229626 104 77 90
-7.231968 8.221425 56.017437 103 77 89
-7.218349 8.326469 55.911945 103 76 89
-7.218349 8.446997 55.911945 103 76 90
-4.446570 5.574658 34.442276 110 74 93
-4.426032 5.622812 34.283188 111 74 93
-4.426032 5.696715 34.283188 111 74 93
-4.134782 5.736090 32.027229 107 72 91
-4.134782 5.805130 32.027229 105 71 90
-3.643482 5.419539 28.221714 103 71 86
-3.636569 5.469977 28.168161 102 71 85
-3.633122 5.525455 28.141462 103 71 84
-7.486217 11.510460 57.986801 104 71 84
-7.486217 11.635460 57.986801 105 71 85
-7.486217 11.760460 57.986801 106 70 85
-7.471624 11.862291 57.873768 107 70 85
-7.413817 11.894304 57.425999 107 70 85
-7.399505 11.994895 57.315140 107 70 85
-7.371045 12.071837 57.094696 107 71 86
-7.342803 12.148190 56.875942 108 71 87
-7.259362 12.131355 56.229626 108 71 87
-7.204781 12.160442 55.806847 108 71 86
-7.191263 12.257703 55.702145 106 70 85
-7.191263 12.377778 55.702145 106 69 84
-7.164380 12.451132 55.493912 105 69 83
-7.124430 12.500661 55.184464 104 69 83
-7.071851 12.526486 54.777199 103 69 84
-7.071851 12.644567 54.777199 102 69 85
-7.084923 12.786240 54.878452 101 69 85
-7.045852 12.833374 54.575813 100 69 86
-6.994422 12.856488 54.177448 99 69 86
-6.881406 12.763655 53.302052 98 69 87
-6.856786 12.832479 53.111347 97 69 86
-6.771985 12.786847 52.454491 96 69 85
-6.760041 12.877171 52.361980 95 68 83
-6.820184 13.105615 52.827831 94 66 81
-7.758995 15.427845 60.099682 90 65 75
-7.696673 15.432441 59.616951 88 64 74
-7.696673 15.560955 59.616951 87 63 72
-7.620166 15.533510 59.024338 86 62 71
-7.620166 15.660747 59.024338 85 62 70
-7.620166 15.787983 59.024338 85 62 70
-7.650586 15.978753 59.259964 84 62 71
-7.620166 16.042456 59.024338 84 62 72
-7.620166 16.169693 59.024338 84 61 73
-7.886715 16.866987 61.088974 82 62 74
-7.886715 16.998674 61.088974 80 62 74
-7.838330 17.025267 60.714195 78 62 75
-7.727708 16.914022 59.857342 77 62 77
-7.727708 17.043055 59.857342 76 61 77
-7.696673 17.103123 59.616951 75 61 78
-7.471624 16.727789 57.873768 75 60 78
-6.981682 15.747459 54.078766 76 59 77
-6.893783 15.664309 53.397919 77 59 76
-6.893783 15.779416 53.397919 78 59 76
-6.881406 15.865989 53.302052 80 59 75
-6.869074 15.952250 53.206528 82 59 74
-6.869074 16.066946 53.206528 83 59 74
-7.020043 16.537281 54.375900 84 59 74
-7.020043 16.654497 54.375900 84 59 73
-7.007209 16.741053 54.276493 85 60 74
-7.007209 16.858053 54.276493 86 61 74
-9.169721 22.213770 71.026894 87 62 75
-9.104379 22.207495 70.520767 87 62 75
-9.169721 22.519989 71.026894 89 62 75
-9.169721 22.673100 71.026894 91 62 75
-6.642883 16.979818 51.454491 90 66 69
-6.474566 16.657696 50.150745 90 66 69
-6.356457 16.459959 49.235889 89 67 70
-6.283514 16.375992 48.670887 89 68 72
-6.283514 16.480911 48.670887 88 69 74
-6.409604 16.918655 49.647564 88 70 77
-6.474566 17.198236 50.150745 88 71 79
-6.783970 18.133373 52.547333 89 71 82
-6.808070 18.311466 52.734001 88 71 85
-6.783970 18.359921 52.547333 89 71 87
-6.748140 18.375626 52.269794 89 71 87
-6.665988 18.263227 51.633465 89 71 88
-6.760041 18.633783 52.361980 90 72 88
-6.783970 18.813019 52.547333 91 72 88
-6.783970 18.926292 52.547333 91 72 87
-6.724462 18.872553 52.086391 92 72 87
-6.665988 18.819748 51.633465 92 72 86
-6.654416 18.898186 51.543823 92 71 86
-5.942548 16.975744 46.029835 93 71 86
-6.304183 18.114071 48.830990 94 71 86
-6.335443 18.309679 49.073128 94 71 87
-6.563259 19.077663 50.837742 95 71 88
-6.563259 19.187252 50.837742 95 72 88
-2.981759 -3.894497 23.488325 59 41 48
-2.981759 -3.843864 23.488325 61 42 49
-2.981759 -3.793231 23.488325 63 43 51
-2.981759 -3.742599 23.488325 64 43 52
-2.981759 -3.691966 23.488325 66 43 54
-2.981759 -3.641333 23.488325 67 43 54
-4.795094 -5.774357 37.772572 68 43 54
-4.795094 -5.692932 37.772572 70 44 53
-4.770814 -5.583094 37.581318 71 45 51
-4.734853 -5.460608 37.298042 71 46 50
-4.717075 -5.360006 37.158001 72 47 48
-3.967309 -4.440679 31.251833 72 46 47
-3.942409 -4.345862 31.055693 72 46 46
-3.454577 -3.749445 27.212872 72 46 47
-3.429430 -3.663917 27.014778 71 47 48
-3.454577 -3.632122 27.212872 71 47 50
-3.416993 -3.534583 26.916811 71 48 52
-3.413898 -3.473410 26.892429 71 49 53
-3.407725 -3.409263 26.843800 71 51 55
-3.407725 -3.351397 26.843800 70 52 55
-3.395444 -3.281662 26.747065 70 53 57
-3.143406 -2.984691 24.761669 70 52 58
-3.138171 -2.926432 24.720434 70 52 59
-3.138171 -2.873143 24.720434 70 52 60
-6.865106 1.641813 54.078766 131 119 136
-6.852624 1.755192 53.980442 131 119 137
-10.050515 6.328948 79.171310 108 72 92
-10.050515 6.499615 79.171310 108 71 92
-10.050515 6.670281 79.171310 107 72 92
-9.892240 6.733216 77.924522 108 73 92
-9.814957 6.847280 77.315735 108 73 93
-9.814957 7.013947 77.315735 109 73 93
-9.814957 7.180613 77.315735 109 73 94
-9.789463 7.328196 77.114914 110 73 95
-9.541629 7.304698 75.162636 110 74 95
-9.398861 7.355001 74.038010 110 73 95
-7.151695 5.717942 56.336323 111 73 95
-7.151695 5.839384 56.336323 111 73 94
-7.057946 7.201040 55.597832 117 81 97
-7.044754 7.307207 55.493912 115 80 97
-7.044754 7.426833 55.493912 115 79 97
-7.071188 7.574776 55.702145 113 78 96
-7.071188 7.694851 55.702145 112 78 94
-7.071188 7.814926 55.702145 109 77 92
-7.031611 7.890589 55.390377 108 77 91
-7.071188 8.055076 55.702145 106 77 89
-7.071188 8.175151 55.702145 105 76 88
-7.071188 8.295226 55.702145 104 76 88
-7.084480 8.431119 55.806847 105 75 89
-4.352129 5.622812 34.283188 110 74 93
-4.101135 5.716383 32.306030 107 71 91
-4.074533 5.748492 32.096478 106 71 90
-4.074533 5.817682 32.096478 104 71 89
-3.586055 5.363801 28.248566 103 71 86
-3.582646 5.419539 28.221714 103 71 86
-3.572458 5.464792 28.141462 103 71 85
-3.572458 5.525455 28.141462 103 71 84
-7.361217 11.510460 57.986801 104 71 85
-7.375623 11.658230 58.100277 105 70 85
-7.361217 11.760460 57.986801 105 70 84
-7.346868 11.862291 57.873768 106 69 84
-7.290026 11.894304 57.425999 106 70 85
-7.275952 11.994895 57.315140 106 70 86
-7.261933 12.095098 57.204704 107 70 87
-7.151695 12.032932 56.336323 107 70 87
-7.084480 12.040142 55.806847 107 70 87
-7.044754 12.092254 55.493912 107 70 86
-6.928205 12.009845 54.575813 107 71 86
-6.928205 12.127492 54.575813 107 70 85
-6.928205 12.245139 54.575813 106 70 85
-6.928205 12.362785 54.575813 105 70 85
-6.890207 12.411984 54.276493 104 70 85
-6.890207 12.528986 54.276493 103 70 85
-6.915493 12.692395 54.475674 102 71 85
-6.877634 12.739699 54.177448 100 71 86
-6.840188 12.786489 53.882473 99 71 86
-6.742296 12.717988 53.111347 97 70 86
-6.658911 12.673773 52.454491 96 70 86
-6.647166 12.764296 52.361980 95 69 85
-6.694393 12.968659 52.734001 94 67 83
-6.706305 13.105615 52.827831 93 66 82
-6.730256 13.266706 53.016502 92 65 80
-6.742296 13.404929 53.111347 91 64 79
-7.361217 14.760460 57.986801 91 64 77
-7.598676 15.365636 59.857342 90 64 76
-7.598676 15.494668 59.857342 89 63 75
-7.598676 15.623700 59.857342 88 63 74
-7.598676 15.752733 59.857342 87 62 72
-7.614027 15.913850 59.978268 86 62 71
-7.614027 16.043142 59.978268 85 62 70
-7.552993 16.042797 59.497478 84 62 71
-7.537887 16.138710 59.378483 84 62 72
-7.537887 16.266710 59.378483 84 62 73
-7.851965 17.077824 61.852589 82 62 74
-7.851965 17.211157 61.852589 80 62 74
-7.739103 17.095186 60.963535 79 62 75
-7.660454 17.051535 60.343987 78 62 77
-7.707451 17.287025 60.714195 77 61 78
-7.598676 17.172087 59.857342 77 61 79
-6.852624 15.718828 53.980442 78 59 78
-6.778675 15.664309 53.397919 79 59 78
-6.778675 15.779416 53.397919 80 59 78
-6.766505 15.865989 53.302052 82 59 77
-6.754379 15.952250 53.206528 83 59 75
-6.754379 16.066946 53.206528 84 59 74
-6.915493 16.567625 54.475674 85 60 74
-6.915493 16.685057 54.475674 85 60 73
-6.915493 16.802486 54.475674 85 60 73
-8.826565 21.595680 69.529839 86 61 74
-9.059960 22.320566 71.368370 87 62 74
-9.038234 22.420517 71.197220 88 63 74
-6.531964 16.979818 51.454491 90 66 70
-6.366458 16.657696 50.150745 89 66 70
-6.271121 16.514734 49.399738 89 67 71
-6.250320 16.566095 49.235889 88 68 72
-6.281572 16.755592 49.482071 88 69 74
-6.355722 17.061308 50.066177 88 70 76
-6.388040 17.256535 50.320751 88 71 78
-6.543304 17.787075 51.543823 88 71 81
-6.670696 18.246647 52.547333 88 71 83
-6.554684 18.040619 51.633465 89 72 85
-6.486994 17.964468 51.100246 90 72 86
-6.431644 17.920403 50.664234 90 73 86
-6.509401 18.247591 51.276756 91 73 86
-6.670696 18.813019 52.547333 92 73 86
-6.670696 18.926292 52.547333 92 72 86
-6.612181 18.872553 52.086391 92 72 86
-6.543304 18.787075 51.543823 93 72 86
-5.852396 16.902725 46.101307 93 72 86
-5.745340 16.691092 45.257992 94 72 87
-5.745340 16.788652 45.257992 95 72 87
-6.464740 19.000610 50.924942 96 72 88
-6.520663 19.275702 51.365471 96 72 88
-6.543304 19.453743 51.543823 96 72 88
-2.931126 -3.843864 23.488325 61 42 48
-2.931126 -3.793231 23.488325 61 42 49
-2.931126 -3.742599 23.488325 64 43 50
-2.931126 -3.691966 23.488325 66 43 52
-2.931126 -3.641333 23.488325 68 43 53
-2.931126 -3.590700 23.488325 69 44 54
-4.654451 -5.621413 37.298042 71 45 53
-4.654451 -5.541011 37.298042 73 45 52
-4.636975 -5.440106 37.158001 74 46 50
-4.631179 -5.353306 37.111553 74 47 49
-3.899940 -4.440679 31.251833 74 47 48
-3.875464 -4.345862 31.055693 74 47 47
-3.371195 -3.722152 27.014778 73 46 48
-3.368130 -3.660586 26.990221 72 47 49
-3.349858 -3.467129 26.843800 72 49 54
-3.349858 -3.409263 26.843800 72 50 54
-3.349858 -3.351397 26.843800 71 52 55
-3.100371 -3.048238 24.844555 71 52 56
-3.087453 -2.982204 24.741035 71 52 58
-3.072092 -2.914299 24.617945 71 53 59
-3.072092 -2.861231 24.617945 71 53 60
-6.912208 1.562230 55.390377 129 116 134
-6.773205 1.647816 54.276493 130 118 135
-9.724260 6.061300 77.924522 110 74 93
-9.724260 6.229280 77.924522 110 73 94
-9.724260 6.397258 77.924522 110 73 94
-9.879849 6.670281 79.171310 109 74 94
-9.724260 6.733216 77.924522 109 74 94
-9.673481 6.865158 77.517601 109 74 95
-9.673481 7.032260 77.517601 110 74 95
-9.648290 7.180613 77.315735 110 74 96
-9.623230 7.328196 77.114914 110 74 97
-9.499855 7.398347 76.126259 111 73 97
-9.239261 7.355001 74.038010 111 73 97
-6.964179 5.664202 55.806847 112 73 97
-6.964179 5.784503 55.806847 112 73 96
-6.951113 6.734251 55.702145 117 82 95
-6.938096 7.081190 55.597832 117 81 98
-6.925128 7.187580 55.493912 117 80 98
-6.912208 7.293574 55.390377 116 80 97
-6.925128 7.426833 55.493912 116 79 96
-6.925128 7.546459 55.493912 115 79 95
-6.938096 7.680441 55.597832 113 78 94
-6.925128 7.785711 55.493912 111 77 92
-6.912208 7.890589 55.390377 110 76 90
-6.938096 8.039991 55.597832 108 76 89
-6.938096 8.159842 55.597832 106 76 88
-6.938096 8.279692 55.597832 105 75 89
-6.938096 8.399542 55.597832 105 75 90
-6.977294 8.567524 55.911945 105 75 91
-4.040287 5.798643 32.376492 107 72 92
-3.525160 5.363801 28.248566 104 71 87
-3.521809 5.419539 28.221714 103 71 87
-3.515126 5.469977 28.168161 103 72 86
-3.515126 5.530698 28.168161 103 72 85
-7.250379 11.532986 58.100277 104 71 85
-7.264595 11.681089 58.214199 104 71 85
-7.250379 11.783475 58.100277 104 70 84
-7.222112 11.862291 57.873768 105 70 84
-7.180123 11.917356 57.537292 106 70 85
-7.152400 11.994895 57.315140 106 70 86
-7.152400 12.118447 57.315140 106 70 87
-7.030253 12.032932 56.336323 106 69 87
-6.951113 12.017552 55.702145 106 69 86
-6.810558 11.892198 54.575813 107 70 86
-6.711854 11.835789 53.784859 109 72 87
-6.675574 11.887127 53.494129 109 72 87
-6.675574 12.002442 53.494129 107 72 87
-6.675574 12.117758 53.494129 107 72 86
-6.639683 12.167304 53.206528 105 71 86
-6.639683 12.281999 53.206528 103 71 85
-6.724035 12.554184 53.882473 102 71 85
-6.724035 12.670337 53.882473 100 71 86
-6.651604 12.648753 53.302052 98 71 86
-6.615970 12.695277 53.016502 97 71 86
-6.534292 12.651421 52.361980 96 70 86
-6.534292 12.764296 52.361980 95 69 85
-6.580717 12.968659 52.734001 94 67 84
-6.592426 13.105615 52.827831 93 65 83
-6.615970 13.266706 53.016502 92 64 81
-6.615970 13.380992 53.016502 91 63 80
-6.615970 13.495277 53.016502 91 63 79
-7.469644 15.365636 59.857342 90 63 77
-7.484734 15.525970 59.978268 89 63 76
-7.530373 15.750723 60.343987 88 62 75
-7.530373 15.880804 60.343987 87 62 73
-7.530373 16.010885 60.343987 86 62 72
-7.530373 16.140966 60.343987 85 62 71
-7.484734 16.172436 59.978268 84 62 71
-7.424736 16.171053 59.497478 84 62 72
-7.424736 16.299309 59.497478 83 62 73
-7.718632 17.077824 61.852589 82 61 74
-7.718632 17.211157 61.852589 80 61 75
-7.607687 17.095186 60.963535 79 62 75
-7.530373 17.051535 60.343987 78 61 77
-7.623340 17.393736 61.088974 77 61 78
-6.736261 15.718828 53.980442 79 59 79
-6.651604 15.636186 53.302052 80 58 79
-6.651604 15.751087 53.302052 81 59 78
-6.639683 15.837555 53.206528 83 59 77
-6.615970 15.895278 53.016502 83 59 76
-5.377276 13.012127 43.090336 84 59 74
-5.369483 13.086022 43.027885 85 60 74
-6.773205 16.624050 54.276493 86 60 74
-6.798061 16.802486 54.475674 86 60 74
-8.949139 22.273806 71.713142 87 61 74
-6.365882 16.833944 51.012444 89 66 72
-6.258350 16.657696 50.150745 88 67 72
-6.185215 16.569876 49.564678 88 67 72
-6.185215 16.676720 49.564678 88 68 72
-6.226796 16.896397 49.897884 87 69 74
-6.237278 17.032585 49.981888 88 70 75
-6.268939 17.227335 50.235603 88 71 77
-6.311658 17.453756 50.577927 89 71 79
-6.322429 17.592756 50.664234 89 72 82
-6.322429 17.701971 50.664234 90 72 82
-6.311658 17.780844 50.577927 91 73 83
-6.300924 17.859447 50.491909 91 74 83
-6.311658 17.998901 50.577927 92 74 83
-6.534292 18.746658 52.361980 92 73 84
-6.534292 18.859533 52.361980 93 73 84
-6.499901 18.872553 52.086391 93 73 84
-6.443380 18.819748 51.633465 93 72 85
-5.753017 16.902725 46.101307 94 73 86
-5.656402 16.716574 45.327087 95 73 87
-5.656402 16.814283 45.327087 96 73 88
-6.432193 19.231520 51.543823 96 73 89
-6.454605 19.410027 51.723419 96 73 89
-2.880493 -3.793231 23.488325 61 42 47
-2.880493 -3.742599 23.488325 63 42 48
-2.880493 -3.691966 23.488325 65 43 51
-2.880493 -3.641333 23.488325 68 44 52
-2.880493 -3.590700 23.488325 70 44 53
-2.943366 -3.617336 24.001003 72 45 52
-3.160541 -3.828685 25.771912 74 45 51
-4.539830 -5.419756 37.019005 76 46 50
-3.832572 -4.508047 31.251833 76 47 49
-3.828542 -4.436009 31.218971 76 47 48
-3.804538 -4.341321 31.023241 76 47 48
-3.309948 -3.718768 26.990221 75 46 49
-3.309948 -3.660586 26.990221 74 47 50
-3.291992 -3.467129 26.843800 73 49 54
-3.291992 -3.409263 26.843800 73 50 54
-3.286050 -3.345347 26.795345 72 51 55
-3.034119 -3.035537 24.741035 72 52 56
-3.031593 -2.979721 24.720434 72 52 58
-3.019024 -2.914299 24.617945 72 53 59
-3.019024 -2.861231 24.617945 72 53 60
-10.966697 -5.767002 89.425430 82 58 66
-7.340611 1.688217 59.857342 130 116 134
-7.340611 1.817249 59.857342 131 117 135
-10.803987 2.864556 88.098640 132 118 135
-6.692911 4.245139 54.575813 112 75 93
-6.692911 4.362786 54.575813 112 75 95
-6.692911 4.480433 54.575813 112 75 95
-6.705236 4.606548 54.676319 111 75 96
-9.481624 6.680613 77.315735 111 75 96
-9.481624 6.847280 77.315735 110 75 97
-9.481624 7.013947 77.315735 111 75 97
-9.481624 7.180613 77.315735 111 75 97
-9.335752 7.234245 76.126259 111 74 97
-9.079659 7.195400 74.038010 112 73 98
-6.843878 5.543901 55.806847 113 73 98
-6.742488 5.580288 54.980080 113 73 98
-6.742488 5.698806 54.980080 113 73 97
-6.792805 5.860738 55.390377 112 74 97
-6.831038 6.494100 55.702145 116 80 94
-6.831038 6.614175 55.702145 116 81 95
-6.805501 6.709075 55.493912 117 82 96
-6.805501 6.828702 55.493912 117 82 97
-6.818246 6.961340 55.597832 117 81 98
-6.818246 7.081190 55.597832 118 81 98
-6.805501 7.187580 55.493912 118 80 98
-6.805501 7.307207 55.493912 117 79 97
-6.805501 7.426833 55.493912 117 79 96
-6.818246 7.560591 55.597832 116 78 94
-6.831038 7.694851 55.702145 114 77 93
-6.831038 7.814926 55.702145 112 77 91
-6.818246 7.920141 55.597832 111 76 90
-6.818246 8.039991 55.597832 109 76 89
-6.818246 8.159842 55.597832 107 75 89
-6.843878 8.310819 55.806847 106 75 90
-6.843878 8.431119 55.806847 106 75 90
-6.856767 8.567524 55.911945 106 74 91
-6.882690 8.720899 56.123333 106 74 91
-3.460973 5.419539 28.221714 103 72 86
-2.880493 4.561199 23.488325 103 72 85
-2.880493 4.611832 23.488325 103 72 84
-7.139105 11.555599 58.214199 103 72 84
-7.139105 11.681089 58.214199 103 71 85
-7.139105 11.806580 58.214199 104 71 85
-7.097355 11.862291 57.873768 105 70 85
-7.056092 11.917356 57.537292 105 70 86
-7.042444 12.018096 57.425999 106 70 87
-7.028848 12.118447 57.315140 105 69 87
-6.908811 12.032932 56.336323 105 68 86
-6.805501 11.972627 55.493912 105 67 85
-6.548459 11.635531 53.397919 106 69 85
-6.501685 11.666706 53.016502 109 72 88
-6.467040 11.718216 52.734001 109 73 88
-6.467040 11.831892 52.734001 107 73 87
-6.478547 11.966825 52.827831 106 72 86
-6.478547 12.080704 52.827831 104 72 85
-6.478547 12.194583 52.827831 102 72 85
-6.501685 12.352421 53.016502 101 71 85
-6.524988 12.511390 53.206528 100 72 86
-6.501685 12.580992 53.016502 98 72 86
-6.490095 12.672647 52.922001 97 71 86
-6.421417 12.651421 52.361980 96 70 86
-6.421417 12.764296 52.361980 95 69 85
-6.455574 12.945665 52.640499 94 67 85
-6.478547 13.105615 52.827831 93 65 84
-6.501685 13.266706 53.016502 93 64 83
-6.501685 13.380992 53.016502 92 63 81
-6.490095 13.471222 52.922001 92 63 80
-6.490095 13.585304 52.922001 91 63 79
-7.430497 15.684399 60.590290 89 62 78
-7.430497 15.815011 60.590290 88 62 76
-7.538185 16.176720 61.468410 87 62 74
-7.507100 16.241970 61.214931 86 62 73
-7.507100 16.373928 61.214931 85 63 73
-7.415363 16.304186 60.466888 84 63 72
-7.311131 16.203526 59.616951 84 63 72
-7.311131 16.332039 59.616951 83 63 73
-7.355441 16.560314 59.978268 81 62 74
-7.400291 16.791372 60.343987 80 62 75
-7.445692 17.025267 60.714195 80 62 75
-7.385281 17.016949 60.221588 79 61 77
-7.445692 17.287025 60.714195 79 61 78
-6.619897 15.835192 53.980442 81 59 78
-6.524988 15.722859 53.206528 82 59 78
-6.501685 15.780992 53.016502 83 59 77
-5.292069 12.938017 43.152969 83 59 76
-5.284388 13.012127 43.090336 84 59 75
-5.276730 13.086022 43.027885 85 60 74
-6.680630 16.685057 54.475674 86 60 74
-6.277489 16.781647 51.188347 88 66 75
-6.245186 16.805069 50.924942 87 66 74
-6.150242 16.657696 50.150745 87 67 74
-6.078370 16.569876 49.564678 87 67 75
-6.078370 16.676720 49.564678 87 68 74
-6.098732 16.839792 49.730724 87 69 75
-6.108965 16.975430 49.814163 88 70 76
-6.129534 17.140329 49.981888 89 71 78
-6.160649 17.335627 50.235603 90 72 80
-6.192080 17.532917 50.491909 90 72 82
-6.192080 17.641762 50.491909 91 73 82
-6.171091 17.690434 50.320751 91 74 83
-6.171091 17.798908 50.320751 92 74 82
-6.171091 17.907383 50.320751 93 74 82
-6.223835 18.169838 50.750843 94 73 83
-6.421417 18.859533 52.361980 94 73 84
-6.432762 19.005928 52.454491 94 73 84
-6.332076 18.819748 51.633465 94 73 85
-5.653639 16.902725 46.101307 95 73 87
-5.584269 16.793489 45.535648 95 73 88
-5.584269 16.891649 45.535648 96 74 89
-6.354177 19.332209 51.813686 97 74 89
-2.829860 -3.793231 23.488325 62 42 46
-2.829860 -3.742599 23.488325 64 43 48
-2.829860 -3.691966 23.488325 66 44 50
-2.829860 -3.641333 23.488325 68 44 52
-2.829860 -3.590700 23.488325 71 44 52
-2.891628 -3.617336 24.001003 73 45 52
-2.903363 -3.580069 24.098412 75 45 51
-3.094242 -3.760073 25.682735 76 46 49
-3.104985 -3.717573 25.771912 76 46 49
-3.137670 -3.700565 26.043196 76 47 48
-3.225377 -3.746298 26.771183 76 47 49
-3.208021 -3.668740 26.627123 76 46 50
-3.208021 -3.611340 26.627123 75 46 50
-3.208021 -3.553941 26.627123 74 47 52
-3.222471 -3.512292 26.747065 75 48 53
-3.222471 -3.454635 26.747065 75 49 55
-2.931921 -3.090692 24.335443 75 50 55
-2.978304 -3.086298 24.720434 74 51 55
-2.970883 -3.025452 24.658838 73 51 56
-2.968418 -2.969830 24.638374 72 52 57
-2.963499 -2.911885 24.597549 73 53 59
-10.773926 -5.767002 89.425430 82 57 65
-10.677443 2.690613 88.624603 133 116 135
-10.614076 2.864556 88.098640 134 118 135
-10.614076 3.054467 88.098640 134 118 135
-6.575264 4.127491 54.575813 114 77 92
-6.575264 4.245139 54.575813 114 77 93
-6.575264 4.362786 54.575813 115 79 96
-6.575264 4.480433 54.575813 114 78 98
-6.575264 4.598080 54.575813 112 76 96
-6.575264 4.715727 54.575813 110 75 96
-6.575264 4.833374 54.575813 110 75 97
-6.563199 4.941936 54.475674 111 75 98
-6.563199 5.059368 54.475674 112 75 98
-6.551178 5.167318 54.375900 112 74 98
-6.611725 5.333374 54.878452 113 73 99
-6.611725 5.451674 54.878452 113 73 99
-6.599526 5.559697 54.777199 113 73 99
-6.575264 5.656903 54.575813 113 73 98
-6.599526 5.795859 54.777199 112 73 97
-6.648593 5.957910 55.184464 113 74 97
-6.648593 6.076869 55.184464 114 76 96
-6.660975 6.207366 55.287228 115 77 95
-6.698396 6.362089 55.597832 115 78 95
-6.710963 6.494100 55.702145 116 78 95
-6.710963 6.614175 55.702145 116 80 95
-6.685875 6.709075 55.493912 117 81 97
-6.685875 6.828702 55.493912 117 81 97
-6.698396 6.961340 55.597832 118 81 98
-6.698396 7.081190 55.597832 119 80 98
-6.685875 7.187580 55.493912 119 80 97
-6.685875 7.307207 55.493912 119 79 96
-6.698396 7.440741 55.597832 118 78 95
-6.723578 7.589014 55.806847 116 78 93
-6.723578 7.709315 55.806847 114 77 91
-6.723578 7.829616 55.806847 113 76 90
-6.723578 7.949916 55.806847 112 76 89
-6.723578 8.070217 55.806847 110 76 89
-6.723578 8.190517 55.806847 108 76 89
-6.736240 8.326469 55.911945 107 76 90
-6.736240 8.446997 55.911945 106 75 90
-6.736240 8.567524 55.911945 106 75 90
-4.078613 5.260383 33.853184 106 74 91
-2.910450 4.639020 24.157236 103 73 86
-2.829860 4.561199 23.488325 103 73 85
-2.829860 4.611832 23.488325 103 73 85
-7.013615 11.555599 58.214199 104 73 85
-7.013615 11.681089 58.214199 104 72 86
-7.013615 11.806580 58.214199 104 71 87
-6.986217 11.885460 57.986801 104 70 88
-6.945521 11.940496 57.649014 105 70 88
-6.918653 12.018096 57.425999 105 70 88
-6.918653 12.141887 57.425999 106 69 88
-6.918653 12.265677 57.425999 106 68 87
-6.433352 11.520424 53.397919 106 68 87
-6.308542 11.409798 52.361980 107 69 87
-6.319688 11.543031 52.454491 109 72 88
-6.319688 11.656105 52.454491 109 73 88
-6.319688 11.769179 52.454491 107 73 87
-6.330873 11.903284 52.547333 105 72 85
-6.319688 11.995328 52.454491 103 72 84
-6.330873 12.129832 52.547333 102 72 84
-6.353363 12.286599 52.734001 100 72 84
-6.376013 12.444484 52.922001 99 72 85
-6.376013 12.558566 52.922001 98 72 86
-6.364668 12.650099 52.827831 97 72 87
-6.319688 12.673773 52.454491 96 71 86
-6.319688 12.786847 52.454491 96 69 86
-6.342098 12.945665 52.640499 95 68 87
-6.364668 13.105615 52.827831 94 66 86
-6.387399 13.266706 53.016502 94 65 85
-6.387399 13.380992 53.016502 94 64 83
-6.387399 13.495277 53.016502 93 62 81
-6.410293 13.658343 53.206528 91 62 79
-7.299884 15.684399 60.590290 90 62 78
-7.299884 15.815011 60.590290 89 62 77
-7.421044 16.210281 61.595940 87 62 75
-7.451965 16.411158 61.852589 87 63 74
-7.451965 16.544491 61.852589 86 63 73
-7.344853 16.438101 60.963535 85 63 72
-7.211579 16.268862 59.857342 85 63 72
-7.211579 16.397894 59.857342 84 63 72
-7.226148 16.560314 59.978268 82 63 73
-7.226148 16.689608 59.978268 81 62 75
-7.255463 16.887131 60.221588 80 62 75
-7.211579 16.914022 59.857342 80 62 77
-7.211579 17.043055 59.857342 80 62 77
-7.211579 17.172087 59.857342 80 61 78
-6.387399 15.780992 53.016502 83 59 76
-5.214203 12.975737 43.278778 83 59 76
-5.199046 13.031040 43.152969 84 59 75
-8.875790 23.517012 73.670578 87 63 74
-8.724252 23.271599 72.412788 87 64 75
-6.135409 16.585516 50.924942 88 65 77
-6.135409 16.695292 50.924942 87 66 77
-6.114433 16.747616 50.750843 87 66 77
-6.042134 16.657696 50.150745 87 67 77
-5.971525 16.569876 49.564678 88 67 77
-5.971525 16.676720 49.564678 88 68 77
-5.971525 16.783566 49.564678 88 68 77
-5.991530 16.946995 49.730724 89 69 78
-5.991530 17.054197 49.730724 90 70 79
-6.001583 17.190193 49.814163 91 71 80
-6.052358 17.443918 50.235603 91 73 81
-6.052358 17.552210 50.235603 92 73 82
-6.052358 17.660500 50.235603 92 74 82
-6.042134 17.738775 50.150745 93 74 82
-6.042134 17.846884 50.150745 93 74 82
-6.062616 18.015856 50.320751 94 73 82
-6.308542 18.859533 52.361980 94 73 83
-6.376013 19.175322 52.922001 94 73 85
-6.319688 19.119003 52.454491 94 73 86
-5.588974 17.008368 46.389442 95 73 88
-5.494537 16.819286 45.605595 95 74 89
-5.494537 16.917597 45.605595 96 74 90
-6.330873 19.605938 52.547333 97 75 90
-2.779227 -3.742599 23.488325 64 44 49
-2.779227 -3.691966 23.488325 66 44 50
-2.779227 -3.641333 23.488325 68 44 51
-2.779227 -3.590700 23.488325 70 44 51
-2.844489 -3.623194 24.039873 72 44 51
-2.851415 -3.580069 24.098412 73 45 50
-2.844489 -3.519550 24.039873 75 45 49
-2.844489 -3.467728 24.039873 75 46 48
-2.844489 -3.415906 24.039873 76 47 49
-2.870052 -3.394317 24.255917 77 47 50
-2.877104 -3.350241 24.315514 77 47 51
-2.877104 -3.297825 24.315514 76 47 52
-2.884190 -3.253403 24.375404 76 47 53
-2.881824 -3.198232 24.355408 76 48 55
-2.879462 -3.143151 24.335443 77 50 56
-2.867709 -3.078077 24.236116 76 50 56
-2.867709 -3.025832 24.236116 75 50 56
-2.910475 -3.017932 24.597549 74 51 56
-2.910475 -2.964908 24.597549 73 52 58
-2.910475 -2.911885 24.597549 73 53 59
-10.424164 2.864556 88.098640 135 117 135
-10.362665 3.036447 87.578888 135 117 134
-10.393324 3.234780 87.837997 136 117 134
-10.332187 3.403987 87.321304 135 116 132
-6.481445 4.024641 54.777199 113 76 89
-6.457616 4.127491 54.575813 114 77 90
-6.445767 4.237350 54.475674 116 79 93
-6.445767 4.354781 54.475674 118 82 96
-6.457616 4.480433 54.575813 116 81 98
-6.457616 4.598080 54.575813 111 77 96
-6.457616 4.715727 54.575813 110 75 95
-6.445767 4.824505 54.475674 111 76 97
-6.445767 4.941936 54.475674 112 76 98
-6.445767 5.059368 54.475674 113 75 98
-6.433962 5.167318 54.375900 114 75 98
-6.493426 5.333374 54.878452 114 74 99
-6.457616 5.421609 54.575813 114 74 99
-6.457616 5.539257 54.575813 114 73 99
-6.445767 5.646524 54.475674 113 74 99
-6.457616 5.774550 54.575813 113 73 98
-6.469509 5.903049 54.676319 113 75 98
-6.493426 6.043171 54.878452 114 75 98
-6.493426 6.161470 54.878452 115 76 97
-6.517520 6.303071 55.082081 115 77 96
-6.578546 6.481939 55.597832 115 78 95
-6.590888 6.614175 55.702145 116 78 95
-6.590888 6.734251 55.702145 117 79 95
-6.566249 6.828702 55.493912 117 80 96
-6.566249 6.948328 55.493912 118 80 97
-6.566249 7.067954 55.493912 119 81 97
-6.566249 7.187580 55.493912 119 80 96
-6.566249 7.307207 55.493912 119 79 95
-6.578546 7.440741 55.597832 118 78 93
-6.603277 7.589014 55.806847 116 78 91
-6.603277 7.709315 55.806847 114 77 90
-6.603277 7.829616 55.806847 113 76 89
-6.603277 7.949916 55.806847 112 76 89
-6.603277 8.070217 55.806847 110 76 88
-6.603277 8.190517 55.806847 109 76 89
-6.615713 8.326469 55.911945 108 76 90
-6.640725 8.478932 56.123333 107 75 90
