ply
format ascii 1.0
element vertex 1176
property float x
property float y
property float z
property uchar red
property uchar green
property uchar blue
end_header
-2.447453 8.324463 24.741035 82 75 89
-2.447453 8.377796 24.741035 84 75 90
-2.660275 9.164271 26.892429 84 75 90
-2.657867 9.213897 26.868092 84 74 89
-2.657867 9.271815 26.868092 84 75 88
-2.657867 9.329734 26.868092 85 76 88
-2.660275 9.396155 26.892429 86 77 88
-2.660275 9.454126 26.892429 87 79 88
-2.660275 9.512097 26.892429 88 80 89
-2.660275 9.570068 26.892429 89 82 90
-6.619685 -15.029135 68.408394 166 150 155
-6.619685 -14.881669 68.408394 168 153 158
-6.619685 -14.734204 68.408394 170 154 160
-6.574241 -14.486601 67.938766 170 154 160
-6.559231 -14.307407 67.783661 168 153 158
-6.544290 -14.129031 67.629250 167 151 156
-6.544290 -13.983245 67.629250 165 150 155
-6.514611 -13.774704 67.322548 163 148 153
-6.544290 -13.691673 67.629250 162 147 151
-6.544290 -13.545887 67.629250 162 145 150
-6.499872 -13.309151 67.170235 162 144 149
-6.427166 -13.017102 66.418884 162 144 148
-6.356070 -12.731514 65.684166 161 143 148
-6.286528 -12.452176 64.965523 162 142 147
-6.231981 -12.205302 64.401825 162 142 148
-6.191688 -11.988458 63.985435 163 142 148
-6.178373 -11.825042 63.847832 165 142 148
-6.178373 -11.687407 63.847832 165 143 148
-6.205061 -11.599665 64.123634 167 144 148
-6.205061 -11.461435 64.123634 170 145 149
-6.191688 -11.298803 63.985435 174 147 150
-6.112646 -11.018393 63.168602 176 148 151
-6.099668 -10.859118 63.034485 178 149 151
-6.099668 -10.723237 63.034485 181 150 153
-6.086744 -10.564925 62.900936 184 151 156
-6.061062 -10.385326 62.635532 187 152 158
-6.061062 -10.250305 62.635532 190 153 161
-6.048302 -10.093988 62.503666 193 153 162
-5.997794 -9.876084 61.981716 195 153 163
-5.972855 -9.701963 61.723995 195 152 162
-5.972855 -9.568908 61.723995 195 151 161
-6.010342 -9.495072 62.111385 196 151 162
-6.010342 -9.361181 62.111385 197 151 162
-5.997794 -9.208026 61.981716 196 149 160
-5.972855 -9.036683 61.723995 195 148 158
-5.875140 -8.757964 60.714195 196 146 157
-5.827471 -8.557088 60.221588 197 147 157
-5.815675 -8.410212 60.099682 199 148 159
-5.815675 -8.280657 60.099682 200 149 161
-5.827471 -8.167636 60.221588 202 151 162
-5.827471 -8.037819 60.221588 205 154 162
-5.827471 -7.908001 60.221588 207 155 163
-5.827471 -7.778183 60.221588 207 156 162
-5.780570 -7.586810 59.736904 207 156 161
-5.780570 -7.458037 59.736904 207 157 161
-5.600279 -0.613342 57.873768 213 175 188
-5.589384 -0.487635 57.761173 218 178 192
-5.600279 -0.363829 57.873768 222 180 194
-5.578531 -0.238145 57.649014 226 181 195
-5.535536 -0.112995 57.204704 229 182 197
-5.535536 0.010319 57.204704 233 183 199
-5.535536 0.133633 57.204704 234 183 198
-5.535536 0.256947 57.204704 230 179 193
-5.535536 0.380261 57.204704 224 174 188
-5.535536 0.503575 57.204704 222 172 187
-5.535536 0.626889 57.204704 221 171 186
-5.503723 0.745892 56.875942 219 169 186
-5.503723 0.868497 56.875942 220 170 187
-5.546223 0.998756 57.315140 220 171 188
-5.567719 1.126658 57.537292 218 169 186
-5.578531 1.253117 57.649014 217 168 185
-5.589384 1.380069 57.761173 215 168 183
-5.589384 1.504583 57.761173 214 168 182
-5.589384 1.629096 57.761173 221 175 188
-5.589384 1.753610 57.761173 229 184 196
-5.589384 1.878124 57.761173 229 185 195
-5.589384 2.002637 57.761173 228 184 194
-5.578531 2.123020 57.649014 228 184 194
-5.567719 2.242937 57.537292 227 184 194
-5.556951 2.362390 57.425999 227 183 193
-5.546223 2.481381 57.315140 227 183 192
-5.556951 2.609972 57.425999 224 180 189
-5.567719 2.739061 57.537292 221 176 186
-5.578531 2.868651 57.649014 223 176 188
-5.578531 2.992923 57.649014 230 180 195
-5.578531 3.117195 57.649014 230 179 195
-5.578531 3.241467 57.649014 226 173 191
-5.578531 3.365739 57.649014 225 170 188
-5.567719 3.483247 57.537292 227 171 189
-5.578531 3.614282 57.649014 233 175 193
-5.578531 3.738554 57.649014 230 171 189
-5.578531 3.862826 57.649014 217 158 175
-5.589384 3.994855 57.761173 211 153 170
-5.600279 4.127398 57.873768 215 157 174
-5.600279 4.252155 57.873768 216 160 176
-5.611217 4.385460 57.986801 215 159 175
-5.611217 4.510460 57.986801 215 159 175
-5.611217 4.635460 57.986801 216 160 177
-5.611217 4.760460 57.986801 220 164 182
-5.611217 4.885460 57.986801 224 168 184
-5.622199 5.020265 58.100277 224 168 183
-5.622199 5.145510 58.100277 222 166 179
-5.611217 5.260460 57.986801 226 172 183
-5.611217 5.385460 57.986801 238 188 198
-5.611217 5.510460 57.986801 249 205 215
-5.611217 5.635460 57.986801 251 207 216
-5.611217 5.760460 57.986801 245 194 202
-5.600279 5.873987 57.873768 243 188 195
-5.600279 5.998744 57.873768 241 187 191
-5.600279 6.123500 57.873768 226 172 172
-5.600279 6.248256 57.873768 209 157 154
-5.589384 6.360614 57.761173 210 165 160
-5.578531 6.472535 57.649014 221 183 178
-5.578531 6.596807 57.649014 233 196 191
-5.578531 6.721078 57.649014 245 211 208
-5.589384 6.858668 57.761173 250 219 219
-5.600279 6.996794 57.873768 233 192 195
-5.611217 7.135460 57.986801 197 148 152
-5.611217 7.260460 57.986801 180 132 137
-5.611217 7.385460 57.986801 191 146 149
-5.600279 7.495820 57.873768 202 160 163
-5.611217 7.635460 57.986801 201 163 165
-5.611217 7.760460 57.986801 193 159 161
-5.655400 7.947550 58.443390 180 148 151
-5.839316 8.336088 60.343987 162 133 135
-5.923594 8.588362 61.214931 146 121 122
-5.935833 8.738338 61.341408 166 144 144
-5.935833 8.870569 61.341408 200 184 181
-5.960464 9.040156 61.595940 174 162 159
-4.372821 7.703737 45.189106 103 97 113
-4.333248 7.730551 44.780155 103 96 114
-4.307261 7.780143 44.511608 102 96 115
-5.972855 11.320906 61.723995 102 95 114
-5.960464 11.430198 61.595940 102 96 113
-5.935833 11.515197 61.341408 102 95 112
-5.923594 11.623413 61.214931 101 95 111
-5.899268 11.707095 60.963535 100 94 110
-5.839316 11.718203 60.343987 99 94 109
-5.803926 11.776476 59.978268 98 93 108
-3.473934 7.126185 35.899929 97 92 105
-3.473934 7.203574 35.899929 96 92 104
-3.428333 7.490878 35.428692 95 90 101
-3.428333 7.567250 35.428692 94 88 99
-3.150157 7.023416 32.553993 93 87 97
-3.095844 6.971288 31.992718 92 85 97
-3.056323 6.950378 31.584301 91 84 96
-3.040152 6.981328 31.417187 90 83 96
-3.040152 7.049053 31.417187 89 82 95
-3.046600 7.131872 31.483820 88 81 95
-3.053075 7.215043 31.550735 87 79 94
-3.053075 7.283056 31.550735 86 78 93
-3.049834 7.343265 31.517242 85 77 92
-2.986428 8.188519 30.861998 82 72 85
-2.977143 8.229383 30.766054 81 72 85
-2.977143 8.295705 30.766054 80 72 85
-2.374333 6.774674 24.536564 81 73 83
-2.362618 6.793878 24.415495 82 74 82
-2.362618 6.846509 24.415495 82 74 81
-2.382208 6.956348 24.617945 82 75 81
-2.861497 8.483421 29.570959 81 74 81
-2.485245 7.423318 25.682735 81 74 82
-2.480953 7.465765 25.638378 81 74 83
-2.461819 7.463029 25.440653 81 74 84
-2.447141 7.473045 25.288963 81 75 85
-2.400120 7.382920 24.803043 82 76 85
-2.378264 7.368672 24.577187 82 76 84
-2.380235 7.427801 24.597549 81 76 83
-2.378264 7.474632 24.577187 81 76 83
-2.370415 7.502769 24.496075 80 76 84
-2.370415 7.555574 24.496075 81 76 84
-2.372373 7.614662 24.516302 81 77 85
-2.374333 7.673848 24.536564 81 76 86
-2.372373 7.720360 24.516302 79 75 87
-2.372373 7.773209 24.516302 77 74 86
-2.382208 7.858504 24.617945 76 74 86
-2.386166 7.924714 24.658838 76 73 85
-2.416269 8.078516 24.969927 76 73 85
-2.416269 8.132342 24.969927 77 73 85
-2.406150 8.151889 24.865362 78 73 86
-2.404137 8.198624 24.844555 78 74 87
-2.398116 8.231516 24.782339 80 74 88
-2.394120 8.271130 24.741035 82 75 88
-2.394120 8.324463 24.741035 84 75 89
-2.609395 9.131113 26.965706 84 75 89
-2.609395 9.189242 26.965706 85 74 89
-2.599949 9.213897 26.868092 85 74 89
-2.599949 9.271815 26.868092 85 75 89
-2.599949 9.329734 26.868092 85 76 89
-2.602304 9.396155 26.892429 86 77 89
-2.602304 9.454126 26.892429 87 79 90
-2.602304 9.512097 26.892429 89 81 90
-2.602304 9.570068 26.892429 90 82 91
-6.472220 -15.029135 68.408394 166 151 155
-6.472220 -14.881669 68.408394 169 154 158
-6.472220 -14.734204 68.408394 170 155 160
-6.427788 -14.486601 67.938766 169 154 160
-6.413113 -14.307407 67.783661 168 153 159
-6.383962 -14.096919 67.475548 167 152 157
-6.355075 -13.888336 67.170235 166 150 155
-6.340730 -13.712516 67.018608 165 149 154
-6.355075 -13.598743 67.170235 164 148 153
-6.398504 -13.545887 67.629250 163 147 152
-6.355075 -13.309151 67.170235 163 146 151
-6.283989 -13.017102 66.418884 163 146 151
-6.200758 -12.703409 65.539169 162 145 150
-6.119702 -12.397919 64.682442 162 144 150
-6.066833 -12.152580 64.123634 163 144 150
-6.040739 -11.962676 63.847832 164 143 151
-6.014868 -11.774400 63.574394 166 143 151
-6.002016 -11.612489 63.438553 167 144 151
-6.040739 -11.549773 63.847832 169 145 151
-6.053757 -11.436734 63.985435 172 146 152
-6.053757 -11.298803 63.985435 175 147 152
-5.989218 -11.041886 63.303288 177 149 153
-5.989218 -10.905425 63.303288 180 150 153
-5.976475 -10.746052 63.168602 183 151 156
-5.976475 -10.609882 63.168602 186 152 158
-5.938570 -10.407282 62.767956 189 153 161
-5.926041 -10.250305 62.635532 192 154 164
-5.913565 -10.093988 62.503666 195 154 165
-5.864182 -9.876084 61.981716 197 154 166
-5.839799 -9.701963 61.723995 198 154 165
-5.839799 -9.568908 61.723995 197 152 163
-5.864182 -9.475249 61.981716 197 151 162
-5.864182 -9.341638 61.981716 196 149 160
-5.864182 -9.208026 61.981716 195 147 158
-5.839799 -9.036683 61.723995 196 147 157
-5.779719 -8.812026 61.088974 197 146 156
-5.709234 -8.574481 60.343987 198 146 157
-5.709234 -8.444400 60.343987 200 147 158
-5.697654 -8.297454 60.221588 201 148 159
-5.697654 -8.167636 60.221588 202 149 160
-5.697654 -8.037819 60.221588 204 152 161
-5.697654 -7.908001 60.221588 206 154 161
-5.697654 -7.778183 60.221588 207 155 160
-5.651797 -7.586810 59.736904 207 155 159
-5.651797 -7.458037 59.736904 207 156 159
-5.606673 -7.270748 59.259964 207 157 159
-5.640449 -7.057519 59.616951 207 158 162
-5.464870 -0.487635 57.761173 219 179 193
-5.475523 -0.363829 57.873768 223 180 194
-5.454259 -0.238145 57.649014 226 180 195
-5.412222 -0.112995 57.204704 231 182 197
-5.412222 0.010319 57.204704 236 185 200
-5.412222 0.133633 57.204704 237 186 200
-5.412222 0.256947 57.204704 232 181 194
-5.412222 0.380261 57.204704 225 175 189
-5.422670 0.504547 57.315140 221 171 186
-5.412222 0.626889 57.204704 219 169 184
-5.381117 0.745892 56.875942 218 167 183
-5.381117 0.868497 56.875942 219 168 185
-5.433159 1.000688 57.425999 220 168 186
-5.454259 1.128846 57.649014 218 167 184
-5.464870 1.255555 57.761173 216 165 182
-5.464870 1.380069 57.761173 216 165 181
-5.464870 1.504583 57.761173 217 168 182
-5.464870 1.629096 57.761173 221 173 186
-5.475523 1.757028 57.873768 226 179 191
-5.464870 1.878124 57.761173 227 181 192
-5.464870 2.002637 57.761173 228 182 192
-5.454259 2.123020 57.649014 229 183 193
-5.443689 2.242937 57.537292 230 184 194
-5.422670 2.357829 57.315140 229 183 193
-5.422670 2.481381 57.315140 227 181 191
-5.422670 2.604933 57.315140 224 179 189
-5.433159 2.733763 57.425999 222 177 188
-5.443689 2.863092 57.537292 224 176 189
-5.454259 2.992923 57.649014 226 176 190
-5.443689 3.111154 57.537292 225 173 189
-5.443689 3.235185 57.537292 224 170 187
-5.443689 3.359216 57.537292 225 169 186
-5.443689 3.483247 57.537292 225 169 186
-5.443689 3.607278 57.537292 227 169 186
-5.454259 3.738554 57.649014 225 167 184
-5.454259 3.862826 57.649014 217 158 175
-5.464870 3.994855 57.761173 214 156 173
-5.475523 4.127398 57.873768 218 160 177
-5.475523 4.252155 57.873768 217 160 178
-5.475523 4.376911 57.873768 215 158 175
-5.486217 4.510460 57.986801 216 159 176
-5.486217 4.635460 57.986801 220 163 181
-5.486217 4.760460 57.986801 224 167 185
-5.486217 4.885460 57.986801 226 168 185
-5.496954 5.020265 58.100277 225 167 182
-5.496954 5.145510 58.100277 223 165 177
-5.486217 5.260460 57.986801 228 173 184
-5.486217 5.385460 57.986801 242 195 205
-5.486217 5.510460 57.986801 251 213 221
-5.486217 5.635460 57.986801 246 203 210
-5.486217 5.760460 57.986801 234 180 187
-5.475523 5.873987 57.873768 230 174 178
-5.475523 5.998744 57.873768 230 175 177
-5.475523 6.123500 57.873768 223 170 168
-5.475523 6.248256 57.873768 222 176 170
-5.464870 6.360614 57.761173 233 201 194
-5.454259 6.472535 57.649014 244 223 216
-5.454259 6.596807 57.649014 250 224 217
-5.454259 6.721078 57.649014 253 219 214
-5.464870 6.858668 57.761173 252 215 213
-5.475523 6.996794 57.873768 240 195 197
-5.486217 7.135460 57.986801 207 158 162
-5.486217 7.260460 57.986801 181 133 138
-5.486217 7.385460 57.986801 188 143 147
-5.475523 7.495820 57.873768 204 162 165
-5.475523 7.620576 57.873768 203 165 168
-5.486217 7.760460 57.986801 192 158 161
-5.529416 7.947550 58.443390 180 148 152
-5.709234 8.336088 60.343987 161 134 136
-5.791636 8.588362 61.214931 139 116 116
-5.803602 8.738338 61.341408 159 139 138
-5.803602 8.870569 61.341408 200 185 181
-5.827683 9.040156 61.595940 173 162 157
-4.328110 7.700086 45.746136 106 99 112
-4.275408 7.703737 45.189106 105 98 112
-4.268911 7.789294 45.120430 105 98 113
-4.255975 7.862660 44.983700 104 97 114
-5.803602 11.382966 61.341408 105 98 115
-3.720455 7.381928 39.323498 104 97 113
-5.767851 11.575679 60.963535 103 96 112
-5.767851 11.707095 60.963535 102 95 111
-5.767851 11.838512 60.963535 100 94 110
-5.709234 11.848284 60.343987 99 93 109
-3.110679 6.880792 32.878452 95 91 104
-3.086751 6.898193 32.625542 95 90 103
-3.079982 6.953241 32.553993 95 89 101
-3.056522 6.969919 32.306030 94 87 100
-3.023620 6.963784 31.958281 93 86 99
-2.985062 6.942992 31.550735 92 85 99
-2.972427 6.981328 31.417187 92 85 99
-2.972427 7.049053 31.417187 91 84 100
-2.975576 7.124317 31.450468 90 83 99
-2.978731 7.199741 31.483820 88 80 97
-2.978731 7.267609 31.483820 86 79 97
-2.978731 7.335478 31.483820 86 78 96
-2.978731 7.403346 31.483820 85 78 96
-2.919899 8.188519 30.861998 84 72 88
-2.907809 8.220865 30.734205 83 72 87
-2.886889 8.227498 30.513096 83 72 87
-2.878016 8.267782 30.419306 83 73 86
-2.340786 6.777796 24.741035 83 73 85
-2.321441 6.774674 24.536564 84 74 84
-2.313792 6.805070 24.455719 84 75 84
-2.313792 6.857789 24.455719 84 75 83
-2.319524 6.927626 24.516302 84 76 83
-2.323361 6.992023 24.556858 83 76 83
-2.323361 7.044959 24.556858 82 75 82
-2.309986 7.057036 24.415495 81 75 83
-2.304301 7.092170 24.355408 81 75 83
-2.300527 7.132969 24.315514 81 75 84
-2.300527 7.185385 24.315514 81 75 85
-2.300527 7.237802 24.315514 82 76 85
-2.311888 7.326219 24.435591 82 76 85
-2.313792 7.384972 24.455719 81 77 84
-2.313792 7.437690 24.455719 81 77 85
-2.309986 7.478088 24.415495 81 77 86
-2.309986 7.530720 24.415495 81 78 87
-2.315699 7.602107 24.475880 81 78 88
-2.319524 7.667511 24.516302 81 79 89
-2.319524 7.720360 24.516302 78 77 89
-2.321441 7.779633 24.536564 76 76 87
-2.331073 7.865026 24.638374 76 75 86
-2.342738 7.957761 24.761669 76 75 86
-2.366422 8.092128 25.011999 77 75 86
-2.366422 8.146045 25.011999 77 74 86
-2.366422 8.199963 25.011999 79 75 87
-2.362442 8.239996 24.969927 80 75 87
-2.362442 8.293823 24.969927 81 75 88
-2.362442 8.347650 24.969927 83 75 88
-2.560568 9.106067 27.064032 85 76 89
-2.553585 9.139414 26.990221 86 76 89
-2.551265 9.189242 26.965706 86 75 89
-2.542030 9.213897 26.868092 86 75 89
-2.542030 9.271815 26.868092 85 76 90
-2.544333 9.338184 26.892429 86 77 90
-2.544333 9.396155 26.892429 87 78 90
-2.544333 9.454126 26.892429 88 80 91
-2.544333 9.512097 26.892429 89 81 91
-2.548950 9.587437 26.941236 91 83 92
-6.310215 -14.994585 68.251129 166 153 156
-6.310215 -14.847459 68.251129 170 157 160
-6.310215 -14.700333 68.251129 171 157 161
-6.281335 -14.486601 67.938766 169 155 160
-6.252718 -14.274817 67.629250 168 154 159
-6.224361 -14.064954 67.322548 168 152 157
-6.196260 -13.856985 67.018608 166 151 156
-6.182305 -13.681632 66.867661 165 150 154
-6.182305 -13.537488 66.867661 164 149 153
-6.210279 -13.453947 67.170235 163 148 152
-6.210279 -13.309151 67.170235 164 148 153
-6.140813 -13.017102 66.418884 163 148 153
-6.059478 -12.703409 65.539169 163 147 153
-5.980269 -12.397919 64.682442 163 147 153
-5.928603 -12.152580 64.123634 164 146 153
-5.890436 -11.937005 63.710819 165 145 153
-5.865263 -11.749241 63.438553 167 145 153
-5.865263 -11.612489 63.438553 168 145 153
-5.890436 -11.524988 63.710819 170 146 153
-5.915826 -11.436734 63.985435 173 146 153
-5.915826 -11.298803 63.985435 176 148 154
-5.877823 -11.089174 63.574394 179 149 154
-5.865263 -10.928728 63.438553 181 151 155
-5.852758 -10.768965 63.303288 184 151 157
-5.840305 -10.609882 63.168602 186 151 159
-5.815558 -10.429332 62.900936 189 152 161
-5.803263 -10.271976 62.767956 192 153 163
-5.766688 -10.072783 62.372356 195 154 165
-5.718632 -9.855510 61.852589 199 155 167
-5.706743 -9.701963 61.723995 200 156 167
-5.706743 -9.568908 61.723995 199 154 164
-5.718632 -9.455509 61.852589 196 151 161
-5.718632 -9.322176 61.852589 194 147 158
-5.718632 -9.188843 61.852589 194 146 157
-5.706743 -9.036683 61.723995 196 146 157
-5.648032 -8.812026 61.088974 198 146 158
-5.579153 -8.574481 60.343987 199 146 158
-5.579153 -8.444400 60.343987 200 147 158
-5.567836 -8.297454 60.221588 201 148 159
-5.567836 -8.167636 60.221588 202 149 159
-5.567836 -8.037819 60.221588 204 150 159
-5.567836 -7.908001 60.221588 205 152 159
-5.534160 -7.731138 59.857342 206 153 158
-5.523025 -7.586810 59.736904 207 154 156
-5.478929 -7.398492 59.259964 208 156 156
-5.478929 -7.270748 59.259964 208 156 157
-5.489887 -7.157289 59.378483 207 156 157
-5.489887 -7.029289 59.378483 207 157 159
-5.511934 -6.929005 59.616951 207 158 161
-6.443529 -7.348931 69.693054 211 163 172
-6.339361 -7.082320 68.566376 213 165 174
-6.113460 -6.687404 66.123032 212 165 174
-5.340357 -0.487635 57.761173 221 181 195
-5.340357 -0.363122 57.761173 225 182 197
-5.329987 -0.238145 57.649014 229 182 198
-5.299119 -0.113213 57.315140 233 183 199
-5.288908 0.010319 57.204704 237 186 201
-5.288908 0.133633 57.204704 237 186 201
-5.288908 0.256947 57.204704 233 182 196
-5.299119 0.380995 57.315140 226 176 189
-5.299119 0.504547 57.315140 221 171 185
-5.299119 0.628099 57.315140 220 170 184
-5.258512 0.745892 56.875942 222 171 186
-5.258512 0.868497 56.875942 223 171 187
-5.309368 1.000688 57.425999 222 169 186
-5.329987 1.128846 57.649014 218 165 182
-5.340357 1.255555 57.761173 217 164 180
-5.350767 1.382759 57.873768 219 166 181
-5.350767 1.507516 57.873768 220 169 182
-5.361217 1.635460 57.986801 221 172 184
-5.361217 1.760460 57.986801 224 176 187
-5.350767 1.881785 57.873768 227 178 189
-5.340357 2.002637 57.761173 229 181 192
-5.329987 2.123020 57.649014 231 184 195
-5.319658 2.242937 57.537292 234 186 197
-5.299119 2.357829 57.315140 233 185 196
-5.288908 2.476600 57.204704 227 180 191
-5.299119 2.604933 57.315140 223 178 189
-5.299119 2.728485 57.315140 223 178 189
-5.309368 2.857554 57.425999 224 178 190
-5.319658 2.987123 57.537292 226 177 191
-5.319658 3.111154 57.537292 224 172 188
-5.319658 3.235185 57.537292 224 170 187
-5.319658 3.359216 57.537292 225 170 186
-5.319658 3.483247 57.537292 224 167 184
-5.319658 3.607278 57.537292 222 165 181
-5.319658 3.731309 57.537292 220 162 179
-5.329987 3.862826 57.649014 217 159 176
-5.329987 3.987098 57.649014 218 161 178
-5.340357 4.119369 57.761173 221 164 181
-5.340357 4.243882 57.761173 217 160 178
-5.350767 4.376911 57.873768 214 158 174
-5.350767 4.501667 57.873768 221 164 181
-5.361217 4.635460 57.986801 229 172 189
-5.361217 4.760460 57.986801 231 173 190
-5.361217 4.885460 57.986801 230 171 186
-5.361217 5.010460 57.986801 226 167 180
-5.361217 5.135460 57.986801 222 163 174
-5.361217 5.260460 57.986801 231 176 186
-5.361217 5.385460 57.986801 247 204 212
-5.361217 5.510460 57.986801 253 218 224
-5.361217 5.635460 57.986801 242 197 201
-5.361217 5.760460 57.986801 225 169 173
-5.350767 5.873987 57.873768 220 164 166
-5.350767 5.998744 57.873768 223 168 168
-5.350767 6.123500 57.873768 227 176 172
-5.350767 6.248256 57.873768 237 194 189
-5.329987 6.348263 57.649014 249 222 215
-5.329987 6.472535 57.649014 254 239 232
-5.319658 6.584022 57.537292 254 234 228
-5.329987 6.721078 57.649014 254 222 217
-5.329987 6.845350 57.649014 253 213 212
-5.350767 6.996794 57.873768 243 198 201
-5.361217 7.135460 57.986801 212 164 169
-5.361217 7.260460 57.986801 182 135 140
-5.361217 7.385460 57.986801 187 141 146
-5.350767 7.495820 57.873768 206 163 168
-5.350767 7.620576 57.873768 205 168 172
-5.361217 7.760460 57.986801 191 158 162
-5.403432 7.947550 58.443390 178 149 153
-5.567836 8.319180 60.221588 161 136 139
-5.659677 8.588362 61.214931 134 113 114
-5.671371 8.738338 61.341408 147 130 130
-5.671371 8.870569 61.341408 187 173 171
-5.694903 9.040156 61.595940 164 152 150
-4.229496 7.700086 45.746136 108 100 112
-4.184365 7.715481 45.257992 108 100 113
-4.184365 7.813042 45.257992 107 99 114
-5.683113 11.406533 61.468410 108 100 116
-3.635687 7.381928 39.323498 106 98 114
-3.303181 7.322931 35.727127 97 93 107
-3.039804 6.809917 32.878452 97 93 107
-3.016421 6.827863 32.625542 96 92 106
-3.009806 6.883065 32.553993 96 91 105
-2.996663 6.922877 32.411835 96 89 103
-2.986881 6.969919 32.306030 95 88 102
-2.954729 6.963784 31.958281 95 87 102
-2.910862 6.928267 31.483820 94 86 102
-2.904702 6.981328 31.417187 93 86 102
-2.904702 7.049053 31.417187 92 85 102
-2.904702 7.116778 31.417187 90 83 101
-2.910862 7.199741 31.483820 89 82 100
-2.910862 7.267609 31.483820 87 81 99
-2.907779 7.327707 31.450468 87 81 99
-2.907779 7.395504 31.450468 86 80 99
-2.853371 8.121991 30.861998 87 72 89
-2.847452 8.171531 30.797970 86 72 89
-2.835685 8.203879 30.670704 85 72 89
-2.812442 8.202209 30.419306 86 72 89
-2.795258 8.217266 30.233444 86 73 88
-2.287453 6.777796 24.741035 86 74 87
-2.276073 6.797144 24.617945 86 75 86
-2.264805 6.816300 24.496075 86 76 86
-2.261074 6.857789 24.455719 86 77 85
-2.266675 6.927626 24.516302 85 77 85
-2.266675 6.980475 24.516302 84 77 85
-2.257355 7.004404 24.415495 83 76 84
-2.248111 7.028137 24.315514 81 75 83
-2.244434 7.068974 24.275749 80 75 84
-2.235296 7.092309 24.176907 80 75 84
-2.228039 7.121230 24.098412 80 75 84
-2.228039 7.173178 24.098412 80 75 85
-2.255500 7.314178 24.395433 80 76 85
-2.259213 7.378893 24.435591 80 77 85
-2.257355 7.425457 24.415495 80 77 86
-2.253648 7.465809 24.375404 81 78 88
-2.257355 7.530720 24.415495 82 79 90
-2.259213 7.589593 24.435591 82 79 91
-2.266675 7.667511 24.516302 82 79 91
-2.262938 7.707630 24.475880 79 78 89
-2.274187 7.798969 24.597549 76 77 88
-2.279853 7.871558 24.658838 76 77 87
-2.289361 7.957761 24.761669 77 77 87
-2.312505 8.092128 25.011999 77 77 88
-2.322287 8.180504 25.117802 78 77 88
-2.334136 8.276663 25.245955 80 76 88
-2.582261 9.216703 27.929672 81 76 88
-2.546330 9.147825 27.541040 82 76 88
-2.525247 9.130961 27.313011 83 76 88
-2.513685 9.147761 27.187950 85 76 89
-2.502227 9.164408 27.064032 86 77 90
-2.495403 9.197596 26.990221 86 77 90
-2.486362 9.222242 26.892429 86 76 90
-2.486362 9.280213 26.892429 86 77 91
-2.486362 9.338184 26.892429 87 78 91
-2.488616 9.404674 26.916811 88 79 92
-2.488616 9.462698 26.916811 89 80 92
-2.488616 9.520721 26.916811 90 81 93
-6.163088 -14.847459 68.251129 170 158 161
-6.163088 -14.700333 68.251129 171 158 161
-6.120875 -14.453526 67.783661 169 156 160
-6.093053 -14.242373 67.475548 168 155 159
-6.065483 -14.033133 67.170235 168 154 158
-6.051791 -13.856985 67.018608 166 152 156
-6.038161 -13.681632 66.867661 165 151 154
-6.024592 -13.507067 66.717400 164 150 154
-6.051791 -13.423576 67.018608 164 150 154
-6.051791 -13.279107 67.018608 164 150 155
-6.011084 -13.046288 66.567810 163 150 155
-5.957652 -12.788099 65.976097 164 149 156
-5.892183 -12.506911 65.251083 164 149 156
-5.815495 -12.205302 64.401825 165 148 156
-5.765470 -11.962676 63.847832 166 147 156
-5.740778 -11.774400 63.574394 168 146 155
-5.728511 -11.612489 63.438553 169 146 154
-5.765470 -11.549773 63.847832 171 146 154
-5.802907 -11.486243 64.262428 174 147 154
-5.790374 -11.323206 64.123634 177 148 156
-5.777895 -11.160872 63.985435 180 149 157
-5.740778 -10.952129 63.574394 183 150 158
-5.728511 -10.791975 63.438553 185 151 160
-5.704135 -10.609882 63.168602 187 152 161
-5.692024 -10.451474 63.034485 190 152 163
-5.667956 -10.271976 62.767956 192 152 164
-5.620426 -10.051665 62.241596 195 154 166
-5.585299 -9.855510 61.852589 199 157 168
-5.585299 -9.722177 61.852589 201 158 169
-5.573687 -9.568908 61.723995 200 156 167
-5.585299 -9.455509 61.852589 197 152 162
-5.585299 -9.322176 61.852589 195 149 159
-5.585299 -9.188843 61.852589 195 147 158
-5.562123 -9.017935 61.595940 196 146 158
-5.493736 -8.775911 60.838612 197 147 158
-5.449072 -8.574481 60.343987 198 147 158
-5.438019 -8.427271 60.221588 200 147 158
-5.438019 -8.297454 60.221588 201 148 159
-5.427011 -8.151102 60.099682 202 148 159
-5.405128 -7.989202 59.857342 203 149 158
-5.405128 -7.860170 59.857342 205 150 157
-5.394252 -7.715582 59.736904 206 152 156
-5.383420 -7.571575 59.616951 207 153 155
-5.340525 -7.383754 59.141918 208 155 155
-5.329907 -7.241838 59.024338 209 156 155
-5.340525 -7.128774 59.141918 207 155 154
-5.361887 -7.029289 59.378483 205 155 155
-5.361887 -6.901289 59.378483 206 158 159
-5.383420 -6.800491 59.616951 208 160 163
-6.263886 -7.464123 69.367386 211 162 170
-6.191555 -7.230126 68.566376 211 162 171
-5.970921 -6.829943 66.123032 212 164 173
-5.765470 -6.457300 63.847832 211 164 174
-5.765470 -6.319665 63.847832 211 164 174
-5.205715 -0.859504 57.649014 224 190 204
-5.215843 -0.736663 57.761173 223 188 202
-5.226010 -0.488586 57.873768 223 184 199
-5.205715 -0.362417 57.649014 227 184 200
-5.195627 -0.237683 57.537292 232 185 201
-5.175566 -0.113213 57.315140 235 185 203
-5.165594 0.010319 57.204704 236 185 201
-5.165594 0.133633 57.204704 236 184 199
-5.165594 0.256947 57.204704 234 182 196
-5.175566 0.380995 57.315140 227 177 190
-5.185577 0.505523 57.425999 222 171 185
-5.175566 0.628099 57.315140 224 172 186
-5.155660 0.748761 57.094696 228 176 189
-5.155660 0.871837 57.094696 228 175 190
-5.185577 1.000688 57.425999 225 171 186
-5.205715 1.128846 57.649014 219 164 180
-5.226010 1.258003 57.873768 219 165 179
-5.226010 1.382759 57.873768 222 168 182
-5.236217 1.510460 57.986801 223 169 182
-5.236217 1.635460 57.986801 222 170 182
-5.236217 1.760460 57.986801 224 173 184
-5.226010 1.881785 57.873768 227 176 188
-5.215843 2.002637 57.761173 231 181 192
-5.195627 2.118906 57.537292 236 186 197
-5.175566 2.234277 57.315140 238 189 200
-5.165594 2.353286 57.204704 235 186 198
-5.145765 2.467093 56.985111 228 180 192
-5.155660 2.594914 57.094696 223 177 189
-5.155660 2.717991 57.094696 223 177 189
-5.175566 2.852038 57.315140 224 178 191
-5.185577 2.981345 57.425999 226 177 192
-5.175566 3.099142 57.315140 225 174 190
-5.175566 3.222694 57.315140 225 172 188
-5.175566 3.346246 57.315140 225 170 186
-5.175566 3.469798 57.315140 222 167 182
-5.185577 3.600301 57.425999 220 165 180
-5.185577 3.724092 57.425999 218 163 179
-5.195627 3.855340 57.537292 218 162 178
-5.205715 3.987098 57.649014 221 166 182
-5.205715 4.111370 57.649014 223 166 183
-5.205715 4.235641 57.649014 217 161 177
-5.215843 4.368396 57.761173 215 159 174
-5.226010 4.501667 57.873768 228 173 188
-5.226010 4.626424 57.873768 240 185 200
-5.236217 4.760460 57.986801 239 182 196
-5.236217 4.885460 57.986801 234 176 188
-5.236217 5.010460 57.986801 229 169 180
-5.236217 5.135460 57.986801 225 164 174
-5.236217 5.260460 57.986801 234 180 188
-5.236217 5.385460 57.986801 249 209 214
-5.236217 5.510460 57.986801 252 214 218
-5.236217 5.635460 57.986801 239 190 192
-5.226010 5.749231 57.873768 225 168 168
-5.226010 5.873987 57.873768 222 166 166
-5.226010 5.998744 57.873768 227 172 170
-5.226010 6.123500 57.873768 234 183 178
-5.226010 6.248256 57.873768 244 199 195
-5.215843 6.360614 57.761173 252 218 213
-5.205715 6.472535 57.649014 254 231 225
-5.195627 6.584022 57.537292 254 232 228
-5.205715 6.721078 57.649014 254 229 227
-5.205715 6.845350 57.649014 252 220 221
-5.226010 6.996794 57.873768 240 198 201
-5.236217 7.135460 57.986801 210 162 167
-5.236217 7.260460 57.986801 185 136 142
-5.226010 7.371063 57.873768 190 144 149
-5.226010 7.495820 57.873768 206 164 168
-5.226010 7.620576 57.873768 206 168 173
-5.236217 7.760460 57.986801 191 159 164
-5.267079 7.931936 58.328571 178 150 155
-5.427011 8.302339 60.099682 160 137 142
-5.516345 8.570690 61.088974 131 113 116
-5.527718 8.720321 61.214931 135 119 122
-5.539139 8.870569 61.341408 161 149 151
-5.550607 9.021440 61.468410 145 135 137
-4.150067 7.735845 45.958580 110 101 112
-4.111876 7.762815 45.535648 110 101 114
-4.111876 7.860975 45.535648 109 101 114
-5.620426 10.879152 62.241596 109 101 114
-3.222288 7.314129 35.684185 99 95 108
-2.968930 6.809917 32.878452 99 95 108
-2.946092 6.827863 32.625542 98 94 107
-2.926794 6.853008 32.411835 98 92 106
-2.920418 6.907794 32.341221 97 90 105
-2.904597 6.939713 32.166027 97 88 104
-2.879638 6.948824 31.889626 96 87 103
-2.839982 6.920928 31.450468 95 86 103
-2.836977 6.981328 31.417187 94 86 103
-2.836977 7.049053 31.417187 92 85 103
-2.839982 7.124317 31.450468 90 84 102
-2.842994 7.199741 31.483820 90 83 102
-2.842994 7.267609 31.483820 89 83 102
-2.839982 7.327707 31.450468 89 83 102
-2.839982 7.395504 31.450468 89 83 102
-3.802757 9.993412 42.112400 90 82 101
-3.802757 10.174973 42.112400 97 86 104
-3.802757 10.265753 42.112400 99 87 103
-2.783949 8.047098 30.829950 88 74 89
-2.781062 8.105141 30.797970 87 73 90
-2.772434 8.146179 30.702421 86 73 90
-2.761013 8.178533 30.575945 86 73 90
-2.746868 8.202209 30.419306 87 74 90
-2.730085 8.217266 30.233444 87 75 90
-2.234119 6.777796 24.741035 88 75 89
-2.230402 6.819763 24.699869 88 76 89
-2.215656 6.827567 24.536564 88 77 88
-2.213826 6.874777 24.516302 88 78 88
-2.217488 6.939086 24.556858 88 79 87
-2.217488 6.992023 24.556858 87 78 86
-2.204723 7.004404 24.415495 84 77 85
-2.193898 7.022386 24.295616 82 75 84
-2.183179 7.040192 24.176907 80 74 84
-2.176090 7.069282 24.098412 80 74 84
-2.176090 7.121230 24.098412 79 74 84
-2.170804 7.155754 24.039873 79 75 85
-2.176090 7.225126 24.098412 79 75 85
-2.657030 8.885387 29.424423 79 76 86
-2.201103 7.413264 24.375404 80 77 87
-2.199297 7.459684 24.355408 80 78 89
-2.201103 7.518354 24.375404 82 79 91
-2.210176 7.602107 24.475880 82 80 92
-2.224849 7.705689 24.638374 82 80 91
-2.211999 7.713990 24.496075 79 78 88
-2.224849 7.811913 24.638374 78 77 87
-2.226697 7.871558 24.658838 78 77 87
-2.234119 7.951129 24.741035 79 78 87
-2.256686 8.085316 24.990944 80 78 88
-2.268142 8.180504 25.117802 81 79 88
-2.522054 9.156496 27.929672 82 78 88
-2.553279 9.330814 28.275469 83 78 88
-2.466369 9.189839 27.313011 85 78 89
-2.455076 9.206369 27.187950 86 78 90
-2.439439 9.205965 27.014778 86 78 91
-2.428391 9.222242 26.892429 86 78 91
-2.428391 9.280213 26.892429 88 79 92
-2.428391 9.338184 26.892429 90 80 94
-2.430592 9.404674 26.916811 91 81 94
-2.432798 9.471285 26.941236 91 82 93
-2.550850 9.991775 28.248566 92 82 94
-6.002164 -14.813405 68.094589 166 155 159
-6.002164 -14.666615 68.094589 168 156 160
-5.974757 -14.453526 67.783661 168 156 160
-5.920686 -14.177929 67.170235 168 155 159
-5.920686 -14.033133 67.170235 167 155 158
-5.907321 -13.856985 67.018608 166 153 156
-5.880772 -13.650887 66.717400 165 152 155
-5.880772 -13.507067 66.717400 164 151 155
-5.880772 -13.363246 66.717400 164 151 155
-5.894017 -13.249200 66.867661 164 151 157
-5.894017 -13.105055 66.867661 164 150 157
-5.841392 -12.845189 66.270630 164 150 158
-5.789698 -12.589922 65.684166 165 150 159
-5.751524 -12.366252 65.251083 166 149 159
-5.664380 -12.040356 64.262428 167 148 158
-5.627835 -11.825042 63.847832 168 147 156
-5.627835 -11.687407 63.847832 169 146 155
-5.676667 -11.649988 64.401825 171 146 155
-5.676667 -11.511160 64.401825 174 147 155
-5.676667 -11.372331 64.401825 178 149 157
-5.652145 -11.184978 64.123634 182 151 159
-5.615758 -10.975632 63.710819 185 153 161
-5.603733 -10.815084 63.574394 187 153 162
-5.579836 -10.632504 63.303288 189 153 163
-5.556143 -10.451474 63.034485 191 153 164
-5.532650 -10.271976 62.767956 193 154 165
-5.486254 -10.051665 62.241596 195 156 167
-5.451965 -9.855510 61.852589 199 159 170
-5.451965 -9.722177 61.852589 202 161 171
-5.451965 -9.588842 61.852589 201 159 169
-5.451965 -9.455509 61.852589 198 155 164
-5.451965 -9.322176 61.852589 195 151 160
-5.440631 -9.169739 61.723995 194 148 158
-5.418102 -8.999264 61.468410 195 147 158
-5.340701 -8.740091 60.590290 196 147 159
-5.308201 -8.557088 60.221588 198 147 159
-5.297456 -8.410212 60.099682 199 147 159
-5.297456 -8.280657 60.099682 201 147 159
-5.276095 -8.118235 59.857342 202 148 158
-5.276095 -7.989202 59.857342 204 149 157
-5.265480 -7.844355 59.736904 205 149 155
-5.265480 -7.715582 59.736904 206 151 154
-5.244376 -7.556402 59.497478 208 153 154
-5.213035 -7.383754 59.141918 210 156 155
-5.202671 -7.241838 59.024338 210 157 155
-5.202671 -7.114602 59.024338 207 155 153
-5.223440 -7.015258 59.259964 206 155 153
-5.233887 -6.901289 59.378483 208 159 158
-5.233887 -6.773289 59.378483 211 163 164
-6.085915 -7.429406 69.044746 212 162 170
-6.002164 -7.180377 68.094589 213 163 172
-5.815430 -6.814765 65.976097 212 163 172
-5.627835 -6.457300 63.847832 210 162 172
-5.627835 -6.319665 63.847832 210 163 172
-5.081443 -0.983776 57.649014 224 193 206
-5.071596 -0.857838 57.537292 226 194 207
-5.081443 -0.735232 57.649014 225 192 205
-5.081443 -0.362417 57.649014 229 187 203
-5.071596 -0.237683 57.537292 233 187 204
-5.052014 -0.113213 57.315140 236 187 204
-5.042280 0.010319 57.204704 237 186 203
-5.042280 0.133633 57.204704 236 184 200
-5.052014 0.257443 57.315140 233 182 196
-5.061786 0.381732 57.425999 228 177 190
-5.061786 0.505523 57.425999 225 174 187
-5.061786 0.629314 57.425999 228 176 189
-5.042280 0.750203 57.204704 233 181 194
-5.042280 0.873517 57.204704 234 181 195
-5.061786 1.000688 57.425999 228 174 188
-5.081443 1.128846 57.649014 221 165 180
-5.101254 1.258003 57.873768 221 165 179
-5.111217 1.385460 57.986801 224 168 181
-5.111217 1.510460 57.986801 224 168 181
-5.111217 1.635460 57.986801 223 168 181
-5.101254 1.757028 57.873768 224 170 183
-5.091330 1.878124 57.761173 227 173 186
-5.071596 1.994875 57.537292 231 178 191
-5.052014 2.110725 57.315140 237 184 197
-5.032583 2.225684 57.094696 238 187 198
-4.994167 2.330831 56.658859 234 184 196
-4.994167 2.452968 56.658859 229 180 193
-4.984654 2.570201 56.550938 225 178 190
-4.984654 2.692106 56.550938 224 177 190
-5.022924 2.835615 56.985111 225 176 191
-5.022924 2.958456 56.985111 226 176 191
-5.013301 3.075394 56.875942 225 174 189
-5.013301 3.197999 56.875942 224 172 187
-5.042280 3.339799 57.204704 224 170 185
-5.042280 3.463113 57.204704 222 168 182
-5.052014 3.593350 57.315140 220 166 182
-5.052014 3.716902 57.315140 220 166 182
-5.061786 3.847883 57.425999 220 167 182
-5.071596 3.979371 57.537292 224 170 186
-5.081443 4.111370 57.649014 225 170 187
-5.081443 4.235641 57.649014 219 164 180
-5.081443 4.359913 57.649014 218 162 176
-5.091330 4.492909 57.761173 231 177 190
-5.101254 4.626424 57.873768 245 193 204
-5.101254 4.751180 57.873768 244 188 199
-5.111217 4.885460 57.986801 238 179 189
-5.111217 5.010460 57.986801 233 173 181
-5.111217 5.135460 57.986801 230 171 177
-5.111217 5.260460 57.986801 238 186 192
-5.111217 5.385460 57.986801 250 210 215
-5.111217 5.510460 57.986801 250 210 213
-5.101254 5.624475 57.873768 240 187 189
-5.101254 5.749231 57.873768 231 173 172
-5.091330 5.862559 57.761173 230 173 172
-5.091330 5.987073 57.761173 234 178 176
-5.101254 6.123500 57.873768 239 185 183
-5.101254 6.248256 57.873768 246 197 194
-5.091330 6.360614 57.761173 251 209 207
-5.081443 6.472535 57.649014 253 217 215
-5.071596 6.584022 57.537292 253 223 221
-5.081443 6.721078 57.649014 253 229 228
-5.081443 6.845350 57.649014 250 218 221
-5.101254 6.996794 57.873768 233 188 193
-5.111217 7.135460 57.986801 205 154 160
-5.111217 7.260460 57.986801 190 140 146
-5.101254 7.371063 57.873768 196 148 154
-5.101254 7.495820 57.873768 205 161 166
-5.101254 7.620576 57.873768 203 165 170
-5.111217 7.760460 57.986801 190 159 164
-5.131261 7.916383 58.214199 177 151 157
-5.276095 8.268862 59.857342 157 137 143
-5.362589 8.535564 60.838612 129 113 118
-5.384657 8.702377 61.088974 124 112 117
-5.395760 8.852280 61.214931 137 127 133
-5.406908 9.002801 61.341408 130 122 129
-5.567965 9.951820 63.168602 114 106 117
-5.567965 10.087991 63.168602 112 105 115
-5.579836 10.245960 63.303288 110 104 113
-4.063577 7.759869 46.101307 112 105 115
-4.057277 7.847063 46.029835 116 108 119
-5.474777 10.722501 62.111385 115 107 120
-5.486254 10.879152 62.241596 110 103 116
-2.937086 6.829804 33.321259 99 96 108
-2.907715 6.832617 32.988049 99 95 107
-2.878926 6.835374 32.661434 98 93 106
-2.872605 6.890621 32.589729 98 92 106
-3.119122 7.558230 35.386463 98 90 106
-3.119122 7.634512 35.386463 98 89 105
-2.772186 6.853131 31.450468 98 88 105
-2.746006 6.855567 31.153454 97 87 105
-2.769252 6.981328 31.417187 95 86 105
-2.769252 7.049053 31.417187 93 85 104
-2.778071 7.139443 31.517242 92 85 103
-2.778071 7.207384 31.517242 90 84 102
-2.775126 7.267609 31.483820 91 84 102
-2.772186 7.327707 31.450468 93 86 104
-2.772186 7.395504 31.450468 94 86 105
-3.706719 9.979257 42.052750 92 81 100
-3.711976 10.084192 42.112400 88 77 96
-3.711976 10.174973 42.112400 89 78 95
-3.701476 10.236712 41.993271 91 79 95
-3.701476 10.327235 41.993271 91 79 93
-2.695101 7.914887 30.575945 89 76 90
-2.695101 7.980799 30.575945 88 75 90
-2.695101 8.046710 30.575945 86 74 91
-2.695101 8.112621 30.575945 86 74 91
-2.686800 8.153342 30.481768 86 75 91
-2.678550 8.193813 30.388170 87 75 92
-2.670350 8.234036 30.295145 87 76 92
-2.188080 6.800465 24.823782 88 76 91
-2.180786 6.831130 24.741035 88 77 91
-2.162763 6.827567 24.536564 89 78 90
-2.162763 6.880459 24.536564 89 80 90
-2.166344 6.944831 24.577187 90 80 90
-2.166344 6.997811 24.577187 88 80 89
-2.152092 7.004404 24.415495 85 78 86
-2.139774 7.016644 24.275749 83 76 85
-2.131061 7.040192 24.176907 81 76 85
-2.124142 7.069282 24.098412 80 75 84
-2.122420 7.115455 24.078867 80 75 85
-2.118983 7.155754 24.039873 80 74 85
-2.591033 8.813223 29.395288 79 75 85
-2.603924 8.920752 29.541534 79 75 86
-2.593601 8.948816 29.424423 79 76 88
-2.872605 9.981730 32.589729 80 77 89
-2.869455 10.040960 32.553993 82 79 91
-2.875762 10.133358 32.625542 82 80 91
-2.869455 10.181311 32.553993 82 79 90
-2.856925 10.206720 32.411835 80 78 88
-2.180786 7.844463 24.741035 79 78 86
-2.178970 7.891220 24.720434 79 78 86
-2.180786 7.951129 24.741035 80 79 87
-2.202814 8.085316 24.990944 81 80 87
-2.489956 9.200148 28.248566 82 80 87
-2.489956 9.261043 28.248566 84 80 88
-2.400866 9.281978 27.237837 87 80 91
-2.370420 9.222242 26.892429 87 81 92
-2.370420 9.280213 26.892429 90 82 94
-2.370420 9.338184 26.892429 92 83 95
-2.372569 9.404674 26.916811 93 83 95
-2.530893 10.094154 28.712999 93 84 95
-5.855375 -14.813405 68.094589 163 153 157
-5.855375 -14.666615 68.094589 164 154 158
-5.828638 -14.453526 67.783661 165 155 158
-5.775890 -14.177929 67.170235 166 155 158
-5.775890 -14.033133 67.170235 166 155 158
-5.762852 -13.856985 67.018608 166 154 157
-5.736951 -13.650887 66.717400 165 153 156
-5.724088 -13.476782 66.567810 164 152 157
-5.724088 -13.333283 66.567810 164 152 157
-5.749872 -13.249200 66.867661 165 151 158
-5.749872 -13.105055 66.867661 165 151 159
-5.698534 -12.845189 66.270630 165 151 160
-5.673207 -12.645877 65.976097 166 151 162
-5.623223 -12.393490 65.394806 167 150 162
-5.561968 -12.119051 64.682442 168 149 161
-5.513916 -11.876122 64.123634 169 148 159
-5.513916 -11.737893 64.123634 170 147 157
-5.574112 -11.726298 64.823669 171 146 155
-5.574112 -11.586560 64.823669 174 147 156
-5.598560 -11.497027 65.107986 178 150 158
-5.537838 -11.233502 64.401825 184 154 162
-5.502033 -11.022941 63.985435 187 155 163
-5.478419 -10.838293 63.710819 188 155 164
-5.455007 -10.655223 63.438553 189 155 163
-5.431794 -10.473712 63.168602 191 155 164
-5.408778 -10.293738 62.900936 193 156 166
-5.352083 -10.051665 62.241596 195 158 168
-5.329736 -9.876084 61.981716 197 159 170
-5.318632 -9.722177 61.852589 199 161 171
-5.318632 -9.588842 61.852589 199 159 169
-5.318632 -9.455509 61.852589 196 155 165
-5.318632 -9.322176 61.852589 193 151 161
-5.307575 -9.169739 61.723995 191 148 158
-5.285597 -8.999264 61.468410 193 148 159
-5.210088 -8.740091 60.590290 196 148 160
-5.178384 -8.557088 60.221588 198 148 160
-5.167902 -8.410212 60.099682 199 148 160
-5.167902 -8.280657 60.099682 201 147 159
-5.147063 -8.118235 59.857342 203 148 158
-5.147063 -7.989202 59.857342 204 148 157
-5.136707 -7.844355 59.736904 204 148 153
-5.136707 -7.715582 59.736904 205 149 152
-5.116119 -7.556402 59.497478 210 154 155
-5.105887 -7.413289 59.378483 215 160 159
-5.085545 -7.256264 59.141918 214 160 158
-5.105887 -7.157289 59.378483 209 157 153
-5.105887 -7.029289 59.378483 206 155 152
-5.105887 -6.901289 59.378483 209 159 157
-5.105887 -6.773289 59.378483 212 163 162
-5.923303 -7.412169 68.884552 212 162 168
-5.855375 -7.180377 68.094589 213 163 170
-5.673207 -6.814765 65.976097 210 161 169
-5.490201 -6.457300 63.847832 208 160 169
-5.490201 -6.319665 63.847832 209 161 171
-4.957171 -0.983776 57.649014 224 194 207
-4.957171 -0.859504 57.649014 227 196 209
-4.947565 -0.361714 57.537292 231 192 208
-4.937995 -0.237223 57.425999 233 190 207
-4.928462 -0.113213 57.315140 237 190 207
-4.928462 0.010339 57.315140 239 191 207
-4.928462 0.133891 57.315140 237 187 203
-4.928462 0.257443 57.315140 232 182 195
-4.937995 0.381732 57.425999 229 178 191
-4.947565 0.506503 57.537292 229 178 189
-4.947565 0.630534 57.537292 234 182 193
-4.937995 0.753105 57.425999 240 190 203
-4.937995 0.876896 57.425999 242 193 205
-4.947565 1.002627 57.537292 233 180 194
-4.957171 1.128846 57.649014 224 167 181
-4.986217 1.260460 57.986801 223 165 179
-4.986217 1.385460 57.986801 225 167 181
-4.986217 1.510460 57.986801 225 167 182
-4.986217 1.635460 57.986801 225 168 183
-4.976498 1.757028 57.873768 226 169 184
-4.947565 1.870844 57.537292 226 171 185
-4.928462 1.987173 57.315140 229 174 188
-4.909506 2.102607 57.094696 232 178 191
-4.872029 2.208694 56.658859 233 180 193
-4.853505 2.321969 56.443428 231 179 193
-4.844295 2.439005 56.336323 229 178 192
-4.835120 2.555598 56.229626 226 177 191
-4.862749 2.692106 56.550938 225 176 191
-4.872029 2.819381 56.658859 225 176 190
-4.872029 2.941518 56.658859 225 175 189
-4.881345 3.069513 56.767193 224 174 188
-4.890696 3.197999 56.875942 223 171 185
-4.900083 3.326978 56.985111 221 170 183
-4.918966 3.463113 57.204704 221 168 182
-4.918966 3.586427 57.204704 222 169 184
-4.928462 3.716902 57.315140 225 172 187
-4.937995 3.847883 57.425999 225 173 188
-4.937995 3.971674 57.425999 227 174 190
-4.947565 4.103402 57.537292 229 175 192
-4.957171 4.235641 57.649014 226 171 186
-4.957171 4.359913 57.649014 222 166 180
-4.966816 4.492909 57.761173 231 177 188
-4.966816 4.617423 57.761173 244 191 200
-4.976498 4.751180 57.873768 246 191 199
-4.976498 4.875937 57.873768 241 183 191
-4.976498 5.000693 57.873768 237 178 185
-4.986217 5.135460 57.986801 236 178 184
-4.986217 5.260460 57.986801 243 192 197
-4.986217 5.385460 57.986801 252 210 214
-4.976498 5.499718 57.873768 251 208 211
-4.976498 5.624475 57.873768 245 193 193
-4.966816 5.738046 57.761173 242 185 184
-4.966816 5.862559 57.761173 242 186 184
-4.966816 5.987073 57.761173 242 188 186
-4.976498 6.123500 57.873768 244 192 191
-4.966816 6.236100 57.761173 248 199 199
-4.966816 6.360614 57.761173 252 206 207
-4.957171 6.472535 57.649014 251 205 207
-4.957171 6.596807 57.649014 249 206 207
-4.957171 6.721078 57.649014 251 212 214
-4.966816 6.858668 57.761173 243 202 206
-4.976498 6.996794 57.873768 223 173 178
-4.986217 7.135460 57.986801 204 150 156
-4.986217 7.260460 57.986801 198 147 152
-4.976498 7.371063 57.873768 202 152 158
-4.976498 7.495820 57.873768 203 159 164
-4.976498 7.620576 57.873768 199 160 166
-4.986217 7.760460 57.986801 189 157 163
-4.995975 7.900891 58.100277 176 152 158
-5.126392 8.235654 59.616951 156 138 144
-5.157461 8.414860 59.978268 128 115 123
-5.210088 8.631338 60.590290 119 109 118
-5.231441 8.797859 60.838612 124 116 127
-5.252970 8.965752 61.088974 123 116 128
-5.363327 9.691923 62.372356 115 109 121
-5.385956 9.867839 62.635532 114 108 120
-5.420262 10.066572 63.034485 111 106 117
-5.443376 10.245960 63.303288 109 105 115
-5.363327 10.498646 62.372356 119 112 123
-5.352083 10.610808 62.241596 127 120 133
-5.352083 10.744980 62.241596 124 117 131
-5.352083 10.879152 62.241596 112 105 119
-5.352083 11.013324 62.241596 105 98 113
-5.147063 12.010798 59.857342 100 97 110
-3.068442 7.237206 35.684185 100 97 109
-2.868476 6.837478 33.358700 99 96 108
-2.842921 6.847835 33.061516 99 94 107
-2.836604 6.903728 32.988049 98 93 106
-2.811612 6.913387 32.697403 99 91 106
-3.042841 7.634512 35.386463 99 90 107
-2.589192 6.561213 30.110794 100 89 107
-2.589192 6.626121 30.110794 99 88 106
-2.678849 6.922723 31.153454 97 87 106
-2.704389 7.056520 31.450468 95 86 105
-2.710131 7.207384 31.517242 92 84 101
-2.710131 7.275324 31.517242 92 84 102
-2.710131 7.343265 31.517242 96 87 105
-3.610952 9.874619 41.993271 97 87 105
-3.621196 9.993412 42.112400 92 81 99
-3.621196 10.084192 42.112400 87 75 92
-3.610952 10.146189 41.993271 88 76 92
-2.736274 7.757080 31.821266 90 78 92
-2.736274 7.825676 31.821266 91 79 91
-2.739210 7.902742 31.855410 91 79 91
-2.659316 7.938912 30.926294 89 77 91
-2.629190 7.914887 30.575945 89 76 91
-2.629190 7.980799 30.575945 87 76 91
-2.623785 8.030170 30.513096 86 76 91
-2.621092 8.087634 30.481768 86 76 92
-2.618403 8.144980 30.450504 86 76 93
-2.621092 8.219050 30.481768 87 76 93
-3.243892 10.253310 37.724579 88 77 93
-3.203191 10.204963 37.251244 88 77 93
-2.129227 6.836827 24.761669 88 78 93
-2.118625 6.855896 24.638374 89 79 93
-2.118625 6.909009 24.638374 90 80 93
-2.115115 6.950584 24.597549 90 81 92
-2.109870 6.986244 24.536564 89 80 91
-2.099460 7.004404 24.415495 86 79 88
-2.085738 7.010911 24.255917 85 78 87
-2.077253 7.034463 24.157236 83 77 86
-2.073878 7.075025 24.117987 82 76 85
-2.072194 7.121230 24.098412 81 75 85
-2.532682 8.767218 29.453613 80 75 86
-2.527667 8.813223 29.395288 80 75 86
-2.540242 8.920752 29.541534 80 76 87
-2.802353 9.911477 32.589729 80 77 89
-2.811612 10.014709 32.697403 81 78 90
-2.811612 10.085194 32.697403 81 79 91
-2.808519 10.144506 32.661434 81 79 91
-2.805432 10.203688 32.625542 81 79 90
-2.799280 10.251486 32.553993 81 79 89
-2.784017 10.265382 32.376492 81 79 88
-2.141731 7.950801 24.907082 82 80 87
-2.158025 8.065390 25.096569 82 80 87
-2.419852 9.104603 28.141462 83 81 87
-2.431375 9.208910 28.275469 84 81 87
-2.431375 9.269862 28.275469 85 82 88
-2.322969 9.264199 27.014778 89 84 94
-2.312449 9.280213 26.892429 92 85 96
-2.312449 9.338184 26.892429 93 86 97
-5.708586 -14.813405 68.094589 161 152 156
-5.708586 -14.666615 68.094589 162 153 157
-5.682519 -14.453526 67.783661 164 155 158
-5.631094 -14.177929 67.170235 165 156 158
-5.631094 -14.033133 67.170235 165 156 158
-5.631094 -13.888336 67.170235 165 155 158
-5.618382 -13.712516 67.018608 165 154 158
-5.580591 -13.476782 66.567810 165 153 158
-5.580591 -13.333283 66.567810 165 152 159
-5.605728 -13.249200 66.867661 165 152 160
-5.605728 -13.105055 66.867661 166 152 161
-5.555677 -12.845189 66.270630 167 152 163
-5.530985 -12.645877 65.976097 168 152 164
-5.506512 -12.448329 65.684166 169 151 164
-5.434374 -12.145512 64.823669 170 151 163
-5.387323 -11.901828 64.262428 171 150 162
-5.387323 -11.763300 64.262428 172 149 161
-5.422534 -11.700750 64.682442 173 149 159
-5.422534 -11.561317 64.682442 175 148 158
-5.458209 -11.497027 65.107986 179 151 159
-5.399009 -11.233502 64.401825 185 155 163
-5.399009 -11.094673 64.401825 188 157 165
-5.352566 -10.861601 63.847832 189 156 164
-5.318255 -10.655223 63.438553 189 155 163
-5.306915 -10.496044 63.303288 190 155 164
-5.284381 -10.315594 63.034485 192 156 166
-5.228873 -10.072783 62.372356 194 157 168
