ply
format ascii 1.0
element vertex 1162
property float x
property float y
property float z
property uchar red
property uchar green
property uchar blue
end_header
15.240033 -0.634364 59.857342 147 132 138
15.240033 -0.505332 59.857342 150 136 145
15.240033 -0.376299 59.857342 153 141 155
15.240033 -0.247267 59.857342 146 135 153
15.240033 -0.118235 59.857342 141 130 151
15.240033 0.010797 59.857342 152 139 163
15.240033 0.139830 59.857342 171 157 182
15.240033 0.268862 59.857342 179 164 187
15.240033 0.397894 59.857342 174 157 176
15.240033 0.526926 59.857342 168 149 165
15.240033 0.655959 59.857342 161 140 152
15.240033 0.784991 59.857342 168 148 156
15.240033 0.914023 59.857342 201 180 186
15.270822 1.045163 59.978268 218 197 200
15.301734 1.176833 60.099682 194 174 174
15.301734 1.306388 60.099682 163 143 142
15.301734 1.435942 60.099682 158 140 138
15.301734 1.565497 60.099682 172 154 152
15.270822 1.691627 59.978268 180 161 161
15.270822 1.820920 59.978268 180 161 162
15.270822 1.950213 59.978268 175 154 158
15.270822 2.079506 59.978268 172 151 156
15.301734 2.213270 60.099682 179 158 163
15.301734 2.342825 60.099682 191 173 179
15.270822 2.467385 59.978268 208 197 201
15.270822 2.596678 59.978268 209 203 206
15.270822 2.725971 59.978268 184 180 183
15.270822 2.855263 59.978268 170 168 170
15.301734 2.990598 60.099682 176 176 176
15.301734 3.120153 60.099682 188 189 185
15.301734 3.249707 60.099682 210 210 204
15.301734 3.379262 60.099682 233 233 228
15.301734 3.508817 60.099682 249 249 247
15.301734 3.638371 60.099682 254 254 254
15.301734 3.767926 60.099682 251 251 250
15.301734 3.897481 60.099682 231 228 224
15.301734 4.027035 60.099682 195 188 182
15.301734 4.156590 60.099682 183 173 169
15.270822 4.277486 59.978268 208 197 199
15.240033 4.397894 59.857342 239 232 234
15.240033 4.526927 59.857342 252 250 251
15.240033 4.655959 59.857342 254 254 254
15.240033 4.784991 59.857342 253 248 248
15.209370 4.904136 59.736904 233 221 219
15.148410 5.012736 59.497478 216 200 199
15.118114 5.130711 59.378483 233 221 219
15.087937 5.248215 59.259964 242 231 226
15.057881 5.365250 59.141918 232 222 217
15.027946 5.481820 59.024338 222 216 212
14.998128 5.597928 58.907227 189 180 179
14.909382 5.691036 58.558662 178 168 170
14.909382 5.817269 58.558662 213 206 211
14.909382 5.943502 58.558662 242 240 242
14.909382 6.069735 58.558662 248 247 248
14.938848 6.208212 58.674393 246 243 245
15.057881 6.385170 59.141918 247 245 246
15.057881 6.512661 59.141918 252 251 252
15.057881 6.640151 59.141918 253 253 253
15.087937 6.781148 59.259964 252 250 250
15.087937 6.908893 59.259964 252 250 249
15.057881 7.022621 59.141918 253 252 251
14.998128 7.121737 58.907227 254 252 252
14.938848 7.220070 58.674393 253 252 252
14.909382 7.332062 58.558662 250 247 246
14.880033 7.443613 58.443390 242 233 233
14.821680 7.539913 58.214199 238 227 226
14.821680 7.665403 58.214199 244 237 237
14.792674 7.775647 58.100277 252 248 248
14.763783 7.885460 57.986801 251 242 243
14.763783 8.010460 57.986801 233 216 218
14.763783 8.135460 57.986801 204 184 189
14.763783 8.260460 57.986801 202 186 192
14.763783 8.385460 57.986801 228 219 223
14.763783 8.510460 57.986801 241 235 239
14.763783 8.635460 57.986801 228 223 228
14.763783 8.760460 57.986801 196 190 198
14.763783 8.885460 57.986801 158 151 162
14.735003 8.992896 57.873768 162 155 166
14.735003 9.117652 57.873768 213 207 215
14.763783 9.260460 57.986801 247 244 248
14.763783 9.385460 57.986801 252 251 252
14.763783 9.510460 57.986801 251 250 251
14.821680 9.673246 58.214199 237 234 235
14.821680 9.798737 58.214199 222 217 218
14.909382 9.982949 58.558662 233 228 229
14.909382 10.109182 58.558662 233 231 232
14.938848 10.255643 58.674393 217 213 217
14.938848 10.382126 58.674393 222 217 222
21.474592 15.651578 84.344437 186 181 190
21.474592 15.833396 84.344437 180 177 183
21.353268 15.924733 83.867912 171 170 173
21.353268 16.105524 83.867912 157 156 159
21.293118 16.240438 83.631668 168 167 168
14.998128 11.693166 58.907227 234 231 231
14.938848 11.773430 58.674393 219 213 215
14.938848 11.899912 58.674393 196 186 190
15.027946 12.098123 59.024338 190 178 185
15.087937 12.274162 59.259964 193 178 188
15.118114 12.426711 59.378483 189 171 184
15.118114 12.554711 59.378483 182 161 176
15.057881 12.632182 59.141918 188 163 178
14.998128 12.709039 58.907227 198 169 185
15.653093 -5.639927 60.963535 109 78 86
15.653093 -5.508510 60.963535 114 83 89
15.525574 -5.333288 60.466888 120 91 95
15.494018 -5.192367 60.343987 125 96 99
15.462589 -5.052017 60.221588 127 99 101
15.462589 -4.922200 60.221588 125 99 101
15.400114 -4.773019 59.978268 123 98 100
15.400114 -4.643726 59.978268 119 95 98
15.400114 -4.514433 59.978268 109 87 90
15.400114 -4.385140 59.978268 102 80 84
15.369066 -4.247267 59.857342 104 82 86
15.369066 -4.118235 59.857342 110 87 91
15.369066 -3.989203 59.857342 108 86 88
15.369066 -3.860170 59.857342 107 84 85
15.369066 -3.731138 59.857342 118 92 95
15.369066 -3.602106 59.857342 141 113 117
15.369066 -3.473074 59.857342 153 123 130
15.369066 -3.344041 59.857342 139 107 117
15.338142 -3.208540 59.736904 114 80 93
15.338142 -3.079768 59.736904 111 76 89
15.338142 -2.950995 59.736904 135 99 111
15.338142 -2.822222 59.736904 150 114 123
15.338142 -2.693450 59.736904 137 101 106
15.338142 -2.564677 59.736904 118 83 82
15.338142 -2.435905 59.736904 109 77 71
15.338142 -2.307132 59.736904 111 81 72
15.307343 -2.173985 59.616951 120 92 82
15.307343 -2.045471 59.616951 125 98 90
15.307343 -1.916957 59.616951 127 102 97
15.307343 -1.788443 59.616951 129 104 102
15.307343 -1.659929 59.616951 122 97 100
15.338142 -1.534496 59.736904 111 87 92
15.338142 -1.405723 59.736904 111 87 95
15.338142 -1.276951 59.736904 127 104 113
15.307343 -1.145873 59.616951 141 118 128
15.307343 -1.017359 59.616951 137 115 123
15.307343 -0.888844 59.616951 132 111 117
15.369066 -0.763396 59.857342 138 118 124
18.776001 -0.774987 73.126213 144 127 134
18.868952 -0.620407 73.488220 149 134 143
18.915773 -0.463138 73.670578 150 137 148
18.822363 -0.302826 73.306770 146 133 148
18.822363 -0.144801 73.306770 141 129 147
18.822363 0.013223 73.306770 148 135 155
18.822363 0.171248 73.306770 168 154 175
18.868952 0.330088 73.488220 181 166 186
19.057642 0.493389 74.223106 174 158 176
19.057642 0.653389 74.223106 162 145 160
15.431289 1.047278 60.099682 202 181 188
15.431289 1.176833 60.099682 192 172 177
15.431289 1.306388 60.099682 167 147 151
15.431289 1.435942 60.099682 157 138 141
15.431289 1.565497 60.099682 161 143 147
15.400114 1.691627 59.978268 167 148 154
15.400114 1.820920 59.978268 176 156 163
15.400114 1.950213 59.978268 180 157 164
15.400114 2.079506 59.978268 174 149 157
15.400114 2.208799 59.978268 171 147 154
15.400114 2.338092 59.978268 179 157 164
15.400114 2.467385 59.978268 201 186 190
15.400114 2.596678 59.978268 216 208 210
15.400114 2.725971 59.978268 203 197 199
15.400114 2.855263 59.978268 189 183 185
15.431289 2.990598 60.099682 184 180 181
15.431289 3.120153 60.099682 184 181 179
15.431289 3.249707 60.099682 198 195 190
15.431289 3.379262 60.099682 218 216 211
15.431289 3.508817 60.099682 235 234 229
15.431289 3.638371 60.099682 246 245 243
15.431289 3.767926 60.099682 251 250 248
15.431289 3.897481 60.099682 244 240 237
15.431289 4.027035 60.099682 222 214 208
15.431289 4.156590 60.099682 203 193 189
15.400114 4.277486 59.978268 209 200 197
15.369066 4.397894 59.857342 233 226 225
15.369066 4.526927 59.857342 248 246 247
15.369066 4.655959 59.857342 251 249 251
15.369066 4.784991 59.857342 249 243 244
15.338142 4.904136 59.736904 227 215 214
15.276667 5.012736 59.497478 206 192 190
15.246113 5.130711 59.378483 225 213 209
15.246113 5.258711 59.378483 237 226 221
15.185371 5.365250 59.141918 226 216 211
15.155182 5.481820 59.024338 213 207 203
15.155182 5.609056 59.024338 190 182 181
15.125113 5.724912 58.907227 185 176 180
15.065330 5.828766 58.674393 209 203 208
15.035615 5.943502 58.558662 231 228 232
15.065330 6.081730 58.674393 245 243 246
15.065330 6.208212 58.674393 251 249 250
15.155182 6.372476 59.024338 251 250 250
15.155182 6.499712 59.024338 252 251 251
15.155182 6.626949 59.024338 252 252 252
15.185371 6.767641 59.141918 253 253 253
15.185371 6.895131 59.141918 254 253 253
15.155182 7.008659 59.024338 254 254 254
15.095161 7.107635 58.790577 254 254 254
15.065330 7.220070 58.674393 255 255 255
15.035615 7.332062 58.558662 254 252 252
15.006017 7.443613 58.443390 251 247 246
14.947170 7.539913 58.214199 251 244 243
14.947170 7.665403 58.214199 252 247 245
14.917919 7.775647 58.100277 253 246 243
14.888783 7.885460 57.986801 249 234 230
14.888783 8.010460 57.986801 234 210 208
14.888783 8.135460 57.986801 210 184 184
14.888783 8.260460 57.986801 201 180 181
14.888783 8.385460 57.986801 220 206 208
14.888783 8.510460 57.986801 233 226 228
14.888783 8.635460 57.986801 206 200 205
14.888783 8.760460 57.986801 163 157 165
14.859759 8.868139 57.873768 154 148 158
14.859759 8.992896 57.873768 188 182 192
14.859759 9.117652 57.873768 224 220 227
14.888783 9.260460 57.986801 239 235 241
14.888783 9.385460 57.986801 247 246 248
14.888783 9.510460 57.986801 249 247 248
14.947170 9.673246 58.214199 231 226 228
14.947170 9.798737 58.214199 217 210 211
15.035615 9.982949 58.558662 228 222 221
15.035615 10.109182 58.558662 233 228 229
15.065330 10.255643 58.674393 222 216 218
15.065330 10.382126 58.674393 227 221 224
15.065330 10.508608 58.674393 240 235 239
15.155182 10.698520 59.024338 235 228 234
15.125113 10.804276 58.907227 210 202 209
15.095161 10.909615 58.790577 185 178 184
15.095161 11.036347 58.790577 175 170 173
15.276667 11.297305 59.497478 169 166 167
21.353100 15.970183 83.163147 166 164 163
15.276667 11.553819 59.497478 181 179 177
15.035615 11.497743 58.558662 213 210 207
15.035615 11.623976 58.558662 229 224 223
15.035615 11.750208 58.558662 214 207 206
15.035615 11.876441 58.558662 192 182 183
15.035615 12.002673 58.558662 192 180 185
15.065330 12.152877 58.674393 200 184 192
15.155182 12.352595 59.024338 194 174 185
15.155182 12.479832 59.024338 187 165 177
15.095161 12.557139 58.790577 195 167 180
15.784511 -5.508510 60.963535 110 80 87
15.655920 -5.333288 60.466888 115 87 92
15.624099 -5.192367 60.343987 121 94 99
15.592407 -5.052017 60.221588 126 102 105
15.592407 -4.922200 60.221588 134 110 114
15.529408 -4.773019 59.978268 140 118 121
15.529408 -4.643726 59.978268 136 114 119
15.529408 -4.514433 59.978268 119 97 101
15.529408 -4.385140 59.978268 109 85 89
15.529408 -4.255847 59.978268 114 89 92
15.529408 -4.126554 59.978268 118 92 94
15.498098 -3.989203 59.857342 112 86 87
15.498098 -3.860170 59.857342 105 78 79
15.498098 -3.731138 59.857342 109 81 82
15.498098 -3.602106 59.857342 126 96 99
15.498098 -3.473074 59.857342 139 107 115
15.498098 -3.344041 59.857342 133 100 112
15.498098 -3.215009 59.857342 114 80 96
15.498098 -3.085977 59.857342 106 72 89
15.466915 -2.950995 59.736904 118 83 99
15.466915 -2.822222 59.736904 131 95 109
15.466915 -2.693450 59.736904 129 93 102
15.466915 -2.564677 59.736904 117 82 86
15.466915 -2.435905 59.736904 110 76 74
15.466915 -2.307132 59.736904 115 84 76
15.466915 -2.178359 59.736904 127 97 87
15.435857 -2.045471 59.616951 132 105 94
15.435857 -1.916957 59.616951 137 111 102
15.435857 -1.788443 59.616951 142 117 112
15.435857 -1.659929 59.616951 136 111 110
15.466915 -1.534496 59.736904 120 95 98
15.466915 -1.405723 59.736904 111 87 93
15.466915 -1.276951 59.736904 122 98 107
15.435857 -1.145873 59.616951 138 115 123
15.435857 -1.017359 59.616951 137 113 121
15.435857 -0.888844 59.616951 130 107 114
15.466915 -0.761860 59.736904 133 111 117
19.027369 -0.778823 73.488220 142 121 128
19.122032 -0.623494 73.853836 149 130 138
19.122032 -0.464290 73.853836 151 134 144
19.074583 -0.304329 73.670578 150 133 145
18.980387 -0.144801 73.306770 146 130 145
18.980387 0.013223 73.306770 147 131 148
19.027369 0.171672 73.488220 158 143 160
19.217642 0.333389 74.223106 169 153 170
19.217642 0.493389 74.223106 165 149 165
15.560843 1.047278 60.099682 173 153 163
15.560843 1.176833 60.099682 174 154 163
15.560843 1.306388 60.099682 167 148 157
15.560843 1.435942 60.099682 161 143 152
15.529408 1.562334 59.978268 156 137 147
15.529408 1.691627 59.978268 159 140 151
15.529408 1.820920 59.978268 173 153 163
15.529408 1.950213 59.978268 180 156 166
15.529408 2.079506 59.978268 175 150 158
15.529408 2.208799 59.978268 171 146 153
15.529408 2.338092 59.978268 171 148 154
15.529408 2.467385 59.978268 184 166 168
15.529408 2.596678 59.978268 195 181 183
15.529408 2.725971 59.978268 188 177 179
15.529408 2.855263 59.978268 184 176 177
15.560843 2.990598 60.099682 184 177 178
15.560843 3.120153 60.099682 178 172 171
15.560843 3.249707 60.099682 181 176 171
15.560843 3.379262 60.099682 193 187 181
15.560843 3.508817 60.099682 203 197 191
15.560843 3.638371 60.099682 218 214 209
15.560843 3.767926 60.099682 239 234 231
15.560843 3.897481 60.099682 245 239 235
15.560843 4.027035 60.099682 236 227 223
15.529408 4.148193 59.978268 228 219 216
15.498098 4.268862 59.857342 231 223 222
15.498098 4.397894 59.857342 241 236 236
15.498098 4.526927 59.857342 246 240 244
15.498098 4.655959 59.857342 242 236 242
15.466915 4.775363 59.736904 241 231 237
15.466915 4.904136 59.736904 223 211 214
15.374113 5.002711 59.378483 205 192 192
15.374113 5.130711 59.378483 222 210 208
15.343427 5.248215 59.259964 237 226 223
15.312861 5.365250 59.141918 230 219 216
15.282419 5.481820 59.024338 219 210 208
15.282419 5.609056 59.024338 210 202 203
15.252096 5.724912 58.907227 214 208 211
15.161847 5.817269 58.558662 226 221 226
15.161847 5.943502 58.558662 235 231 236
15.161847 6.069735 58.558662 246 243 247
15.191812 6.208212 58.674393 253 250 252
15.282419 6.372476 59.024338 251 250 250
15.282419 6.499712 59.024338 246 244 244
15.282419 6.626949 59.024338 245 243 243
15.312861 6.767641 59.141918 249 248 248
15.312861 6.895131 59.141918 253 252 252
15.252096 6.994753 58.907227 254 254 254
15.221894 7.107635 58.790577 254 254 254
15.191812 7.220070 58.674393 254 254 254
15.161847 7.332062 58.558662 254 254 254
15.132001 7.443613 58.443390 254 253 252
15.072660 7.539913 58.214199 254 253 250
15.072660 7.665403 58.214199 254 252 248
15.013783 7.760460 57.986801 252 245 239
15.013783 7.885460 57.986801 248 233 225
15.013783 8.010460 57.986801 233 214 204
14.984516 8.119601 57.873768 202 181 173
14.984516 8.244358 57.873768 183 162 156
14.984516 8.369114 57.873768 205 190 187
14.984516 8.493871 57.873768 225 217 217
14.984516 8.618627 57.873768 189 185 188
14.984516 8.743383 57.873768 142 136 144
14.984516 8.868139 57.873768 158 153 162
14.984516 8.992896 57.873768 208 204 212
14.984516 9.117652 57.873768 220 216 224
14.984516 9.242409 57.873768 215 211 218
15.013783 9.385460 57.986801 234 231 235
15.013783 9.510460 57.986801 247 244 245
15.043163 9.654316 58.100277 234 228 230
15.072660 9.798737 58.214199 226 219 218
15.102272 9.943724 58.328571 234 229 226
15.161847 10.109182 58.558662 237 232 231
15.161847 10.235415 58.558662 229 222 223
15.161847 10.361648 58.558662 232 222 225
15.161847 10.487881 58.558662 240 231 234
15.161847 10.614114 58.558662 235 225 230
15.161847 10.740346 58.558662 213 202 207
15.132001 10.845188 58.443390 188 178 182
15.132001 10.971172 58.443390 177 169 171
15.132001 11.097157 58.443390 181 174 173
15.161847 11.245277 58.558662 190 185 181
15.161847 11.371510 58.558662 200 196 191
15.102272 11.452565 58.328571 208 201 197
15.102272 11.578301 58.328571 208 201 196
15.102272 11.704039 58.328571 202 193 189
15.102272 11.829775 58.328571 195 184 182
15.132001 11.979046 58.443390 196 183 184
15.161847 12.128906 58.558662 196 178 183
15.191812 12.279359 58.674393 190 169 176
15.191812 12.405841 58.674393 192 167 176
15.915927 -5.508510 60.963535 103 73 81
15.786266 -5.333288 60.466888 105 78 84
15.754180 -5.192367 60.343987 110 85 92
15.722224 -5.052017 60.221588 120 96 103
15.690398 -4.912236 60.099682 137 115 121
15.658700 -4.773019 59.978268 159 137 143
15.658700 -4.643726 59.978268 158 136 142
15.658700 -4.514433 59.978268 131 106 113
15.658700 -4.385140 59.978268 113 86 91
15.658700 -4.255847 59.978268 120 90 94
15.627131 -4.118235 59.857342 124 94 95
15.627131 -3.989203 59.857342 118 88 87
15.627131 -3.860170 59.857342 110 79 78
15.627131 -3.731138 59.857342 107 74 74
15.658700 -3.609383 59.978268 111 79 82
15.658700 -3.480090 59.978268 120 87 96
15.658700 -3.350797 59.978268 123 89 103
15.627131 -3.215009 59.857342 117 83 101
15.627131 -3.085977 59.857342 113 78 99
15.627131 -2.956945 59.857342 117 82 103
15.595688 -2.822222 59.736904 125 90 108
15.595688 -2.693450 59.736904 126 91 104
15.595688 -2.564677 59.736904 117 82 88
15.595688 -2.435905 59.736904 109 75 74
15.595688 -2.307132 59.736904 114 82 75
15.595688 -2.178359 59.736904 124 94 83
15.564371 -2.045471 59.616951 125 98 86
15.564371 -1.916957 59.616951 130 103 93
15.564371 -1.788443 59.616951 141 116 109
15.564371 -1.659929 59.616951 143 119 116
15.595688 -1.534496 59.736904 129 104 106
15.595688 -1.405723 59.736904 114 89 95
15.595688 -1.276951 59.736904 119 94 102
15.564371 -1.145873 59.616951 131 106 115
15.564371 -1.017359 59.616951 130 104 113
15.533179 -0.887063 59.497478 125 99 107
15.533179 -0.758807 59.497478 128 103 110
19.091272 -0.774987 73.126213 139 115 121
19.281235 -0.623494 73.853836 150 127 133
19.281235 -0.464290 73.853836 155 134 140
19.138411 -0.302826 73.306770 153 134 142
15.627131 -0.118235 59.857342 150 131 141
15.627131 0.010797 59.857342 148 130 141
19.185783 0.171672 73.488220 150 132 145
19.185783 0.330088 73.488220 156 138 152
19.377642 0.493389 74.223106 160 141 156
15.627131 0.526926 59.857342 159 138 155
15.627131 0.655959 59.857342 155 133 149
15.627131 0.784991 59.857342 148 125 142
15.627131 0.914023 59.857342 149 126 142
15.627131 1.043055 59.857342 157 134 150
15.627131 1.172088 59.857342 164 141 156
15.658700 1.303748 59.978268 168 147 161
15.658700 1.433041 59.978268 165 146 160
15.658700 1.562334 59.978268 156 136 152
15.627131 1.688217 59.857342 158 138 154
15.627131 1.817249 59.857342 171 149 163
15.627131 1.946281 59.857342 175 152 165
15.627131 2.075313 59.857342 177 153 162
15.627131 2.204346 59.857342 178 153 160
15.627131 2.333378 59.857342 171 148 152
15.627131 2.462410 59.857342 165 144 146
15.627131 2.591443 59.857342 161 144 145
15.627131 2.720475 59.857342 162 147 149
15.658700 2.855263 59.978268 174 162 164
15.658700 2.984556 59.978268 184 175 177
15.690398 3.120153 60.099682 178 170 171
15.690398 3.249707 60.099682 173 165 163
15.690398 3.379262 60.099682 177 169 164
15.690398 3.508817 60.099682 180 172 166
15.690398 3.638371 60.099682 193 183 177
15.690398 3.767926 60.099682 220 210 205
15.690398 3.897481 60.099682 240 229 225
15.690398 4.027035 60.099682 240 228 227
15.658700 4.148193 59.978268 233 221 222
15.627131 4.268862 59.857342 233 224 226
15.627131 4.397894 59.857342 240 232 236
15.627131 4.526927 59.857342 237 228 234
15.595688 4.646591 59.736904 231 220 228
15.595688 4.775363 59.736904 236 225 232
15.564371 4.894288 59.616951 229 217 223
15.502113 5.002711 59.378483 212 199 203
15.471171 5.120470 59.259964 219 207 208
15.440351 5.237760 59.141918 238 228 226
15.409656 5.354583 59.024338 241 232 231
15.409656 5.481820 59.024338 235 228 227
15.379081 5.597928 58.907227 235 228 229
15.318294 5.702283 58.674393 240 234 238
15.288080 5.817269 58.558662 245 241 245
15.257985 5.931802 58.443390 248 245 248
15.257985 6.057786 58.443390 249 246 250
15.318294 6.208212 58.674393 250 247 250
15.348627 6.347239 58.790577 248 245 247
15.409656 6.499712 59.024338 240 236 237
15.409656 6.626949 59.024338 236 233 233
15.409656 6.754186 59.024338 242 239 239
15.409656 6.881423 59.024338 246 245 244
15.348627 6.980902 58.790577 250 249 249
15.348627 7.107635 58.790577 253 252 253
15.348627 7.234367 58.790577 254 254 254
15.318294 7.346552 58.674393 254 253 253
15.288080 7.458295 58.558662 254 252 249
15.198151 7.539913 58.214199 254 253 247
15.198151 7.665403 58.214199 254 252 246
15.138783 7.760460 57.986801 254 248 241
15.138783 7.885460 57.986801 252 242 233
15.109272 7.994845 57.873768 239 228 217
15.079877 8.103805 57.761173 205 191 179
15.050595 8.212340 57.649014 187 169 157
15.050595 8.336613 57.649014 209 195 187
15.050595 8.460884 57.649014 220 213 211
15.050595 8.585156 57.649014 181 175 178
15.079877 8.726373 57.761173 149 144 150
15.079877 8.850886 57.761173 179 175 183
15.079877 8.975400 57.761173 217 214 221
15.079877 9.099914 57.761173 207 202 212
15.109272 9.242409 57.873768 193 186 195
15.138783 9.385460 57.986801 216 210 217
15.138783 9.510460 57.986801 242 239 242
15.138783 9.635460 57.986801 244 239 240
15.168408 9.779561 58.100277 241 236 235
15.198151 9.924227 58.214199 245 242 238
15.228009 10.069461 58.328571 244 239 236
15.228009 10.195197 58.328571 235 226 225
15.228009 10.320934 58.328571 232 221 221
15.228009 10.446671 58.328571 237 225 227
15.228009 10.572408 58.328571 232 220 222
15.228009 10.698144 58.328571 211 198 202
15.198151 10.802658 58.214199 191 179 181
15.168408 10.906762 58.100277 188 176 176
15.168408 11.032007 58.100277 199 188 185
15.228009 11.201092 58.328571 208 200 194
15.228009 11.326828 58.328571 207 199 191
15.198151 11.430109 58.214199 199 192 182
15.168408 11.532986 58.100277 197 189 179
15.168408 11.658230 58.100277 200 191 182
15.168408 11.783475 58.100277 200 190 181
15.198151 11.932070 58.214199 198 184 180
15.228009 12.081248 58.328571 189 171 171
15.288080 12.255139 58.558662 185 162 164
15.288080 12.381371 58.558662 194 168 172
15.949095 -5.344172 60.590290 95 69 75
15.884261 -5.192367 60.343987 101 78 84
15.852042 -5.052017 60.221588 113 92 98
15.819953 -4.912236 60.099682 135 115 122
15.819953 -4.782681 60.099682 164 144 151
15.787993 -4.643726 59.978268 168 146 153
15.787993 -4.514433 59.978268 138 114 121
15.787993 -4.385140 59.978268 117 89 94
15.787993 -4.255847 59.978268 120 88 92
15.756163 -4.118235 59.857342 124 90 92
15.756163 -3.989203 59.857342 122 88 87
15.787993 -3.867969 59.978268 117 82 81
15.787993 -3.738676 59.978268 107 72 72
15.787993 -3.609383 59.978268 102 67 71
15.819953 -3.487135 60.099682 108 73 83
15.819953 -3.357580 60.099682 116 82 96
15.787993 -3.221504 59.978268 121 87 105
15.756163 -3.085977 59.857342 128 93 114
15.756163 -2.956945 59.857342 133 98 119
15.756163 -2.827912 59.857342 136 101 119
15.756163 -2.698880 59.857342 132 98 110
15.756163 -2.569848 59.857342 118 85 90
15.756163 -2.440816 59.857342 106 73 72
15.724460 -2.307132 59.736904 110 79 74
15.724460 -2.178359 59.736904 118 89 81
15.724460 -2.049587 59.736904 115 87 78
15.692884 -1.916957 59.616951 114 88 80
15.692884 -1.788443 59.616951 130 105 100
15.692884 -1.659929 59.616951 145 121 120
15.692884 -1.531415 59.616951 135 110 114
15.724460 -1.405723 59.736904 117 91 99
15.724460 -1.276951 59.736904 119 93 102
15.692884 -1.145873 59.616951 128 101 112
15.661436 -1.015320 59.497478 125 97 107
15.661436 -0.887063 59.497478 120 91 100
15.661436 -0.758807 59.497478 123 94 102
15.661436 -0.630550 59.497478 135 107 112
15.724460 -0.504315 59.736904 149 123 127
15.756163 -0.376299 59.857342 155 130 134
15.756163 -0.247267 59.857342 153 130 135
15.756163 -0.118235 59.857342 151 129 135
15.756163 0.010797 59.857342 149 129 136
15.756163 0.139830 59.857342 150 129 139
15.756163 0.268862 59.857342 155 133 144
15.756163 0.397894 59.857342 162 140 152
15.756163 0.526926 59.857342 168 145 158
15.756163 0.655959 59.857342 163 140 153
15.756163 0.784991 59.857342 151 128 142
15.756163 0.914023 59.857342 150 127 141
15.756163 1.043055 59.857342 162 139 153
15.756163 1.172088 59.857342 171 148 162
15.756163 1.301120 59.857342 175 153 167
15.756163 1.430152 59.857342 166 146 161
15.756163 1.559184 59.857342 151 131 146
15.756163 1.688217 59.857342 154 134 150
15.756163 1.817249 59.857342 168 148 161
15.756163 1.946281 59.857342 171 149 160
15.756163 2.075313 59.857342 177 155 162
15.756163 2.204346 59.857342 188 164 169
15.756163 2.333378 59.857342 180 157 159
15.756163 2.462410 59.857342 153 133 133
15.756163 2.591443 59.857342 137 117 117
15.756163 2.720475 59.857342 144 128 129
15.756163 2.849507 59.857342 169 155 157
15.787993 2.984556 59.978268 186 174 176
15.819953 3.120153 60.099682 185 173 174
15.819953 3.249707 60.099682 177 166 165
15.819953 3.379262 60.099682 177 166 163
15.819953 3.508817 60.099682 181 170 164
15.819953 3.638371 60.099682 187 176 169
15.819953 3.767926 60.099682 206 194 187
15.819953 3.897481 60.099682 229 216 210
15.819953 4.027035 60.099682 236 223 220
15.787993 4.148193 59.978268 225 211 212
15.756163 4.268862 59.857342 218 206 208
15.756163 4.397894 59.857342 224 214 217
15.724460 4.517818 59.736904 222 211 217
15.724460 4.646591 59.736904 219 208 215
15.692884 4.765774 59.616951 232 223 228
15.661436 4.884480 59.497478 239 231 235
15.630114 5.002711 59.378483 223 213 216
15.567842 5.110270 59.141918 214 203 205
15.536892 5.227347 59.024338 230 221 221
15.506064 5.343959 58.907227 245 240 238
15.444776 5.449319 58.674393 245 241 240
15.414313 5.564804 58.558662 242 237 239
15.383969 5.679833 58.443390 243 238 241
15.353745 5.794412 58.328571 248 245 248
15.323641 5.908540 58.214199 253 251 253
15.353745 6.045885 58.328571 250 248 250
15.383969 6.183771 58.443390 246 243 246
15.444776 6.334694 58.674393 246 243 245
15.444776 6.461177 58.674393 242 240 241
15.444776 6.587659 58.674393 238 235 236
15.506064 6.740785 58.907227 238 234 235
15.506064 6.867769 58.907227 238 234 235
15.475360 6.980902 58.790577 242 238 239
15.475360 7.107635 58.790577 248 245 246
15.475360 7.234367 58.790577 252 251 251
15.444776 7.346552 58.674393 253 251 249
15.414313 7.458295 58.558662 252 247 240
15.323641 7.539913 58.214199 252 246 237
15.293653 7.650402 58.100277 254 250 241
15.263783 7.760460 57.986801 254 252 243
15.234029 7.870089 57.873768 254 251 241
15.204391 7.979291 57.761173 246 241 228
15.174868 8.088069 57.649014 224 214 199
15.145458 8.196425 57.537292 211 198 181
15.145458 8.320457 57.537292 218 208 196
15.145458 8.444488 57.537292 208 201 197
15.145458 8.568519 57.537292 176 169 171
15.174868 8.709428 57.649014 173 168 173
15.174868 8.833700 57.649014 204 200 207
15.174868 8.957972 57.649014 212 208 217
15.174868 9.082244 57.649014 194 189 200
15.204391 9.224427 57.761173 188 182 191
15.234029 9.367165 57.873768 208 202 208
15.263783 9.510460 57.986801 236 231 235
15.263783 9.635460 57.986801 248 243 246
15.293653 9.779561 58.100277 251 246 247
15.293653 9.904805 58.100277 251 249 246
15.323641 10.049717 58.214199 246 241 237
15.353745 10.195197 58.328571 236 227 224
15.323641 10.300697 58.214199 233 221 219
15.323641 10.426188 58.214199 235 222 221
15.323641 10.551678 58.214199 226 212 212
15.323641 10.677168 58.214199 206 192 192
15.293653 10.781518 58.100277 193 179 179
15.263783 10.885460 57.986801 197 183 181
15.263783 11.010460 57.986801 207 194 189
15.293653 11.157251 58.100277 208 197 190
15.293653 11.282496 58.100277 198 187 177
15.293653 11.407741 58.100277 191 182 168
15.263783 11.510460 57.986801 205 197 182
15.263783 11.635460 57.986801 216 208 193
15.263783 11.760460 57.986801 207 197 183
15.293653 11.908719 58.100277 198 184 175
15.323641 12.057560 58.214199 186 168 163
15.353745 12.206985 58.328571 182 160 158
16.046959 -5.202942 60.466888 98 76 79
16.014343 -5.062285 60.343987 110 90 94
15.981859 -4.922200 60.221588 127 108 113
15.949508 -4.782681 60.099682 150 131 136
15.917286 -4.643726 59.978268 157 135 142
15.917286 -4.514433 59.978268 139 113 121
15.917286 -4.385140 59.978268 125 94 102
15.917286 -4.255847 59.978268 124 90 97
15.885195 -4.118235 59.857342 125 89 93
15.885195 -3.989203 59.857342 125 87 90
15.917286 -3.867969 59.978268 123 84 87
15.917286 -3.738676 59.978268 112 74 78
15.949508 -3.616689 60.099682 101 64 71
15.949508 -3.487135 60.099682 102 66 77
15.949508 -3.357580 60.099682 112 76 92
15.949508 -3.228025 60.099682 126 90 109
15.917286 -3.092211 59.978268 142 106 126
15.917286 -2.962918 59.978268 152 116 136
15.885195 -2.827912 59.857342 153 117 134
15.885195 -2.698880 59.857342 144 109 122
15.885195 -2.569848 59.857342 124 89 97
15.885195 -2.440816 59.857342 107 74 77
15.885195 -2.311783 59.857342 112 81 80
15.853232 -2.178359 59.736904 122 92 90
15.853232 -2.049587 59.736904 114 87 84
15.821399 -1.916957 59.616951 109 83 81
15.821399 -1.788443 59.616951 129 104 105
15.821399 -1.659929 59.616951 150 126 132
15.821399 -1.531415 59.616951 142 116 125
15.821399 -1.402901 59.616951 122 94 106
15.821399 -1.274387 59.616951 126 97 110
15.789693 -1.143576 59.497478 136 107 120
15.789693 -1.015320 59.497478 133 103 115
15.789693 -0.887063 59.497478 127 96 105
15.758113 -0.757289 59.378483 125 94 99
15.758113 -0.629289 59.378483 129 98 101
15.789693 -0.502294 59.497478 138 108 110
15.853232 -0.375542 59.736904 143 115 116
15.885195 -0.247267 59.857342 144 118 119
15.885195 -0.118235 59.857342 147 122 125
15.885195 0.010797 59.857342 149 124 130
15.885195 0.139830 59.857342 151 127 135
15.885195 0.268862 59.857342 155 131 141
15.885195 0.397894 59.857342 161 137 149
15.885195 0.526926 59.857342 170 146 158
15.885195 0.655959 59.857342 170 144 158
15.885195 0.784991 59.857342 159 133 147
15.885195 0.914023 59.857342 160 135 148
15.885195 1.043055 59.857342 175 151 163
15.885195 1.172088 59.857342 185 163 175
15.885195 1.301120 59.857342 188 166 179
15.885195 1.430152 59.857342 175 154 168
15.885195 1.559184 59.857342 153 133 147
15.885195 1.688217 59.857342 154 134 149
15.853232 1.813592 59.736904 168 147 160
15.853232 1.942365 59.736904 169 148 158
15.853232 2.071138 59.736904 178 157 163
15.853232 2.199910 59.736904 201 181 182
15.853232 2.328683 59.736904 199 180 179
15.853232 2.457456 59.736904 164 145 142
15.853232 2.586228 59.736904 135 115 114
15.885195 2.720475 59.857342 141 123 122
15.885195 2.849507 59.857342 165 148 149
15.917286 2.984556 59.978268 183 168 168
15.949508 3.120153 60.099682 188 174 174
15.949508 3.249707 60.099682 183 169 168
15.981859 3.386117 60.221588 177 165 162
15.981859 3.515934 60.221588 178 166 161
15.981859 3.645751 60.221588 181 168 162
16.014343 3.783243 60.343987 191 177 170
16.014343 3.913324 60.343987 213 198 193
15.949508 4.027035 60.099682 227 212 210
15.949508 4.156590 60.099682 219 203 203
15.885195 4.268862 59.857342 212 196 200
15.885195 4.397894 59.857342 219 206 210
15.853232 4.517818 59.736904 220 208 214
15.853232 4.646591 59.736904 217 206 212
15.789693 4.756223 59.497478 227 218 223
15.789693 4.884480 59.497478 239 231 236
15.695332 4.982780 59.141918 231 223 225
15.695332 5.110270 59.141918 213 202 205
15.664128 5.227347 59.024338 217 208 209
15.540545 5.312338 58.558662 236 230 230
15.540545 5.438571 58.558662 239 235 234
15.479483 5.542938 58.328571 233 227 227
15.479483 5.668675 58.328571 231 225 228
15.449131 5.783050 58.214199 237 233 236
15.449131 5.908540 58.214199 242 241 242
15.449131 6.034030 58.214199 241 239 242
15.509954 6.183771 58.443390 240 236 241
15.540545 6.322200 58.558662 245 242 246
15.571259 6.461177 58.674393 249 247 249
15.571259 6.587659 58.674393 247 245 247
15.602093 6.727437 58.790577 244 240 243
15.602093 6.854169 58.790577 238 233 235
15.571259 6.967106 58.674393 235 229 231
15.571259 7.093588 58.674393 239 232 233
15.602093 7.234367 58.790577 246 242 241
15.602093 7.361100 58.790577 251 248 244
15.509954 7.443613 58.443390 251 244 237
15.449131 7.539913 58.214199 250 241 232
15.388783 7.635460 57.986801 250 245 234
15.388783 7.760460 57.986801 251 249 238
15.328904 7.854777 57.761173 252 251 239
15.299139 7.963797 57.649014 250 246 233
15.239955 8.056781 57.425999 239 231 215
15.210534 8.164779 57.315140 227 218 202
15.239955 8.304362 57.425999 213 205 195
15.239955 8.428154 57.425999 184 177 173
15.239955 8.551945 57.425999 169 161 163
15.269489 8.692550 57.537292 195 188 194
15.299139 8.833700 57.649014 215 210 217
15.299139 8.957972 57.649014 197 192 201
15.299139 9.082244 57.649014 189 184 193
15.328904 9.224427 57.761173 205 203 207
15.358785 9.367165 57.873768 218 214 216
15.388783 9.510460 57.986801 226 220 222
15.388783 9.635460 57.986801 237 230 232
15.418898 9.779561 58.100277 248 242 242
15.418898 9.904805 58.100277 251 247 243
15.449131 10.049717 58.214199 246 239 233
15.449131 10.175207 58.214199 238 227 222
15.449131 10.300697 58.214199 236 223 218
15.449131 10.426188 58.214199 234 220 216
15.418898 10.531029 58.100277 224 210 206
15.388783 10.635460 57.986801 210 196 192
15.388783 10.760460 57.986801 201 188 184
15.388783 10.885460 57.986801 199 186 181
15.388783 11.010460 57.986801 197 184 178
15.388783 11.135460 57.986801 192 180 171
15.388783 11.260460 57.986801 181 170 157
15.388783 11.385460 57.986801 183 173 157
15.388783 11.510460 57.986801 213 205 187
15.358785 11.612779 57.873768 228 220 202
15.388783 11.760460 57.986801 213 204 186
15.388783 11.885460 57.986801 198 185 171
15.418898 12.033964 58.100277 186 168 159
16.177305 -5.072596 60.466888 110 91 92
16.144424 -4.932204 60.343987 117 99 102
16.111677 -4.792382 60.221588 128 109 114
16.079062 -4.653127 60.099682 136 114 121
16.046579 -4.514433 59.978268 134 108 117
16.046579 -4.385140 59.978268 133 103 112
16.046579 -4.255847 59.978268 134 100 109
16.046579 -4.126554 59.978268 130 93 100
16.046579 -3.997262 59.978268 128 89 95
16.046579 -3.867969 59.978268 129 90 96
16.079062 -3.746244 60.099682 121 83 89
16.079062 -3.616689 60.099682 105 68 76
16.111677 -3.494208 60.221588 99 63 74
16.111677 -3.364391 60.221588 108 72 85
16.111677 -3.234573 60.221588 124 89 104
16.079062 -3.098471 60.099682 144 108 125
16.046579 -2.962918 59.978268 164 127 144
16.046579 -2.833625 59.978268 176 139 154
16.014227 -2.698880 59.857342 170 133 145
16.014227 -2.569848 59.857342 142 107 116
16.014227 -2.440816 59.857342 117 85 90
16.014227 -2.311783 59.857342 119 89 92
15.982005 -2.178359 59.736904 126 99 101
15.982005 -2.049587 59.736904 114 90 92
15.949913 -1.916957 59.616951 111 88 92
15.949913 -1.788443 59.616951 142 119 127
15.917949 -1.656602 59.497478 172 148 160
15.917949 -1.528346 59.497478 160 135 149
15.917949 -1.400089 59.497478 133 106 121
15.917949 -1.271833 59.497478 135 106 121
15.917949 -1.143576 59.497478 147 116 130
15.917949 -1.015320 59.497478 145 114 125
15.886113 -0.885289 59.378483 137 105 113
15.886113 -0.757289 59.378483 131 99 102
15.854404 -0.628033 59.259964 127 94 95
15.886113 -0.501289 59.378483 126 94 93
15.917949 -0.374037 59.497478 126 97 94
15.982005 -0.246770 59.736904 131 103 101
16.014227 -0.118235 59.857342 138 112 112
16.014227 0.010797 59.857342 143 118 120
16.014227 0.139830 59.857342 145 121 126
16.014227 0.268862 59.857342 148 123 131
16.014227 0.397894 59.857342 153 129 139
16.014227 0.526926 59.857342 166 141 152
16.014227 0.655959 59.857342 172 146 157
16.014227 0.784991 59.857342 166 141 151
16.014227 0.914023 59.857342 167 143 152
16.014227 1.043055 59.857342 180 156 165
16.014227 1.172088 59.857342 193 170 179
16.014227 1.301120 59.857342 199 176 186
16.014227 1.430152 59.857342 189 167 178
16.014227 1.559184 59.857342 171 150 162
15.982005 1.684820 59.736904 166 147 158
15.949913 1.809951 59.616951 170 150 160
15.949913 1.938465 59.616951 168 148 156
15.949913 2.066979 59.616951 182 162 166
15.949913 2.195493 59.616951 215 198 198
15.949913 2.324007 59.616951 221 208 206
15.949913 2.452521 59.616951 187 169 166
15.949913 2.581035 59.616951 152 132 128
15.982005 2.715001 59.736904 148 129 127
15.982005 2.843774 59.736904 161 143 142
16.014227 2.978539 59.857342 172 156 155
16.046579 3.113849 59.978268 182 166 165
16.079062 3.249707 60.099682 184 169 166
16.111677 3.386117 60.221588 175 161 157
16.111677 3.515934 60.221588 169 156 150
16.111677 3.645751 60.221588 167 153 146
16.144424 3.783243 60.343987 173 158 150
16.144424 3.913324 60.343987 197 180 174
16.079062 4.027035 60.099682 215 197 194
16.079062 4.156590 60.099682 210 193 191
16.014227 4.268862 59.857342 207 191 193
16.014227 4.397894 59.857342 221 208 212
15.982005 4.517818 59.736904 231 222 226
15.982005 4.646591 59.736904 229 219 223
15.917949 4.756223 59.497478 223 213 218
15.917949 4.884480 59.497478 222 214 218
15.886113 5.002711 59.378483 224 215 218
15.822822 5.110270 59.141918 215 204 207
15.791365 5.227347 59.024338 211 200 202
15.728825 5.333377 58.790577 223 215 215
15.666779 5.438571 58.558662 230 222 221
15.605219 5.542938 58.328571 227 219 218
15.605219 5.668675 58.328571 223 217 218
15.605219 5.794412 58.328571 219 214 216
15.574621 5.908540 58.214199 215 212 215
15.605219 6.045885 58.328571 216 213 218
15.666779 6.195967 58.558662 226 221 228
15.697741 6.334694 58.674393 240 236 242
15.697741 6.461177 58.674393 248 244 249
15.697741 6.587659 58.674393 247 245 250
15.791365 6.754186 59.024338 248 245 249
15.728825 6.854169 58.790577 245 242 245
15.697741 6.967106 58.674393 235 229 231
15.697741 7.093588 58.674393 227 220 220
15.697741 7.220070 58.674393 235 229 226
15.697741 7.346552 58.674393 248 245 239
15.635939 7.443613 58.443390 253 249 242
15.513783 7.510460 57.986801 249 244 235
15.513783 7.635460 57.986801 239 234 222
15.453418 7.730264 57.761173 231 226 213
15.423411 7.839525 57.649014 233 228 216
15.393520 7.948363 57.537292 231 227 215
15.334086 8.041226 57.315140 220 214 199
15.334086 8.164779 57.315140 213 205 191
15.334086 8.288331 57.315140 202 195 186
15.334086 8.411883 57.315140 172 165 162
15.363746 8.551945 57.425999 169 161 162
15.393520 8.692550 57.537292 208 200 206
15.423411 8.833700 57.649014 219 211 220
15.423411 8.957972 57.649014 193 185 195
15.423411 9.082244 57.649014 196 191 199
15.453418 9.224427 57.761173 227 226 228
15.483541 9.367165 57.873768 230 228 227
15.513783 9.510460 57.986801 213 207 205
15.513783 9.635460 57.986801 218 211 207
15.513783 9.760460 57.986801 238 231 226
15.544142 9.904805 58.100277 248 242 234
15.544142 10.030050 58.100277 245 238 229
15.574621 10.175207 58.214199 239 229 220
15.544142 10.280540 58.100277 234 221 213
15.544142 10.405784 58.100277 230 217 208
15.513783 10.510460 57.986801 227 214 206
15.513783 10.635460 57.986801 225 211 205
15.453418 10.718591 57.761173 218 204 199
15.453418 10.843104 57.761173 203 189 184
15.483541 10.988997 57.873768 184 171 164
15.513783 11.135460 57.986801 170 157 147
15.513783 11.260460 57.986801 162 151 137
15.513783 11.385460 57.986801 179 168 151
15.483541 11.488023 57.873768 216 207 188
15.483541 11.612779 57.873768 227 218 198
15.483541 11.737535 57.873768 217 207 186
15.513783 11.885460 57.986801 202 188 171
16.307652 -4.942250 60.466888 109 91 92
16.274506 -4.802123 60.343987 112 93 96
16.208616 -4.653127 60.099682 120 98 105
16.208616 -4.523572 60.099682 128 103 111
16.175873 -4.385140 59.978268 136 107 118
16.175873 -4.255847 59.978268 139 106 118
16.175873 -4.126554 59.978268 132 96 108
16.175873 -3.997262 59.978268 131 93 103
16.208616 -3.875799 60.099682 139 100 109
16.208616 -3.746244 60.099682 135 95 105
16.241495 -3.624025 60.221588 113 75 84
16.241495 -3.494208 60.221588 98 61 71
16.241495 -3.364391 60.221588 103 67 78
16.241495 -3.234573 60.221588 115 80 92
16.241495 -3.104756 60.221588 131 94 107
16.208616 -2.968916 60.099682 159 121 134
16.175873 -2.833625 59.978268 191 152 164
16.143259 -2.698880 59.857342 196 158 168
16.143259 -2.569848 59.857342 167 130 139
16.143259 -2.440816 59.857342 135 101 108
16.143259 -2.311783 59.857342 127 97 104
16.143259 -2.182751 59.857342 125 99 106
16.110779 -2.049587 59.736904 110 86 94
16.078426 -1.916957 59.616951 112 88 98
16.078426 -1.788443 59.616951 154 130 144
16.078426 -1.659929 59.616951 197 172 189
16.046206 -1.528346 59.497478 188 160 179
16.046206 -1.400089 59.497478 150 119 139
16.078426 -1.274387 59.616951 139 107 124
16.046206 -1.143576 59.497478 148 114 129
16.046206 -1.015320 59.497478 148 114 123
16.014112 -0.885289 59.378483 141 107 111
15.982149 -0.755777 59.259964 135 102 102
15.950312 -0.626782 59.141918 132 100 97
15.982149 -0.500288 59.259964 131 100 95
16.046206 -0.374037 59.497478 130 100 95
16.078426 -0.246274 59.616951 129 102 97
16.143259 -0.118235 59.857342 132 105 103
16.143259 0.010797 59.857342 135 109 110
16.143259 0.139830 59.857342 135 111 115
16.143259 0.268862 59.857342 134 111 117
16.143259 0.397894 59.857342 139 117 125
16.143259 0.526926 59.857342 153 131 140
16.110779 0.654639 59.736904 162 139 148
16.110779 0.783411 59.736904 160 137 145
16.110779 0.912184 59.736904 162 139 146
16.110779 1.040957 59.736904 171 148 154
16.110779 1.169729 59.736904 183 161 166
16.110779 1.298502 59.736904 193 171 177
16.110779 1.427275 59.736904 191 170 178
16.110779 1.556047 59.736904 181 162 170
16.078426 1.681437 59.616951 175 156 165
16.078426 1.809951 59.616951 172 153 161
16.078426 1.938465 59.616951 169 149 155
16.046206 2.062837 59.497478 184 164 167
16.046206 2.191093 59.497478 220 205 205
16.046206 2.319350 59.497478 237 227 224
16.046206 2.447606 59.497478 212 197 193
16.046206 2.575863 59.497478 175 156 151
16.078426 2.709549 59.616951 158 139 136
16.078426 2.838063 59.616951 157 138 136
16.110779 2.972546 59.736904 158 141 140
16.110779 3.101319 59.736904 170 153 151
16.143259 3.236604 59.857342 181 166 161
16.175873 3.372435 59.978268 179 165 159
16.175873 3.501728 59.978268 172 158 151
16.208616 3.638371 60.099682 165 151 142
16.208616 3.767926 60.099682 166 150 143
16.208616 3.897481 60.099682 188 172 165
16.208616 4.027035 60.099682 207 190 186
16.143259 4.139830 59.857342 199 183 181
16.143259 4.268862 59.857342 192 178 178
16.110779 4.389045 59.736904 209 198 200
16.110779 4.517818 59.736904 234 228 230
16.110779 4.646591 59.736904 237 231 234
16.046206 4.756223 59.497478 218 209 214
16.046206 4.884480 59.497478 203 193 198
16.046206 5.012736 59.497478 210 199 202
16.014112 5.130711 59.378483 218 206 209
15.982149 5.248215 59.259964 218 205 207
15.918602 5.354583 59.024338 223 212 212
15.887017 5.470943 58.907227 232 222 222
15.887017 5.597928 58.907227 233 226 225
15.887017 5.724912 58.907227 225 218 218
15.793011 5.817269 58.558662 207 200 203
15.793011 5.943502 58.558662 194 189 194
15.793011 6.069735 58.558662 195 190 198
15.918602 6.245240 59.024338 210 205 214
15.918602 6.372476 59.024338 230 224 233
15.887017 6.486816 58.907227 239 232 243
15.918602 6.626949 59.024338 240 235 245
15.918602 6.754186 59.024338 246 243 248
15.918602 6.881423 59.024338 250 247 249
15.824223 6.967106 58.674393 238 233 235
15.793011 7.079597 58.558662 221 213 215
15.793011 7.205829 58.558662 225 217 217
15.761923 7.317629 58.443390 243 239 235
15.700111 7.414423 58.214199 253 252 246
15.638783 7.510460 57.986801 247 246 238
15.577931 7.605750 57.761173 225 221 212
15.547683 7.715253 57.649014 201 195 184
15.517551 7.824332 57.537292 196 190 180
15.457639 7.917675 57.315140 193 188 179
15.339189 7.979608 56.875942 179 174 164
15.339189 8.102214 56.875942 182 177 167
15.427855 8.272361 57.204704 194 188 181
15.457639 8.411883 57.315140 179 173 171
15.457639 8.535436 57.315140 181 175 176
15.487537 8.675735 57.425999 219 213 217
15.517551 8.816581 57.537292 224 216 223
15.547683 8.957972 57.649014 202 194 202
15.577931 9.099914 57.761173 215 209 215
15.577931 9.224427 57.761173 241 239 240
15.608297 9.367165 57.873768 234 230 228
15.638783 9.510460 57.986801 208 203 197
15.638783 9.635460 57.986801 212 207 198
15.638783 9.760460 57.986801 234 229 217
15.638783 9.885460 57.986801 246 240 228
15.638783 10.010460 57.986801 244 238 226
15.669387 10.155294 58.100277 233 224 213
15.638783 10.260460 57.986801 221 210 199
15.638783 10.385460 57.986801 222 210 200
15.608297 10.489972 57.873768 231 220 212
15.577931 10.594077 57.761173 234 223 215
15.547683 10.697778 57.649014 222 210 203
15.577931 10.843104 57.761173 201 189 181
15.577931 10.967618 57.761173 178 165 157
15.608297 11.113753 57.873768 161 148 138
15.608297 11.238510 57.873768 160 148 135
15.608297 11.363266 57.873768 190 180 166
15.608297 11.488023 57.873768 222 214 199
15.577931 11.590186 57.761173 223 213 194
16.371311 -4.662565 60.221588 109 88 94
16.338171 -4.523572 60.099682 119 96 104
16.338171 -4.394017 60.099682 131 105 116
16.338171 -4.264462 60.099682 137 107 120
16.338171 -4.134908 60.099682 132 99 112
16.338171 -4.005353 60.099682 134 98 111
16.338171 -3.875799 60.099682 146 108 119
16.371311 -3.753843 60.221588 145 105 115
16.371311 -3.624025 60.221588 121 82 90
16.371311 -3.494208 60.221588 101 64 71
16.371311 -3.364391 60.221588 103 66 72
16.404587 -3.241148 60.343987 108 71 78
16.371311 -3.104756 60.221588 114 76 83
16.338171 -2.968916 60.099682 140 100 109
16.305164 -2.833625 59.978268 180 140 149
16.272291 -2.698880 59.857342 196 156 164
16.272291 -2.569848 59.857342 175 137 144
16.272291 -2.440816 59.857342 146 111 119
16.272291 -2.311783 59.857342 133 103 110
16.272291 -2.182751 59.857342 124 98 106
16.239550 -2.049587 59.736904 106 82 93
16.206942 -1.916957 59.616951 106 83 97
16.206942 -1.788443 59.616951 147 124 140
16.206942 -1.659929 59.616951 194 169 187
16.206942 -1.531415 59.616951 198 169 188
16.206942 -1.402901 59.616951 162 131 149
16.206942 -1.274387 59.616951 135 101 116
16.206942 -1.145873 59.616951 134 99 110
16.174461 -1.015320 59.497478 138 104 110
16.142113 -0.885289 59.378483 137 102 104
16.109894 -0.755777 59.259964 136 103 100
16.077803 -0.626782 59.141918 141 108 102
16.077803 -0.499292 59.141918 148 117 109
16.174461 -0.374037 59.497478 151 121 112
16.206942 -0.246274 59.616951 145 116 110
16.239550 -0.117997 59.736904 139 112 109
16.239550 0.010776 59.736904 135 110 110
16.272291 0.139830 59.857342 126 103 106
16.272291 0.268862 59.857342 119 97 104
16.272291 0.397894 59.857342 121 101 110
16.239550 0.525866 59.736904 133 114 123
16.239550 0.654639 59.736904 142 122 131
16.239550 0.783411 59.736904 147 126 135
16.239550 0.912184 59.736904 153 132 139
16.239550 1.040957 59.736904 161 139 145
16.239550 1.169729 59.736904 172 150 155
16.239550 1.298502 59.736904 183 161 166
16.239550 1.427275 59.736904 183 163 170
16.239550 1.556047 59.736904 179 160 168
16.206942 1.681437 59.616951 177 158 167
16.174461 1.806324 59.497478 172 153 161
16.142113 1.930711 59.378483 164 145 150
16.142113 2.058711 59.378483 174 155 158
16.174461 2.191093 59.497478 212 198 198
16.174461 2.319350 59.497478 240 231 228
16.174461 2.447606 59.497478 227 214 209
16.142113 2.570711 59.378483 194 176 170
16.142113 2.698711 59.378483 169 150 146
16.174461 2.832376 59.497478 156 137 134
16.174461 2.960632 59.497478 151 134 132
16.206942 3.095091 59.616951 163 146 143
16.239550 3.230092 59.736904 180 166 160
16.272291 3.365636 59.857342 188 175 168
16.272291 3.494668 59.857342 186 172 165
16.272291 3.623701 59.857342 180 166 157
16.272291 3.752733 59.857342 177 162 154
16.272291 3.881765 59.857342 195 180 173
16.272291 4.010798 59.857342 212 197 192
16.272291 4.139830 59.857342 199 185 183
16.239550 4.260273 59.736904 178 166 167
16.239550 4.389045 59.736904 185 176 179
16.239550 4.517818 59.736904 215 209 212
16.206942 4.637260 59.616951 229 224 227
16.174461 4.756223 59.497478 212 204 209
16.174461 4.884480 59.497478 199 189 195
16.174461 5.012736 59.497478 210 199 204
16.142113 5.130711 59.378483 225 213 216
16.142113 5.258711 59.378483 231 218 220
16.109894 5.375959 59.259964 236 226 226
16.109894 5.503704 59.259964 242 235 234
16.077803 5.620230 59.141918 238 231 229
16.045837 5.736293 59.024338 222 214 213
16.014002 5.851896 58.907227 210 202 203
16.014002 5.978880 58.907227 207 201 204
16.014002 6.105864 58.907227 210 204 212
16.109894 6.270171 59.259964 218 211 221
16.109894 6.397915 59.259964 228 220 233
16.045837 6.499712 59.024338 236 228 241
16.014002 6.613801 58.907227 240 233 244
16.014002 6.740785 58.907227 245 240 248
15.950705 6.840623 58.674393 250 246 250
15.887907 6.939676 58.443390 243 240 241
15.856693 7.051779 58.328571 229 224 223
15.825602 7.163442 58.214199 226 221 219
15.825602 7.288932 58.214199 238 235 232
15.763783 7.385460 57.986801 249 248 244
15.702445 7.481236 57.761173 246 246 241
15.671955 7.590981 57.649014 223 221 217
15.641582 7.700301 57.537292 195 192 186
