ply
format ascii 1.0
element vertex 1269
property float x
property float y
property float z
property uchar red
property uchar green
property uchar blue
end_header
0.293601 13.785556 64.541832 61 34 38
0.292965 13.894481 64.401825 63 34 38
0.292330 14.002934 64.262428 64 34 38
0.291699 14.110919 64.123634 67 37 42
0.291070 14.218438 63.985435 78 50 54
0.291070 14.356370 63.985435 88 61 65
0.291070 14.494301 63.985435 81 56 59
0.290444 14.600764 63.847832 65 42 44
0.290444 14.738399 63.847832 57 36 38
0.290444 14.876033 63.847832 57 37 39
0.290444 15.013668 63.847832 57 37 40
0.291070 15.183956 63.985435 56 37 40
0.291070 15.321887 63.985435 55 36 38
0.291070 15.459818 63.985435 55 35 37
0.291070 15.597749 63.985435 56 35 37
0.291699 15.769667 64.123634 58 35 36
0.291070 15.873610 63.985435 59 35 37
0.291070 16.011541 63.985435 60 35 37
0.291070 16.149473 63.985435 62 35 38
0.291070 16.287403 63.985435 63 35 40
0.291070 16.425335 63.985435 65 37 43
0.291070 16.563267 63.985435 70 42 48
0.291070 16.701197 63.985435 76 49 56
0.291070 16.839128 63.985435 81 55 63
0.291070 16.977058 63.985435 80 55 63
0.291070 17.114990 63.985435 71 48 56
0.291070 17.252922 63.985435 62 39 48
0.291070 17.390852 63.985435 64 42 51
0.291070 17.528784 63.985435 74 52 59
0.291070 17.666714 63.985435 80 58 64
0.291070 17.804646 63.985435 76 54 58
0.291070 17.942577 63.985435 68 47 49
0.291070 18.080507 63.985435 63 42 43
0.290444 18.179258 63.847832 62 42 42
0.290444 18.316893 63.847832 63 43 43
0.289821 18.414927 63.710819 64 45 45
0.289201 18.512539 63.574394 65 47 46
0.289201 18.649584 63.574394 64 46 46
0.289201 18.786629 63.574394 62 45 45
0.289201 18.923674 63.574394 61 44 45
0.288583 19.019991 63.438553 61 44 45
0.287967 19.115896 63.303288 62 45 46
0.287355 19.211395 63.168602 64 47 48
0.287355 19.347565 63.168602 67 49 50
0.287355 19.483734 63.168602 71 52 53
0.287355 19.619905 63.168602 75 56 58
0.287967 19.798199 63.303288 77 59 60
0.427160 -5.482070 63.710819 63 40 40
0.427160 -5.344731 63.710819 59 37 37
0.427160 -5.207392 63.710819 57 35 36
0.427160 -5.070053 63.710819 56 33 36
0.428079 -4.943322 63.847832 55 32 36
0.428079 -4.805687 63.847832 55 32 35
0.428079 -4.668053 63.847832 55 31 34
0.427160 -4.520697 63.710819 56 31 34
0.427160 -4.383358 63.710819 57 32 35
0.426245 -4.236926 63.574394 59 33 36
0.426245 -4.099881 63.574394 61 34 37
0.425335 -3.954369 63.438553 62 35 37
0.425335 -3.817616 63.438553 64 36 38
0.425335 -3.680864 63.438553 64 36 39
0.424428 -3.536556 63.303288 63 35 38
0.423525 -3.392861 63.168602 62 33 37
0.422626 -3.249776 63.034485 62 33 38
0.421730 -3.107298 62.900936 63 35 39
0.419067 -2.952936 62.503666 63 35 40
0.418186 -2.812279 62.372356 63 36 40
0.418186 -2.677825 62.372356 62 35 39
0.418186 -2.543371 62.372356 61 35 38
0.418186 -2.408917 62.372356 59 34 36
0.418186 -2.274463 62.372356 57 32 34
0.417310 -2.135523 62.241596 56 31 32
0.417310 -2.001351 62.241596 57 31 31
0.417310 -1.867179 62.241596 59 31 32
0.419067 -1.740304 62.503666 61 31 32
0.419951 -1.608955 62.635532 61 31 33
0.422626 -1.483322 63.034485 62 31 34
0.423525 -1.350307 63.168602 63 32 36
0.423525 -1.214137 63.168602 64 34 38
0.423525 -1.077967 63.168602 68 39 44
0.425335 -0.945822 63.438553 74 47 51
0.427160 -0.812542 63.710819 76 50 53
0.428079 -0.676655 63.847832 73 48 51
0.427160 -0.537864 63.710819 70 45 48
0.427160 -0.400525 63.710819 69 45 48
0.426245 -0.262622 63.574394 68 44 47
0.426245 -0.125577 63.574394 66 42 44
0.426245 0.011468 63.574394 63 39 41
0.426245 0.148513 63.574394 61 36 38
0.421730 0.282533 62.900936 60 34 37
0.418186 0.414612 62.372356 60 33 38
0.417310 0.547915 62.241596 61 33 38
0.417310 0.682087 62.241596 62 33 39
0.416436 0.814551 62.111385 63 34 39
0.417310 0.950431 62.241596 64 34 39
0.422626 1.098419 63.034485 64 34 39
0.426245 1.244873 63.574394 64 34 38
0.427160 1.384883 63.710819 64 34 38
0.428079 1.525496 63.847832 65 34 38
0.433675 1.684870 64.682442 64 34 38
0.433675 1.824304 64.682442 64 35 39
0.430859 1.950986 64.262428 64 35 39
0.429928 2.085001 64.123634 64 34 38
0.429001 2.218439 63.985435 64 34 37
0.429001 2.356369 63.985435 65 35 37
0.427160 2.483595 63.710819 66 36 38
0.426245 2.615322 63.574394 67 37 39
0.423525 2.734799 63.168602 68 38 39
0.423525 2.870969 63.168602 68 38 39
0.554475 4.828288 82.699837 63 36 35
0.543871 4.910807 81.118149 62 36 35
0.543871 5.085670 81.118149 61 36 35
0.530818 5.134281 79.171310 60 37 35
0.444323 4.869097 66.270630 64 37 36
0.444323 5.011954 66.270630 64 37 36
0.444323 5.154811 66.270630 64 36 36
0.442348 5.274123 65.976097 63 35 36
0.440391 5.392379 65.684166 63 34 36
0.438451 5.509593 65.394806 63 34 36
0.434621 5.601213 64.823669 64 34 36
0.432732 5.715990 64.541832 65 36 37
0.432732 5.855121 64.541832 66 37 38
0.431793 5.981248 64.401825 66 37 38
0.431793 6.120077 64.401825 64 36 36
0.431793 6.258905 64.401825 64 35 36
0.346789 5.138250 51.723419 64 35 36
0.345584 5.231520 51.543823 64 36 37
0.345584 5.342631 51.543823 65 36 37
0.423525 7.092246 63.168602 65 38 40
0.424428 7.243828 63.303288 65 38 40
0.423525 7.364586 63.168602 64 38 39
0.439419 9.053765 65.539169 61 35 37
0.440391 9.215388 65.684166 61 34 37
0.440391 9.356981 65.684166 60 34 38
0.439419 9.477606 65.539169 60 35 39
0.439419 9.618886 65.539169 62 36 41
0.438451 9.738668 65.394806 64 39 44
0.436528 9.836306 65.107986 67 41 45
0.436528 9.976657 65.107986 65 39 43
0.441367 12.215866 65.829803 59 36 39
0.439419 12.303213 65.539169 60 37 40
0.438451 12.417083 65.394806 61 38 41
0.438451 12.558052 65.394806 64 41 44
0.436528 12.643323 65.107986 65 41 44
0.436528 12.783674 65.107986 63 38 42
0.437487 12.952430 65.251083 60 35 39
0.437487 13.093089 65.251083 59 34 38
0.439419 13.292175 65.539169 58 34 38
0.439419 13.433455 65.539169 58 34 38
0.440391 13.604769 65.684166 58 34 38
0.439419 13.716017 65.539169 58 34 38
0.438451 13.826775 65.394806 59 34 38
0.431793 13.755651 64.401825 60 34 38
0.430859 13.864406 64.262428 62 34 38
0.429928 13.972690 64.123634 64 34 39
0.429928 14.110919 64.123634 67 38 42
0.429001 14.218438 63.985435 77 49 52
0.429001 14.356370 63.985435 84 58 61
0.428079 14.463130 63.847832 77 53 56
0.428079 14.600764 63.847832 64 42 44
0.428079 14.738399 63.847832 58 37 39
0.429001 14.908093 63.985435 59 38 41
0.429001 15.046024 63.985435 59 39 41
0.429001 15.183956 63.985435 58 38 41
0.429001 15.321887 63.985435 57 37 40
0.429001 15.459818 63.985435 56 36 38
0.429928 15.631437 64.123634 57 36 38
0.429928 15.769667 64.123634 59 37 38
0.429928 15.907895 64.123634 60 36 38
0.429001 16.011541 63.985435 60 35 38
0.429001 16.149473 63.985435 61 35 38
0.429001 16.287403 63.985435 62 35 39
0.429001 16.425335 63.985435 66 38 43
0.429001 16.563267 63.985435 72 44 51
0.429001 16.701197 63.985435 79 52 59
0.429001 16.839128 63.985435 83 57 64
0.429001 16.977058 63.985435 79 55 62
0.429001 17.114990 63.985435 70 47 55
0.429001 17.252922 63.985435 63 40 49
0.429001 17.390852 63.985435 65 42 51
0.429001 17.528784 63.985435 73 50 58
0.429001 17.666714 63.985435 76 53 60
0.429001 17.804646 63.985435 71 49 54
0.429001 17.942577 63.985435 64 43 46
0.429001 18.080507 63.985435 61 39 42
0.428079 18.179258 63.847832 60 40 41
0.428079 18.316893 63.847832 61 42 42
0.427160 18.414927 63.710819 62 44 44
0.426245 18.512539 63.574394 64 46 46
0.426245 18.649584 63.574394 63 46 47
0.426245 18.786629 63.574394 62 45 47
0.426245 18.923674 63.574394 62 45 47
0.425335 19.019991 63.438553 63 46 48
0.424428 19.115896 63.303288 64 47 50
0.423525 19.211395 63.168602 67 49 52
0.423525 19.347565 63.168602 69 50 54
0.423525 19.483734 63.168602 72 52 56
0.423525 19.619905 63.168602 74 55 58
0.423525 19.756075 63.168602 75 57 59
0.564499 -5.619409 63.710819 74 49 48
0.563290 -5.470331 63.574394 66 43 41
0.562087 -5.321890 63.438553 60 37 37
0.562087 -5.185138 63.438553 57 35 36
0.563290 -5.059196 63.574394 57 35 37
0.563290 -4.922151 63.574394 57 34 37
0.563290 -4.785106 63.574394 56 33 37
0.563290 -4.648061 63.574394 56 33 37
0.563290 -4.511016 63.574394 57 32 36
0.563290 -4.373971 63.574394 58 33 36
0.563290 -4.236926 63.574394 60 33 37
0.563290 -4.099881 63.574394 62 34 37
0.562087 -3.954369 63.438553 63 34 38
0.562087 -3.817616 63.438553 64 35 38
0.560888 -3.673016 63.303288 64 35 38
0.559695 -3.529031 63.168602 65 35 38
0.558507 -3.385657 63.034485 65 35 38
0.558507 -3.249776 63.034485 66 36 40
0.556145 -3.100729 62.767956 66 37 42
0.553803 -2.952936 62.503666 66 38 42
0.552640 -2.812279 62.372356 65 38 42
0.552640 -2.677825 62.372356 64 37 41
0.551481 -2.538039 62.241596 62 36 40
0.552640 -2.408917 62.372356 60 35 38
0.552640 -2.274463 62.372356 59 34 36
0.552640 -2.140009 62.372356 59 34 35
0.551481 -2.001351 62.241596 59 33 34
0.550328 -1.863273 62.111385 60 33 34
0.551481 -1.733007 62.241596 60 32 34
0.552640 -1.602194 62.372356 60 31 34
0.554972 -1.473934 62.635532 60 31 34
0.558507 -1.347441 63.034485 61 31 35
0.558507 -1.211560 63.034485 62 33 37
0.558507 -1.075678 63.034485 64 36 40
0.559695 -0.941797 63.168602 69 42 46
0.562087 -0.809070 63.438553 72 45 49
0.564499 -0.675203 63.710819 69 44 47
0.564499 -0.537864 63.710819 67 42 45
0.563290 -0.399667 63.574394 67 42 45
0.563290 -0.262622 63.574394 65 40 43
0.563290 -0.125577 63.574394 62 37 40
0.563290 0.011468 63.574394 60 36 39
0.560888 0.147879 63.303288 59 34 37
0.552640 0.280159 62.372356 58 33 37
0.551481 0.413743 62.241596 58 33 38
0.550328 0.546769 62.111385 59 33 38
0.549179 0.679239 61.981716 61 33 39
0.549179 0.812851 61.981716 62 34 39
0.549179 0.946462 61.981716 63 34 39
0.554972 1.091467 62.635532 63 34 39
0.562087 1.242213 63.438553 63 34 38
0.564499 1.384883 63.710819 64 34 38
0.573108 1.545437 64.682442 64 34 38
0.576879 1.695955 65.107986 65 35 39
0.575616 1.832288 64.965523 66 36 40
0.570622 1.955218 64.401825 66 36 40
0.569387 2.089514 64.262428 65 36 39
0.566932 2.218439 63.985435 65 35 38
0.566932 2.356369 63.985435 66 35 38
0.565713 2.488936 63.847832 67 36 39
0.565713 2.626571 63.847832 69 39 41
0.564499 2.758274 63.710819 70 40 41
0.730713 4.814876 82.470116 63 35 35
0.718734 4.910807 81.118149 63 36 35
0.718734 5.085670 81.118149 62 36 35
0.701484 5.134281 79.171310 62 36 35
0.585872 4.858253 66.123032 66 38 36
0.587180 5.011954 66.270630 66 38 36
0.585872 5.143331 66.123032 65 37 36
0.583274 5.262429 65.829803 64 36 36
0.579420 5.368624 65.394806 63 36 36
0.576879 5.485429 65.107986 64 35 37
0.377955 3.685856 42.656956 64 36 38
0.571862 5.715990 64.541832 65 36 39
0.570622 5.842420 64.401825 66 36 39
0.570622 5.981248 64.401825 65 36 38
0.570622 6.120077 64.401825 63 35 37
0.570622 6.258905 64.401825 63 35 36
0.456696 5.120409 51.543823 63 35 36
0.456696 5.231520 51.543823 63 35 36
0.455904 5.333372 51.454491 64 35 36
0.455904 5.444290 51.454491 65 36 37
0.563290 6.863716 63.574394 65 36 37
0.562087 6.985802 63.438553 64 36 38
0.560888 7.107368 63.303288 64 37 39
0.562087 7.259306 63.438553 64 37 39
0.564499 7.427802 63.710819 63 37 39
0.576879 8.573148 65.107986 64 38 41
0.576879 8.713499 65.107986 63 38 40
0.579420 8.892854 65.394806 62 37 39
0.580699 9.053765 65.539169 61 36 39
0.579420 9.738668 65.394806 64 39 44
0.573108 9.772017 64.682442 66 41 45
0.573108 9.911449 64.682442 65 39 43
0.580699 12.161933 65.539169 60 37 40
0.579420 12.276114 65.394806 61 38 41
0.578146 12.389792 65.251083 63 40 43
0.575616 12.475614 64.965523 66 42 45
0.573108 12.560687 64.682442 66 43 45
0.573108 12.700121 64.682442 62 38 41
0.573108 12.839555 64.682442 59 34 38
0.574359 13.007326 64.823669 58 34 37
0.574359 13.147064 64.823669 58 34 37
0.574359 13.286802 64.823669 58 34 37
0.576879 13.485429 65.107986 58 34 38
0.578146 13.655726 65.251083 58 34 38
0.574359 13.706017 64.823669 58 34 38
0.569387 13.725878 64.262428 59 33 37
0.568157 13.834461 64.123634 60 33 38
0.568157 13.972690 64.123634 63 35 39
0.566932 14.080507 63.985435 66 38 42
0.566932 14.218438 63.985435 71 44 47
0.566932 14.356370 63.985435 74 49 51
0.566932 14.494301 63.985435 70 47 49
0.566932 14.632232 63.985435 64 41 43
0.566932 14.770163 63.985435 61 39 42
0.566932 14.908093 63.985435 61 40 43
0.566932 15.046024 63.985435 61 41 44
0.566932 15.183956 63.985435 60 39 42
0.568157 15.354980 64.123634 59 38 41
0.568157 15.493208 64.123634 59 37 40
0.569387 15.665272 64.262428 59 37 40
0.569387 15.803800 64.262428 61 39 41
0.569387 15.942327 64.262428 62 39 41
0.566932 16.011541 63.985435 61 37 40
0.566932 16.149473 63.985435 61 36 39
0.566932 16.287403 63.985435 61 36 40
0.566932 16.425335 63.985435 64 38 43
0.566932 16.563267 63.985435 71 45 50
0.566932 16.701197 63.985435 78 53 59
0.566932 16.839128 63.985435 80 56 62
0.566932 16.977058 63.985435 75 51 58
0.566932 17.114990 63.985435 66 43 51
0.566932 17.252922 63.985435 61 39 47
0.566932 17.390852 63.985435 65 42 49
0.566932 17.528784 63.985435 70 47 55
0.566932 17.666714 63.985435 71 48 56
0.566932 17.804646 63.985435 67 44 50
0.566932 17.942577 63.985435 62 40 44
0.566932 18.080507 63.985435 59 38 40
0.565713 18.179258 63.847832 59 39 40
0.564499 18.277586 63.710819 60 41 42
0.564499 18.414927 63.710819 62 43 44
0.563290 18.512539 63.574394 62 45 45
0.562087 18.609734 63.438553 62 46 47
0.563290 18.786629 63.574394 64 48 50
0.562087 18.883238 63.438553 65 48 52
0.562087 19.019991 63.438553 66 48 53
0.560888 19.115896 63.303288 67 49 54
0.559695 19.211395 63.168602 69 50 56
0.559695 19.347565 63.168602 71 51 57
0.559695 19.483734 63.168602 72 52 58
0.558507 19.578249 63.034485 73 54 59
0.558507 19.714130 63.034485 74 55 59
0.560888 19.934660 63.303288 72 54 58
0.700335 -5.607376 63.574394 77 52 52
0.698839 -5.458642 63.438553 67 43 42
0.698839 -5.321890 63.438553 60 37 36
0.698839 -5.185138 63.438553 58 36 36
0.700335 -5.059196 63.574394 58 36 37
0.698839 -4.911633 63.438553 58 36 38
0.700335 -4.785106 63.574394 58 36 39
0.700335 -4.648061 63.574394 59 36 39
0.700335 -4.511016 63.574394 59 35 38
0.700335 -4.373971 63.574394 60 34 37
0.700335 -4.236926 63.574394 61 34 37
0.700335 -4.099881 63.574394 62 34 38
0.698839 -3.954369 63.438553 63 34 37
0.698839 -3.817616 63.438553 64 34 37
0.695865 -3.665201 63.168602 64 35 37
0.694388 -3.521538 63.034485 65 36 38
0.694388 -3.385657 63.034485 66 37 39
0.694388 -3.249776 63.034485 68 39 42
0.689993 -3.094187 62.635532 69 41 44
0.687094 -2.946732 62.372356 69 41 44
0.687094 -2.812279 62.372356 67 40 44
0.685653 -2.672211 62.241596 65 38 43
0.685653 -2.538039 62.241596 63 38 41
0.685653 -2.403867 62.241596 61 37 39
0.685653 -2.269695 62.241596 61 37 38
0.685653 -2.135523 62.241596 61 36 38
0.684219 -1.997164 62.111385 61 35 37
0.684219 -1.863273 62.111385 61 34 36
0.684219 -1.729382 62.111385 60 32 35
0.684219 -1.595491 62.111385 59 32 35
0.687094 -1.467741 62.372356 59 31 34
0.689993 -1.338912 62.635532 59 31 34
0.692917 -1.208993 62.900936 59 32 35
0.694388 -1.075678 63.034485 61 34 38
0.695865 -0.941797 63.168602 64 37 41
0.697349 -0.807344 63.303288 66 40 43
0.700335 -0.673757 63.574394 65 40 42
0.701838 -0.537864 63.710819 65 40 42
0.700335 -0.399667 63.574394 66 40 43
0.700335 -0.262622 63.574394 63 38 41
0.700335 -0.125577 63.574394 61 36 39
0.700335 0.011468 63.574394 59 34 38
0.697349 0.147879 63.303288 58 34 37
0.687094 0.280159 62.372356 57 33 37
0.682790 0.412016 61.981716 56 32 37
0.682790 0.545627 61.981716 57 33 37
0.682790 0.679239 61.981716 59 33 37
0.681368 0.811157 61.852589 60 33 38
0.681368 0.944491 61.852589 62 34 38
0.689993 1.091467 62.635532 62 34 38
0.701838 1.247544 63.710819 62 33 38
0.891163 1.758462 80.897118 63 33 37
0.720389 1.844395 65.394806 65 35 40
0.718806 1.981001 65.251083 66 35 40
0.709450 2.094047 64.401825 66 35 39
0.707915 2.228042 64.262428 66 35 39
0.706386 2.361459 64.123634 67 35 39
0.704863 2.494301 63.985435 67 37 40
0.703348 2.626571 63.847832 70 40 42
0.703348 2.764205 63.847832 71 41 43
0.703348 2.901840 63.847832 69 39 40
0.703348 3.039474 63.847832 67 37 38
0.849498 3.837287 77.114914 65 35 36
0.908491 4.992654 82.470116 63 35 36
0.611321 3.838048 55.493912 64 35 34
0.477455 3.091030 43.341961 65 36 35
0.475373 3.170575 43.152969 66 37 36
0.730037 5.011954 66.270630 66 38 36
0.730037 5.154811 66.270630 65 37 36
0.730037 5.297668 66.270630 64 36 36
0.718806 5.356825 65.251083 63 36 36
0.469909 3.593902 42.656956 64 36 37
0.465893 3.654352 42.292366 64 36 39
0.468563 3.766985 42.534733 65 36 39
0.709450 5.842420 64.401825 65 36 39
0.709450 5.981248 64.401825 64 35 38
0.707915 6.106830 64.262428 62 34 37
0.565842 5.213418 51.365471 62 34 37
0.565842 5.324144 51.365471 63 35 37
0.565842 5.434871 51.365471 64 35 38
0.700335 6.863716 63.574394 64 35 38
0.701838 7.015784 63.710819 64 36 38
0.698839 7.122554 63.438553 64 36 38
0.701838 7.290462 63.710819 63 36 38
0.703348 7.443775 63.847832 63 36 38
0.704863 7.597749 63.985435 62 36 38
0.707915 7.769168 64.262428 61 36 39
0.712542 8.098814 64.682442 61 36 39
0.714097 8.256235 64.823669 62 37 40
0.714097 8.395972 64.823669 63 38 40
0.714097 8.535710 64.823669 63 38 41
0.717229 8.713499 65.107986 63 38 41
0.718806 8.873309 65.251083 62 38 41
0.720389 9.033823 65.394806 62 38 40
0.721979 9.195045 65.539169 62 37 40
0.715660 12.055483 64.965523 61 37 40
0.715660 12.195526 64.965523 62 38 41
0.715660 12.335570 64.965523 64 40 43
0.712542 12.421254 64.682442 65 42 44
0.710993 12.533381 64.541832 64 41 43
0.710993 12.672512 64.541832 61 37 40
0.710993 12.811643 64.541832 58 34 37
0.710993 12.950772 64.541832 58 34 37
0.710993 13.089903 64.541832 58 34 37
0.710993 13.229033 64.541832 58 34 37
0.712542 13.397288 64.682442 58 35 37
0.714097 13.566278 64.823669 57 35 37
0.712542 13.676156 64.682442 57 34 37
0.706386 13.696232 64.123634 57 33 36
0.706386 13.834461 64.123634 59 33 37
0.704863 13.942576 63.985435 61 35 38
0.704863 14.080507 63.985435 64 37 41
0.704863 14.218438 63.985435 66 41 44
0.704863 14.356370 63.985435 67 43 45
0.704863 14.494301 63.985435 66 43 45
0.704863 14.632232 63.985435 63 41 43
0.704863 14.770163 63.985435 62 41 43
0.704863 14.908093 63.985435 62 41 44
0.704863 15.046024 63.985435 62 41 44
0.706386 15.216750 64.123634 61 40 43
0.706386 15.354980 64.123634 60 38 41
0.706386 15.493208 64.123634 60 38 41
0.707915 15.665272 64.262428 61 39 42
0.707915 15.803800 64.262428 64 42 45
0.707915 15.942327 64.262428 64 42 45
0.706386 16.046124 64.123634 62 39 41
0.704863 16.149473 63.985435 60 37 40
0.704863 16.287403 63.985435 60 37 41
0.704863 16.425335 63.985435 63 39 43
0.704863 16.563267 63.985435 68 44 49
0.704863 16.701197 63.985435 74 51 55
0.704863 16.839128 63.985435 76 53 59
0.704863 16.977058 63.985435 71 48 54
0.704863 17.114990 63.985435 63 41 47
0.704863 17.252922 63.985435 60 38 44
0.704863 17.390852 63.985435 63 41 47
0.704863 17.528784 63.985435 67 44 51
0.704863 17.666714 63.985435 67 44 51
0.704863 17.804646 63.985435 64 41 46
0.704863 17.942577 63.985435 61 38 42
0.704863 18.080507 63.985435 59 38 40
0.703348 18.179258 63.847832 59 40 40
0.703348 18.316893 63.847832 60 42 41
0.701838 18.414927 63.710819 61 43 43
0.698839 18.472982 63.438553 62 45 45
0.698839 18.609734 63.438553 64 48 49
0.698839 18.746487 63.438553 69 53 55
0.698839 18.883238 63.438553 71 55 59
0.697349 18.979437 63.303288 70 54 59
0.695865 19.075224 63.168602 69 52 58
0.695865 19.211395 63.168602 70 52 58
0.695865 19.347565 63.168602 71 52 59
0.695865 19.483734 63.168602 72 53 60
0.694388 19.578249 63.034485 72 53 59
0.694388 19.714130 63.034485 72 52 59
0.697349 19.934660 63.303288 70 52 58
0.837380 -5.607376 63.574394 74 48 50
0.837380 -5.470331 63.574394 65 41 41
0.835591 -5.321890 63.438553 59 37 37
0.837380 -5.196241 63.574394 58 36 37
0.837380 -5.059196 63.574394 59 37 38
0.837380 -4.922151 63.574394 60 38 41
0.837380 -4.785106 63.574394 62 40 43
0.837380 -4.648061 63.574394 63 40 43
0.837380 -4.511016 63.574394 63 39 42
0.837380 -4.373971 63.574394 62 37 40
0.837380 -4.236926 63.574394 63 37 40
0.837380 -4.099881 63.574394 63 36 39
0.835591 -3.954369 63.438553 63 35 38
0.833809 -3.809477 63.303288 63 35 37
0.830269 -3.657419 63.034485 63 35 36
0.825014 -3.499250 62.635532 64 36 37
0.825014 -3.364229 62.635532 66 37 39
0.825014 -3.229208 62.635532 69 40 42
0.823277 -3.087673 62.503666 71 42 44
0.821548 -2.946732 62.372356 70 43 45
0.819825 -2.806383 62.241596 68 41 45
0.819825 -2.672211 62.241596 66 39 43
0.819825 -2.538039 62.241596 63 38 42
0.819825 -2.403867 62.241596 62 37 40
0.819825 -2.269695 62.241596 62 37 40
0.819825 -2.135523 62.241596 61 37 40
0.818110 -1.997164 62.111385 61 36 38
0.816402 -1.859383 61.981716 61 34 37
0.816402 -1.725771 61.981716 60 33 36
0.816402 -1.592160 61.981716 59 32 35
0.818110 -1.461599 62.111385 59 31 34
0.821548 -1.333287 62.372356 58 31 34
0.828510 -1.208993 62.900936 58 31 34
0.830269 -1.075678 63.034485 58 32 35
0.832035 -0.941797 63.168602 61 35 37
0.833809 -0.807344 63.303288 62 36 38
0.839177 -0.675203 63.710819 62 36 38
0.839177 -0.537864 63.710819 63 37 39
0.839177 0.011492 63.710819 59 35 38
0.837380 0.148513 63.574394 58 33 37
0.832035 0.283735 63.168602 56 32 36
0.819825 0.413743 62.241596 55 32 36
0.816402 0.545627 61.981716 56 32 35
0.816402 0.679239 61.981716 58 32 36
0.816402 0.812851 61.981716 59 33 36
0.819825 0.950431 62.241596 60 33 37
1.059774 1.402047 80.458649 61 33 37
1.065549 1.584075 80.897118 61 33 37
0.846443 2.228042 64.262428 66 36 39
0.846443 2.366570 64.262428 67 36 40
0.844615 2.499688 64.123634 68 38 41
0.840982 2.626571 63.847832 70 40 43
0.840982 2.764205 63.847832 70 41 42
0.840982 2.901840 63.847832 67 38 39
0.837380 3.026457 63.574394 65 36 37
0.840982 3.177109 63.847832 64 34 36
0.572557 2.912673 43.468876 64 34 36
0.569224 2.988873 43.215782 65 35 35
0.872894 5.297668 66.270630 63 35 35
0.857580 5.345078 65.107986 63 35 36
0.557061 3.745521 42.292366 64 36 39
0.848279 5.842420 64.401825 64 36 39
0.850123 5.994251 64.541832 64 35 38
0.676569 5.213418 51.365471 63 34 38
0.676569 5.324144 51.365471 63 34 39
0.676569 5.434871 51.365471 63 35 39
0.839177 6.878445 63.710819 64 36 39
0.842794 7.046025 63.985435 65 37 40
0.840982 7.168507 63.847832 65 37 39
0.840982 7.306141 63.847832 64 36 39
0.842794 7.459818 63.985435 63 36 39
0.842794 7.597749 63.985435 64 37 41
0.844615 7.752388 64.123634 64 37 41
0.848279 7.924849 64.401825 64 37 42
0.850123 8.081207 64.541832 63 37 41
0.851975 8.238247 64.682442 63 37 41
0.851975 8.377681 64.682442 63 38 40
0.853835 8.535710 64.823669 63 38 41
0.857580 8.713499 65.107986 62 38 41
0.857580 8.853849 65.107986 62 38 40
0.859465 9.013968 65.251083 62 38 40
0.859465 9.154628 65.251083 62 37 40
0.863260 9.336326 65.539169 62 37 40
0.853835 12.168899 64.823669 62 37 41
0.853835 12.308637 64.823669 63 38 41
0.851975 12.421254 64.682442 63 39 42
0.850123 12.533381 64.541832 63 39 41
0.850123 12.672512 64.541832 61 36 38
0.850123 12.811643 64.541832 60 34 36
0.850123 12.950772 64.541832 59 35 37
0.850123 13.089903 64.541832 59 35 37
0.850123 13.229033 64.541832 59 35 37
0.850123 13.368164 64.541832 58 35 37
0.851975 13.536722 64.682442 57 35 37
0.851975 13.676156 64.682442 57 35 36
0.844615 13.696232 64.123634 56 34 36
0.844615 13.834461 64.123634 58 33 36
0.842794 13.942576 63.985435 59 35 37
0.842794 14.080507 63.985435 62 37 40
0.842794 14.218438 63.985435 64 40 42
0.842794 14.356370 63.985435 65 41 43
0.842794 14.494301 63.985435 64 41 43
0.842794 14.632232 63.985435 63 41 42
0.842794 14.770163 63.985435 63 41 43
0.842794 14.908093 63.985435 63 41 43
0.842794 15.046024 63.985435 62 41 43
0.842794 15.183956 63.985435 62 40 43
0.844615 15.354980 64.123634 61 38 41
0.844615 15.493208 64.123634 60 38 41
0.846443 15.665272 64.262428 63 41 44
0.846443 15.803800 64.262428 67 45 48
0.844615 15.907895 64.123634 65 43 46
0.844615 16.046124 64.123634 60 39 41
0.842794 16.149473 63.985435 58 37 39
0.842794 16.287403 63.985435 60 38 41
0.842794 16.425335 63.985435 62 41 43
0.842794 16.563267 63.985435 66 44 47
0.842794 16.701197 63.985435 70 49 52
0.842794 16.839128 63.985435 72 50 54
0.842794 16.977058 63.985435 67 45 49
0.842794 17.114990 63.985435 60 39 43
0.842794 17.252922 63.985435 59 38 41
0.842794 17.390852 63.985435 61 39 44
0.842794 17.528784 63.985435 64 41 46
0.842794 17.666714 63.985435 64 41 46
0.842794 17.804646 63.985435 62 39 44
0.842794 17.942577 63.985435 60 38 42
0.842794 18.080507 63.985435 60 39 41
0.840982 18.179258 63.847832 60 41 41
0.840982 18.316893 63.847832 61 43 42
0.839177 18.414927 63.710819 62 45 44
0.835591 18.472982 63.438553 63 46 46
0.835591 18.609734 63.438553 66 50 50
0.833809 18.706514 63.303288 73 57 58
0.832035 18.802883 63.168602 76 60 63
0.832035 18.939054 63.168602 74 58 61
0.832035 19.075224 63.168602 71 53 60
0.832035 19.211395 63.168602 71 52 60
0.832035 19.347565 63.168602 71 52 61
0.832035 19.483734 63.168602 71 52 61
0.830269 19.578249 63.034485 71 52 60
0.830269 19.714130 63.034485 71 51 59
0.832035 19.892246 63.168602 69 50 57
0.976516 -5.619409 63.710819 68 43 46
0.974425 -5.470331 63.574394 64 40 41
0.974425 -5.333286 63.574394 61 38 38
0.976516 -5.207392 63.710819 59 37 37
0.976516 -5.070053 63.710819 58 37 38
0.976516 -4.932714 63.710819 60 39 41
0.974425 -4.785106 63.574394 64 42 45
0.974425 -4.648061 63.574394 68 46 48
0.974425 -4.511016 63.574394 68 45 48
0.974425 -4.373971 63.574394 67 41 44
0.972343 -4.227873 63.438553 66 39 42
0.972343 -4.091121 63.438553 65 38 41
0.970270 -3.945937 63.303288 64 37 40
0.968206 -3.801371 63.168602 63 36 37
0.960035 -3.634271 62.635532 62 34 35
0.958014 -3.491883 62.503666 62 35 35
0.960035 -3.364229 62.635532 64 37 37
0.958014 -3.222409 62.503666 67 39 41
0.958014 -3.087673 62.503666 69 41 43
0.956001 -2.946732 62.372356 68 41 43
0.953997 -2.806383 62.241596 67 39 43
0.953997 -2.672211 62.241596 65 38 42
0.953997 -2.538039 62.241596 64 38 42
0.953997 -2.403867 62.241596 63 37 42
0.953997 -2.269695 62.241596 62 37 41
0.953997 -2.135523 62.241596 62 37 41
0.952001 -1.997164 62.111385 61 36 39
0.950014 -1.859383 61.981716 61 34 38
0.948035 -1.722176 61.852589 60 33 37
0.948035 -1.588843 61.852589 59 32 36
0.948035 -1.455509 61.852589 59 31 35
0.952001 -1.327708 62.111385 59 31 35
0.964103 -1.208993 62.900936 59 31 35
0.966150 -1.075678 63.034485 59 31 35
0.968206 -0.941797 63.168602 59 32 35
1.274668 0.732088 83.163147 56 31 35
1.250156 0.893834 81.563850 57 31 35
1.239936 1.060914 80.897118 58 32 35
1.243324 1.238676 81.118149 59 32 35
1.239936 1.409688 80.897118 60 32 36
1.239936 1.584075 80.897118 61 33 36
1.239936 1.758462 80.897118 62 33 37
0.984971 2.366570 64.262428 67 37 40
0.982844 2.499688 64.123634 68 38 41
0.978616 2.626571 63.847832 68 39 42
0.972343 2.746486 63.438553 68 39 40
0.972343 2.883238 63.438553 66 37 38
0.974425 3.026457 63.574394 65 35 36
0.978616 3.177109 63.847832 65 34 35
0.785935 5.204413 51.276756 63 34 39
0.785935 5.314949 51.276756 63 35 39
0.787295 5.434871 51.365471 63 35 39
0.980726 6.908093 63.985435 64 36 39
0.982844 7.061243 64.123634 65 37 40
0.980726 7.183956 63.985435 65 37 40
0.982844 7.337701 64.123634 65 37 40
0.982844 7.475930 64.123634 66 38 41
0.980726 7.597749 63.985435 67 40 43
0.980726 7.735680 63.985435 67 40 44
0.982844 7.890616 64.123634 67 39 44
0.984971 8.046224 64.262428 66 39 43
0.987108 8.202506 64.401825 64 38 41
0.989254 8.359468 64.541832 63 38 40
0.991409 8.517115 64.682442 63 38 40
0.993573 8.675448 64.823669 63 37 39
0.995748 8.834476 64.965523 63 37 39
0.995748 8.974520 64.965523 62 37 39
0.995748 9.114563 64.965523 62 37 39
1.000124 9.295287 65.251083 62 37 39
0.993573 12.168899 64.823669 62 37 39
0.993573 12.308637 64.823669 62 37 39
0.993573 12.448375 64.823669 62 38 39
0.989254 12.533381 64.541832 62 37 39
0.989254 12.672512 64.541832 61 36 38
0.989254 12.811643 64.541832 61 35 37
0.989254 12.950772 64.541832 61 35 37
0.989254 13.089903 64.541832 61 35 37
0.989254 13.229033 64.541832 60 35 37
0.989254 13.368164 64.541832 59 35 37
0.991409 13.536722 64.682442 59 35 36
0.991409 13.676156 64.682442 58 35 36
0.984971 13.725878 64.262428 58 34 35
0.982844 13.834461 64.123634 58 34 35
0.980726 13.942576 63.985435 60 36 36
0.980726 14.080507 63.985435 62 38 39
0.980726 14.218438 63.985435 63 40 41
0.980726 14.356370 63.985435 64 41 43
0.980726 14.494301 63.985435 64 41 43
0.980726 14.632232 63.985435 63 40 42
0.978616 14.738399 63.847832 63 41 42
0.978616 14.876033 63.847832 63 41 42
0.980726 15.046024 63.985435 63 40 42
0.980726 15.183956 63.985435 63 39 42
0.982844 15.354980 64.123634 61 38 41
0.982844 15.493208 64.123634 61 38 41
0.982844 15.631437 64.123634 65 42 45
0.982844 15.769667 64.123634 68 46 49
0.982844 15.907895 64.123634 64 43 45
0.982844 16.046124 64.123634 60 39 41
0.982844 16.184353 64.123634 58 38 39
0.980726 16.287403 63.985435 60 40 41
0.980726 16.425335 63.985435 63 42 44
0.980726 16.563267 63.985435 65 44 47
0.980726 16.701197 63.985435 68 47 49
0.980726 16.839128 63.985435 68 47 49
0.980726 16.977058 63.985435 64 42 45
0.980726 17.114990 63.985435 59 38 40
0.980726 17.252922 63.985435 59 38 40
0.980726 17.390852 63.985435 60 38 41
0.980726 17.528784 63.985435 60 39 42
0.980726 17.666714 63.985435 61 39 43
0.980726 17.804646 63.985435 61 40 43
0.980726 17.942577 63.985435 61 40 42
0.980726 18.080507 63.985435 61 41 42
0.978616 18.179258 63.847832 61 42 42
0.978616 18.316893 63.847832 62 44 43
0.976516 18.414927 63.710819 64 46 44
0.972343 18.472982 63.438553 65 48 46
0.970270 18.570055 63.303288 69 52 50
0.968206 18.666714 63.168602 76 59 58
0.966150 18.762962 63.034485 78 61 62
0.966150 18.898844 63.034485 74 57 60
0.966150 19.034725 63.034485 71 53 58
0.968206 19.211395 63.168602 70 51 59
0.968206 19.347565 63.168602 71 52 61
0.968206 19.483734 63.168602 71 52 61
0.966150 19.578249 63.034485 70 51 60
0.966150 19.714130 63.034485 70 50 59
0.966150 19.850012 63.034485 69 49 57
0.968206 20.028416 63.168602 69 49 56
1.113855 -5.756748 63.710819 67 41 45
1.113855 -5.619409 63.710819 66 41 44
1.113855 -5.482070 63.710819 64 40 42
1.113855 -5.344731 63.710819 62 39 40
1.113855 -5.207392 63.710819 59 37 38
1.116251 -5.080956 63.847832 58 37 38
1.116251 -4.943322 63.847832 60 39 40
1.113855 -4.795374 63.710819 65 43 46
1.113855 -4.658035 63.710819 71 49 51
1.113855 -4.520697 63.710819 72 48 51
1.111470 -4.373971 63.574394 70 45 48
1.109095 -4.227873 63.438553 69 42 45
1.106731 -4.082398 63.303288 68 41 44
1.104376 -3.937541 63.168602 67 40 42
1.104376 -3.801371 63.168602 65 38 39
1.092751 -3.626620 62.503666 63 36 37
1.092751 -3.491883 62.503666 62 35 35
1.092751 -3.357146 62.503666 63 36 37
1.092751 -3.222409 62.503666 65 37 39
1.092751 -3.087673 62.503666 65 38 40
1.090455 -2.946732 62.372356 65 38 41
1.090455 -2.812279 62.372356 65 37 41
1.090455 -2.677825 62.372356 65 37 41
1.088169 -2.538039 62.241596 64 37 42
1.090455 -2.408917 62.372356 64 37 42
1.090455 -2.274463 62.372356 63 37 41
1.088169 -2.135523 62.241596 62 36 40
1.085893 -1.997164 62.111385 62 35 39
1.083626 -1.859383 61.981716 61 34 37
1.081368 -1.722176 61.852589 60 33 37
1.081368 -1.588843 61.852589 60 32 36
1.081368 -1.455509 61.852589 60 32 36
1.081368 -1.322176 61.852589 60 31 36
1.092751 -1.201357 62.503666 60 31 36
1.099696 -1.073399 62.900936 60 31 36
1.453940 0.911360 83.163147 57 31 35
1.425980 1.069658 81.563850 58 32 34
1.425980 1.245482 81.563850 59 32 34
1.414323 1.409688 80.897118 59 32 34
1.414323 1.584075 80.897118 60 32 35
1.395314 1.734827 79.809792 62 33 36
1.387852 1.896672 79.383003 63 33 37
1.123499 2.366570 64.262428 67 37 40
1.121073 2.499688 64.123634 67 37 40
1.116251 2.626571 63.847832 67 37 40
1.106731 2.740630 63.303288 67 37 39
1.106731 2.877090 63.303288 65 37 37
1.111470 3.026457 63.574394 65 35 36
1.116251 3.177109 63.847832 65 34 35
1.458024 5.228527 83.396751 63 35 38
1.453940 5.393153 83.163147 63 35 37
0.896471 5.204413 51.276756 62 34 39
0.896471 5.314949 51.276756 62 35 39
0.896471 5.425484 51.276756 63 35 39
1.123499 6.937999 64.262428 64 36 39
1.123499 7.076527 64.262428 65 36 39
1.121073 7.199472 64.123634 66 37 40
1.121073 7.337701 64.123634 66 38 41
1.121073 7.475930 64.123634 67 40 42
1.121073 7.614159 64.123634 69 42 44
1.118657 7.735680 63.985435 71 43 46
1.118657 7.873611 63.985435 70 42 46
1.121073 8.028846 64.123634 68 41 44
1.123499 8.184752 64.262428 65 38 42
1.125936 8.341335 64.401825 64 37 40
1.125936 8.480164 64.401825 63 36 39
1.128384 8.637730 64.541832 63 36 38
1.128384 8.776859 64.541832 63 36 38
1.118657 8.839128 63.985435 63 36 38
1.118657 8.977059 63.985435 63 36 38
1.118657 9.528784 63.985435 62 36 38
1.133311 12.168899 64.823669 62 36 38
1.133311 12.308637 64.823669 63 37 38
1.133311 12.448375 64.823669 62 36 38
1.130842 12.560687 64.682442 62 36 38
1.128384 12.672512 64.541832 62 36 38
1.130842 12.839555 64.682442 62 36 38
1.130842 12.978988 64.682442 63 36 38
1.130842 13.118422 64.682442 63 37 39
1.130842 13.257855 64.682442 62 37 38
1.130842 13.397288 64.682442 61 37 37
1.130842 13.536722 64.682442 61 36 37
1.130842 13.676156 64.682442 60 35 36
1.123499 13.725878 64.262428 59 35 35
1.121073 13.834461 64.123634 59 35 36
1.118657 13.942576 63.985435 60 36 37
1.118657 14.080507 63.985435 61 37 38
1.121073 14.249147 64.123634 62 39 40
1.121073 14.387377 64.123634 63 39 41
1.118657 14.494301 63.985435 63 40 42
1.116251 14.600764 63.847832 63 40 41
1.116251 14.738399 63.847832 63 40 41
1.116251 14.876033 63.847832 63 40 41
1.116251 15.013668 63.847832 64 40 42
1.118657 15.183956 63.985435 64 40 42
1.118657 15.321887 63.985435 63 39 42
1.121073 15.493208 64.123634 62 38 41
1.121073 15.631437 64.123634 65 42 45
1.121073 15.769667 64.123634 67 44 46
1.121073 15.907895 64.123634 63 42 44
1.121073 16.046124 64.123634 59 39 40
1.118657 16.149473 63.985435 59 39 40
1.118657 16.287403 63.985435 62 42 43
1.118657 16.425335 63.985435 65 44 47
1.118657 16.563267 63.985435 67 46 48
1.118657 16.701197 63.985435 67 45 47
1.118657 16.839128 63.985435 65 43 45
1.118657 16.977058 63.985435 62 40 42
1.118657 17.114990 63.985435 59 38 39
1.118657 17.252922 63.985435 59 37 39
1.118657 17.390852 63.985435 59 37 39
1.118657 17.528784 63.985435 59 38 40
1.118657 17.666714 63.985435 60 39 41
1.118657 17.804646 63.985435 61 41 42
1.118657 17.942577 63.985435 62 42 43
1.118657 18.080507 63.985435 62 42 43
1.116251 18.179258 63.847832 63 44 43
1.116251 18.316893 63.847832 64 45 44
1.113855 18.414927 63.710819 66 47 45
1.106731 18.433594 63.303288 68 49 47
1.104376 18.530544 63.168602 71 53 51
1.102031 18.627081 63.034485 77 60 58
1.099696 18.723211 62.900936 77 60 59
1.102031 18.898844 63.034485 71 54 56
1.102031 19.034725 63.034485 68 50 55
1.102031 19.170607 63.034485 69 50 57
1.102031 19.306488 63.034485 70 51 59
1.102031 19.442368 63.034485 71 52 61
1.099696 19.536770 62.900936 71 50 60
1.099696 19.672363 62.900936 70 49 57
1.099696 19.807957 62.900936 69 48 55
1.102031 19.985893 63.034485 70 49 55
1.251194 -5.756748 63.710819 67 40 44
1.251194 -5.619409 63.710819 66 40 43
1.251194 -5.482070 63.710819 65 39 41
1.251194 -5.344731 63.710819 63 39 40
1.253885 -5.218590 63.847832 61 38 39
1.253885 -5.080956 63.847832 60 38 38
1.253885 -4.943322 63.847832 61 39 40
1.253885 -4.805687 63.847832 64 42 44
1.253885 -4.668053 63.847832 69 46 49
1.251194 -4.520697 63.710819 71 47 50
1.251194 -4.383358 63.710819 71 45 48
1.248515 -4.236926 63.574394 70 44 46
1.245847 -4.091121 63.438553 70 43 45
1.243191 -3.945937 63.303288 69 42 44
1.240546 -3.801371 63.168602 67 40 41
1.230077 -3.634271 62.635532 65 38 39
1.227488 -3.491883 62.503666 64 37 37
1.230077 -3.364229 62.635532 63 36 37
1.230077 -3.229208 62.635532 64 36 38
1.230077 -3.094187 62.635532 64 36 38
1.227488 -2.952936 62.503666 63 36 38
1.224909 -2.812279 62.372356 64 36 39
1.224909 -2.677825 62.372356 64 37 40
1.224909 -2.543371 62.372356 65 37 41
1.227488 -2.413989 62.503666 65 38 41
1.227488 -2.279252 62.503666 64 37 40
1.224909 -2.140009 62.372356 63 36 39
1.222341 -2.001351 62.241596 63 35 38
1.219784 -1.863273 62.111385 62 34 38
1.217237 -1.725771 61.981716 62 33 37
1.214701 -1.588843 61.852589 61 33 37
1.212176 -1.452483 61.723995 61 32 37
1.212176 -1.319427 61.723995 61 32 37
1.227488 -1.201357 62.503666 61 32 37
1.237912 -1.075678 63.034485 61 32 36
1.633212 0.911360 83.163147 58 31 36
1.601804 1.069658 81.563850 59 32 35
1.597415 1.242070 81.340393 59 32 35
1.588710 1.409688 80.897118 60 32 34
1.588710 1.584075 80.897118 61 32 35
1.554818 1.720948 79.171310 62 33 36
1.259302 1.532085 64.123634 63 33 36
1.259302 1.670314 64.123634 63 32 37
1.264765 1.816389 64.401825 63 33 38
1.275835 2.252419 64.965523 66 35 39
1.262027 2.366570 64.262428 66 36 40
1.256588 2.494301 63.985435 66 37 40
1.251194 2.620934 63.710819 66 37 40
1.243191 2.740630 63.303288 66 36 39
1.243191 2.877090 63.303288 65 36 38
1.253885 3.039474 63.847832 65 35 36
0.897010 4.537470 45.675758 63 36 38
1.007006 5.204413 51.276756 62 35 38
1.007006 5.314949 51.276756 62 35 38
1.007006 5.425484 51.276756 62 35 38
1.259302 7.199472 64.123634 65 36 39
1.259302 7.337701 64.123634 67 38 40
1.259302 7.475930 64.123634 68 39 40
1.259302 7.614159 64.123634 71 42 44
1.256588 7.735680 63.985435 74 46 48
1.256588 7.873611 63.985435 74 46 48
1.256588 8.011542 63.985435 69 42 45
1.259302 8.167074 64.123634 66 38 41
1.259302 8.305304 64.123634 64 36 39
1.262027 8.461808 64.262428 63 35 38
1.262027 8.600336 64.262428 63 35 38
1.256588 8.701197 63.985435 63 35 37
1.253885 8.820119 63.847832 63 35 37
1.256588 8.977059 63.985435 64 35 38
1.240546 8.998629 63.168602 65 36 39
1.273049 9.653615 64.823669 64 36 38
1.273049 9.793352 64.823669 63 35 37
1.278633 12.081920 65.107986 61 35 37
1.281443 12.249133 65.251083 62 36 37
1.281443 12.389792 65.251083 62 36 37
1.281443 12.530452 65.251083 62 36 37
1.275835 12.615658 64.965523 62 36 38
1.273049 12.727850 64.823669 63 37 38
1.273049 12.867588 64.823669 63 37 39
1.273049 13.007326 64.823669 64 38 40
1.273049 13.147064 64.823669 66 39 41
1.270276 13.257855 64.682442 64 38 39
1.270276 13.397288 64.682442 63 38 38
1.270276 13.536722 64.682442 62 37 37
1.264765 13.616823 64.401825 62 36 37
1.262027 13.725878 64.262428 62 36 37
1.259302 13.834461 64.123634 62 37 38
1.256588 13.942576 63.985435 62 37 38
1.256588 14.080507 63.985435 62 37 38
1.259302 14.249147 64.123634 61 37 38
1.256588 14.356370 63.985435 61 38 39
1.256588 14.494301 63.985435 62 38 40
1.253885 14.600764 63.847832 62 38 40
1.253885 14.738399 63.847832 63 39 40
1.253885 14.876033 63.847832 64 40 41
1.253885 15.013668 63.847832 65 41 42
1.256588 15.183956 63.985435 66 41 43
1.259302 15.354980 64.123634 66 41 44
1.259302 15.493208 64.123634 65 41 43
1.259302 15.631437 64.123634 65 42 44
1.259302 15.769667 64.123634 65 42 44
1.259302 15.907895 64.123634 63 41 43
1.259302 16.046124 64.123634 60 39 41
1.259302 16.184353 64.123634 60 40 42
1.259302 16.322582 64.123634 65 45 48
1.256588 16.425335 63.985435 70 49 53
1.256588 16.563267 63.985435 70 49 52
1.253885 16.665281 63.847832 67 46 48
1.253885 16.802916 63.847832 64 42 44
1.256588 16.977058 63.985435 61 39 41
1.256588 17.114990 63.985435 60 37 39
1.256588 17.252922 63.985435 60 38 39
1.256588 17.390852 63.985435 60 38 39
1.256588 17.528784 63.985435 60 39 40
1.256588 17.666714 63.985435 60 40 41
1.256588 17.804646 63.985435 61 41 43
1.256588 17.942577 63.985435 62 43 44
1.253885 18.041624 63.847832 63 44 44
1.253885 18.179258 63.847832 64 45 45
1.251194 18.277586 63.710819 66 46 46
1.248515 18.375494 63.574394 68 47 48
1.243191 18.433594 63.303288 70 49 49
1.237912 18.491201 63.034485 72 52 52
1.232678 18.548321 62.767956 74 56 55
1.230077 18.644209 62.635532 72 55 55
1.232678 18.818933 62.767956 68 51 52
1.235289 18.994398 62.900936 65 47 51
1.237912 19.170607 63.034485 66 48 54
1.237912 19.306488 63.034485 69 50 58
1.237912 19.442368 63.034485 71 51 60
1.232678 19.495466 62.767956 71 50 59
1.230077 19.589357 62.635532 70 49 56
1.230077 19.724379 62.635532 69 48 54
1.232678 19.901386 62.767956 72 50 56
1.237912 20.121775 63.034485 77 54 60
1.385560 -5.744421 63.574394 67 40 43
1.388534 -5.619409 63.710819 66 39 42
1.388534 -5.482070 63.710819 65 39 41
1.391520 -5.356225 63.847832 64 38 40
1.391520 -5.218590 63.847832 63 39 40
1.394519 -5.091907 63.985435 64 41 41
1.394519 -4.953975 63.985435 64 42 42
1.394519 -4.816044 63.985435 64 42 43
1.394519 -4.678113 63.985435 65 42 44
1.391520 -4.530418 63.847832 67 42 45
1.388534 -4.383358 63.710819 68 43 45
1.385560 -4.236926 63.574394 68 42 44
1.382600 -4.091121 63.438553 69 42 43
1.379652 -3.945937 63.303288 69 42 43
1.376716 -3.801371 63.168602 68 41 42
1.365098 -3.634271 62.635532 67 39 40
1.365098 -3.499250 62.635532 65 38 39
1.365098 -3.364229 62.635532 64 37 38
1.365098 -3.229208 62.635532 64 36 38
1.365098 -3.094187 62.635532 63 36 37
1.365098 -2.959166 62.635532 64 36 37
1.365098 -2.824145 62.635532 64 36 38
1.365098 -2.689123 62.635532 65 37 39
1.367984 -2.559502 62.767956 66 38 40
1.370883 -2.429332 62.900936 67 39 40
1.370883 -2.293738 62.900936 67 38 40
1.365098 -2.149039 62.635532 65 37 38
1.359363 -2.005556 62.372356 64 35 38
1.356513 -1.867179 62.241596 63 35 37
1.353675 -1.729382 62.111385 63 34 38
1.350849 -1.592160 61.981716 63 33 38
1.342441 -1.449470 61.595940 62 33 38
1.342441 -1.316690 61.595940 63 33 38
1.365098 -1.203891 62.635532 63 33 38
1.772758 1.066727 81.340393 60 32 36
1.391520 0.974958 63.847832 61 32 35
1.394519 1.114990 63.985435 61 32 35
1.397531 1.255627 64.123634 62 32 34
1.397531 1.393856 64.123634 62 32 35
1.397531 1.532085 64.123634 63 32 36
1.397531 1.670314 64.123634 63 32 37
1.400555 1.812458 64.262428 64 32 38
1.403594 1.955218 64.401825 64 33 38
1.415879 2.112375 64.965523 65 34 39
1.406645 2.237729 64.541832 65 35 39
1.400555 2.366570 64.262428 66 36 40
1.394519 2.494301 63.985435 66 36 40
1.394519 2.632232 63.985435 67 36 40
1.388534 2.758274 63.710819 67 36 39
0.995472 4.439008 45.675758 64 37 38
1.003189 4.572644 46.029835 64 36 38
1.113695 5.186498 51.100246 63 36 37
1.397531 7.199472 64.123634 65 35 37
1.397531 7.337701 64.123634 67 36 38
1.397531 7.475930 64.123634 68 38 39
1.397531 7.614159 64.123634 72 42 44
1.394519 7.735680 63.985435 77 47 50
1.391520 7.856678 63.847832 77 47 50
1.391520 7.994313 63.847832 71 43 46
1.394519 8.149473 63.985435 66 38 41
1.397531 8.305304 64.123634 65 36 39
1.397531 8.443532 64.123634 64 35 38
1.397531 8.581761 64.123634 63 34 38
1.391520 8.682485 63.847832 64 35 39
1.382600 8.763580 63.438553 65 35 39
1.382600 8.900332 63.438553 65 35 39
1.362224 8.903906 62.503666 66 35 40
1.394519 9.528784 63.985435 65 36 39
1.397531 9.687593 64.123634 64 35 39
1.394519 9.804646 63.985435 64 34 38
1.394519 9.942576 63.985435 63 35 37
1.394519 10.080507 63.985435 62 35 37
1.391520 10.196464 63.847832 61 36 37
1.403594 10.423764 64.401825 61 36 37
1.400555 10.678259 64.262428 61 37 37
1.400555 10.816787 64.262428 60 38 38
1.394519 10.908093 63.985435 60 38 38
1.388534 10.998617 63.710819 60 38 38
1.434715 12.073959 65.829803 61 35 37
1.434715 12.215866 65.829803 61 35 37
1.434715 12.357773 65.829803 61 35 37
1.434715 12.499680 65.829803 61 35 37
1.431541 12.613618 65.684166 61 35 38
1.425235 12.699020 65.394806 62 36 39
1.425235 12.839990 65.394806 63 37 39
1.425235 12.980959 65.394806 64 38 40
1.422102 13.093089 65.251083 66 40 42
1.418984 13.204727 65.107986 69 43 44
1.409709 13.257855 64.682442 67 41 41
1.406645 13.368164 64.541832 64 38 38
1.403594 13.477995 64.401825 65 38 38
1.400555 13.587350 64.262428 65 37 38
1.397531 13.696232 64.123634 65 38 39
1.394519 13.804646 63.985435 65 38 39
1.394519 13.942576 63.985435 64 38 39
1.394519 14.080507 63.985435 63 37 39
1.394519 14.218438 63.985435 61 36 38
1.394519 14.356370 63.985435 61 36 38
1.391520 14.463130 63.847832 61 36 38
1.391520 14.600764 63.847832 62 37 38
1.391520 14.738399 63.847832 63 38 39
1.391520 14.876033 63.847832 65 40 40
1.394519 15.046024 63.985435 67 42 42
1.394519 15.183956 63.985435 69 43 44
1.397531 15.354980 64.123634 69 44 45
1.397531 15.493208 64.123634 69 44 45
1.397531 15.631437 64.123634 68 43 44
1.397531 15.769667 64.123634 65 42 44
1.397531 15.907895 64.123634 63 41 43
1.397531 16.046124 64.123634 62 40 43
1.397531 16.184353 64.123634 64 43 47
1.397531 16.322582 64.123634 71 51 55
1.394519 16.425335 63.985435 76 55 60
1.394519 16.563267 63.985435 74 53 57
1.391520 16.665281 63.847832 68 46 49
1.391520 16.802916 63.847832 63 41 43
1.391520 16.940550 63.847832 61 38 41
1.394519 17.114990 63.985435 61 38 40
1.394519 17.252922 63.985435 61 39 41
1.394519 17.390852 63.985435 61 39 41
1.394519 17.528784 63.985435 60 39 41
1.391520 17.628721 63.847832 60 40 41
1.391520 17.766356 63.847832 61 42 43
1.391520 17.903990 63.847832 62 43 45
1.388534 18.002909 63.710819 63 44 46
1.385560 18.101404 63.574394 65 46 48
1.382600 18.199478 63.438553 67 47 49
1.379652 18.297132 63.303288 69 48 50
1.376716 18.394373 63.168602 70 49 50
1.367984 18.413013 62.767956 70 50 51
1.365098 18.509190 62.635532 70 50 51
1.365098 18.644209 62.635532 68 50 51
1.365098 18.779230 62.635532 66 48 50
1.370883 18.994398 62.900936 64 46 50
1.370883 19.129990 62.900936 65 46 52
1.373793 19.306488 63.034485 68 49 56
1.373793 19.442368 63.034485 71 50 58
1.365098 19.454336 62.635532 71 50 58
1.365098 19.589357 62.635532 70 49 55
1.362224 19.682854 62.503666 70 48 54
1.362224 19.817591 62.503666 74 51 57
1.365098 19.994421 62.635532 79 55 61
1.516112 -5.719924 63.303288 66 39 41
1.522605 -5.607376 63.574394 65 38 40
1.525873 -5.482070 63.710819 64 38 39
1.529154 -5.356225 63.847832 64 38 39
1.532450 -5.229837 63.985435 65 40 41
1.532450 -5.091907 63.985435 69 45 45
1.532450 -4.953975 63.985435 70 47 47
1.532450 -4.816044 63.985435 66 43 44
1.532450 -4.678113 63.985435 64 40 42
1.532450 -4.540182 63.985435 65 40 42
1.529154 -4.392784 63.847832 66 40 42
1.522605 -4.236926 63.574394 67 40 42
1.522605 -4.099881 63.574394 67 40 42
1.519352 -3.954369 63.438553 68 41 42
1.512887 -3.801371 63.168602 69 42 43
1.503291 -3.641955 62.767956 69 41 42
1.503291 -3.506648 62.767956 67 39 41
1.506476 -3.378484 62.900936 66 38 40
1.509674 -3.249776 63.034485 64 37 39
1.509674 -3.113895 63.034485 64 36 38
1.500119 -2.959166 62.635532 64 36 37
1.500119 -2.824145 62.635532 64 36 36
1.503291 -2.694809 62.767956 65 37 37
1.506476 -2.564925 62.900936 66 38 39
1.509674 -2.434489 63.034485 68 40 40
1.509674 -2.298608 63.034485 68 39 40
1.506476 -2.158145 62.900936 67 37 38
1.500119 -2.014018 62.635532 66 36 38
1.493816 -1.871102 62.372356 65 36 38
1.490685 -1.733007 62.241596 65 35 39
1.487566 -1.595491 62.111385 64 35 39
1.484461 -1.458548 61.981716 64 35 39
1.487566 -1.327708 62.111385 64 35 39
1.519352 -1.219326 63.438553 64 35 39
1.542422 -0.543697 64.401825 60 34 35
1.539084 -0.403993 64.262428 61 35 36
1.542422 -0.127212 64.401825 62 36 38
1.549143 0.011668 64.682442 61 36 38
1.519352 0.831956 63.438553 62 32 36
1.519352 0.968708 63.438553 62 32 36
1.532450 1.114990 63.985435 62 33 35
1.535759 1.255627 64.123634 63 33 35
1.535759 1.393856 64.123634 63 33 35
1.535759 1.532085 64.123634 63 33 37
1.539084 1.673930 64.262428 64 33 37
1.539084 1.812458 64.262428 64 33 38
1.539084 1.950986 64.262428 65 33 38
1.545775 2.098599 64.541832 66 34 39
1.545775 2.237729 64.541832 66 35 40
1.542422 2.371704 64.401825 66 36 40
1.539084 2.505098 64.262428 67 36 40
1.532450 2.632232 63.985435 67 36 40
1.587180 5.011954 66.270630 66 35 37
1.100707 4.367424 45.958580 64 37 39
1.104125 4.480366 46.101307 65 37 39
1.104125 4.579744 46.101307 65 37 38
1.555923 7.013907 64.965523 64 33 35
1.539084 7.076527 64.262428 64 33 36
1.539084 7.215055 64.262428 65 34 36
1.539084 7.353583 64.262428 66 35 38
1.535759 7.475930 64.123634 68 37 39
1.535759 7.614159 64.123634 73 42 44
1.532450 7.735680 63.985435 78 48 50
1.529154 7.856678 63.847832 78 48 51
1.529154 7.994313 63.847832 73 44 47
1.529154 8.131948 63.847832 68 39 42
1.532450 8.287404 63.985435 65 36 39
1.535759 8.443532 64.123634 63 35 37
1.535759 8.581761 64.123634 63 34 37
1.529154 8.682485 63.847832 64 35 38
1.512887 8.726288 63.168602 64 35 39
1.509674 8.843642 63.034485 65 35 39
1.490685 8.866573 62.241596 65 35 40
1.532450 9.666715 63.985435 64 35 39
1.532450 9.804646 63.985435 64 35 38
1.532450 9.942576 63.985435 63 35 37
1.532450 10.080507 63.985435 62 36 38
