ply
format ascii 1.0
element vertex 1198
property float x
property float y
property float z
property uchar red
property uchar green
property uchar blue
end_header
2.553354 -5.734122 61.981716 250 180 186
2.548035 -5.588843 61.852589 238 119 125
2.548035 -5.455510 61.852589 225 64 69
2.548035 -5.322176 61.852589 231 65 68
2.548035 -5.188843 61.852589 247 94 91
2.548035 -5.055510 61.852589 254 95 88
2.548035 -4.922176 61.852589 253 74 68
2.548035 -4.788843 61.852589 251 62 59
2.542737 -4.645831 61.723995 251 61 65
2.537462 -4.503412 61.595940 251 61 74
2.537462 -4.370632 61.595940 252 61 84
2.542737 -4.246662 61.723995 254 63 94
2.548035 -4.122176 61.852589 254 64 101
2.548035 -3.988843 61.852589 254 63 102
2.548035 -3.855510 61.852589 254 63 101
2.537462 -3.706731 61.595940 254 65 99
2.521766 -3.551844 61.214931 254 66 97
2.516577 -3.412849 61.088974 254 67 96
2.501138 -3.261032 60.714195 254 68 95
2.501138 -3.130152 60.714195 254 68 95
2.501138 -2.999273 60.714195 254 67 95
2.496034 -2.862540 60.590290 254 66 95
2.501138 -2.737514 60.714195 254 65 94
2.501138 -2.606635 60.714195 254 66 95
2.516577 -2.491038 61.088974 254 66 95
2.516577 -2.359351 61.088974 254 67 95
2.521766 -2.232257 61.214931 254 69 96
2.521766 -2.100298 61.214931 254 72 97
2.521766 -1.968339 61.214931 254 76 97
2.521766 -1.836380 61.214931 254 81 97
2.526977 -1.707943 61.341408 254 87 95
2.532208 -1.578974 61.468410 254 94 95
2.532208 -1.446469 61.468410 254 104 98
2.532208 -1.313964 61.468410 254 116 103
2.532208 -1.181459 61.468410 254 133 115
2.532208 -1.048954 61.468410 250 150 130
2.532208 -0.916448 61.468410 237 159 138
2.532208 -0.783943 61.468410 222 165 145
2.532208 -0.651438 61.468410 198 164 145
2.532208 -0.518933 61.468410 178 160 146
2.526977 -0.385629 61.341408 197 190 181
2.526977 -0.253398 61.341408 230 230 225
2.532208 -0.121417 61.468410 230 232 228
2.532208 0.011088 61.468410 228 230 227
2.542737 0.144190 61.723995 243 244 243
2.542737 0.277246 61.723995 242 242 242
2.548035 0.411157 61.852589 230 230 230
2.548035 0.544491 61.852589 235 235 235
2.548035 0.677824 61.852589 247 244 245
2.548035 0.811157 61.852589 251 244 246
2.548035 0.944491 61.852589 253 238 242
2.548035 1.077824 61.852589 254 225 231
2.548035 1.211157 61.852589 252 209 217
2.548035 1.344491 61.852589 249 187 193
2.548035 1.477824 61.852589 242 156 159
2.537462 1.604472 61.595940 242 151 149
2.532208 1.733655 61.468410 250 173 168
2.521766 1.858465 61.214931 254 191 184
2.516577 1.986328 61.088974 254 200 192
2.496034 2.100725 60.590290 254 208 199
2.475823 2.213270 60.099682 252 216 205
2.465840 2.333378 59.857342 248 223 210
2.451015 2.447606 59.497478 245 231 218
2.431524 2.555379 59.024338 247 240 232
2.417108 2.666710 58.674393 252 250 246
2.417108 2.793193 58.674393 254 254 253
2.426700 2.931261 58.907227 254 254 254
2.426700 3.058245 58.907227 254 254 254
2.431524 3.191561 59.024338 254 254 254
2.446113 3.338711 59.378483 255 255 255
2.460879 3.487637 59.736904 254 254 254
3.019893 4.437915 73.306770 254 254 254
3.050017 4.641784 74.038010 254 254 254
2.742280 5.464922 66.567810 254 254 254
2.730037 5.583383 66.270630 254 254 254
2.699904 5.663036 65.539169 254 254 254
2.688037 5.778803 65.251083 254 254 254
2.688037 5.919463 65.251083 254 254 254
2.693957 6.073470 65.394806 254 254 254
2.693957 6.214439 65.394806 254 254 254
2.688037 6.341441 65.251083 255 255 255
2.688037 6.482100 65.251083 254 254 254
2.653051 6.675392 64.401825 254 254 254
2.635898 6.770163 63.985435 254 254 254
2.630229 6.893238 63.847832 254 254 254
2.635898 7.046025 63.985435 254 254 254
1.956891 6.459769 47.502789 253 253 253
1.956891 6.562169 47.502789 253 253 253
1.956891 6.664569 47.502789 254 254 254
1.956891 6.766969 47.502789 254 254 254
2.732604 -7.462090 63.034485 254 188 193
2.738418 -7.341797 63.168602 254 190 193
2.744257 -7.220991 63.303288 255 190 190
2.750121 -7.099668 63.438553 254 191 186
2.750121 -6.962916 63.438553 254 197 188
2.750121 -6.826163 63.438553 254 210 196
2.744257 -6.675148 63.303288 254 204 187
2.738418 -6.524776 63.168602 254 180 164
2.732604 -6.375041 63.034485 252 167 153
2.709593 -6.186620 62.503666 251 171 163
2.703901 -6.039169 62.372356 251 194 189
2.692587 -5.880010 62.111385 253 218 215
2.686966 -5.734122 61.981716 254 209 207
2.681368 -5.588843 61.852589 243 155 151
2.681368 -5.455510 61.852589 220 89 83
2.681368 -5.322176 61.852589 218 82 69
2.681368 -5.188843 61.852589 242 122 102
2.681368 -5.055510 61.852589 254 132 107
2.681368 -4.922176 61.852589 252 108 83
2.681368 -4.788843 61.852589 248 90 71
2.675793 -4.645831 61.723995 246 86 80
2.675793 -4.512774 61.723995 242 74 84
2.675793 -4.379718 61.723995 240 57 84
2.675793 -4.246662 61.723995 247 57 97
2.681368 -4.122176 61.852589 253 62 110
2.681368 -3.988843 61.852589 254 62 113
2.675793 -3.847494 61.723995 254 63 109
2.670242 -3.706731 61.595940 254 65 104
2.653725 -3.551844 61.214931 254 67 100
2.648265 -3.412849 61.088974 254 68 97
2.642827 -3.274424 60.963535 254 68 95
2.632018 -3.130152 60.714195 254 68 94
2.632018 -2.999273 60.714195 254 67 95
2.626646 -2.862540 60.590290 254 66 95
2.642827 -2.748757 60.963535 254 65 94
2.642827 -2.617340 60.963535 254 65 94
2.648265 -2.491038 61.088974 254 65 94
2.648265 -2.359351 61.088974 254 66 94
2.648265 -2.227664 61.088974 254 67 95
2.648265 -2.095976 61.088974 254 69 96
2.648265 -1.964289 61.088974 254 72 96
2.648265 -1.832602 61.088974 254 76 95
2.648265 -1.700915 61.088974 254 81 93
2.659208 -1.575712 61.341408 254 88 93
2.659208 -1.443480 61.341408 254 96 95
2.664714 -1.313964 61.468410 254 105 98
2.659208 -1.179018 61.341408 254 121 108
2.659208 -1.046786 61.341408 250 137 119
2.659208 -0.914555 61.341408 239 145 125
2.659208 -0.782323 61.341408 223 151 131
2.659208 -0.650092 61.341408 199 153 133
2.659208 -0.517861 61.341408 176 150 133
2.659208 -0.385629 61.341408 189 178 165
2.659208 -0.253398 61.341408 225 223 215
2.659208 -0.121166 61.341408 235 236 230
2.664714 0.011088 61.468410 234 236 232
2.670242 0.143891 61.595940 246 247 245
2.675793 0.277246 61.723995 250 250 250
2.681368 0.411157 61.852589 245 245 245
2.681368 0.544491 61.852589 247 246 247
2.681368 0.677824 61.852589 252 251 252
2.681368 0.811157 61.852589 254 250 251
2.681368 0.944491 61.852589 254 236 240
2.681368 1.077824 61.852589 254 214 222
2.681368 1.211157 61.852589 254 209 219
2.681368 1.344491 61.852589 250 201 208
2.681368 1.477824 61.852589 236 159 163
2.670242 1.604472 61.595940 232 136 137
2.664714 1.733655 61.468410 246 160 157
2.653725 1.858465 61.214931 254 184 178
2.648265 1.986328 61.088974 254 194 185
2.637411 2.109335 60.838612 254 202 191
2.610662 2.217760 60.221588 253 210 197
2.594872 2.333378 59.857342 248 217 203
2.579272 2.447606 59.497478 245 226 212
2.543590 2.540228 58.674393 247 237 227
2.538573 2.661451 58.558662 250 248 242
2.533576 2.782196 58.443390 253 253 252
2.543590 2.919675 58.674393 254 254 254
2.543590 3.046157 58.674393 254 254 254
2.543590 3.172639 58.674393 254 254 254
2.553684 3.312213 58.907227 254 254 254
2.574113 3.466711 59.378483 254 254 254
3.177918 4.437915 73.306770 254 254 254
3.177918 4.595940 73.306770 254 254 254
3.177918 4.753964 73.306770 254 254 254
2.853784 5.688149 65.829803 254 254 254
2.834927 5.791532 65.394806 254 254 254
2.834927 5.932501 65.394806 254 254 254
2.834927 6.073470 65.394806 254 254 254
2.834927 6.214439 65.394806 254 254 254
2.828696 6.341441 65.251083 254 254 254
2.828696 6.482100 65.251083 254 254 254
2.779820 6.646556 64.123634 254 254 254
2.773829 6.770163 63.985435 254 254 254
2.773829 6.908093 63.985435 254 254 254
2.062591 6.264993 47.578915 254 254 254
2.056001 6.347213 47.426903 254 254 254
2.056001 6.449450 47.426903 254 254 254
2.056001 6.551686 47.426903 254 254 254
2.056001 6.653923 47.426903 254 254 254
2.056001 6.756159 47.426903 254 254 254
2.850330 -7.414862 62.635532 254 177 184
2.850330 -7.279841 62.635532 254 176 181
2.874588 -7.205626 63.168602 254 177 178
2.874588 -7.069457 63.168602 254 180 175
2.880718 -6.948070 63.303288 254 187 175
2.880718 -6.811609 63.303288 254 195 177
2.874588 -6.660946 63.168602 254 186 166
2.868485 -6.510922 63.034485 253 159 138
2.856357 -6.348086 62.767956 249 130 113
2.844330 -6.186620 62.503666 244 120 106
2.838354 -6.039169 62.372356 246 150 139
2.826478 -5.880010 62.111385 252 194 183
2.826478 -5.746118 62.111385 252 196 183
2.814701 -5.588843 61.852589 237 148 130
2.814701 -5.455510 61.852589 209 95 72
2.814701 -5.322176 61.852589 208 101 71
2.814701 -5.188843 61.852589 237 155 117
2.814701 -5.055510 61.852589 253 182 141
2.814701 -4.922176 61.852589 252 164 126
2.814701 -4.788843 61.852589 249 146 118
2.808850 -4.645831 61.723995 243 143 131
2.808850 -4.512774 61.723995 230 114 123
2.808850 -4.379718 61.723995 226 77 107
2.808850 -4.246662 61.723995 239 73 120
2.808850 -4.113606 61.723995 248 70 128
2.808850 -3.980550 61.723995 250 58 119
2.808850 -3.847494 61.723995 252 59 114
2.797219 -3.699057 61.468410 254 64 110
2.779952 -3.544536 61.088974 254 67 103
2.779952 -3.412849 61.088974 254 68 97
2.774244 -3.274424 60.963535 254 68 94
2.757258 -3.123764 60.590290 254 68 94
2.757258 -2.993152 60.590290 254 67 94
2.757258 -2.862540 60.590290 254 66 94
2.774244 -2.748757 60.963535 254 65 93
2.779952 -2.622725 61.088974 254 64 92
2.785684 -2.496174 61.214931 254 64 92
2.785684 -2.364216 61.214931 254 66 93
2.785684 -2.232257 61.214931 254 67 94
2.779952 -2.095976 61.088974 255 66 93
2.774244 -1.960256 60.963535 254 68 92
2.779952 -1.832602 61.088974 254 71 93
2.779952 -1.700915 61.088974 254 76 93
2.785684 -1.572463 61.214931 254 83 93
2.791439 -1.443480 61.341408 254 87 93
2.791439 -1.311249 61.341408 254 94 93
2.791439 -1.179018 61.341408 254 108 102
2.791439 -1.046786 61.341408 251 122 110
2.791439 -0.914555 61.341408 241 130 114
2.785684 -0.780710 61.214931 228 139 120
2.785684 -0.648752 61.214931 205 147 125
2.785684 -0.516793 61.214931 176 141 120
2.785684 -0.384834 61.214931 172 155 136
2.785684 -0.252875 61.214931 206 200 187
2.785684 -0.120917 61.214931 237 236 229
2.797219 0.011088 61.468410 243 246 241
2.803022 0.143891 61.595940 248 250 247
2.808850 0.277246 61.723995 253 253 253
2.808850 0.410302 61.723995 253 253 253
2.808850 0.543359 61.723995 253 251 253
2.814701 0.677824 61.852589 254 250 253
2.814701 0.811157 61.852589 254 249 251
2.814701 0.944491 61.852589 254 232 237
2.814701 1.077824 61.852589 253 201 212
2.814701 1.211157 61.852589 254 196 209
2.814701 1.344491 61.852589 251 198 210
2.814701 1.477824 61.852589 239 162 170
2.803022 1.604472 61.595940 236 135 140
2.797219 1.733655 61.468410 247 153 154
2.785684 1.858465 61.214931 254 175 170
2.779952 1.986328 61.088974 254 185 177
2.774244 2.113666 60.963535 254 195 184
2.746050 2.222267 60.343987 253 205 191
2.723905 2.333378 59.857342 248 213 197
2.707528 2.447606 59.497478 246 223 208
2.670072 2.540228 58.674393 247 235 223
2.659560 2.656212 58.443390 250 246 238
2.654335 2.776730 58.328571 253 253 249
2.659560 2.908180 58.443390 254 254 253
2.659560 3.034164 58.443390 254 254 254
2.659560 3.160149 58.443390 254 254 254
2.659560 3.286133 58.443390 254 254 254
2.685997 3.446035 59.024338 254 254 254
3.295260 4.383794 72.412788 255 255 255
3.287242 4.528845 72.236603 254 254 254
3.287242 4.684563 72.236603 254 254 254
2.982465 5.945597 65.539169 254 254 254
2.975896 6.073470 65.394806 254 254 254
2.975896 6.214439 65.394806 254 254 254
2.969355 6.341441 65.251083 254 254 254
2.969355 6.482100 65.251083 254 254 254
2.943479 6.565044 64.682442 254 254 254
2.918049 6.646556 64.123634 254 254 254
2.911760 6.770163 63.985435 254 254 254
2.911760 6.908093 63.985435 254 254 254
2.558819 6.555597 56.229626 254 254 254
2.563675 6.689479 56.336323 254 254 254
2.158237 6.347213 47.426903 255 255 255
2.158237 6.449450 47.426903 254 254 254
2.158237 6.551686 47.426903 254 254 254
2.158237 6.653923 47.426903 254 254 254
2.158237 6.756159 47.426903 254 254 254
2.960370 -7.352813 62.111385 254 165 173
2.966576 -7.234056 62.241596 254 164 171
2.979067 -7.129778 62.503666 254 167 170
2.979067 -6.995041 62.503666 254 169 166
2.991663 -6.889312 62.767956 254 171 160
2.998001 -6.768315 62.900936 254 173 156
2.998001 -6.632721 62.900936 254 169 149
2.991663 -6.483392 62.767956 253 152 132
2.979067 -6.321357 62.503666 249 123 106
2.972808 -6.173623 62.372356 245 100 87
2.966576 -6.026508 62.241596 246 115 105
2.960370 -5.880010 62.111385 251 153 142
2.960370 -5.746118 62.111385 248 160 144
2.948035 -5.588843 61.852589 224 123 97
2.948035 -5.455510 61.852589 196 89 54
2.948035 -5.322176 61.852589 201 112 66
2.948035 -5.188843 61.852589 233 172 119
2.948035 -5.055510 61.852589 250 208 154
2.948035 -4.922176 61.852589 246 194 146
2.948035 -4.788843 61.852589 240 175 138
2.941906 -4.645831 61.723995 234 174 155
2.941906 -4.512774 61.723995 222 144 150
2.935802 -4.370632 61.595940 222 113 144
2.935802 -4.237852 61.595940 237 118 164
2.941906 -4.113606 61.723995 239 93 151
2.941906 -3.980550 61.723995 239 55 120
2.935802 -3.839511 61.595940 248 54 115
2.923671 -3.691414 61.341408 254 64 113
2.905660 -3.537258 60.963535 254 67 105
2.905660 -3.405841 60.963535 254 68 97
2.893776 -3.261032 60.714195 254 68 93
2.887871 -3.123764 60.590290 254 67 92
2.887871 -2.993152 60.590290 254 67 92
2.905660 -2.880174 60.963535 254 66 92
2.911639 -2.754413 61.088974 254 64 91
2.917643 -2.628133 61.214931 254 62 89
2.923671 -2.501332 61.341408 254 62 89
2.923671 -2.369100 61.341408 254 64 91
2.923671 -2.236869 61.341408 254 64 91
2.917643 -2.100298 61.214931 254 62 89
2.917643 -1.968339 61.214931 254 63 88
2.917643 -1.836380 61.214931 254 66 89
2.917643 -1.704422 61.214931 254 71 91
2.929724 -1.578974 61.468410 254 76 92
2.923671 -1.443480 61.341408 254 79 91
2.923671 -1.311249 61.341408 254 83 90
2.923671 -1.179018 61.341408 254 94 96
2.923671 -1.046786 61.341408 252 107 103
2.917643 -0.912669 61.214931 244 116 105
2.917643 -0.780710 61.214931 232 127 110
2.917643 -0.648752 61.214931 210 139 115
2.917643 -0.516793 61.214931 178 133 107
2.911639 -0.384042 61.088974 155 130 106
2.917643 -0.252875 61.214931 182 172 154
2.917643 -0.120917 61.214931 232 228 219
2.923671 0.011065 61.341408 249 250 245
2.929724 0.143593 61.468410 247 251 247
2.935802 0.276671 61.595940 249 251 250
2.935802 0.409451 61.595940 253 254 253
2.941906 0.543359 61.723995 254 253 253
2.941906 0.676415 61.723995 254 251 253
2.948035 0.811157 61.852589 254 250 252
2.948035 0.944491 61.852589 253 234 239
2.948035 1.077824 61.852589 252 204 217
2.948035 1.211157 61.852589 253 195 213
2.948035 1.344491 61.852589 253 192 209
2.948035 1.477824 61.852589 249 162 175
2.941906 1.607808 61.723995 247 140 148
2.935802 1.737252 61.595940 252 149 152
2.923671 1.862305 61.341408 254 162 160
2.917643 1.990424 61.214931 254 173 166
2.905660 2.113666 60.963535 254 185 174
2.887871 2.231338 60.590290 252 197 183
2.858700 2.338092 59.978268 247 206 191
2.841479 2.452521 59.616951 245 218 203
2.802092 2.545258 58.790577 246 231 218
2.780072 2.650993 58.328571 248 242 232
2.780072 2.776730 58.328571 251 250 244
2.780072 2.902467 58.328571 253 253 251
2.780072 3.028203 58.328571 254 254 254
2.774621 3.147756 58.214199 254 254 254
2.774621 3.273246 58.214199 254 254 254
2.785545 3.412117 58.443390 254 254 254
3.426287 4.351950 71.886787 254 254 254
3.426287 4.506914 71.886787 254 254 254
3.434603 4.673193 72.061264 254 254 254
3.130656 5.958751 65.684166 255 255 255
3.123745 6.086877 65.539169 254 254 254
3.116865 6.214439 65.394806 254 254 254
3.116865 6.355409 65.394806 254 254 254
3.116865 6.496377 65.394806 254 254 254
3.110015 6.622759 65.251083 254 254 254
2.685117 6.568037 56.336323 254 254 254
2.690222 6.702197 56.443428 254 254 254
2.690222 6.823870 56.443428 254 254 254
2.267719 6.367557 47.578915 254 254 254
2.264091 6.459769 47.502789 254 254 254
2.260474 6.551686 47.426903 254 254 254
2.260474 6.653923 47.426903 254 254 254
2.260474 6.756159 47.426903 254 254 254
3.087801 -7.471074 61.981716 254 156 165
3.087801 -7.337462 61.981716 254 154 163
3.094261 -7.218922 62.111385 254 156 163
3.100748 -7.099884 62.241596 254 159 162
3.100748 -6.965712 62.241596 254 159 157
3.107262 -6.845892 62.372356 254 157 148
3.113803 -6.725567 62.503666 254 158 144
3.113803 -6.590831 62.503666 254 164 148
3.113803 -6.456094 62.503666 254 159 143
3.107262 -6.308077 62.372356 253 131 118
3.107262 -6.173623 62.372356 251 102 93
3.100748 -6.026508 62.241596 252 99 93
3.094261 -5.880010 62.111385 252 117 109
3.094261 -5.746118 62.111385 245 124 110
3.081368 -5.588843 61.852589 226 108 83
3.081368 -5.455510 61.852589 205 97 60
3.081368 -5.322176 61.852589 205 117 69
3.081368 -5.188843 61.852589 221 157 102
3.081368 -5.055510 61.852589 226 180 123
3.081368 -4.922176 61.852589 213 167 116
3.074962 -4.778887 61.723995 206 159 118
3.074962 -4.645831 61.723995 217 176 154
3.068582 -4.503412 61.595940 223 171 174
3.068582 -4.370632 61.595940 229 152 178
3.068582 -4.237852 61.595940 234 140 179
3.068582 -4.105072 61.595940 224 93 143
3.068582 -3.972291 61.595940 226 51 110
3.062229 -3.831562 61.468410 243 54 112
3.049601 -3.683803 61.214931 253 66 113
3.037077 -3.537258 60.963535 254 67 104
3.037077 -3.405841 60.963535 254 67 96
3.030854 -3.267714 60.838612 254 67 92
3.030854 -3.136567 60.838612 254 67 92
3.030854 -3.005419 60.838612 254 66 91
3.043326 -2.886100 61.088974 254 65 92
3.049601 -2.760092 61.214931 254 62 91
3.055902 -2.633563 61.341408 254 60 88
3.062229 -2.506510 61.468410 254 61 88
3.062229 -2.374005 61.468410 254 63 89
3.055902 -2.236869 61.341408 254 64 90
3.055902 -2.104637 61.341408 254 63 88
3.055902 -1.972406 61.341408 254 62 87
3.062229 -1.843984 61.468410 254 64 88
3.062229 -1.711479 61.468410 254 67 89
3.068582 -1.582250 61.595940 254 71 91
3.062229 -1.446469 61.468410 254 74 91
3.055902 -1.311249 61.341408 254 77 90
3.055902 -1.179018 61.341408 254 86 95
3.055902 -1.046786 61.341408 253 97 100
3.055902 -0.914555 61.341408 249 106 101
3.049601 -0.780710 61.214931 238 116 102
3.049601 -0.648752 61.214931 218 130 108
3.043326 -0.515729 61.088974 189 130 103
3.043326 -0.384042 61.088974 157 123 96
3.043326 -0.252355 61.088974 170 153 131
3.049601 -0.120917 61.214931 219 213 200
3.049601 0.011042 61.214931 246 247 240
3.055902 0.143296 61.341408 246 249 245
3.062229 0.276098 61.468410 246 249 246
3.062229 0.408603 61.468410 251 252 251
3.062229 0.541109 61.468410 254 254 254
3.068582 0.675011 61.595940 254 254 254
3.074962 0.809471 61.723995 254 253 253
3.081368 0.944491 61.852589 253 244 248
3.081368 1.077824 61.852589 253 226 238
3.081368 1.211157 61.852589 254 212 231
3.081368 1.344491 61.852589 254 193 214
3.074962 1.474751 61.723995 254 162 180
3.074962 1.607808 61.723995 253 142 155
3.062229 1.733655 61.468410 254 144 150
3.055902 1.862305 61.341408 254 156 155
3.055902 1.994536 61.341408 254 166 160
3.049601 2.122382 61.214931 254 178 167
3.037077 2.245083 60.963535 251 189 175
3.000115 2.347577 60.221588 246 200 184
2.975969 2.457456 59.736904 244 214 199
2.946328 2.560469 59.141918 245 228 214
2.911529 2.656212 58.443390 245 237 227
2.905809 2.776730 58.328571 247 245 238
2.905809 2.902467 58.328571 250 250 246
2.905809 3.028203 58.328571 253 253 251
2.900111 3.147756 58.214199 254 254 254
2.900111 3.273246 58.214199 254 254 254
2.900111 3.398736 58.214199 254 254 254
2.911529 3.538101 58.443390 254 254 254
3.555425 4.474412 71.368370 254 254 254
3.589943 4.673193 72.061264 254 254 254
3.272249 6.241937 65.684166 254 254 254
3.257834 6.355409 65.394806 254 254 254
2.370283 6.572685 47.578915 254 254 254
2.366491 6.664569 47.502789 254 254 254
2.860845 8.180572 57.425999 254 254 254
2.877542 8.352832 57.761173 254 254 254
2.883151 8.493871 57.873768 254 254 254
2.871955 8.585156 57.649014 254 254 254
2.877542 8.726373 57.761173 254 254 254
2.877542 8.850886 57.761173 254 254 254
2.877542 8.975400 57.761173 254 254 254
2.871955 9.082244 57.649014 254 254 254
3.221413 -7.471074 61.981716 254 145 156
3.221413 -7.337462 61.981716 254 144 154
3.221413 -7.203851 61.981716 254 144 153
3.228152 -7.085031 62.111385 254 145 150
3.234920 -6.965712 62.241596 254 144 145
3.241716 -6.845892 62.372356 254 141 137
3.241716 -6.711438 62.372356 254 144 136
3.248540 -6.590831 62.503666 254 154 144
3.248540 -6.456094 62.503666 254 153 144
3.241716 -6.308077 62.372356 254 131 123
3.241716 -6.173623 62.372356 254 105 101
3.241716 -6.039169 62.372356 254 97 94
3.234920 -5.892336 62.241596 252 101 97
3.228152 -5.746118 62.111385 248 106 96
3.214701 -5.588843 61.852589 237 104 84
3.214701 -5.455510 61.852589 222 106 74
3.214701 -5.322176 61.852589 210 116 74
3.214701 -5.188843 61.852589 202 129 79
3.214701 -5.055510 61.852589 189 132 81
3.214701 -4.922176 61.852589 168 119 72
3.208018 -4.778887 61.723995 169 125 88
3.201362 -4.636192 61.595940 204 172 151
3.194734 -4.494088 61.468410 235 206 204
3.194734 -4.361583 61.468410 240 191 206
3.194734 -4.229078 61.468410 224 134 163
3.201362 -4.105072 61.595940 204 67 105
3.201362 -3.972291 61.595940 213 43 89
3.194734 -3.831562 61.468410 240 57 104
3.181560 -3.683803 61.214931 253 67 109
3.168494 -3.537258 60.963535 254 67 102
3.168494 -3.405841 60.963535 254 67 95
3.168494 -3.274424 60.963535 254 66 92
3.168494 -3.143007 60.963535 254 66 91
3.168494 -3.011590 60.963535 254 65 91
3.175014 -2.886100 61.088974 254 64 90
3.188133 -2.765795 61.341408 254 62 90
3.194734 -2.639016 61.468410 254 60 88
3.194734 -2.506510 61.468410 254 61 88
3.194734 -2.374005 61.468410 254 63 89
3.194734 -2.241500 61.468410 254 64 89
3.194734 -2.108995 61.468410 254 64 90
3.194734 -1.976490 61.468410 254 64 90
3.201362 -1.847810 61.595940 254 64 90
3.201362 -1.715030 61.595940 254 65 90
3.201362 -1.582250 61.595940 254 67 91
3.194734 -1.446469 61.468410 254 69 91
3.188133 -1.311249 61.341408 254 73 93
3.188133 -1.179018 61.341408 254 80 96
3.188133 -1.046786 61.341408 254 90 100
3.188133 -0.914555 61.341408 253 101 100
3.181560 -0.780710 61.214931 244 110 101
3.181560 -0.648752 61.214931 227 124 104
3.175014 -0.515729 61.088974 203 130 104
3.175014 -0.384042 61.088974 170 125 97
3.175014 -0.252355 61.088974 164 139 115
3.181560 -0.120917 61.214931 197 185 168
3.181560 0.011042 61.214931 231 228 219
3.188133 0.143296 61.341408 247 247 243
3.188133 0.275528 61.341408 250 251 250
3.188133 0.407759 61.341408 253 253 253
3.188133 0.539991 61.341408 254 254 254
3.194734 0.673614 61.468410 254 254 254
3.201362 0.807791 61.595940 254 254 254
3.208018 0.942527 61.723995 254 252 254
3.214701 1.077824 61.852589 254 242 250
3.214701 1.211157 61.852589 253 221 238
3.214701 1.344491 61.852589 253 195 215
3.208018 1.474751 61.723995 254 170 189
3.194734 1.601150 61.468410 253 149 162
3.194734 1.733655 61.468410 253 140 146
3.188133 1.862305 61.341408 254 152 152
3.181560 1.990424 61.214931 254 167 161
3.175014 2.118015 61.088974 254 175 164
3.168494 2.245083 60.963535 251 182 168
3.136294 2.352349 60.343987 246 192 177
3.111001 2.462410 59.857342 243 207 191
3.086113 2.570711 59.378483 245 224 210
3.043504 2.661451 58.558662 245 237 225
3.031545 2.776730 58.328571 245 243 234
3.031545 2.902467 58.328571 246 246 240
3.031545 3.028203 58.328571 250 250 248
3.025601 3.147756 58.214199 254 254 253
3.025601 3.273246 58.214199 254 254 254
3.025601 3.398736 58.214199 254 254 254
3.037513 3.538101 58.443390 254 254 254
3.162001 3.814253 60.838612 255 255 255
2.996227 7.963797 57.649014 254 254 254
2.984636 8.056781 57.425999 254 254 254
2.996227 8.212340 57.649014 254 254 254
3.007908 8.369114 57.873768 254 254 254
3.002056 8.477345 57.761173 254 254 254
2.996227 8.585156 57.649014 254 254 254
2.996227 8.709428 57.649014 254 254 254
3.002056 8.850886 57.761173 254 254 254
3.002056 8.975400 57.761173 254 254 254
3.355024 -7.471074 61.981716 254 133 147
3.355024 -7.337462 61.981716 254 135 148
3.355024 -7.203851 61.981716 254 131 144
3.362043 -7.085031 62.111385 254 127 136
3.369092 -6.965712 62.241596 254 126 131
3.376169 -6.845892 62.372356 254 124 125
3.376169 -6.711438 62.372356 254 126 122
3.383277 -6.590831 62.503666 254 134 128
3.383277 -6.456094 62.503666 254 137 133
3.383277 -6.321357 62.503666 254 124 122
3.383277 -6.186620 62.503666 254 105 107
3.383277 -6.051883 62.503666 254 95 100
3.376169 -5.904716 62.372356 254 94 100
3.369092 -5.758164 62.241596 253 97 98
3.362043 -5.612227 62.111385 247 99 93
3.355024 -5.466899 61.981716 234 102 85
3.355024 -5.333287 61.981716 219 107 79
3.355024 -5.199676 61.981716 203 111 75
3.348035 -5.055510 61.852589 182 107 66
3.348035 -4.922176 61.852589 158 92 52
3.334142 -4.768972 61.595940 154 96 62
3.334142 -4.636192 61.595940 184 138 116
3.327240 -4.494088 61.468410 222 187 177
3.320365 -4.352571 61.341408 236 192 194
3.327240 -4.229078 61.468410 213 129 143
3.327240 -4.096572 61.468410 188 55 79
3.327240 -3.964067 61.468410 204 40 72
3.320365 -3.823646 61.341408 238 59 95
3.313519 -3.683803 61.214931 253 68 103
3.299911 -3.537258 60.963535 255 67 98
3.299911 -3.405841 60.963535 254 66 93
3.299911 -3.274424 60.963535 254 65 91
3.306701 -3.149474 61.088974 254 65 90
3.306701 -3.017787 61.088974 254 64 89
3.313519 -2.892051 61.214931 254 63 89
3.320365 -2.765795 61.341408 254 61 89
3.327240 -2.639016 61.468410 254 60 87
3.334142 -2.511711 61.595940 254 62 88
3.327240 -2.374005 61.468410 254 63 89
3.327240 -2.241500 61.468410 254 63 89
3.327240 -2.108995 61.468410 254 63 88
3.327240 -1.976490 61.468410 254 63 88
3.334142 -1.847810 61.595940 254 62 88
3.341074 -1.718596 61.723995 254 63 89
3.341074 -1.585540 61.723995 254 64 90
3.327240 -1.446469 61.468410 254 66 90
3.320365 -1.311249 61.341408 254 69 91
3.320365 -1.179018 61.341408 254 74 94
3.313519 -1.044628 61.214931 254 83 97
3.313519 -0.912669 61.214931 254 94 100
3.313519 -0.780710 61.214931 247 105 101
3.306701 -0.647417 61.088974 233 116 102
3.306701 -0.515729 61.088974 213 124 102
3.306701 -0.384042 61.088974 183 125 100
3.306701 -0.252355 61.088974 164 128 105
3.313519 -0.120917 61.214931 169 151 133
3.320365 0.011065 61.341408 203 195 184
3.320365 0.143296 61.341408 239 237 232
3.320365 0.275528 61.341408 253 253 252
3.320365 0.407759 61.341408 253 254 253
3.320365 0.539991 61.341408 254 255 254
3.320365 0.672222 61.341408 254 254 254
3.327240 0.806119 61.468410 254 254 254
3.334142 0.940571 61.595940 254 254 254
3.341074 1.075583 61.723995 254 244 250
3.341074 1.208639 61.723995 252 217 230
3.334142 1.338912 61.595940 251 190 208
3.327240 1.468645 61.468410 253 178 195
3.320365 1.597842 61.341408 252 156 166
3.313519 1.726506 61.214931 252 134 138
3.313519 1.858465 61.214931 253 144 141
3.306701 1.986328 61.088974 254 161 153
3.306701 2.118015 61.088974 254 170 157
3.299911 2.245083 60.963535 252 177 161
3.266375 2.352349 60.343987 246 186 168
3.240034 2.462410 59.857342 242 198 181
3.220554 2.575863 59.497478 244 217 202
3.188604 2.677293 58.907227 247 235 225
3.169737 2.787683 58.558662 245 242 234
3.157282 2.902467 58.328571 244 242 236
3.157282 3.028203 58.328571 248 247 243
3.157282 3.153940 58.328571 252 252 250
3.163497 3.286133 58.443390 253 253 253
3.182290 3.432387 58.790577 254 254 253
3.220554 3.601915 59.497478 254 254 254
3.266375 3.783243 60.343987 254 254 254
3.246579 6.087587 59.978268 254 254 254
3.563318 6.965312 65.829803 254 254 254
3.563318 7.107218 65.829803 254 254 254
3.579191 7.281415 66.123032 254 254 254
3.108427 7.932989 57.425999 254 254 254
3.120498 8.088069 57.649014 254 254 254
3.132664 8.244358 57.873768 254 254 254
3.132664 8.369114 57.873768 254 254 254
3.132664 8.493871 57.873768 254 254 254
3.126569 8.601859 57.761173 254 254 254
3.126569 8.726373 57.761173 254 254 254
3.126569 8.850886 57.761173 254 254 254
3.126569 8.975400 57.761173 254 254 254
3.126569 9.099914 57.761173 254 254 254
3.488636 -7.471074 61.981716 254 130 146
3.488636 -7.337462 61.981716 254 138 154
3.488636 -7.203851 61.981716 254 131 145
3.495934 -7.085031 62.111385 254 114 124
3.503263 -6.965712 62.241596 254 106 110
3.510623 -6.845892 62.372356 254 105 103
3.518014 -6.725567 62.503666 254 108 101
3.518014 -6.590831 62.503666 254 118 110
3.525436 -6.469714 62.635532 254 123 116
3.525436 -6.334693 62.635532 255 114 113
3.540374 -6.225942 62.900936 254 101 105
3.540374 -6.090349 62.900936 254 92 101
3.540374 -5.954755 62.900936 254 90 100
3.510623 -5.770262 62.372356 254 90 99
3.503263 -5.623993 62.241596 252 91 96
3.503263 -5.489821 62.241596 245 93 92
3.495934 -5.344445 62.111385 234 97 87
3.495934 -5.210554 62.111385 221 100 82
3.488636 -5.066064 61.981716 203 98 74
3.481368 -4.922176 61.852589 182 88 60
3.466923 -4.768972 61.595940 167 79 54
3.466923 -4.636192 61.595940 171 86 68
3.459745 -4.494088 61.468410 197 118 108
3.452596 -4.352571 61.341408 225 150 148
3.452596 -4.220340 61.341408 217 122 128
3.459745 -4.096572 61.468410 196 60 75
3.459745 -3.964067 61.468410 209 44 66
3.452596 -3.823646 61.341408 240 60 86
3.445478 -3.683803 61.214931 253 67 94
3.438388 -3.544536 61.088974 254 65 92
3.438388 -3.412849 61.088974 254 64 90
3.438388 -3.281162 61.088974 254 63 88
3.438388 -3.149474 61.088974 254 63 87
3.452596 -3.030257 61.341408 254 62 87
3.452596 -2.898026 61.341408 254 60 86
3.466923 -2.777271 61.595940 254 58 85
3.466923 -2.644491 61.595940 254 58 85
3.466923 -2.511711 61.595940 254 61 87
3.466923 -2.378931 61.595940 254 62 87
3.459745 -2.241500 61.468410 254 62 86
3.459745 -2.108995 61.468410 254 61 85
3.466923 -1.980590 61.595940 254 60 84
3.474130 -1.851652 61.723995 254 60 85
3.474130 -1.718596 61.723995 254 60 86
3.474130 -1.585540 61.723995 254 61 87
3.452596 -1.443480 61.341408 254 61 87
3.445478 -1.308545 61.214931 254 64 87
3.445478 -1.176587 61.214931 254 69 90
3.445478 -1.044628 61.214931 254 76 93
3.445478 -0.912669 61.214931 254 86 96
3.438388 -0.779104 61.088974 249 96 97
3.438388 -0.647417 61.088974 239 107 99
3.438388 -0.515729 61.088974 222 116 101
3.438388 -0.384042 61.088974 197 123 103
3.438388 -0.252355 61.088974 173 124 104
3.445478 -0.120917 61.214931 159 132 114
3.452596 0.011065 61.341408 175 163 150
3.452596 0.143296 61.341408 215 210 204
3.452596 0.275528 61.341408 242 243 241
3.445478 0.406918 61.214931 250 251 250
3.445478 0.538877 61.214931 250 251 250
3.445478 0.670836 61.214931 253 253 252
3.452596 0.804453 61.341408 254 254 254
3.459745 0.938624 61.468410 254 253 254
3.466923 1.073352 61.595940 254 246 250
3.466923 1.206132 61.595940 253 223 233
3.459745 1.336140 61.468410 252 196 209
3.452596 1.465611 61.341408 249 173 184
3.445478 1.594547 61.214931 246 141 146
3.438388 1.722954 61.088974 248 120 118
3.438388 1.854641 61.088974 253 130 121
3.438388 1.986328 61.088974 254 147 134
3.431328 2.113666 60.963535 254 158 142
3.431328 2.245083 60.963535 253 169 150
3.396456 2.352349 60.343987 249 178 159
3.375872 2.467385 59.978268 245 190 170
3.355536 2.581035 59.616951 246 209 193
3.328798 2.687959 59.141918 248 229 219
3.315588 2.804277 58.907227 245 237 228
3.309023 2.925456 58.790577 243 238 230
3.295970 3.040149 58.558662 247 244 240
3.302484 3.172639 58.674393 250 250 248
3.309023 3.305654 58.790577 251 252 251
3.355536 3.480633 59.616951 253 254 253
3.375872 3.631021 59.978268 254 254 254
3.396456 3.783243 60.343987 254 254 254
3.335442 5.375959 59.259964 254 254 254
3.328798 5.492740 59.141918 255 255 255
3.328798 5.620230 59.141918 254 254 254
3.328798 5.747720 59.141918 255 255 255
3.328798 5.875210 59.141918 254 254 254
3.342113 6.026711 59.378483 254 254 254
3.369066 6.204346 59.857342 255 255 255
3.375872 6.346173 59.978268 254 254 254
3.688867 7.075840 65.539169 254 254 254
3.713459 7.265234 65.976097 254 254 254
3.895237 7.770060 69.205696 254 254 254
2.911248 6.587727 51.723419 254 254 254
2.695253 6.202186 47.885876 254 254 254
2.690912 6.295259 47.808765 254 254 254
2.686586 6.388031 47.731899 254 254 254
2.682274 6.480506 47.655285 254 254 254
2.957622 7.259036 52.547333 254 254 254
2.984030 7.438135 53.016502 254 254 254
3.263783 8.260460 57.986801 254 254 254
3.263783 8.385460 57.986801 254 254 254
3.263783 8.510460 57.986801 254 254 254
3.257420 8.618627 57.873768 254 254 254
3.257420 8.743383 57.873768 253 253 253
3.257420 8.868139 57.873768 253 253 253
3.257420 8.992896 57.873768 253 253 253
3.257420 9.117652 57.873768 254 254 254
3.257420 9.242409 57.873768 254 254 254
3.263783 9.385460 57.986801 254 254 254
3.263783 9.510460 57.986801 254 254 254
3.622248 -7.471074 61.981716 254 138 156
3.622248 -7.337462 61.981716 254 158 176
3.622248 -7.203851 61.981716 254 152 167
3.629826 -7.085031 62.111385 252 118 127
3.645077 -6.980346 62.372356 249 89 91
3.645077 -6.845892 62.372356 249 86 79
3.652751 -6.725567 62.503666 252 97 84
3.660457 -6.604735 62.635532 254 107 92
3.660457 -6.469714 62.635532 253 110 98
3.675967 -6.361535 62.900936 254 104 98
3.683772 -6.239161 63.034485 254 95 96
3.691610 -6.116265 63.168602 254 89 98
3.691610 -5.980095 63.168602 254 87 100
3.675967 -5.819162 62.900936 254 85 100
3.660457 -5.659587 62.635532 254 84 98
3.645077 -5.501354 62.372356 252 85 95
3.645077 -5.366900 62.372356 247 86 91
3.637435 -5.221477 62.241596 238 88 86
3.629826 -5.076662 62.111385 227 89 79
3.614701 -4.922176 61.852589 214 84 70
3.607186 -4.778887 61.723995 200 74 59
3.599703 -4.636192 61.595940 192 64 52
3.599703 -4.503412 61.595940 204 77 70
3.584828 -4.352571 61.341408 227 106 105
3.592250 -4.229078 61.468410 232 101 107
3.592250 -4.096572 61.468410 223 65 78
3.592250 -3.964067 61.468410 230 51 69
3.584828 -3.823646 61.341408 247 60 81
3.584828 -3.691414 61.341408 254 64 87
3.577436 -3.551844 61.214931 254 63 87
3.570075 -3.412849 61.088974 254 62 87
3.584828 -3.294720 61.341408 254 61 86
3.584828 -3.162489 61.341408 254 61 85
3.584828 -3.030257 61.341408 254 60 84
3.592250 -2.904026 61.468410 254 58 83
3.599703 -2.777271 61.595940 254 56 82
3.607186 -2.649989 61.723995 254 56 81
3.607186 -2.516932 61.723995 254 60 84
3.599703 -2.378931 61.595940 254 62 86
3.599703 -2.246150 61.595940 254 61 84
3.599703 -2.113370 61.595940 254 59 82
3.599703 -1.980590 61.595940 254 59 83
3.607186 -1.851652 61.723995 254 60 85
3.607186 -1.718596 61.723995 254 60 86
3.607186 -1.585540 61.723995 254 60 85
3.584828 -1.443480 61.341408 254 60 85
3.577436 -1.308545 61.214931 254 62 86
3.570075 -1.174166 61.088974 254 67 89
3.570075 -1.042478 61.088974 254 73 92
3.570075 -0.910791 61.088974 254 79 93
3.570075 -0.779104 61.088974 252 89 96
3.570075 -0.647417 61.088974 245 102 99
3.570075 -0.515729 61.088974 231 111 101
3.570075 -0.384042 61.088974 209 119 103
3.570075 -0.252355 61.088974 188 126 107
3.570075 -0.120668 61.088974 165 128 111
3.577436 0.011042 61.214931 159 140 125
3.584828 0.143296 61.341408 183 176 165
3.577436 0.274960 61.214931 221 220 214
3.570075 0.406081 61.088974 242 242 239
3.570075 0.537768 61.088974 246 246 244
3.570075 0.669456 61.088974 251 249 249
3.570075 0.801143 61.088974 254 252 253
3.577436 0.934754 61.214931 254 253 254
3.592250 1.071129 61.468410 254 251 253
3.592250 1.203635 61.468410 254 240 245
3.584828 1.333379 61.341408 251 213 218
3.577436 1.462589 61.214931 240 163 166
3.570075 1.591266 61.088974 235 118 114
3.570075 1.722954 61.088974 243 106 94
3.562745 1.850833 60.963535 251 119 101
3.562745 1.982249 60.963535 254 134 112
3.562745 2.113666 60.963535 254 147 124
3.562745 2.245083 60.963535 254 160 137
3.526538 2.352349 60.343987 252 171 149
3.505165 2.467385 59.978268 250 183 163
3.491060 2.586228 59.736904 251 201 184
3.477067 2.704119 59.497478 249 218 205
3.456288 2.815449 59.141918 244 226 216
3.442573 2.931261 58.907227 244 234 226
3.435756 3.052189 58.790577 249 245 240
3.435756 3.178922 58.790577 252 251 249
3.484050 3.352119 59.616951 253 253 252
3.491060 3.487637 59.736904 254 254 254
3.505165 3.631021 59.978268 254 254 254
3.526538 3.783243 60.343987 254 254 254
3.477067 5.269249 59.497478 254 254 254
3.463187 5.375959 59.259964 254 254 254
3.456288 5.492740 59.141918 254 254 254
3.456288 5.620230 59.141918 254 254 254
3.456288 5.747720 59.141918 254 254 254
3.456288 5.875210 59.141918 254 254 254
3.470113 6.026711 59.378483 254 254 254
3.498098 6.204346 59.857342 254 254 254
3.498098 6.333378 59.857342 254 254 254
3.830147 7.075840 65.539169 254 254 254
3.864269 7.281415 66.123032 254 254 254
4.101789 7.880273 70.187332 254 254 254
4.101789 8.031573 70.187332 254 254 254
4.121274 8.221747 70.520767 254 254 254
2.844355 6.198944 48.670887 254 254 254
2.798478 6.202186 47.885876 254 254 254
2.793972 6.295259 47.808765 254 254 254
2.785003 6.377778 47.655285 254 254 254
2.785003 6.480506 47.655285 254 254 254
3.098315 7.323849 53.016502 254 254 254
3.098315 7.438135 53.016502 254 254 254
3.388783 8.260460 57.986801 254 254 254
3.388783 8.385460 57.986801 254 254 254
3.388783 8.510460 57.986801 254 254 254
3.382177 8.618627 57.873768 254 254 254
3.382177 8.743383 57.873768 253 253 253
3.382177 8.868139 57.873768 251 251 251
3.388783 9.010460 57.986801 252 252 252
3.388783 9.135460 57.986801 254 254 254
3.388783 9.260460 57.986801 254 254 254
3.388783 9.385460 57.986801 254 254 254
3.388783 9.510460 57.986801 254 254 254
3.388783 9.635460 57.986801 254 254 254
3.388783 9.760460 57.986801 254 254 254
3.388783 9.885460 57.986801 254 254 254
3.388783 10.010460 57.986801 254 254 254
3.388783 10.385460 57.986801 254 254 254
3.356009 10.408812 57.425999 254 254 254
3.356009 10.532602 57.425999 254 254 254
3.382177 10.739485 57.873768 252 252 252
3.748035 -7.588843 61.852589 254 126 145
3.748035 -7.455510 61.852589 254 145 165
3.755859 -7.337462 61.981716 254 172 189
3.755859 -7.203851 61.981716 253 176 190
3.763717 -7.085031 62.111385 244 134 140
3.779531 -6.980346 62.372356 234 86 81
3.779531 -6.845892 62.372356 237 85 71
3.779531 -6.711438 62.372356 247 104 81
3.787488 -6.590831 62.503666 248 101 76
3.811561 -6.497128 62.900936 247 93 72
3.811561 -6.361535 62.900936 252 91 79
3.827780 -6.252435 63.168602 254 87 86
3.835942 -6.129306 63.303288 254 85 93
3.835942 -5.992846 63.303288 254 84 99
3.827780 -5.843925 63.168602 254 81 101
3.819653 -5.695636 63.034485 254 79 99
3.803502 -5.536246 62.767956 254 77 96
3.795478 -5.389545 62.635532 253 77 92
3.787488 -5.243462 62.503666 248 78 87
3.771607 -5.087305 62.241596 242 78 81
3.755859 -4.932452 61.981716 236 77 75
3.748035 -4.788843 61.852589 230 73 68
3.740242 -4.645831 61.723995 225 68 62
3.740242 -4.512774 61.723995 228 69 66
3.732483 -4.370632 61.595940 237 77 78
3.724755 -4.229078 61.468410 242 76 83
3.724755 -4.096572 61.468410 242 64 76
3.724755 -3.964067 61.468410 247 59 75
3.717059 -3.823646 61.341408 253 61 81
3.717059 -3.691414 61.341408 254 62 84
3.717059 -3.559183 61.341408 254 61 85
3.717059 -3.426951 61.341408 254 61 85
3.724755 -3.301542 61.468410 254 60 84
3.732483 -3.175611 61.595940 254 60 84
3.732483 -3.042831 61.595940 254 59 83
3.740242 -2.916101 61.723995 254 59 83
3.748035 -2.788843 61.852589 254 57 81
3.748035 -2.655509 61.852589 254 57 81
3.748035 -2.522176 61.852589 254 60 84
3.748035 -2.388843 61.852589 254 63 87
3.740242 -2.250820 61.723995 254 62 85
3.740242 -2.117764 61.723995 254 59 82
3.740242 -1.984708 61.723995 254 59 84
3.740242 -1.851652 61.723995 254 62 87
3.740242 -1.718596 61.723995 254 61 87
3.740242 -1.585540 61.723995 254 60 86
3.717059 -1.443480 61.341408 254 60 87
3.701763 -1.305853 61.088974 254 63 87
3.701763 -1.174166 61.088974 254 67 90
3.701763 -1.042478 61.088974 254 72 92
3.701763 -0.910791 61.088974 254 77 93
3.701763 -0.779104 61.088974 254 86 96
3.701763 -0.647417 61.088974 251 98 100
3.701763 -0.515729 61.088974 240 106 100
3.694161 -0.383254 60.963535 222 116 103
3.694161 -0.251837 60.963535 202 126 108
3.701763 -0.120668 61.088974 177 129 111
3.701763 0.011019 61.088974 160 133 116
3.701763 0.142707 61.088974 163 152 137
3.701763 0.274394 61.088974 198 195 186
3.694161 0.405247 60.963535 235 234 229
3.694161 0.536664 60.963535 245 246 242
3.694161 0.668081 60.963535 247 246 245
3.694161 0.799498 60.963535 249 247 247
3.701763 0.932830 61.088974 252 250 251
3.709395 1.066712 61.214931 254 252 253
3.717059 1.201148 61.341408 254 250 250
3.709395 1.330630 61.214931 251 228 226
3.701763 1.459579 61.088974 240 175 168
3.701763 1.591266 61.088974 235 124 109
3.701763 1.722954 61.088974 239 105 81
3.694161 1.850833 60.963535 246 110 80
3.694161 1.982249 60.963535 251 122 90
3.694161 2.113666 60.963535 254 137 105
3.694161 2.245083 60.963535 254 151 123
3.671544 2.361950 60.590290 254 163 139
3.649202 2.477394 60.221588 253 175 154
3.627130 2.591443 59.857342 251 190 172
3.619832 2.715001 59.736904 248 204 190
3.605324 2.832376 59.497478 245 217 205
3.583778 2.942939 59.141918 246 233 223
3.576653 3.064325 59.024338 251 246 241
3.583778 3.197919 59.141918 253 252 249
3.612564 3.352119 59.616951 254 254 252
3.627130 3.494668 59.857342 254 254 254
3.641815 3.638371 60.099682 254 254 254
3.656619 3.783243 60.343987 254 254 254
3.686591 3.945400 60.838612 254 254 254
3.627130 5.172088 59.857342 254 254 254
3.605324 5.269249 59.497478 254 254 254
3.605324 5.397506 59.497478 254 254 254
3.605324 5.525763 59.497478 254 254 254
3.605324 5.654019 59.497478 254 254 254
3.598113 5.770711 59.378483 254 254 254
3.598113 5.898711 59.378483 254 254 254
3.619832 6.063089 59.736904 254 254 254
3.627130 6.204346 59.857342 254 254 254
3.627130 6.333378 59.857342 254 254 254
3.641815 6.488574 60.099682 254 254 254
4.006808 7.281415 66.123032 254 254 254
4.203403 7.788214 69.367386 254 254 254
4.203403 7.937747 69.367386 254 254 254
4.243058 8.163574 70.021797 254 254 254
4.243058 8.314518 70.021797 254 254 254
3.576653 7.263132 59.024338 254 254 254
3.139715 6.487531 51.813686 254 254 254
3.112555 6.542138 51.365471 255 255 255
2.949273 6.303862 48.670887 254 254 254
2.901704 6.305412 47.885876 254 254 254
3.212601 7.209563 53.016502 254 254 254
3.513783 8.010460 57.986801 254 254 254
3.513783 8.135460 57.986801 254 254 254
3.513783 8.260460 57.986801 254 254 254
3.513783 8.385460 57.986801 254 254 254
3.513783 8.510460 57.986801 254 254 254
3.513783 8.635460 57.986801 254 254 254
3.506933 8.743383 57.873768 252 252 252
3.513783 8.885460 57.986801 249 249 249
3.513783 9.010460 57.986801 250 251 250
3.513783 9.135460 57.986801 254 254 254
3.513783 9.260460 57.986801 254 254 254
3.513783 9.385460 57.986801 254 254 254
3.513783 9.510460 57.986801 254 254 254
3.513783 9.635460 57.986801 254 254 254
3.513783 9.760460 57.986801 255 255 255
3.513783 9.885460 57.986801 254 254 254
3.513783 10.010460 57.986801 254 254 254
3.513783 10.135460 57.986801 254 254 254
3.513783 10.260460 57.986801 254 254 254
3.506933 10.365215 57.873768 254 254 254
3.506933 10.489972 57.873768 254 254 254
3.500110 10.594077 57.761173 254 254 254
3.506933 10.739485 57.873768 254 254 254
3.881368 -7.588843 61.852589 253 141 160
3.881368 -7.455510 61.852589 254 150 170
3.889471 -7.337462 61.981716 254 170 187
3.889471 -7.203851 61.981716 251 185 196
3.897608 -7.085031 62.111385 237 149 150
3.913985 -6.980346 62.372356 223 101 91
3.913985 -6.845892 62.372356 230 112 91
3.913985 -6.711438 62.372356 243 130 101
3.922225 -6.590831 62.503666 242 105 75
3.947154 -6.497128 62.900936 240 86 61
3.955534 -6.375041 63.034485 245 83 68
3.972402 -6.265767 63.303288 248 78 76
3.980890 -6.142403 63.438553 251 77 87
3.989415 -6.018511 63.574394 254 79 97
3.980890 -5.868898 63.438553 254 77 100
3.980890 -5.732146 63.438553 255 74 99
3.963950 -5.571584 63.168602 254 72 97
3.963950 -5.435414 63.168602 254 71 93
3.938809 -5.265633 62.767956 253 70 88
3.922225 -5.108726 62.503666 252 70 84
3.897608 -4.942771 62.111385 250 70 79
3.881368 -4.788843 61.852589 248 69 76
3.881368 -4.655509 61.852589 247 67 75
3.873299 -4.512774 61.723995 247 66 74
3.873299 -4.379718 61.723995 249 66 76
3.865263 -4.237852 61.595940 250 64 77
3.857260 -4.096572 61.468410 251 62 78
3.857260 -3.964067 61.468410 253 61 80
3.857260 -3.831562 61.468410 254 61 81
3.857260 -3.699057 61.468410 254 61 82
3.857260 -3.566552 61.468410 255 60 83
3.865263 -3.441171 61.595940 254 59 83
3.865263 -3.308391 61.595940 254 59 82
3.873299 -3.182213 61.723995 254 59 82
3.873299 -3.049157 61.723995 254 59 82
3.881368 -2.922176 61.852589 254 59 82
3.889471 -2.794665 61.981716 254 59 81
3.897608 -2.666620 62.111385 254 58 80
3.889471 -2.527442 61.981716 255 60 83
3.881368 -2.388843 61.852589 254 64 86
3.881368 -2.255509 61.852589 255 63 86
3.881368 -2.122176 61.852589 255 60 84
3.873299 -1.984708 61.723995 254 60 84
3.873299 -1.851652 61.723995 254 61 86
3.873299 -1.718596 61.723995 254 60 86
3.865263 -1.582250 61.595940 254 60 86
3.849291 -1.443480 61.341408 254 60 87
3.833450 -1.305853 61.088974 254 62 87
3.817739 -1.169354 60.838612 254 65 90
3.817739 -1.038206 60.838612 254 70 92
3.817739 -0.907058 60.838612 254 75 93
3.817739 -0.775911 60.838612 254 82 95
3.825578 -0.646087 60.963535 254 90 96
3.825578 -0.514670 60.963535 246 99 96
3.825578 -0.383254 60.963535 231 112 101
3.825578 -0.251837 60.963535 213 123 106
3.825578 -0.120420 60.963535 189 130 110
3.833450 0.011019 61.088974 166 131 111
3.833450 0.142707 61.088974 153 135 117
3.825578 0.273831 60.963535 183 176 163
3.825578 0.405247 60.963535 232 230 223
3.825578 0.536664 60.963535 249 249 246
3.825578 0.668081 60.963535 245 244 243
3.825578 0.799498 60.963535 243 241 241
3.825578 0.930915 60.963535 250 246 247
3.833450 1.064517 61.088974 254 252 253
3.841354 1.198671 61.214931 254 253 251
3.841354 1.330630 61.214931 253 241 235
3.833450 1.459579 61.088974 250 209 195
3.825578 1.587999 60.963535 245 163 140
3.825578 1.719416 60.963535 240 129 96
3.825578 1.850833 60.963535 240 116 78
3.825578 1.982249 60.963535 244 114 76
3.825578 2.113666 60.963535 247 122 88
3.817739 2.240483 60.838612 252 139 109
3.802156 2.361950 60.590290 254 152 128
3.786700 2.482430 60.343987 253 163 145
3.763751 2.596678 59.978268 250 177 162
3.756163 2.720475 59.857342 247 190 178
3.748605 2.843774 59.736904 245 206 196
3.733580 2.960632 59.497478 247 226 218
3.718676 3.076558 59.259964 251 241 235
3.726113 3.210711 59.378483 253 248 244
3.748605 3.358864 59.736904 254 252 250
3.756163 3.494668 59.857342 254 254 252
3.771370 3.638371 60.099682 254 254 252
3.779020 3.775569 60.221588 254 254 253
3.786700 3.913324 60.343987 254 254 254
3.817739 4.076548 60.838612 254 254 254
3.763751 5.053243 59.978268 254 254 254
3.756163 5.172088 59.857342 254 254 254
3.756163 5.301120 59.857342 254 254 254
3.756163 5.430152 59.857342 253 254 254
3.756163 5.559185 59.857342 253 254 254
3.748605 5.676772 59.736904 254 254 254
3.748605 5.805544 59.736904 254 254 254
3.748605 5.934317 59.736904 254 254 254
3.756163 6.075314 59.857342 254 254 254
3.756163 6.204346 59.857342 255 255 255
3.756163 6.333378 59.857342 254 254 254
3.756163 6.462410 59.857342 254 254 254
3.771370 6.618128 60.099682 254 254 254
4.158608 7.440526 66.270630 254 254 254
4.158608 7.583383 66.270630 254 254 254
3.703890 6.881423 59.024338 254 254 254
3.674668 6.953364 58.558662 254 254 254
3.667434 7.065660 58.443390 254 254 254
3.667434 7.191645 58.443390 254 254 254
3.638783 7.260460 57.986801 254 254 254
3.631689 7.371063 57.873768 254 254 254
3.631689 7.495820 57.873768 254 254 254
3.631689 7.620576 57.873768 254 254 254
3.645903 7.900891 58.100277 254 254 254
3.638783 8.010460 57.986801 254 254 254
3.638783 8.135460 57.986801 254 254 254
3.638783 8.260460 57.986801 254 254 254
3.638783 8.385460 57.986801 253 253 253
3.638783 8.510460 57.986801 254 254 253
3.638783 8.635460 57.986801 254 254 254
3.638783 8.760460 57.986801 250 250 250
3.638783 8.885460 57.986801 245 246 246
3.638783 9.010460 57.986801 248 249 249
3.638783 9.135460 57.986801 253 254 253
3.638783 9.260460 57.986801 254 254 254
3.638783 9.385460 57.986801 254 254 254
3.638783 9.510460 57.986801 254 254 254
3.638783 9.635460 57.986801 254 254 254
3.638783 9.760460 57.986801 254 254 254
3.638783 9.885460 57.986801 254 254 254
3.638783 10.010460 57.986801 254 254 254
3.638783 10.135460 57.986801 254 254 254
3.638783 10.260460 57.986801 254 254 254
3.631689 10.365215 57.873768 254 254 254
3.631689 10.489972 57.873768 254 254 254
3.631689 10.614728 57.873768 254 254 254
3.631689 10.739485 57.873768 254 254 254
