ply
format ascii 1.0
element vertex 1158
property float x
property float y
property float z
property uchar red
property uchar green
property uchar blue
end_header
-3.097090 7.666085 55.493912 254 254 254
-3.057091 7.685158 54.777199 254 254 254
-3.057091 7.803239 54.777199 254 254 254
-3.062742 9.355556 54.878452 254 254 254
-2.985484 10.503344 53.494129 254 254 254
-2.969433 10.561569 53.206528 254 254 254
-3.179528 -3.566157 59.259964 254 189 217
-3.179528 -3.438412 59.259964 254 194 223
-3.173194 -3.304073 59.141918 254 198 227
-3.166885 -3.170267 59.024338 255 198 225
-3.166885 -3.043031 59.024338 254 193 219
-3.154343 -2.904247 58.790577 254 191 215
-3.141900 -2.766557 58.558662 254 194 217
-3.135715 -2.635127 58.443390 254 196 219
-3.129555 -2.504213 58.328571 254 198 221
-3.129555 -2.378476 58.328571 254 201 225
-3.016938 -0.232281 56.229626 254 241 243
-3.016938 -0.111069 56.229626 254 245 247
-3.016938 0.010143 56.229626 254 242 242
-3.016938 0.131355 56.229626 251 239 238
-3.011235 0.252090 56.123333 248 239 237
-3.005553 0.372369 56.017437 249 245 241
-3.005553 0.493124 56.017437 251 251 248
-2.999893 0.612722 55.911945 250 251 247
-2.999893 0.733249 55.911945 250 250 246
-2.999893 0.853777 55.911945 251 251 249
-2.988637 0.970648 55.702145 253 252 252
-2.988637 1.090723 55.702145 252 252 252
-2.983040 1.208531 55.597832 251 251 251
-2.977464 1.325898 55.493912 253 253 253
-2.960861 1.437464 55.184464 241 241 240
-2.960861 1.556423 55.184464 222 222 222
-2.955368 1.672274 55.082081 231 231 229
-2.960861 1.794341 55.184464 249 249 248
-2.960861 1.913300 55.184464 253 253 253
-2.966375 2.036044 55.287228 254 254 253
-2.977464 2.163281 55.493912 254 254 254
-2.977464 2.282907 55.493912 254 254 254
-2.983040 2.407033 55.597832 254 254 254
-2.983040 2.526883 55.597832 253 254 253
-2.988637 2.651699 55.702145 254 254 254
-2.994254 2.776984 55.806847 254 254 254
-2.994254 2.897285 55.806847 253 253 253
-2.988637 3.011924 55.702145 251 252 251
-2.988637 3.131999 55.702145 251 251 250
-2.983040 3.245984 55.597832 252 252 252
-2.971909 3.353275 55.390377 252 252 252
-2.960861 3.459769 55.184464 250 250 250
-2.955368 3.572088 55.082081 251 251 251
-2.949895 3.683992 54.980080 254 254 254
-2.944443 3.795481 54.878452 254 254 254
-2.944443 3.913781 54.878452 254 254 254
-2.949895 4.039547 54.980080 254 254 254
-2.944443 4.150380 54.878452 254 254 254
-2.933597 4.252957 54.676319 255 255 255
-2.933597 4.370821 54.676319 254 254 254
-2.928205 4.480433 54.575813 254 254 254
-2.939010 5.087372 54.777199 254 254 254
-2.928205 5.186315 54.575813 254 254 254
-2.933597 5.313730 54.676319 254 254 254
-2.939010 5.441615 54.777199 254 254 254
-2.939010 5.559697 54.777199 254 254 254
-2.939010 5.677778 54.777199 254 254 254
-2.939010 5.795859 54.777199 252 252 252
-2.944443 5.924871 54.878452 250 250 250
-2.944443 6.043171 54.878452 250 250 250
-2.944443 6.161470 54.878452 253 253 253
-2.949895 6.291399 54.980080 254 254 254
-2.955368 6.421810 55.082081 254 254 254
-2.955368 6.540548 55.082081 251 251 251
-2.960861 6.671664 55.184464 249 249 249
-2.966375 6.803269 55.287228 251 251 251
-2.977464 6.948328 55.493912 253 254 253
-2.994254 7.107811 55.806847 254 254 254
-2.999893 7.241724 55.911945 254 254 254
-2.999893 7.362251 55.911945 254 254 254
-2.999893 7.482779 55.911945 254 254 254
-2.999893 7.603306 55.911945 254 254 254
-2.988637 7.694851 55.702145 255 255 255
-2.988637 7.814926 55.702145 254 254 254
-2.939010 7.803239 54.777199 254 254 254
-2.944443 9.118957 54.878452 254 254 254
-2.944443 9.237256 54.878452 254 254 254
-2.844542 9.723849 53.016502 247 248 247
-2.865006 10.024020 53.397919 254 254 254
-2.865006 10.139129 53.397919 254 254 254
-2.870168 10.272713 53.494129 254 254 254
-2.865006 10.369345 53.397919 254 254 254
-2.859862 10.465630 53.302052 254 254 254
-2.854737 10.561569 53.206528 254 254 254
-2.859862 10.695432 53.302052 254 254 254
-3.051783 -3.566157 59.259964 254 191 216
-3.051783 -3.438412 59.259964 254 194 220
-3.045704 -3.304073 59.141918 254 199 225
-3.045704 -3.176583 59.141918 254 204 227
-3.039649 -3.043031 59.024338 254 200 223
-3.027611 -2.904247 58.790577 254 189 212
-3.015667 -2.766557 58.558662 254 183 206
-3.015667 -2.640325 58.558662 254 186 209
-3.009731 -2.509143 58.443390 254 192 215
-3.009731 -2.383158 58.443390 254 197 221
-3.009731 -2.257174 58.443390 254 200 226
-2.997928 -2.122832 58.214199 254 202 229
-2.895726 -0.353493 56.229626 254 228 231
-2.895726 -0.232281 56.229626 254 242 243
-2.895726 -0.111069 56.229626 254 245 246
-2.895726 0.010143 56.229626 254 241 241
-2.895726 0.131355 56.229626 250 240 237
-2.890252 0.252090 56.123333 244 239 235
-2.884799 0.372369 56.017437 246 244 239
-2.884799 0.493124 56.017437 249 250 247
-2.884799 0.613878 56.017437 248 250 247
-2.879366 0.733249 55.911945 248 250 247
-2.879366 0.853777 55.911945 250 251 250
-2.868562 0.970648 55.702145 251 252 251
-2.868562 1.090723 55.702145 251 252 251
-2.863190 1.208531 55.597832 252 252 252
-2.857838 1.325898 55.493912 253 253 253
-2.841902 1.437464 55.184464 242 242 242
-2.841902 1.556423 55.184464 223 224 223
-2.836630 1.672274 55.082081 229 229 228
-2.841902 1.794341 55.184464 247 247 246
-2.841902 1.913300 55.184464 254 254 253
-2.841902 2.032259 55.184464 254 254 254
-2.847194 2.155224 55.287228 254 254 254
-2.852506 2.278648 55.390377 254 254 254
-2.857838 2.402534 55.493912 253 253 253
-2.863190 2.526883 55.597832 253 253 253
-2.868562 2.651699 55.702145 253 254 253
-2.868562 2.771774 55.702145 252 253 252
-2.868562 2.891849 55.702145 249 249 249
-2.863190 3.006284 55.597832 248 248 247
-2.857838 3.120291 55.493912 251 251 250
-2.857838 3.239917 55.493912 253 253 253
-2.847194 3.347031 55.287228 253 253 253
-2.836630 3.453350 55.082081 253 253 253
-2.836630 3.572088 55.082081 254 254 254
-2.831377 3.683992 54.980080 254 254 254
-2.826143 3.795481 54.878452 253 253 253
-2.826143 3.913781 54.878452 253 253 253
-2.831377 4.039547 54.980080 254 254 254
-2.831377 4.158066 54.980080 254 254 254
-2.826143 4.268679 54.878452 254 254 254
-2.815734 4.370821 54.676319 254 254 254
-2.810558 4.480433 54.575813 254 254 254
-2.805401 4.589643 54.475674 254 254 254
-2.826143 5.096776 54.878452 254 254 254
-2.810558 5.186315 54.575813 254 254 254
-2.815734 5.313730 54.676319 254 254 254
-2.820929 5.441615 54.777199 254 254 254
-2.820929 5.559697 54.777199 254 254 254
-2.826143 5.688272 54.878452 254 254 254
-2.826143 5.806572 54.878452 253 253 253
-2.826143 5.924871 54.878452 251 251 251
-2.826143 6.043171 54.878452 252 252 252
-2.831377 6.172881 54.980080 253 254 254
-2.831377 6.291399 54.980080 254 254 254
-2.836630 6.421810 55.082081 254 254 254
-2.836630 6.540548 55.082081 253 253 253
-2.841902 6.671664 55.184464 252 252 252
-2.847194 6.803269 55.287228 252 253 252
-2.852506 6.935365 55.390377 254 254 254
-2.868562 7.094476 55.702145 254 254 254
-2.873954 7.228112 55.806847 255 255 255
-2.879366 7.362251 55.911945 254 254 254
-2.879366 7.482779 55.911945 254 254 254
-2.879366 7.603306 55.911945 254 254 254
-2.863190 7.680441 55.597832 254 254 254
-2.863190 7.800291 55.597832 254 254 254
-2.831377 7.832140 54.980080 254 254 254
-2.219076 7.067279 43.090336 254 254 254
-2.826143 9.118957 54.878452 254 254 254
-2.730256 9.723849 53.016502 249 249 248
-2.749898 9.908913 53.397919 251 251 251
-2.744961 10.006024 53.302052 254 254 254
-2.749898 10.139129 53.397919 254 254 254
-2.754853 10.272713 53.494129 254 254 254
-2.749898 10.369345 53.397919 254 254 254
-2.749898 10.484452 53.397919 252 252 252
-2.744961 10.580530 53.302052 250 250 250
-2.749898 10.714668 53.397919 251 251 251
-2.924039 -3.566157 59.259964 254 193 216
-2.924039 -3.438412 59.259964 254 194 217
-2.918214 -3.304073 59.141918 254 201 224
-2.918214 -3.176583 59.141918 254 213 234
-2.912412 -3.043031 59.024338 254 214 234
-2.912412 -2.915794 59.024338 254 195 216
-2.895145 -2.772025 58.674393 253 174 196
-2.889435 -2.640325 58.558662 253 174 196
-2.889435 -2.514092 58.558662 254 187 209
-2.883747 -2.383158 58.443390 254 195 219
-2.878081 -2.252740 58.328571 254 197 222
-2.866817 -2.118678 58.100277 254 199 225
-2.774514 -0.474706 56.229626 254 217 222
-2.774514 -0.353493 56.229626 254 230 232
-2.774514 -0.232281 56.229626 254 242 243
-2.774514 -0.111069 56.229626 254 243 243
-2.774514 0.010143 56.229626 253 240 240
-2.774514 0.131355 56.229626 247 239 236
-2.774514 0.252567 56.229626 243 239 235
-2.769269 0.373073 56.123333 247 246 242
-2.764044 0.493124 56.017437 250 251 248
-2.764044 0.613878 56.017437 248 250 247
-2.764044 0.734633 56.017437 249 250 249
-2.758839 0.853777 55.911945 251 252 251
-2.753653 0.972473 55.806847 252 253 252
-2.748487 1.090723 55.702145 253 253 253
-2.743340 1.208531 55.597832 254 254 254
-2.738212 1.325898 55.493912 254 254 254
-2.728014 1.440140 55.287228 242 242 241
-2.722943 1.556423 55.184464 223 223 222
-2.722943 1.675382 55.184464 229 229 229
-2.722943 1.794341 55.184464 247 247 246
-2.722943 1.913300 55.184464 253 253 252
-2.722943 2.032259 55.184464 253 253 253
-2.728014 2.155224 55.287228 254 254 254
-2.733103 2.278648 55.390377 254 254 254
-2.738212 2.402534 55.493912 251 251 251
-2.743340 2.526883 55.597832 249 250 250
-2.748487 2.651699 55.702145 251 252 251
-2.748487 2.771774 55.702145 249 250 249
-2.743340 2.886433 55.597832 245 246 245
-2.743340 3.006284 55.597832 248 248 247
-2.738212 3.120291 55.493912 253 253 252
-2.733103 3.233872 55.390377 254 254 254
-2.722943 3.340809 55.184464 254 254 254
-2.717891 3.453350 55.082081 254 254 254
-2.717891 3.572088 55.082081 254 254 254
-2.712858 3.683992 54.980080 254 254 254
-2.712858 3.802510 54.980080 252 252 252
-2.712858 3.921029 54.980080 251 251 251
-2.712858 4.039547 54.980080 253 253 253
-2.712858 4.158066 54.980080 254 254 254
-2.712858 4.276584 54.980080 254 254 254
-2.712858 4.395103 54.980080 254 254 254
-2.697870 4.488684 54.676319 254 254 254
-2.687969 4.589643 54.475674 254 254 254
-2.673254 4.681305 54.177448 254 254 254
-2.673254 4.798094 54.177448 254 254 254
-2.707844 5.096776 54.878452 254 254 254
-2.697870 5.195867 54.676319 254 254 254
-2.702847 5.323534 54.777199 254 254 254
-2.702847 5.441615 54.777199 254 254 254
-2.702847 5.559697 54.777199 254 254 254
-2.707844 5.688272 54.878452 254 254 254
-2.707844 5.806572 54.878452 254 254 253
-2.707844 5.924871 54.878452 252 252 252
-2.712858 6.054362 54.980080 252 252 252
-2.712858 6.172881 54.980080 253 253 253
-2.712858 6.291399 54.980080 254 254 254
-2.717891 6.421810 55.082081 254 254 254
-2.717891 6.540548 55.082081 254 254 254
-2.722943 6.671664 55.184464 254 254 254
-2.728014 6.803269 55.287228 254 254 254
-2.733103 6.935365 55.390377 254 254 254
-2.748487 7.094476 55.702145 254 254 254
-2.748487 7.214550 55.702145 254 254 254
-2.748487 7.334626 55.702145 254 254 254
-2.748487 7.454700 55.702145 255 255 255
-2.743340 7.560591 55.597832 254 254 254
-2.722943 7.623337 55.184464 254 254 254
-2.717891 7.727932 55.082081 254 254 254
-2.697870 7.788868 54.676319 254 254 254
-2.457959 7.633147 49.814163 254 254 254
-2.176736 6.854911 44.114773 254 254 254
-2.176736 6.950008 44.114773 254 254 254
-2.620650 9.741244 53.111347 252 252 252
-2.639538 9.926766 53.494129 253 253 253
-2.639538 10.042082 53.494129 254 254 254
-2.639538 10.157397 53.494129 254 254 254
-2.639538 10.272713 53.494129 254 254 254
-2.639538 10.388028 53.494129 252 252 252
-2.634790 10.484452 53.397919 247 247 247
-2.634790 10.599560 53.397919 245 245 245
-2.634790 10.714668 53.397919 248 249 248
-2.796294 -3.566157 59.259964 254 198 217
-2.796294 -3.438412 59.259964 254 198 218
-2.790724 -3.304073 59.141918 254 207 226
-2.790724 -3.176583 59.141918 254 220 238
-2.790724 -3.049093 59.141918 254 227 244
-2.785176 -2.915794 59.024338 252 207 225
-2.779649 -2.783025 58.907227 247 171 191
-2.768663 -2.645543 58.674393 246 158 179
-2.763202 -2.514092 58.558662 251 176 198
-2.763202 -2.387859 58.558662 254 193 215
-2.752345 -2.252740 58.328571 254 195 219
-2.741572 -2.118678 58.100277 254 195 221
-2.653302 -0.595918 56.229626 254 216 226
-2.653302 -0.474706 56.229626 253 217 223
-2.653302 -0.353493 56.229626 253 231 235
-2.653302 -0.232281 56.229626 254 243 245
-2.653302 -0.111069 56.229626 254 243 244
-2.653302 0.010143 56.229626 252 241 240
-2.653302 0.131355 56.229626 246 239 237
-2.653302 0.252567 56.229626 244 240 238
-2.653302 0.373779 56.229626 249 247 246
-2.648286 0.494056 56.123333 252 252 251
-2.648286 0.615039 56.123333 249 251 249
-2.648286 0.736022 56.123333 249 251 249
-2.643289 0.855388 56.017437 251 252 251
-2.633352 0.972473 55.806847 253 253 253
-2.628412 1.090723 55.702145 254 254 254
-2.623489 1.208531 55.597832 254 254 254
-2.623489 1.328381 55.597832 254 254 254
-2.618586 1.445524 55.493912 239 240 239
-2.613700 1.562230 55.390377 220 220 219
-2.613700 1.681633 55.390377 229 229 228
-2.613700 1.801036 55.390377 248 248 248
-2.613700 1.920439 55.390377 252 252 252
-2.613700 2.039842 55.390377 251 251 251
-2.613700 2.159245 55.390377 251 251 251
-2.613700 2.278648 55.390377 252 252 252
-2.618586 2.402534 55.493912 250 250 250
-2.623489 2.526883 55.597832 247 247 247
-2.628412 2.651699 55.702145 250 251 250
-2.628412 2.771774 55.702145 248 249 248
-2.623489 2.886433 55.597832 245 246 245
-2.623489 3.006284 55.597832 250 250 250
-2.618586 3.120291 55.493912 254 254 254
-2.613700 3.233872 55.390377 254 254 254
-2.608833 3.347031 55.287228 254 254 254
-2.608833 3.466211 55.287228 254 254 254
-2.599153 3.572088 55.082081 254 254 254
-2.599153 3.690826 55.082081 254 254 254
-2.599153 3.809565 55.082081 253 253 253
-2.603984 3.935605 55.184464 252 252 252
-2.603984 4.054564 55.184464 253 253 253
-2.603984 4.173523 55.184464 254 254 254
-2.608833 4.300476 55.287228 254 254 254
-2.608833 4.419656 55.287228 254 254 254
-2.594340 4.513621 54.980080 254 254 254
-2.589544 4.623578 54.878452 254 254 254
-2.580006 4.724411 54.676319 254 254 254
-2.556466 4.798094 54.177448 254 254 254
-2.589544 5.096776 54.878452 254 254 254
-2.589544 5.215075 54.878452 254 254 254
-2.584766 5.323534 54.777199 254 254 254
-2.584766 5.441615 54.777199 254 254 254
-2.584766 5.559697 54.777199 254 254 254
-2.589544 5.688272 54.878452 254 254 254
-2.589544 5.806572 54.878452 253 253 253
-2.589544 5.924871 54.878452 250 250 250
-2.594340 6.054362 54.980080 249 249 249
-2.594340 6.172881 54.980080 252 252 252
-2.594340 6.291399 54.980080 254 254 254
-2.594340 6.409917 54.980080 254 254 254
-2.599153 6.540548 55.082081 254 254 254
-2.603984 6.671664 55.184464 254 254 254
-2.608833 6.803269 55.287228 254 254 254
-2.618586 6.948328 55.493912 254 254 254
-2.628412 7.094476 55.702145 254 254 254
-2.633352 7.228112 55.806847 254 254 254
-2.628412 7.334626 55.702145 254 254 254
-2.628412 7.454700 55.702145 254 254 254
-2.623489 7.560591 55.597832 254 254 254
-2.603984 7.623337 55.184464 254 254 254
-2.599153 7.727932 55.082081 254 254 254
-2.575264 7.774550 54.575813 254 254 254
-2.561140 7.848913 54.276493 254 254 254
-2.488354 7.739530 52.734001 254 254 254
-2.081640 6.759815 44.114773 254 254 254
-2.063245 6.794338 43.724953 254 254 254
-2.072402 6.919165 43.918999 254 254 254
-2.519682 9.793805 53.397919 254 254 254
-2.524222 9.926766 53.494129 254 254 254
-2.524222 10.042082 53.494129 254 254 254
-2.524222 10.157397 53.494129 254 254 254
-2.524222 10.272713 53.494129 254 254 254
-2.524222 10.388028 53.494129 249 250 250
-2.519682 10.484452 53.397919 242 242 242
-2.519682 10.599560 53.397919 242 243 242
-2.519682 10.714668 53.397919 250 250 250
-2.663234 -3.559053 59.141918 254 204 221
-2.663234 -3.431563 59.141918 254 203 220
-2.663234 -3.304073 59.141918 254 211 227
-2.663234 -3.176583 59.141918 254 224 240
-2.657939 -3.043031 59.024338 254 232 247
-2.657939 -2.915794 59.024338 251 216 232
-2.652665 -2.783025 58.907227 244 174 192
-2.642180 -2.645543 58.674393 241 147 167
-2.642180 -2.519060 58.674393 248 162 183
-2.636969 -2.387859 58.558662 253 186 208
-2.626608 -2.252740 58.328571 254 194 217
-2.616328 -2.118678 58.100277 254 194 219
-2.611217 -1.989540 57.986801 255 194 219
-2.606128 -1.860906 57.873768 255 195 219
-2.532090 -0.717130 56.229626 254 222 234
-2.532090 -0.595918 56.229626 254 220 232
-2.532090 -0.474706 56.229626 254 219 228
-2.532090 -0.353493 56.229626 254 230 235
-2.532090 -0.232281 56.229626 254 244 247
-2.532090 -0.111069 56.229626 254 247 248
-2.532090 0.010143 56.229626 251 242 242
-2.532090 0.131355 56.229626 246 239 238
-2.532090 0.252567 56.229626 244 241 239
-2.532090 0.373779 56.229626 250 248 247
-2.527303 0.494056 56.123333 253 253 253
-2.527303 0.615039 56.123333 251 251 251
-2.527303 0.736022 56.123333 248 250 248
-2.522535 0.855388 56.017437 249 251 249
-2.517784 0.974304 55.911945 253 253 253
-2.513052 1.092773 55.806847 254 254 254
-2.508337 1.210798 55.702145 254 254 254
-2.503639 1.328381 55.597832 253 253 253
-2.503639 1.448231 55.597832 235 235 235
-2.498960 1.565150 55.493912 219 219 218
-2.498960 1.684777 55.493912 231 231 231
-2.498960 1.804403 55.493912 250 250 250
-2.498960 1.924029 55.493912 251 251 251
-2.498960 2.043655 55.493912 246 246 246
-2.498960 2.163281 55.493912 247 247 247
-2.503639 2.287183 55.597832 252 252 252
-2.503639 2.407033 55.597832 251 251 251
-2.503639 2.526883 55.597832 248 249 249
-2.508337 2.651699 55.702145 250 251 251
-2.508337 2.771774 55.702145 249 250 250
-2.508337 2.891849 55.702145 248 249 248
-2.503639 3.006284 55.597832 252 252 252
-2.503639 3.126134 55.597832 254 254 254
-2.503639 3.245984 55.597832 254 254 254
-2.498960 3.359543 55.493912 254 254 254
-2.498960 3.479169 55.493912 254 254 254
-2.498960 3.598795 55.493912 254 254 254
-2.498960 3.718421 55.493912 254 254 254
-2.498960 3.838048 55.493912 254 254 254
-2.503639 3.965085 55.597832 252 253 252
-2.503639 4.084935 55.597832 252 253 252
-2.503639 4.204785 55.597832 254 254 254
-2.508337 4.332749 55.702145 254 254 254
-2.508337 4.452825 55.702145 254 254 254
-2.498960 4.555805 55.493912 254 254 254
-2.489652 4.658018 55.287228 254 254 254
-2.475821 4.750659 54.980080 254 254 254
-2.462142 4.842275 54.676319 254 254 254
-2.480414 4.996949 55.082081 254 254 254
-2.471245 5.096776 54.878452 254 254 254
-2.466685 5.205453 54.777199 254 254 254
-2.462142 5.313730 54.676319 254 254 254
-2.462142 5.431594 54.676319 254 254 254
-2.466685 5.559697 54.777199 254 254 254
-2.466685 5.677778 54.777199 254 254 254
-2.466685 5.795859 54.777199 252 252 252
-2.466685 5.913940 54.777199 246 246 246
-2.466685 6.032021 54.777199 246 246 246
-2.471245 6.161470 54.878452 251 251 251
-2.471245 6.279770 54.878452 254 254 254
-2.471245 6.398069 54.878452 254 254 254
-2.475821 6.528436 54.980080 254 254 254
-2.480414 6.659286 55.082081 254 254 254
-2.485025 6.790624 55.184464 254 254 254
-2.498960 6.948328 55.493912 254 254 254
-2.508337 7.094476 55.702145 254 254 254
-2.513052 7.228112 55.806847 254 254 254
-2.508337 7.334626 55.702145 254 254 254
-2.508337 7.454700 55.702145 254 254 254
-2.498960 7.546459 55.493912 254 254 254
-2.485025 7.623337 55.184464 254 254 254
-2.480414 7.727932 55.082081 255 255 255
-2.457617 7.774550 54.575813 254 254 254
-2.435234 7.820320 54.078766 254 254 254
-1.977727 6.824491 43.918999 254 254 254
-2.417619 9.846935 53.687599 254 254 254
-2.408907 9.926766 53.494129 254 254 254
-2.408907 10.042082 53.494129 254 254 254
-2.408907 10.157397 53.494129 254 254 254
-2.408907 10.272713 53.494129 253 253 253
-2.404574 10.369345 53.397919 245 246 246
-2.404574 10.484452 53.397919 238 239 239
-2.404574 10.599560 53.397919 243 243 243
-2.404574 10.714668 53.397919 252 252 252
-2.868977 12.921364 63.710819 254 254 254
-2.868977 13.058702 63.710819 250 250 250
-2.530703 -3.424741 59.024338 255 203 220
-2.530703 -3.297504 59.024338 254 208 225
-2.530703 -3.170267 59.024338 254 221 238
-2.530703 -3.043031 59.024338 254 231 247
-2.530703 -2.915794 59.024338 253 219 236
-2.520680 -2.777514 58.790577 248 185 204
-2.515698 -2.645543 58.674393 246 154 175
-2.510736 -2.514092 58.558662 248 153 174
-2.500871 -2.378476 58.328571 251 172 194
-2.500871 -2.252740 58.328571 254 188 211
-2.491083 -2.118678 58.100277 254 192 216
-2.486217 -1.989540 57.986801 254 191 215
-2.486217 -1.864540 57.986801 254 191 215
-2.410877 -0.717130 56.229626 254 228 242
-2.410877 -0.595918 56.229626 254 226 239
-2.410877 -0.474706 56.229626 254 219 231
-2.410877 -0.353493 56.229626 253 225 233
-2.410877 -0.232281 56.229626 254 242 245
-2.410877 -0.111069 56.229626 253 248 249
-2.410877 0.010143 56.229626 248 240 241
-2.410877 0.131355 56.229626 243 236 235
-2.410877 0.252567 56.229626 242 239 238
-2.410877 0.373779 56.229626 249 247 247
-2.406320 0.494056 56.123333 253 253 253
-2.406320 0.615039 56.123333 248 249 249
-2.406320 0.736022 56.123333 245 247 246
-2.401780 0.855388 56.017437 248 250 249
-2.397257 0.974304 55.911945 253 254 254
-2.397257 1.094831 55.911945 254 254 254
-2.392751 1.213074 55.806847 254 254 254
-2.388262 1.330873 55.702145 250 251 251
-2.383789 1.448231 55.597832 231 232 231
-2.383789 1.568081 55.597832 220 221 220
-2.383789 1.687932 55.597832 237 237 237
-2.383789 1.807782 55.597832 252 252 252
-2.383789 1.927632 55.597832 247 247 247
-2.383789 2.047482 55.597832 241 241 240
-2.383789 2.167332 55.597832 245 245 244
-2.383789 2.287183 55.597832 252 252 252
-2.383789 2.407033 55.597832 253 253 253
-2.388262 2.531624 55.702145 253 253 252
-2.392751 2.656683 55.806847 252 253 252
-2.392751 2.776984 55.806847 251 252 251
-2.392751 2.897285 55.806847 251 251 251
-2.392751 3.017586 55.806847 253 253 253
-2.392751 3.137886 55.806847 253 253 253
-2.392751 3.258187 55.806847 254 254 254
-2.388262 3.372149 55.702145 254 254 254
-2.392751 3.498788 55.806847 254 254 254
-2.392751 3.619089 55.806847 254 254 254
-2.392751 3.739390 55.806847 254 254 254
-2.392751 3.859691 55.806847 254 254 254
-2.392751 3.979991 55.806847 253 253 253
-2.392751 4.100292 55.806847 252 253 252
-2.392751 4.220593 55.806847 254 254 254
-2.392751 4.340894 55.806847 254 254 254
-2.392751 4.461195 55.806847 254 254 254
-2.388262 4.572899 55.702145 254 254 254
-2.397257 4.710650 55.911945 254 254 254
-2.379333 4.795057 55.493912 254 254 254
-2.379333 4.914683 55.493912 254 254 254
-2.379333 5.034309 55.493912 254 254 254
-2.348604 5.205453 54.777199 254 254 254
-2.339969 5.303962 54.575813 254 254 254
-2.344279 5.431594 54.676319 254 254 254
-2.344279 5.549458 54.676319 253 253 253
-2.344279 5.667321 54.676319 253 253 253
-2.344279 5.785185 54.676319 251 251 251
-2.344279 5.903049 54.676319 244 244 244
-2.348604 6.032021 54.777199 244 244 243
-2.348604 6.150102 54.777199 251 251 251
-2.348604 6.268184 54.777199 254 254 254
-2.348604 6.386265 54.777199 254 254 254
-2.352945 6.516369 54.878452 254 254 254
-2.357302 6.646955 54.980080 254 254 254
-2.361676 6.778025 55.082081 254 254 254
-2.370472 6.922450 55.287228 254 254 254
-2.383789 7.081190 55.597832 254 254 254
-2.388262 7.214550 55.702145 254 254 254
-2.388262 7.334626 55.702145 254 254 254
-2.388262 7.454700 55.702145 254 254 254
-2.366066 7.504378 55.184464 254 254 254
-2.361676 7.609194 55.082081 254 254 254
-2.361676 7.727932 55.082081 254 254 254
-2.344279 7.788868 54.676319 254 254 254
-2.339969 7.892198 54.575813 254 254 254
-2.306057 9.864775 53.784859 254 254 254
-2.289466 9.908913 53.397919 254 254 254
-2.289466 10.024020 53.397919 254 254 254
-2.289466 10.139129 53.397919 254 254 254
-2.289466 10.254236 53.397919 251 251 251
-2.285356 10.350728 53.302052 243 243 243
-2.285356 10.465630 53.302052 240 241 241
-2.285356 10.580530 53.302052 247 247 247
-2.289466 10.714668 53.397919 253 253 253
-2.731638 12.921364 63.710819 253 253 253
-2.389216 -3.404436 58.674393 254 202 219
-2.389216 -3.277954 58.674393 254 205 222
-2.389216 -3.151471 58.674393 254 216 233
-2.389216 -3.024989 58.674393 254 224 241
-2.389216 -2.898507 58.674393 254 218 236
-2.389216 -2.772025 58.674393 253 200 220
-2.384504 -2.640325 58.558662 251 177 198
-2.379810 -2.509143 58.443390 249 156 178
-2.375134 -2.378476 58.328571 250 159 180
-2.370477 -2.248323 58.214199 253 178 202
-2.365838 -2.118678 58.100277 254 190 214
-2.361217 -1.989540 57.986801 254 190 214
-2.361217 -1.864540 57.986801 254 190 214
-2.361217 -1.739540 57.986801 254 192 214
-2.311555 -1.091099 56.767193 254 201 216
-2.294010 -0.839933 56.336323 254 219 234
-2.294010 -0.718491 56.336323 254 235 247
-2.294010 -0.597048 56.336323 254 231 244
-2.294010 -0.475606 56.336323 251 215 229
-2.289665 -0.353493 56.229626 250 216 227
-2.289665 -0.232281 56.229626 253 238 242
-2.289665 -0.111069 56.229626 252 245 248
-2.289665 0.010143 56.229626 245 235 238
-2.289665 0.131355 56.229626 239 230 232
-2.289665 0.252567 56.229626 241 236 236
-2.289665 0.373779 56.229626 248 247 247
-2.285337 0.494056 56.123333 249 250 249
-2.285337 0.615039 56.123333 238 241 239
-2.285337 0.736022 56.123333 237 239 238
-2.281025 0.855388 56.017437 247 249 248
-2.281025 0.976142 56.017437 254 254 254
-2.276730 1.094831 55.911945 255 255 255
-2.272450 1.213074 55.806847 254 254 254
-2.268186 1.330873 55.702145 248 249 248
-2.268186 1.450948 55.702145 228 230 229
-2.268186 1.571023 55.702145 220 222 220
-2.263939 1.687932 55.597832 240 241 240
-2.263939 1.807782 55.597832 254 254 253
-2.263939 1.927632 55.597832 246 246 245
-2.263939 2.047482 55.597832 239 239 238
-2.263939 2.167332 55.597832 244 244 244
-2.263939 2.287183 55.597832 252 252 252
-2.263939 2.407033 55.597832 254 254 254
-2.268186 2.531624 55.702145 253 253 252
-2.272450 2.656683 55.806847 251 251 250
-2.272450 2.776984 55.806847 252 252 252
-2.276730 2.902741 55.911945 253 253 253
-2.276730 3.023268 55.911945 253 253 253
-2.272450 3.137886 55.806847 253 253 253
-2.272450 3.258187 55.806847 254 254 254
-2.272450 3.378488 55.806847 254 254 254
-2.276730 3.505378 55.911945 254 254 254
-2.276730 3.625905 55.911945 255 255 255
-2.281025 3.753501 56.017437 254 254 254
-2.276730 3.866959 55.911945 254 254 254
-2.276730 3.987487 55.911945 253 254 254
-2.272450 4.100292 55.806847 253 254 254
-2.272450 4.220593 55.806847 254 254 254
-2.272450 4.340894 55.806847 254 254 254
-2.276730 4.469596 55.911945 254 254 254
-2.272450 4.581495 55.806847 254 254 254
-2.281025 4.719539 56.017437 254 254 254
-2.259707 4.795057 55.493912 254 254 254
-2.276730 4.951705 55.911945 254 254 254
-2.226415 5.313730 54.676319 254 254 254
-2.226415 5.431594 54.676319 254 254 254
-2.226415 5.549458 54.676319 252 252 252
-2.222322 5.656903 54.575813 252 252 252
-2.222322 5.774550 54.575813 249 250 249
-2.226415 5.903049 54.676319 242 243 242
-2.226415 6.020913 54.676319 241 242 241
-2.230523 6.150102 54.777199 249 249 249
-2.230523 6.268184 54.777199 254 254 254
-2.230523 6.386265 54.777199 254 254 254
-2.230523 6.504346 54.777199 254 254 254
-2.238784 6.646955 54.980080 254 254 254
-2.242938 6.778025 55.082081 254 254 254
-2.247107 6.909583 55.184464 254 254 254
-2.255491 7.054768 55.390377 254 254 254
-2.268186 7.214550 55.702145 254 254 254
-2.268186 7.334626 55.702145 254 254 254
-2.268186 7.454700 55.702145 255 255 255
-2.238784 7.476584 54.980080 254 254 254
-2.238784 7.595103 54.980080 254 254 254
-2.238784 7.713621 54.980080 254 254 254
-2.238784 7.832140 54.980080 254 254 254
-2.230523 7.921320 54.777199 252 253 252
-2.230523 8.039401 54.777199 253 253 253
-2.202083 9.802105 54.078766 254 254 254
-2.190115 9.864775 53.784859 254 254 254
-2.170455 9.891123 53.302052 254 254 254
-2.170455 10.006024 53.302052 254 254 254
-2.170455 10.120926 53.302052 253 253 253
-2.170455 10.235826 53.302052 246 246 246
-2.170455 10.350728 53.302052 240 241 241
-2.170455 10.465630 53.302052 244 245 245
-2.170455 10.580530 53.302052 251 251 251
-2.594299 12.784024 63.710819 254 254 254
-2.594299 12.921364 63.710819 253 253 253
-2.262734 -3.404436 58.674393 254 202 218
-2.262734 -3.277954 58.674393 254 204 219
-2.262734 -3.151471 58.674393 254 210 225
-2.262734 -3.024989 58.674393 254 217 233
-2.262734 -2.898507 58.674393 255 217 234
-2.258271 -2.766557 58.558662 254 211 230
-2.253825 -2.635127 58.443390 254 199 220
-2.249398 -2.504213 58.328571 251 174 196
-2.244987 -2.373813 58.214199 251 159 181
-2.240594 -2.243923 58.100277 253 169 193
-2.240594 -2.118678 58.100277 254 184 209
-2.236217 -1.989540 57.986801 254 190 215
-2.236217 -1.864540 57.986801 254 192 216
-2.231858 -1.736149 57.873768 254 192 216
-2.227516 -1.608258 57.761173 254 191 214
-2.223191 -1.480863 57.649014 254 192 212
-2.214591 -1.351343 57.425999 254 196 214
-2.193378 -1.215794 56.875942 254 199 217
-2.189184 -1.091099 56.767193 254 198 215
-2.185006 -0.966879 56.658859 254 201 219
-2.180845 -0.843132 56.550938 254 218 235
-2.180845 -0.721228 56.550938 254 234 249
-2.176698 -0.598184 56.443428 253 229 245
-2.172568 -0.475606 56.336323 250 210 227
-2.168453 -0.353493 56.229626 249 211 224
-2.168453 -0.232281 56.229626 252 233 241
-2.168453 -0.111069 56.229626 252 241 246
-2.168453 0.010143 56.229626 246 231 236
-2.168453 0.131355 56.229626 239 226 229
-2.168453 0.252567 56.229626 238 230 231
-2.168453 0.373779 56.229626 247 244 243
-2.164354 0.494056 56.123333 245 246 245
-2.164354 0.615039 56.123333 230 233 231
-2.164354 0.736022 56.123333 231 233 232
-2.164354 0.857005 56.123333 247 247 247
-2.160270 0.976142 56.017437 254 254 254
-2.160270 1.096897 56.017437 254 254 254
-2.156202 1.215359 55.911945 254 254 254
-2.152149 1.333375 55.806847 247 248 247
-2.148111 1.450948 55.702145 228 230 228
-2.148111 1.571023 55.702145 223 225 223
-2.148111 1.691098 55.702145 242 242 242
-2.148111 1.811173 55.702145 252 252 252
-2.144089 1.927632 55.597832 244 244 243
-2.144089 2.047482 55.597832 240 240 239
-2.144089 2.167332 55.597832 247 247 247
-2.140081 2.282907 55.493912 254 254 254
-2.140081 2.402534 55.493912 253 253 253
-2.148111 2.531624 55.702145 247 247 246
-2.152149 2.656683 55.806847 242 242 241
-2.152149 2.776984 55.806847 247 247 246
-2.156202 2.902741 55.911945 252 252 252
-2.156202 3.023268 55.911945 252 252 252
-2.156202 3.143796 55.911945 253 253 253
-2.156202 3.264323 55.911945 254 254 254
-2.156202 3.384850 55.911945 254 254 254
-2.160270 3.511992 56.017437 254 254 254
-2.160270 3.632746 56.017437 254 254 254
-2.160270 3.753501 56.017437 254 254 254
-2.160270 3.874256 56.017437 251 251 251
-2.156202 3.987487 55.911945 251 251 251
-2.156202 4.108014 55.911945 253 253 253
-2.152149 4.220593 55.806847 254 254 254
-2.152149 4.340894 55.806847 254 254 254
-2.152149 4.461195 55.806847 254 254 254
-2.152149 4.581495 55.806847 254 254 254
-2.156202 4.710650 55.911945 254 254 254
-2.152149 4.822097 55.806847 254 254 254
-2.156202 4.951705 55.911945 254 254 254
-2.112442 5.441615 54.777199 254 254 254
-2.108551 5.549458 54.676319 253 253 253
-2.108551 5.667321 54.676319 253 253 253
-2.108551 5.785185 54.676319 250 250 250
-2.108551 5.903049 54.676319 242 243 242
-2.112442 6.032021 54.777199 240 241 240
-2.112442 6.150102 54.777199 248 248 248
-2.112442 6.268184 54.777199 254 254 254
-2.112442 6.386265 54.777199 254 254 254
-2.112442 6.504346 54.777199 254 254 254
-2.120265 6.646955 54.980080 254 254 254
-2.124199 6.778025 55.082081 254 254 254
-2.128148 6.909583 55.184464 255 255 255
-2.128148 7.028542 55.184464 254 254 254
-2.148111 7.214550 55.702145 254 254 254
-2.148111 7.334626 55.702145 254 254 254
-2.148111 7.454700 55.702145 254 254 254
-2.120265 7.476584 54.980080 254 254 254
-2.120265 7.595103 54.980080 254 254 254
-2.124199 7.727932 55.082081 254 254 254
-2.124199 7.846671 55.082081 252 252 251
-2.136088 8.009992 55.390377 249 250 249
-2.089313 9.703203 54.177448 254 254 254
-2.085507 9.802105 54.078766 254 254 254
-2.077937 9.882678 53.882473 254 254 254
-2.055554 9.891123 53.302052 254 254 254
-2.055554 10.006024 53.302052 254 254 254
-2.055554 10.120926 53.302052 249 249 249
-2.055554 10.235826 53.302052 238 238 238
-2.055554 10.350728 53.302052 235 235 235
-2.055554 10.465630 53.302052 245 245 245
-2.055554 10.580530 53.302052 253 253 253
-2.467550 12.839128 63.985435 254 254 254
-2.456960 13.058702 63.710819 252 252 252
-2.132038 -3.523954 58.558662 254 207 222
-2.136252 -3.404436 58.674393 254 201 216
-2.132038 -3.271488 58.558662 254 201 214
-2.132038 -3.145256 58.558662 254 204 218
-2.132038 -3.019023 58.558662 254 212 227
-2.132038 -2.892790 58.558662 254 218 234
-2.132038 -2.766557 58.558662 254 219 236
-2.127841 -2.635127 58.443390 254 214 233
-2.123661 -2.504213 58.328571 254 196 217
-2.119497 -2.373813 58.214199 254 176 199
-2.115349 -2.243923 58.100277 254 171 195
-2.111217 -2.114540 57.986801 254 178 204
-2.111217 -1.989540 57.986801 254 186 213
-2.107102 -1.860906 57.873768 254 191 218
-2.103003 -1.732772 57.761173 254 190 217
-2.098919 -1.605135 57.649014 254 187 213
-2.094851 -1.477993 57.537292 255 187 212
-2.078737 -1.343547 57.094696 255 192 214
-2.070773 -1.215794 56.875942 254 192 214
-2.070773 -1.093189 56.875942 254 189 212
-2.066813 -0.968728 56.767193 255 193 216
-2.066813 -0.846357 56.767193 255 209 233
-2.062869 -0.722604 56.658859 254 223 245
-2.058940 -0.599323 56.550938 254 220 242
-2.055025 -0.476511 56.443428 253 207 228
-2.051126 -0.354164 56.336323 252 208 225
-2.051126 -0.232722 56.336323 254 228 239
-2.047241 -0.111069 56.229626 254 235 245
-2.047241 0.010143 56.229626 249 227 235
-2.047241 0.131355 56.229626 239 219 224
-2.047241 0.252567 56.229626 233 221 222
-2.047241 0.373779 56.229626 242 238 237
-2.047241 0.494991 56.229626 244 244 242
-2.047241 0.616204 56.229626 230 232 231
-2.043371 0.736022 56.123333 233 235 233
-2.043371 0.857005 56.123333 249 249 249
-2.043371 0.977988 56.123333 254 254 254
-2.039516 1.096897 56.017437 254 254 254
-2.035675 1.215359 55.911945 254 254 254
-2.035675 1.335886 55.911945 246 246 246
-2.031848 1.453676 55.806847 228 230 228
-2.031848 1.573976 55.806847 226 228 227
-2.031848 1.694277 55.806847 244 245 244
-2.028036 1.811173 55.702145 250 251 250
-2.028036 1.931249 55.702145 242 242 241
-2.024239 2.047482 55.597832 240 240 240
-2.024239 2.167332 55.597832 249 249 249
-2.020455 2.282907 55.493912 254 254 254
-2.020455 2.402534 55.493912 253 253 252
-2.028036 2.531624 55.702145 244 244 243
-2.031848 2.656683 55.806847 236 237 235
-2.031848 2.776984 55.806847 242 243 242
-2.031848 2.897285 55.806847 249 250 249
-2.035675 3.023268 55.911945 251 251 251
-2.031848 3.137886 55.806847 252 253 253
-2.031848 3.258187 55.806847 253 253 253
-2.039516 3.391237 56.017437 253 253 253
-2.039516 3.511992 56.017437 254 254 254
-2.039516 3.632746 56.017437 254 254 254
-2.039516 3.753501 56.017437 252 252 252
-2.039516 3.874256 56.017437 246 246 245
-2.039516 3.995010 56.017437 244 244 244
-2.031848 4.100292 55.806847 250 250 250
-2.031848 4.220593 55.806847 254 254 254
-2.031848 4.340894 55.806847 255 255 255
-2.031848 4.461195 55.806847 254 254 254
-2.031848 4.581495 55.806847 254 254 254
-2.035675 4.710650 55.911945 254 254 254
-2.031848 4.822097 55.806847 254 254 254
-2.035675 4.951705 55.911945 255 255 255
-1.994360 5.559697 54.777199 254 254 254
-1.990688 5.667321 54.676319 254 254 254
-1.990688 5.785185 54.676319 251 251 251
-1.994360 6.032021 54.777199 243 244 243
-1.994360 6.150102 54.777199 250 250 250
-1.994360 6.268184 54.777199 254 254 254
-1.994360 6.386265 54.777199 254 254 254
-1.994360 6.504346 54.777199 254 254 254
-2.001747 6.646955 54.980080 254 254 254
-2.005461 6.778025 55.082081 255 255 255
-2.009188 6.909583 55.184464 254 254 254
-2.009188 7.028542 55.184464 254 254 254
-2.031848 7.228112 55.806847 254 254 254
-2.028036 7.334626 55.702145 254 254 254
-2.028036 7.454700 55.702145 254 254 254
-2.005461 7.490456 55.082081 254 254 254
-2.005461 7.609194 55.082081 254 254 254
-2.012930 7.756714 55.287228 254 254 254
-2.016685 7.890589 55.390377 251 252 251
-2.016685 8.009992 55.390377 250 251 250
-2.001747 8.069177 54.980080 251 252 251
-2.020455 9.580104 55.493912 254 254 254
-2.020455 9.699730 55.493912 254 254 254
-1.983382 9.639184 54.475674 254 254 254
-1.972524 9.703203 54.177448 253 254 254
-1.968931 9.802105 54.078766 253 254 254
-1.961785 9.882678 53.882473 253 254 254
-1.944143 9.908913 53.397919 253 253 253
-1.940652 10.006024 53.302052 254 254 254
-1.940652 10.120926 53.302052 247 247 247
-1.940652 10.235826 53.302052 235 235 235
-1.940652 10.350728 53.302052 234 234 234
-1.940652 10.465630 53.302052 246 246 246
-2.009769 -3.530918 58.674393 254 208 220
-2.005805 -3.397721 58.558662 254 200 212
-2.005805 -3.271488 58.558662 254 200 211
-2.005805 -3.145256 58.558662 254 204 215
-2.005805 -3.019023 58.558662 254 213 225
-2.005805 -2.892790 58.558662 254 222 234
-2.001857 -2.761111 58.443390 254 225 238
-2.001857 -2.635127 58.443390 254 222 238
-1.994007 -2.499303 58.214199 254 215 234
-1.990104 -2.369167 58.100277 254 203 224
-1.986217 -2.239540 57.986801 254 189 213
-1.986217 -2.114540 57.986801 255 180 206
-1.982346 -1.985662 57.873768 254 180 207
-1.982346 -1.860906 57.873768 254 185 213
-1.978489 -1.732772 57.761173 254 185 214
-1.974647 -1.605135 57.649014 254 180 210
-1.974647 -1.480863 57.649014 254 182 211
-1.967008 -1.351343 57.425999 254 187 215
-1.948167 -1.215794 56.875942 254 187 214
-1.948167 -1.093189 56.875942 254 181 208
-1.948167 -0.970583 56.875942 254 183 212
-1.948167 -0.847978 56.875942 254 200 228
-1.944442 -0.723986 56.767193 254 211 239
-1.940732 -0.600467 56.658859 254 209 236
-1.940732 -0.478329 56.658859 254 203 227
-1.933352 -0.354838 56.443428 254 203 224
-1.933352 -0.233165 56.443428 255 217 234
-1.929684 -0.111280 56.336323 254 227 240
-1.929684 0.010162 56.336323 250 219 230
-1.929684 0.131604 56.336323 236 208 215
-1.926029 0.252567 56.229626 231 211 215
-1.926029 0.373779 56.229626 242 233 232
-1.926029 0.494991 56.229626 247 246 244
-1.926029 0.616204 56.229626 240 241 240
-1.926029 0.737416 56.229626 242 244 242
-1.926029 0.858628 56.229626 251 252 251
-1.922388 0.977988 56.123333 253 253 253
-1.922388 1.098971 56.123333 254 254 254
-1.918761 1.217652 56.017437 254 254 254
-1.915148 1.335886 55.911945 245 245 245
-1.915148 1.456413 55.911945 227 230 228
-1.915148 1.576941 55.911945 228 230 228
-1.911548 1.694277 55.806847 245 246 245
-1.911548 1.814578 55.806847 251 252 251
-1.907961 1.931249 55.702145 243 244 243
-1.907961 2.051324 55.702145 241 242 241
-1.904388 2.167332 55.597832 250 250 249
-1.904388 2.287183 55.597832 254 254 254
-1.904388 2.407033 55.597832 253 253 253
-1.907961 2.531624 55.702145 247 247 246
-1.911548 2.656683 55.806847 242 242 241
-1.911548 2.776984 55.806847 246 246 245
-1.911548 2.897285 55.806847 250 250 250
-1.911548 3.017586 55.806847 249 249 249
-1.911548 3.137886 55.806847 250 250 250
-1.911548 3.258187 55.806847 251 252 252
-1.918761 3.391237 56.017437 252 253 253
-1.918761 3.511992 56.017437 254 254 254
-1.922388 3.639613 56.123333 254 254 254
-1.922388 3.760596 56.123333 252 252 252
-1.922388 3.881579 56.123333 246 246 246
-1.918761 3.995010 56.017437 245 245 245
-1.911548 4.100292 55.806847 250 250 250
-1.911548 4.220593 55.806847 254 254 254
-1.911548 4.340894 55.806847 254 254 254
-1.911548 4.461195 55.806847 254 254 254
-1.911548 4.581495 55.806847 254 254 254
-1.915148 4.710650 55.911945 254 254 254
-1.907961 4.813050 55.702145 254 254 254
-1.911548 4.942398 55.806847 254 254 254
-1.904388 5.043737 55.597832 254 254 254
-1.876279 6.150102 54.777199 252 252 252
-1.876279 6.268184 54.777199 254 254 254
-1.876279 6.386265 54.777199 254 254 254
-1.876279 6.504346 54.777199 254 254 254
-1.883228 6.646955 54.980080 254 254 254
-1.886722 6.778025 55.082081 254 254 254
-1.890229 6.909583 55.184464 254 254 254
-1.890229 7.028542 55.184464 254 254 254
-1.911548 7.228112 55.806847 254 254 254
-1.907961 7.334626 55.702145 254 254 254
-1.907961 7.454700 55.702145 254 254 254
-1.886722 7.490456 55.082081 254 254 254
-1.886722 7.609194 55.082081 254 254 254
-1.904388 7.800291 55.597832 254 254 254
-1.907961 7.935001 55.702145 253 253 253
-1.897282 8.009992 55.390377 253 253 252
-1.883228 8.069177 54.980080 253 253 253
-1.883228 8.187696 54.980080 254 254 254
-1.511060 7.045105 44.114773 254 254 254
-1.508818 7.129608 44.049320 254 254 254
-1.508818 7.224563 44.049320 254 254 254
-1.900829 9.580104 55.493912 254 254 254
-1.872824 9.556824 54.676319 254 254 254
-1.862534 9.621531 54.375900 254 254 254
-1.859129 9.720942 54.276493 254 254 254
-1.855736 9.819992 54.177448 254 254 254
-1.848988 9.900646 53.980442 254 254 254
-1.832330 9.926766 53.494129 253 253 253
-1.829035 10.024020 53.397919 253 253 253
-1.829035 10.139129 53.397919 249 249 249
-1.829035 10.254236 53.397919 241 242 241
-1.829035 10.369345 53.397919 242 243 243
-1.875873 -3.391032 58.443390 254 200 210
-1.875873 -3.265048 58.443390 254 202 211
-1.875873 -3.139064 58.443390 254 210 218
-1.875873 -3.013080 58.443390 254 218 226
-1.875873 -2.887095 58.443390 254 226 235
-1.875873 -2.761111 58.443390 255 230 240
-1.872187 -2.629950 58.328571 254 228 241
-1.864860 -2.494412 58.100277 255 229 243
-1.861217 -2.364540 57.986801 254 227 244
-1.861217 -2.239540 57.986801 255 214 234
-1.857589 -2.110418 57.873768 254 191 214
-1.857589 -1.985662 57.873768 254 177 204
-1.853975 -1.857285 57.761173 254 180 209
-1.853975 -1.732772 57.761173 254 182 212
-1.850375 -1.605135 57.649014 254 178 209
-1.846789 -1.477993 57.537292 254 180 211
-1.843217 -1.351343 57.425999 254 184 216
-1.832583 -1.220470 57.094696 254 182 214
-1.829066 -1.095287 56.985111 254 174 206
-1.825562 -0.970583 56.875942 254 177 210
-1.829066 -0.849606 56.985111 254 193 226
-1.829066 -0.726765 56.985111 254 202 234
-1.825562 -0.602767 56.875942 254 200 230
-1.822071 -0.479244 56.767193 254 195 223
-1.818594 -0.356192 56.658859 254 194 218
-1.815130 -0.233609 56.550938 254 201 222
-1.811679 -0.111492 56.443428 254 209 227
-1.811679 0.010181 56.443428 248 205 219
-1.811679 0.131855 56.443428 235 196 206
-1.811679 0.253527 56.443428 233 204 209
-1.808242 0.374489 56.336323 243 228 229
-1.804817 0.494991 56.229626 250 246 245
-1.804817 0.616204 56.229626 250 250 250
-1.804817 0.737416 56.229626 252 251 251
-1.804817 0.858628 56.229626 253 252 252
-1.801405 0.977988 56.123333 251 251 251
-1.801405 1.098971 56.123333 250 250 250
-1.798006 1.217652 56.017437 252 252 252
-1.794620 1.335886 55.911945 244 245 245
-1.794620 1.456413 55.911945 226 228 227
-1.794620 1.576941 55.911945 226 228 226
-1.794620 1.697468 55.911945 245 245 244
-1.794620 1.817995 55.911945 252 253 252
-1.791247 1.934879 55.806847 245 246 245
-1.787886 2.051324 55.702145 241 242 241
-1.787886 2.171399 55.702145 248 248 247
-1.784538 2.287183 55.597832 254 254 254
-1.787886 2.411549 55.702145 254 254 254
-1.791247 2.536382 55.806847 252 252 251
-1.791247 2.656683 55.806847 250 250 250
-1.791247 2.776984 55.806847 252 252 252
-1.794620 2.902741 55.911945 252 252 252
-1.791247 3.017586 55.806847 247 247 247
-1.794620 3.143796 55.911945 246 246 246
-1.794620 3.264323 55.911945 251 251 251
-1.798006 3.391237 56.017437 254 254 254
-1.801405 3.518630 56.123333 254 254 254
-1.801405 3.639613 56.123333 254 254 254
-1.801405 3.760596 56.123333 254 254 254
-1.801405 3.881579 56.123333 252 252 252
-1.798006 3.995010 56.017437 250 251 250
-1.794620 4.108014 55.911945 252 252 252
-1.791247 4.220593 55.806847 254 254 254
-1.791247 4.340894 55.806847 254 254 254
-1.794620 4.469596 55.911945 254 254 254
-1.794620 4.590123 55.911945 254 254 254
-1.794620 4.710650 55.911945 254 254 254
-1.794620 4.831178 55.911945 255 255 255
-1.794620 4.951705 55.911945 254 254 254
-1.784538 5.043737 55.597832 254 254 254
-1.764710 5.106214 54.980080 254 254 254
-1.758198 6.268184 54.777199 252 252 252
-1.754960 6.374504 54.676319 251 251 251
-1.758198 6.504346 54.777199 252 252 252
-1.764710 6.646955 54.980080 254 254 254
-1.767984 6.778025 55.082081 254 254 254
-1.777879 6.935365 55.390377 254 254 254
-1.791247 7.107811 55.806847 254 254 254
-1.798006 7.255388 56.017437 254 254 254
-1.798006 7.376143 56.017437 254 254 254
-1.798006 7.496897 56.017437 254 254 254
-1.787886 7.574776 55.702145 254 254 254
-1.794620 7.723833 55.911945 254 254 254
-1.798006 7.859161 56.017437 254 254 254
-1.798006 7.979916 56.017437 254 254 254
-1.787886 8.055076 55.702145 254 254 254
-1.767984 8.084147 55.082081 254 254 254
-1.764710 8.187696 54.980080 254 254 254
-1.781203 8.383842 55.493912 254 254 254
-1.415963 7.140201 44.114773 254 254 254
-1.781203 9.580104 55.493912 254 254 254
-1.754960 9.556824 54.676319 254 254 254
-1.745317 9.621531 54.375900 254 254 254
-1.742127 9.720942 54.276493 254 254 254
-1.742127 9.837944 54.276493 254 254 254
-1.735780 9.918680 54.078766 254 254 254
-1.726347 9.980717 53.784859 252 252 252
-1.720114 10.060208 53.590691 250 250 250
-1.720114 10.175732 53.590691 248 249 248
-1.720114 10.291255 53.590691 247 248 248
-1.720114 10.406779 53.590691 250 251 251
-1.746451 -3.510107 58.328571 255 209 218
-1.746451 -3.384370 58.328571 254 202 209
-1.746451 -3.258634 58.328571 254 205 212
-1.746451 -3.132897 58.328571 254 215 221
-1.746451 -3.007160 58.328571 254 223 229
-1.746451 -2.881423 58.328571 254 230 237
-1.746451 -2.755687 58.328571 254 232 240
-1.739615 -2.619657 58.100277 254 230 240
-1.736217 -2.489540 57.986801 254 235 245
-1.736217 -2.364540 57.986801 254 240 251
-1.736217 -2.239540 57.986801 255 228 244
-1.732833 -2.110418 57.873768 254 200 221
-1.729462 -1.981799 57.761173 255 179 205
-1.729462 -1.857285 57.761173 254 180 208
-1.729462 -1.732772 57.761173 254 183 213
-1.722758 -1.602024 57.537292 255 179 211
-1.719426 -1.475134 57.425999 254 178 211
-1.712800 -1.346136 57.204704 254 181 214
-1.709507 -1.220470 57.094696 254 179 213
-1.709507 -1.097393 57.094696 254 171 205
-1.706225 -0.972446 56.985111 254 174 208
-1.706225 -0.849606 56.985111 254 188 223
-1.712800 -0.729566 57.204704 255 196 230
-1.712800 -0.606251 57.204704 254 193 225
-1.706225 -0.481084 56.985111 254 187 217
-1.702957 -0.357557 56.875942 254 181 208
-1.696457 -0.234054 56.658859 253 180 204
-1.696457 -0.111917 56.658859 253 185 206
-1.696457 0.010220 56.658859 248 186 204
-1.693226 0.132106 56.550938 238 187 200
-1.693226 0.254010 56.550938 237 197 204
-1.690006 0.375201 56.443428 242 216 219
-1.686800 0.495931 56.336323 250 236 237
-1.686800 0.617373 56.336323 254 249 250
-1.683605 0.737416 56.229626 254 253 253
-1.683605 0.858628 56.229626 254 252 252
-1.683605 0.979840 56.229626 250 248 247
-1.680422 1.098971 56.123333 247 246 245
-1.677252 1.217652 56.017437 251 250 250
-1.677252 1.338407 56.017437 246 246 246
-1.677252 1.459161 56.017437 229 229 228
-1.674093 1.576941 55.911945 226 226 224
-1.674093 1.697468 55.911945 243 243 242
-1.674093 1.817995 55.911945 252 253 252
-1.674093 1.938523 55.911945 244 244 243
-1.670946 2.055179 55.806847 237 238 236
-1.667811 2.171399 55.702145 245 245 244
-1.667811 2.291474 55.702145 253 253 253
-1.667811 2.411549 55.702145 254 254 254
-1.670946 2.536382 55.806847 254 254 254
-1.674093 2.661686 55.911945 254 254 254
-1.674093 2.782214 55.911945 254 254 254
-1.674093 2.902741 55.911945 253 253 253
-1.674093 3.023268 55.911945 249 249 249
-1.674093 3.143796 55.911945 247 247 247
-1.674093 3.264323 55.911945 251 251 251
-1.677252 3.391237 56.017437 254 254 254
-1.680422 3.518630 56.123333 254 254 254
-1.680422 3.639613 56.123333 254 254 254
-1.683605 3.767719 56.229626 254 254 254
-1.683605 3.888931 56.229626 254 254 254
-1.680422 4.002563 56.123333 253 253 253
-1.677252 4.115765 56.017437 253 253 253
-1.674093 4.228541 55.911945 254 254 254
-1.674093 4.349069 55.911945 254 254 254
-1.677252 4.478029 56.017437 254 254 254
-1.677252 4.598784 56.017437 254 254 254
-1.677252 4.719539 56.017437 254 254 254
-1.677252 4.840293 56.017437 254 254 254
-1.683605 4.979840 56.229626 254 254 254
-1.640117 6.150102 54.777199 254 254 254
-1.637096 6.256640 54.676319 251 251 251
-1.637096 6.374504 54.676319 247 247 247
-1.637096 6.492367 54.676319 249 249 249
-1.649246 6.659286 55.082081 253 253 253
-1.915826 7.873611 63.985435 254 254 254
-1.915826 8.011542 63.985435 254 254 254
-1.919964 8.167074 64.123634 254 254 254
-1.919964 8.305304 64.123634 254 254 254
-1.919964 8.443532 64.123634 254 254 254
-1.670946 8.070217 55.806847 254 254 254
