ply
format ascii 1.0
element vertex 1173
property float x
property float y
property float z
property uchar red
property uchar green
property uchar blue
end_header
18.928003 -4.781021 58.494305 211 159 166
18.943432 -4.658721 58.541981 206 155 165
18.958811 -4.536204 58.589508 206 154 165
18.974144 -4.413471 58.636894 205 154 166
18.989449 -4.290528 58.684193 200 150 162
19.004759 -4.167381 58.731503 192 144 155
19.020117 -4.044042 58.778965 191 142 154
19.035580 -3.920519 58.826752 193 144 156
19.051205 -3.796822 58.875038 191 142 155
19.067051 -3.672960 58.924011 188 136 152
19.083172 -3.548938 58.973827 187 133 152
19.099609 -3.424757 59.024628 185 130 151
19.116392 -3.300418 59.076492 178 123 145
19.133532 -3.175914 59.129459 175 117 139
19.151020 -3.051237 59.183506 177 115 137
19.168837 -2.926377 59.238564 175 111 130
19.186939 -2.801322 59.294506 163 97 112
19.205288 -2.676059 59.351212 150 83 91
19.223827 -2.550578 59.408504 150 80 83
19.242508 -2.424867 59.466236 167 98 94
19.261288 -2.298919 59.524269 199 134 125
19.280138 -2.172729 59.582523 220 160 148
19.299044 -2.046294 59.640949 213 152 140
19.318014 -1.919614 59.699577 191 127 119
19.337078 -1.792689 59.758488 174 111 110
19.356283 -1.665522 59.817837 168 109 116
19.375687 -1.538115 59.877804 164 108 122
19.395361 -1.410470 59.938606 139 82 103
19.415369 -1.282584 60.000435 98 42 66
19.435766 -1.154455 60.063469 80 24 49
19.456585 -1.026076 60.127808 92 37 60
19.477823 -0.897439 60.193439 112 57 75
19.499435 -0.768534 60.260231 116 61 74
19.521330 -0.639351 60.327892 103 48 55
19.543354 -0.509879 60.395954 88 34 37
19.565300 -0.380112 60.463776 83 30 29
19.586899 -0.250048 60.530521 83 30 28
19.607834 -0.119692 60.595219 83 31 30
19.627739 0.010942 60.656734 79 30 29
19.646215 0.141830 60.713833 72 27 28
19.662838 0.272940 60.765205 68 28 31
19.677183 0.404224 60.809540 63 30 37
19.688831 0.535625 60.845531 56 32 42
19.697390 0.667078 60.871979 50 34 47
19.702505 0.798504 60.887787 72 62 78
19.703886 0.929823 60.892056 137 129 146
19.701302 1.060947 60.884068 201 196 210
19.694601 1.191787 60.863361 227 226 237
19.683716 1.322257 60.829723 233 226 243
19.668665 1.452274 60.783211 229 217 234
19.649540 1.581762 60.724106 187 172 187
19.626520 1.710657 60.652969 120 95 114
19.599852 1.838902 60.570553 87 54 72
19.569838 1.966456 60.477802 92 53 63
19.536831 2.093289 60.375797 104 60 61
19.501213 2.219385 60.265728 134 90 81
19.463387 2.344741 60.148830 185 148 131
19.423765 2.469364 60.026382 216 180 154
19.382748 2.593273 59.899624 202 154 125
19.340717 2.716493 59.769737 168 99 72
19.298033 2.839057 59.637825 142 60 37
19.255014 2.961000 59.504883 135 48 33
19.211945 3.082363 59.371784 136 48 40
19.169069 3.203184 59.239281 143 56 54
19.126583 3.323501 59.107986 153 69 71
19.084654 3.443353 58.978413 164 83 87
19.043404 3.562773 58.850929 177 99 103
19.002926 3.681793 58.725838 189 113 117
18.963278 3.800441 58.603313 199 123 127
18.924509 3.918742 58.483501 204 128 133
18.886641 4.036719 58.366474 202 124 130
18.849688 4.154393 58.252277 195 115 122
18.813652 4.271783 58.140919 195 112 120
18.778542 4.388909 58.032410 205 120 128
18.744356 4.505790 57.926765 212 125 133
18.711098 4.622444 57.823986 204 116 125
18.678774 4.738893 57.724094 184 98 107
18.647398 4.855157 57.627132 165 81 92
18.616978 4.971259 57.533119 154 75 87
18.587532 5.087222 57.442127 149 75 89
18.559086 5.203073 57.354214 146 76 92
18.531656 5.318837 57.269447 143 77 93
18.505274 5.434543 57.187920 147 85 100
18.479959 5.550217 57.109684 164 103 118
18.455734 5.665889 57.034821 180 119 136
18.432629 5.781590 56.963413 185 124 143
18.410660 5.897347 56.895527 189 125 146
18.389851 6.013190 56.831215 192 125 147
18.370209 6.129146 56.770519 186 115 138
18.351751 6.245243 56.713478 170 97 118
18.334475 6.361503 56.660088 166 90 110
18.318378 6.477951 56.610340 170 93 110
18.303448 6.594604 56.564201 167 89 104
18.289663 6.711480 56.521603 161 82 95
18.276991 6.828587 56.482441 162 84 94
18.265381 6.945929 56.446564 167 89 99
18.254782 7.063507 56.413807 163 87 96
18.245113 7.181311 56.383926 156 81 92
18.236292 7.299325 56.356667 155 81 93
18.228212 7.417523 56.331696 157 85 99
18.220764 7.535874 56.308678 157 86 103
18.213823 7.654340 56.287228 155 87 107
19.006556 -5.272209 58.348354 235 185 184
19.022118 -5.150643 58.396130 220 169 169
19.037674 -5.028870 58.443882 214 162 164
19.053167 -4.906875 58.491444 219 167 171
19.068554 -4.784648 58.538681 218 164 171
19.083807 -4.662185 58.585510 210 156 167
19.098913 -4.539485 58.631882 210 156 168
19.113884 -4.416553 58.677841 209 155 169
19.128746 -4.293399 58.723465 203 150 164
19.143541 -4.170034 58.768890 196 144 158
19.158333 -4.046473 58.814297 194 143 156
19.173187 -3.922728 58.859898 194 143 156
19.188177 -3.798813 58.905914 190 138 152
19.203379 -3.674741 58.952583 185 132 148
19.218857 -3.550519 59.000099 185 131 149
19.234673 -3.426151 59.048649 189 138 157
19.250862 -3.301639 59.098351 189 140 161
19.267450 -3.176978 59.149277 182 130 150
19.284441 -3.052161 59.201435 177 119 138
19.301815 -2.927178 59.254776 175 114 131
19.319540 -2.802015 59.309185 169 106 120
19.337568 -2.676660 59.364532 164 100 110
19.355844 -2.551099 59.420639 164 98 104
19.374311 -2.425320 59.477333 174 108 110
19.392914 -2.299312 59.534439 199 138 135
19.411610 -2.173069 59.591831 216 159 153
19.430365 -2.046585 59.649406 208 149 142
19.449167 -1.919857 59.707134 197 134 130
19.468021 -1.792884 59.765011 202 142 144
19.486952 -1.665669 59.823124 216 165 173
19.505995 -1.538213 59.881588 214 164 180
19.525200 -1.410515 59.940540 174 118 140
19.544609 -1.282577 60.000126 116 55 81
19.564264 -1.154397 60.060467 93 32 58
19.584185 -1.025971 60.121624 119 57 81
19.604364 -0.897292 60.183571 151 89 107
19.624756 -0.768355 60.246170 152 90 101
19.645271 -0.639152 60.309155 128 67 70
19.665770 -0.509677 60.372082 107 47 44
19.686062 -0.379927 60.434376 97 38 32
19.705896 -0.249902 60.495266 98 41 33
19.724985 -0.119611 60.553867 104 49 41
19.742994 0.010933 60.609150 95 42 36
19.759550 0.141705 60.659977 78 29 27
19.774269 0.272670 60.705166 71 27 30
19.786760 0.403785 60.743511 69 31 39
19.796637 0.534994 60.773830 65 34 45
19.803539 0.666234 60.795017 58 35 50
19.807144 0.797433 60.806087 63 46 65
19.807190 0.928513 60.806225 104 91 111
19.803465 1.059391 60.794792 167 160 176
19.795839 1.189986 60.771378 216 212 225
19.784250 1.320215 60.735806 234 224 243
19.768730 1.450003 60.688160 220 209 228
19.749372 1.579278 60.628731 179 167 184
19.726349 1.707980 60.558056 138 119 139
19.699896 1.836057 60.476845 112 85 104
19.670307 1.963471 60.386009 100 69 79
19.637913 2.090195 60.286560 107 72 72
19.603077 2.216214 60.179619 120 82 73
19.566177 2.341525 60.066341 142 104 88
19.527601 2.466136 59.947914 183 151 126
19.487722 2.590063 59.825489 213 180 149
19.446899 2.713331 59.700169 194 140 111
19.405462 2.835969 59.572960 150 78 55
19.363710 2.958010 59.444782 131 50 35
19.321903 3.079490 59.316441 130 47 38
19.280266 3.200444 59.188618 135 50 48
19.238979 3.320909 59.061874 140 58 60
19.198195 3.440916 58.936668 147 68 72
19.158024 3.560498 58.813347 159 83 86
19.118551 3.679683 58.692173 177 103 105
19.079836 3.798496 58.573315 199 126 127
19.041918 3.916960 58.456909 216 141 144
19.004822 4.035097 58.343029 215 138 143
18.968563 4.152927 58.231720 198 119 126
18.933151 4.270467 58.123009 189 108 115
18.898592 4.387737 58.016914 197 113 120
18.864893 4.504755 57.913464 206 120 128
18.832062 4.621540 57.812672 207 119 128
18.800108 4.738111 57.714577 195 108 117
18.769045 4.854491 57.619221 174 89 100
18.738892 4.970700 57.526649 158 77 89
18.709661 5.086761 57.436916 151 75 89
18.681376 5.202698 57.350082 146 75 90
18.654060 5.318537 57.266228 142 76 91
18.627735 5.434304 57.185410 143 80 96
18.602425 5.550025 57.107708 148 87 104
18.578146 5.665726 57.033176 158 98 116
18.554926 5.781435 56.961895 173 112 132
18.532785 5.897181 56.893925 191 127 149
18.511740 6.012989 56.829315 200 134 156
18.491804 6.128886 56.768116 193 124 144
18.472994 6.244900 56.710369 177 106 124
18.455313 6.361054 56.656086 172 98 113
18.438763 6.477372 56.605282 176 101 113
18.423340 6.593874 56.557934 171 95 104
18.409025 6.710576 56.513992 161 84 93
18.395803 6.827493 56.473400 163 85 93
18.383629 6.944632 56.436028 167 89 98
18.372459 7.061996 56.401737 163 86 96
18.362228 7.179579 56.370331 155 79 91
18.352858 7.297369 56.341564 154 79 92
18.344257 7.415345 56.315159 157 84 99
18.336317 7.533480 56.290787 159 88 106
19.162836 -5.154634 58.441372 229 177 174
19.178589 -5.032788 58.489414 228 175 174
19.194178 -4.910693 58.536957 229 175 179
19.209557 -4.788341 58.583858 221 167 173
19.224701 -4.665729 58.630043 209 154 164
19.239605 -4.542861 58.675495 204 149 162
19.254286 -4.419746 58.720268 203 148 163
19.268778 -4.296397 58.764465 200 145 160
19.283142 -4.172829 58.808273 198 143 157
19.297443 -4.049059 58.851887 197 143 157
19.311768 -3.925105 58.895573 196 143 156
19.326199 -3.800985 58.939587 192 138 151
19.340824 -3.676711 58.984188 185 132 146
19.355726 -3.552296 59.029636 192 139 154
19.370972 -3.427746 59.076130 211 165 182
19.386612 -3.303062 59.123829 219 178 195
19.402681 -3.178243 59.172836 205 159 176
19.419189 -3.053282 59.223179 196 141 157
19.436121 -2.928168 59.274818 196 138 153
19.453447 -2.802888 59.327656 191 132 145
19.471121 -2.677428 59.381557 185 123 135
19.489082 -2.551773 59.436337 178 115 125
19.507269 -2.425910 59.491795 175 111 118
19.525610 -2.299826 59.547733 185 123 126
19.544052 -2.173512 59.603973 193 133 133
19.562544 -2.046961 59.660370 186 124 124
19.581057 -1.920168 59.716831 184 121 122
19.599571 -1.793133 59.773296 206 149 153
19.618097 -1.665855 59.829792 232 187 196
19.636648 -1.538335 59.886368 230 185 201
19.655251 -1.410576 59.943100 186 130 153
19.673933 -1.282576 60.000080 129 65 92
19.692728 -1.154338 60.057396 110 46 72
19.711641 -1.025859 60.115078 146 83 104
19.730663 -0.897136 60.173088 183 120 134
19.749748 -0.768165 60.231297 174 111 116
19.768818 -0.638943 60.289452 144 82 77
19.787739 -0.509467 60.347157 125 63 52
19.806339 -0.379735 60.403885 114 54 38
19.824396 -0.249752 60.458950 124 67 51
19.841642 -0.119527 60.511543 145 91 76
19.857771 0.010924 60.560734 125 72 61
19.872450 0.141577 60.605499 84 33 28
19.885321 0.272399 60.644753 72 24 24
19.896027 0.403345 60.677402 76 31 37
19.904215 0.534365 60.702377 74 36 47
19.909559 0.665398 60.718678 70 38 53
19.911764 0.796375 60.725399 64 38 58
19.910589 0.927224 60.721813 73 52 75
19.905846 1.057867 60.707352 116 100 123
19.897419 1.188229 60.681652 182 170 190
19.885260 1.318232 60.644566 227 215 234
19.869398 1.447805 60.596191 203 191 211
19.849930 1.576884 60.536819 158 144 166
19.827023 1.705410 60.466961 162 146 167
19.800900 1.833338 60.387291 157 138 153
19.771839 1.960631 60.298664 120 97 105
19.740154 2.087264 60.202038 122 97 97
19.706186 2.213224 60.098442 137 109 102
19.670286 2.338509 59.988960 127 94 83
19.632820 2.463124 59.874695 147 117 98
19.594133 2.587086 59.756710 201 172 149
19.554558 2.710416 59.636013 208 164 142
19.514397 2.833140 59.513538 166 104 87
19.473930 2.955290 59.390129 140 68 57
19.433397 3.076898 59.266510 136 58 51
19.393000 3.197994 59.143307 136 56 54
19.352905 3.318612 59.021034 140 60 62
19.313251 3.438781 58.900101 146 69 72
19.274143 3.558529 58.780827 156 82 84
19.235655 3.677882 58.663448 171 99 99
19.197842 3.796862 58.548130 193 122 121
19.160746 3.915492 58.434998 218 146 147
19.124390 4.033790 58.324123 224 150 153
19.088795 4.151775 58.215565 204 127 132
19.053970 4.269465 58.109364 189 110 116
19.019930 4.386878 58.005550 195 112 120
18.986685 4.504032 57.904163 204 118 127
18.954250 4.620946 57.805244 205 118 127
18.922636 4.737640 57.708832 198 110 121
18.891861 4.854133 57.614975 181 95 106
18.861940 4.970447 57.523724 164 81 93
18.832899 5.086605 57.435154 153 75 89
18.804749 5.202627 57.349304 145 73 88
18.777517 5.318541 57.266258 142 74 91
18.751225 5.434367 57.186069 142 78 95
18.725887 5.550131 57.108799 144 83 101
18.701527 5.665858 57.034508 149 88 108
18.678164 5.781573 56.963253 163 102 122
18.655815 5.897303 56.895103 186 123 145
18.634501 6.013071 56.830093 201 135 157
18.614233 6.128905 56.768288 195 127 146
18.595030 6.244829 56.709721 181 110 127
18.576899 6.360868 56.654423 176 103 115
18.559847 6.477045 56.602425 178 104 113
18.543877 6.593382 56.553719 173 98 105
18.528982 6.709899 56.508293 165 90 96
18.515148 6.826612 56.466103 166 90 97
18.502344 6.943529 56.427055 169 93 102
18.490540 7.060658 56.391052 166 89 100
18.479675 7.177999 56.357922 159 83 95
18.469685 7.295541 56.327450 156 82 96
18.460485 7.413270 56.299397 158 86 102
18.451981 7.531161 56.273464 161 90 109
19.319807 -5.036734 58.535271 235 179 181
19.335543 -4.914551 58.582943 232 175 179
19.350969 -4.792086 58.629684 221 165 171
19.366070 -4.669341 58.675438 208 151 161
19.380842 -4.546322 58.720196 200 144 157
19.395309 -4.423040 58.764027 198 142 156
19.409515 -4.299512 58.807072 197 141 156
19.423531 -4.175757 58.849537 197 141 155
19.437433 -4.051795 58.891655 196 140 153
19.451315 -3.927647 58.933712 194 139 151
19.465273 -3.803333 58.976002 192 138 149
19.479406 -3.678870 59.018826 188 134 147
19.493805 -3.554271 59.062447 197 145 158
19.508549 -3.429544 59.107121 216 171 185
19.523695 -3.304693 59.153015 222 181 195
19.539288 -3.179716 59.200256 211 165 180
19.555340 -3.054608 59.248890 208 155 170
19.571844 -2.929357 59.298893 211 155 169
19.588768 -2.803951 59.350166 201 144 158
19.606066 -2.678375 59.402576 187 127 141
19.623672 -2.552614 59.455925 174 113 126
19.641520 -2.426652 59.509995 166 103 115
19.659529 -2.300476 59.564560 166 102 111
19.677631 -2.174075 59.619411 168 104 111
19.695766 -2.047441 59.674355 165 101 107
19.713882 -1.920568 59.729244 170 105 112
19.731949 -1.793454 59.783981 192 133 142
19.749954 -1.666098 59.838531 216 166 177
19.767893 -1.538503 59.892887 213 163 180
19.785780 -1.410669 59.947079 179 119 143
19.803631 -1.282600 60.001160 138 72 98
19.821461 -1.154296 60.055183 127 62 87
19.839275 -1.025758 60.109161 161 97 116
19.857061 -0.896986 60.163048 192 130 140
19.874777 -0.767980 60.216717 179 117 117
19.892345 -0.638737 60.269955 153 92 82
19.909657 -0.509258 60.322403 140 79 61
19.926552 -0.379545 60.373592 129 72 49
19.942827 -0.249603 60.422901 151 101 78
19.958246 -0.119444 60.469616 188 143 123
19.972530 0.010916 60.512897 160 110 95
19.985378 0.141452 60.551823 92 38 31
19.996462 0.272132 60.585403 72 19 17
20.005459 0.402915 60.612663 82 29 34
20.012049 0.533751 60.632629 85 37 46
20.015932 0.664584 60.644394 83 39 54
20.016840 0.795349 60.647144 77 38 58
20.014553 0.925978 60.640217 72 39 61
20.008907 1.056399 60.623108 89 62 86
19.999792 1.186542 60.595493 144 123 145
19.987173 1.316334 60.557259 205 188 207
19.971079 1.445710 60.508499 191 176 197
19.951607 1.574609 60.449501 147 132 155
19.928913 1.702979 60.380745 176 162 181
19.903212 1.830775 60.302872 195 183 194
19.874762 1.957965 60.216679 150 133 141
19.843859 2.084526 60.123043 140 121 126
19.810818 2.210444 60.022938 170 151 151
19.775969 2.335717 59.917355 157 131 126
19.739651 2.460352 59.807312 137 107 98
19.702181 2.584362 59.693790 173 143 130
19.663870 2.707766 59.577713 208 170 155
19.624996 2.830588 59.459934 197 147 135
19.585812 2.952856 59.341213 170 108 102
19.546539 3.074599 59.222229 149 78 75
19.507364 3.195844 59.103531 142 66 68
19.468437 3.316619 58.985592 150 73 78
19.429884 3.436953 58.868782 166 91 94
19.391800 3.556869 58.753399 178 106 108
19.354258 3.676390 58.639648 182 111 112
19.317307 3.795537 58.527695 189 119 119
19.280989 3.914330 58.417660 208 137 138
19.245333 4.032787 58.309624 220 147 150
19.210356 4.150925 58.203655 208 133 138
19.176075 4.268762 58.099792 194 116 123
19.142513 4.386315 57.998104 194 113 122
19.109680 4.503602 57.898628 200 115 125
19.077599 4.620641 57.801426 202 115 126
19.046288 4.737453 57.706558 200 112 124
19.015760 4.854057 57.614067 190 103 116
18.986042 4.970473 57.524029 173 89 103
18.957150 5.086723 57.436489 156 76 92
18.929106 5.202828 57.351524 145 71 87
18.901930 5.318812 57.269184 142 72 91
18.875639 5.434695 57.189526 142 77 96
18.850250 5.550501 57.112602 144 81 101
18.825779 5.666251 57.038460 147 85 107
18.802242 5.781969 56.967152 156 95 117
18.779659 5.897679 56.898727 176 113 136
18.758045 6.013404 56.833241 193 127 149
18.737415 6.129169 56.770737 192 124 144
18.717791 6.245000 56.711277 183 112 130
18.699177 6.360919 56.654881 177 105 118
18.681589 6.476950 56.601593 177 103 113
18.665033 6.593115 56.551430 174 99 108
18.649513 6.709438 56.504410 170 96 104
18.635023 6.825934 56.460506 171 97 105
18.621542 6.942618 56.419662 172 97 107
18.609047 7.059500 56.381805 168 94 105
18.597494 7.176582 56.346802 164 91 104
18.586824 7.293860 56.314472 163 90 104
18.576967 7.411323 56.284611 163 92 107
19.477234 -4.918441 58.629322 226 169 172
19.492767 -4.795878 58.676075 216 159 164
19.507885 -4.673014 58.721588 207 150 159
19.522596 -4.549858 58.765869 201 144 156
19.536930 -4.426426 58.809013 200 144 156
19.550936 -4.302736 58.851177 203 146 159
19.564693 -4.178812 58.892590 200 143 157
19.578287 -4.054674 58.933510 193 137 148
19.591822 -3.930349 58.974251 191 136 145
19.605402 -3.805856 59.015125 191 136 145
19.619133 -3.681216 59.056461 190 136 144
19.633116 -3.556443 59.098549 193 139 150
19.647434 -3.431547 59.141651 197 147 159
19.662155 -3.306534 59.185963 196 148 159
19.677326 -3.181401 59.231628 195 145 157
19.692963 -3.056144 59.278698 202 149 162
19.709061 -2.930753 59.327156 204 149 163
19.725592 -2.805215 59.376915 190 134 149
19.742506 -2.679514 59.427830 170 112 128
19.759733 -2.553634 59.479687 158 98 115
19.777201 -2.427560 59.532269 154 92 109
19.794821 -2.301277 59.585304 153 90 105
19.812517 -2.174773 59.638573 155 91 104
19.830212 -2.048040 59.691837 156 93 104
19.847845 -1.921071 59.744915 162 98 110
19.865368 -1.793864 59.797661 177 114 128
19.882751 -1.666417 59.849991 192 131 147
19.899982 -1.538733 59.901855 191 130 149
19.917057 -1.410815 59.953255 171 106 130
19.933985 -1.282665 60.004208 148 82 107
19.950769 -1.154287 60.054729 142 78 101
19.967413 -1.025684 60.104836 162 100 116
19.983902 -0.896858 60.154469 182 122 129
20.000198 -0.767811 60.203522 178 120 117
20.016239 -0.638544 60.251808 166 109 96
20.031923 -0.509060 60.299015 153 97 75
20.047110 -0.379363 60.344730 140 88 60
20.061619 -0.249461 60.388405 166 126 98
20.075239 -0.119365 60.429405 212 176 151
20.087723 0.010907 60.466984 181 134 116
20.098793 0.141332 60.500305 103 46 38
20.108158 0.271876 60.528496 77 18 15
20.115524 0.402503 60.550671 90 28 30
20.120600 0.533164 60.565948 96 36 43
20.123114 0.663807 60.573513 96 39 52
20.122820 0.794371 60.572632 92 41 58
20.119524 0.924794 60.562710 88 43 63
20.113071 1.055008 60.543285 89 51 73
20.103369 1.184947 60.514080 118 87 109
20.090385 1.314546 60.474995 170 146 166
20.074150 1.443742 60.426128 171 150 170
20.054758 1.572480 60.367756 132 114 134
20.032354 1.700710 60.300316 160 146 161
20.007139 1.828393 60.224415 207 197 206
19.979361 1.955498 60.140793 183 169 178
19.949282 2.082002 60.050255 155 139 147
19.917206 2.207894 59.953701 188 172 177
19.883432 2.333171 59.852039 193 173 173
19.848276 2.457839 59.746212 147 119 118
19.812031 2.581908 59.637108 145 111 107
19.774977 2.705396 59.525574 195 159 152
19.737373 2.828325 59.412380 223 186 179
19.699450 2.950717 59.298222 198 149 146
19.661409 3.072599 59.183712 161 97 97
19.623417 3.193996 59.069355 152 82 85
19.585615 3.314931 58.955563 167 95 101
19.548117 3.435429 58.842686 190 118 123
19.511009 3.555512 58.730988 207 137 140
19.474360 3.675200 58.620667 204 135 136
19.438217 3.794511 58.511875 192 124 124
19.402624 3.913464 58.404736 197 128 128
19.367609 4.032075 58.299335 207 136 139
19.333199 4.150362 58.195751 205 132 137
19.299410 4.268340 58.094048 196 121 128
19.266273 4.386027 57.994297 194 115 124
19.233807 4.503441 57.896568 195 113 124
19.202030 4.620601 57.800919 197 113 125
19.170971 4.737525 57.707428 200 114 128
19.140654 4.854233 57.616161 198 113 127
19.111094 4.970746 57.527187 184 101 115
19.082317 5.087084 57.440567 161 80 97
19.054342 5.203267 57.356358 145 68 86
19.027187 5.319316 57.274612 142 70 90
19.000868 5.435252 57.195389 143 74 95
18.975399 5.551095 57.118725 143 78 100
18.950790 5.666865 57.044647 148 84 107
18.927059 5.782585 56.973217 154 91 115
18.904219 5.898273 56.904461 166 102 126
18.882286 6.013954 56.838440 178 112 136
18.861273 6.129650 56.775192 184 115 137
18.841200 6.245385 56.714767 183 112 131
18.822081 6.361181 56.657215 180 108 123
18.803934 6.477064 56.602589 177 104 117
18.786768 6.593056 56.550919 174 100 112
18.770596 6.709180 56.502235 172 99 110
18.755417 6.825456 56.456547 173 100 112
18.741226 6.941901 56.413830 172 99 112
18.728006 7.058527 56.374035 170 97 111
18.715723 7.175342 56.337059 169 97 112
18.704330 7.292344 56.302769 170 99 114
19.634930 -4.799710 58.722965 213 156 161
19.650131 -4.676741 58.768425 207 150 157
19.664850 -4.553464 58.812447 202 146 155
19.679129 -4.429899 58.855148 206 150 161
19.693024 -4.306065 58.896706 217 161 172
19.706615 -4.181988 58.937359 211 155 165
19.720001 -4.057693 58.977390 194 139 146
19.733288 -3.933206 59.017128 189 135 141
19.746588 -3.808551 59.056904 191 137 142
19.760017 -3.683747 59.097065 190 137 141
19.773676 -3.558812 59.137917 188 135 141
19.787655 -3.433757 59.179726 183 131 139
19.802027 -3.308586 59.222706 179 128 137
19.816839 -3.183301 59.267010 182 130 141
19.832111 -3.057897 59.312683 189 137 149
19.847843 -2.932363 59.359730 188 133 148
19.863998 -2.806686 59.408051 172 116 132
19.880533 -2.680852 59.457497 155 97 115
19.897371 -2.554843 59.507854 149 89 108
19.914431 -2.428645 59.558876 149 87 106
19.931622 -2.302242 59.610291 150 87 104
19.948856 -2.175622 59.661835 152 89 104
19.966047 -2.048775 59.713249 156 92 107
19.983124 -1.921695 59.764320 162 98 113
20.000025 -1.794380 59.814865 171 106 124
20.016710 -1.666829 59.864769 181 115 135
20.033152 -1.539044 59.913944 180 115 138
20.049341 -1.411029 59.962360 171 106 131
20.065273 -1.282789 60.010006 164 100 124
20.080950 -1.154328 60.056892 161 101 121
20.096371 -1.025653 60.103012 165 108 122
20.111523 -0.896767 60.148327 174 120 124
20.126371 -0.767674 60.192741 181 129 123
20.140869 -0.638378 60.236095 181 130 114
20.154922 -0.508884 60.278122 168 118 93
20.168413 -0.379198 60.318470 154 107 76
20.181181 -0.249330 60.356663 179 141 109
20.193043 -0.119291 60.392136 218 183 156
20.203773 0.010900 60.424229 194 146 126
20.213129 0.141219 60.452209 126 65 55
20.220846 0.271637 60.475285 98 31 27
20.226658 0.402117 60.492664 102 33 32
20.230301 0.532615 60.503567 105 36 40
20.231531 0.663081 60.507244 105 38 47
20.230127 0.793459 60.503040 104 42 55
20.225906 0.923690 60.490421 101 46 62
20.218735 1.053713 60.468971 99 51 69
20.208527 1.183466 60.438442 112 71 90
20.195251 1.312888 60.398743 143 109 127
20.178947 1.441923 60.349979 145 117 135
20.159695 1.570517 60.292400 116 93 108
20.137636 1.698626 60.226425 132 114 128
20.112951 1.826213 60.152599 194 181 191
20.085871 1.953248 60.071609 208 193 203
20.056643 2.079712 59.984200 175 157 169
20.025541 2.205592 59.891182 181 162 173
19.992847 2.330885 59.793400 201 182 188
19.958843 2.455596 59.691700 172 145 151
19.923800 2.579734 59.586899 144 105 111
19.887978 2.703314 59.479763 178 139 142
19.851608 2.826354 59.370995 219 185 186
19.814905 2.948876 59.261219 206 162 165
19.778044 3.070900 59.150982 177 118 122
19.741184 3.192449 59.040745 174 107 113
19.704451 3.313543 58.930882 183 114 121
19.667946 3.434204 58.821705 199 130 136
19.631752 3.554451 58.713459 220 151 156
19.595932 3.674301 58.606331 221 153 156
19.560535 3.793771 58.500465 204 136 137
19.525602 3.912878 58.395996 194 126 127
19.491167 4.031638 58.293007 197 127 130
19.457258 4.150065 58.191593 198 126 131
19.423904 4.268178 58.091843 194 120 128
19.391132 4.385992 57.993828 191 114 125
19.358971 4.503525 57.897640 190 111 123
19.327452 4.620797 57.803379 192 110 124
19.296597 4.737826 57.711098 196 113 127
19.266438 4.854632 57.620899 200 115 131
19.236994 4.971234 57.532841 192 108 124
19.208290 5.087654 57.446999 168 86 104
19.180347 5.203908 57.363426 148 68 88
19.153179 5.320018 57.282173 142 67 89
19.126802 5.436003 57.203285 142 70 94
19.101223 5.551879 57.126789 142 75 99
19.076454 5.667666 57.052708 148 81 107
19.052507 5.783384 56.981091 155 89 115
19.029394 5.899051 56.911964 158 93 119
19.007126 6.014688 56.845367 163 97 122
18.985718 6.130314 56.781342 172 103 127
18.965189 6.245955 56.719944 179 110 131
18.945555 6.361630 56.661221 183 112 131
18.926834 6.477366 56.605236 180 108 125
18.909048 6.593187 56.552044 174 101 117
18.892214 6.709115 56.501690 170 97 113
18.876331 6.825171 56.454197 169 98 113
18.861414 6.941378 56.409580 169 98 114
18.847445 7.057747 56.367802 169 99 116
18.834410 7.174291 56.328815 171 102 119
19.792793 -4.680520 58.815907 206 150 155
19.807592 -4.557137 58.859879 201 146 152
19.821894 -4.433454 58.902374 209 155 161
19.835762 -4.309493 58.943588 223 170 176
19.849283 -4.185282 58.983772 215 161 167
19.862560 -4.060847 59.023224 198 145 149
19.875704 -3.936215 59.062279 197 143 147
19.888830 -3.811413 59.101288 197 144 147
19.902058 -3.686460 59.140594 192 140 143
19.915491 -3.561375 59.180511 189 137 141
19.929224 -3.436170 59.221317 184 132 139
19.943329 -3.310850 59.263233 178 127 136
19.957857 -3.185417 59.306404 178 126 137
19.972826 -3.059866 59.350887 181 128 143
19.988234 -2.934188 59.396671 178 123 141
20.004049 -2.808369 59.443668 164 108 127
20.020218 -2.682394 59.491711 151 93 114
20.036665 -2.556249 59.540588 147 87 109
20.053305 -2.429915 59.590034 149 87 108
20.070040 -2.303380 59.639767 150 87 106
20.086775 -2.176630 59.689495 151 88 105
20.103416 -2.049657 59.738945 156 92 109
20.119881 -1.922453 59.787872 163 99 117
20.136103 -1.795016 59.836075 172 108 127
20.152027 -1.667348 59.883400 179 113 136
20.167622 -1.539449 59.929741 178 113 137
20.182867 -1.411327 59.975040 176 113 137
20.197752 -1.282987 60.019272 178 117 139
20.212278 -1.154435 60.062439 179 120 139
20.226442 -1.025679 60.104527 177 120 134
20.240232 -0.896725 60.145508 177 124 130
20.253624 -0.767579 60.185303 182 132 130
20.266577 -0.638248 60.223793 188 139 129
20.279015 -0.508737 60.260750 184 136 118
20.290834 -0.379056 60.295872 177 130 106
20.301899 -0.249215 60.328754 192 149 123
20.312048 -0.119226 60.358910 217 175 151
20.321083 0.010893 60.385757 208 156 137
20.328787 0.141117 60.408653 168 103 90
20.334923 0.271420 60.426888 135 63 55
20.339254 0.401766 60.439758 119 42 39
20.341545 0.532113 60.446564 112 35 36
20.341570 0.662417 60.446640 112 37 42
20.339127 0.792624 60.439381 112 42 51
20.334059 0.922681 60.424320 110 46 58
20.326235 1.052530 60.401070 109 51 65
20.315584 1.182115 60.369423 116 66 81
20.302080 1.311379 60.329288 133 90 105
20.285751 1.440269 60.280773 137 102 116
20.266680 1.568738 60.224094 121 90 104
20.244991 1.696743 60.159645 124 98 113
20.220856 1.824249 60.087929 174 153 167
20.194485 1.951231 60.009563 217 197 211
20.166105 2.077667 59.925228 200 178 195
20.135965 2.203547 59.835670 171 145 164
20.104326 2.328868 59.741650 187 160 176
20.071444 2.453631 59.643936 193 164 177
20.037567 2.577845 59.543266 163 123 135
20.002928 2.701522 59.440338 162 119 129
19.967741 2.824678 59.335773 194 153 161
19.932196 2.947330 59.230148 203 154 163
19.896454 3.069496 59.123943 195 136 144
19.860659 3.191196 59.017574 191 126 136
19.824923 3.312447 58.911377 185 119 129
19.789341 3.433267 58.805645 194 128 136
19.753988 3.553672 58.700592 221 156 163
19.718925 3.673679 58.596401 234 169 173
19.684200 3.793301 58.493214 218 152 154
19.649857 3.912554 58.391159 198 131 132
19.615932 4.031454 58.290348 191 122 125
19.582458 4.150014 58.190876 191 120 125
19.549471 4.268251 58.092850 188 116 124
19.517002 4.386184 57.996368 184 110 121
19.485088 4.503828 57.901535 183 107 119
19.453762 4.621202 57.808449 186 107 121
19.423058 4.738328 57.717205 190 109 125
19.393005 4.855222 57.627903 194 111 128
19.363630 4.971906 57.540611 193 109 127
19.334959 5.088398 57.455410 177 95 114
19.307007 5.204718 57.372349 157 76 97
19.279791 5.320883 57.291477 145 66 91
19.253325 5.436910 57.212826 141 66 92
19.227613 5.552816 57.136425 141 70 97
19.202663 5.668618 57.062286 148 79 106
19.178486 5.784332 56.990437 155 87 114
19.155087 5.899978 56.920906 154 89 115
19.132477 6.015571 56.853722 155 89 115
19.110670 6.131132 56.788918 163 95 120
19.089682 6.246682 56.726551 175 106 130
19.069534 6.362244 56.666679 185 115 137
19.050247 6.477839 56.609367 184 114 134
19.031843 6.593494 56.554680 174 104 124
19.014343 6.709232 56.502678 166 96 115
18.997765 6.825077 56.453411 163 95 114
18.982113 6.941049 56.406902 165 97 116
18.967392 7.057166 56.363159 167 99 118
19.935871 -4.684347 58.864006 206 150 153
19.950811 -4.560872 58.908119 202 147 150
19.965212 -4.437086 58.950638 207 155 157
19.979139 -4.313015 58.991760 216 164 167
19.992685 -4.188687 59.031757 209 157 160
20.005953 -4.064129 59.070934 203 151 153
20.019058 -3.939371 59.109627 209 157 158
20.032116 -3.814437 59.148186 207 157 156
20.045246 -3.689350 59.186954 201 151 152
20.058556 -3.564128 59.226254 199 150 153
20.072140 -3.438783 59.266361 198 149 155
20.086067 -3.313323 59.307484 193 144 152
20.100388 -3.187747 59.349766 186 136 147
20.115122 -3.062051 59.393272 181 130 145
20.130262 -2.936228 59.437977 179 125 143
20.145775 -2.810264 59.483780 172 116 136
20.161606 -2.684144 59.530525 160 102 124
20.177677 -2.557854 59.577980 151 92 113
20.193897 -2.431377 59.625870 149 88 108
20.210165 -2.304699 59.673904 149 88 106
20.226377 -2.177808 59.721775 151 88 105
20.242437 -2.050694 59.769196 153 90 107
20.258255 -1.923354 59.815899 159 96 114
20.273754 -1.795784 59.861664 168 104 125
20.288877 -1.667986 59.906319 174 110 132
20.303583 -1.539963 59.949738 175 111 135
20.317846 -1.411723 59.991852 178 116 139
20.331654 -1.283272 60.032619 182 122 143
20.345003 -1.154620 60.072037 179 122 140
20.357893 -1.025774 60.110092 174 121 134
20.370316 -0.896744 60.146778 173 123 131
20.382254 -0.767537 60.182026 175 129 131
20.393677 -0.638162 60.215752 182 138 133
20.404522 -0.508628 60.247776 188 144 133
20.414707 -0.378943 60.277847 188 143 127
20.424112 -0.249119 60.305622 191 144 125
20.432600 -0.119170 60.330681 203 153 134
20.439999 0.010887 60.352528 213 156 138
20.446117 0.141029 60.370590 206 140 125
20.450741 0.271229 60.384243 175 104 92
20.453663 0.401454 60.392872 141 64 55
20.454666 0.531667 60.395836 119 41 37
20.453552 0.661824 60.392548 115 38 38
20.450140 0.791878 60.382473 117 44 47
20.444281 0.921778 60.365170 117 48 56
20.435862 1.051471 60.340309 117 53 63
20.424812 1.180906 60.307690 122 64 78
20.411112 1.310030 60.267231 135 83 98
20.394787 1.438794 60.219032 143 98 112
20.375912 1.567154 60.163300 137 96 111
20.354603 1.695071 60.100380 135 97 115
20.331013 1.822513 60.030727 163 129 147
20.305336 1.949454 59.954914 206 175 196
20.277779 2.075875 59.873547 211 182 206
20.248569 2.201766 59.787300 177 144 170
20.217941 2.327122 59.696865 172 139 163
20.186131 2.451945 59.602936 195 163 182
20.153360 2.576239 59.506176 181 141 157
20.119841 2.700016 59.407204 159 111 126
20.085766 2.823288 59.306591 174 123 137
20.051304 2.946070 59.204842 190 136 149
20.016607 3.068377 59.102390 190 132 145
19.981796 3.190224 58.999607 185 123 136
19.946978 3.311627 58.896797 178 115 128
19.912237 3.432600 58.794224 189 125 137
19.877647 3.553157 58.692085 219 156 165
19.843262 3.673312 58.590561 238 175 180
19.809132 3.793079 58.489784 229 164 167
19.775301 3.912470 58.389893 208 141 143
19.741812 4.031499 58.291012 193 125 127
19.708700 4.150183 58.193245 186 117 121
19.676008 4.268536 58.096714 180 110 117
19.643776 4.386575 58.001545 176 105 114
19.612045 4.504319 57.907856 175 101 114
19.580854 4.621787 57.815758 179 102 118
19.550243 4.738998 57.725376 182 104 120
19.520245 4.855972 57.636799 185 104 123
19.490891 4.972728 57.550121 190 108 127
19.462202 5.089285 57.465416 189 106 126
19.434202 5.205661 57.382748 175 91 114
19.406906 5.321874 57.302151 154 72 98
19.380322 5.437938 57.223648 142 63 91
19.354454 5.553870 57.147270 142 66 95
19.329306 5.669684 57.073017 147 76 104
19.304886 5.785396 57.000916 153 85 112
19.281195 5.901020 56.930962 153 87 114
19.258242 6.016573 56.863190 153 87 114
19.236040 6.132073 56.797638 160 93 118
19.214605 6.247540 56.734348 170 103 127
19.193956 6.362995 56.673374 182 114 137
19.174116 6.478460 56.614796 186 118 140
19.155109 6.593960 56.558678 177 109 132
19.136965 6.709520 56.505096 166 98 121
19.119698 6.825162 56.454117 162 95 117
19.103331 6.940912 56.405792 162 96 118
20.094503 -4.564667 58.957134 203 149 148
20.109076 -4.440793 58.999886 203 152 150
20.123144 -4.316627 59.041168 205 154 153
20.136806 -4.192198 59.081249 202 152 151
20.150164 -4.067535 59.120438 206 157 156
20.163330 -3.942666 59.159073 215 166 164
20.176426 -3.817617 59.197491 215 166 165
20.189568 -3.692410 59.236050 213 164 164
20.202856 -3.567064 59.275043 217 169 172
20.216389 -3.441591 59.314743 223 179 184
20.230228 -3.315997 59.355354 222 180 186
20.244427 -3.190284 59.397011 207 163 173
20.258997 -3.064448 59.439754 189 140 155
20.273932 -2.938481 59.483574 185 133 151
20.289192 -2.812369 59.528351 190 137 157
20.304724 -2.686101 59.573921 183 127 148
20.320442 -2.559660 59.620041 165 107 126
20.336256 -2.433031 59.666435 153 93 111
20.352057 -2.306201 59.712795 151 91 107
20.367743 -2.179158 59.758816 153 91 106
20.383207 -2.051895 59.804188 152 89 105
20.398357 -1.924407 59.848637 152 90 107
20.413111 -1.796692 59.891926 159 96 115
20.427408 -1.668753 59.933876 165 102 123
20.441202 -1.540595 59.974342 170 108 130
20.454462 -1.412226 60.013248 176 116 138
20.467176 -1.283655 60.050552 177 119 139
20.479342 -1.154893 60.086246 169 114 132
20.490957 -1.025949 60.120327 166 113 129
20.502022 -0.896833 60.152790 169 120 132
20.512526 -0.767557 60.183605 171 124 134
20.522444 -0.638130 60.212708 176 131 136
20.531734 -0.508562 60.239967 183 138 138
20.540327 -0.378863 60.265179 184 137 133
20.548124 -0.249046 60.288055 183 132 125
20.555010 -0.119126 60.308258 193 138 128
20.560831 0.010882 60.325340 213 153 142
20.565426 0.140954 60.338818 221 157 145
20.568604 0.271066 60.348141 201 131 120
20.570177 0.401187 60.352760 163 90 79
20.569958 0.531282 60.352116 128 53 45
20.567762 0.661310 60.345673 115 40 36
20.563429 0.791228 60.332954 118 46 46
20.556824 0.920990 60.313576 120 51 56
20.547840 1.050546 60.287224 120 55 63
20.536421 1.179849 60.253719 126 64 77
20.522541 1.308851 60.212994 135 77 92
20.506229 1.437506 60.165134 143 90 106
20.487545 1.565774 60.110317 144 95 113
20.466599 1.693618 60.048859 142 97 117
20.443529 1.821008 59.981174 155 111 134
20.418510 1.947921 59.907768 186 146 172
20.391731 2.074337 59.829197 210 173 202
20.363398 2.200248 59.746067 195 157 187
20.333719 2.325646 59.658993 175 136 164
20.302910 2.450532 59.568596 191 150 175
20.271172 2.574910 59.475475 195 148 170
20.238693 2.698788 59.380184 172 119 140
20.205645 2.822176 59.283222 167 111 130
20.172184 2.945086 59.185051 174 117 133
20.138441 3.067529 59.086048 172 114 130
20.104528 3.189518 58.986549 169 109 126
20.070539 3.311066 58.886826 170 110 126
20.036556 3.432185 58.787113 186 125 139
20.002640 3.552886 58.687603 215 153 164
19.968847 3.673181 58.588459 236 172 179
19.935228 3.793081 58.489822 234 169 172
19.901831 3.912600 58.391834 220 153 155
19.868700 4.031750 58.294628 205 137 139
19.835878 4.150546 58.198330 189 121 124
19.803411 4.269002 58.103073 173 104 111
19.771349 4.387139 58.008999 167 97 106
19.739733 4.504972 57.916241 168 96 109
19.708618 4.622521 57.824947 172 97 113
19.678041 4.739808 57.735237 174 97 115
19.648043 4.856850 57.647224 177 98 117
19.618658 4.973668 57.561005 187 104 126
19.589911 5.090281 57.476662 198 114 137
19.561821 5.206705 57.394249 192 108 133
19.534410 5.322958 57.313824 166 82 109
19.507681 5.439054 57.235397 146 63 92
19.481638 5.555009 57.158989 143 64 94
19.456278 5.670833 57.084587 147 73 101
19.431606 5.786541 57.012199 151 80 108
19.407625 5.902147 56.941837 152 84 110
19.384336 6.017665 56.873508 153 87 113
19.361753 6.133111 56.807247 159 93 118
19.339890 6.248505 56.743103 165 100 123
19.318760 6.363863 56.681107 174 108 130
19.298393 6.479211 56.621353 180 115 136
19.278814 6.594570 56.563904 178 113 135
19.260052 6.709966 56.508858 170 104 127
19.242130 6.825424 56.456280 163 98 121
20.253468 -4.444570 59.050060 196 145 139
20.267757 -4.320323 59.091724 195 145 140
20.281622 -4.195810 59.132145 203 156 151
20.295164 -4.071057 59.171627 214 169 166
20.308495 -3.946093 59.210491 217 172 169
20.321730 -3.820944 59.249081 212 165 163
20.334984 -3.695632 59.287724 211 164 165
20.348356 -3.570174 59.326714 223 179 182
20.361937 -3.444582 59.366306 239 204 208
20.375784 -3.318864 59.406681 244 215 219
20.389944 -3.193021 59.447964 226 191 200
20.404428 -3.067048 59.490196 196 150 165
20.419224 -2.940938 59.533333 189 139 157
20.434290 -2.814680 59.577259 207 156 176
20.449568 -2.688260 59.621799 209 155 175
20.464970 -2.561663 59.666706 188 131 149
20.480400 -2.434876 59.711693 168 109 124
20.495750 -2.307887 59.756447 160 100 113
20.510914 -2.180684 59.800659 158 96 108
20.525784 -2.053261 59.844009 153 91 104
20.540260 -1.925615 59.886219 149 87 102
20.554262 -1.797745 59.927044 152 89 106
20.567728 -1.669656 59.966305 157 94 113
20.580603 -1.541353 60.003841 163 101 121
20.592859 -1.412846 60.039577 169 109 129
20.604483 -1.284145 60.073463 170 111 131
20.615473 -1.155263 60.105503 166 110 129
20.625828 -1.026211 60.135696 168 114 132
20.635557 -0.897001 60.164062 172 120 137
20.644655 -0.767646 60.190586 170 121 137
20.653109 -0.638157 60.215237 169 121 135
20.660889 -0.508545 60.237919 172 124 136
20.667940 -0.378821 60.258476 173 123 132
20.674185 -0.248999 60.276684 173 121 126
20.679525 -0.119094 60.292252 183 127 129
20.683832 0.010878 60.304810 201 143 140
20.686962 0.140896 60.313934 210 149 142
20.688751 0.270936 60.319153 200 136 126
20.689035 0.400969 60.319981 171 104 93
20.687641 0.530963 60.315918 136 69 59
20.684410 0.660881 60.306496 123 57 50
20.679192 0.790682 60.291279 129 64 62
20.671867 0.920323 60.269928 129 66 69
20.662342 1.049761 60.242157 124 62 70
20.650560 1.178950 60.207806 124 63 76
20.636499 1.307847 60.166809 130 70 86
20.620182 1.436409 60.119236 139 81 99
20.601665 1.564600 60.065250 145 90 110
20.581047 1.692385 60.005135 146 93 115
20.558453 1.819736 59.939262 150 98 124
20.534039 1.946630 59.868076 170 121 151
20.507973 2.073051 59.792080 202 157 188
20.480442 2.198987 59.711815 207 164 196
20.451635 2.324431 59.627827 184 138 170
20.421743 2.449383 59.540676 180 130 160
20.390949 2.573846 59.450893 188 136 162
20.359419 2.697824 59.358963 181 126 150
20.327307 2.821325 59.265339 172 116 136
20.294750 2.944358 59.170422 165 107 127
20.261866 3.066931 59.074543 157 100 119
20.228756 3.189057 58.978012 158 101 119
20.195501 3.310742 58.881058 166 108 126
20.162180 3.431997 58.783905 182 123 138
20.128849 3.552833 58.686726 209 147 160
20.095564 3.673257 58.589684 231 167 176
20.062374 3.793282 58.492916 234 169 173
20.029329 3.912917 58.396576 226 158 161
19.996479 4.032176 58.300797 216 147 150
19.963871 4.151073 58.205727 196 127 131
19.931559 4.269623 58.111515 171 101 108
19.899595 4.387844 58.018326 160 89 100
19.868034 4.505754 57.926311 162 90 104
19.836931 4.623375 57.835625 166 92 109
19.806330 4.740725 57.746407 169 92 112
19.776279 4.857825 57.658794 171 93 113
19.746813 4.974694 57.572880 181 99 122
19.717964 5.091353 57.488773 197 113 137
19.689751 5.207818 57.406517 201 116 141
19.662191 5.324104 57.326164 177 92 119
19.635290 5.440227 57.247734 151 67 97
19.609053 5.556199 57.171238 145 64 94
19.583469 5.672031 57.096645 147 70 98
19.558548 5.787737 57.023983 148 75 103
19.534281 5.903328 56.953232 149 80 106
19.510672 6.018817 56.884396 152 85 109
19.487726 6.134218 56.817501 157 92 115
19.465458 6.249548 56.752575 160 97 118
19.443884 6.364825 56.689674 164 101 121
19.423027 6.480071 56.628868 171 108 128
19.402912 6.595306 56.570221 176 113 134
19.383575 6.710558 56.513844 173 110 132
20.427109 -4.199514 59.184345 211 169 162
20.440922 -4.074686 59.224373 228 192 188
20.454512 -3.949642 59.263744 217 177 173
20.467987 -3.824408 59.302788 198 153 150
20.481457 -3.699003 59.341812 193 149 148
20.495012 -3.573446 59.381088 213 172 175
20.508736 -3.447747 59.420849 239 211 216
20.522682 -3.321913 59.461258 252 231 236
20.536894 -3.195946 59.502434 236 206 215
20.551371 -3.069842 59.544380 202 158 172
20.566099 -2.943592 59.587055 192 143 159
20.581032 -2.817187 59.630318 214 164 181
20.596107 -2.690613 59.673996 227 175 192
20.611235 -2.563858 59.717827 214 160 174
20.626318 -2.436908 59.761524 194 137 148
20.641243 -2.309753 59.804771 179 119 129
20.655907 -2.182383 59.847252 168 106 115
20.670195 -2.054793 59.888653 156 93 104
20.684013 -1.926981 59.928688 149 86 99
20.697271 -1.798947 59.967106 149 85 101
20.709911 -1.670698 60.003727 152 88 107
20.721878 -1.542241 60.038399 155 93 112
20.733145 -1.413586 60.071041 160 99 119
20.743694 -1.284747 60.101604 163 105 124
20.753529 -1.155735 60.130100 166 110 129
20.762655 -1.026567 60.156544 171 116 135
20.771082 -0.897253 60.180958 172 120 138
20.778814 -0.767809 60.203358 168 117 135
20.785851 -0.638247 60.223743 163 114 131
20.792170 -0.508580 60.242054 163 113 130
20.797735 -0.378819 60.258183 163 112 128
20.802485 -0.248980 60.271942 163 111 123
20.806337 -0.119076 60.283108 169 114 122
20.809189 0.010876 60.291367 180 123 126
20.810911 0.140855 60.296360 185 128 126
20.811365 0.270840 60.297672 180 122 116
20.810406 0.400803 60.294891 164 105 97
20.807878 0.530714 60.287571 147 89 80
20.803642 0.660539 60.275295 148 91 84
20.797564 0.790241 60.257687 162 106 104
20.789536 0.919781 60.234425 162 108 111
20.779470 1.049118 60.205261 140 83 92
20.767315 1.178211 60.170044 121 61 77
20.753052 1.307019 60.128716 123 62 81
20.736698 1.435504 60.081337 135 73 94
20.718307 1.563631 60.028053 145 83 107
20.697966 1.691369 59.969112 146 87 112
20.675781 1.818691 59.904839 147 89 117
20.651897 1.945575 59.835636 159 104 135
20.626465 2.072006 59.761955 187 134 167
20.599651 2.197972 59.684265 204 154 188
20.571623 2.323465 59.603058 190 138 172
20.542555 2.448485 59.518837 170 115 147
20.512602 2.573030 59.432053 170 115 143
20.481920 2.697105 59.343155 181 125 150
20.450640 2.820715 59.252525 182 126 147
20.418884 2.943865 59.160522 166 110 131
20.386759 3.066563 59.067440 153 98 118
20.354349 3.188815 58.973541 157 101 122
20.321735 3.310629 58.879047 165 109 129
20.288982 3.432012 58.784149 176 118 135
20.256145 3.552971 58.689011 199 139 154
20.223280 3.673515 58.593788 225 164 175
20.190435 3.793652 58.498623 231 167 174
20.157663 3.913393 58.403675 222 155 159
20.125017 4.032750 58.309082 216 146 150
20.092548 4.151735 58.215015 201 130 135
20.060320 4.270367 58.121635 174 103 111
20.028391 4.388661 58.029125 158 86 97
19.996819 4.506637 57.937653 158 85 100
19.965670 4.624316 57.847401 165 90 108
19.934990 4.741718 57.758511 169 93 112
19.904837 4.858866 57.671146 169 91 113
19.875242 4.975776 57.585400 174 92 116
19.846249 5.092472 57.501400 184 101 127
19.817875 5.208967 57.419189 192 107 135
19.790138 5.325280 57.338825 181 95 123
19.763044 5.441423 57.260326 158 74 103
19.736597 5.557410 57.183697 148 66 95
19.710787 5.673251 57.108921 147 69 96
19.685614 5.788955 57.035984 147 72 98
19.661072 5.904535 56.964874 148 76 101
19.637157 6.020001 56.895588 150 81 105
19.613876 6.135366 56.828136 153 88 109
19.591240 6.250646 56.762550 156 93 112
19.569258 6.365857 56.698860 159 97 115
19.547956 6.481018 56.637142 164 102 121
19.527361 6.596151 56.577473 171 110 130
20.573229 -4.203301 59.237728 224 190 180
20.587400 -4.078413 59.278534 240 213 208
20.601339 -3.953303 59.318668 216 181 178
20.615149 -3.827996 59.358429 185 142 139
20.628925 -3.702512 59.398102 175 132 132
20.642759 -3.576867 59.437935 197 158 161
20.656723 -3.451071 59.478138 230 201 206
20.670862 -3.325131 59.518848 247 223 231
20.685209 -3.199047 59.560162 239 206 216
20.699762 -3.072816 59.602062 213 168 181
20.714495 -2.946429 59.644485 200 150 164
20.729361 -2.819878 59.687290 213 163 176
20.744293 -2.693151 59.730282 232 181 194
20.759197 -2.566235 59.773197 234 184 193
20.773975 -2.439120 59.815750 221 168 175
20.788513 -2.311794 59.857613 202 144 149
20.802706 -2.184251 59.898476 182 120 125
20.816441 -2.056487 59.938023 163 99 107
20.829620 -1.928501 59.975975 151 87 98
20.842161 -1.800296 60.012085 149 84 98
20.853998 -1.671879 60.046165 149 85 102
20.865082 -1.543260 60.078075 152 89 107
20.875383 -1.414450 60.107738 156 94 113
20.884890 -1.285463 60.135109 159 99 118
20.893604 -1.156314 60.160202 163 105 124
20.901539 -1.027019 60.183052 168 111 130
20.908709 -0.897592 60.203693 168 113 132
20.915125 -0.768049 60.222168 165 111 131
20.920794 -0.638403 60.238495 162 109 129
20.925711 -0.508669 60.252647 161 108 128
20.929846 -0.378859 60.264557 159 106 126
20.933159 -0.248989 60.274094 156 104 121
20.935583 -0.119072 60.281075 158 105 118
20.937031 0.010875 60.285248 164 110 119
20.937399 0.140832 60.286304 167 112 117
20.936560 0.270778 60.283890 160 107 107
20.934395 0.400688 60.277653 153 102 99
20.930765 0.530534 60.267204 160 110 106
20.925545 0.660285 60.252174 180 131 128
20.918615 0.789907 60.232220 201 158 158
20.909880 0.919363 60.207066 200 161 165
20.899260 1.048617 60.176487 157 109 120
20.886707 1.177629 60.140347 115 57 75
20.872206 1.306364 60.098591 114 53 74
20.855770 1.434785 60.051270 131 67 90
20.837446 1.562861 59.998505 142 78 103
20.817307 1.690562 59.940517 146 83 109
20.795456 1.817864 59.877602 147 84 113
20.772018 1.944746 59.810116 153 92 123
20.747128 2.071191 59.738441 172 112 145
20.720930 2.197189 59.663017 193 133 169
20.693579 2.322733 59.584263 192 133 168
20.665226 2.447818 59.502621 169 110 142
20.636009 2.572443 59.418495 158 100 129
20.606064 2.696611 59.332272 175 119 144
20.575506 2.820323 59.244289 188 132 154
20.544447 2.943583 59.154854 172 118 139
20.512974 3.066396 59.064232 157 103 125
20.481167 3.188767 58.972652 161 107 129
20.449093 3.310699 58.880299 167 112 133
20.416813 3.432199 58.787354 169 113 132
20.384380 3.553271 58.693966 189 131 148
20.351849 3.673923 58.600296 219 159 173
20.319265 3.794161 58.506477 228 164 175
20.286688 3.913996 58.412670 216 147 156
20.254169 4.033438 58.319042 207 135 144
20.221773 4.152502 58.225761 200 127 137
20.189562 4.271203 58.133015 182 108 119
20.157602 4.389558 58.040993 161 87 100
20.125961 4.507588 57.949883 155 80 96
20.094706 4.625315 57.859890 163 87 107
20.063894 4.742758 57.771175 171 94 115
20.033588 4.859941 57.683907 168 90 113
20.003824 4.976882 57.598206 166 85 111
19.974646 5.093605 57.514194 170 87 114
19.946077 5.210123 57.431934 176 92 120
19.918139 5.326456 57.351490 174 89 118
19.890837 5.442616 57.272873 162 78 106
19.864166 5.558614 57.196083 153 70 98
19.838125 5.674460 57.121098 149 69 96
19.812706 5.790166 57.047913 147 70 96
19.787903 5.905739 56.976494 147 74 98
19.763710 6.021191 56.906830 148 78 100
19.740126 6.136531 56.838924 150 84 104
19.717157 6.251774 56.772793 155 92 109
19.694817 6.366935 56.708466 159 97 115
19.673122 6.482031 56.646000 161 101 119
20.734547 -4.082224 59.333939 243 217 211
20.748919 -3.957061 59.375065 218 184 181
20.763145 -3.831694 59.415779 187 146 144
20.777325 -3.706143 59.456352 172 130 132
20.791527 -3.580421 59.496994 188 147 151
20.805819 -3.454538 59.537891 216 179 186
20.820240 -3.328500 59.579155 233 199 209
20.834806 -3.202306 59.620838 236 196 207
20.849510 -3.075953 59.662922 225 178 190
20.864326 -2.949435 59.705315 210 160 172
20.879194 -2.822740 59.747860 210 159 170
20.894045 -2.695860 59.790356 226 176 185
