ply
format ascii 1.0
element vertex 1175
property float x
property float y
property float z
property uchar red
property uchar green
property uchar blue
end_header
-3.466409 -7.085031 62.111385 218 212 229
-3.473676 -6.965712 62.241596 217 213 226
-3.495661 -6.874777 62.635532 215 213 225
-3.495661 -6.739757 62.635532 214 213 225
-3.495661 -6.604735 62.635532 211 213 225
-3.503052 -6.483392 62.767956 209 212 224
-3.503052 -6.348086 62.767956 208 212 224
-3.503052 -6.212779 62.767956 211 215 228
-3.495661 -6.064651 62.635532 220 225 237
-3.488302 -5.917146 62.503666 226 231 242
-3.480973 -5.770262 62.372356 217 221 232
-3.473676 -5.623993 62.241596 204 206 215
-3.532928 -4.355319 63.303288 215 225 232
-3.540477 -4.227873 63.438553 203 210 217
-3.540477 -4.091121 63.438553 173 181 190
-3.540477 -3.954369 63.438553 193 199 208
-3.532928 -3.809477 63.303288 225 226 232
-3.525411 -3.665201 63.168602 211 206 216
-3.525411 -3.529031 63.168602 197 187 200
-3.525411 -3.392861 63.168602 217 204 217
-3.525411 -3.256691 63.168602 236 225 234
-3.525411 -3.120520 63.168602 236 224 232
-3.525411 -2.984350 63.168602 227 214 222
-3.525411 -2.848180 63.168602 231 220 227
-3.517926 -2.706252 63.034485 238 229 238
-3.517926 -2.570370 63.034485 228 216 230
-3.525411 -2.439669 63.168602 217 202 220
-3.525411 -2.303499 63.168602 216 202 221
-3.540477 -2.176591 63.438553 223 211 229
-3.540477 -2.039839 63.438553 235 226 240
-3.548059 -1.907162 63.574394 235 227 240
-3.548059 -1.770117 63.574394 223 213 228
-3.563319 -1.640096 63.847832 215 204 219
-3.570999 -1.505699 63.985435 217 207 220
-3.555672 -1.361898 63.710819 232 224 234
-3.578711 -1.232494 64.123634 242 235 242
-3.570999 -1.091906 63.985435 235 227 234
-3.586457 -0.958105 64.262428 230 219 228
-3.594237 -0.821355 64.401825 232 220 230
-3.594237 -0.682526 64.401825 236 224 235
-3.602051 -0.544879 64.541832 238 227 238
-3.586457 -0.403993 64.262428 238 227 239
-3.602051 -0.266619 64.541832 236 226 239
-3.602051 -0.127488 64.541832 232 222 237
-3.594237 0.011617 64.401825 227 217 234
-3.602051 0.150773 64.541832 233 226 238
-3.594237 0.289274 64.401825 243 237 245
-3.594237 0.428103 64.401825 234 227 235
-3.586457 0.565704 64.262428 225 216 226
-3.586457 0.704233 64.262428 238 229 238
-3.586457 0.842761 64.262428 244 239 243
-3.594237 0.983418 64.401825 234 227 231
-3.586457 1.119817 64.262428 229 222 226
-3.578711 1.255627 64.123634 233 230 231
-3.586457 1.396873 64.262428 222 222 222
-3.594237 1.677561 64.401825 224 228 228
-3.586457 1.812458 64.262428 248 249 249
-3.586457 1.950986 64.262428 253 254 254
-3.594237 2.094047 64.401825 247 250 253
-3.586457 2.228042 64.262428 246 249 253
-3.570999 2.356369 63.985435 248 249 253
-3.555672 2.483595 63.710819 246 246 252
-3.555672 2.620934 63.710819 247 246 251
-3.563319 2.764205 63.847832 250 249 251
-3.555672 2.895612 63.710819 239 236 238
-3.563319 3.039474 63.847832 222 217 219
-3.548059 3.163502 63.574394 228 224 224
-3.555672 3.307630 63.710819 246 242 242
-3.563319 3.452377 63.847832 248 242 243
-3.555672 3.582308 63.710819 239 229 232
-3.563319 3.727646 63.847832 236 225 230
-3.602051 3.907295 64.541832 235 222 228
-3.609898 4.055241 64.682442 222 204 213
-3.625697 4.213032 64.965523 208 186 196
-3.609898 4.334108 64.682442 205 181 191
-3.602051 4.463816 64.541832 203 177 187
-3.602051 4.602947 64.541832 196 169 179
-3.633648 4.783674 65.107986 190 162 172
-3.649655 4.945717 65.394806 188 158 168
-3.723468 5.189563 66.717400 186 156 165
-3.748741 5.369583 67.170235 183 153 161
-3.774359 5.552063 67.629250 182 151 159
-3.774359 5.697848 67.629250 183 152 158
-3.782976 5.856976 67.783661 182 152 157
-3.791632 6.016832 67.938766 177 148 152
-3.791632 6.163285 67.938766 170 142 147
-3.835517 6.382767 68.725098 158 131 139
-3.862339 6.576586 69.205696 136 111 120
-3.871363 6.741485 69.367386 105 83 94
-3.898690 6.939660 69.857040 80 61 74
-3.907885 7.106970 70.021797 69 52 64
-3.917124 7.275072 70.187332 64 50 60
-3.917124 7.426372 70.187332 60 47 56
-3.926406 7.595629 70.353653 56 45 53
-3.954519 7.802758 70.857384 54 43 49
-3.945103 7.936561 70.688675 52 41 45
-3.973485 8.147136 71.197220 51 40 43
-3.935732 8.221747 70.520767 51 38 41
-3.935732 8.677804 70.520767 52 37 41
-3.871363 8.834943 69.367386 53 38 39
-3.844416 8.921939 68.884552 52 38 39
-3.862339 9.112717 69.205696 52 38 38
-3.835517 9.197582 68.725098 52 38 40
-3.844416 9.367414 68.884552 52 38 41
-3.844416 9.515906 68.884552 52 38 43
-3.835517 9.642027 68.725098 52 37 43
-3.844416 9.812890 68.884552 52 37 43
-3.853357 9.984548 69.044746 54 39 45
-3.844416 10.109874 68.884552 54 40 44
-3.826659 10.210982 68.566376 51 38 40
-3.826659 10.358788 68.566376 48 36 36
-3.817842 10.482386 68.408394 46 35 34
-3.817842 10.629851 68.408394 44 34 32
-3.809065 10.752542 68.251129 43 34 33
-3.791632 10.849784 67.938766 42 34 34
-3.809065 11.046794 68.251129 41 33 34
-3.791632 11.142690 67.938766 40 32 34
-3.774359 11.237712 67.629250 40 32 34
-3.782976 11.409488 67.783661 40 31 34
-3.782976 11.555606 67.783661 40 30 34
-3.835517 11.864249 68.725098 40 30 33
-3.853357 12.068269 69.044746 39 30 32
-3.862339 12.245584 69.205696 38 29 30
-3.862339 12.394768 69.205696 36 27 28
-3.880430 12.602706 69.529839 35 26 27
-3.898690 12.812601 69.857040 36 26 26
-3.907885 12.993763 70.021797 38 27 28
-3.917124 13.175781 70.187332 40 29 30
-3.917124 13.327082 70.187332 44 31 33
-3.926406 13.510321 70.353653 47 34 36
-3.917124 13.629682 70.187332 50 37 39
-3.907885 13.748480 70.021797 51 39 43
-3.898690 13.866718 69.857040 52 39 45
-3.898690 14.017307 69.857040 52 40 48
-3.907885 14.201310 70.021797 52 40 49
-3.898690 14.318483 69.857040 52 40 50
-3.862339 14.334162 69.205696 52 40 51
-3.853357 14.449664 69.044746 52 41 53
-3.844416 14.564630 68.884552 52 42 55
-3.817842 14.611418 68.408394 53 43 56
-3.809065 14.724956 68.251129 54 45 57
-3.844416 15.010105 68.884552 56 47 59
-3.817842 15.053815 68.408394 56 48 60
-3.835517 15.271656 68.725098 55 48 59
-3.862339 15.527636 69.205696 54 47 57
-3.862339 15.676819 69.205696 53 47 55
-3.844416 15.752564 68.884552 53 46 53
-3.853357 15.938036 69.044746 53 46 52
-3.844416 16.049549 68.884552 52 46 50
-3.844416 16.198040 68.884552 48 41 44
-3.844416 16.346533 68.884552 42 36 37
-3.844416 16.495024 68.884552 38 33 33
-3.817842 16.528469 68.408394 35 31 30
-3.835517 16.753138 68.725098 33 29 28
-3.809065 16.784725 68.251129 32 28 27
-3.774359 16.777575 67.629250 32 29 27
-3.774359 16.923361 67.629250 32 29 28
-3.765780 17.030354 67.475548 32 29 28
-3.740278 17.059494 67.018608 32 30 28
-3.715120 17.088242 66.567810 31 30 28
-3.706808 17.193190 66.418884 30 29 28
-3.723468 17.414282 66.717400 29 27 27
-3.731854 17.597647 66.867661 27 25 25
-3.740278 17.781841 67.018608 27 24 24
-3.740278 17.926310 67.018608 26 23 23
-3.740278 18.070780 67.018608 27 24 23
-3.757241 18.297857 67.322548 28 26 25
-3.757241 18.442984 67.322548 29 27 27
-3.757241 18.588108 67.322548 29 27 28
-3.757241 18.733232 67.322548 28 27 28
-3.782976 19.007662 67.783661 28 27 28
-3.800329 19.241640 68.094589 27 27 28
-3.782976 19.299898 67.783661 27 27 28
-3.782976 19.446016 67.783661 28 28 29
-3.774359 19.547506 67.629250 29 29 30
-3.244284 -12.763023 60.466888 214 202 211
-3.237690 -12.607001 60.343987 214 202 209
-3.244284 -12.502331 60.466888 214 202 208
-3.244284 -12.371984 60.466888 215 204 209
-3.244284 -12.241638 60.466888 217 205 211
-3.257553 -12.160828 60.714195 215 205 211
-3.264228 -12.054600 60.838612 214 204 210
-3.270931 -11.947935 60.963535 218 207 215
-3.277661 -11.840833 61.088974 222 212 219
-3.270931 -11.685102 60.963535 225 215 223
-3.284419 -11.601329 61.214931 229 220 227
-3.291205 -11.493067 61.341408 228 220 229
-3.291205 -11.360836 61.341408 221 216 225
-3.284419 -11.205453 61.214931 214 211 221
-3.298019 -11.119347 61.468410 213 213 225
-3.298019 -10.986842 61.468410 213 217 230
-3.311733 -10.899468 61.723995 206 213 227
-3.325560 -10.811366 61.981716 204 213 227
-3.318632 -10.655509 61.852589 216 224 234
-3.339504 -10.588353 62.241596 222 230 236
-3.346520 -10.476144 62.372356 211 221 226
-3.346520 -10.341690 62.372356 207 218 223
-3.346520 -10.207236 62.372356 226 234 237
-3.353565 -10.093988 62.503666 244 247 248
-3.360640 -9.980263 62.635532 232 236 236
-3.353565 -9.824514 62.503666 202 209 208
-3.353565 -9.689778 62.503666 199 205 204
-3.346520 -9.534967 62.372356 223 228 228
-3.339504 -9.380806 62.241596 235 240 240
-3.346520 -9.266060 62.372356 231 238 239
-3.332517 -9.093399 62.111385 230 239 240
-3.332517 -8.959507 62.111385 235 242 242
-3.318632 -8.788843 61.852589 246 249 249
-3.311733 -8.637515 61.723995 249 250 252
-3.304862 -8.486814 61.595940 235 238 246
-3.298019 -8.336739 61.468410 220 223 239
-3.298019 -8.204233 61.468410 224 226 241
-3.298019 -8.071728 61.468410 238 239 249
-3.298019 -7.939223 61.468410 238 237 251
-3.298019 -7.806717 61.468410 225 222 244
-3.298019 -7.674212 61.468410 220 215 239
-3.298019 -7.541707 61.468410 230 225 245
-3.298019 -7.409202 61.468410 238 233 247
-3.304862 -7.291794 61.595940 229 222 239
-3.311733 -7.173897 61.723995 220 213 232
-3.325560 -7.070239 61.981716 219 211 229
-3.339504 -6.965712 62.241596 216 210 225
-3.360640 -6.874777 62.635532 215 211 225
-3.360640 -6.739757 62.635532 214 213 227
-3.367745 -6.618699 62.767956 211 212 226
-3.367745 -6.483392 62.767956 208 212 225
-3.374880 -6.361535 62.900936 206 213 226
-3.367745 -6.212779 62.767956 210 218 232
-3.360640 -6.064651 62.635532 219 228 241
-3.353565 -5.917146 62.503666 221 230 243
-3.346520 -5.770262 62.372356 211 219 231
-3.353565 -4.704515 62.503666 187 199 210
-3.382045 -4.336825 63.034485 214 224 233
-3.389241 -4.209882 63.168602 217 223 232
-3.389241 -4.073712 63.168602 187 193 205
-3.396468 -3.945937 63.303288 191 195 207
-3.389241 -3.801371 63.168602 227 226 234
-3.382045 -3.657419 63.034485 231 224 234
-3.382045 -3.521538 63.034485 220 208 221
-3.389241 -3.392861 63.168602 226 211 225
-3.389241 -3.256691 63.168602 236 220 231
-3.389241 -3.120520 63.168602 234 218 227
-3.382045 -2.978014 63.034485 224 208 216
-3.389241 -2.848180 63.168602 229 214 224
-3.374880 -2.700518 62.900936 241 229 239
-3.382045 -2.570370 63.034485 232 219 232
-3.389241 -2.439669 63.168602 217 201 219
-3.389241 -2.303499 63.168602 211 194 214
-3.396468 -2.171950 63.303288 217 203 221
-3.396468 -2.035489 63.303288 233 223 235
-3.403725 -1.903087 63.438553 239 231 241
-3.411014 -1.770117 63.574394 228 217 229
-3.418333 -1.636576 63.710819 218 206 218
-3.418333 -1.499237 63.710819 221 209 220
-3.411014 -1.358982 63.574394 231 219 229
-3.433068 -1.229837 63.985435 236 226 233
-3.433068 -1.091906 63.985435 235 224 232
-3.440482 -0.956036 64.123634 234 222 230
-3.455409 -0.821355 64.401825 234 221 230
-3.462920 -0.684010 64.541832 235 222 232
-3.462920 -0.544879 64.541832 236 223 234
-3.447929 -0.403993 64.262428 237 224 236
-3.462920 -0.266619 64.541832 236 223 237
-3.462920 -0.127488 64.541832 232 220 237
-3.455409 0.011617 64.401825 227 216 234
-3.462920 0.150773 64.541832 232 223 238
-3.462920 0.289903 64.541832 240 233 244
-3.455409 0.428103 64.401825 231 224 235
-3.447929 0.565704 64.262428 224 216 228
-3.447929 0.704233 64.262428 234 226 235
-3.447929 0.842761 64.262428 237 230 237
-3.455409 0.983418 64.401825 231 225 230
-3.447929 1.119817 64.262428 237 231 234
-3.455409 1.677561 64.401825 227 230 229
-3.447929 1.812458 64.262428 250 251 251
-3.455409 2.094047 64.401825 251 252 252
-3.447929 2.228042 64.262428 252 252 253
-3.425685 2.351302 63.847832 254 254 254
-3.411014 2.478277 63.574394 252 252 254
-3.411014 2.615322 63.574394 252 251 254
-3.418333 2.758274 63.710819 249 247 250
-3.418333 2.895612 63.710819 229 225 228
-3.425685 3.039474 63.847832 211 205 208
-3.411014 3.163502 63.574394 225 221 221
-3.418333 3.307630 63.710819 245 241 240
-3.425685 3.452377 63.847832 246 239 240
-3.418333 3.582308 63.710819 240 231 233
-3.425685 3.727646 63.847832 236 225 230
-3.462920 3.907295 64.541832 233 220 226
-3.470465 4.055241 64.682442 222 205 213
-3.485653 4.213032 64.965523 208 188 197
-3.470465 4.334108 64.682442 204 181 191
-3.462920 4.463816 64.541832 204 179 190
-3.462920 4.602947 64.541832 199 173 184
-3.493297 4.783674 65.107986 194 165 176
-3.508686 4.945717 65.394806 189 160 170
-3.555677 5.154811 66.270630 185 156 165
-3.579648 5.333383 66.717400 181 151 160
-3.612117 5.526883 67.322548 178 149 157
-3.612117 5.672008 67.322548 179 150 158
-3.612117 5.817132 67.322548 180 152 159
-3.620326 5.975808 67.475548 178 151 158
-3.620326 6.121263 67.475548 175 147 155
-3.636857 6.295332 67.783661 169 142 152
-3.687369 6.530915 68.725098 154 129 141
-3.713155 6.725770 69.205696 125 102 114
-3.739304 6.923369 69.693054 93 73 86
-3.748102 7.090248 69.857040 74 56 68
-3.756942 7.257914 70.021797 64 49 60
-3.756942 7.408857 70.021797 59 46 55
-3.765824 7.577672 70.187332 56 44 52
-3.783713 7.765690 70.520767 54 43 49
-3.774747 7.898947 70.353653 52 41 46
-3.783713 8.069728 70.520767 50 40 43
-3.748102 8.144366 69.857040 50 38 42
-3.765824 8.636774 70.187332 50 37 40
-3.739304 8.726187 69.693054 51 37 39
-3.713155 8.814348 69.205696 51 37 38
-3.687369 8.901286 68.725098 51 38 38
-3.704520 9.091524 69.044746 50 38 38
-3.678853 9.176340 68.566376 50 38 38
-3.695924 9.367414 68.884552 50 38 39
-3.695924 9.515906 68.884552 51 37 41
-3.687369 9.642027 68.725098 52 37 42
-3.687369 9.790174 68.725098 52 37 43
-3.695924 9.961382 68.884552 54 39 45
-3.695924 10.109874 68.884552 55 39 44
-3.678853 10.210982 68.566376 52 38 40
-3.670376 10.334921 68.408394 49 36 37
-3.670376 10.482386 68.408394 47 35 34
-3.670376 10.629851 68.408394 45 34 33
-3.661939 10.752542 68.251129 43 34 33
-3.645179 10.849784 67.938766 42 33 33
-3.653540 11.021458 68.094589 40 32 33
-3.645179 11.142690 67.938766 39 31 33
-3.628572 11.237712 67.629250 38 31 33
-3.645179 11.435596 67.938766 39 31 34
-3.653540 11.608613 68.094589 40 31 34
-3.695924 11.891776 68.884552 40 30 33
-3.713155 12.096399 69.205696 39 30 32
-3.721830 12.274195 69.367386 38 30 31
-3.730546 12.452823 69.529839 37 28 30
-3.739304 12.632290 69.693054 37 27 29
-3.756942 12.842819 70.021797 38 27 29
-3.765824 13.024481 70.187332 39 28 30
-3.774747 13.207004 70.353653 41 29 30
-3.774747 13.358663 70.353653 44 31 32
-3.774747 13.510321 70.353653 47 34 35
-3.765824 13.629682 70.187332 49 37 38
-3.756942 13.748480 70.021797 51 39 42
-3.748102 13.866718 69.857040 52 40 45
-3.748102 14.017307 69.857040 52 40 46
-3.756942 14.201310 70.021797 52 40 48
-3.739304 14.284872 69.693054 51 40 49
-3.713155 14.334162 69.205696 51 40 51
-3.704520 14.449664 69.044746 51 41 53
-3.695924 14.564630 68.884552 52 42 56
-3.670376 14.611418 68.408394 53 44 58
-3.653540 14.691182 68.094589 55 46 61
-3.687369 14.975360 68.725098 57 49 63
-3.670376 15.053815 68.408394 58 50 64
-3.687369 15.271656 68.725098 57 49 62
-3.704520 15.491525 69.044746 56 49 60
-3.704520 15.640362 69.044746 54 48 57
-3.687369 15.716101 68.725098 53 47 54
-3.695924 15.901057 68.884552 52 45 51
-3.695924 16.049549 68.884552 50 44 48
-3.687369 16.160545 68.725098 47 41 44
-3.695924 16.346533 68.884552 44 37 39
-3.695924 16.495024 68.884552 40 35 35
-3.661939 16.490473 68.251129 37 32 32
-3.678853 16.714447 68.566376 35 30 30
-3.661939 16.784725 68.251129 33 29 28
-3.628572 16.777575 67.629250 33 29 28
-3.628572 16.923361 67.629250 33 30 29
-3.628572 17.069147 67.629250 32 30 29
-3.603944 17.098089 67.170235 32 30 28
-3.579648 17.126642 66.717400 31 30 28
-3.571622 17.231739 66.567810 30 28 28
-3.579648 17.414282 66.717400 28 27 26
-3.587710 17.597647 66.867661 27 25 25
-3.595809 17.781841 67.018608 27 24 24
-3.595809 17.926310 67.018608 26 23 23
-3.595809 18.070780 67.018608 27 24 24
-3.612117 18.297857 67.322548 28 26 26
-3.612117 18.442984 67.322548 29 27 27
-3.603944 18.546053 67.170235 29 27 28
-3.603944 18.690849 67.170235 28 27 29
-3.628572 18.964363 67.629250 28 27 29
-3.636857 19.153780 67.783661 28 27 29
-3.628572 19.255936 67.629250 28 28 29
-3.620326 19.357626 67.475548 29 29 30
-3.612117 19.458857 67.322548 29 30 31
-3.113938 -12.893370 60.466888 214 203 213
-3.113938 -12.763023 60.466888 214 203 212
-3.107609 -12.607001 60.343987 212 202 209
-3.113938 -12.502331 60.466888 211 200 206
-3.113938 -12.371984 60.466888 211 201 207
-3.120293 -12.266622 60.590290 213 203 209
-3.126673 -12.160828 60.714195 214 205 210
-3.133081 -12.054600 60.838612 214 206 212
-3.139514 -11.947935 60.963535 218 208 216
-3.145974 -11.840833 61.088974 220 212 220
-3.139514 -11.685102 60.963535 223 216 224
-3.152461 -11.601329 61.214931 226 220 229
-3.158974 -11.493067 61.341408 224 220 229
-3.152461 -11.337412 61.214931 217 216 226
-3.152461 -11.205453 61.214931 211 212 224
-3.165514 -11.119347 61.468410 208 212 226
-3.165514 -10.986842 61.468410 205 212 228
-3.185299 -10.922176 61.852589 202 212 228
-3.191949 -10.811366 61.981716 209 218 232
-3.191949 -10.677754 61.981716 228 235 244
-3.205332 -10.588353 62.241596 238 242 248
-3.212066 -10.476144 62.372356 222 231 239
-3.212066 -10.341690 62.372356 209 221 231
-3.212066 -10.207236 62.372356 224 231 238
-3.212066 -10.072783 62.372356 244 247 249
-3.218828 -9.959251 62.503666 239 243 245
-3.212066 -9.803875 62.372356 220 226 230
-3.212066 -9.669421 62.372356 217 223 227
-3.205332 -9.514978 62.241596 227 234 236
-3.205332 -9.380806 62.241596 225 232 234
-3.205332 -9.246634 62.241596 224 231 233
-3.191949 -9.074414 61.981716 238 244 244
-3.191949 -8.940803 61.981716 247 252 252
-3.185299 -8.788843 61.852589 251 253 253
-3.178676 -8.637515 61.723995 247 248 251
-3.172082 -8.486814 61.595940 229 232 241
-3.165514 -8.336739 61.468410 213 217 232
-3.165514 -8.204233 61.468410 221 223 237
-3.165514 -8.071728 61.468410 238 236 248
-3.165514 -7.939223 61.468410 238 235 250
-3.158974 -7.790588 61.341408 228 224 244
-3.158974 -7.658357 61.341408 227 221 242
-3.165514 -7.541707 61.468410 234 228 246
-3.158974 -7.393894 61.341408 241 234 249
-3.172082 -7.291794 61.595940 237 229 246
-3.172082 -7.159014 61.595940 229 221 239
-3.191949 -7.070239 61.981716 221 214 231
-3.212066 -6.980346 62.372356 215 209 225
-3.225619 -6.874777 62.635532 215 210 225
-3.225619 -6.739757 62.635532 214 212 227
-3.232438 -6.618699 62.767956 209 210 225
-3.239287 -6.497128 62.900936 204 208 222
-3.239287 -6.361535 62.900936 204 211 225
-3.239287 -6.225942 62.900936 210 220 234
-3.225619 -6.064651 62.635532 218 229 243
-3.225619 -5.929630 62.635532 214 226 240
-3.212066 -5.770262 62.372356 202 214 226
-3.205332 -5.489821 62.241596 227 233 238
-3.205332 -4.684789 62.241596 196 207 219
-3.218828 -4.569778 62.503666 192 203 218
-3.239287 -4.327637 62.900936 221 227 238
-3.246164 -4.200944 63.034485 234 237 245
-3.246164 -4.065063 63.034485 214 216 228
-3.253071 -3.937541 63.168602 209 210 223
-3.246164 -3.793300 63.034485 233 230 238
-3.246164 -3.657419 63.034485 239 231 239
-3.239287 -3.514077 62.900936 227 213 226
-3.246164 -3.385657 63.034485 227 208 222
-3.246164 -3.249776 63.034485 234 214 226
-3.246164 -3.113895 63.034485 234 214 224
-3.246164 -2.978014 63.034485 225 204 214
-3.253071 -2.848180 63.168602 228 209 219
-3.239287 -2.700518 62.900936 237 220 232
-3.246164 -2.570370 63.034485 230 214 228
-3.253071 -2.439669 63.168602 219 201 218
-3.253071 -2.303499 63.168602 214 195 213
-3.260007 -2.171950 63.303288 217 200 217
-3.260007 -2.035489 63.303288 233 220 233
-3.266973 -1.903087 63.438553 242 233 242
-3.266973 -1.766334 63.438553 232 220 230
-3.273969 -1.633072 63.574394 222 207 218
-3.280994 -1.499237 63.710819 229 214 223
-3.266973 -1.356078 63.438553 234 220 227
-3.280994 -1.224559 63.710819 229 215 222
-3.288050 -1.089558 63.847832 230 216 223
-3.295136 -0.953975 63.985435 236 222 229
-3.316580 -0.821355 64.401825 237 222 231
-3.316580 -0.682526 64.401825 235 221 230
-3.316580 -0.543697 64.401825 235 221 231
-3.309401 -0.403993 64.262428 236 221 233
-3.323790 -0.266619 64.541832 235 221 234
-3.316580 -0.127212 64.401825 232 218 235
-3.316580 0.011617 64.401825 228 216 234
-3.316580 0.150446 64.401825 231 220 237
-3.316580 0.289274 64.401825 232 222 238
-3.316580 0.428103 64.401825 224 215 230
-3.309401 0.565704 64.262428 223 214 228
-3.309401 0.704233 64.262428 232 224 235
-3.316580 0.844589 64.401825 234 227 236
-3.316580 0.983418 64.401825 235 230 236
-3.309401 1.119817 64.262428 244 242 245
-3.302253 1.808543 64.123634 252 253 253
-3.273969 2.341232 63.574394 252 250 252
-3.266973 2.472982 63.438553 252 250 252
-3.273969 2.615322 63.574394 252 249 253
-3.273969 2.752367 63.574394 245 241 246
-3.280994 2.895612 63.710819 223 216 222
-3.288050 3.039474 63.847832 209 201 206
-3.273969 3.163502 63.574394 224 219 221
-3.288050 3.314743 63.847832 240 235 236
-3.288050 3.452377 63.847832 239 233 234
-3.273969 3.574637 63.574394 234 225 228
-3.288050 3.727646 63.847832 228 217 222
-3.316580 3.898819 64.401825 225 212 218
-3.323790 4.046425 64.541832 218 202 210
-3.338304 4.203833 64.823669 210 191 200
-3.323790 4.324686 64.541832 207 186 195
-3.323790 4.463816 64.541832 207 184 194
-3.323790 4.602947 64.541832 205 179 189
-3.345609 4.773207 64.965523 198 170 180
-3.360315 4.934847 65.251083 191 162 171
-3.382618 5.109193 65.684166 185 156 165
-3.405219 5.285870 66.123032 181 151 160
-3.420455 5.452697 66.418884 177 148 156
-3.428124 5.608420 66.567810 177 149 158
-3.435828 5.764844 66.717400 179 152 160
-3.443566 5.921972 66.867661 180 152 161
-3.435828 6.052484 66.717400 178 150 160
-3.443566 6.210260 66.867661 175 147 159
-3.466992 6.397632 67.322548 166 141 153
-3.490738 6.587570 67.783661 144 121 134
-3.522911 6.795750 68.408394 111 90 103
-3.539221 6.975360 68.725098 83 64 77
-3.539221 7.123508 68.725098 66 50 61
-3.539221 7.271656 68.725098 58 45 55
-3.597514 7.542013 69.857040 56 44 52
-3.597514 7.692601 69.857040 54 42 49
-3.605999 7.861688 70.021797 52 41 47
-3.605999 8.012630 70.021797 50 40 44
-3.589069 8.125248 69.693054 50 38 43
-3.614523 8.636774 70.187332 49 36 40
-3.580664 8.705750 69.529839 49 36 39
-3.563971 8.814348 69.205696 50 37 38
-3.547432 8.921939 68.884552 50 37 38
-3.555682 9.091524 69.044746 49 37 38
-3.522911 9.155197 68.408394 49 37 38
-3.547432 9.367414 68.884552 49 37 38
-3.547432 9.515906 68.884552 49 37 39
-3.539221 9.642027 68.725098 50 36 41
-3.531047 9.767565 68.566376 52 37 42
-3.531047 9.915371 68.566376 54 39 44
-3.531047 10.063176 68.566376 54 39 44
-3.522911 10.187455 68.408394 52 38 40
-3.514812 10.311162 68.251129 50 36 38
-3.514812 10.458288 68.251129 49 36 36
-3.514812 10.605415 68.251129 46 35 34
-3.514812 10.752542 68.251129 44 33 32
-3.498726 10.849784 67.938766 42 32 32
-3.498726 10.996237 67.938766 39 30 31
-3.490738 11.117249 67.783661 37 30 31
-3.482787 11.237712 67.629250 37 30 32
-3.506751 11.461824 68.094589 38 30 33
-3.506751 11.608613 68.094589 39 31 33
-3.547432 11.891776 68.884552 39 31 33
-3.563971 12.096399 69.205696 39 31 32
-3.580664 12.302940 69.529839 39 31 32
-3.580664 12.452823 69.529839 38 30 31
-3.597514 12.662013 69.857040 38 29 31
-3.605999 12.842819 70.021797 39 28 31
-3.614523 13.024481 70.187332 40 28 31
-3.623089 13.207004 70.353653 42 29 31
-3.623089 13.358663 70.353653 44 31 32
-3.631695 13.542412 70.520767 46 33 35
-3.614523 13.629682 70.187332 49 36 38
-3.605999 13.748480 70.021797 50 39 42
-3.597514 13.866718 69.857040 51 40 43
-3.589069 13.984403 69.693054 51 40 45
-3.605999 14.201310 70.021797 51 41 47
-3.580664 14.251418 69.529839 51 41 49
-3.563971 14.334162 69.205696 51 41 51
-3.555682 14.449664 69.044746 51 42 53
-3.547432 14.564630 68.884552 52 43 56
-3.514812 14.577828 68.251129 54 45 60
-3.506751 14.691182 68.094589 56 47 64
-3.531047 14.940775 68.566376 59 50 68
-3.514812 15.019208 68.251129 60 51 68
-3.531047 15.236386 68.566376 59 50 66
-3.555682 15.491525 69.044746 58 49 64
-3.547432 15.604073 68.884552 57 49 61
-3.531047 15.679805 68.566376 55 47 57
-3.539221 15.864249 68.725098 53 46 53
-3.531047 15.975417 68.566376 50 43 49
-3.531047 16.123222 68.566376 47 41 45
-3.539221 16.308693 68.725098 45 39 41
-3.539221 16.456841 68.725098 42 36 37
-3.514812 16.490473 68.251129 39 33 34
-3.514812 16.637598 68.251129 37 31 32
-3.506751 16.746227 68.094589 35 30 30
-3.474871 16.739445 67.475548 34 30 29
-3.474871 16.884899 67.475548 33 30 29
-3.474871 17.030354 67.475548 32 30 29
-3.459148 17.098089 67.170235 32 30 28
-3.435828 17.126642 66.717400 30 29 28
-3.428124 17.231739 66.567810 29 27 27
-3.435828 17.414282 66.717400 28 26 26
-3.435828 17.558102 66.717400 26 24 24
-3.451339 17.781841 67.018608 26 24 24
-3.451339 17.926310 67.018608 25 23 23
-3.459148 18.111664 67.170235 27 24 25
-3.466992 18.297857 67.322548 28 26 27
-3.466992 18.442984 67.322548 30 28 28
-3.459148 18.546053 67.170235 30 28 29
-3.459148 18.690849 67.170235 29 28 30
-3.474871 18.921263 67.475548 28 28 30
-3.482787 19.110149 67.629250 28 28 30
-3.474871 19.212172 67.475548 29 29 30
-3.466992 19.313732 67.322548 30 30 31
-3.459148 19.414831 67.170235 30 31 32
-3.451339 19.515474 67.018608 30 31 32
-2.989680 -12.919683 60.590290 215 205 216
-2.983591 -12.763023 60.466888 214 205 214
-2.983591 -12.632677 60.466888 210 201 209
-2.989680 -12.527846 60.590290 207 198 204
-2.983591 -12.371984 60.466888 209 200 207
-2.989680 -12.266622 60.590290 214 206 213
-2.995794 -12.160828 60.714195 216 207 214
-3.008097 -12.079352 60.963535 214 206 213
-3.014287 -11.972520 61.088974 216 209 217
-3.014287 -11.840833 61.088974 217 212 221
-3.008097 -11.685102 60.963535 219 216 224
-3.020502 -11.601329 61.214931 220 219 228
-3.026742 -11.493067 61.341408 216 218 229
-3.020502 -11.337412 61.214931 211 216 228
-3.020502 -11.205453 61.214931 206 214 228
-3.039302 -11.142416 61.595940 200 208 225
-3.039302 -11.009636 61.595940 199 208 226
-3.058337 -10.944978 61.981716 211 218 235
-3.058337 -10.811366 61.981716 228 232 244
-3.058337 -10.677754 61.981716 243 245 251
-3.077612 -10.610598 62.372356 247 249 253
-3.077612 -10.476144 62.372356 233 240 249
-3.077612 -10.341690 62.372356 219 228 242
-3.077612 -10.207236 62.372356 227 233 244
-3.077612 -10.072783 62.372356 244 247 251
-3.077612 -9.938329 62.372356 247 250 252
-3.077612 -9.803875 62.372356 237 243 247
-3.071160 -9.649150 62.241596 233 239 245
-3.071160 -9.514978 62.241596 231 238 243
-3.064735 -9.361181 62.111385 223 232 236
-3.064735 -9.227290 62.111385 226 235 237
-3.058337 -9.074414 61.981716 243 248 248
-3.058337 -8.940803 61.981716 253 254 254
-3.051965 -8.788843 61.852589 253 253 254
-3.045620 -8.637515 61.723995 244 246 249
-3.039302 -8.486814 61.595940 223 227 236
-3.033009 -8.336739 61.468410 210 214 227
-3.033009 -8.204233 61.468410 219 221 234
-3.033009 -8.071728 61.468410 233 234 244
-3.033009 -7.939223 61.468410 234 232 244
-3.026742 -7.790588 61.341408 228 225 239
-3.026742 -7.658357 61.341408 231 226 241
-3.026742 -7.526125 61.341408 239 233 247
-3.026742 -7.393894 61.341408 241 235 248
-3.033009 -7.276697 61.468410 237 230 246
-3.039302 -7.159014 61.595940 232 224 241
-3.058337 -7.070239 61.981716 223 215 232
-3.077612 -6.980346 62.372356 216 209 226
-3.090598 -6.874777 62.635532 214 209 226
-3.090598 -6.739757 62.635532 213 211 227
-3.097132 -6.618699 62.767956 205 206 221
-3.103693 -6.497128 62.900936 197 201 216
-3.110283 -6.375041 63.034485 200 207 221
-3.103693 -6.225942 62.900936 213 222 238
-3.090598 -6.064651 62.635532 219 230 246
-3.090598 -5.929630 62.635532 209 221 236
-3.084091 -5.782410 62.503666 193 206 219
-3.077612 -5.635808 62.372356 202 212 221
-3.071160 -5.489821 62.241596 232 239 242
-3.064735 -4.674989 62.111385 202 210 223
-3.077612 -4.560178 62.372356 196 205 221
-3.084091 -4.435041 62.503666 198 206 223
-3.097132 -4.318487 62.767956 226 230 242
-3.103693 -4.192043 62.900936 245 247 252
-3.103693 -3.649671 62.900936 236 225 235
-3.103693 -3.514077 62.900936 225 208 221
-3.110283 -3.385657 63.034485 219 198 211
-3.110283 -3.249776 63.034485 229 207 217
-3.110283 -3.113895 63.034485 233 210 220
-3.110283 -2.978014 63.034485 225 204 214
-3.110283 -2.842133 63.034485 224 203 214
-3.103693 -2.700518 62.900936 227 207 219
-3.110283 -2.570370 63.034485 226 205 219
-3.116901 -2.439669 63.168602 222 202 217
-3.116901 -2.303499 63.168602 219 199 215
-3.116901 -2.167329 63.168602 220 200 216
-3.123547 -2.035489 63.303288 233 217 230
-3.123547 -1.899029 63.303288 242 231 239
-3.123547 -1.762568 63.303288 232 219 227
-3.136924 -1.633072 63.574394 226 211 219
-3.136924 -1.496027 63.574394 237 225 231
-3.130221 -1.356078 63.438553 239 228 232
-3.136924 -1.221937 63.574394 227 213 218
-3.136924 -1.084892 63.574394 226 211 216
-3.150416 -0.951924 63.847832 235 220 225
-3.164025 -0.817807 64.123634 236 222 228
-3.170873 -0.681049 64.262428 235 221 227
-3.170873 -0.542521 64.262428 235 220 229
-3.164025 -0.403120 64.123634 235 221 232
-3.177751 -0.266040 64.401825 235 221 233
-3.177751 -0.127212 64.401825 232 218 233
-3.177751 0.011617 64.401825 229 216 233
-3.177751 0.150446 64.401825 229 217 235
-3.177751 0.289274 64.401825 222 213 230
-3.177751 0.428103 64.401825 211 203 220
-3.177751 0.566932 64.401825 219 214 227
-3.177751 0.705760 64.401825 236 232 241
-3.177751 0.844589 64.401825 240 236 245
-3.184659 0.985555 64.541832 243 239 247
-3.170873 1.119817 64.262428 244 242 246
-3.170873 1.258345 64.262428 231 230 234
-3.164025 1.393856 64.123634 203 202 205
-3.170873 1.673930 64.262428 229 229 230
-3.136924 2.341232 63.574394 247 242 246
-3.130221 2.472982 63.438553 247 242 246
-3.136924 2.615322 63.574394 251 246 251
-3.136924 2.752367 63.574394 247 241 247
-3.143655 2.895612 63.710819 227 219 226
-3.150416 3.039474 63.847832 212 204 211
-3.143655 3.170291 63.710819 221 213 219
-3.150416 3.314743 63.847832 231 223 227
-3.157206 3.459818 63.985435 228 220 224
-3.143655 3.582308 63.710819 222 213 217
-3.157206 3.735680 63.985435 218 207 212
-3.177751 3.898819 64.401825 214 202 207
-3.184659 4.046425 64.541832 210 195 201
-3.198566 4.203833 64.823669 210 193 201
-3.184659 4.324686 64.541832 214 194 202
-3.177751 4.454134 64.401825 216 193 202
-3.184659 4.602947 64.541832 212 187 197
-3.198566 4.762785 64.823669 201 175 184
-3.212595 4.924025 65.107986 190 163 171
-3.226748 5.086686 65.394806 185 157 165
-3.248211 5.262429 65.829803 181 152 160
-3.248211 5.404336 65.829803 178 149 157
-3.248211 5.546243 65.829803 178 150 158
-3.262680 5.713487 66.123032 180 153 162
-3.277278 5.882227 66.418884 181 154 163
-3.277278 6.025403 66.418884 178 150 161
-3.284626 6.182411 66.567810 174 147 159
-3.292007 6.340125 66.717400 170 144 157
-3.306870 6.513218 67.018608 158 133 147
-3.314352 6.672750 67.170235 132 108 123
-3.321867 6.833005 67.322548 98 77 91
-3.329417 6.993989 67.475548 72 54 66
-3.329417 7.139444 67.475548 60 45 56
-3.344620 7.318163 67.783661 56 43 53
-3.375446 7.533077 68.408394 54 42 50
-3.383241 7.698280 68.566376 52 41 48
-3.414786 7.919243 69.205696 50 40 46
-3.414786 8.068428 69.205696 49 39 44
-3.438834 8.275482 69.693054 49 38 42
-3.438834 8.425717 69.693054 48 37 41
-3.446926 8.596130 69.857040 48 36 40
-3.422765 8.685410 69.367386 49 36 39
-3.414786 8.814348 69.205696 49 36 38
-3.414786 8.963532 69.205696 50 37 39
-3.414786 9.112717 69.205696 49 36 38
-3.383241 9.176340 68.566376 48 36 38
-3.398941 9.367414 68.884552 48 36 38
-3.398941 9.515906 68.884552 48 36 38
-3.391073 9.642027 68.725098 49 36 40
-3.383241 9.767565 68.566376 51 37 41
-3.375446 9.892524 68.408394 53 39 43
-3.375446 10.039989 68.408394 54 39 43
-3.367686 10.164036 68.251129 52 38 41
-3.367686 10.311162 68.251129 50 37 39
-3.367686 10.458288 68.251129 49 37 37
-3.375446 10.629851 68.408394 47 35 35
-3.367686 10.752542 68.251129 44 33 33
-3.359962 10.874668 68.094589 41 31 31
-3.352273 10.996237 67.938766 38 29 30
-3.344620 11.117249 67.783661 36 29 29
-3.337001 11.237712 67.629250 36 29 31
-3.367686 11.488173 68.251129 37 30 32
-3.375446 11.662109 68.408394 38 31 33
-3.398941 11.891776 68.884552 39 32 33
-3.422765 12.124662 69.367386 39 32 32
-3.430781 12.302940 69.529839 39 32 32
-3.438834 12.482055 69.693054 39 31 32
-3.446926 12.662013 69.857040 39 30 32
-3.455055 12.842819 70.021797 39 30 32
-3.463223 13.024481 70.187332 41 30 32
-3.471430 13.207004 70.353653 43 29 32
-3.471430 13.358663 70.353653 45 30 32
-3.479676 13.542412 70.520767 46 33 35
-3.463223 13.629682 70.187332 48 35 38
-3.455055 13.748480 70.021797 50 37 40
-3.446926 13.866718 69.857040 51 39 41
-3.438834 13.984403 69.693054 51 40 43
-3.446926 14.167895 69.857040 51 41 45
-3.430781 14.251418 69.529839 51 41 47
-3.414786 14.334162 69.205696 50 41 49
-3.406845 14.449664 69.044746 51 42 52
-3.398941 14.564630 68.884552 52 43 56
-3.367686 14.577828 68.251129 55 46 61
-3.359962 14.691182 68.094589 59 49 66
-3.367686 14.872082 68.251129 61 52 70
-3.359962 14.984760 68.094589 61 52 71
-3.375446 15.201280 68.408394 60 50 69
-3.391073 15.419805 68.725098 60 50 67
-3.383241 15.531999 68.566376 59 49 65
-3.367686 15.607714 68.251129 56 49 60
-3.367686 15.754840 68.251129 53 46 55
-3.375446 15.938607 68.408394 51 44 51
-3.367686 16.049093 68.251129 48 42 47
-3.383241 16.271029 68.566376 46 39 42
-3.383241 16.418835 68.566376 43 36 38
-3.359962 16.452650 68.094589 40 33 35
-3.359962 16.599440 68.094589 38 31 32
-3.344620 16.669762 67.783661 36 30 31
-3.329417 16.739445 67.475548 35 30 30
-3.337001 16.923361 67.629250 34 30 29
-3.321867 16.991735 67.322548 32 30 28
-3.314352 17.098089 67.170235 31 29 28
-3.299422 17.165215 66.867661 30 28 27
-3.292007 17.270462 66.717400 29 27 27
-3.284626 17.375237 66.567810 27 25 25
-3.299422 17.597647 66.867661 26 24 24
-3.306870 17.781841 67.018608 26 23 23
-3.306870 17.926310 67.018608 26 23 24
-3.314352 18.111664 67.170235 27 24 25
-3.321867 18.297857 67.322548 29 27 28
-3.314352 18.401257 67.170235 30 28 29
-3.314352 18.546053 67.170235 30 28 29
-3.314352 18.690849 67.170235 30 28 30
-3.329417 18.921263 67.475548 29 28 31
-3.337001 19.110149 67.629250 29 28 31
-3.329417 19.212172 67.475548 31 31 32
-3.321867 19.313732 67.322548 33 33 34
-3.314352 19.414831 67.170235 33 34 33
-3.306870 19.515474 67.018608 32 32 33
-2.864915 -12.946103 60.714195 214 205 217
-2.864915 -12.815224 60.714195 213 205 215
-2.859068 -12.658458 60.590290 210 202 211
-2.859068 -12.527846 60.590290 208 200 208
-2.859068 -12.397234 60.590290 211 204 211
-2.864915 -12.291707 60.714195 217 210 218
-2.864915 -12.160828 60.714195 217 210 219
-2.876680 -12.079352 60.963535 214 207 216
-2.882600 -11.972520 61.088974 215 211 220
-2.888543 -11.865247 61.214931 217 214 224
-2.882600 -11.709146 61.088974 217 217 227
-2.888543 -11.601329 61.214931 216 219 230
-2.894511 -11.493067 61.341408 210 217 230
-2.888543 -11.337412 61.214931 205 216 231
-2.888543 -11.205453 61.214931 206 218 235
-2.906522 -11.142416 61.595940 202 214 234
-2.906522 -11.009636 61.595940 205 215 234
-2.924725 -10.944978 61.981716 224 229 243
-2.930844 -10.833984 62.111385 243 243 252
-2.924725 -10.677754 61.981716 251 249 254
-2.943158 -10.610598 62.372356 248 248 254
-2.943158 -10.476144 62.372356 235 239 251
-2.943158 -10.341690 62.372356 224 231 248
-2.943158 -10.207236 62.372356 230 237 249
-2.943158 -10.072783 62.372356 245 249 253
-2.943158 -9.938329 62.372356 249 251 254
-2.943158 -9.803875 62.372356 238 241 249
-2.936988 -9.649150 62.241596 227 232 243
-2.936988 -9.514978 62.241596 223 230 241
-2.930844 -9.361181 62.111385 227 234 242
-2.930844 -9.227290 62.111385 238 243 247
-2.918632 -9.055510 61.852589 247 251 252
-2.918632 -8.922176 61.852589 251 254 254
-2.912564 -8.770571 61.723995 251 252 254
-2.912564 -8.637515 61.723995 242 244 248
-2.900504 -8.469243 61.468410 222 226 233
-2.900504 -8.336739 61.468410 211 213 223
-2.894511 -8.187283 61.341408 218 220 230
-2.900504 -8.071728 61.468410 231 232 240
-2.900504 -7.939223 61.468410 232 231 240
-2.894511 -7.790588 61.341408 225 222 231
-2.894511 -7.658357 61.341408 229 226 235
-2.894511 -7.526125 61.341408 242 238 246
-2.894511 -7.393894 61.341408 241 236 246
-2.900504 -7.276697 61.468410 234 227 240
-2.906522 -7.159014 61.595940 230 222 237
-2.930844 -7.085031 62.111385 223 215 232
-2.943158 -6.980346 62.372356 217 210 227
-2.955577 -6.874777 62.635532 215 209 226
-2.955577 -6.739757 62.635532 213 210 226
-2.968100 -6.632721 62.900936 203 202 218
-2.968100 -6.497128 62.900936 193 195 210
-2.974402 -6.375041 63.034485 200 205 220
-2.968100 -6.225942 62.900936 217 225 240
-2.955577 -6.064651 62.635532 222 231 246
-2.955577 -5.929630 62.635532 207 218 232
-2.949354 -5.782410 62.503666 188 199 212
-2.943158 -5.635808 62.372356 193 204 213
-2.936988 -5.489821 62.241596 227 234 238
-2.924725 -5.333287 61.981716 249 252 253
-2.924725 -5.199676 61.981716 244 245 247
-2.918632 -5.055510 61.852589 214 217 223
-2.918632 -4.788843 61.852589 189 195 206
-2.924725 -4.665229 61.981716 205 210 224
-2.936988 -4.550618 62.241596 202 207 224
-2.943158 -4.425724 62.372356 204 207 225
-2.955577 -4.309377 62.635532 228 229 241
-2.961825 -4.183181 62.767956 249 249 253
-2.961825 -3.641955 62.767956 233 221 231
-2.961825 -3.506648 62.767956 230 214 224
-2.968100 -3.378484 62.900936 218 198 207
-2.974402 -3.249776 63.034485 223 201 209
-2.974402 -3.113895 63.034485 228 206 214
-2.974402 -2.978014 63.034485 224 202 211
-2.974402 -2.842133 63.034485 223 201 211
-2.968100 -2.700518 62.900936 225 203 215
-2.968100 -2.564925 62.900936 225 204 217
-2.974402 -2.434489 63.034485 224 204 218
-2.974402 -2.298608 63.034485 222 203 217
-2.980731 -2.167329 63.168602 223 204 218
-2.980731 -2.031159 63.168602 234 217 229
-2.987086 -1.899029 63.303288 243 229 239
-2.987086 -1.762568 63.303288 236 221 229
-2.993469 -1.629582 63.438553 233 216 223
-2.993469 -1.492830 63.438553 241 228 233
-2.987086 -1.353187 63.303288 242 229 233
-2.993469 -1.219326 63.438553 231 216 220
-2.993469 -1.082574 63.438553 229 214 218
-3.012781 -0.951924 63.847832 233 219 223
-3.019274 -0.816044 63.985435 234 220 225
-3.025796 -0.679578 64.123634 232 218 224
-3.025796 -0.541349 64.123634 231 217 223
-3.025796 -0.403120 64.123634 233 219 227
-3.032345 -0.265464 64.262428 236 221 232
-3.038923 -0.127212 64.401825 233 219 232
-3.032345 0.011592 64.262428 230 217 232
-3.032345 0.150120 64.262428 229 217 233
-3.032345 0.288648 64.262428 217 209 226
-3.032345 0.427176 64.262428 207 200 217
-3.032345 0.565704 64.262428 222 217 231
-3.038923 0.705760 64.401825 242 239 248
-3.045529 0.846425 64.541832 245 241 251
-3.045529 0.985555 64.541832 248 245 252
-3.032345 1.119817 64.262428 237 236 239
-3.032345 1.258345 64.262428 212 210 216
-3.019274 1.390852 63.985435 195 194 201
-3.032345 1.673930 64.262428 231 230 233
-3.006316 2.208917 63.710819 245 241 244
-2.993469 2.472982 63.438553 245 240 243
-2.999879 2.615322 63.574394 251 248 251
-3.006316 2.758274 63.710819 248 243 248
-3.012781 2.901840 63.847832 229 220 229
-3.019274 3.046025 63.985435 211 202 211
-3.006316 3.170291 63.710819 217 207 215
-3.019274 3.321887 63.985435 225 215 222
-3.019274 3.459818 63.985435 221 212 217
-3.006316 3.582308 63.710819 215 206 211
-3.019274 3.735680 63.985435 211 200 205
-3.038923 3.898819 64.401825 205 193 199
-3.038923 4.037647 64.401825 202 188 194
-3.052164 4.194674 64.682442 207 192 199
-3.045529 4.324686 64.541832 216 198 206
-3.045529 4.463816 64.541832 222 201 209
-3.052164 4.612975 64.682442 218 195 203
-3.058828 4.762785 64.823669 204 178 187
-3.072244 4.924025 65.107986 192 165 173
-3.085778 5.086686 65.394806 187 159 167
-3.106305 5.262429 65.829803 182 154 162
-3.113208 5.416346 65.976097 178 150 158
-3.113208 5.558568 65.976097 176 150 158
-3.120141 5.713487 66.123032 177 151 159
-3.141129 5.895416 66.567810 178 152 161
-3.141129 6.038914 66.567810 176 150 160
-3.141129 6.182411 66.567810 174 147 158
-3.148187 6.340125 66.717400 172 145 158
-3.155278 6.498549 66.867661 167 141 155
-3.162400 6.657687 67.018608 150 126 140
-3.169555 6.817546 67.170235 118 96 109
-3.176742 6.978130 67.322548 83 64 77
-3.176742 7.123255 67.322548 63 48 59
-3.183962 7.284899 67.475548 57 44 54
-3.213173 7.498522 68.094589 54 43 52
-3.198501 7.610401 67.783661 52 42 50
-3.227980 7.828008 68.408394 51 41 47
-3.250449 8.030987 68.884552 50 40 45
-3.280898 8.256102 69.529839 49 39 43
-3.280898 8.405985 69.529839 48 38 42
-3.288599 8.575952 69.693054 48 37 41
-3.280898 8.705750 69.529839 48 36 40
-3.273232 8.834943 69.367386 49 36 39
-3.273232 8.984475 69.367386 49 36 39
-3.273232 9.134008 69.367386 49 36 39
-3.242924 9.197582 68.725098 48 35 38
-3.250449 9.367414 68.884552 47 35 37
-3.250449 9.515906 68.884552 47 35 38
-3.250449 9.664398 68.884552 48 36 39
-3.242924 9.790174 68.725098 50 37 40
-3.227980 9.892524 68.408394 52 39 42
-3.227980 10.039989 68.408394 52 39 42
-3.227980 10.187455 68.408394 50 38 40
-3.220559 10.311162 68.251129 49 37 39
-3.227980 10.482386 68.408394 48 36 38
-3.235435 10.654401 68.566376 45 35 35
-3.235435 10.802207 68.566376 42 33 33
-3.220559 10.899668 68.251129 39 31 31
-3.213173 11.021458 68.094589 37 29 29
-3.198501 11.117249 67.783661 35 28 29
-3.191215 11.237712 67.629250 35 29 30
-3.227980 11.514644 68.408394 36 31 31
-3.242924 11.716101 68.725098 37 31 32
-3.258008 11.919432 69.044746 38 32 32
-3.273232 12.124662 69.367386 38 32 32
-3.273232 12.274195 69.367386 39 32 33
-3.273232 12.423728 69.367386 39 31 33
-3.288599 12.632290 69.693054 40 31 33
-3.296337 12.812601 69.857040 41 31 33
-3.304112 12.993763 70.021797 42 30 33
-3.319771 13.207004 70.353653 43 30 32
-3.319771 13.358663 70.353653 45 30 32
-3.319771 13.510321 70.353653 47 32 34
-3.304112 13.597536 70.021797 48 34 37
-3.304112 13.748480 70.021797 49 36 39
-3.288599 13.834167 69.693054 51 38 41
-3.280898 13.951653 69.529839 51 40 42
-3.288599 14.134637 69.693054 52 40 43
-3.280898 14.251418 69.529839 51 40 45
-3.265602 14.334162 69.205696 51 40 47
-3.258008 14.449664 69.044746 51 41 50
-3.250449 14.564630 68.884552 53 44 55
-3.220559 14.577828 68.251129 57 47 61
-3.205820 14.657564 67.938766 61 50 67
-3.220559 14.872082 68.251129 63 52 71
-3.213173 14.984760 68.094589 62 52 71
-3.220559 15.166334 68.251129 62 51 70
-3.227980 15.348745 68.408394 61 50 69
-3.220559 15.460588 68.251129 60 49 66
-3.213173 15.571917 68.094589 57 48 61
-3.205820 15.682735 67.938766 54 47 57
-3.205820 15.829188 67.938766 52 45 52
-3.205820 15.975642 67.938766 49 43 47
-3.220559 16.196220 68.251129 46 39 43
-3.220559 16.343346 68.251129 43 36 38
-3.205820 16.415001 67.938766 40 33 35
-3.205820 16.561455 67.938766 38 31 32
-3.191215 16.631790 67.629250 36 30 31
-3.183962 16.739445 67.475548 35 30 30
-3.191215 16.923361 67.629250 34 30 29
-3.176742 16.991735 67.322548 32 29 28
-3.176742 17.136860 67.322548 31 28 27
-3.162400 17.203962 67.018608 30 27 27
-3.155278 17.309359 66.867661 28 26 26
-3.148187 17.414282 66.717400 27 25 24
-3.155278 17.597647 66.867661 26 24 24
-3.169555 17.822071 67.170235 26 23 23
-3.169555 17.966867 67.170235 27 23 24
-3.176742 18.152733 67.322548 28 25 26
-3.176742 18.297857 67.322548 30 26 27
-3.176742 18.442984 67.322548 30 27 29
-3.169555 18.546053 67.170235 31 27 29
-3.176742 18.733232 67.322548 31 28 30
-3.183962 18.921263 67.475548 30 28 31
-3.191215 19.110149 67.629250 32 29 32
-3.183962 19.212172 67.475548 34 33 34
-3.176742 19.313732 67.322548 37 35 36
-3.162400 19.371006 67.018608 36 36 35
-3.155278 19.471521 66.867661 34 34 34
-2.734035 -13.076982 60.714195 213 205 219
-2.734035 -12.946103 60.714195 212 204 217
-2.734035 -12.815224 60.714195 212 204 215
-2.728456 -12.658458 60.590290 213 206 215
-2.734035 -12.553465 60.714195 214 207 216
-2.728456 -12.397234 60.590290 215 209 218
-2.734035 -12.291707 60.714195 218 212 221
-2.734035 -12.160828 60.714195 217 211 221
-2.745264 -12.079352 60.963535 214 209 219
-2.745264 -11.947935 60.963535 217 214 225
-2.750912 -11.840833 61.088974 220 219 231
-2.750912 -11.709146 61.088974 219 222 234
-2.750912 -11.577457 61.088974 213 220 234
-2.756584 -11.469370 61.214931 204 215 231
-2.750912 -11.314083 61.088974 200 215 233
-2.750912 -11.182396 61.088974 209 223 241
-2.767999 -11.119347 61.468410 217 229 247
-2.767999 -10.986842 61.468410 221 230 247
-2.779508 -10.899468 61.723995 231 237 250
-2.785299 -10.788843 61.852589 245 246 254
-2.791113 -10.677754 61.981716 250 248 254
-2.802816 -10.588353 62.241596 243 241 251
-2.808705 -10.476144 62.372356 229 230 246
-2.802816 -10.320009 62.241596 226 228 246
-2.802816 -10.185838 62.241596 237 241 251
-2.808705 -10.072783 62.372356 248 250 253
-2.808705 -9.938329 62.372356 244 245 251
-2.802816 -9.783322 62.241596 226 230 244
-2.802816 -9.649150 62.241596 208 214 234
-2.802816 -9.514978 62.241596 207 213 232
-2.796953 -9.361181 62.111385 225 230 241
-2.791113 -9.208026 61.981716 244 247 250
-2.785299 -9.055510 61.852589 246 249 252
-2.785299 -8.922176 61.852589 243 247 251
-2.779508 -8.770571 61.723995 245 246 249
-2.779508 -8.637515 61.723995 238 239 242
-2.767999 -8.469243 61.468410 223 224 229
-2.767999 -8.336739 61.468410 215 216 222
-2.762280 -8.187283 61.341408 222 221 228
-2.767999 -8.071728 61.468410 233 233 238
-2.767999 -7.939223 61.468410 235 233 237
-2.762280 -7.790588 61.341408 225 222 227
-2.762280 -7.658357 61.341408 227 224 228
-2.762280 -7.526125 61.341408 239 236 240
-2.762280 -7.393894 61.341408 238 233 240
-2.773741 -7.291794 61.595940 230 224 234
-2.773741 -7.159014 61.595940 227 220 233
-2.796953 -7.085031 62.111385 223 216 231
-2.808705 -6.980346 62.372356 218 211 227
-2.820556 -6.874777 62.635532 215 210 226
-2.820556 -6.739757 62.635532 213 208 224
-2.826519 -6.618699 62.767956 202 200 216
-2.832507 -6.497128 62.900936 193 193 208
-2.838521 -6.375041 63.034485 201 204 219
-2.832507 -6.225942 62.900936 220 226 240
-2.820556 -6.064651 62.635532 223 231 245
-2.820556 -5.929630 62.635532 209 218 232
-2.808705 -5.770262 62.372356 190 199 212
-2.808705 -5.635808 62.372356 187 197 207
-2.802816 -5.489821 62.241596 216 223 229
-2.785299 -5.322176 61.852589 245 247 249
-2.791113 -5.199676 61.981716 244 245 247
-2.785299 -5.055510 61.852589 213 216 221
-2.791113 -4.932452 61.981716 182 186 196
-2.785299 -4.788843 61.852589 188 192 204
-2.791113 -4.665229 61.981716 209 211 224
-2.796953 -4.541097 62.111385 209 210 224
-2.796953 -4.407206 62.111385 206 206 219
-2.814618 -4.300304 62.503666 223 221 231
-2.814618 -4.165567 62.503666 245 243 247
-2.820556 -4.039334 62.635532 246 243 244
-2.820556 -3.634271 62.635532 234 225 229
-2.820556 -3.499250 62.635532 238 226 230
-2.826519 -3.371341 62.767956 226 208 213
-2.832507 -3.242891 62.900936 221 201 205
-2.832507 -3.107298 62.900936 220 200 205
-2.832507 -2.971704 62.900936 220 199 206
-2.832507 -2.836111 62.900936 223 201 210
-2.832507 -2.700518 62.900936 227 205 216
-2.826519 -2.559502 62.767956 227 206 218
-2.832507 -2.429332 62.900936 225 205 217
-2.832507 -2.293738 62.900936 226 206 219
-2.838521 -2.162727 63.034485 229 210 222
-2.838521 -2.026846 63.034485 237 219 230
-2.844560 -1.894988 63.168602 244 228 238
-2.844560 -1.758818 63.168602 243 226 234
-2.844560 -1.622648 63.168602 238 220 226
-2.844560 -1.486478 63.168602 239 221 227
-2.844560 -1.350307 63.168602 238 221 226
-2.844560 -1.214137 63.168602 235 219 223
-2.850626 -1.080266 63.303288 235 219 224
-2.862834 -0.947847 63.574394 235 220 225
-2.875147 -0.814289 63.847832 234 219 224
-2.875147 -0.676655 63.847832 230 215 221
-2.881343 -0.540182 63.985435 225 210 216
-2.875147 -0.401386 63.847832 226 211 220
-2.893817 -0.265464 64.262428 234 219 228
-2.893817 -0.126936 64.262428 234 220 231
-2.887567 0.011567 64.123634 232 219 232
-2.881343 0.149473 63.985435 229 218 232
-2.881343 0.287404 63.985435 217 209 224
-2.881343 0.425335 63.985435 208 202 219
-2.881343 0.563266 63.985435 224 219 234
-2.887567 0.702712 64.123634 239 235 248
-2.900094 0.844589 64.401825 244 240 251
-2.900094 0.983418 64.401825 250 248 253
-2.887567 1.117398 64.123634 233 232 235
-2.887567 1.255627 64.123634 199 196 204
-2.875147 1.387861 63.847832 195 192 203
-2.868977 1.522222 63.710819 209 205 217
-2.881343 1.666714 63.985435 230 227 234
-2.881343 2.080508 63.985435 250 247 250
-2.862834 2.204187 63.574394 244 238 245
-2.856717 2.472982 63.438553 246 244 246
-2.856717 2.609734 63.438553 252 251 252
