ply
format ascii 1.0
element vertex 1179
property float x
property float y
property float z
property uchar red
property uchar green
property uchar blue
end_header
7.313878 2.949850 47.051098 254 237 247
7.325487 3.056120 47.125782 254 235 246
7.313878 3.456982 47.051098 254 250 253
7.313878 3.558408 47.051098 254 243 250
7.313878 3.659834 47.051098 254 237 246
7.290769 3.951588 46.902435 254 247 253
7.290769 4.052694 46.902435 254 248 253
7.290769 4.153800 46.902435 254 249 252
7.313878 4.268392 47.051098 254 250 253
7.302305 4.362904 46.976650 254 251 254
7.279269 4.450088 46.828457 254 252 254
8.562257 7.846671 55.082081 253 254 254
8.330427 7.749739 53.590691 254 254 254
8.110820 7.657918 52.177929 254 254 254
7.848736 7.519312 50.491909 254 254 254
7.590554 7.377229 48.830990 254 254 254
7.395924 7.290634 47.578915 254 254 254
7.233631 7.230965 46.534863 254 254 254
7.122001 7.218141 45.816730 254 254 254
7.035147 7.227676 45.257992 254 254 254
6.436620 6.880551 41.407589 254 254 254
6.304722 6.826988 40.559074 254 254 254
6.040650 6.708580 38.860264 253 253 253
5.939584 6.678707 38.210094 253 253 253
5.587235 6.514958 35.943394 254 254 254
7.078308 10.903919 45.535648 254 234 248
7.067468 10.985230 45.465916 254 234 249
7.056662 11.066293 45.396397 254 234 248
7.067468 11.181249 45.465916 254 235 248
7.067468 11.279258 45.465916 254 240 250
7.089180 11.412220 45.605595 254 243 250
7.089180 11.510530 45.605595 254 236 245
7.078308 11.591036 45.535648 254 229 241
7.078308 11.689196 45.535648 255 227 240
7.045888 11.733367 45.327087 254 227 241
7.337133 12.828864 47.200703 251 216 230
7.372295 12.992580 47.426903 252 216 230
7.443640 13.221541 47.885876 251 217 230
7.431653 13.303310 47.808765 250 214 227
7.372295 13.299290 47.426903 247 211 224
7.302305 13.274297 46.976650 245 208 222
7.166237 13.225707 46.101307 242 205 220
7.078308 13.161588 45.535648 242 204 219
7.003121 13.118900 45.051960 240 203 218
6.992510 13.195993 44.983700 237 200 215
7.045888 13.394436 45.327087 235 197 212
7.035147 13.471579 45.257992 231 193 208
7.056662 13.610635 45.396397 227 190 205
7.078308 13.750546 45.535648 224 188 203
7.067468 13.827497 45.465916 221 185 200
7.045888 13.882985 45.327087 217 180 196
7.056662 14.002072 45.396397 213 177 193
7.078308 16.008213 45.535648 201 153 167
7.024439 15.983798 45.189106 201 152 164
7.013764 16.056770 45.120430 201 151 159
7.024439 16.178623 45.189106 202 150 156
7.024439 16.276035 45.189106 208 153 155
7.013764 16.348564 45.120430 221 167 168
7.003121 16.420874 45.051960 235 184 184
6.992510 16.492962 44.983700 244 193 194
7.003121 16.615107 45.051960 245 187 189
7.013764 16.737623 45.120430 233 166 172
7.003121 16.809341 45.051960 209 137 147
7.024439 16.957924 45.189106 188 114 128
7.056662 17.133572 45.396397 176 104 120
7.056662 17.231430 45.396397 170 102 121
7.056662 17.329290 45.396397 168 104 124
7.056662 17.427149 45.396397 165 107 127
7.510524 -0.299590 47.655285 255 159 174
7.474531 -0.195918 47.426903 254 171 185
7.462610 -0.093532 47.351265 254 170 186
7.438882 0.008514 47.200703 254 160 177
7.427074 0.110088 47.125782 254 157 175
7.427074 0.211675 47.125782 254 163 182
7.415304 0.312766 47.051098 254 171 191
7.403571 0.413537 46.976650 254 175 197
7.391875 0.513990 46.902435 250 167 192
7.380216 0.614125 46.828457 245 156 181
7.391875 0.716201 46.902435 245 165 189
7.380216 0.816018 46.828457 252 185 208
7.380216 0.916964 46.828457 254 190 212
7.380216 1.017911 46.828457 254 188 209
7.345458 1.113588 46.607914 254 191 210
7.391875 1.221731 46.902435 254 195 212
7.345458 1.314530 46.607914 254 198 215
7.299620 1.406171 46.317070 254 201 219
7.345458 1.515472 46.607914 254 204 222
7.299620 1.605859 46.317070 254 208 225
7.311026 1.708368 46.389442 254 211 227
7.276916 1.799931 46.173004 254 215 230
7.299620 1.905391 46.317070 254 219 234
7.322467 2.011511 46.462036 254 221 235
7.333945 2.114977 46.534863 254 219 233
7.333945 2.215291 46.534863 254 220 233
7.333945 2.315604 46.534863 254 221 234
7.357008 2.423515 46.681198 254 219 232
7.391875 2.536107 46.902435 254 217 231
7.391875 2.637213 46.902435 254 221 236
7.415304 2.746998 47.051098 254 232 244
7.415304 2.848424 47.051098 254 240 249
7.427074 2.954532 47.125782 254 241 250
7.427074 3.056120 47.125782 254 241 250
7.403571 3.957841 46.976650 254 246 253
7.403571 4.059107 46.976650 254 249 254
7.391875 4.153800 46.902435 254 252 254
7.415304 4.268392 47.051098 254 251 254
7.403571 4.362904 46.976650 254 250 254
7.380216 4.450088 46.828457 254 251 254
8.697131 7.861256 55.184464 254 254 254
8.445951 7.749739 53.590691 254 254 254
8.208871 7.644483 52.086391 254 254 254
7.957579 7.519312 50.491909 254 254 254
7.708495 7.389383 48.911438 254 254 254
7.486491 7.278969 47.502789 254 254 254
7.322467 7.219649 46.462036 254 254 254
7.209641 7.207019 45.746136 254 254 254
7.121852 7.216675 45.189106 255 255 255
6.870862 7.056322 43.596539 254 254 254
6.693929 6.966174 42.473881 254 254 254
6.516792 6.870969 41.349918 254 254 254
6.392154 6.826988 40.559074 254 254 254
6.280613 6.793766 39.851334 252 252 252
6.124420 6.708580 38.860264 251 250 251
6.021952 6.678707 38.210094 252 252 252
5.664718 6.514958 35.943394 254 254 254
7.165477 11.279258 45.465916 254 238 250
7.187491 11.412220 45.605595 254 240 250
7.176467 11.492876 45.535648 254 237 247
7.165477 11.573285 45.465916 254 230 242
7.165477 11.671295 45.465916 254 227 240
7.132708 11.715481 45.257992 254 226 240
7.165477 11.965322 45.465916 253 224 238
7.154521 12.044886 45.396397 253 222 236
7.243122 12.392191 45.958580 252 219 232
7.231927 12.471956 45.887547 250 216 230
7.474531 13.197054 47.426903 247 212 225
7.427074 13.214850 47.125782 246 210 224
7.333945 13.149460 46.534863 245 208 223
7.231927 13.065464 45.887547 242 206 221
7.231927 13.164383 45.887547 239 203 218
7.143598 13.101306 45.327087 238 201 216
7.078754 13.079206 44.915646 237 201 216
7.068061 13.156126 44.847797 235 198 214
7.100238 13.313134 45.051960 233 196 211
7.111028 13.430632 45.120430 230 192 208
7.121852 13.548487 45.189106 227 190 205
7.154521 13.708494 45.396397 226 189 205
7.154521 13.806354 45.396397 224 188 204
7.143598 13.882985 45.327087 220 184 201
7.154521 14.002072 45.396397 216 180 196
7.187491 15.934494 45.605595 200 156 171
7.165477 15.983699 45.465916 198 153 167
7.100238 15.935289 45.051960 196 150 163
7.100238 16.032406 45.051960 195 149 159
7.111028 16.154036 45.120430 197 148 157
7.111028 16.251301 45.120430 205 153 158
7.111028 16.348564 45.120430 215 161 164
7.100238 16.420874 45.051960 224 168 170
7.089480 16.492962 44.983700 231 173 176
7.100238 16.615107 45.051960 235 174 178
7.111028 16.737623 45.120430 229 165 172
7.100238 16.809341 45.051960 211 142 152
7.121852 16.957924 45.189106 191 120 133
7.154521 17.133572 45.396397 178 109 123
7.154521 17.231430 45.396397 171 106 123
7.143598 17.302834 45.327087 169 108 127
7.143598 17.400543 45.327087 167 111 130
7.132708 17.471579 45.257992 167 116 133
7.613253 -0.299590 47.655285 254 159 174
7.564683 -0.195605 47.351265 254 164 179
7.552638 -0.093383 47.275864 254 164 181
7.540631 0.008514 47.200703 254 162 180
7.516730 0.109914 47.051098 254 163 181
7.516730 0.211340 47.051098 254 169 188
7.504837 0.312271 46.976650 254 174 195
7.492980 0.412884 46.902435 254 176 199
7.481162 0.513179 46.828457 250 169 194
7.481162 0.614125 46.828457 243 156 181
7.492980 0.716201 46.902435 242 163 188
7.481162 0.816018 46.828457 250 184 208
7.481162 0.916964 46.828457 254 191 213
7.481162 1.017911 46.828457 254 191 211
7.457636 1.115339 46.681198 254 194 212
7.492980 1.221731 46.902435 254 198 214
7.457636 1.316597 46.681198 254 201 216
7.411026 1.408368 46.389442 254 205 220
7.445929 1.515472 46.607914 254 209 224
7.422624 1.610885 46.462036 254 213 227
7.422624 1.711041 46.462036 254 217 230
7.387938 1.802734 46.244926 254 224 235
7.411026 1.908368 46.389442 254 232 243
7.434258 2.014664 46.534863 254 235 246
7.434258 2.114977 46.534863 254 233 244
7.434258 2.215291 46.534863 254 236 245
7.445929 2.319239 46.607914 255 243 248
7.457636 2.423515 46.681198 254 243 248
7.492980 2.536107 46.902435 254 240 248
7.504837 2.641385 46.976650 254 237 248
7.516730 2.746998 47.051098 254 235 248
7.516730 2.848424 47.051098 254 235 249
7.540631 3.060978 47.200703 254 235 250
7.504837 4.059107 46.976650 254 246 252
7.492980 4.153800 46.902435 254 252 254
7.516730 4.268392 47.051098 254 252 254
7.504837 4.362904 46.976650 254 250 254
8.832508 7.875895 55.287228 254 254 254
8.561474 7.749739 53.590691 254 254 254
8.306579 7.631095 51.995171 254 254 254
8.066422 7.519312 50.491909 254 254 254
7.813932 7.389383 48.911438 254 254 254
7.588891 7.278969 47.502789 254 254 254
7.422624 7.219649 46.462036 254 254 254
7.308254 7.207019 45.746136 254 254 254
7.208293 7.205708 45.120430 255 255 255
6.954628 7.045976 43.532612 254 254 254
6.785489 6.966174 42.473881 254 254 254
6.605928 6.870969 41.349918 254 254 254
6.470746 6.817675 40.503742 254 254 254
6.357985 6.784659 39.797913 253 252 253
6.208189 6.708580 38.860264 251 250 251
6.096474 6.670123 38.160980 252 251 252
5.742199 6.514958 35.943394 254 254 254
7.263486 11.475276 45.465916 254 237 247
7.241308 11.537948 45.327087 254 230 243
7.252380 11.653449 45.396397 254 226 240
7.219265 11.697649 45.189106 254 227 241
7.263486 11.867313 45.465916 253 227 241
7.252380 11.947026 45.396397 252 223 238
7.241308 12.026497 45.327087 251 221 235
7.263486 12.161341 45.465916 251 221 235
7.274627 12.278152 45.535648 251 219 233
7.274627 12.376312 45.535648 249 216 230
7.230269 12.398408 45.257992 247 214 227
7.308254 12.926588 45.746136 244 209 223
7.263486 12.945415 45.465916 242 206 221
7.263486 13.043424 45.465916 238 202 217
7.197354 13.021784 45.051960 235 199 214
7.153932 13.039752 44.780155 235 198 214
7.143157 13.116499 44.712715 234 197 213
7.164738 13.252803 44.847797 232 195 211
7.175577 13.369676 44.915646 228 191 207
7.186450 13.486902 44.983700 226 189 205
7.219265 13.645899 45.189106 225 189 204
7.241308 13.785275 45.327087 224 188 203
7.230269 13.861822 45.257992 221 186 201
7.241308 13.980696 45.327087 217 181 197
7.274627 15.811894 45.535648 204 162 177
7.274627 15.910054 45.535648 201 158 173
7.241308 15.934894 45.327087 198 154 168
7.186450 15.911144 44.983700 194 150 164
7.186450 16.008114 44.983700 192 147 159
7.197354 16.129522 45.051960 191 144 155
7.208293 16.251301 45.120430 196 147 155
7.208293 16.348564 45.120430 204 152 158
7.197354 16.420874 45.051960 211 155 161
7.186450 16.492962 44.983700 215 156 161
7.197354 16.615107 45.051960 218 156 162
7.208293 16.737623 45.120430 216 152 160
7.197354 16.809341 45.051960 207 140 150
7.219265 16.957924 45.189106 195 129 140
7.263486 17.159809 45.465916 186 121 134
7.252380 17.231430 45.396397 180 117 132
7.252380 17.329290 45.396397 176 118 134
7.241308 17.400543 45.327087 173 119 136
7.230269 17.471579 45.257992 171 122 137
7.691291 -0.401031 47.502789 254 166 182
7.703617 -0.299110 47.578915 254 160 177
7.666757 -0.195605 47.351265 254 161 179
7.654549 -0.093383 47.275864 254 163 182
7.630249 0.008501 47.125782 255 165 184
7.618156 0.109914 47.051098 254 168 187
7.618156 0.211340 47.051098 254 171 191
7.606102 0.312271 46.976650 254 174 196
7.594086 0.412884 46.902435 254 177 201
7.582108 0.513179 46.828457 251 171 196
7.582108 0.614125 46.828457 242 156 182
7.594086 0.716201 46.902435 240 159 184
7.582108 0.816018 46.828457 249 180 204
7.582108 0.916964 46.828457 254 192 212
7.582108 1.017911 46.828457 254 193 211
7.570168 1.117095 46.754711 254 196 212
7.594086 1.221731 46.902435 254 201 215
7.582108 1.320750 46.828457 254 204 217
7.522780 1.410572 46.462036 255 209 222
7.558265 1.517854 46.681198 254 215 228
7.558265 1.618483 46.681198 254 219 231
7.546400 1.716414 46.607914 254 222 233
7.499308 1.805547 46.317070 254 228 238
7.511026 1.908368 46.389442 254 238 246
7.522780 2.011511 46.462036 254 242 250
7.534572 2.114977 46.534863 254 242 249
7.534572 2.215291 46.534863 254 246 250
7.534572 2.315604 46.534863 254 252 253
7.546400 2.419710 46.607914 254 254 254
7.582108 2.532106 46.828457 254 252 254
7.594086 2.637213 46.902435 254 248 254
7.606102 4.160373 46.976650 254 250 253
7.630249 4.275167 47.125782 255 252 255
8.951689 7.875895 55.287228 254 254 254
8.661364 7.735775 53.494129 254 254 254
8.403945 7.617754 51.904270 254 254 254
8.161386 7.506546 50.406185 254 254 254
7.919368 7.389383 48.911438 254 254 254
7.691291 7.278969 47.502789 254 254 254
7.546400 7.242316 46.607914 254 254 254
7.418297 7.218141 45.816730 254 254 254
7.305557 7.205708 45.120430 254 254 254
7.048470 7.045976 43.532612 254 254 254
6.867224 6.956222 42.413204 254 254 254
6.704402 6.880551 41.407589 254 254 254
6.558058 6.817675 40.503742 254 254 254
6.443776 6.784659 39.797913 254 254 254
6.291959 6.708580 38.860264 254 253 254
6.178736 6.670123 38.160980 254 253 254
6.061862 6.624660 37.439144 254 254 254
5.934638 6.564636 36.653385 254 254 254
7.327830 11.520359 45.257992 254 230 244
7.339018 11.635657 45.327087 253 226 240
7.305557 11.679872 45.120430 253 227 241
7.327830 11.813042 45.257992 253 228 242
7.327830 11.910603 45.257992 252 225 239
7.305557 11.971664 45.120430 251 221 236
7.327830 12.105724 45.257992 250 220 235
7.327830 12.203286 45.257992 250 220 234
7.339018 12.319627 45.327087 250 218 232
7.283419 12.323266 44.983700 250 217 230
7.294471 12.439083 45.051960 248 214 227
7.283419 12.711144 44.983700 244 210 223
7.294471 12.827550 45.051960 242 208 222
7.294471 12.924666 45.051960 239 204 219
7.261415 12.962772 44.847797 237 201 216
7.239543 13.020114 44.712715 236 200 215
7.228657 13.096775 44.645477 234 198 213
7.239543 13.212885 44.712715 232 196 211
7.261415 13.349480 44.847797 229 192 208
7.261415 13.446157 44.847797 226 189 205
7.294471 13.604485 45.051960 224 188 204
7.339018 13.785275 45.327087 222 186 202
7.327830 13.861822 45.257992 220 184 200
7.339018 13.980696 45.327087 216 181 196
7.361495 15.787681 45.465916 203 162 176
7.350239 15.861400 45.396397 200 159 173
7.327830 15.910603 45.257992 197 155 170
7.272400 15.887074 44.915646 194 151 166
7.272400 15.983896 44.915646 191 147 161
7.283419 16.105083 44.983700 188 142 154
7.305557 16.251301 45.120430 187 140 152
7.305557 16.348564 45.120430 192 142 152
7.294471 16.420874 45.051960 197 144 154
7.272400 16.468012 44.915646 201 144 154
7.294471 16.615107 45.051960 203 144 152
7.305557 16.737623 45.120430 203 142 152
7.294471 16.809341 45.051960 201 138 149
7.316677 16.957924 45.189106 197 135 146
7.350239 17.133572 45.396397 192 132 144
7.350239 17.231430 45.396397 187 130 143
7.350239 17.329290 45.396397 183 130 143
7.327830 17.374018 45.257992 178 129 142
7.316677 17.444986 45.189106 175 128 141
7.781240 -0.400391 47.426903 254 165 183
7.793691 -0.298631 47.502789 254 163 182
7.756460 -0.195294 47.275864 254 165 185
7.744128 -0.093235 47.200703 254 167 187
7.731836 0.008501 47.125782 254 170 189
7.707368 0.109740 46.976650 254 172 192
7.707368 0.211005 46.976650 254 174 194
7.707368 0.312271 46.976650 254 175 197
7.695192 0.412884 46.902435 254 178 201
7.683054 0.513179 46.828457 251 173 198
7.683054 0.614125 46.828457 240 157 182
7.683054 0.715072 46.828457 237 156 180
7.683054 0.816018 46.828457 248 179 201
7.683054 0.916964 46.828457 254 193 212
7.683054 1.017911 46.828457 254 194 211
7.670955 1.117095 46.754711 254 198 212
7.707368 1.223664 46.976650 254 204 217
7.695192 1.322836 46.902435 254 208 220
7.646871 1.415001 46.607914 254 214 226
7.670955 1.520245 46.754711 254 222 234
7.695192 1.626154 46.902435 254 226 237
7.670955 1.721820 46.754711 254 227 237
7.622937 1.811198 46.462036 254 232 241
7.622937 1.911354 46.462036 254 240 247
7.622937 2.011511 46.462036 254 246 251
7.622937 2.111667 46.462036 254 249 253
7.622937 2.211824 46.462036 254 252 253
7.634885 2.315604 46.534863 254 254 254
7.646871 2.419710 46.607914 255 254 255
7.683054 2.532106 46.828457 254 253 254
9.054008 7.861256 55.184464 254 254 254
8.776679 7.735775 53.494129 254 254 254
8.515833 7.617754 51.904270 254 254 254
8.256028 7.493823 50.320751 254 254 254
8.038047 7.401577 48.992149 254 254 254
7.818710 7.302336 47.655285 254 254 254
7.646871 7.242316 46.607914 255 255 255
7.517063 7.218141 45.816730 254 254 254
7.402822 7.205708 45.120430 254 254 254
7.142312 7.045976 43.532612 254 254 254
6.958652 6.956222 42.413204 254 254 254
6.793664 6.880551 41.407589 255 255 255
6.645370 6.817675 40.503742 254 254 254
6.520825 6.775576 39.744637 254 254 254
6.375729 6.708580 38.860264 254 254 254
6.260998 6.670123 38.160980 254 254 254
6.142568 6.624660 37.439144 254 254 254
7.482422 10.035876 45.605595 251 238 249
7.470946 10.118644 45.535648 254 248 253
7.459505 10.201157 45.465916 254 249 253
7.459505 10.299166 45.465916 254 245 251
7.459505 11.377267 45.465916 254 235 247
7.425391 11.422798 45.257992 254 235 248
7.414089 11.502824 45.189106 254 231 244
7.425391 11.617920 45.257992 252 227 240
7.391588 11.662148 45.051960 253 226 240
7.391588 11.759265 45.051960 254 228 241
7.391588 11.856381 45.051960 254 228 242
7.380389 11.935387 44.983700 253 227 241
7.391588 12.050615 45.051960 252 225 238
7.391588 12.147732 45.051960 251 222 235
7.402822 12.263458 45.120430 252 220 233
7.369224 12.304623 44.915646 251 218 231
7.391588 12.439083 45.051960 248 216 229
7.380389 12.517205 44.983700 247 214 226
7.324897 12.519332 44.645477 245 212 224
7.346993 12.653628 44.780155 243 210 222
7.391588 12.827550 45.051960 242 208 221
7.380389 12.905084 44.983700 240 206 219
7.358092 12.962772 44.847797 238 204 217
7.324897 13.000535 44.645477 237 201 215
7.313899 13.077110 44.578442 235 199 213
7.335928 13.212885 44.712715 232 196 210
7.346993 13.329345 44.780155 229 193 207
7.346993 13.425876 44.780155 227 190 205
7.380389 13.583872 44.983700 224 188 203
7.425391 13.764261 45.257992 223 187 202
7.425391 13.861822 45.257992 221 185 200
7.436728 13.980696 45.327087 218 183 198
7.517063 14.428018 45.816730 211 178 191
7.599152 14.785266 46.317070 211 177 192
7.448099 15.763540 45.396397 202 163 177
7.436728 15.837184 45.327087 200 160 174
7.436728 15.934894 45.327087 198 156 171
7.369224 15.887074 44.915646 195 153 168
7.369224 15.983896 44.915646 192 149 164
7.380389 16.105083 44.983700 189 145 158
7.414089 16.276035 45.189106 186 140 154
7.414089 16.373447 45.189106 186 137 151
7.391588 16.420874 45.051960 186 135 149
7.380389 16.492962 44.983700 188 134 147
7.402822 16.640358 45.120430 191 135 147
7.402822 16.737623 45.120430 193 136 149
7.402822 16.834887 45.120430 194 137 149
7.414089 16.957924 45.189106 194 138 149
7.448099 17.133572 45.396397 193 138 149
7.448099 17.231430 45.396397 191 138 149
7.436728 17.302834 45.327087 187 137 148
7.425391 17.374018 45.257992 183 135 147
7.402822 17.418474 45.120430 179 134 145
7.896091 -0.503431 47.502789 248 161 180
7.883477 -0.400391 47.426903 252 160 181
7.883477 -0.298154 47.426903 254 167 188
7.858370 -0.195294 47.275864 254 170 191
7.845877 -0.093235 47.200703 254 172 193
7.821009 0.008487 47.051098 254 174 194
7.796298 0.109566 46.902435 254 175 195
7.808634 0.211005 46.976650 254 175 195
7.796298 0.311778 46.902435 254 175 195
7.796298 0.412884 46.902435 254 178 198
7.771743 0.512371 46.754711 252 177 198
7.784001 0.614125 46.828457 243 164 185
7.784001 0.715072 46.828457 240 162 182
7.784001 0.816018 46.828457 249 182 200
7.784001 0.916964 46.828457 254 196 213
7.784001 1.017911 46.828457 254 198 213
7.784001 1.118857 46.828457 254 202 215
7.821009 1.225603 47.051098 255 208 220
7.796298 1.322836 46.902435 254 213 225
7.747342 1.415001 46.607914 254 218 229
7.784001 1.522643 46.828457 254 224 235
7.821009 1.631308 47.051098 254 229 239
7.784001 1.724535 46.828457 254 233 242
7.747342 1.816885 46.607914 254 238 244
7.735198 1.914350 46.534863 254 244 249
7.735198 2.014664 46.534863 254 248 251
7.735198 2.114977 46.534863 254 251 253
7.735198 2.215291 46.534863 254 253 254
7.747342 2.319239 46.607914 254 254 254
7.747342 2.419710 46.607914 254 254 254
9.172968 7.861256 55.184464 254 254 254
8.860065 7.707999 53.302052 254 254 254
8.597660 7.591212 51.723419 254 254 254
8.350349 7.481143 50.235603 254 254 254
8.143658 7.401577 48.992149 255 255 255
7.921439 7.302336 47.655285 254 254 254
7.735198 7.230965 46.534863 254 254 254
7.615828 7.218141 45.816730 254 254 254
7.500086 7.205708 45.120430 254 254 254
7.236154 7.045976 43.532612 254 254 254
7.029995 6.936404 42.292366 254 254 254
6.863779 6.861413 41.292408 254 254 254
6.723510 6.808386 40.448559 254 254 254
6.597669 6.766518 39.691502 254 254 254
6.451055 6.699811 38.809467 254 254 254
7.580732 9.839255 45.605595 252 241 252
7.580732 9.937566 45.605595 251 235 250
7.569105 10.020484 45.535648 252 240 251
7.569105 10.118644 45.535648 254 246 253
7.557514 10.201157 45.465916 254 244 252
7.557514 10.299166 45.465916 254 239 249
7.511502 11.405412 45.189106 254 237 249
7.500086 11.485343 45.120430 253 232 243
7.511502 11.600237 45.189106 252 226 238
7.477358 11.644478 44.983700 252 225 238
7.477358 11.741447 44.983700 254 228 240
7.466046 11.820507 44.915646 254 231 243
7.454768 11.899328 44.847797 254 234 246
7.466046 12.014153 44.915646 254 233 245
7.477358 12.129327 44.983700 253 226 239
7.488705 12.244849 45.051960 252 221 233
7.466046 12.304623 44.915646 249 217 230
7.488705 12.439083 45.051960 246 214 227
7.466046 12.498268 44.915646 245 213 225
7.421138 12.519332 44.645477 244 211 223
7.454768 12.672743 44.847797 242 209 221
7.488705 12.827550 45.051960 241 207 219
7.488705 12.924666 45.051960 239 205 217
7.454768 12.962772 44.847797 237 202 215
7.421138 13.000535 44.645477 235 199 213
7.421138 13.096775 44.645477 234 198 211
7.432314 13.212885 44.712715 232 196 209
7.443524 13.329345 44.780155 229 193 207
7.443524 13.425876 44.780155 226 189 204
7.466046 13.563321 44.915646 223 187 202
7.522952 13.764261 45.257992 223 187 202
7.534438 13.882985 45.327087 224 188 203
7.534438 13.980696 45.327087 222 186 201
7.545958 14.099932 45.396397 217 182 197
7.639407 14.373615 45.958580 213 179 193
7.627599 14.450317 45.887547 212 179 192
7.639407 14.571757 45.958580 211 178 192
7.711026 14.808368 46.389442 211 178 192
7.557514 15.787681 45.465916 203 165 180
7.557514 15.885690 45.465916 201 162 177
7.545958 15.959259 45.396397 199 158 174
7.488705 15.935289 45.051960 197 155 171
7.454768 15.959751 44.847797 195 151 167
7.477358 16.105083 44.983700 192 148 164
7.511502 16.276035 45.189106 190 144 160
7.522952 16.398407 45.257992 186 138 154
7.500086 16.445829 45.120430 182 132 148
7.477358 16.492962 44.983700 179 127 143
7.511502 16.665686 45.189106 180 128 143
7.500086 16.737623 45.120430 185 132 146
7.488705 16.809341 45.051960 189 135 149
7.511502 16.957924 45.189106 191 138 151
7.534438 17.107412 45.327087 192 141 152
7.534438 17.205122 45.327087 192 143 154
7.534438 17.302834 45.327087 191 144 155
7.522952 17.374018 45.257992 186 141 153
7.500086 17.418474 45.120430 181 139 150
7.511502 17.542398 45.189106 178 138 148
7.985713 -0.502627 47.426903 245 151 173
7.972977 -0.399752 47.351265 252 162 185
7.960281 -0.297205 47.275864 254 170 193
7.947626 -0.194983 47.200703 254 173 196
7.935010 -0.093087 47.125782 254 175 196
7.909900 0.008474 46.976650 254 175 196
7.884947 0.109393 46.828457 254 175 196
7.897404 0.210672 46.902435 254 175 194
7.897404 0.311778 46.902435 254 174 193
7.884947 0.412233 46.828457 254 177 195
7.872530 0.512371 46.754711 253 181 199
7.872530 0.613158 46.754711 247 175 192
7.884947 0.715072 46.828457 244 171 187
7.884947 0.816018 46.828457 249 185 200
7.884947 0.916964 46.828457 253 203 216
7.884947 1.017911 46.828457 254 207 219
7.884947 1.118857 46.828457 254 209 220
7.922435 1.225603 47.051098 254 214 224
7.897404 1.322836 46.902435 254 219 229
7.847813 1.415001 46.607914 254 222 231
7.884947 1.522643 46.828457 252 225 233
7.922435 1.631308 47.051098 252 231 239
7.884947 1.724535 46.828457 254 240 246
7.860152 1.819741 46.681198 255 247 250
7.847813 1.917356 46.607914 254 251 252
7.835512 2.014664 46.534863 255 251 252
7.835512 2.114977 46.534863 255 251 253
7.835512 2.215291 46.534863 254 253 254
7.847813 2.319239 46.607914 254 254 254
7.847813 2.419710 46.607914 254 253 253
9.206366 7.788868 54.676319 254 254 254
8.863576 7.612332 52.640499 254 254 254
8.604228 7.499751 51.100246 254 254 254
8.401776 7.430850 49.897884 254 254 254
8.222133 7.377229 48.830990 254 254 254
7.972977 7.255750 47.351265 254 254 254
7.762510 7.163596 46.101307 254 254 254
7.702707 7.207019 45.746136 254 254 254
7.574328 7.183872 44.983700 254 254 254
7.308562 7.025373 43.405323 254 254 254
7.060814 6.877621 41.933956 254 254 254
6.904774 6.814027 41.007240 254 254 254
6.782980 6.780672 40.283909 254 254 254
6.674308 6.757484 39.638508 254 254 254
6.526184 6.691064 38.758801 254 254 254
7.679042 9.740946 45.605595 254 252 254
7.679042 9.839255 45.605595 254 247 254
7.667265 9.922324 45.535648 254 241 253
7.667265 10.020484 45.535648 254 240 253
7.667265 10.118644 45.535648 254 241 253
7.655523 10.201157 45.465916 254 239 251
7.667265 10.314962 45.535648 254 237 250
7.608914 11.502824 45.189106 253 235 244
7.620513 11.617920 45.257992 251 227 238
7.585822 11.662148 45.051960 251 225 236
7.574328 11.838417 44.983700 254 235 245
7.562870 11.917331 44.915646 254 240 248
7.574328 12.032357 44.983700 254 239 248
7.574328 12.129327 44.983700 253 230 240
7.585822 12.244849 45.051960 250 220 232
7.574328 12.323266 44.983700 245 214 226
7.608914 12.476949 45.189106 243 212 224
7.585822 12.536200 45.051960 244 212 224
7.551445 12.576066 44.847797 244 212 224
7.585822 12.730433 45.051960 242 209 221
7.597351 12.847045 45.120430 239 206 219
7.597351 12.944309 45.120430 237 203 216
7.562870 12.982384 44.915646 234 200 212
7.528700 13.020114 44.712715 234 199 211
7.528700 13.116499 44.712715 234 198 211
7.551445 13.252803 44.847797 232 196 209
7.551445 13.349480 44.847797 229 193 206
7.551445 13.446157 44.847797 225 189 203
7.574328 13.583872 44.983700 222 186 200
7.620513 13.764261 45.257992 222 186 201
7.632147 13.882985 45.327087 224 188 203
7.643817 14.002072 45.396397 224 188 203
7.643817 14.099932 45.396397 219 185 199
7.750475 14.395900 46.029835 215 182 195
7.726517 14.450317 45.887547 213 180 193
7.726517 14.549235 45.887547 211 178 191
7.798841 14.785266 46.317070 210 178 190
7.679042 15.836184 45.605595 202 165 181
7.667265 15.910054 45.535648 200 161 178
7.667265 16.008213 45.535648 199 158 175
7.620513 16.008163 45.257992 197 155 172
7.574328 16.008114 44.983700 195 153 169
7.597351 16.154036 45.120430 193 150 166
7.655523 16.375736 45.465916 191 146 163
7.667265 16.499012 45.535648 187 141 158
7.632147 16.521152 45.327087 182 134 152
7.608914 16.568274 45.189106 177 129 146
7.632147 16.716574 45.327087 177 127 144
7.608914 16.763098 45.189106 179 130 145
7.608914 16.860510 45.189106 183 134 149
7.620513 16.983774 45.257992 187 137 153
7.643817 17.133572 45.396397 189 141 156
7.643817 17.231430 45.396397 191 144 158
7.643817 17.329290 45.396397 191 146 160
7.632147 17.400543 45.327087 187 144 157
7.620513 17.471579 45.257992 182 141 154
7.632147 17.595963 45.327087 179 140 152
8.087950 -0.502627 47.426903 248 155 180
8.075050 -0.399752 47.351265 254 168 193
8.062192 -0.297205 47.275864 254 173 198
8.036598 -0.194674 47.125782 254 177 201
8.023862 -0.092939 47.051098 255 178 201
7.998510 0.008460 46.902435 255 177 198
7.973318 0.109221 46.754711 254 176 196
7.985894 0.210340 46.828457 254 175 193
7.985894 0.311286 46.828457 254 174 191
7.985894 0.412233 46.828457 254 180 195
7.960781 0.511565 46.681198 254 188 202
7.973318 0.613158 46.754711 250 185 198
7.973318 0.713946 46.754711 245 177 189
7.985894 0.816018 46.828457 245 187 198
7.985894 0.916964 46.828457 252 208 218
7.985894 1.017911 46.828457 254 215 224
7.985894 1.118857 46.828457 254 216 225
8.036598 1.227548 47.125782 254 223 231
7.998510 1.322836 46.902435 254 229 236
7.935825 1.412783 46.534863 253 231 238
7.973318 1.520245 46.754711 252 233 239
8.023862 1.631308 47.051098 252 239 244
7.985894 1.724535 46.828457 254 248 251
7.960781 1.819741 46.681198 254 253 254
7.948284 1.917356 46.607914 254 254 254
7.935825 2.014664 46.534863 254 253 254
7.923406 2.111667 46.462036 254 253 254
7.923406 2.211824 46.462036 254 254 254
7.935825 2.315604 46.534863 254 254 254
7.935825 2.415918 46.534863 254 252 253
8.669618 7.461225 50.837742 254 254 254
8.466650 7.393571 49.647564 254 254 254
8.272968 7.329012 48.511833 254 254 254
7.813359 7.119376 45.816730 254 254 254
7.741677 7.151920 45.396397 254 254 254
7.648122 7.162169 44.847797 254 254 254
7.765424 9.824164 45.535648 254 251 254
7.765424 9.922324 45.535648 254 244 253
7.765424 10.020484 45.535648 254 240 252
7.753532 10.201157 45.465916 254 238 251
7.741677 11.653449 45.396397 253 231 241
7.694615 11.679872 45.120430 252 227 238
7.694615 11.874400 45.120430 254 240 248
7.682939 11.953499 45.051960 254 246 251
7.682939 12.050615 45.051960 253 241 247
7.682939 12.147732 45.051960 250 227 236
7.682939 12.244849 45.051960 245 216 228
7.682939 12.341966 45.051960 243 211 223
7.706326 12.476949 45.189106 242 210 222
7.694615 12.555251 45.120430 243 212 224
7.671298 12.614175 44.983700 244 212 225
7.694615 12.749781 45.120430 243 210 223
7.706326 12.866599 45.189106 239 206 219
7.706326 12.964011 45.189106 235 203 215
7.671298 13.002054 44.983700 234 200 212
7.636586 13.039752 44.780155 234 200 212
7.636586 13.136283 44.780155 236 201 213
7.659692 13.272853 44.915646 233 198 210
7.659692 13.369676 44.915646 229 194 206
7.648122 13.446157 44.847797 225 190 203
7.682939 13.604485 45.051960 222 186 201
7.729857 13.785275 45.327087 221 185 200
7.729857 13.882985 45.327087 222 186 201
7.729857 13.980696 45.327087 221 187 201
7.729857 14.078405 45.327087 218 185 198
7.837549 14.373615 45.958580 215 182 196
7.813359 14.428018 45.816730 213 181 194
7.801320 14.504400 45.746136 212 180 192
7.886381 14.762236 46.244926 210 179 190
7.861889 14.815769 46.101307 210 178 190
7.813359 15.810734 45.816730 201 166 183
7.801320 15.884985 45.746136 200 163 181
7.777353 15.934494 45.605595 198 160 178
7.789318 16.057470 45.675758 196 156 174
7.765424 16.106373 45.535648 194 154 172
7.706326 16.081211 45.189106 194 152 170
7.741677 16.252836 45.396397 192 150 167
7.765424 16.400852 45.535648 190 146 164
7.777353 16.524355 45.605595 187 142 160
7.741677 16.546415 45.396397 183 138 156
7.729857 16.618864 45.327087 180 134 152
7.753532 16.767773 45.465916 178 130 148
7.729857 16.814283 45.327087 177 130 147
7.718074 16.886213 45.257992 179 131 149
7.729857 17.009703 45.327087 182 134 152
7.741677 17.133572 45.396397 184 137 155
7.741677 17.231430 45.396397 185 139 156
7.753532 17.355827 45.465916 184 140 156
7.741677 17.427149 45.396397 182 140 155
7.729857 17.498253 45.327087 179 139 154
7.741677 17.622868 45.396397 178 139 153
8.190187 -0.604863 47.426903 243 146 172
8.190187 -0.502627 47.426903 252 164 190
8.177124 -0.399752 47.351265 254 173 199
8.164103 -0.297205 47.275864 254 177 202
8.125288 -0.194365 47.051098 254 180 204
8.112432 -0.092792 46.976650 254 181 203
8.086840 0.008447 46.828457 254 180 201
8.061410 0.109049 46.681198 254 180 200
8.086840 0.210340 46.828457 254 180 197
8.086840 0.311286 46.828457 254 180 195
8.074105 0.411583 46.754711 254 186 199
8.061410 0.511565 46.681198 254 195 205
8.061410 0.612194 46.681198 251 193 201
8.074105 0.713946 46.754711 244 183 190
8.074105 0.814733 46.754711 243 189 196
8.086840 0.916964 46.828457 250 211 217
8.086840 1.017911 46.828457 255 222 228
8.099615 1.120625 46.902435 254 225 230
8.125288 1.225603 47.051098 254 232 237
8.086840 1.320750 46.828457 255 241 244
8.023562 1.410572 46.462036 254 245 248
8.036139 1.513096 46.534863 254 247 250
8.112432 1.628727 46.976650 253 250 252
8.074105 1.721820 46.754711 254 253 254
8.074105 1.822607 46.754711 254 254 254
8.048755 1.917356 46.607914 254 254 254
8.036139 2.014664 46.534863 254 254 254
8.011026 2.108368 46.389442 254 254 254
8.011026 2.208368 46.389442 254 254 254
8.023562 2.311980 46.462036 254 254 254
7.948925 4.870318 46.029835 254 253 254
7.936620 4.961851 45.958580 254 254 254
7.803739 7.119263 45.189106 254 254 254
7.733117 7.151366 44.780155 254 254 254
7.815635 7.910603 45.257992 254 254 254
7.839536 8.032654 45.396397 254 254 254
7.839536 8.130513 45.396397 254 254 254
7.839536 8.228373 45.396397 254 254 254
7.851542 11.573285 45.465916 254 240 248
7.851542 11.671295 45.465916 254 233 243
7.815635 11.715481 45.257992 253 231 241
7.803739 11.892474 45.189106 254 245 250
7.791879 11.971664 45.120430 254 249 252
7.791879 12.068930 45.120430 251 239 245
7.780056 12.147732 45.051960 245 221 231
7.780056 12.244849 45.051960 241 211 223
7.791879 12.360723 45.120430 241 210 222
7.803739 12.476949 45.189106 240 209 222
7.780056 12.536200 45.051960 242 210 223
7.756516 12.595092 44.915646 243 212 225
7.791879 12.749781 45.120430 241 210 223
7.791879 12.847045 45.120430 237 205 218
7.803739 12.964011 45.189106 235 202 215
7.768268 13.002054 44.983700 235 202 214
7.744799 13.059449 44.847797 237 203 216
7.744799 13.156126 44.847797 238 203 216
7.768268 13.292963 44.983700 235 200 212
7.756516 13.369676 44.915646 231 195 208
7.744799 13.446157 44.847797 226 191 204
7.780056 13.604485 45.051960 223 188 202
7.815635 13.764261 45.257992 221 186 201
7.827568 13.882985 45.327087 220 185 200
7.815635 13.959383 45.257992 218 185 198
7.803739 14.035548 45.189106 216 185 197
7.912125 14.329252 45.816730 215 183 196
7.912125 14.428018 45.816730 213 182 194
7.887779 14.482085 45.675758 212 182 193
7.973650 14.739278 46.173004 211 181 191
7.936620 14.769900 45.958580 210 180 190
7.948925 15.884272 46.029835 200 165 183
7.936620 15.958755 45.958580 198 162 180
7.912125 16.008265 45.816730 196 159 177
7.924354 16.131926 45.887547 194 155 174
7.912125 16.205795 45.816730 192 152 172
7.851542 16.179718 45.465916 192 151 170
7.863584 16.302692 45.535648 191 149 168
7.875663 16.426044 45.605595 189 146 165
7.887779 16.549778 45.675758 187 143 162
7.851542 16.571754 45.465916 184 140 158
7.839536 16.644274 45.396397 182 136 155
7.851542 16.767773 45.465916 179 133 152
7.827568 16.814283 45.327087 176 130 149
7.827568 16.911993 45.327087 177 131 150
7.839536 17.035711 45.396397 178 132 152
7.839536 17.133572 45.396397 179 133 153
7.851542 17.257818 45.465916 175 130 150
7.851542 17.355827 45.465916 169 125 144
7.839536 17.427149 45.396397 167 126 144
7.827568 17.498253 45.327087 170 130 148
7.839536 17.622868 45.396397 174 136 152
8.305691 -0.605831 47.502789 249 158 183
8.292422 -0.502627 47.426903 254 171 196
8.279197 -0.399752 47.351265 254 177 202
8.266014 -0.297205 47.275864 254 180 204
8.226714 -0.194365 47.051098 254 182 205
8.213697 -0.092792 46.976650 254 182 204
8.174892 0.008434 46.754711 254 183 203
8.162039 0.109049 46.681198 254 185 203
8.187786 0.210340 46.828457 254 188 203
8.187786 0.311286 46.828457 255 190 203
8.174892 0.411583 46.754711 254 194 205
8.162039 0.511565 46.681198 254 199 207
8.162039 0.612194 46.681198 252 198 204
8.162039 0.712823 46.681198 246 191 196
8.174892 0.814733 46.754711 246 198 202
8.187786 0.916964 46.828457 251 218 221
8.187786 1.017911 46.828457 254 230 233
8.200722 1.120625 46.902435 254 235 237
8.213697 1.223664 46.976650 254 242 244
8.187786 1.320750 46.828457 254 249 250
8.098372 1.406171 46.317070 254 252 253
8.085758 1.503669 46.244926 254 254 254
8.200722 1.626154 46.902435 254 254 254
8.162039 1.719112 46.681198 254 254 254
8.162039 1.819741 46.681198 254 254 254
8.149225 1.917356 46.607914 254 254 254
8.123719 2.011511 46.462036 254 254 254
8.098372 2.105079 46.317070 254 254 254
8.111026 2.208368 46.389442 254 254 254
8.123719 2.311980 46.462036 254 254 254
8.048150 4.870318 46.029835 254 253 254
8.035691 4.961851 45.958580 254 254 254
8.035691 5.060922 45.958580 254 253 254
8.023272 5.250936 45.887547 253 252 253
8.252872 7.029182 47.200703 254 254 254
8.035691 7.042346 45.958580 254 254 254
7.973973 7.086567 45.605595 254 254 254
7.925277 7.141001 45.327087 254 254 254
7.841475 7.162169 44.847797 254 254 254
7.901152 7.703737 45.189106 254 254 254
7.865237 7.765690 44.983700 254 254 254
7.913196 7.910603 45.257992 254 254 254
7.925277 8.020390 45.327087 254 254 254
7.925277 8.118100 45.327087 254 254 254
7.925277 8.215810 45.327087 254 254 254
7.937396 8.326232 45.396397 254 254 254
7.986241 11.331316 45.675758 254 240 249
7.961743 11.394717 45.535648 254 241 249
7.949551 11.573285 45.465916 254 238 247
7.961743 11.689196 45.535648 254 235 245
7.925277 11.733367 45.327087 254 235 244
7.925277 11.831077 45.327087 254 241 247
7.913196 11.910603 45.257992 254 249 252
7.901152 11.989886 45.189106 254 249 252
7.901152 12.087299 45.189106 250 236 243
7.877172 12.147732 45.051960 242 218 228
7.877172 12.244849 45.051960 240 210 222
7.889144 12.360723 45.120430 240 209 222
7.889144 12.457987 45.120430 240 209 222
7.865237 12.517205 44.983700 240 209 222
7.853338 12.595092 44.915646 240 209 223
7.877172 12.730433 45.051960 239 208 222
7.877172 12.827550 45.051960 236 205 219
7.889144 12.944309 45.120430 235 203 217
7.865237 13.002054 44.983700 235 203 217
7.841475 13.059449 44.847797 237 203 218
7.841475 13.156126 44.847797 236 202 216
7.865237 13.292963 44.983700 234 199 213
7.853338 13.369676 44.915646 231 195 209
7.841475 13.446157 44.847797 227 192 205
7.877172 13.604485 45.051960 224 189 203
7.901152 13.743311 45.189106 221 188 201
7.901152 13.840724 45.189106 219 186 199
7.889144 13.916954 45.120430 216 184 197
7.877172 13.992952 45.051960 215 184 196
7.973973 14.263219 45.605595 213 183 195
7.998547 14.405787 45.746136 212 183 193
7.961743 14.437662 45.535648 212 183 193
8.060647 14.716391 46.101307 212 183 192
8.023272 14.747072 45.887547 210 181 189
8.048150 15.983497 46.029835 197 160 179
7.998547 15.983599 45.746136 195 158 177
8.010890 16.107031 45.816730 194 155 175
7.973973 16.131115 45.605595 192 153 173
7.877172 16.032406 45.051960 191 151 171
7.913196 16.203285 45.257992 190 149 169
7.913196 16.300846 45.257992 188 147 166
7.949551 16.473745 45.465916 186 144 163
7.913196 16.495968 45.257992 184 141 160
7.913196 16.593529 45.257992 181 138 157
7.925277 16.716574 45.327087 180 135 155
7.901152 16.763098 45.189106 177 132 152
7.913196 16.886213 45.257992 176 131 151
7.937396 17.035711 45.396397 175 130 152
7.937396 17.133572 45.396397 173 128 150
7.937396 17.231430 45.396397 165 122 142
7.949551 17.355827 45.465916 153 111 132
7.937396 17.427149 45.396397 152 111 131
7.913196 17.471579 45.257992 158 119 139
7.925277 17.595963 45.327087 168 131 149
7.925277 17.693672 45.327087 174 138 155
8.408091 -0.605831 47.502789 254 167 190
8.408091 -0.503431 47.502789 254 173 198
8.381270 -0.399752 47.351265 254 177 202
8.367925 -0.297205 47.275864 254 180 204
8.328140 -0.194365 47.051098 254 182 204
8.301827 -0.092645 46.902435 254 183 204
8.275680 0.008434 46.754711 254 184 203
8.275680 0.109221 46.754711 254 188 205
8.288733 0.210340 46.828457 254 193 208
8.288733 0.311286 46.828457 254 197 209
8.275680 0.411583 46.754711 254 199 209
8.262668 0.511565 46.681198 254 202 208
8.249697 0.611233 46.607914 252 201 205
8.262668 0.712823 46.681198 250 200 203
8.275680 0.814733 46.754711 250 211 213
8.288733 0.916964 46.828457 253 227 228
8.288733 1.017911 46.828457 254 237 236
8.301827 1.120625 46.902435 254 244 243
8.301827 1.221731 46.902435 254 250 250
8.275680 1.318670 46.754711 255 253 253
8.185447 1.403980 46.244926 254 254 254
8.160026 1.498999 46.101307 254 254 254
8.262668 1.618483 46.681198 254 254 254
8.262668 1.719112 46.681198 254 254 254
8.249697 1.816885 46.607914 254 254 254
8.249697 1.917356 46.607914 254 254 254
8.236766 2.014664 46.534863 254 254 254
8.211026 2.108368 46.389442 254 254 254
8.211026 2.208368 46.389442 254 254 254
8.223876 2.311980 46.462036 254 252 253
8.236766 2.415918 46.534863 254 251 253
8.262668 2.524144 46.681198 254 250 252
8.262668 2.624773 46.681198 254 251 253
8.249697 2.721123 46.607914 254 253 254
8.134763 4.763708 45.958580 254 252 253
8.147375 4.870318 46.029835 254 253 254
8.147375 4.969543 46.029835 254 254 254
8.147375 5.068768 46.029835 254 252 253
8.147375 5.167993 46.029835 252 247 250
8.134763 5.259064 45.958580 251 246 249
8.134763 5.358135 45.958580 252 250 251
8.328140 6.804050 47.051098 254 254 254
8.328140 6.905476 47.051098 254 254 254
8.341360 7.018024 47.125782 254 254 254
8.262668 7.153075 46.681198 254 254 254
8.134763 7.141417 45.958580 254 254 254
8.059903 7.173858 45.535648 254 254 254
7.950161 7.173004 44.915646 254 254 254
7.938152 7.258845 44.847797 254 254 254
7.950161 7.463473 44.915646 254 254 254
7.986408 7.594765 45.120430 254 254 254
7.998564 7.703737 45.189106 254 253 254
7.962207 7.765690 44.983700 254 252 253
8.010757 7.910603 45.257992 254 253 253
8.022987 8.020390 45.327087 254 254 254
8.022987 8.118100 45.327087 254 254 254
8.022987 8.215810 45.327087 254 254 254
8.035254 8.326232 45.396397 254 251 252
8.059903 8.449932 45.535648 253 246 249
8.047560 8.535001 45.465916 252 243 246
8.084702 11.232855 45.675758 255 237 249
8.072284 11.313910 45.605595 254 241 250
8.035254 11.359871 45.396397 254 242 249
8.035254 11.457730 45.396397 254 238 247
8.047560 11.573285 45.465916 254 235 246
8.059903 11.689196 45.535648 254 236 246
8.035254 11.751308 45.396397 255 241 248
8.022987 11.831077 45.327087 254 247 250
8.010757 11.910603 45.257992 254 251 253
8.010757 12.008163 45.257992 254 248 251
8.010757 12.105724 45.257992 249 232 240
7.986408 12.166194 45.120430 241 215 226
7.974289 12.244849 45.051960 239 209 221
7.986408 12.360723 45.120430 239 209 222
7.998564 12.476949 45.189106 238 208 222
7.962207 12.517205 44.983700 238 208 222
7.950161 12.595092 44.915646 239 209 223
7.962207 12.711144 44.983700 241 210 224
7.974289 12.827550 45.051960 240 209 224
7.998564 12.964011 45.189106 239 209 224
7.962207 13.002054 44.983700 236 205 221
7.950161 13.079206 44.915646 234 202 217
7.950161 13.176029 44.915646 233 200 215
7.962207 13.292963 44.983700 231 197 212
7.962207 13.389933 44.983700 229 195 209
7.950161 13.466498 44.915646 226 192 207
7.974289 13.604485 45.051960 223 190 203
7.998564 13.743311 45.189106 221 188 201
7.998564 13.840724 45.189106 218 187 199
7.962207 13.874781 44.983700 216 185 197
7.950161 13.950613 44.915646 214 184 195
8.022987 14.176115 45.327087 211 182 192
8.084702 14.383624 45.675758 210 182 190
8.022987 14.371535 45.327087 211 183 191
8.097159 15.983599 45.746136 195 158 177
8.084702 16.057470 45.675758 195 156 175
7.998564 15.983798 45.189106 193 154 174
7.914242 15.911680 44.712715 191 152 172
7.962207 16.105083 44.983700 190 151 170
7.974289 16.226639 45.051960 188 148 167
8.047560 16.473745 45.465916 185 145 164
7.998564 16.470861 45.189106 183 142 161
7.998564 16.568274 45.189106 181 139 158
8.010757 16.691092 45.257992 180 137 156
7.986408 16.737623 45.120430 177 134 153
8.010757 16.886213 45.257992 175 131 151
8.022987 17.009703 45.327087 173 129 150
8.035254 17.133572 45.396397 170 126 147
8.022987 17.205122 45.327087 162 120 141
8.035254 17.329290 45.396397 151 110 130
8.022987 17.400543 45.327087 148 108 128
7.998564 17.444986 45.189106 152 114 134
8.010757 17.569139 45.257992 161 125 144
8.010757 17.666700 45.257992 169 134 151
8.524129 -0.709366 47.578915 254 165 186
8.524129 -0.606802 47.578915 254 170 192
8.510490 -0.503431 47.502789 254 173 196
8.496896 -0.400391 47.426903 254 176 199
8.469835 -0.297205 47.275864 255 179 202
8.429566 -0.194365 47.051098 254 181 202
8.416229 -0.092792 46.976650 254 182 202
8.389679 0.008447 46.828457 254 184 202
8.376467 0.109221 46.754711 254 188 205
8.389679 0.210340 46.828457 254 195 210
8.389679 0.311286 46.828457 254 201 213
8.376467 0.411583 46.754711 254 203 213
8.363297 0.511565 46.681198 254 204 211
8.350167 0.611233 46.607914 253 204 209
8.350167 0.711704 46.607914 253 207 210
8.363297 0.813452 46.681198 253 218 220
8.376467 0.915520 46.754711 254 229 230
8.376467 1.016308 46.754711 254 236 236
8.389679 1.118857 46.828457 254 245 244
8.376467 1.217883 46.754711 254 252 251
8.363297 1.316597 46.681198 254 253 252
8.285135 1.403980 46.244926 255 253 252
8.259405 1.498999 46.101307 254 254 253
8.337079 1.613410 46.534863 254 254 254
8.363297 1.719112 46.681198 254 254 254
8.363297 1.819741 46.681198 254 254 254
8.363297 1.920370 46.681198 254 254 254
8.350167 2.017827 46.607914 254 254 254
8.324032 2.111667 46.462036 254 254 254
8.311026 2.208368 46.389442 254 254 254
8.324032 2.311980 46.462036 254 251 253
8.324032 2.412137 46.462036 254 249 253
8.324032 2.512293 46.462036 254 249 253
8.324032 2.612450 46.462036 254 248 252
8.324032 2.712606 46.462036 254 249 253
8.246599 4.870318 46.029835 254 254 254
8.246599 4.969543 46.029835 254 253 254
8.246599 5.068768 46.029835 253 249 251
8.246599 5.167993 46.029835 250 244 247
8.246599 5.267218 46.029835 249 243 245
8.246599 5.366443 46.029835 251 247 249
8.442947 6.611675 47.125782 254 254 254
8.442947 6.814850 47.125782 254 254 254
8.402933 7.186975 46.902435 254 254 254
8.071406 7.194773 45.051960 255 255 255
8.059176 7.280842 44.983700 254 254 254
8.046985 7.366650 44.915646 254 254 254
8.059176 7.474781 44.983700 254 254 254
8.095977 7.606325 45.189106 254 254 254
8.108318 7.715481 45.257992 254 252 253
8.071406 7.777474 45.051960 254 250 252
8.108318 7.910603 45.257992 254 252 253
8.120697 8.020390 45.327087 254 254 254
8.120697 8.118100 45.327087 254 254 254
8.133114 8.228373 45.396397 253 252 252
8.133114 8.326232 45.396397 251 244 247
8.158062 8.449932 45.535648 249 238 242
8.145569 8.535001 45.465916 250 240 243
8.145569 11.181249 45.465916 254 235 248
8.133114 11.262012 45.396397 254 239 250
8.095977 11.308000 45.189106 254 240 249
8.108318 11.422798 45.257992 253 235 245
8.145569 11.573285 45.465916 253 232 243
8.158062 11.689196 45.535648 253 236 245
8.133114 11.751308 45.396397 254 244 250
8.120697 11.831077 45.327087 254 251 253
8.108318 11.910603 45.257992 254 251 253
8.108318 12.008163 45.257992 253 243 248
8.120697 12.124207 45.327087 247 227 238
8.108318 12.203286 45.257992 241 214 226
8.083673 12.263458 45.120430 239 209 223
8.095977 12.379537 45.189106 238 208 222
8.095977 12.476949 45.189106 238 208 222
8.059176 12.517205 44.983700 238 208 222
8.046985 12.595092 44.915646 241 210 225
8.071406 12.730433 45.051960 243 213 228
8.083673 12.847045 45.120430 246 216 231
8.108318 12.983773 45.257992 244 215 230
8.071406 13.021784 45.051960 237 207 223
8.046985 13.079206 44.915646 231 200 216
8.059176 13.195993 44.983700 230 198 213
8.059176 13.292963 44.983700 229 197 212
8.083673 13.430632 45.120430 228 195 210
8.071406 13.507368 45.051960 225 193 208
8.083673 13.625160 45.120430 223 191 204
8.108318 13.764261 45.257992 220 189 202
8.095977 13.840724 45.189106 218 188 200
8.071406 13.895835 45.051960 217 187 198
8.046985 13.950613 44.915646 214 185 196
8.071406 14.090069 45.051960 210 182 191
8.120697 14.273825 45.327087 208 180 188
8.071406 14.284303 45.051960 209 182 188
8.046985 15.209312 44.915646 205 171 186
8.071406 15.935289 45.051960 194 155 174
8.120697 16.521152 45.327087 183 142 161
8.095977 16.568274 45.189106 182 140 159
8.095977 16.665686 45.189106 179 137 157
8.059176 16.686903 44.983700 177 135 155
8.095977 16.860510 45.189106 175 132 152
8.120697 17.009703 45.327087 172 129 150
8.120697 17.107412 45.327087 169 127 147
8.120697 17.205122 45.327087 164 122 142
8.133114 17.329290 45.396397 157 116 136
8.120697 17.400543 45.327087 153 113 133
8.095977 17.444986 45.189106 153 114 133
8.095977 17.542398 45.189106 155 119 137
8.108318 17.666700 45.257992 159 125 141
8.626694 -0.709366 47.578915 254 170 192
8.626694 -0.606802 47.578915 254 171 194
8.599132 -0.502627 47.426903 254 172 196
8.599132 -0.400391 47.426903 254 175 198
8.571746 -0.297205 47.275864 254 176 199
8.530993 -0.194365 47.051098 254 178 199
8.517495 -0.092792 46.976650 254 180 200
8.477255 0.008434 46.754711 254 185 202
8.463925 0.109049 46.681198 254 189 206
8.477255 0.210009 46.754711 254 196 211
8.477255 0.310796 46.754711 254 203 215
8.477255 0.411583 46.754711 254 206 216
