ply
format ascii 1.0
element vertex 1158
property float x
property float y
property float z
property uchar red
property uchar green
property uchar blue
end_header
10.417932 7.841530 51.904270 247 164 195
10.417932 7.953419 51.904270 253 169 202
10.454485 8.093606 52.086391 254 170 203
10.436176 8.191516 51.995171 254 170 204
10.417932 8.289083 51.904270 254 168 203
10.417932 8.400971 51.904270 250 160 194
10.399750 8.498003 51.813686 245 155 187
10.399750 8.609695 51.813686 247 161 192
10.436176 8.751936 51.995171 252 176 205
10.454485 8.879571 52.086391 254 188 214
10.436176 8.976104 51.995171 254 194 217
10.472858 9.120132 52.177929 253 198 218
10.509800 9.265177 52.361980 247 201 218
10.491297 9.361542 52.269794 236 200 215
10.509800 9.490927 52.361980 223 198 212
10.417932 9.855516 51.904270 156 154 172
10.381632 9.932675 51.723419 145 141 158
10.381632 10.044173 51.723419 204 198 210
10.399750 10.173395 51.813686 218 208 216
10.399750 10.285089 51.813686 180 156 169
10.381632 10.378668 51.723419 201 173 188
10.399750 10.508473 51.813686 235 209 222
10.399750 10.620167 51.813686 237 202 215
10.417932 10.750622 51.904270 227 175 191
10.436176 10.881534 51.995171 224 163 181
10.454485 11.012904 52.086391 232 167 186
10.454485 11.125185 52.086391 241 174 194
10.472858 11.257215 52.177929 245 178 198
10.472858 11.369693 52.177929 245 179 198
10.491297 11.502386 52.269794 240 177 194
10.491297 11.615063 52.269794 230 172 188
10.491297 11.727738 52.269794 222 169 183
10.584470 12.059246 52.734001 228 187 199
10.603304 12.194583 52.827831 222 186 199
10.584470 12.286599 52.734001 207 176 189
10.660209 12.489008 53.111347 194 166 180
10.698486 12.648753 53.302052 197 172 188
10.717728 12.786611 53.397919 212 190 207
10.737039 12.924965 53.494129 222 203 220
10.737039 13.040280 53.494129 225 207 224
10.737039 13.155596 53.494129 225 207 224
10.737039 13.270911 53.494129 227 207 225
10.641172 13.266706 53.016502 230 208 226
10.584470 13.309690 52.734001 231 207 227
10.622205 13.471222 52.922001 232 205 224
10.717728 13.707474 53.397919 229 200 220
10.717728 13.822582 53.397919 226 194 215
10.641172 13.838135 53.016502 224 189 211
10.660209 13.977380 53.111347 225 187 210
10.660209 14.091870 53.111347 226 184 208
10.641172 14.180992 53.016502 225 181 205
10.660209 14.320850 53.111347 225 178 202
10.660209 14.435341 53.111347 223 174 200
10.660209 14.549830 53.111347 221 171 196
10.584470 14.560134 52.734001 217 167 192
10.509800 14.570292 52.361980 213 163 187
10.454485 14.605886 52.086391 210 160 184
10.417932 14.666705 51.904270 208 159 182
10.436176 14.804476 51.995171 205 157 180
10.417932 14.890482 51.904270 202 154 176
10.399750 14.976188 51.813686 197 149 171
10.381632 15.061595 51.723419 192 144 167
10.381632 15.173093 51.723419 191 143 166
10.363577 15.258010 51.633465 192 143 166
10.291981 15.263136 51.276756 193 144 166
10.274236 15.347164 51.188347 192 143 165
10.327655 15.537878 51.454491 192 141 162
10.381632 15.730584 51.723419 192 139 159
10.363577 15.814531 51.633465 190 137 157
10.327655 15.870633 51.454491 188 135 155
10.309787 15.953902 51.365471 186 132 152
10.291981 16.036884 51.276756 184 130 150
10.291981 16.147419 51.276756 184 130 151
10.274236 16.229923 51.188347 184 130 153
10.274236 16.340267 51.188347 184 129 153
10.256552 16.422298 51.100246 184 129 153
10.256552 16.532454 51.100246 185 128 153
10.256552 16.642609 51.100246 184 127 152
10.238929 16.723978 51.012444 182 126 151
10.221367 16.805069 50.924942 183 126 150
10.256552 16.973074 51.100246 186 130 152
10.256552 17.083227 51.100246 186 132 152
10.256552 17.193382 51.100246 181 129 147
10.238929 17.273808 51.012444 176 126 144
10.238929 17.383772 51.012444 172 125 143
10.221367 17.463732 50.924942 171 126 145
10.221367 17.573509 50.924942 171 128 147
10.274236 17.774752 51.188347 172 130 150
10.274236 17.885096 51.188347 173 132 152
10.274236 17.995440 51.188347 177 136 155
10.291981 18.137056 51.276756 184 144 161
10.274236 18.216129 51.188347 189 150 165
10.274236 18.326475 51.188347 188 150 164
10.256552 18.405087 51.100246 179 141 155
10.256552 18.515242 51.100246 169 134 147
10.238929 18.593393 51.012444 163 130 144
10.221367 18.671278 50.924942 157 127 142
10.203864 18.748896 50.837742 150 123 140
10.169039 18.794123 50.664234 144 118 136
10.134450 18.839041 50.491909 137 111 132
10.117244 18.915714 50.406185 142 114 137
10.100096 18.992128 50.320751 160 130 155
10.055186 -2.341644 49.564678 254 160 179
10.055186 -2.234799 49.564678 254 160 180
10.055186 -2.127954 49.564678 254 155 177
10.088872 -2.027880 49.730724 252 141 164
10.072001 -1.917466 49.647564 250 129 153
10.072001 -1.810442 49.647564 252 131 153
10.072001 -1.703419 49.647564 254 140 162
10.088872 -1.599070 49.730724 254 144 164
10.088872 -1.491867 49.730724 254 137 157
10.088872 -1.384664 49.730724 254 127 147
10.122785 -1.281756 49.897884 252 120 141
10.122785 -1.174193 49.897884 251 120 143
10.139826 -1.068425 49.981888 252 125 150
10.139826 -0.960681 49.981888 254 128 156
10.105800 -0.850075 49.814163 254 129 160
10.122785 -0.743940 49.897884 254 131 164
10.122785 -0.636377 49.897884 254 132 167
10.174082 -0.531494 50.150745 254 125 162
10.139826 -0.421961 49.981888 251 114 151
10.156925 -0.314746 50.066177 244 106 142
10.191298 -0.207520 50.235603 233 101 133
10.191298 -0.099229 50.235603 219 95 121
10.208570 0.009077 50.320751 207 96 114
10.208570 0.117552 50.320751 214 125 135
10.225903 0.226410 50.406185 232 175 179
10.243294 0.335639 50.491909 218 175 174
10.225903 0.443727 50.406185 170 119 111
10.243294 0.553326 50.491909 152 98 87
10.260744 0.663297 50.577927 170 120 107
10.260744 0.772326 50.577927 169 120 107
10.278254 0.882859 50.664234 161 109 100
10.295823 0.993770 50.750843 178 125 124
10.278254 1.101289 50.664234 191 135 146
10.295823 1.212573 50.750843 168 104 131
10.295823 1.321975 50.750843 135 61 106
10.295823 1.868984 50.750843 141 48 102
10.313453 1.981773 50.837742 133 40 80
10.260744 2.080674 50.577927 138 45 71
10.243294 2.185979 50.491909 151 55 72
10.278254 2.302654 50.664234 161 62 73
10.243294 2.403666 50.491909 163 59 68
10.243294 2.512509 50.491909 160 48 60
10.260744 2.625818 50.577927 162 43 57
10.243294 2.730196 50.491909 170 46 62
10.225903 2.834220 50.406185 176 48 66
10.278254 2.957944 50.664234 177 48 69
10.278254 3.067159 50.664234 177 49 74
10.278254 3.176374 50.664234 178 57 86
10.331143 3.302496 50.924942 200 98 130
10.295823 3.400608 50.750843 231 153 185
10.243294 3.492101 50.491909 231 156 189
10.260744 3.607079 50.577927 218 128 164
10.243294 3.709788 50.491909 210 115 148
10.243294 3.818632 50.491909 196 106 131
10.243294 3.927475 50.491909 204 120 139
10.225903 4.029466 50.406185 233 157 172
10.225903 4.138125 50.406185 235 162 173
10.225903 4.246783 50.406185 219 140 152
10.225903 4.355442 50.406185 217 132 146
10.191298 4.448994 50.235603 221 137 155
10.174082 4.549587 50.150745 232 161 182
10.208570 4.673484 50.320751 247 192 215
10.174082 4.765803 50.150745 246 178 203
10.191298 4.882158 50.235603 218 116 144
10.174082 4.982019 50.150745 187 68 99
10.174082 5.090127 50.150745 182 64 94
10.208570 5.215857 50.320751 192 77 107
10.243294 5.342441 50.491909 198 87 117
10.208570 5.432806 50.320751 199 94 123
10.225903 5.550688 50.406185 197 99 128
10.295823 5.698043 50.750843 194 100 129
10.331143 5.827368 50.924942 190 99 128
10.366707 5.957582 51.100246 190 101 128
10.366707 6.067738 51.100246 206 117 141
10.366707 6.177892 51.100246 228 140 158
10.402515 6.309768 51.276756 232 143 157
10.384581 6.409234 51.188347 219 128 138
10.384581 6.519578 51.188347 217 126 134
10.366707 6.618512 51.100246 234 158 165
10.384581 6.740268 51.188347 250 200 208
10.402515 6.862445 51.276756 245 198 208
10.420513 6.985044 51.365471 224 150 166
10.456696 7.120409 51.543823 218 127 149
10.438573 7.218987 51.454491 231 143 167
10.438573 7.329906 51.454491 240 153 179
10.474881 7.466705 51.633465 232 148 175
10.456696 7.564853 51.543823 226 142 169
10.493130 7.702710 51.723419 235 151 180
10.511442 7.827846 51.813686 248 164 195
10.511442 7.939538 51.813686 254 168 201
10.548261 8.079432 51.995171 254 170 204
10.548261 8.191516 51.995171 254 173 207
10.529819 8.289083 51.904270 252 167 202
10.511442 8.386310 51.813686 244 152 187
10.493130 8.483197 51.723419 236 141 174
10.493130 8.594696 51.723419 238 146 179
10.548261 8.751936 51.995171 248 163 195
10.548261 8.864020 51.995171 253 178 206
10.529819 8.960412 51.904270 253 187 211
10.566766 9.104133 52.086391 253 194 215
10.603973 9.248865 52.269794 251 201 219
10.603973 9.474217 52.269794 229 199 214
10.548261 9.536525 51.995171 220 199 214
10.548261 9.648608 51.995171 214 202 217
10.529819 9.855516 51.904270 163 159 173
10.474881 9.915401 51.633465 144 138 152
10.493130 10.044173 51.723419 197 191 201
10.493130 10.155671 51.723419 219 210 216
10.511442 10.285089 51.813686 181 162 170
10.511442 10.396781 51.813686 193 172 180
10.511442 10.508473 51.813686 232 219 224
10.511442 10.620167 51.813686 244 225 232
10.529819 10.750622 51.904270 230 191 202
10.529819 10.862510 51.904270 216 161 175
10.566766 11.012904 52.086391 221 157 174
10.566766 11.125185 52.086391 234 168 187
10.585337 11.257215 52.177929 244 177 196
10.585337 11.369693 52.177929 246 181 200
10.603973 11.502386 52.269794 243 180 198
10.585337 11.594649 52.177929 232 172 190
10.603973 11.727738 52.269794 220 166 182
10.698147 12.172923 52.734001 225 188 203
10.698147 12.286599 52.734001 211 179 194
10.755458 12.466706 53.016502 197 169 184
10.813387 12.648753 53.302052 196 171 187
10.813387 12.763655 53.302052 207 185 202
10.852354 12.924965 53.494129 218 199 216
10.852354 13.040280 53.494129 224 205 222
10.852354 13.155596 53.494129 226 207 224
10.852354 13.270911 53.494129 229 208 225
10.755458 13.266706 53.016502 232 209 227
10.698147 13.309690 52.734001 235 209 229
10.717182 13.447251 52.827831 234 206 226
10.832836 13.707474 53.397919 230 199 220
10.813387 13.797766 53.302052 225 192 212
10.755458 13.838135 53.016502 223 187 208
10.794008 14.002429 53.206528 223 183 205
10.813387 14.142469 53.302052 223 180 202
10.774699 14.206361 53.111347 222 175 199
10.832836 14.398121 53.397919 220 170 195
10.813387 14.487173 53.302052 218 166 191
10.794008 14.575906 53.206528 217 164 189
10.698147 14.560134 52.734001 216 162 187
10.622675 14.570292 52.361980 213 160 183
10.566766 14.605886 52.086391 209 157 180
10.529819 14.666705 51.904270 206 155 178
10.529819 14.778593 51.904270 204 154 177
10.493130 14.838598 51.723419 201 152 174
10.456696 14.898187 51.543823 197 148 170
10.456696 15.009297 51.543823 193 144 166
10.456696 15.120409 51.543823 191 142 165
10.438573 15.205122 51.454491 191 142 165
10.366707 15.210594 51.100246 191 142 165
10.348894 15.294425 51.012444 191 142 165
10.402515 15.484206 51.276756 191 140 162
10.402515 15.594742 51.276756 190 139 160
10.384581 15.678199 51.188347 190 137 159
10.366707 15.761369 51.100246 189 136 157
10.366707 15.871524 51.100246 187 133 155
10.384581 16.009233 51.188347 185 131 153
10.384581 16.119579 51.188347 184 130 153
10.384581 16.229923 51.188347 184 130 153
10.384581 16.340267 51.188347 184 130 153
10.366707 16.422298 51.100246 186 130 155
10.384581 16.560957 51.188347 187 131 156
10.384581 16.671303 51.188347 187 131 156
10.366707 16.752764 51.100246 186 130 154
10.348894 16.833944 51.012444 185 129 153
10.384581 17.002337 51.188347 186 132 153
10.384581 17.112682 51.188347 185 133 152
10.384581 17.223026 51.188347 179 130 148
10.366707 17.303537 51.100246 173 126 143
10.384581 17.443716 51.188347 168 123 141
10.366707 17.523848 51.100246 165 123 142
10.348894 17.603704 51.012444 167 127 146
10.402515 17.805450 51.276756 172 133 153
10.402515 17.915985 51.276756 174 136 155
10.384581 17.995440 51.188347 181 143 162
10.438573 18.199923 51.454491 195 160 177
10.384581 18.216129 51.188347 208 178 191
10.384581 18.326475 51.188347 208 179 189
10.366707 18.405087 51.100246 188 154 165
10.348894 18.483429 51.012444 173 135 148
10.331143 18.561502 50.924942 168 131 145
10.313453 18.639307 50.837742 167 132 146
10.313453 18.748896 50.837742 163 130 146
10.260744 18.762104 50.577927 157 125 142
10.243294 18.839041 50.491909 150 119 138
10.243294 18.947884 50.491909 148 116 138
10.208570 18.992128 50.320751 151 117 141
10.145095 -2.337741 49.482071 254 158 175
10.145095 -2.231074 49.482071 254 159 178
10.145095 -2.124408 49.482071 254 153 174
10.179025 -2.024489 49.647564 253 139 161
10.162031 -1.914265 49.564678 252 129 152
10.162031 -1.807420 49.564678 253 132 155
10.162031 -1.700575 49.564678 254 139 163
10.179025 -1.596395 49.647564 254 140 165
10.179025 -1.489372 49.647564 254 135 160
10.179025 -1.382349 49.647564 254 125 152
10.196074 -1.277462 49.730724 253 116 144
10.196074 -1.170259 49.730724 252 114 144
10.213182 -1.064840 49.814163 254 118 149
10.213182 -0.957457 49.814163 254 118 151
10.196074 -0.848651 49.730724 254 114 148
10.213182 -0.742692 49.814163 254 114 149
10.213182 -0.635310 49.814163 254 117 154
10.282190 -0.531494 50.150745 254 116 153
10.264851 -0.422672 50.066177 250 108 145
10.264851 -0.314746 50.066177 243 102 138
10.317045 -0.207872 50.320751 230 98 130
10.317045 -0.099398 50.320751 216 95 123
10.334561 0.009092 50.406185 209 104 124
10.317045 0.117552 50.320751 219 136 149
10.352138 0.226795 50.491909 229 172 178
10.352138 0.335639 50.491909 201 156 156
10.334561 0.443727 50.406185 158 108 103
10.369773 0.554268 50.577927 160 114 103
10.369773 0.663297 50.577927 191 153 139
10.352138 0.771013 50.491909 182 141 127
10.387468 0.882859 50.664234 148 100 91
10.405225 0.993770 50.750843 156 108 106
10.405225 1.103172 50.750843 192 145 155
10.423042 1.214650 50.837742 180 129 152
10.440921 1.326510 50.924942 126 65 104
10.423042 1.433828 50.837742 106 41 91
10.440921 1.546064 50.924942 150 92 142
10.440921 1.655841 50.924942 200 146 192
10.423042 1.872184 50.837742 145 61 110
10.423042 1.981773 50.837742 122 32 72
10.387468 2.084224 50.664234 128 36 65
10.369773 2.189703 50.577927 143 47 68
10.387468 2.302654 50.664234 156 56 72
10.369773 2.407761 50.577927 161 56 70
10.352138 2.512509 50.491909 159 48 63
10.369773 2.625818 50.577927 161 45 60
10.352138 2.730196 50.491909 167 46 63
10.334561 2.834220 50.406185 171 48 66
10.387468 2.957944 50.664234 174 51 70
10.423042 3.077663 50.837742 174 52 75
10.423042 3.187253 50.837742 175 58 87
10.458860 3.308171 51.012444 198 97 130
10.423042 3.406430 50.837742 231 158 192
10.352138 3.492101 50.491909 239 174 210
10.369773 3.607079 50.577927 233 156 194
10.352138 3.709788 50.491909 225 142 179
10.352138 3.818632 50.491909 197 116 146
10.352138 3.927475 50.491909 191 111 134
10.352138 4.036319 50.491909 221 148 165
10.334561 4.138125 50.406185 230 159 173
10.334561 4.246783 50.406185 214 137 150
10.317045 4.348060 50.320751 208 125 139
10.299588 4.448994 50.235603 215 130 147
10.299588 4.557285 50.235603 230 149 170
10.317045 4.673484 50.320751 242 170 192
10.299588 4.773867 50.235603 240 158 184
10.299588 4.882158 50.235603 220 114 142
10.282190 4.982019 50.150745 193 75 104
10.299588 5.098740 50.235603 181 63 93
10.334561 5.224712 50.406185 186 72 102
10.369773 5.351542 50.577927 192 82 112
10.334561 5.442029 50.406185 190 87 117
10.352138 5.560128 50.491909 186 90 120
10.423042 5.707800 50.837742 184 93 123
10.440921 5.827368 50.924942 183 95 125
10.476862 5.957582 51.100246 186 99 127
10.476862 6.067738 51.100246 206 118 142
10.476862 6.177892 51.100246 233 145 164
10.494925 6.298889 51.188347 236 147 160
10.494925 6.409234 51.188347 219 126 137
10.476862 6.508357 51.100246 220 131 139
10.476862 6.618512 51.100246 241 171 179
10.476862 6.728667 51.100246 252 197 207
10.513051 6.862445 51.276756 242 177 190
10.531240 6.985044 51.365471 224 139 158
10.567806 7.120409 51.543823 222 129 153
10.531240 7.206497 51.365471 233 142 169
10.531240 7.317224 51.365471 238 149 177
10.567806 7.453742 51.543823 232 145 172
10.549492 7.551743 51.454491 229 141 169
10.586185 7.689314 51.633465 239 150 180
10.623136 7.827846 51.813686 250 162 193
10.623136 7.939538 51.813686 254 166 199
10.641707 8.065307 51.904270 254 170 203
10.641707 8.177195 51.904270 254 175 208
10.623136 8.274617 51.813686 252 169 202
10.604629 8.371699 51.723419 242 149 183
10.604629 8.483197 51.723419 229 131 165
10.604629 8.594696 51.723419 227 130 163
10.660344 8.751936 51.995171 238 145 177
10.660344 8.864020 51.995171 248 163 192
10.641707 8.960412 51.904270 251 173 198
10.660344 9.088188 51.995171 251 183 204
10.697815 9.232611 52.177929 249 192 210
10.660344 9.536525 51.995171 216 189 203
10.660344 9.648608 51.995171 209 191 204
10.641707 9.855516 51.904270 169 160 171
10.586185 9.915401 51.633465 133 125 136
10.604629 10.044173 51.723419 170 163 169
10.623136 10.173395 51.813686 214 207 210
10.623136 10.285089 51.813686 191 177 181
10.623136 10.396781 51.813686 181 165 169
10.623136 10.508473 51.813686 217 209 210
10.623136 10.620167 51.813686 245 236 238
10.641707 10.750622 51.904270 239 212 219
10.641707 10.862510 51.904270 220 173 185
10.679047 11.012904 52.086391 217 157 173
10.660344 11.105701 51.995171 228 164 182
10.697815 11.257215 52.177929 241 176 195
10.697815 11.369693 52.177929 247 184 202
10.697815 11.482171 52.177929 246 184 203
10.697815 11.594649 52.177929 235 175 193
10.697815 11.707128 52.177929 220 164 182
10.811824 12.172923 52.734001 226 188 204
10.811824 12.286599 52.734001 213 180 196
10.869744 12.466706 53.016502 198 170 186
10.928288 12.648753 53.302052 194 169 186
10.928288 12.763655 53.302052 203 181 198
10.967669 12.924965 53.494129 215 195 213
10.967669 13.040280 53.494129 223 203 221
10.947944 13.131934 53.397919 226 205 224
10.967669 13.270911 53.494129 229 206 225
10.869744 13.266706 53.016502 232 207 228
10.792654 13.286091 52.640499 235 208 229
10.811824 13.423367 52.734001 235 205 226
10.928288 13.682864 53.302052 232 199 220
10.889189 13.748400 53.111347 229 192 213
10.831061 13.788889 52.827831 226 186 208
10.908704 14.002429 53.206528 225 182 204
10.947944 14.167906 53.397919 224 178 200
10.908704 14.231820 53.206528 221 171 195
10.987467 14.450100 53.590691 214 161 185
10.967669 14.539379 53.494129 208 153 177
10.947944 14.628337 53.397919 206 150 175
10.831061 14.586041 52.827831 209 152 176
10.735550 14.570292 52.361980 210 153 176
10.679047 14.605886 52.086391 207 151 174
10.660344 14.692391 51.995171 204 150 172
10.641707 14.778593 51.904270 202 149 171
10.586185 14.812792 51.633465 200 148 170
10.531240 14.846636 51.365471 196 146 167
10.513051 14.931529 51.276756 193 143 165
10.531240 15.068089 51.365471 191 142 164
10.531240 15.178816 51.365471 190 142 164
10.458860 15.184460 51.012444 189 142 164
10.476862 15.871524 51.100246 186 133 157
10.494925 16.119579 51.188347 183 129 154
10.476862 16.201988 51.100246 183 129 152
10.458860 16.284117 51.012444 184 129 152
10.458860 16.394081 51.012444 185 130 153
10.476862 16.532454 51.100246 186 131 155
10.476862 16.642609 51.100246 187 131 156
10.476862 16.752764 51.100246 186 131 154
10.458860 16.833944 51.012444 184 130 152
10.494925 17.002337 51.188347 181 129 150
10.476862 17.083227 51.100246 177 128 148
10.494925 17.223026 51.188347 172 125 144
10.476862 17.303537 51.100246 166 122 141
10.494925 17.443716 51.188347 160 119 138
10.513051 17.584379 51.276756 156 118 138
10.494925 17.664406 51.188347 162 126 146
10.531240 17.836256 51.365471 176 142 162
10.531240 17.946981 51.365471 181 147 167
10.531240 18.057709 51.365471 187 154 173
10.586185 18.263227 51.633465 204 175 191
10.531240 18.279161 51.365471 222 200 213
10.549492 18.421761 51.454491 220 199 208
10.531240 18.500614 51.365471 185 155 164
10.494925 18.547165 51.188347 163 127 137
10.458860 18.593393 51.012444 161 123 133
10.440921 18.671278 50.924942 167 128 140
10.423042 18.748896 50.837742 169 131 145
10.387468 18.794123 50.664234 166 129 145
10.352138 18.839041 50.491909 160 124 141
10.352138 18.947884 50.491909 157 120 139
10.317045 18.992128 50.320751 156 117 138
10.234703 -2.333851 49.399738 254 156 172
10.234703 -2.227362 49.399738 254 158 176
10.234703 -2.120873 49.399738 253 150 169
10.251761 -2.017741 49.482071 250 133 154
10.251761 -1.911074 49.482071 249 125 146
10.251761 -1.804408 49.482071 252 131 155
10.251761 -1.697741 49.482071 254 139 164
10.251761 -1.591074 49.482071 254 139 165
10.251761 -1.484408 49.482071 255 133 162
10.251761 -1.377741 49.482071 254 125 155
10.268876 -1.273196 49.564678 253 115 147
10.268876 -1.166351 49.564678 253 107 142
10.268876 -1.059507 49.564678 253 107 142
10.268876 -0.952662 49.564678 254 107 142
10.268876 -0.845817 49.564678 254 105 140
10.303277 -0.741448 49.730724 254 106 140
10.303277 -0.634245 49.730724 254 108 143
10.372777 -0.530598 50.066177 252 107 142
10.407879 -0.424102 50.235603 246 102 136
10.390299 -0.315278 50.150745 236 98 131
10.425520 -0.207872 50.320751 225 98 128
10.443220 -0.099566 50.406185 215 102 129
10.460980 0.009108 50.491909 211 114 137
10.443220 0.117751 50.406185 215 137 154
10.478802 0.227181 50.577927 210 149 160
10.460980 0.335639 50.491909 177 125 130
10.460980 0.444482 50.491909 150 103 102
10.478802 0.554268 50.577927 178 144 135
10.478802 0.663297 50.577927 215 193 179
10.478802 0.772326 50.577927 188 160 143
10.514627 0.884368 50.750843 131 92 79
10.532631 0.995472 50.837742 144 109 101
10.514627 1.103172 50.750843 202 176 174
10.550697 1.216733 50.924942 187 157 165
10.568826 1.328789 51.012444 116 71 94
10.550697 1.436287 50.924942 95 45 78
10.568826 1.548721 51.012444 154 112 146
10.587017 1.661541 51.100246 223 190 218
10.550697 1.765618 50.924942 224 180 212
10.550697 1.875395 50.924942 164 98 136
10.550697 1.985172 50.924942 114 35 69
10.514627 2.087787 50.750843 115 28 57
10.496684 2.193439 50.664234 140 46 70
10.514627 2.306591 50.750843 154 57 76
10.478802 2.407761 50.577927 158 55 71
10.478802 2.516789 50.577927 157 49 65
10.478802 2.625818 50.577927 159 46 63
10.478802 2.734848 50.577927 165 47 65
10.460980 2.839040 50.491909 168 49 68
10.496684 2.957944 50.664234 171 52 72
10.514627 3.072402 50.750843 173 55 79
10.514627 3.181804 50.750843 176 61 92
10.550697 3.302496 50.924942 192 88 124
10.514627 3.400608 50.750843 219 135 174
10.443220 3.486172 50.406185 235 163 204
10.460980 3.600945 50.491909 239 165 207
10.443220 3.703490 50.406185 235 162 203
10.460980 3.818632 50.491909 210 137 171
10.443220 3.920807 50.406185 188 111 139
10.443220 4.029466 50.406185 201 126 148
10.443220 4.138125 50.406185 220 147 162
10.443220 4.246783 50.406185 215 138 152
10.425520 4.348060 50.320751 206 124 138
10.390299 4.441479 50.150745 214 131 146
10.390299 4.549587 50.150745 232 151 168
10.425520 4.673484 50.320751 237 155 174
10.407879 4.773867 50.235603 233 139 162
10.407879 4.882158 50.235603 224 116 142
10.372777 4.973618 50.066177 202 86 114
10.407879 5.098740 50.235603 182 66 94
10.443220 5.224712 50.406185 180 68 97
10.478802 5.351542 50.577927 182 76 104
10.425520 5.432806 50.320751 178 80 109
10.460980 5.560128 50.491909 174 83 113
10.514627 5.698043 50.750843 172 86 117
10.550697 5.827368 50.924942 175 92 123
10.587017 5.957582 51.100246 188 106 136
10.587017 6.067738 51.100246 212 129 157
10.587017 6.177892 51.100246 235 149 171
10.605270 6.298889 51.188347 231 141 158
10.587017 6.398202 51.100246 214 119 133
10.587017 6.508357 51.100246 222 138 148
10.587017 6.618512 51.100246 245 184 195
10.605270 6.740268 51.188347 247 185 199
10.623587 6.862445 51.276756 232 148 165
10.641967 6.985044 51.365471 223 128 150
10.678918 7.120409 51.543823 227 132 158
10.641967 7.206497 51.365471 234 141 169
10.641967 7.317224 51.365471 235 145 175
10.660410 7.440824 51.454491 232 144 173
10.660410 7.551743 51.454491 234 145 174
10.716126 7.702710 51.723419 243 153 183
10.734828 7.827846 51.813686 251 162 192
10.734828 7.939538 51.813686 254 165 197
10.753595 8.065307 51.904270 254 168 201
10.734828 8.162924 51.813686 254 172 205
10.716126 8.260201 51.723419 253 168 201
10.716126 8.371699 51.723419 245 151 184
10.716126 8.483197 51.723419 229 129 163
10.734828 8.609695 51.813686 219 119 153
10.772429 8.751936 51.995171 227 130 162
10.772429 8.864020 51.995171 241 150 179
10.753595 8.960412 51.904270 249 164 190
10.772429 9.088188 51.995171 249 173 195
10.810293 9.232611 52.177929 246 181 199
10.791327 9.553255 52.086391 208 176 187
10.772429 9.648608 51.995171 199 177 186
10.753595 9.743629 51.904270 197 182 190
10.753595 9.855516 51.904270 173 163 170
10.716126 9.932675 51.723419 125 116 122
10.716126 10.044173 51.723419 135 127 130
10.734828 10.173395 51.813686 200 195 196
10.734828 10.285089 51.813686 207 199 200
10.734828 10.396781 51.813686 180 167 168
10.734828 10.508473 51.813686 201 191 191
10.734828 10.620167 51.813686 238 232 233
10.753595 10.750622 51.904270 247 232 235
10.753595 10.862510 51.904270 232 198 206
10.791327 11.012904 52.086391 222 169 183
10.791327 11.125185 52.086391 227 165 183
10.810293 11.257215 52.177929 240 177 196
10.810293 11.369693 52.177929 249 187 205
10.829325 11.502386 52.269794 248 187 207
10.829325 11.615063 52.269794 236 176 196
10.810293 11.707128 52.177929 217 161 179
10.848424 11.861297 52.361980 211 161 178
10.906129 12.037865 52.640499 224 178 196
10.925500 12.172923 52.734001 226 187 204
10.925500 12.286599 52.734001 214 180 197
10.984030 12.466706 53.016502 197 168 185
11.023399 12.626085 53.206528 191 166 183
11.023399 12.740781 53.206528 201 179 196
11.063051 12.901718 53.397919 216 196 213
11.063051 13.016827 53.397919 225 204 222
11.043190 13.108358 53.302052 227 204 224
11.063051 13.247043 53.397919 228 204 225
10.984030 13.266706 53.016502 231 205 226
10.906129 13.286091 52.640499 233 205 227
10.925500 13.423367 52.734001 234 202 224
11.023399 13.658343 53.206528 233 197 219
10.984030 13.723849 53.016502 231 192 214
10.944941 13.788889 52.827831 229 188 210
11.043190 14.027568 53.302052 229 184 206
11.102990 14.219053 53.590691 228 179 202
11.082985 14.308748 53.494129 224 172 194
11.163443 14.528776 53.882473 213 158 181
11.123068 14.591963 53.687599 202 144 168
11.102990 14.681147 53.590691 199 140 163
11.003679 14.664321 53.111347 204 144 167
10.867591 14.596034 52.454491 206 145 169
10.829325 14.657316 52.269794 204 144 168
10.810293 14.744034 52.177929 201 144 166
10.772429 14.804476 51.995171 200 143 165
10.716126 14.838598 51.723419 198 143 164
10.660410 14.872367 51.454491 195 142 164
10.660410 14.983285 51.454491 193 141 163
10.697490 15.146706 51.633465 191 141 162
10.678918 15.231520 51.543823 189 141 162
10.568826 15.184460 51.012444 189 141 162
10.587017 15.871524 51.100246 182 131 157
10.568826 15.954219 51.012444 181 130 155
10.568826 16.064184 51.012444 180 128 154
10.568826 16.174150 51.012444 180 128 151
10.532631 16.228348 50.837742 181 128 151
10.550697 16.365961 50.924942 182 128 151
10.550697 16.475739 50.924942 183 129 152
10.568826 16.614014 51.012444 183 130 152
10.550697 16.695292 50.924942 181 129 151
10.550697 16.805069 50.924942 177 126 148
10.568826 16.943911 51.012444 170 123 144
10.568826 17.053875 51.012444 165 120 140
10.587017 17.193382 51.100246 160 118 138
10.568826 17.273808 51.012444 155 116 136
10.587017 17.413692 51.100246 152 115 135
10.605270 17.554062 51.188347 149 115 136
10.605270 17.664406 51.188347 156 123 144
10.641967 17.836256 51.365471 177 146 166
10.641967 17.946981 51.365471 190 159 179
10.641967 18.057709 51.365471 197 167 185
10.697490 18.263227 51.633465 209 183 198
10.660410 18.310841 51.454491 226 204 218
10.660410 18.421761 51.454491 216 196 206
10.641967 18.500614 51.365471 172 145 153
10.605270 18.547165 51.188347 149 117 124
10.568826 18.593393 51.012444 149 114 121
10.550697 18.671278 50.924942 159 123 131
10.532631 18.748896 50.837742 166 128 140
10.496684 18.794123 50.664234 167 128 141
10.460980 18.839041 50.491909 164 124 139
10.460980 18.947884 50.491909 161 121 138
10.425520 18.992128 50.320751 159 117 137
10.324015 -2.329974 49.317677 254 152 171
10.341192 -2.227362 49.399738 254 152 171
10.341192 -2.120873 49.399738 251 142 161
10.358428 -2.017741 49.482071 245 124 144
10.341192 -1.907894 49.399738 244 120 140
10.324015 -1.798413 49.317677 250 133 155
10.341192 -1.694916 49.399738 254 145 168
10.341192 -1.588427 49.399738 254 141 166
10.341192 -1.481938 49.399738 254 129 159
10.341192 -1.375448 49.399738 254 122 154
10.341192 -1.268959 49.399738 253 112 147
10.358428 -1.164408 49.482071 251 101 138
10.358428 -1.057741 49.482071 251 97 134
10.358428 -0.951074 49.482071 251 97 133
10.341192 -0.843003 49.399738 252 98 132
10.393071 -0.740208 49.647564 252 100 131
10.393071 -0.633185 49.647564 251 102 132
10.480702 -0.530598 50.066177 247 102 129
10.516171 -0.424102 50.235603 239 98 124
10.516171 -0.315811 50.235603 229 97 120
10.533995 -0.207872 50.320751 221 102 123
10.551879 -0.099566 50.406185 216 113 132
10.569824 0.009108 50.491909 212 125 142
10.569824 0.117951 50.491909 205 134 149
10.587831 0.227181 50.577927 188 130 141
10.569824 0.335639 50.491909 159 109 117
10.587831 0.445239 50.577927 151 108 112
10.587831 0.554268 50.577927 190 159 158
10.587831 0.663297 50.577927 219 198 191
10.587831 0.772326 50.577927 177 149 137
10.624028 0.884368 50.750843 116 78 67
10.642220 0.995472 50.837742 140 109 100
10.624028 1.103172 50.750843 207 190 184
10.642220 1.214650 50.837742 187 166 168
10.660475 1.326510 50.924942 113 74 90
10.660475 1.436287 50.924942 96 47 76
10.660475 1.546064 50.924942 149 104 137
10.678791 1.658686 51.012444 213 177 207
10.642220 1.762595 50.837742 225 185 216
10.642220 1.872184 50.837742 170 112 149
10.642220 1.981773 50.837742 113 38 74
10.605899 2.084224 50.664234 113 27 59
10.605899 2.193439 50.664234 138 46 73
10.605899 2.302654 50.664234 150 54 74
10.605899 2.411869 50.664234 152 50 68
10.587831 2.516789 50.577927 154 47 65
10.587831 2.625818 50.577927 158 47 64
10.587831 2.734848 50.577927 162 48 65
10.569824 2.839040 50.491909 165 50 68
10.624028 2.963001 50.750843 167 53 72
10.642220 3.077663 50.837742 168 57 79
10.624028 3.181804 50.750843 172 65 92
10.642220 3.296842 50.837742 183 84 115
10.605899 3.394804 50.664234 201 114 148
10.551879 3.486172 50.406185 217 138 173
10.551879 3.594831 50.406185 223 149 184
10.533995 3.697213 50.320751 227 158 190
10.551879 3.812149 50.406185 220 152 179
10.551879 3.920807 50.406185 194 124 146
10.533995 4.022636 50.320751 181 110 127
10.533995 4.131111 50.320751 195 122 136
10.533995 4.239585 50.320751 208 132 145
10.533995 4.348060 50.320751 209 133 146
10.498406 4.441479 50.150745 221 151 165
10.498406 4.549587 50.150745 239 178 192
10.516171 4.665576 50.235603 241 173 189
10.498406 4.765803 50.150745 235 143 164
10.498406 4.873911 50.150745 227 119 144
10.480702 4.973618 50.066177 203 90 116
10.498406 5.090127 50.150745 181 66 92
10.551879 5.224712 50.406185 176 65 92
10.587831 5.351542 50.577927 174 72 98
10.533995 5.432806 50.320751 170 76 102
10.569824 5.560128 50.491909 165 79 107
10.624028 5.698043 50.750843 160 79 110
10.660475 5.827368 50.924942 169 90 123
10.697171 5.957582 51.100246 197 124 157
10.697171 6.067738 51.100246 226 157 188
10.697171 6.177892 51.100246 236 158 186
10.715615 6.298889 51.188347 223 131 154
10.697171 6.398202 51.100246 210 111 131
10.697171 6.508357 51.100246 225 143 158
10.697171 6.618512 51.100246 247 192 205
10.715615 6.740268 51.188347 240 171 186
10.734122 6.862445 51.276756 219 124 145
10.752693 6.985044 51.365471 221 121 145
10.790029 7.120409 51.543823 231 134 160
10.752693 7.206497 51.365471 235 140 169
10.752693 7.317224 51.365471 235 143 173
10.771329 7.440824 51.454491 236 144 174
10.771329 7.551743 51.454491 240 150 179
10.827625 7.702710 51.723419 248 158 187
10.846521 7.827846 51.813686 253 163 193
10.846521 7.939538 51.813686 254 166 197
10.865483 8.065307 51.904270 254 169 200
10.846521 8.162924 51.813686 254 170 202
10.827625 8.260201 51.723419 254 165 198
10.827625 8.371699 51.723419 248 153 186
10.827625 8.483197 51.723419 234 134 168
10.846521 8.609695 51.813686 222 120 154
10.884513 8.751936 51.995171 225 126 157
10.884513 8.864020 51.995171 239 145 174
10.865483 8.960412 51.904270 249 162 187
10.884513 9.088188 51.995171 250 170 192
10.903608 9.216413 52.086391 247 175 195
10.922771 9.345089 52.177929 240 179 194
10.922771 9.457566 52.177929 224 175 187
10.903608 9.553255 52.086391 205 167 176
10.884513 9.648608 51.995171 193 167 173
10.865483 9.743629 51.904270 191 174 177
10.846521 9.838317 51.813686 178 168 169
10.827625 9.932675 51.723419 134 127 127
10.827625 10.044173 51.723419 118 110 111
10.846521 10.173395 51.813686 176 170 171
10.827625 10.267170 51.723419 211 207 207
10.846521 10.396781 51.813686 190 181 180
10.846521 10.508473 51.813686 190 176 177
10.846521 10.620167 51.813686 224 215 216
10.865483 10.750622 51.904270 247 238 240
10.865483 10.862510 51.904270 243 218 225
10.884513 10.993617 51.995171 229 182 195
10.903608 11.125185 52.086391 225 165 182
10.922771 11.257215 52.177929 234 172 191
10.922771 11.369693 52.177929 246 184 203
10.942001 11.502386 52.269794 248 187 206
10.942001 11.615063 52.269794 237 178 197
10.942001 11.727738 52.269794 217 160 178
10.942001 11.840415 52.269794 209 157 175
11.019604 12.037865 52.640499 223 176 194
11.039177 12.172923 52.734001 227 186 204
11.039177 12.286599 52.734001 215 179 197
11.078532 12.444484 52.922001 197 165 184
11.118169 12.603498 53.111347 190 163 181
11.118169 12.717988 53.111347 201 178 195
11.158091 12.878555 53.302052 218 197 215
11.158091 12.993457 53.302052 227 206 224
11.138094 13.084867 53.206528 227 205 224
11.158091 13.223259 53.302052 227 202 222
11.098315 13.266706 53.016502 230 202 224
11.019604 13.286091 52.640499 231 202 224
11.039177 13.423367 52.734001 231 200 222
11.138094 13.658343 53.206528 230 195 216
11.078532 13.699386 52.922001 230 191 213
11.039177 13.764397 52.734001 230 188 209
11.158091 14.027568 53.302052 230 185 205
11.218513 14.219053 53.590691 231 181 202
11.198300 14.308748 53.494129 227 174 195
11.300103 14.555192 53.980442 218 162 183
11.259161 14.618398 53.784859 207 149 170
11.238800 14.707695 53.687599 203 142 164
11.178160 14.743445 53.397919 206 144 166
11.019604 14.647794 52.640499 205 143 166
10.980665 14.709108 52.454491 202 141 164
10.942001 14.769992 52.269794 200 140 162
10.922771 14.856512 52.177929 198 140 161
10.865483 14.890482 51.904270 196 140 160
10.846521 14.976188 51.813686 195 139 160
10.846521 15.087880 51.813686 193 139 160
10.865483 15.226146 51.904270 191 139 159
10.827625 15.284592 51.723419 189 139 159
10.715615 15.236820 51.188347 188 140 160
10.715615 15.898889 51.188347 181 135 162
10.660475 15.926853 50.924942 181 135 162
10.678791 16.064184 51.012444 177 130 156
10.660475 16.146408 50.924942 174 125 150
10.624028 16.200607 50.750843 174 124 147
10.642220 16.337938 50.837742 175 124 146
10.642220 16.447527 50.837742 176 124 145
10.660475 16.585516 50.924942 176 125 145
10.642220 16.666704 50.837742 174 125 145
10.642220 16.776293 50.837742 168 121 142
10.660475 16.914846 50.924942 160 116 138
10.660475 17.024624 50.924942 153 112 135
10.697171 17.193382 51.100246 149 111 134
10.678791 17.273808 51.012444 148 112 135
10.697171 17.413692 51.100246 148 114 137
10.715615 17.554062 51.188347 146 114 138
10.715615 17.664406 51.188347 148 118 140
10.752693 17.836256 51.365471 167 138 159
10.752693 17.946981 51.365471 187 159 178
10.752693 18.057709 51.365471 201 175 191
10.790029 18.231520 51.543823 214 191 203
10.752693 18.279161 51.365471 229 210 218
10.715615 18.326475 51.188347 215 196 202
10.715615 18.436819 51.188347 175 153 157
10.697171 18.515242 51.100246 161 136 140
10.660475 18.561502 50.924942 166 140 146
10.642220 18.639307 50.837742 175 147 156
10.624028 18.716846 50.750843 174 142 153
10.569824 18.730196 50.491909 165 128 141
10.551879 18.807055 50.406185 159 119 135
10.551879 18.915714 50.406185 160 118 136
10.533995 18.992128 50.320751 161 117 137
10.447681 -2.227362 49.399738 254 143 163
10.430326 -2.117350 49.317677 250 136 156
10.447681 -2.014384 49.399738 244 125 145
10.430326 -1.904725 49.317677 244 127 147
10.430326 -1.798413 49.317677 250 148 168
10.430326 -1.692101 49.317677 254 159 180
10.430326 -1.585788 49.317677 253 143 167
10.430326 -1.479476 49.317677 253 128 155
10.430326 -1.373164 49.317677 253 123 153
10.430326 -1.266851 49.317677 252 113 147
10.447681 -1.162470 49.399738 248 98 135
10.430326 -1.054227 49.317677 246 91 128
10.447681 -0.949492 49.399738 245 90 125
10.430326 -0.841602 49.317677 245 91 123
10.482565 -0.738972 49.564678 245 94 123
10.500094 -0.633185 49.647564 244 97 122
10.570803 -0.529705 49.981888 239 98 119
10.624461 -0.424102 50.235603 231 97 115
10.642468 -0.316347 50.320751 223 100 114
10.660538 -0.208225 50.406185 221 110 123
10.678668 -0.099736 50.491909 220 125 138
10.678668 0.009108 50.491909 214 134 147
10.678668 0.117951 50.491909 199 133 147
10.696859 0.227181 50.577927 178 123 136
10.678668 0.335639 50.491909 156 108 121
10.696859 0.445239 50.577927 156 113 123
10.696859 0.554268 50.577927 181 148 151
10.696859 0.663297 50.577927 189 159 158
10.696859 0.772326 50.577927 147 110 103
10.715114 0.882859 50.664234 107 66 57
10.733430 0.993770 50.750843 145 115 105
10.715114 1.101289 50.664234 208 190 184
10.733430 1.212573 50.750843 183 161 161
10.751809 1.324239 50.837742 113 73 85
10.751809 1.433828 50.837742 96 47 72
10.770251 1.546064 50.924942 133 82 117
10.770251 1.655841 50.924942 174 127 165
10.751809 1.762595 50.837742 185 136 175
10.751809 1.872184 50.837742 151 90 132
10.751809 1.981773 50.837742 115 39 80
10.715114 2.084224 50.664234 118 33 67
10.715114 2.193439 50.664234 139 48 75
10.733430 2.306591 50.750843 147 51 72
10.715114 2.411869 50.664234 148 47 65
10.696859 2.516789 50.577927 151 45 62
10.715114 2.630299 50.664234 156 46 63
10.715114 2.739514 50.664234 161 47 64
10.696859 2.843876 50.577927 164 50 68
10.733430 2.963001 50.750843 166 53 72
10.751809 3.077663 50.837742 167 58 79
10.733430 3.181804 50.750843 171 67 92
10.715114 3.285589 50.664234 180 82 110
10.696859 3.389021 50.577927 192 103 133
10.642468 3.480263 50.320751 201 120 150
10.642468 3.588738 50.320751 204 128 157
10.624461 3.690957 50.235603 207 138 162
10.642468 3.805687 50.320751 212 147 166
10.642468 3.914162 50.320751 200 136 151
10.624461 4.015830 50.235603 173 107 120
10.642468 4.131111 50.320751 165 97 108
10.642468 4.239585 50.320751 185 114 126
10.624461 4.340703 50.235603 211 147 160
10.606515 4.441479 50.150745 234 188 201
10.606515 4.549587 50.150745 249 214 227
10.624461 4.665576 50.235603 248 200 215
10.606515 4.765803 50.150745 236 153 172
10.606515 4.873911 50.150745 215 107 130
10.588629 4.973618 50.066177 188 75 98
10.606515 5.090127 50.150745 174 61 85
10.660538 5.224712 50.406185 173 65 89
10.678668 5.342441 50.491909 170 71 93
10.624461 5.423614 50.235603 165 75 97
10.678668 5.560128 50.491909 159 77 103
10.770251 5.827368 50.924942 163 88 124
10.825960 5.967854 51.188347 207 144 179
10.825960 6.078199 51.188347 240 188 220
10.825960 6.188544 51.188347 236 168 202
10.825960 6.298889 51.188347 216 124 157
10.807326 6.398202 51.100246 216 115 144
10.807326 6.508357 51.100246 235 151 174
10.807326 6.618512 51.100246 250 188 206
10.825960 6.740268 51.188347 238 160 180
10.844657 6.862445 51.276756 219 119 143
10.863420 6.985044 51.365471 223 121 147
10.882247 7.108068 51.454491 233 134 162
10.844657 7.194051 51.276756 236 140 169
10.863420 7.317224 51.365471 237 142 172
10.882247 7.440824 51.454491 238 145 174
10.882247 7.551743 51.454491 242 152 181
10.958214 7.716153 51.813686 250 162 190
10.958214 7.827846 51.813686 254 167 195
10.958214 7.939538 51.813686 254 168 197
10.977372 8.065307 51.904270 255 170 199
10.958214 8.162924 51.813686 254 171 201
10.958214 8.274617 51.813686 254 165 197
10.958214 8.386310 51.813686 250 154 187
10.958214 8.498003 51.813686 241 140 173
10.977372 8.624747 51.904270 230 128 161
10.996596 8.751936 51.995171 230 130 161
11.015889 8.879571 52.086391 241 146 176
10.977372 8.960412 51.904270 250 164 190
10.996596 9.088188 51.995171 252 172 196
11.015889 9.216413 52.086391 251 176 197
11.035249 9.345089 52.177929 245 178 196
11.054677 9.474217 52.269794 230 174 186
11.015889 9.553255 52.086391 210 166 174
10.996596 9.648608 51.995171 197 166 170
10.977372 9.743629 51.904270 192 171 173
10.958214 9.838317 51.813686 187 174 174
10.939123 9.932675 51.723419 157 149 148
10.920098 10.026705 51.633465 121 114 113
10.958214 10.173395 51.813686 145 139 140
10.939123 10.267170 51.723419 203 199 199
10.958214 10.396781 51.813686 207 200 200
10.958214 10.508473 51.813686 190 175 177
10.958214 10.620167 51.813686 209 197 199
10.958214 10.731859 51.813686 242 234 237
10.977372 10.862510 51.904270 248 231 238
10.996596 10.993617 51.995171 233 194 207
10.996596 11.105701 51.995171 222 166 182
11.015889 11.237466 52.086391 226 164 182
11.015889 11.349747 52.086391 237 174 193
11.035249 11.482171 52.177929 243 181 200
11.054677 11.615063 52.269794 239 179 197
11.035249 11.707128 52.177929 223 166 184
11.054677 11.840415 52.269794 215 162 179
11.113375 12.016559 52.547333 224 175 193
11.133080 12.151340 52.640499 228 184 203
11.133080 12.264814 52.640499 216 178 197
11.192615 12.444484 52.922001 198 165 184
11.252789 12.626085 53.206528 190 162 180
11.212601 12.695277 53.016502 200 175 193
11.272992 12.878555 53.302052 217 194 212
11.272992 12.993457 53.302052 227 205 222
11.252789 13.084867 53.206528 227 204 222
11.272992 13.223259 53.302052 226 201 221
11.232659 13.290439 53.111347 229 202 222
11.133080 13.286091 52.640499 231 202 222
11.152854 13.423367 52.734001 230 198 219
11.232659 13.633909 53.111347 229 194 215
11.172699 13.675010 52.827831 229 191 212
11.152854 13.764397 52.734001 230 188 208
11.252789 14.002429 53.206528 230 185 204
11.313616 14.193433 53.494129 230 181 200
11.313616 14.308748 53.494129 227 175 194
11.416467 14.555192 53.980442 221 166 185
11.375103 14.618398 53.784859 214 156 176
11.375103 14.734340 53.784859 211 150 171
11.354533 14.823427 53.687599 209 147 169
11.232659 14.778811 53.111347 206 144 166
11.133080 14.761269 52.640499 202 141 163
11.093740 14.822183 52.454491 199 140 161
11.113375 14.961691 52.547333 197 139 160
11.074174 15.021791 52.361980 195 138 159
11.054677 15.108020 52.269794 193 137 158
11.015889 15.167291 52.086391 192 137 157
10.996596 15.364896 51.995171 188 138 158
10.920098 15.369314 51.633465 186 138 159
10.882247 15.870633 51.454491 176 137 163
10.844657 15.926348 51.276756 182 143 170
10.788757 15.954219 51.012444 187 148 176
10.807326 16.091833 51.100246 176 136 163
10.788757 16.174150 51.012444 163 122 145
10.751809 16.228348 50.837742 158 115 136
10.751809 16.337938 50.837742 160 114 133
10.770251 16.475739 50.924942 162 114 132
10.770251 16.585516 50.924942 163 114 131
10.751809 16.666704 50.837742 162 116 133
10.751809 16.776293 50.837742 159 115 133
10.751809 16.885883 50.837742 152 111 132
10.770251 17.024624 50.924942 145 107 130
10.788757 17.163841 51.012444 144 109 134
10.770251 17.244177 50.924942 151 120 145
10.788757 17.383772 51.012444 161 132 157
10.825960 17.554062 51.188347 158 130 154
10.825960 17.664406 51.188347 147 120 141
10.863420 17.836256 51.365471 152 126 145
10.863420 17.946981 51.365471 166 141 157
10.863420 18.057709 51.365471 183 161 172
10.920098 18.263227 51.633465 203 184 191
10.882247 18.310841 51.454491 228 214 216
10.863420 18.389889 51.365471 227 217 214
10.825960 18.436819 51.188347 207 197 192
10.807326 18.515242 51.100246 205 193 190
10.788757 18.593393 51.012444 215 204 203
10.751809 18.639307 50.837742 221 208 212
10.733430 18.716846 50.750843 204 185 192
10.696859 18.762104 50.577927 168 138 152
10.660538 18.807055 50.406185 154 115 135
10.660538 18.915714 50.406185 157 114 137
10.660538 19.024372 50.406185 163 117 140
10.554171 -2.227362 49.399738 252 140 163
10.536639 -2.117350 49.317677 251 144 165
10.554171 -2.014384 49.399738 249 145 165
10.519165 -1.901566 49.235889 249 152 172
10.519165 -1.795430 49.235889 252 173 192
10.519165 -1.689294 49.235889 254 175 194
10.519165 -1.583158 49.235889 252 147 168
10.519165 -1.477022 49.235889 251 131 155
10.519165 -1.370886 49.235889 253 134 161
10.519165 -1.264750 49.235889 252 124 156
10.519165 -1.158615 49.235889 245 103 138
10.519165 -1.052479 49.235889 240 90 126
10.519165 -0.946343 49.235889 238 89 123
10.519165 -0.840207 49.235889 237 90 121
10.571761 -0.737741 49.482071 236 94 120
10.589410 -0.632128 49.564678 236 99 120
10.642713 -0.527927 49.814163 232 101 117
10.732753 -0.424102 50.235603 226 102 114
10.750943 -0.316347 50.320751 221 107 116
10.769197 -0.208225 50.406185 223 125 133
10.787511 -0.099736 50.491909 229 147 156
10.787511 0.009108 50.491909 226 154 165
10.787511 0.117951 50.491909 209 145 159
10.805889 0.227181 50.577927 184 129 143
10.787511 0.335639 50.491909 163 115 130
10.787511 0.444482 50.491909 160 116 129
10.787511 0.553326 50.491909 163 123 131
10.787511 0.662169 50.491909 149 109 112
10.787511 0.771013 50.491909 120 78 77
10.805889 0.881355 50.577927 121 83 77
10.824328 0.992074 50.664234 168 143 133
10.824328 1.101289 50.664234 200 180 174
10.842832 1.212573 50.750843 160 131 132
10.842832 1.321975 50.750843 101 62 70
10.842832 1.431377 50.750843 91 47 66
10.861399 1.543417 50.837742 113 66 97
10.861399 1.653006 50.837742 135 86 125
10.842832 1.759582 50.750843 150 102 140
10.842832 1.868984 50.750843 148 90 129
10.842832 1.978385 50.750843 127 54 94
10.824328 2.084224 50.664234 124 38 74
10.824328 2.193439 50.664234 139 47 75
10.842832 2.306591 50.750843 148 50 72
10.824328 2.411869 50.664234 149 47 65
10.824328 2.521084 50.664234 152 45 62
10.824328 2.630299 50.664234 156 45 62
10.824328 2.739514 50.664234 160 46 63
10.805889 2.843876 50.577927 163 50 67
10.842832 2.963001 50.750843 166 55 73
10.861399 3.077663 50.837742 169 62 81
10.824328 3.176374 50.664234 173 71 92
10.805889 3.279992 50.577927 179 84 107
10.769197 3.377514 50.406185 188 102 125
10.714622 3.468506 50.150745 196 117 139
10.732753 3.582666 50.235603 195 125 144
10.714622 3.684722 50.150745 191 127 143
10.732753 3.799248 50.235603 191 133 146
10.732753 3.907539 50.235603 196 142 153
10.714622 4.009047 50.150745 185 131 141
10.732753 4.124121 50.235603 158 99 108
10.732753 4.232412 50.235603 160 96 106
10.714622 4.333371 50.150745 202 149 161
10.714622 4.441479 50.150745 241 211 222
10.696554 4.541915 50.066177 253 234 244
10.714622 4.657695 50.150745 246 205 219
10.696554 4.757766 50.066177 220 138 156
10.696554 4.865692 50.066177 185 78 97
10.696554 4.973618 50.066177 167 54 75
10.714622 5.090127 50.150745 170 57 79
10.787511 5.233598 50.491909 173 65 86
10.787511 5.342441 50.491909 169 69 89
10.714622 5.414452 50.150745 164 73 94
10.787511 5.560128 50.491909 156 74 99
10.880029 5.827368 50.924942 160 87 124
10.936304 5.967854 51.188347 210 151 186
10.917481 6.067738 51.100246 245 198 229
10.917481 6.177892 51.100246 234 171 207
10.917481 6.288047 51.100246 216 131 170
10.917481 6.398202 51.100246 228 136 172
10.917481 6.508357 51.100246 247 163 194
10.917481 6.618512 51.100246 250 175 202
10.936304 6.740268 51.188347 240 151 177
10.955193 6.862445 51.276756 229 126 153
10.955193 6.972980 51.276756 230 128 155
10.993166 7.108068 51.454491 235 136 164
10.955193 7.194051 51.276756 237 140 169
10.974147 7.317224 51.365471 237 143 171
10.993166 7.440824 51.454491 240 147 175
10.993166 7.551743 51.454491 245 154 182
11.069907 7.716153 51.813686 251 163 189
11.050621 7.814208 51.723419 254 168 194
11.069907 7.939538 51.813686 254 170 196
11.069907 8.051231 51.813686 254 171 198
11.069907 8.162924 51.813686 254 171 199
11.050621 8.260201 51.723419 254 168 197
11.069907 8.386310 51.813686 252 159 190
11.069907 8.498003 51.813686 246 147 178
11.069907 8.609695 51.813686 237 137 168
11.108681 8.751936 51.995171 235 135 165
11.108681 8.864020 51.995171 242 147 176
11.089260 8.960412 51.904270 251 165 191
11.089260 9.072300 51.904270 254 175 200
11.128170 9.216413 52.086391 253 179 202
11.147727 9.345089 52.177929 250 180 200
11.147727 9.457566 52.177929 239 177 191
