ply
format ascii 1.0
element vertex 1239
property float x
property float y
property float z
property uchar red
property uchar green
property uchar blue
end_header
5.180260 4.659558 79.809792 109 63 73
5.084582 4.742362 78.335732 108 62 73
4.928534 4.760500 75.931564 109 62 74
4.878624 4.874318 75.162636 110 62 75
4.805627 4.960986 74.038010 110 62 76
4.758164 5.386063 73.306770 110 62 75
4.723178 5.503322 72.767754 110 61 74
4.746445 5.688067 73.126213 109 61 74
4.734783 5.831340 72.946541 109 61 74
4.734783 5.988588 72.946541 110 62 74
4.723178 6.130773 72.767754 113 65 76
4.734783 6.303085 72.946541 115 67 78
4.723178 6.444499 72.767754 115 66 78
4.723178 6.601361 72.767754 114 65 79
4.711630 6.741701 72.589836 113 65 79
4.723178 6.915087 72.767754 112 64 80
4.700138 7.037452 72.412788 112 64 81
4.700138 7.193550 72.412788 111 64 82
4.677322 7.313970 72.061264 111 65 84
4.700138 7.505745 72.412788 111 65 84
4.599181 7.497268 70.857384 110 65 83
4.915961 10.462642 75.737862 109 62 73
4.878624 10.545204 75.162636 107 61 71
4.878624 10.707229 75.162636 106 60 70
4.866305 10.841806 74.972832 107 60 71
4.805627 10.866223 74.038010 108 61 72
4.746445 10.890038 73.126213 110 62 73
4.746445 11.047673 73.126213 111 62 75
4.734783 11.177777 72.946541 111 63 76
4.700138 11.252087 72.412788 111 62 76
4.643510 11.270736 71.540344 110 61 76
4.534251 11.156131 69.857040 108 61 75
4.866305 17.144836 74.972832 89 56 67
4.805627 17.090662 74.038010 88 56 66
2.880503 11.392160 44.378540 77 53 58
2.867644 11.436541 44.180420 79 54 60
2.867644 11.531779 44.180420 80 54 62
2.867644 11.627017 44.180420 80 54 62
2.871917 11.739725 44.246262 81 54 62
2.884815 11.888257 44.444973 80 53 62
2.880503 11.966151 44.378540 78 53 60
4.953873 23.211710 76.321960 65 46 50
4.940587 -0.463138 73.670578 103 61 78
4.928358 0.646919 73.488220 104 68 80
4.940587 0.807334 73.670578 105 69 81
4.952877 0.968546 73.853836 105 70 83
4.965229 1.130562 74.038010 105 69 85
4.965229 1.290163 74.038010 105 68 86
4.977642 1.453389 74.223106 104 67 85
4.990117 1.617432 74.409126 102 66 84
4.990117 1.777833 74.409126 103 66 82
5.002655 1.943104 74.596085 104 67 83
5.015256 2.109208 74.783989 106 67 84
5.015256 2.270417 74.783989 108 68 84
5.015256 2.431626 74.783989 110 68 85
5.027921 2.599382 74.972832 112 68 86
5.002655 2.747124 74.596085 114 68 87
4.940587 2.871850 73.670578 116 67 87
5.530713 4.459321 82.470116 112 68 76
5.410480 4.710205 80.677292 109 65 74
5.040650 4.874318 75.162636 111 63 77
4.952877 4.948646 73.853836 113 64 78
4.952877 5.267054 73.853836 113 64 78
4.928358 5.399395 73.488220 113 64 77
4.892031 5.516844 72.946541 113 64 77
4.904080 5.688067 73.126213 112 64 77
4.892031 5.831340 72.946541 112 65 77
4.892031 5.988588 72.946541 113 66 77
4.892031 6.145836 72.946541 115 67 78
4.904080 6.318610 73.126213 116 68 79
4.892031 6.460333 72.946541 116 68 79
4.892031 6.617581 72.946541 115 68 80
4.868109 6.741701 72.589836 115 67 80
4.880041 6.915087 72.767754 114 66 81
4.868109 7.054659 72.589836 113 65 82
4.856236 7.193550 72.412788 113 66 83
4.844420 7.331765 72.236603 112 66 84
4.856236 7.505745 72.412788 112 66 85
4.786194 7.551335 71.368370 111 65 84
2.738730 5.465413 40.838024 112 63 76
5.092216 10.489400 75.931564 108 61 72
5.053443 10.571968 75.353409 106 60 70
5.053443 10.734405 75.353409 105 59 69
5.027921 10.841806 74.972832 105 60 70
4.977642 10.893389 74.223106 107 61 72
4.916189 10.916927 73.306770 109 62 73
4.928358 11.102365 73.488220 110 63 75
4.904080 11.205309 73.126213 111 64 76
4.868109 11.279597 72.589836 111 64 77
4.820961 11.325315 71.886787 111 63 77
4.695889 11.182442 70.021797 109 63 76
5.027921 17.144836 74.972832 90 57 67
2.971726 11.375157 44.312302 78 53 57
2.962882 11.436541 44.180420 79 54 59
2.962882 11.531779 44.180420 81 54 61
2.967298 11.739725 44.246262 81 54 62
2.985092 11.906080 44.511608 80 53 62
5.366729 22.957832 80.024910 72 48 48
5.253448 22.642099 78.335732 71 48 48
4.281842 23.547001 63.847832 55 42 44
5.086774 -0.461991 73.488220 105 62 79
5.086774 0.646919 73.488220 105 69 81
5.099396 0.807334 73.670578 105 70 83
5.112081 0.968546 73.853836 105 70 86
5.124829 1.130562 74.038010 105 70 89
5.124829 1.290163 74.038010 106 71 91
5.137641 1.453389 74.223106 106 69 91
5.137641 1.613389 74.223106 102 65 86
5.150518 1.777833 74.409126 101 63 83
5.163459 1.943104 74.596085 104 65 83
5.176465 2.109208 74.783989 106 67 85
5.176465 2.270417 74.783989 108 68 85
5.176465 2.431626 74.783989 110 68 85
5.189537 2.599382 74.972832 112 68 86
5.163459 2.747124 74.596085 114 68 86
5.112081 2.878994 73.853836 116 68 86
5.772631 4.509426 83.396751 114 69 77
5.740382 4.663004 82.930847 112 69 77
5.614909 4.735944 81.118149 111 68 76
5.242491 4.748356 75.737862 110 66 77
5.202675 4.874318 75.162636 112 66 79
5.137641 4.973389 74.223106 114 67 80
5.074214 5.544087 73.306770 115 67 79
5.086774 5.716227 73.488220 114 67 79
5.061716 5.845703 73.126213 114 68 79
5.061716 6.003339 73.126213 115 68 78
5.061716 6.160974 73.126213 115 69 78
5.074214 6.334211 73.306770 116 69 79
5.061716 6.476245 73.126213 116 70 79
5.061716 6.633881 73.126213 117 70 81
5.024589 6.741701 72.589836 117 70 82
5.024589 6.898180 72.589836 116 68 83
5.024589 7.054659 72.589836 115 67 83
5.012333 7.193550 72.412788 114 67 84
5.000138 7.331765 72.236603 113 67 84
5.012333 7.505745 72.412788 112 66 85
4.975924 7.606187 71.886787 112 66 85
2.830657 5.472941 40.894272 110 63 75
5.255899 10.489400 75.931564 107 60 71
5.215880 10.571968 75.353409 104 59 69
5.202675 10.869254 75.162636 104 59 70
5.163459 10.948130 74.596085 106 60 72
5.086774 10.943949 73.488220 108 62 73
5.099396 11.288723 73.670578 111 64 76
5.000138 11.380427 72.236603 111 65 77
3.062678 11.739725 44.246262 81 53 61
5.494804 22.773678 79.383003 71 47 48
4.477248 23.436504 64.682442 57 43 46
4.429001 23.321886 63.985435 56 43 45
4.400549 23.309113 63.574394 55 43 45
4.391147 23.396059 63.438553 55 42 44
4.400549 23.583202 63.574394 54 42 43
5.206527 -1.244827 72.946541 109 66 81
5.181067 -1.082260 72.589836 109 65 81
5.193766 -0.928050 72.767754 108 64 80
5.206527 -0.773082 72.946541 106 63 80
5.206527 -0.615834 72.946541 107 63 81
5.232239 -0.460851 73.306770 107 63 81
5.219351 -0.302080 73.126213 105 62 80
5.232239 0.645322 73.306770 105 69 81
5.245190 0.805335 73.488220 105 70 84
5.271285 0.968546 73.853836 104 70 87
5.284431 1.130562 74.038010 105 71 91
5.284431 1.290163 74.038010 109 74 97
5.297642 1.453389 74.223106 111 75 100
5.310919 1.617432 74.409126 105 69 92
5.310919 1.777833 74.409126 100 64 85
5.324263 1.943104 74.596085 103 65 85
5.337674 2.109208 74.783989 107 68 86
5.337674 2.270417 74.783989 109 68 86
5.337674 2.431626 74.783989 111 68 85
5.351153 2.599382 74.972832 113 69 85
5.324263 2.747124 74.596085 115 69 85
6.002993 4.547749 84.105499 116 71 81
5.605970 4.754909 78.542969 112 70 80
5.447446 4.784976 76.321960 112 70 80
5.324263 4.998381 74.596085 115 71 83
5.245190 6.191474 73.488220 115 70 78
5.245190 6.349890 73.488220 116 71 78
5.232239 6.492236 73.306770 117 71 79
5.232239 6.650260 73.306770 118 72 82
5.181067 6.741701 72.589836 118 72 84
5.181067 6.898180 72.589836 117 70 84
5.181067 7.054659 72.589836 116 69 84
5.168431 7.193550 72.412788 115 68 84
5.181067 7.367617 72.589836 113 68 85
5.181067 7.524096 72.589836 113 67 85
5.405757 10.462642 75.737862 106 60 71
5.364700 10.545204 75.162636 104 59 69
5.324263 10.948130 74.596085 105 61 71
5.405757 13.074886 75.737862 105 63 72
5.364700 13.137609 75.162636 105 62 72
5.364700 17.026217 75.162636 91 57 65
5.337674 17.101650 74.783989 90 57 66
4.626761 23.487677 64.823669 57 43 46
4.566932 23.321886 63.985435 56 43 45
4.537594 23.309113 63.574394 56 43 44
4.527899 23.396059 63.438553 55 42 43
4.537594 23.583202 63.574394 54 42 42
5.143342 27.818825 72.061264 51 38 37
5.021461 27.311270 70.353653 49 37 36
5.069513 27.878841 71.026894 47 35 35
5.350629 -1.241776 72.767754 109 67 80
5.337547 -1.082260 72.589836 111 68 83
5.350629 -0.928050 72.767754 109 65 81
5.363776 -0.773082 72.946541 107 63 80
5.363776 -0.615834 72.946541 108 64 81
5.376987 -0.459716 73.126213 108 64 81
5.363776 -0.301338 72.946541 106 63 80
5.350629 0.483714 72.767754 104 68 79
5.390263 0.645322 73.306770 105 70 81
5.417014 0.807334 73.670578 105 71 84
5.444032 0.970961 74.038010 105 71 87
5.444032 1.130562 74.038010 105 72 91
5.457642 1.293389 74.223106 110 77 98
5.471320 1.457031 74.409126 116 81 105
5.471320 1.617432 74.409126 111 77 100
5.485067 1.782300 74.596085 105 69 91
5.498883 1.947999 74.783989 106 68 88
5.498883 2.109208 74.783989 108 68 86
5.512769 2.276150 74.972832 109 68 84
5.512769 2.437766 74.972832 111 68 82
5.512769 2.599382 74.972832 114 69 83
5.485067 2.747124 74.596085 116 70 84
5.512769 2.922615 74.972832 117 71 84
5.790601 4.767521 78.751305 115 74 84
5.626435 4.797308 76.518669 114 74 84
5.430489 6.222277 73.853836 118 73 80
5.417014 6.365646 73.670578 118 73 79
5.403605 6.508306 73.488220 119 73 81
5.390263 6.650260 73.306770 119 73 83
5.350629 6.758224 72.767754 119 72 84
5.337547 6.898180 72.589836 118 70 85
5.337547 7.054659 72.589836 117 70 86
5.337547 7.211138 72.589836 115 69 86
5.350629 7.385675 72.767754 114 69 86
5.337547 7.524096 72.589836 113 69 86
5.337547 7.680576 72.589836 113 68 86
5.540753 10.409532 75.353409 107 61 72
5.512769 10.518575 74.972832 106 60 71
5.498883 10.975706 74.783989 105 62 73
5.583265 13.108326 75.931564 107 63 74
5.390263 15.341619 73.306770 95 59 62
5.498883 16.940441 74.783989 90 56 64
5.485067 17.058681 74.596085 90 57 64
5.471320 17.176329 74.409126 90 57 64
3.253438 10.976685 44.246262 87 55 58
4.787405 23.590693 65.107986 57 43 44
4.715025 23.372257 64.123634 57 43 44
4.684671 23.359133 63.710819 57 43 43
4.684671 23.496471 63.710819 55 42 42
4.674640 23.583202 63.574394 54 42 41
5.148718 27.182442 70.021797 49 37 36
5.235148 27.792219 71.197220 48 36 35
5.222623 27.878841 71.026894 47 35 35
5.185408 27.832199 70.520767 46 35 35
5.507492 -1.241776 72.767754 108 68 79
5.494026 -1.082260 72.589836 111 69 83
5.507492 -0.928050 72.767754 110 67 82
5.534622 -0.774987 73.126213 109 65 80
5.521024 -0.615834 72.946541 109 65 82
5.521024 -0.458586 72.946541 108 65 82
5.521024 -0.301338 72.946541 107 64 81
5.454021 0.168339 72.061264 103 63 76
5.507492 0.483714 72.767754 106 69 80
5.548288 0.645322 73.306770 107 71 82
5.562021 0.805335 73.488220 106 71 84
5.603632 0.970961 74.038010 105 71 86
5.603632 1.130562 74.038010 105 72 88
5.617641 1.293389 74.223106 108 75 94
5.631721 1.457031 74.409126 114 80 101
5.631721 1.617432 74.409126 115 81 102
5.645871 1.782300 74.596085 111 76 96
5.660092 1.947999 74.783989 110 72 91
5.674386 2.114534 74.972832 110 70 87
5.674386 2.276150 74.972832 110 68 83
5.674386 2.437766 74.972832 111 68 82
5.688751 2.605963 75.162636 114 70 83
5.660092 2.754044 74.783989 117 71 84
5.688751 2.930014 75.162636 118 72 85
5.703189 3.099887 75.353409 119 74 85
5.791383 4.797308 76.518669 117 77 90
5.688751 6.332545 75.162636 120 76 83
5.603632 6.397395 74.038010 120 75 82
5.603632 6.556996 74.038010 120 74 82
5.575823 6.683264 73.670578 120 72 83
5.507492 6.758224 72.767754 117 69 83
5.494026 6.898180 72.589836 116 68 84
5.494026 7.054659 72.589836 116 68 86
5.494026 7.211138 72.589836 116 69 87
5.507492 7.385675 72.767754 115 70 88
5.494026 7.524096 72.589836 114 70 88
5.494026 7.680576 72.589836 113 69 87
5.480626 7.817940 72.412788 112 67 85
5.688751 10.383179 75.162636 107 61 73
5.645871 10.465717 74.596085 107 61 73
5.645871 10.626521 74.596085 107 62 74
5.660092 10.975706 74.783989 106 63 74
5.791383 13.044730 76.518669 108 63 75
5.746948 13.108326 75.931564 108 62 75
5.703189 13.170953 75.353409 107 62 75
5.866989 14.050536 77.517601 106 62 73
5.521024 15.108981 72.946541 97 60 65
5.534622 15.303831 73.126213 95 59 63
5.521024 15.423478 72.946541 95 59 62
5.534622 15.619102 73.126213 94 59 62
5.534622 15.776737 73.126213 93 58 62
3.343834 10.960350 44.180420 88 54 59
5.440815 28.061394 71.886787 48 37 36
5.427673 28.148201 71.713142 47 36 36
5.350135 27.898466 70.688675 46 36 36
5.678272 -1.244827 72.946541 108 69 79
5.650505 -1.082260 72.589836 109 70 81
5.650505 -0.925781 72.589836 110 69 82
5.678272 -0.773082 72.946541 110 68 82
5.678272 -0.615834 72.946541 110 67 82
5.678272 -0.458586 72.946541 109 67 82
5.623009 -0.142687 72.236603 107 65 78
5.582263 0.012936 71.713142 106 65 77
5.528843 0.165922 71.026894 106 65 76
5.664354 0.483714 72.767754 108 69 80
5.706313 0.645322 73.306770 110 71 82
5.720437 0.805335 73.488220 109 71 83
5.748897 0.968546 73.853836 107 71 84
5.763234 1.130562 74.038010 106 71 86
5.777642 1.293389 74.223106 107 73 90
5.792122 1.457031 74.409126 111 77 96
5.806675 1.621496 74.596085 114 80 99
5.806675 1.782300 74.596085 114 78 97
5.821301 1.947999 74.783989 112 74 91
5.836001 2.114534 74.972832 112 72 87
5.836001 2.276150 74.972832 113 71 85
5.836001 2.437766 74.972832 115 71 84
5.850776 2.605963 75.162636 116 72 84
5.836001 2.760999 74.972832 117 73 84
5.865626 2.937450 75.353409 118 74 85
5.895553 3.115703 75.737862 119 75 86
5.925786 6.413732 76.126259 124 78 86
5.806675 6.445617 74.596085 123 76 84
5.850776 6.656596 75.162636 122 74 83
5.792122 6.750264 74.409126 121 72 83
5.692258 6.791516 73.126213 119 70 83
5.650505 6.898180 72.589836 118 69 85
5.650505 7.054659 72.589836 117 69 88
5.664354 7.228812 72.767754 117 70 89
5.678272 7.403822 72.946541 116 71 90
5.664354 7.542538 72.767754 116 72 90
5.678272 7.718318 72.946541 115 71 89
5.650505 7.837055 72.589836 114 69 86
5.706313 8.072483 73.306770 113 67 84
5.836001 10.356958 74.972832 109 62 74
5.806675 10.465717 74.596085 108 63 75
5.850776 13.137609 75.162636 109 62 77
6.034091 14.050536 77.517601 107 62 76
5.925786 13.962450 76.126259 107 62 75
5.664354 15.071950 72.767754 97 59 65
5.678272 15.266230 72.946541 96 59 63
5.678272 15.423478 72.946541 95 59 62
5.692258 15.619102 73.126213 95 59 62
5.692258 15.776737 73.126213 94 58 62
5.706313 15.973717 73.306770 93 58 62
5.706313 16.131742 73.306770 92 57 62
5.763234 16.771460 74.038010 89 57 61
5.849893 -1.405528 73.126213 107 69 77
5.835520 -1.244827 72.946541 109 70 80
5.806984 -1.082260 72.589836 110 71 81
5.806984 -0.925781 72.589836 110 71 83
5.821217 -0.614325 72.767754 110 70 83
5.806984 -0.456344 72.589836 110 69 83
5.778727 -0.298405 72.236603 109 68 81
5.736852 -0.141653 71.713142 108 67 79
5.668393 0.012782 70.857384 108 67 78
5.681954 0.165922 71.026894 108 67 77
5.821217 0.483714 72.767754 110 69 80
5.849893 0.643733 73.126213 111 71 82
5.878853 0.805335 73.488220 111 72 83
5.908101 0.968546 73.853836 110 72 84
5.922834 1.130562 74.038010 110 73 86
5.937642 1.293389 74.223106 110 75 89
5.952523 1.457031 74.409126 112 77 93
5.952523 1.617432 74.409126 115 79 95
5.982511 1.786790 74.783989 115 78 94
5.997618 1.952918 74.972832 113 75 90
5.997618 2.114534 74.972832 113 73 87
5.997618 2.276150 74.972832 115 73 87
6.012802 2.443938 75.162636 118 74 87
6.012802 2.605963 75.162636 118 75 87
5.997618 2.760999 74.972832 118 76 86
6.028062 2.937450 75.353409 119 77 87
6.058818 3.115703 75.737862 119 78 88
5.997618 6.478170 74.972832 125 77 87
5.967479 6.767225 74.596085 122 73 85
5.893441 6.842073 73.670578 121 72 87
5.849893 6.949152 73.126213 120 71 89
5.835520 7.089325 72.946541 119 70 90
5.835520 7.246573 72.946541 118 71 92
5.835520 7.403822 72.946541 117 72 92
5.835520 7.561070 72.946541 117 72 92
5.864337 7.756433 73.306770 117 72 90
5.835520 7.875566 72.946541 116 68 86
5.908101 8.132725 73.853836 114 66 83
5.982511 13.071424 74.783989 110 61 78
5.835520 15.108981 72.946541 97 59 66
5.835520 15.266230 72.946541 97 60 65
5.835520 15.423478 72.946541 97 60 64
5.864337 15.657668 73.306770 96 59 63
5.864337 15.815693 73.306770 95 58 62
5.864337 15.973717 73.306770 94 57 62
5.864337 16.131742 73.306770 93 57 62
5.878853 16.330088 73.488220 92 57 62
5.922834 16.771460 74.038010 90 57 61
5.893441 16.847036 73.670578 90 57 61
6.152997 21.734081 76.915138 74 47 53
6.333484 26.126282 79.171310 66 46 49
6.007529 -1.405528 73.126213 109 72 81
6.007529 -1.247893 73.126213 110 72 83
5.934444 -0.454123 72.236603 110 70 85
5.905706 -0.296960 71.886787 110 69 83
5.891441 -0.141653 71.713142 110 69 82
5.835064 0.012812 71.026894 109 69 80
5.905706 0.167931 71.886787 111 69 80
5.992768 0.327655 72.946541 112 69 81
5.992768 0.484903 72.946541 113 70 82
6.007529 0.643733 73.126213 113 70 83
6.037269 0.805335 73.488220 114 72 85
6.052250 0.966143 73.670578 114 73 86
6.067305 1.127750 73.853836 114 75 88
6.097641 1.293389 74.223106 114 77 90
6.112924 1.457031 74.409126 115 78 93
6.112924 1.617432 74.409126 116 80 94
6.143720 1.786790 74.783989 116 79 93
6.159234 1.952918 74.972832 113 74 88
6.159234 2.114534 74.972832 113 73 86
6.159234 2.276150 74.972832 117 76 89
6.174827 2.443938 75.162636 122 80 92
6.174827 2.605963 75.162636 122 80 92
6.159234 2.760999 74.972832 121 80 91
6.190499 2.937450 75.353409 121 81 91
6.190499 3.099887 75.353409 122 81 93
6.128283 6.445617 74.596085 125 78 89
6.174827 6.656596 75.162636 125 76 89
6.128283 6.767225 74.596085 123 75 90
6.067305 6.859093 73.853836 122 74 91
6.037269 6.983553 73.488220 121 74 92
6.022362 7.124334 73.306770 120 73 92
6.022362 7.282359 73.306770 119 73 93
6.007529 7.422058 73.126213 119 73 93
5.992768 7.561070 72.946541 118 72 90
6.037269 7.775632 73.488220 118 72 89
6.401723 11.940565 77.924522 108 66 77
6.022362 15.183594 73.306770 98 60 67
6.022362 15.341619 73.306770 98 60 65
6.007529 15.461467 73.126213 98 60 64
6.037269 15.696424 73.488220 97 60 63
6.037269 15.854840 73.488220 95 58 62
6.052250 16.052992 73.670578 94 56 61
6.037269 16.171673 73.488220 93 55 61
6.052250 16.370609 73.670578 94 57 62
6.082436 16.611858 74.038010 93 57 62
6.097641 16.813389 74.223106 92 57 61
4.126999 13.653731 50.235603 79 51 57
6.452531 22.024750 78.542969 74 48 53
6.302472 21.677921 76.716385 74 48 53
6.469646 25.987680 78.751305 66 45 48
6.097641 28.973389 74.223106 48 39 38
6.150016 -1.402075 72.946541 111 73 84
6.090162 -0.609841 72.236603 111 73 88
6.002534 -0.447589 71.197220 111 72 87
6.046031 -0.296243 71.713142 111 71 86
6.046031 -0.141653 71.713142 111 71 85
6.002534 0.012843 71.197220 112 70 84
6.150016 0.327655 72.946541 115 71 85
6.150016 0.484903 72.946541 115 71 86
6.165164 0.643733 73.126213 116 72 87
6.180387 0.803347 73.306770 116 74 89
6.211059 0.966143 73.670578 116 75 90
6.211059 1.124951 73.670578 117 76 92
6.242036 1.290163 74.038010 118 79 94
6.273325 1.457031 74.409126 118 80 95
6.273325 1.617432 74.409126 118 81 95
6.304929 1.786790 74.783989 117 79 93
6.320850 1.952918 74.972832 113 74 88
6.320850 2.114534 74.972832 113 74 87
6.320850 2.276150 74.972832 121 81 93
6.336852 2.443938 75.162636 127 87 98
6.336852 2.605963 75.162636 127 87 99
6.320850 2.760999 74.972832 125 85 97
6.336852 2.930014 75.162636 125 85 96
6.352936 3.099887 75.353409 125 85 98
6.273325 3.221442 74.409126 126 85 99
6.273325 3.381843 74.409126 127 86 102
6.090162 3.905974 72.236603 127 84 104
6.242036 6.078193 74.038010 124 77 90
6.320850 6.316554 74.972832 124 77 90
6.257642 6.413389 74.223106 125 78 91
6.289087 6.606421 74.596085 126 77 93
6.257642 6.733389 74.223106 125 76 94
6.226509 6.859093 73.853836 125 76 95
6.211059 7.000882 73.670578 125 77 96
6.195685 7.141969 73.488220 122 75 94
6.195685 7.300385 73.488220 121 74 93
6.211059 7.477309 73.670578 121 73 92
6.165164 7.579693 73.126213 120 73 91
6.211059 7.794927 73.670578 120 72 90
6.195685 7.934048 73.488220 121 71 89
8.782655 16.636335 104.172783 113 67 79
6.569703 13.956313 77.924522 112 62 81
6.180387 15.499643 73.306770 98 61 65
6.211059 15.735373 73.670578 97 59 64
6.211059 15.894182 73.670578 95 57 62
6.226509 16.092924 73.853836 93 55 60
6.226509 16.252129 73.853836 93 54 60
6.226509 16.411331 73.853836 95 56 62
6.289087 16.737074 74.596085 94 57 62
6.273325 16.855528 74.409126 92 56 61
6.604371 21.966637 78.335732 75 49 52
6.291805 -1.398639 72.767754 111 73 86
6.112040 -0.444392 70.688675 112 73 89
6.230720 -0.297681 72.061264 111 72 88
6.230720 -0.142341 72.061264 112 71 87
6.185678 0.012905 71.540344 114 72 88
6.307264 0.327655 72.946541 118 74 92
6.307264 0.484903 72.946541 117 74 92
6.307264 0.642151 72.946541 117 74 93
6.338411 0.803347 73.306770 118 76 94
6.354101 0.963751 73.488220 118 78 96
6.354101 1.122167 73.488220 119 80 98
6.385713 1.286954 73.853836 121 82 99
6.417642 1.453389 74.223106 120 82 99
6.417642 1.613389 74.223106 119 82 98
6.466137 1.786790 74.783989 119 81 96
6.466137 1.947999 74.783989 116 78 93
6.482466 2.114534 74.972832 117 78 92
6.482466 2.276150 74.972832 124 84 97
6.498878 2.443938 75.162636 131 91 103
6.498878 2.605963 75.162636 131 92 103
6.466137 2.754044 74.783989 128 88 101
6.498878 2.930014 75.162636 127 86 100
6.498878 3.092039 75.162636 126 86 100
6.417642 3.213389 74.223106 127 86 102
6.417642 3.373389 74.223106 127 85 103
6.338411 3.489767 73.306770 127 85 104
6.291805 3.620969 72.767754 127 84 105
6.245880 3.905974 72.236603 126 84 105
6.261114 4.071599 72.412788 126 83 103
6.261114 4.227696 72.412788 124 82 101
6.261114 4.539891 72.412788 122 79 97
6.401638 6.078193 74.038010 124 77 92
6.466137 6.300643 74.783989 125 78 93
6.417642 6.413389 74.223106 126 79 96
6.449891 6.606421 74.596085 127 78 97
6.417642 6.733389 74.223106 126 78 97
6.401638 6.876198 74.038010 128 79 99
6.385713 7.018297 73.853836 129 80 99
6.369868 7.159691 73.670578 125 77 95
6.369868 7.318500 73.670578 122 74 92
6.401638 7.514602 74.038010 122 74 91
6.354101 7.617217 73.488220 122 73 90
6.417642 7.853389 74.223106 123 73 90
6.369868 7.953736 73.670578 122 71 89
6.667680 13.811313 77.114914 113 63 82
6.385713 15.774516 73.853836 98 60 65
6.385713 15.933720 73.853836 96 57 63
6.401638 16.133057 74.038010 94 55 61
6.401638 16.292658 74.038010 93 54 60
6.401638 16.452257 74.038010 93 54 61
6.466137 16.779232 74.783989 94 55 62
6.449891 16.897879 74.596085 93 56 62
6.433726 17.015928 74.409126 92 56 62
6.464513 -1.559323 72.946541 111 73 87
6.432901 -1.395219 72.589836 111 73 88
6.386060 -0.763700 72.061264 112 75 94
6.417212 -0.611328 72.412788 113 75 93
6.355209 -0.450832 71.713142 113 74 92
6.401597 -0.298405 72.236603 112 71 90
6.417212 -0.143035 72.412788 112 71 89
6.386060 0.012999 72.061264 115 74 92
6.448668 0.169989 72.767754 119 76 96
6.480435 0.328462 73.126213 120 78 98
6.464513 0.484903 72.946541 119 78 98
6.480435 0.643733 73.126213 118 79 99
6.496436 0.803347 73.306770 120 81 102
6.512516 0.963751 73.488220 121 84 104
6.512516 1.122167 73.488220 123 85 106
6.528677 1.283760 73.670578 123 86 106
6.561238 1.449764 74.038010 122 84 104
6.544917 1.605362 73.853836 121 83 102
6.610695 1.782300 74.596085 122 84 102
6.627347 1.947999 74.783989 122 84 100
6.610695 2.103908 74.596085 121 82 97
6.627347 2.270417 74.783989 124 85 98
6.644083 2.437766 74.972832 129 89 102
6.644083 2.599382 74.972832 130 90 103
6.610695 2.747124 74.596085 127 87 101
6.644083 2.922615 74.972832 125 85 100
6.627347 3.076462 74.783989 125 85 101
6.512516 3.181573 73.488220 125 84 102
6.528677 3.348277 73.670578 125 83 103
6.480435 3.481171 73.126213 124 82 104
6.448668 3.620969 72.767754 124 82 104
6.432901 3.768595 72.589836 125 83 105
6.401597 3.905974 72.236603 126 84 105
6.417212 4.071599 72.412788 126 83 105
6.417212 4.227696 72.412788 126 82 103
6.417212 4.539891 72.412788 125 80 100
6.694800 6.364772 75.545143 126 81 99
6.627347 6.461853 74.783989 128 83 102
6.660903 6.656596 75.162636 130 82 103
6.610695 6.767225 74.596085 130 82 103
6.594127 6.910666 74.409126 131 83 103
6.561238 7.035799 74.038010 131 82 101
6.561238 7.195400 74.038010 128 79 96
6.561238 7.355001 74.038010 125 75 92
6.594127 7.552269 74.409126 124 74 90
6.577641 7.693388 74.223106 124 74 90
6.577641 7.853389 74.223106 125 74 91
6.512516 7.934048 73.488220 125 73 90
8.799520 15.857376 99.295128 115 67 81
6.798596 13.739937 76.716385 114 65 82
6.561238 15.973455 74.038010 97 58 65
6.577641 16.173389 74.223106 95 56 63
6.577641 16.333389 74.223106 93 54 61
6.594127 16.534725 74.409126 92 53 60
6.644083 16.821604 74.972832 93 54 62
6.627347 16.940441 74.783989 94 56 63
6.610695 17.058681 74.596085 93 57 64
5.939180 24.138500 67.018608 62 45 48
6.605531 -1.555501 72.767754 113 74 89
6.573309 -1.391816 72.412788 113 75 90
6.573309 -1.079621 72.412788 112 76 93
6.557315 -0.921276 72.236603 113 76 95
6.557315 -0.765558 72.236603 114 77 96
6.589381 -0.612823 72.589836 115 76 96
6.541399 -0.453021 72.061264 115 75 95
6.557315 -0.298405 72.236603 114 73 94
6.573309 -0.143035 72.412788 115 74 95
6.557315 0.013030 72.236603 118 76 97
6.605531 0.169989 72.767754 119 78 99
6.621761 0.327655 72.946541 119 80 101
6.605531 0.483714 72.767754 119 82 103
6.621761 0.642151 72.946541 122 86 107
6.621761 0.799399 72.946541 129 94 116
6.638071 0.959004 73.126213 131 97 119
6.638071 1.116639 73.126213 128 93 116
6.670932 1.280583 73.488220 126 90 113
6.687486 1.442569 73.670578 124 87 110
6.670932 1.597414 73.488220 124 86 109
6.720840 1.768966 74.038010 126 87 109
6.754528 1.938234 74.409126 126 87 107
6.754528 2.098635 74.409126 123 83 101
6.788556 2.270417 74.783989 122 82 98
6.805698 2.437766 74.972832 124 84 99
6.805698 2.599382 74.972832 126 86 101
6.771499 2.747124 74.596085 125 85 101
6.788556 2.915253 74.783989 124 84 101
6.754528 3.061041 74.409126 124 84 102
6.654461 3.173717 73.306770 124 84 103
6.670932 3.339989 73.488220 124 83 104
6.621761 3.472618 72.946541 123 82 104
6.589381 3.612116 72.589836 123 81 104
6.573309 3.759403 72.412788 124 83 106
6.557315 3.905974 72.236603 128 87 109
6.557315 4.061692 72.236603 129 87 109
6.573309 4.227696 72.412788 127 84 104
6.589381 4.394512 72.589836 127 82 102
6.573309 4.539891 72.412788 128 82 102
6.589381 4.707470 72.589836 129 82 102
6.557315 4.840281 72.236603 129 81 102
6.840245 6.348618 75.353409 127 85 104
6.805698 6.478170 74.972832 130 86 107
6.822928 6.656596 75.162636 132 86 108
6.771499 6.767225 74.596085 133 86 106
6.771499 6.928029 74.596085 133 85 105
6.754528 7.071066 74.409126 133 83 102
6.737642 7.213388 74.223106 130 80 97
6.720840 7.355001 74.038010 128 77 93
6.754528 7.552269 74.409126 127 76 92
6.754528 7.712670 74.409126 127 76 92
6.737642 7.853389 74.223106 127 75 93
6.654461 7.914458 73.306770 127 75 93
8.983522 15.804519 98.964142 116 67 82
7.036701 13.883434 77.517601 114 66 80
6.720840 15.973455 74.038010 97 58 66
6.737642 16.173389 74.223106 95 56 64
6.754528 16.374325 74.409126 93 55 63
6.771499 16.576269 74.596085 93 55 63
6.840245 16.906994 75.353409 94 55 64
6.822928 17.026217 75.162636 94 56 65
5.075436 15.196527 55.911945 78 51 52
5.056391 15.259579 55.702145 76 50 51
5.056391 15.499729 55.702145 73 48 49
5.037489 15.561412 55.493912 72 47 49
6.056307 24.030012 66.717400 61 44 47
7.036701 30.593616 77.517601 47 36 36
7.000147 30.600924 77.114914 47 36 36
7.018377 30.847281 77.315735 47 36 35
6.946022 30.694216 76.518669 47 36 35
6.745860 -1.551698 72.589836 116 77 92
6.729406 -1.391816 72.412788 115 77 92
6.745860 -1.238740 72.589836 113 77 93
6.729406 -1.079621 72.412788 113 77 95
6.729406 -0.923523 72.412788 114 78 97
6.713033 -0.765558 72.236603 115 78 98
6.745860 -0.612823 72.589836 116 78 99
6.729406 -0.455231 72.412788 116 77 98
6.729406 -0.299133 72.412788 116 77 98
6.729406 -0.143035 72.412788 119 79 101
6.745860 0.013094 72.589836 122 82 103
6.762394 0.169989 72.767754 120 82 102
6.779009 0.327655 72.946541 118 82 102
6.779009 0.484903 72.946541 119 84 105
6.779009 0.642151 72.946541 128 95 116
6.779009 0.799399 72.946541 144 112 134
6.795706 0.959004 73.126213 147 115 138
6.779009 1.113896 72.946541 136 103 127
6.812486 1.277421 73.306770 128 94 119
6.812486 1.435446 73.306770 129 93 118
6.812486 1.593470 73.306770 130 92 117
6.846294 1.760187 73.670578 130 91 115
6.863325 1.923770 73.853836 128 89 110
6.863325 2.082974 73.853836 125 85 104
6.880441 2.247769 74.038010 122 82 100
6.932303 2.425516 74.596085 122 82 99
6.932303 2.586320 74.596085 123 83 100
6.897642 2.733389 74.223106 124 83 101
6.932303 2.907928 74.596085 124 84 102
6.897642 3.053389 74.223106 124 85 104
6.812486 3.173717 73.306770 125 86 105
6.829348 3.339989 73.488220 126 86 107
6.779009 3.472618 72.946541 125 86 107
6.729406 3.603306 72.412788 124 85 106
6.729406 3.759403 72.412788 126 88 110
6.713033 3.905974 72.236603 133 94 116
6.713033 4.061692 72.236603 135 95 116
6.729406 4.227696 72.412788 131 89 109
6.729406 4.383794 72.412788 129 84 103
6.729406 4.539891 72.412788 130 85 103
6.745860 4.707470 72.589836 131 85 103
6.729406 4.852087 72.412788 131 84 103
6.984953 6.332545 75.162636 129 89 108
6.967315 6.478170 74.972832 133 91 111
6.967315 6.639787 74.972832 137 94 114
6.949765 6.784271 74.783989 138 93 112
6.949765 6.945480 74.783989 134 88 106
6.932303 7.088833 74.596085 133 84 102
6.897642 7.213388 74.223106 133 82 100
6.863325 7.336705 73.853836 130 80 97
6.897642 7.533389 74.223106 129 78 95
6.914929 7.712670 74.409126 129 78 95
6.880441 7.833804 74.038010 129 77 96
6.812486 7.914458 73.306770 129 77 96
7.241619 15.300145 77.924522 105 64 69
6.897642 15.853389 74.223106 97 59 67
6.914929 16.053522 74.409126 96 58 66
6.914929 16.213924 74.409126 95 56 66
6.949765 16.456816 74.783989 94 56 66
6.967315 16.659988 74.972832 93 56 66
7.038410 16.993254 75.737862 93 56 67
7.337916 18.737648 78.960747 92 56 61
7.357484 18.958281 79.171310 91 57 62
5.225486 15.282870 56.229626 77 51 52
5.195963 15.317054 55.911945 75 50 51
5.195963 15.437581 55.911945 74 49 50
5.186197 15.528864 55.806847 72 48 49
5.176466 15.619803 55.702145 71 47 48
5.147494 15.651783 55.390377 70 46 48
6.172386 23.922495 66.418884 61 44 46
7.260675 30.835146 78.129585 47 35 34
7.241619 30.922194 77.924522 47 35 34
7.185043 30.847281 77.315735 47 35 34
7.147815 30.853252 76.915138 47 35 34
6.885504 -1.547913 72.412788 117 78 92
6.868751 -1.388430 72.236603 115 78 92
6.902339 -1.238740 72.589836 113 78 93
6.885504 -1.079621 72.412788 113 78 95
6.885504 -0.923523 72.412788 113 79 98
6.868751 -0.765558 72.236603 114 80 99
6.902339 -0.612823 72.589836 116 80 100
6.885504 -0.455231 72.412788 117 80 100
6.885504 -0.299133 72.412788 118 80 100
6.902339 -0.143385 72.589836 122 83 104
6.902339 0.013094 72.589836 125 86 106
6.919257 0.169989 72.767754 122 85 104
6.936257 0.327655 72.946541 119 84 102
6.936257 0.484903 72.946541 119 86 105
6.953341 0.643733 73.126213 131 100 120
6.936257 0.799399 72.946541 153 123 144
6.936257 0.956647 72.946541 160 128 151
6.936257 1.113896 72.946541 143 110 135
6.953341 1.274275 73.126213 131 97 122
6.953341 1.431910 73.126213 134 98 123
6.953341 1.589545 73.126213 136 98 123
6.970510 1.751495 73.306770 133 94 118
6.970510 1.909520 73.306770 130 90 113
6.970510 2.067544 73.306770 127 86 108
6.987764 2.231078 73.488220 125 84 104
7.040041 2.407370 74.038010 124 83 102
7.040041 2.566971 74.038010 124 85 103
7.022529 2.719790 73.853836 124 85 103
7.075330 2.900640 74.409126 123 84 103
7.040041 3.045774 74.038010 123 86 104
6.953341 3.165900 73.126213 126 88 106
6.953341 3.323536 73.126213 128 90 109
6.919257 3.464107 72.767754 128 91 110
6.885504 3.603306 72.412788 128 91 111
6.868751 3.750257 72.236603 129 92 113
6.868751 3.905974 72.236603 135 98 119
6.868751 4.061692 72.236603 140 101 121
6.868751 4.217410 72.236603 137 96 115
6.885504 4.383794 72.412788 132 90 108
6.885504 4.539891 72.412788 133 90 106
6.902339 4.707470 72.589836 134 90 105
6.885504 4.852087 72.412788 134 89 105
6.919257 5.032734 72.767754 131 88 105
6.953341 5.215161 73.126213 129 88 105
7.005103 5.412793 73.670578 128 89 105
7.110974 6.139434 74.783989 128 92 109
7.146979 6.332545 75.162636 130 93 110
7.146979 6.494571 75.162636 136 98 114
7.110974 6.623062 74.783989 145 104 121
7.128931 6.801403 74.972832 148 104 121
7.110974 6.945480 74.783989 141 95 112
7.093107 7.088833 74.596085 138 90 107
7.057642 7.213388 74.223106 137 88 105
7.022529 7.336705 73.853836 133 84 101
7.040041 7.514602 74.038010 131 81 98
7.057642 7.693388 74.223106 130 81 99
7.040041 7.833804 74.038010 131 80 99
6.970510 7.914458 73.306770 131 80 100
6.301466 13.583383 66.270630 101 63 69
7.110974 16.295607 74.783989 94 57 66
7.409597 17.483873 77.924522 92 56 67
7.313618 17.423201 76.915138 92 56 67
7.275919 17.498339 76.518669 92 55 67
7.257215 17.617880 76.321960 92 55 66
7.351710 18.013947 77.315735 92 55 65
5.367028 15.340980 56.443428 77 52 53
5.336591 15.374963 56.123333 75 51 52
5.326522 15.466708 56.017437 73 49 50
5.326522 15.587463 56.017437 71 47 49
5.306498 15.649164 55.806847 69 46 48
5.276742 15.681038 55.493912 68 46 48
5.208591 15.596597 54.777199 68 46 48
6.689708 23.974775 70.353653 62 46 46
6.595927 23.788214 69.367386 62 45 46
7.568516 31.242239 79.595825 49 35 35
7.468404 30.998295 78.542969 48 35 35
7.448698 31.085371 78.335732 48 34 35
7.370905 30.927820 77.517601 48 34 35
7.351710 31.013947 77.315735 47 35 34
7.041602 -1.547913 72.412788 117 78 91
7.024469 -1.388430 72.236603 115 78 92
7.058818 -1.238740 72.589836 113 78 93
7.041602 -1.079621 72.412788 111 79 95
7.041602 -0.923523 72.412788 111 79 98
7.024469 -0.765558 72.236603 113 80 100
7.058818 -0.612823 72.589836 115 81 102
7.058818 -0.456344 72.589836 117 81 102
7.058818 -0.299864 72.589836 119 82 102
7.058818 -0.143385 72.589836 123 84 104
7.076119 0.013126 72.767754 125 87 106
7.093505 0.170407 72.946541 124 87 104
7.093505 0.327655 72.946541 122 86 103
7.093505 0.484903 72.946541 121 88 105
7.110977 0.643733 73.126213 128 97 115
7.093505 0.799399 72.946541 147 116 136
7.093505 0.956647 72.946541 160 129 150
7.093505 1.113896 72.946541 151 117 140
7.093505 1.271144 72.946541 135 101 125
7.110977 1.431910 73.126213 134 98 122
7.110977 1.589545 73.126213 136 98 121
7.110977 1.747181 73.126213 133 94 117
7.110977 1.904816 73.126213 130 90 112
7.093505 2.057384 72.946541 128 88 108
7.110977 2.220087 73.126213 126 86 106
7.146180 2.389494 73.488220 126 86 105
7.163912 2.554232 73.670578 127 89 107
7.163912 2.713041 73.670578 126 88 107
7.217642 2.893389 74.223106 123 86 104
7.181733 3.038198 73.853836 122 86 103
7.128535 3.173717 73.306770 124 88 105
7.110977 3.323536 73.126213 127 92 108
7.076119 3.464107 72.767754 130 94 111
7.041602 3.603306 72.412788 130 94 112
7.041602 3.759403 72.412788 127 92 111
7.024469 3.905974 72.236603 130 95 113
7.024469 4.061692 72.236603 137 101 119
7.041602 4.227696 72.412788 140 102 119
7.041602 4.383794 72.412788 139 100 115
7.041602 4.539891 72.412788 140 100 114
7.058818 4.707470 72.589836 140 99 113
7.041602 4.852087 72.412788 137 96 109
7.076119 5.032734 72.767754 133 94 106
7.128535 5.228038 73.306770 130 93 106
7.181733 5.426258 73.853836 130 95 107
7.253911 5.641597 74.596085 130 97 109
7.217642 5.773389 74.223106 129 97 109
7.217642 5.933389 74.223106 129 97 110
7.290547 6.154938 74.972832 130 98 110
7.309004 6.332545 75.162636 132 99 112
7.290547 6.478170 74.972832 139 103 117
7.253911 6.606421 74.596085 148 110 123
7.272183 6.784271 74.783989 151 111 125
7.235731 6.910666 74.409126 148 105 120
7.199643 7.035799 74.038010 145 100 115
7.181733 7.177501 73.853836 142 96 111
7.163912 7.318500 73.670578 135 88 104
7.163912 7.477309 73.670578 131 83 100
7.181733 7.655113 73.853836 130 82 100
7.163912 7.794927 73.670578 131 83 102
7.128535 7.914458 73.306770 132 83 103
7.110977 8.052600 73.126213 132 83 104
7.181733 8.769541 73.853836 127 80 101
7.235731 9.958284 74.409126 127 79 90
7.309004 11.355330 75.162636 117 72 90
7.309004 11.517356 75.162636 117 72 89
6.531802 13.767773 67.170235 101 62 68
7.678342 17.716372 78.960747 92 56 67
7.617564 17.745001 78.335732 92 56 67
7.538007 17.726776 77.517601 92 55 67
7.440867 17.663288 76.518669 92 56 66
7.460094 17.874304 76.716385 91 56 65
7.997387 21.111788 82.241669 84 53 61
7.997387 21.289074 82.241669 82 52 58
8.086993 21.706879 83.163147 80 51 56
8.019602 21.703766 82.470116 79 50 54
5.499156 15.370201 56.550938 77 53 54
5.478286 15.433312 56.336323 74 51 52
5.467910 15.525294 56.229626 72 49 51
5.467910 15.646506 56.229626 70 47 49
5.447277 15.708218 56.017437 68 46 48
5.416616 15.739879 55.702145 68 45 48
7.309004 24.965456 75.162636 64 46 44
6.923397 24.262243 71.197220 62 45 45
6.761257 23.843924 69.529839 62 45 45
7.719403 31.158705 79.383003 50 35 36
7.637716 30.998295 78.542969 50 35 36
7.597517 31.003567 78.129585 50 35 36
7.518377 30.847281 77.315735 49 34 35
7.518377 31.013947 77.315735 48 35 35
7.180186 -1.699865 72.236603 119 80 92
7.180186 -1.544147 72.236603 117 79 91
7.180186 -1.388430 72.236603 114 78 92
7.215297 -1.238740 72.589836 112 78 93
7.197699 -1.079621 72.412788 110 78 95
7.197699 -0.923523 72.412788 109 78 97
7.197699 -0.767426 72.412788 111 80 100
7.215297 -0.612823 72.589836 115 81 103
7.215297 -0.456344 72.589836 120 84 105
7.215297 -0.299864 72.589836 124 87 108
7.232982 -0.143737 72.767754 125 87 106
7.232982 0.013126 72.767754 125 86 104
7.250753 0.170407 72.946541 126 88 104
7.250753 0.327655 72.946541 126 90 104
7.250753 0.484903 72.946541 124 90 105
7.268612 0.643733 73.126213 124 92 107
7.250753 0.799399 72.946541 134 103 120
7.268612 0.959004 73.126213 152 120 139
7.250753 1.113896 72.946541 154 121 141
7.268612 1.274275 73.126213 140 105 126
7.268612 1.431910 73.126213 132 96 117
7.268612 1.589545 73.126213 131 94 114
7.268612 1.747181 73.126213 130 92 111
7.250753 1.900136 72.946541 129 91 109
7.232982 2.052342 72.767754 129 90 108
7.250753 2.214633 72.946541 128 90 107
7.268612 2.377723 73.126213 128 90 107
7.304595 2.547909 73.488220 128 92 108
7.304595 2.706326 73.488220 127 91 108
7.340937 2.878994 73.853836 124 89 105
7.304595 3.023157 73.488220 122 88 104
7.304595 3.181573 73.488220 123 90 105
7.286560 3.331742 73.306770 125 93 107
7.268612 3.481171 73.126213 129 96 111
7.232982 3.620969 72.767754 129 95 111
7.232982 3.777832 72.767754 125 92 109
7.215297 3.925075 72.589836 126 93 110
7.215297 4.081554 72.589836 134 100 116
7.215297 4.238033 72.589836 140 106 121
7.197699 4.383794 72.412788 145 109 123
7.215297 4.550992 72.589836 148 111 124
7.232982 4.719008 72.767754 146 109 121
7.215297 4.863950 72.589836 140 104 115
7.250753 5.045099 72.946541 135 100 110
7.304595 5.240979 73.488220 133 100 109
7.359243 5.439789 74.038010 134 102 111
7.396132 5.627457 74.409126 135 105 113
7.359243 5.758991 74.038010 134 105 115
7.377642 5.933389 74.223106 134 106 115
7.452163 6.154938 74.972832 135 106 115
7.433392 6.300643 74.783989 138 108 117
7.452163 6.478170 74.972832 143 111 120
7.396132 6.589863 74.409126 147 113 122
7.396132 6.750264 74.409126 148 112 123
7.359243 6.876198 74.038010 149 111 122
7.322721 7.000882 73.670578 148 108 120
7.304595 7.141969 73.488220 144 103 116
7.286560 7.282359 73.306770 137 94 109
7.304595 7.458801 73.488220 130 86 102
7.322721 7.636118 73.670578 129 85 102
7.322721 7.794927 73.670578 131 87 105
7.286560 7.914458 73.306770 133 87 106
7.268612 8.052600 73.126213 133 87 107
7.286560 8.230507 73.306770 132 86 107
7.322721 8.430162 73.670578 131 85 106
7.322721 8.588971 73.670578 129 84 105
7.340937 8.769541 73.853836 128 83 104
7.340937 8.928745 73.853836 128 84 103
7.359243 9.110612 74.038010 128 85 102
7.340937 9.247153 73.853836 124 81 97
7.377642 9.773389 74.223106 129 83 95
7.377642 9.933389 74.223106 129 82 93
7.414715 10.144109 74.596085 127 79 90
7.452163 10.356958 74.972832 126 78 90
7.471029 11.355330 75.162636 119 76 93
7.471029 11.517356 75.162636 117 74 90
7.110980 14.200856 71.540344 104 64 68
7.026325 14.184179 70.688675 102 63 69
6.943663 14.167895 69.857040 101 62 69
6.737572 13.893506 67.783661 100 61 68
7.975829 17.830690 80.241196 92 56 67
7.869484 17.763615 79.171310 91 56 67
7.827736 17.839140 78.751305 91 56 66
7.745555 17.819830 77.924522 91 56 66
7.625469 17.708929 76.716385 91 56 66
7.625469 17.874304 76.716385 91 56 65
8.174672 21.111788 82.241669 84 53 61
8.174672 21.289074 82.241669 82 53 59
8.266265 21.706879 83.163147 81 52 56
8.220214 21.764221 82.699837 79 52 55
5.631787 15.399533 56.658859 78 53 55
5.610374 15.462653 56.443428 75 50 53
5.599728 15.554754 56.336323 72 48 51
5.599728 15.676196 56.336323 70 47 50
5.589122 15.767718 56.229626 68 46 49
7.471029 24.479382 75.162636 63 44 43
7.414715 24.455667 74.596085 63 44 43
7.509050 24.929657 75.545143 64 45 43
7.489992 25.028820 75.353409 64 46 45
7.322721 24.628674 73.670578 64 46 45
7.765939 30.835146 78.129585 51 36 38
7.725279 30.841244 77.720528 51 35 37
7.685043 30.847281 77.315735 49 34 37
7.705109 31.094923 77.517601 48 35 36
7.300379 -1.691633 71.886787 122 83 97
7.318099 -1.540399 72.061264 119 82 94
7.318099 -1.385060 72.061264 115 80 93
7.353796 -1.235718 72.412788 112 79 93
7.335904 -1.076994 72.236603 109 78 95
7.353796 -0.923523 72.412788 109 78 96
7.335904 -0.765558 72.236603 110 80 99
7.371777 -0.612823 72.589836 114 81 102
7.371777 -0.456344 72.589836 126 90 112
7.389845 -0.300599 72.767754 139 101 123
7.389845 -0.143737 72.767754 137 97 117
7.389845 0.013126 72.767754 127 87 104
7.408001 0.170407 72.946541 126 88 102
7.426248 0.328462 73.126213 129 93 106
7.426248 0.486097 73.126213 127 93 106
7.426248 0.643733 73.126213 123 89 103
7.426248 0.801368 73.126213 125 93 108
7.426248 0.959004 73.126213 139 106 123
7.408001 1.113896 72.946541 148 115 133
7.426248 1.274275 73.126213 143 109 127
7.426248 1.431910 73.126213 132 97 115
7.426248 1.589545 73.126213 126 91 108
7.426248 1.747181 73.126213 127 91 106
7.389845 1.895479 72.767754 129 93 108
7.371777 2.047324 72.589836 131 95 110
7.389845 2.209205 72.767754 131 95 110
7.389845 2.366067 72.767754 130 95 109
7.426248 2.535358 73.126213 128 93 109
7.444584 2.699643 73.306770 126 92 107
7.463011 2.864741 73.488220 125 92 107
7.426248 3.008265 73.126213 124 93 107
7.444584 3.173717 73.306770 124 94 107
7.426248 3.323536 73.126213 125 95 108
7.426248 3.481171 73.126213 127 96 110
7.389845 3.620969 72.767754 127 96 111
7.389845 3.777832 72.767754 127 95 111
7.371777 3.925075 72.589836 129 96 113
7.371777 4.081554 72.589836 134 101 117
7.371777 4.238033 72.589836 139 106 120
7.353796 4.383794 72.412788 143 111 123
7.371777 4.550992 72.589836 146 114 125
7.389845 4.719008 72.767754 145 113 123
7.353796 4.852087 72.412788 142 110 119
7.389845 5.032734 72.767754 138 108 115
7.426248 5.215161 73.126213 137 108 114
7.463011 5.399395 73.488220 137 109 116
7.500141 5.585461 73.853836 138 112 118
7.500141 5.744665 73.853836 142 116 122
7.537642 5.933389 74.223106 144 119 125
7.633055 6.170520 75.162636 142 116 122
7.613780 6.316554 74.972832 142 115 121
7.613780 6.478170 74.972832 147 119 125
7.575519 6.606421 74.596085 148 119 125
7.575519 6.767225 74.596085 147 115 123
7.556533 6.910666 74.409126 148 114 122
7.500141 7.018297 73.853836 147 112 122
7.481530 7.159691 73.670578 144 107 118
7.463011 7.300385 73.488220 138 100 113
7.500141 7.495909 73.853836 132 93 106
7.500141 7.655113 73.853836 130 91 106
7.481530 7.794927 73.670578 133 93 109
7.444584 7.914458 73.306770 134 93 109
7.426248 8.052600 73.126213 133 92 109
7.444584 8.230507 73.306770 133 90 108
7.481530 8.430162 73.670578 132 88 108
7.481530 8.588971 73.670578 130 87 107
7.500141 8.769541 73.853836 128 85 105
7.500141 8.928745 73.853836 129 87 106
7.518845 9.110612 74.038010 130 89 106
7.500141 9.247153 73.853836 125 83 99
7.518845 9.429814 74.038010 121 80 95
7.556533 9.797883 74.409126 133 88 101
7.537642 9.933389 74.223106 132 86 98
7.575519 10.144109 74.596085 129 82 94
7.613780 10.356958 74.972832 128 81 93
7.633055 11.355330 75.162636 121 78 93
7.613780 11.488272 74.972832 119 76 91
7.247732 14.166719 71.368370 105 64 71
7.195839 14.218032 70.857384 103 64 71
7.110982 14.201310 70.021797 101 62 69
6.947135 14.021557 68.408394 99 60 68
8.083261 17.858862 79.595825 92 57 67
8.018767 17.886583 78.960747 91 57 66
7.955295 17.913866 78.335732 91 56 65
7.892818 17.940722 77.720528 90 56 65
8.061648 18.837849 79.383003 90 57 63
8.445537 21.706879 83.163147 82 53 57
8.375157 21.703766 82.470116 81 53 56
5.732047 15.462653 56.443428 75 50 54
7.633055 24.317356 75.162636 62 43 43
7.594601 24.356060 74.783989 62 43 42
7.892818 29.836010 77.720528 55 40 43
7.730915 29.388090 76.126259 54 39 43
7.770764 29.704525 76.518669 54 39 42
7.913535 30.586235 77.924522 52 37 40
7.934360 30.835146 78.129585 52 37 39
7.872211 30.760719 77.517601 51 36 39
7.831316 30.767157 77.114914 50 35 38
7.892818 31.176323 77.720528 49 35 38
7.455343 -1.691633 71.886787 126 87 103
7.473438 -1.540399 72.061264 123 85 101
7.473438 -1.385060 72.061264 120 84 99
7.509894 -1.235718 72.412788 117 82 98
7.491622 -1.076994 72.236603 111 79 96
7.528256 -0.925781 72.589836 109 76 95
7.509894 -0.767426 72.412788 110 78 98
7.546708 -0.614325 72.767754 115 81 103
7.546708 -0.457462 72.767754 133 96 119
7.546708 -0.300599 72.767754 151 113 135
7.546708 -0.143737 72.767754 146 106 125
7.546708 0.013126 72.767754 130 90 106
7.565250 0.170407 72.946541 127 89 102
7.583883 0.328462 73.126213 130 94 105
7.583883 0.486097 73.126213 128 94 106
7.583883 0.643733 73.126213 123 90 103
7.583883 0.801368 73.126213 121 89 103
7.583883 0.959004 73.126213 127 94 110
7.565250 1.113896 72.946541 138 105 122
7.583883 1.274275 73.126213 142 109 126
7.565250 1.428392 72.946541 134 101 116
7.583883 1.589545 73.126213 126 93 106
7.583883 1.747181 73.126213 129 95 108
7.565250 1.900136 72.946541 136 101 113
7.528256 2.047324 72.589836 136 102 114
7.546708 2.209205 72.767754 134 101 113
7.528256 2.360282 72.589836 133 100 113
7.546708 2.522930 72.767754 129 97 111
7.565250 2.686377 72.946541 125 95 108
7.602609 2.857668 73.306770 126 96 110
7.546708 2.993518 72.767754 127 98 111
7.583883 3.165900 73.126213 127 98 112
7.565250 3.315370 72.946541 127 97 112
7.546708 3.464107 72.767754 127 97 112
7.546708 3.620969 72.767754 128 97 113
7.546708 3.777832 72.767754 129 97 114
7.528256 3.925075 72.589836 130 98 115
7.546708 4.091558 72.767754 133 101 117
7.528256 4.238033 72.589836 137 107 120
7.509894 4.383794 72.412788 139 109 120
7.528256 4.550992 72.589836 139 109 119
7.565250 4.730603 72.946541 140 111 120
7.528256 4.863950 72.589836 142 114 121
7.546708 5.032734 72.767754 143 116 122
7.602609 5.228038 73.306770 144 117 123
7.621428 5.399395 73.488220 143 118 123
7.640339 5.571602 73.670578 145 122 127
7.621428 5.716227 73.488220 154 131 136
7.659345 5.903869 73.853836 158 135 140
7.755810 6.139434 74.783989 149 126 130
7.736323 6.284813 74.596085 143 120 123
7.755810 6.461853 74.783989 149 125 128
7.716934 6.589863 74.409126 152 127 130
7.697641 6.733389 74.223106 150 123 128
7.697641 6.893389 74.223106 148 119 125
7.659345 7.018297 73.853836 145 115 123
7.640339 7.159691 73.670578 143 111 120
7.621428 7.300385 73.488220 139 106 116
7.659345 7.495909 73.853836 135 101 112
7.659345 7.655113 73.853836 135 101 113
7.640339 7.794927 73.670578 138 102 116
7.602609 7.914458 73.306770 138 101 116
7.583883 8.052600 73.126213 137 99 116
7.602609 8.230507 73.306770 136 97 114
7.621428 8.409296 73.488220 134 94 113
7.640339 8.588971 73.670578 131 92 111
7.659345 8.769541 73.853836 129 90 109
7.659345 8.928745 73.853836 129 91 108
7.678445 9.110612 74.038010 129 91 108
7.659345 9.247153 73.853836 127 88 104
7.659345 9.406357 73.853836 126 86 102
7.678445 9.589416 74.038010 130 90 104
7.716934 9.797883 74.409126 134 91 105
7.697641 9.933389 74.223106 134 89 102
7.736323 10.144109 74.596085 132 86 99
7.775395 10.356958 74.972832 130 84 96
7.775395 11.326655 74.972832 121 77 90
7.755810 11.459333 74.783989 120 76 89
7.509894 14.217940 72.412788 107 65 74
7.455343 14.269626 71.886787 106 65 74
7.401578 14.320566 71.368370 103 64 74
7.296343 14.268615 70.353653 101 63 72
7.177288 14.184978 69.205696 99 61 71
8.254844 17.858862 79.595825 92 58 67
8.188980 17.886583 78.960747 91 57 66
8.124160 17.913866 78.335732 90 56 65
8.060358 17.940722 77.720528 89 56 65
8.124160 30.072178 78.335732 55 40 45
7.935713 29.539576 76.518669 55 40 45
8.060358 30.506166 77.720528 52 38 43
8.081513 30.754213 77.924522 52 37 42
8.039312 30.760719 77.517601 51 36 41
7.997550 30.767157 77.114914 50 36 40
8.081513 31.258150 77.924522 50 36 39
8.081513 31.426130 77.924522 50 36 39
7.610307 -1.691633 71.886787 126 89 107
