ply
format ascii 1.0
element vertex 1230
property float x
property float y
property float z
property uchar red
property uchar green
property uchar blue
end_header
18.469236 23.005390 67.938766 59 43 45
18.469236 23.151844 67.938766 58 43 44
18.554153 23.405415 68.251129 58 42 43
18.427071 23.391222 67.783661 57 42 42
15.465887 3.538699 56.443428 61 43 46
15.291460 3.619089 55.806847 62 43 46
21.521315 6.109406 78.542969 64 41 45
21.240356 6.196751 77.517601 63 41 45
15.037073 5.569973 54.878452 60 40 43
14.791012 5.595192 53.980442 60 41 43
14.526887 6.409564 53.016502 59 39 39
14.475190 6.500632 52.827831 59 40 40
14.449479 6.602763 52.734001 58 40 39
20.859119 10.023989 76.126259 52 37 37
20.752695 10.136111 75.737862 51 36 37
20.595079 10.221153 75.162636 50 36 37
20.136278 10.151870 73.488220 48 35 36
19.938864 10.209205 72.767754 46 35 35
19.745283 10.265426 72.061264 43 34 34
19.697474 10.395534 71.886787 39 32 31
19.745283 10.576105 72.061264 36 30 29
19.745283 10.731445 72.061264 34 29 28
19.793325 10.913274 72.236603 33 27 27
20.086559 12.655199 73.306770 35 25 27
20.037085 12.781664 73.126213 35 24 25
20.136278 13.003355 73.488220 37 24 25
20.136278 13.161771 73.488220 39 26 26
20.136278 13.320187 73.488220 42 27 28
20.086559 13.445322 73.306770 45 30 30
19.987854 13.536500 72.946541 48 31 32
20.136278 13.795434 73.488220 49 33 33
20.136278 13.953850 73.488220 51 34 35
19.890114 13.939744 72.589836 53 35 37
19.987854 14.322741 72.946541 56 36 39
19.987854 14.479989 72.946541 57 37 40
19.938864 14.601361 72.767754 58 37 41
19.793325 14.650500 72.236603 59 37 41
21.578400 16.481049 78.751305 63 39 44
17.958183 15.976502 65.539169 67 47 49
17.762133 15.941824 64.823669 66 47 48
15.037073 14.324132 54.878452 68 48 48
14.844994 14.257948 54.177448 68 48 48
19.415409 20.938795 70.857384 61 45 47
18.615690 21.101500 67.938766 59 42 44
18.488766 21.393990 67.475548 59 44 44
18.530880 23.046368 67.629250 58 42 43
18.658386 23.351732 68.094589 58 42 42
18.530880 23.337940 67.629250 57 42 42
21.806002 6.141903 78.960747 64 41 46
21.633394 6.262152 78.335732 63 41 46
15.296747 5.502529 55.390377 60 40 43
15.155373 5.569973 54.878452 60 40 43
14.961782 5.615612 54.177448 60 40 43
14.989135 5.742880 54.276493 59 40 43
15.099552 5.903049 54.676319 59 40 43
14.720030 6.329184 53.302052 58 38 39
14.615074 6.398138 52.922001 58 39 39
14.563156 6.489086 52.734001 58 40 39
14.589068 6.614511 52.827831 57 40 39
20.969454 9.998352 75.931564 52 37 37
20.915960 10.136111 75.737862 51 37 38
20.704689 10.195342 74.972832 49 37 37
20.194721 10.101861 73.126213 47 35 36
20.046593 10.184243 72.589836 44 34 34
19.852438 10.240570 71.886787 41 33 32
19.852438 10.395534 71.886787 38 31 30
19.900623 10.576105 72.061264 35 30 29
19.852438 10.705462 71.886787 33 28 27
20.095728 12.562146 72.767754 36 24 26
20.046593 12.687911 72.589836 36 24 25
20.095728 12.875872 72.767754 38 24 24
20.095728 13.032734 72.767754 41 26 26
20.145102 13.222004 72.946541 44 29 28
20.194721 13.412206 73.126213 48 31 31
20.145102 13.536500 72.946541 50 32 33
20.395664 13.864068 73.853836 52 34 35
20.294695 13.953850 73.488220 53 35 37
20.395664 14.660089 73.853836 57 37 40
20.244585 14.709519 73.306770 58 37 40
20.145102 14.794485 72.946541 59 37 41
21.690626 16.437449 78.542969 62 39 44
17.941044 15.976707 64.965523 66 47 49
15.469918 14.500670 56.017437 68 47 48
15.211608 14.377283 55.082081 68 47 48
14.989135 14.284014 54.276493 68 48 48
19.475193 20.839325 70.520767 61 46 47
18.549902 20.428406 67.170235 60 43 46
18.549902 20.573202 67.170235 60 43 45
18.762144 20.955048 67.938766 60 42 44
18.719307 21.053324 67.783661 60 42 44
18.676666 21.151152 67.629250 59 43 43
18.634220 21.248535 67.475548 59 44 43
18.634220 21.393990 67.475548 59 44 43
22.889353 3.560541 82.241669 58 40 42
22.034819 6.328948 79.171310 63 41 46
22.212519 6.724074 79.809792 63 40 45
15.769192 5.506403 56.658859 62 40 43
15.502920 5.533500 55.702145 61 40 43
15.330346 5.590641 55.082081 60 40 43
15.161572 5.646524 54.475674 59 40 42
15.245492 5.795859 54.777199 58 40 42
15.273672 5.924871 54.878452 58 39 42
14.808345 6.317842 53.206528 58 39 39
14.702948 6.386754 52.827831 58 39 39
14.624879 6.466116 52.547333 58 39 38
21.025589 10.110319 75.545143 51 37 38
20.761448 10.144109 74.596085 49 37 37
20.352356 10.101861 73.126213 45 35 35
20.252590 10.209205 72.767754 41 33 33
20.104761 10.290402 72.236603 39 32 32
20.055964 10.420766 72.061264 36 31 30
20.153797 10.627696 72.412788 34 30 29
20.153797 10.783793 72.412788 32 28 28
20.203072 12.531431 72.589836 37 24 25
20.153797 12.656964 72.412788 37 24 24
20.153797 12.813062 72.412788 39 25 24
20.153797 12.969160 72.412788 43 27 26
20.203072 13.157349 72.589836 47 30 29
20.252590 13.346459 72.767754 49 32 32
20.252590 13.503323 72.767754 52 34 34
20.606127 13.898643 74.038010 54 36 36
20.453110 13.953850 73.488220 54 37 37
20.813745 14.683515 74.783989 57 38 38
20.761448 14.807425 74.596085 57 38 38
20.657642 14.893389 74.223106 58 38 39
20.453110 14.904346 73.488220 58 37 40
20.352356 14.988561 73.126213 59 38 41
21.574560 16.222860 77.517601 62 40 43
15.649729 14.555597 56.229626 68 47 49
15.330346 14.377283 55.082081 68 48 49
15.078570 14.257948 54.177448 68 48 49
18.652498 20.382292 67.018608 60 44 46
18.694698 20.573202 67.170235 59 43 45
18.865427 20.907204 67.783661 60 42 44
18.865427 21.053324 67.783661 60 42 44
18.822453 21.151152 67.629250 60 43 44
18.822453 21.296938 67.629250 60 44 44
18.779675 21.393990 67.475548 60 44 44
23.195145 3.580377 82.699837 58 40 41
15.770941 5.585900 56.229626 61 41 44
15.477800 5.957910 55.184464 57 39 41
21.188438 10.110319 75.545143 51 37 37
20.974955 10.169662 74.783989 48 37 37
20.611526 10.151870 73.488220 43 34 34
20.459599 10.234288 72.946541 39 32 32
20.409452 10.366067 72.767754 37 31 31
20.309895 10.471599 72.412788 35 30 30
20.409452 10.679792 72.767754 33 29 29
20.409452 10.836656 72.767754 32 28 28
20.309895 12.344769 72.412788 35 24 26
20.260479 12.470451 72.236603 37 25 25
20.260479 12.626169 72.236603 39 25 25
20.211302 12.750863 72.061264 41 26 26
20.162365 12.874952 71.886787 45 28 28
20.260479 13.093323 72.236603 48 31 30
20.309895 13.281355 72.412788 50 33 33
20.309895 13.437452 72.412788 52 35 35
20.459599 13.693748 72.946541 54 37 36
20.459599 13.850996 72.946541 54 37 37
20.309895 13.905746 72.412788 55 38 37
20.765728 14.537046 74.038010 56 38 38
20.714071 14.660089 73.853836 57 38 38
20.714071 14.819292 73.853836 58 38 39
20.611526 14.904346 73.488220 59 38 39
20.509993 14.988561 73.126213 60 39 40
15.449084 14.377283 55.082081 68 48 50
15.140103 14.206100 53.980442 68 49 50
15.003706 14.193433 53.494129 67 50 49
18.839495 20.428406 67.170235 60 44 46
19.011545 20.907204 67.783661 59 43 44
19.011545 21.053324 67.783661 60 42 44
19.011545 21.199442 67.783661 60 42 44
18.968239 21.296938 67.629250 61 43 45
18.968239 21.442722 67.629250 62 45 46
23.504360 3.600435 83.163147 58 40 40
23.906145 5.485343 84.584732 61 41 43
21.351290 10.110319 75.545143 50 37 37
21.136164 10.169662 74.783989 47 37 37
20.821480 10.177061 73.670578 43 34 34
20.667627 10.259497 73.126213 38 31 31
20.566315 10.366067 72.767754 36 30 31
20.516031 10.497202 72.589836 34 29 30
20.616846 10.706033 72.946541 32 28 29
20.667627 10.890038 73.126213 31 28 28
20.416197 12.159016 72.236603 33 24 25
20.366642 12.284843 72.061264 35 24 25
20.317327 12.410062 71.886787 38 25 26
20.268253 12.534675 71.713142 41 27 27
20.219414 12.658688 71.540344 43 28 28
20.170809 12.782104 71.368370 46 29 29
20.219414 12.967122 71.540344 48 32 31
20.268253 13.153032 71.713142 50 34 33
20.317327 13.339844 71.886787 52 36 35
20.317327 13.494807 71.886787 53 37 36
20.268253 13.616800 71.713142 53 38 36
20.465992 14.061843 72.412788 55 38 38
20.718658 14.393471 73.306770 55 38 38
20.718658 14.551495 73.306770 56 38 38
20.718658 14.709519 73.306770 57 39 38
20.667627 14.830925 73.126213 58 39 39
20.566315 14.915087 72.767754 59 40 40
20.516031 15.035099 72.589836 60 40 42
21.030216 15.572319 74.409126 62 41 43
21.083057 15.772250 74.596085 63 42 44
21.030216 15.893122 74.409126 64 42 45
15.892153 12.616203 56.229626 65 41 46
15.538994 14.350658 54.980080 67 49 51
15.201190 14.154630 53.784859 67 50 50
15.037736 14.117125 53.206528 67 50 50
17.445024 17.574543 61.723995 63 45 49
17.372787 17.634275 61.468410 63 45 49
18.898777 20.336386 66.867661 61 44 47
19.027340 20.619854 67.322548 60 43 46
19.157663 20.907204 67.783661 59 43 45
19.157663 21.053324 67.783661 59 41 44
19.157663 21.199442 67.783661 59 41 44
19.114025 21.296938 67.629250 60 42 44
19.114025 21.442722 67.629250 64 46 48
19.157663 22.368391 67.783661 61 44 43
19.157663 22.514511 67.783661 61 44 43
19.157663 22.660629 67.783661 60 44 43
19.201502 22.858936 67.938766 60 44 43
24.226522 5.516778 85.069466 61 40 42
21.514139 10.110319 75.545143 49 37 37
21.297373 10.169662 74.783989 47 37 36
20.928358 10.151870 73.488220 41 34 33
20.774096 10.234288 72.946541 36 30 30
20.672510 10.340722 72.589836 34 29 29
20.672510 10.497202 72.589836 33 28 29
20.825262 10.732403 73.126213 31 28 29
20.876682 10.916927 73.306770 31 28 28
20.825262 11.047673 73.126213 30 27 28
20.472292 11.945170 71.886787 33 24 25
20.521982 12.129503 72.061264 33 23 24
20.422842 12.225496 71.713142 35 24 24
20.324656 12.320566 71.368370 39 25 26
20.227407 12.414726 71.026894 43 28 29
20.227407 12.567836 71.026894 45 29 29
20.179132 12.690586 70.857384 45 30 29
20.179132 12.843330 70.857384 48 33 32
20.131086 12.965132 70.688675 50 34 33
20.179132 13.148820 70.857384 51 36 35
20.083269 13.238374 70.520767 52 37 35
20.774096 14.479989 72.946541 54 38 37
20.774096 14.637237 72.946541 56 39 38
20.774096 14.794485 72.946541 57 39 39
20.622089 14.842330 72.412788 58 40 40
20.373631 14.817724 71.540344 60 41 42
20.876682 15.499643 73.306770 62 41 43
20.774096 15.580726 72.946541 62 42 44
20.472292 15.509336 71.886787 63 42 44
18.872894 16.011953 66.270630 69 50 50
15.599735 14.297704 54.777199 66 49 50
15.261835 14.103530 53.590691 67 50 50
14.938263 13.917589 52.454491 67 50 50
17.688402 17.684845 62.111385 62 44 48
19.000128 20.146866 66.717400 61 44 47
19.085907 20.382292 67.018608 61 44 47
19.172464 20.619854 67.322548 61 43 46
19.303782 20.907204 67.783661 60 43 46
19.347956 21.101500 67.938766 59 41 44
19.303782 21.199442 67.783661 59 41 44
19.303782 21.345560 67.783661 61 41 44
19.303782 21.491678 67.783661 65 46 48
19.347956 22.419579 67.938766 62 43 43
19.347956 22.566031 67.938766 61 44 43
19.347956 22.712484 67.938766 61 44 43
19.392332 22.911366 68.094589 60 44 42
17.897179 5.792764 62.372356 60 39 41
17.421383 5.769643 60.714195 60 39 41
16.970232 5.747720 59.141918 59 39 40
21.676989 10.110319 75.545143 48 36 35
21.458580 10.169662 74.783989 47 36 35
21.086773 10.151870 73.488220 41 33 32
20.931343 10.234288 72.946541 35 28 28
20.778187 10.315501 72.412788 33 28 27
20.828989 10.497202 72.589836 32 28 28
21.034708 10.758903 73.306770 31 28 28
21.034708 10.916927 73.306770 30 28 28
20.982899 11.047673 73.126213 30 27 28
20.478502 11.705181 71.368370 33 25 26
20.577431 11.916318 71.713142 34 24 25
20.577431 12.070907 71.713142 34 24 25
20.478502 12.166719 71.368370 36 24 25
20.331877 12.232352 70.857384 39 27 28
20.283468 12.355608 70.688675 45 30 31
20.283468 12.507989 70.688675 46 30 30
20.283468 12.660370 70.688675 46 31 30
20.235289 12.782317 70.520767 48 33 33
20.187338 12.903686 70.353653 50 35 34
19.494410 12.900126 67.938766 50 36 34
20.828989 14.565661 72.589836 54 39 38
20.828989 14.722140 72.589836 56 40 39
20.677322 14.770280 72.061264 57 40 40
20.283468 14.641322 70.688675 59 41 41
20.331877 14.829011 70.857384 60 41 42
20.778187 15.466721 72.412788 61 41 43
20.380518 15.323817 71.026894 62 41 43
20.527847 15.588808 71.540344 62 41 44
18.931236 15.940790 65.976097 69 49 50
18.764442 15.941312 65.394806 69 50 51
18.723202 16.046936 65.251083 68 49 50
18.847471 16.295034 65.684166 67 48 50
15.545724 14.141160 54.177448 65 48 49
15.294537 14.027568 53.302052 65 48 49
17.822294 17.684845 62.111385 62 45 47
19.405596 19.693293 67.629250 61 44 47
19.273884 19.704424 67.170235 61 44 47
19.230375 20.237823 67.018608 61 44 47
19.361492 20.666718 67.475548 61 43 47
19.449902 20.907204 67.783661 60 43 46
19.494410 21.101500 67.938766 60 42 45
19.494410 21.247953 67.938766 60 41 44
19.449902 21.345560 67.783661 61 41 44
19.584038 22.669783 68.251129 61 42 42
19.539122 22.764576 68.094589 60 43 42
18.031631 5.792764 62.372356 59 39 41
17.552263 5.769643 60.714195 58 38 40
17.235054 5.793887 59.616951 57 38 40
12.174548 5.182065 42.112400 54 38 37
21.839838 10.110319 75.545143 47 35 34
21.619789 10.169662 74.783989 45 35 34
21.245190 10.151870 73.488220 40 31 30
21.036903 10.209205 72.767754 36 29 28
20.883350 10.290402 72.236603 34 28 27
21.192732 10.758903 73.306770 32 28 27
21.192732 10.916927 73.306770 31 28 27
21.088591 11.020530 72.946541 30 28 27
20.533628 11.342956 71.026894 33 25 27
20.484623 11.468629 70.857384 33 25 27
20.632347 11.705181 71.368370 34 24 26
20.782219 11.945170 71.886787 35 25 26
20.732021 12.070907 71.713142 36 25 26
20.582870 12.137543 71.197220 37 26 27
20.435848 12.203227 70.688675 41 28 29
20.387308 12.326260 70.520767 45 31 31
20.387308 12.478279 70.520767 47 32 32
20.435848 12.660370 70.688675 47 32 32
20.338997 12.752028 70.353653 49 34 34
19.374846 12.869877 67.018608 50 36 34
20.883350 14.494782 72.236603 53 38 37
20.782219 14.579554 71.886787 54 39 39
20.682064 14.663507 71.540344 56 40 40
20.338997 14.571933 70.353653 58 40 41
20.832663 15.391640 72.061264 60 41 42
20.387308 15.214621 70.520767 61 40 42
20.435848 15.403227 70.688675 61 40 43
18.905411 15.941312 65.394806 68 49 50
25.774944 24.808876 89.156883 62 45 45
17.993830 17.721920 62.241596 62 45 47
19.506947 19.648535 67.475548 60 43 47
19.374846 19.659945 67.018608 60 43 47
19.731165 22.522655 68.251129 62 41 39
19.776628 22.722017 68.408394 61 41 39
18.052311 5.756483 61.981716 57 38 41
17.647055 5.757868 60.590290 56 38 40
17.433582 5.817249 59.857342 56 37 40
17.504164 5.970355 60.099682 55 37 39
12.531966 5.109211 43.027885 54 38 38
12.406107 5.149721 42.595757 54 38 38
12.282751 5.189425 42.172218 53 37 37
21.891283 10.059128 75.162636 46 35 33
21.726273 10.144109 74.596085 42 33 31
21.350758 10.126803 73.306770 39 30 28
21.193766 10.209205 72.767754 36 29 27
20.988001 10.265426 72.061264 35 28 27
21.298168 10.732403 73.126213 32 28 27
21.298168 10.890038 73.126213 32 28 27
20.588230 11.288941 70.688675 33 25 27
20.588230 11.441322 70.688675 34 24 27
20.736347 11.677112 71.197220 35 25 26
20.836281 12.041821 71.540344 37 26 27
20.637367 12.079607 70.857384 39 27 28
20.836281 14.355073 71.540344 52 37 36
20.637367 14.370777 70.857384 53 38 38
20.394001 14.654140 70.021797 57 40 41
20.786194 15.243643 71.368370 59 41 42
20.442215 15.142684 70.187332 59 40 42
20.394001 15.257914 70.021797 60 40 41
25.507542 24.369780 87.578888 61 44 44
18.204330 17.796537 62.503666 61 44 45
19.563477 19.559628 67.170235 60 43 46
19.344646 19.484016 66.418884 60 42 47
15.196936 16.656160 52.177929 61 39 42
19.742138 22.222273 67.783661 63 39 37
19.924093 22.574553 68.408394 63 39 36
19.924093 22.722017 68.408394 63 40 35
24.677214 6.360780 84.105499 59 42 42
18.035315 5.708810 61.468410 56 37 40
17.741459 5.746141 60.466888 55 37 40
17.457027 5.782276 59.497478 55 37 39
17.422113 5.898711 59.378483 54 37 39
17.562614 6.075314 59.857342 53 37 38
17.352703 6.130190 59.141918 53 37 38
12.716871 5.146504 43.341961 53 37 38
12.533895 5.164540 42.718334 53 37 37
12.373660 5.189425 42.172218 52 36 36
21.942207 9.847243 74.783989 45 35 33
21.887077 9.983305 74.596085 43 34 33
21.777641 10.093389 74.223106 40 32 30
21.508781 10.126803 73.306770 38 30 28
21.350630 10.209205 72.767754 36 29 27
21.092146 10.240570 71.886787 34 28 26
21.298428 10.653681 72.589836 32 28 27
20.642315 11.235439 70.353653 34 25 26
20.593515 11.360178 70.187332 35 25 26
20.740610 11.593703 70.688675 37 25 27
20.940041 14.166719 71.368370 51 37 35
20.790112 14.218032 70.857384 51 36 35
20.642315 14.268615 70.353653 52 37 37
20.642315 14.420274 70.353653 54 38 38
20.496603 14.469071 69.857040 56 39 40
20.496603 14.619660 69.857040 57 40 41
20.691345 15.062602 70.520767 58 41 42
20.544945 15.106971 70.021797 58 41 42
16.560944 13.029193 56.443428 63 44 44
16.655939 13.348672 56.767193 63 46 46
18.773829 18.080507 63.985435 60 44 44
15.390559 15.952925 52.454491 60 41 46
15.309414 15.981293 52.177929 60 41 45
15.176057 15.953581 51.723419 59 40 44
15.255791 16.373652 51.995171 58 39 43
15.309414 16.543682 52.177929 59 39 42
15.282556 16.626940 52.086391 60 38 41
20.071560 22.279621 68.408394 63 39 36
19.933767 22.273125 67.938766 64 39 33
20.025417 22.522655 68.251129 65 38 31
24.929138 6.378851 84.344437 59 42 43
24.041250 6.327001 81.340393 59 41 42
17.799303 5.722831 60.221588 55 37 40
17.550114 5.770711 59.378483 55 37 39
17.445440 5.863530 59.024338 54 37 39
17.585283 6.038788 59.497478 54 37 38
17.480192 6.130190 59.141918 53 38 37
12.866652 5.169143 43.532612 51 37 37
12.644174 5.171982 42.779888 51 36 36
12.446889 5.182065 42.112400 51 36 36
22.047880 9.500894 74.596085 48 35 35
22.159233 9.710494 74.972832 46 34 33
22.047880 9.822501 74.596085 43 33 32
21.828499 9.883968 73.853836 41 32 31
21.774334 10.018251 73.670578 39 31 30
21.613440 10.101861 73.126213 37 30 28
21.144714 10.191218 71.540344 35 28 26
21.298681 10.420766 72.061264 34 27 26
21.195789 10.525013 71.713142 33 27 26
20.695889 11.031499 70.021797 33 24 25
20.744814 11.208879 70.187332 35 25 26
20.744814 11.360178 70.187332 37 26 27
20.793974 11.538757 70.353653 39 27 27
20.843365 11.718184 70.520767 40 27 28
21.093885 14.166719 71.368370 51 37 36
20.892992 14.184179 70.688675 51 36 35
20.793974 14.268615 70.353653 52 37 37
20.793974 14.420274 70.353653 53 37 38
20.695889 14.503197 70.021797 55 39 39
20.647192 14.619660 69.857040 56 40 41
20.550484 14.701067 69.529839 57 41 42
20.647192 15.071424 69.857040 58 42 42
20.550484 15.150716 69.529839 59 42 42
16.619425 12.979840 56.229626 62 45 44
16.280254 14.258545 55.082081 61 42 44
15.925693 14.064166 53.882473 61 42 44
19.076210 18.237730 64.541832 58 43 44
15.782476 15.779416 53.397919 60 42 45
15.531074 15.641337 52.547333 60 41 45
15.449043 15.671400 52.269794 60 40 45
15.421892 15.756336 52.177929 60 40 45
15.394836 15.840975 52.086391 60 40 45
15.367875 15.925316 51.995171 59 40 44
15.181759 15.843176 51.365471 59 39 43
15.181759 15.953902 51.365471 59 39 43
15.287555 16.176577 51.723419 58 39 42
15.314235 16.316502 51.813686 57 39 42
15.367875 16.485737 51.995171 58 38 42
20.265720 22.331076 68.566376 63 38 34
20.126276 22.324209 68.094589 64 39 30
25.110956 6.378851 84.344437 60 41 44
22.899111 6.148589 76.915138 59 40 41
17.856680 5.699708 59.978268 56 37 40
17.607683 5.747720 59.141918 56 38 40
17.537811 5.851896 58.907227 55 38 39
17.678114 6.026711 59.378483 54 38 38
17.607683 6.130190 59.141918 53 38 37
13.232121 5.181670 44.444973 53 37 38
12.998612 5.184346 43.660652 52 37 37
12.754771 5.179445 42.841618 52 37 37
22.264626 9.524825 74.783989 47 36 35
22.208685 9.822501 74.596085 43 34 31
21.878853 9.835038 73.488220 41 32 31
21.824831 9.968779 73.306770 39 31 30
21.717585 10.077041 72.946541 38 30 29
21.196779 10.142340 71.197220 36 29 27
21.350378 10.370424 71.713142 35 28 27
21.095600 10.399416 70.857384 34 27 26
20.995384 10.502032 70.520767 33 26 25
20.995384 10.654051 70.520767 32 25 24
20.945631 10.780463 70.353653 32 25 23
20.896114 10.906278 70.187332 33 24 24
20.896114 11.057578 70.187332 35 24 24
20.896114 11.208879 70.187332 37 26 26
20.896114 11.360178 70.187332 40 27 27
20.945631 11.538757 70.353653 41 28 28
20.945631 11.690415 70.353653 43 28 29
21.771076 14.358018 73.126213 51 38 37
21.298931 14.200856 71.540344 51 37 36
20.945631 14.116956 70.353653 52 37 36
20.748959 14.435106 69.693054 55 39 39
20.748959 14.585341 69.693054 56 40 40
20.652002 14.666718 69.367386 57 41 41
20.797781 14.920836 69.857040 57 42 42
20.748959 15.036046 69.693054 58 42 42
20.700367 15.150716 69.529839 59 42 42
16.740637 12.979840 56.229626 61 45 44
16.836298 13.297820 56.550938 60 44 45
16.614769 14.325856 55.806847 61 42 45
16.368624 14.232140 54.980080 60 42 44
16.012783 14.038688 53.784859 60 42 44
19.469288 18.337788 65.394806 58 43 44
19.299250 18.317369 64.823669 57 43 44
19.512266 18.802109 65.539169 58 44 45
15.897584 15.779416 53.397919 59 42 45
15.672087 15.669070 52.640499 59 41 45
15.561720 15.671400 52.269794 59 41 45
15.479959 15.701148 51.995171 60 41 46
15.292485 15.621722 51.365471 59 41 46
15.239753 15.678199 51.188347 60 41 45
15.213523 15.761369 51.100246 60 40 44
15.266073 16.147419 51.276756 57 39 42
20.508251 22.434700 68.884552 63 40 33
20.373127 3.673582 67.938766 59 39 42
23.005314 6.132701 76.716385 60 41 42
22.313425 6.750264 74.409126 56 39 41
22.037270 6.825137 73.488220 56 39 41
17.664795 5.724912 58.907227 57 39 41
13.367953 5.197230 44.578442 53 38 38
13.131352 5.199639 43.789444 53 38 38
12.884308 5.194436 42.965618 52 37 37
22.482466 9.548878 74.972832 47 36 36
22.425835 9.847243 74.783989 43 34 32
22.037270 9.835038 73.488220 41 33 31
21.928711 9.944225 73.126213 40 32 31
21.350256 9.988862 71.197220 38 30 30
21.299179 10.118075 71.026894 37 29 29
21.453148 10.345435 71.540344 36 28 27
21.197754 10.374656 70.688675 35 27 26
21.097290 10.477145 70.353653 33 25 24
21.147404 10.654051 70.520767 33 24 23
21.097290 10.780463 70.353653 33 24 23
21.097290 10.932122 70.353653 35 25 24
21.047415 11.057578 70.187332 38 26 26
21.097290 11.235439 70.353653 41 28 27
21.097290 11.387098 70.353653 43 29 28
21.097290 11.538757 70.353653 44 29 29
21.047415 11.662779 70.187332 45 29 30
21.874832 14.322741 72.946541 51 37 37
21.248344 14.065288 70.857384 52 37 37
20.948368 14.017307 69.857040 52 37 37
20.899195 14.134637 69.693054 53 38 37
20.850250 14.251418 69.529839 53 38 37
20.850250 14.401300 69.529839 55 39 38
20.850250 14.551184 69.529839 56 40 39
20.850250 14.701067 69.529839 57 41 41
20.899195 14.885811 69.693054 57 42 42
20.850250 15.000833 69.529839 58 42 42
20.801535 15.115316 69.367386 58 42 42
16.672390 14.272202 55.597832 60 43 45
16.426304 14.179623 54.777199 60 43 44
16.128725 14.038688 53.784859 60 43 44
15.869976 13.927550 52.922001 60 44 44
19.653547 18.236988 65.539169 58 42 43
19.653547 18.378267 65.539169 58 43 43
19.481524 18.357452 64.965523 58 44 44
19.610256 18.619726 65.394806 57 43 44
19.740702 18.885489 65.829803 57 43 44
19.740702 19.027395 65.829803 57 43 45
20.188337 19.603981 67.322548 58 43 45
16.012691 15.779416 53.397919 57 43 44
15.813600 15.696901 52.734001 58 42 45
15.702040 15.699039 52.361980 58 41 45
15.592043 15.701148 51.995171 59 41 46
15.350098 15.567854 51.188347 59 41 46
15.297348 15.734288 51.012444 60 41 46
23.170689 6.132701 76.716385 61 41 43
22.086346 6.791516 73.126213 57 39 42
22.701408 9.573051 75.162636 48 36 36
22.933649 9.834669 75.931564 46 35 35
22.644083 9.872109 74.972832 43 34 33
22.140881 9.810754 73.306770 42 34 33
21.712002 9.930643 71.886787 40 32 31
21.350136 9.917513 70.688675 39 31 31
21.350136 10.069894 70.688675 38 30 30
21.503733 10.295816 71.197220 37 29 29
21.299421 10.350013 70.520767 36 27 27
21.248949 10.477145 70.353653 35 26 25
21.299421 10.654051 70.520767 34 24 23
21.248949 10.780463 70.353653 35 23 23
21.248949 10.932122 70.353653 38 26 25
21.248949 11.083780 70.353653 42 29 28
21.248949 11.235439 70.353653 45 30 29
21.248949 11.387098 70.353653 46 31 30
21.248949 11.538757 70.353653 48 31 31
21.198715 11.662779 70.187332 48 31 31
21.148718 11.786216 70.021797 47 30 31
21.299421 13.998469 70.520767 52 38 37
21.049429 13.984403 69.693054 53 38 37
21.000134 14.101535 69.529839 53 38 38
20.902229 14.184978 69.205696 54 38 38
20.951067 14.367653 69.367386 54 39 38
20.951067 14.517185 69.367386 55 40 39
21.000134 14.701067 69.529839 56 41 41
21.049429 14.885811 69.693054 57 41 42
20.951067 14.965784 69.367386 57 41 42
20.902229 15.080083 69.205696 58 42 42
16.483561 14.127492 54.575813 59 44 44
16.244667 14.038688 53.784859 60 44 44
16.012602 13.952420 53.016502 60 44 44
19.882608 18.459768 65.829803 58 43 44
19.621569 18.357452 64.965523 57 43 43
19.794827 18.660830 65.539169 56 43 43
19.926792 18.927456 65.976097 56 43 44
20.060530 19.197662 66.418884 56 43 44
20.333462 19.603981 67.322548 56 42 44
16.156858 15.807848 53.494129 56 42 44
15.927277 15.696901 52.734001 56 42 44
15.814915 15.699039 52.361980 56 41 44
15.676672 15.673698 51.904270 57 41 45
15.407313 15.734288 51.012444 59 41 46
23.336063 9.605570 76.716385 49 37 37
22.921463 9.597349 75.353409 48 36 36
23.097332 9.834669 75.931564 47 36 36
22.691097 9.822501 74.596085 45 35 35
22.189329 9.762544 72.946541 43 35 34
21.814146 9.752067 71.713142 41 34 33
21.451441 9.893956 70.520767 39 32 32
21.502516 10.069894 70.688675 38 31 32
21.657209 10.295816 71.197220 38 29 30
21.451441 10.350013 70.520767 37 28 28
21.400608 10.477145 70.353653 37 26 26
21.451441 10.654051 70.520767 36 25 25
21.400608 10.780463 70.353653 37 25 25
21.400608 10.932122 70.353653 41 28 27
21.400608 11.083780 70.353653 46 31 31
21.451441 11.262127 70.520767 49 33 33
21.400608 11.387098 70.353653 50 33 34
21.400608 11.538757 70.353653 50 33 34
21.350016 11.662779 70.187332 50 32 33
21.299662 11.786216 70.021797 50 32 32
21.400608 13.965298 70.353653 53 38 38
21.100599 13.919055 69.367386 53 38 37
21.002457 14.003152 69.044746 53 39 38
20.905224 14.086471 68.725098 54 39 38
20.953728 14.267646 68.884552 54 39 38
20.953728 14.416138 68.884552 55 40 39
21.051414 14.632530 69.205696 56 41 40
21.002457 14.747338 69.044746 57 41 41
20.905224 14.827211 68.725098 57 41 42
20.953728 15.010105 68.884552 57 42 43
16.480030 14.024371 54.177448 59 44 43
16.301546 13.988007 53.590691 59 44 43
16.069496 13.902768 52.827831 59 44 43
27.450020 24.332388 90.240860 57 43 43
19.848476 18.438145 65.251083 57 42 43
19.980213 18.702114 65.684166 56 42 43
20.069016 18.927456 65.976097 55 42 43
16.272175 15.807848 53.494129 54 42 43
16.098141 15.752862 52.922001 54 41 43
15.955931 15.726776 52.454491 54 40 43
15.788561 15.673698 51.904270 55 40 43
15.543987 15.541059 51.100246 56 41 44
15.517280 15.734288 51.012444 59 41 46
23.562323 9.630455 76.915138 49 36 36
23.083900 9.597349 75.353409 49 36 36
22.737642 9.773389 74.223106 46 36 37
22.291805 9.738616 72.767754 44 36 35
21.706579 9.635694 70.857384 43 35 34
21.654898 9.765132 70.688675 42 34 34
21.603460 9.893956 70.520767 41 33 33
21.706579 10.093927 70.857384 40 32 33
21.810688 10.295816 71.197220 39 31 32
21.654898 10.374656 70.688675 39 29 30
21.603460 10.502032 70.520767 39 27 28
21.654898 10.679418 70.688675 39 27 27
21.552267 10.780463 70.353653 41 27 28
21.552267 10.932122 70.353653 45 30 31
21.552267 11.083780 70.353653 50 35 36
21.603460 11.262127 70.520767 53 37 38
21.603460 11.414146 70.520767 53 36 37
21.603460 11.566165 70.520767 52 35 36
21.501316 11.662779 70.187332 52 34 35
21.552267 13.965298 70.353653 53 38 37
21.151295 13.854315 69.044746 53 38 37
20.956352 13.874091 68.408394 53 39 37
20.908176 13.989323 68.251129 54 39 38
20.956352 14.169022 68.408394 54 39 38
20.956352 14.611418 68.408394 56 41 41
28.071163 24.510357 91.633461 57 43 43
27.560778 24.258654 89.967400 57 42 43
20.301466 19.011953 66.270630 55 41 42
16.627161 15.922039 54.276493 54 41 42
16.417070 15.836382 53.590691 53 41 42
16.299385 15.837555 53.206528 53 40 42
16.097445 15.754611 52.547333 53 40 42
15.928295 15.701148 51.995171 54 40 42
15.681132 15.567854 51.188347 55 40 43
15.547106 15.544197 50.750843 56 40 43
15.627245 15.734288 51.012444 58 41 44
15.494134 15.709293 50.577927 59 41 45
15.363272 15.684722 50.150745 60 42 46
22.783724 9.724765 73.853836 47 37 37
22.393782 9.714806 72.589836 46 37 36
21.807278 9.612751 70.688675 45 37 36
21.755480 9.741937 70.520767 44 36 35
21.755480 9.893956 70.520767 43 35 35
21.859324 10.093927 70.857384 42 34 34
22.070017 10.345435 71.540344 41 32 33
21.859324 10.399416 70.857384 40 30 32
21.807278 10.527037 70.688675 41 28 30
21.807278 10.679418 70.688675 41 27 29
21.755480 10.806070 70.520767 43 28 30
21.755480 10.958089 70.520767 48 32 34
21.755480 11.110108 70.520767 56 40 42
21.807278 11.288941 70.688675 61 44 47
21.807278 11.441322 70.688675 59 41 43
21.755480 11.566165 70.520767 54 37 38
21.300131 13.854315 69.044746 53 38 37
21.755480 19.471153 70.520767 58 41 43
16.713608 15.892984 54.177448 54 41 41
16.562489 15.865019 53.687599 54 41 41
16.473124 15.894525 53.397919 53 41 41
16.297255 15.838711 52.827831 53 40 41
16.096760 15.756336 52.177929 54 40 42
15.818750 15.594742 51.276756 54 40 42
15.500936 3.343455 49.897884 62 41 45
22.440527 9.667532 72.236603 47 38 36
21.855585 9.567193 70.353653 47 38 36
21.907497 9.741937 70.520767 46 37 36
21.907497 9.893956 70.520767 45 36 36
22.064730 10.118075 71.026894 43 35 35
22.277914 10.370424 71.713142 42 33 34
22.064730 10.424295 71.026894 41 31 33
21.959660 10.527037 70.688675 42 28 31
22.012068 10.704906 70.857384 43 28 31
21.907497 10.806070 70.520767 45 30 33
21.959660 10.984179 70.688675 51 34 37
21.959660 11.136560 70.688675 62 45 48
22.012068 11.315885 70.857384 70 53 56
21.959660 11.441322 70.688675 64 46 48
21.907497 11.566165 70.520767 54 37 38
15.500936 10.765304 49.897884 56 40 40
21.399204 15.901057 68.884552 56 40 42
21.057207 15.793049 67.783661 57 40 43
16.954147 15.892198 54.575813 54 41 40
16.769194 15.835192 53.980442 55 41 41
16.618120 15.923163 53.494129 54 41 42
16.469744 15.895278 53.016502 53 40 41
16.237776 15.784077 52.269794 53 40 41
15.956845 15.621722 51.365471 54 40 42
22.378450 9.574350 71.540344 48 38 36
21.955217 9.544576 70.187332 48 39 36
22.007244 9.718852 70.353653 47 38 36
22.059517 9.893956 70.520767 46 37 37
22.271118 10.142340 71.197220 44 36 36
22.486820 10.395534 71.886787 43 34 35
22.271118 10.449294 71.197220 41 31 33
22.164812 10.552161 70.857384 41 29 31
22.217838 10.730515 71.026894 43 29 32
22.112040 10.831799 70.688675 47 32 35
22.112040 10.984179 70.688675 52 35 38
22.112040 11.136560 70.688675 62 45 48
22.164812 11.315885 70.857384 71 53 56
15.608499 10.765304 49.897884 55 39 39
15.427005 10.746438 49.317677 55 38 40
21.698730 16.012512 69.367386 55 40 42
21.597807 16.086874 69.044746 56 40 43
21.955217 16.655687 70.187332 57 40 43
22.007244 16.846813 70.353653 56 40 43
21.955217 16.958286 70.187332 55 40 43
22.059517 17.342888 70.520767 55 40 41
22.007244 17.453449 70.353653 54 40 41
22.059517 17.646925 70.520767 54 40 41
22.059517 17.798944 70.520767 54 40 42
21.448168 18.340313 68.566376 56 41 43
21.251846 18.318892 67.938766 56 40 42
21.300589 18.507696 68.094589 55 40 42
21.698730 19.003166 69.367386 55 40 42
21.648151 19.108055 69.205696 56 41 42
16.978167 15.805037 54.276493 54 40 40
16.824377 15.777818 53.784859 55 42 41
16.554468 15.866943 52.922001 54 41 42
16.321716 15.756336 52.177929 54 41 42
16.039822 15.594742 51.276756 54 41 42
22.002485 9.499660 69.857040 49 38 36
22.211536 9.893956 70.520767 47 38 37
22.478502 10.166719 71.368370 46 37 37
22.696739 10.420766 72.061264 45 35 36
22.478502 10.474412 71.368370 42 32 33
22.370949 10.577405 71.026894 41 29 31
22.478502 10.782104 71.368370 43 30 32
22.317558 10.857651 70.857384 47 32 35
22.317558 11.010395 70.857384 51 35 38
22.317558 11.163139 70.857384 57 40 43
22.370949 11.342956 71.026894 63 46 49
21.950838 16.087688 69.693054 55 39 42
21.899429 16.199896 69.529839 55 39 44
22.054379 16.616404 70.021797 55 40 46
22.054379 16.767347 70.021797 55 40 46
22.054379 16.918291 70.021797 55 40 46
22.002485 17.029072 69.857040 55 40 45
22.054379 17.220179 70.021797 55 40 44
22.054379 17.371120 70.021797 54 40 43
22.054379 17.522064 70.021797 55 40 43
22.054379 17.673008 70.021797 55 40 43
22.002485 18.083189 69.857040 56 40 43
21.950838 18.190975 69.693054 56 40 43
21.496681 18.255989 68.251129 56 40 43
21.252401 18.193989 67.475548 55 40 42
21.696188 18.870893 68.884552 55 40 41
21.595974 18.931538 68.566376 56 40 41
17.316772 15.417325 54.980080 56 40 39
17.063972 15.309043 54.177448 55 40 39
16.609337 15.810578 52.734001 55 42 43
16.405363 15.728694 52.086391 55 41 42
16.094763 15.541059 51.100246 55 41 41
22.153074 9.499660 69.857040 51 39 36
22.257816 9.695876 70.187332 50 39 37
22.363556 9.893956 70.520767 49 39 38
22.632347 10.166719 71.368370 48 38 38
22.907681 10.446120 72.236603 47 37 37
22.741682 10.525013 71.713142 43 33 34
22.632347 10.628259 71.368370 40 29 31
22.741682 10.834192 71.713142 42 30 32
22.578074 10.909725 71.197220 45 31 33
22.524059 11.036736 71.026894 47 33 35
22.578074 11.216680 71.197220 51 36 38
22.632347 11.397490 71.368370 54 39 41
22.205322 16.163574 70.021797 53 38 42
22.205322 16.314518 70.021797 53 39 44
22.205322 16.465462 70.021797 53 39 47
22.205322 16.616404 70.021797 54 39 49
22.205322 16.767347 70.021797 54 39 50
22.153074 17.029072 69.857040 56 40 51
22.205322 17.220179 70.021797 56 40 50
22.153074 17.330248 69.857040 55 40 48
22.153074 17.480837 69.857040 55 40 46
22.153074 17.631424 69.857040 55 40 45
22.153074 17.782013 69.857040 55 39 44
22.153074 18.083189 69.857040 56 40 43
22.049313 18.148373 69.529839 56 40 43
22.049313 18.298256 69.529839 56 40 43
22.101072 18.491446 69.693054 56 40 43
21.594166 18.214119 68.094589 55 40 43
21.446598 18.235434 67.629250 54 39 42
21.844679 18.870893 68.884552 54 39 41
21.693680 18.887917 68.408394 55 39 41
17.467638 15.445929 55.082081 55 40 39
17.212170 15.337030 54.276493 55 40 39
16.459888 15.673698 51.904270 55 41 42
16.177073 15.514357 51.012444 55 40 41
22.462219 9.718852 70.353653 52 40 38
22.569183 9.917513 70.688675 51 40 38
22.786194 10.166719 71.368370 50 39 38
23.007420 10.420766 72.061264 48 37 37
22.896273 10.525013 71.713142 44 34 34
22.841101 10.653869 71.540344 41 30 31
22.951712 10.860425 71.886787 41 30 31
22.786194 10.935950 71.368370 44 31 32
22.786194 11.089797 71.368370 46 32 34
22.896273 11.297960 71.713142 48 34 35
22.896273 11.452549 71.713142 50 35 36
22.409117 16.201786 70.187332 52 37 43
22.356266 16.314518 70.021797 52 38 45
22.356266 16.616404 70.021797 53 37 52
22.303663 17.029072 69.857040 61 44 62
22.303663 17.179661 69.857040 62 45 62
22.303663 17.330248 69.857040 59 42 56
22.303663 17.480837 69.857040 56 40 51
22.303663 17.631424 69.857040 55 39 47
22.251307 17.740271 69.693054 54 39 45
22.303663 18.083189 69.857040 55 40 43
22.147329 18.105970 69.367386 55 40 43
22.147329 18.255503 69.367386 56 40 43
22.251307 18.491446 69.693054 56 40 43
21.740955 18.214119 68.094589 55 40 43
21.592384 18.235434 67.629250 54 39 42
21.942261 18.827211 68.725098 54 38 40
21.790936 18.844496 68.251129 55 39 40
17.619064 15.474638 55.184464 55 39 39
16.571777 15.673698 51.904270 55 41 41
22.613878 9.718852 70.353653 53 41 39
22.721563 9.917513 70.688675 53 41 39
22.940041 10.166719 71.368370 51 40 39
23.162760 10.420766 72.061264 49 38 38
23.050861 10.525013 71.713142 46 36 36
23.050861 10.679603 71.713142 43 33 33
23.106674 10.860425 71.886787 42 31 32
23.050861 10.988781 71.713142 43 31 32
22.995317 11.116519 71.540344 45 32 33
23.106674 11.325315 71.886787 47 33 34
23.106674 11.480280 71.886787 47 34 34
32.349346 21.062222 100.641502 55 36 38
14.137861 10.058305 43.984062 52 36 42
22.507210 16.314518 70.021797 51 37 46
22.454250 16.426720 69.857040 52 37 50
22.507210 16.616404 70.021797 52 36 55
22.507210 16.767347 70.021797 51 34 56
22.454250 17.029072 69.857040 73 55 80
22.454250 17.179661 69.857040 79 60 82
22.454250 17.330248 69.857040 69 50 70
22.454250 17.480837 69.857040 59 40 55
22.454250 17.631424 69.857040 55 37 48
22.401541 17.740271 69.693054 54 38 45
22.401541 17.890507 69.693054 54 39 43
22.401541 18.040741 69.693054 54 39 42
22.244886 18.063766 69.205696 55 40 42
22.244886 18.212950 69.205696 56 41 43
22.349079 18.448139 69.529839 56 41 43
21.887745 18.214119 68.094589 55 40 43
21.787800 18.277067 67.783661 54 39 42
21.837658 18.465343 67.938766 53 39 40
22.141663 18.870893 68.884552 54 38 39
22.090408 18.975359 68.725098 54 38 39
20.660337 6.480334 63.847832 65 40 43
22.765537 9.718852 70.353653 56 42 40
22.873945 9.917513 70.688675 55 42 40
23.093885 10.166719 71.368370 53 41 40
23.261639 10.395534 71.886787 51 39 39
23.261639 10.550497 71.886787 48 37 37
23.205450 10.679603 71.713142 45 34 34
23.318098 10.886786 72.061264 44 32 32
23.261639 11.015388 71.886787 44 32 32
23.261639 11.170352 71.886787 45 33 33
23.374834 11.380427 72.236603 46 33 33
23.374834 11.536144 72.236603 46 33 33
32.456272 20.991066 100.301491 54 36 38
30.990505 20.249535 95.771751 55 36 39
29.743210 19.632679 91.917160 55 36 39
14.253793 10.073228 44.049320 52 36 42
22.658152 16.314518 70.021797 52 36 47
22.551777 16.388159 69.693054 52 36 50
22.604839 16.577307 69.857040 52 36 56
22.604839 16.727896 69.857040 49 32 56
22.551777 16.838863 69.693054 57 40 67
22.551777 16.989098 69.693054 85 66 94
22.551777 17.139332 69.693054 100 81 107
22.551777 17.289566 69.693054 85 66 90
22.551777 17.439802 69.693054 61 43 61
22.551777 17.590036 69.693054 52 35 47
22.498962 17.698725 69.529839 54 37 45
22.498962 17.848608 69.529839 53 38 43
22.551777 18.040741 69.693054 53 38 41
22.341991 18.021757 69.044746 55 40 41
22.394072 18.212950 69.205696 55 41 42
20.708900 6.452581 63.574394 66 41 44
23.416601 10.550497 71.886787 52 39 39
23.416601 10.705462 71.886787 48 36 36
23.530552 10.913274 72.236603 46 33 33
23.473438 11.042125 72.061264 45 33 33
23.473438 11.197465 72.061264 46 33 33
23.645615 11.436077 72.589836 47 34 33
23.703569 11.620969 72.767754 47 34 33
32.783241 21.062222 100.641502 54 35 38
31.297918 20.315065 96.081688 54 36 38
29.941351 19.632679 91.917160 55 36 39
14.348749 10.073228 44.049320 52 36 41
22.809095 16.314518 70.021797 52 36 45
22.702011 16.388159 69.693054 53 36 49
22.755428 16.577307 69.857040 53 36 54
22.755428 16.727896 69.857040 51 33 55
22.702011 16.838863 69.693054 56 37 63
22.702011 16.989098 69.693054 80 60 88
22.702011 17.139332 69.693054 99 79 106
22.702011 17.289566 69.693054 89 69 93
22.702011 17.439802 69.693054 64 45 64
22.702011 17.590036 69.693054 53 35 48
22.648844 17.698725 69.529839 53 37 45
22.595926 17.806906 69.367386 53 37 43
22.648844 17.998491 69.529839 53 38 41
22.335003 17.896894 68.566376 54 39 40
22.438646 18.128435 68.884552 54 40 40
23.345459 6.305409 71.197220 64 41 45
23.571566 10.550497 71.886787 58 43 44
23.571566 10.705462 71.886787 52 38 38
23.686270 10.913274 72.236603 48 34 35
23.628778 11.042125 72.061264 47 33 34
23.686270 11.224710 72.236603 48 33 33
24.096674 11.577613 73.488220 48 34 33
24.096674 11.736029 73.488220 48 34 33
33.112438 21.133862 100.983818 54 35 37
31.710281 20.447412 96.707626 54 35 38
14.422306 10.058305 43.984062 52 36 40
23.014318 16.201786 70.187332 52 36 41
22.960039 16.314518 70.021797 53 36 43
22.852245 16.388159 69.693054 53 36 47
22.906015 16.577307 69.857040 54 36 50
22.906015 16.727896 69.857040 54 35 54
22.852245 16.838863 69.693054 55 35 58
22.852245 16.989098 69.693054 65 45 68
22.852245 17.139332 69.693054 76 56 79
22.852245 17.289566 69.693054 76 56 77
22.852245 17.439802 69.693054 63 44 61
22.798727 17.548841 69.529839 54 37 49
22.745459 17.657373 69.367386 54 38 45
22.745459 17.806906 69.367386 54 38 42
22.745459 17.956438 69.367386 53 39 40
22.379440 17.814610 68.251129 53 39 39
22.431005 18.003122 68.408394 53 39 38
22.735630 8.179479 68.884552 60 43 44
22.526567 8.398519 68.251129 58 40 41
23.669218 10.679603 71.713142 57 41 42
23.841988 10.913274 72.236603 51 35 36
23.784119 11.042125 72.061264 49 34 34
23.784119 11.197465 72.061264 49 34 34
24.315277 11.606341 73.670578 49 34 34
24.315277 11.765150 73.670578 49 34 34
33.330124 21.133862 100.983818 55 36 38
32.233738 20.649195 97.661980 55 36 38
13.879683 9.163393 42.052750 53 36 37
13.820954 9.214888 41.874813 52 36 37
23.386770 16.356457 70.857384 52 36 40
23.165619 16.353086 70.187332 52 36 42
23.002480 16.388159 69.693054 53 36 44
23.056604 16.577307 69.857040 55 37 47
23.056604 16.727896 69.857040 56 37 51
22.948610 16.799427 69.529839 57 37 53
23.002480 16.989098 69.693054 59 38 56
22.948610 17.099194 69.529839 63 43 60
22.948610 17.249077 69.529839 64 45 60
23.002480 17.439802 69.693054 60 42 55
22.948610 17.548841 69.529839 56 40 48
22.841623 17.616213 69.205696 55 39 45
22.788504 17.724083 69.044746 54 39 42
22.894993 17.956438 69.367386 53 39 40
22.423471 17.733078 67.938766 53 39 39
24.474087 7.318500 73.670578 66 41 46
24.353226 7.440384 73.306770 66 42 45
23.595829 7.974535 71.026894 65 44 48
22.831150 8.160545 68.725098 62 44 46
22.673693 8.251391 68.251129 60 43 44
22.621689 8.379255 68.094589 58 42 42
23.939457 10.886786 72.061264 54 37 38
23.939457 11.042125 72.061264 51 35 36
23.939457 11.197465 72.061264 51 35 35
24.353226 11.549026 73.306770 51 35 35
24.353226 11.707050 73.306770 50 34 34
33.547813 21.133862 100.983818 56 37 39
32.659126 20.785946 98.308746 56 37 39
13.990151 9.085610 42.112400 54 37 38
13.930871 9.137507 41.933956 53 37 37
23.595829 16.395588 71.026894 52 35 39
23.316919 16.353086 70.187332 52 36 40
23.044525 16.311579 69.367386 54 36 41
23.207191 16.577307 69.857040 56 37 44
23.152716 16.688627 69.693054 58 38 46
23.044525 16.760176 69.367386 58 38 48
23.044525 16.909710 69.367386 57 37 49
23.044525 17.059242 69.367386 58 38 50
23.044525 17.208775 69.367386 59 40 50
23.044525 17.358307 69.367386 58 40 48
22.990808 17.467030 69.205696 56 40 45
22.778421 17.453476 68.566376 55 40 43
22.673693 17.520357 68.251129 54 40 41
24.571922 7.458801 73.488220 66 42 45
24.571922 7.617217 73.488220 66 42 45
24.571922 7.775632 73.488220 66 43 46
24.571922 7.934048 73.488220 66 44 47
24.390802 8.032814 72.946541 66 44 48
23.863117 8.012874 71.368370 65 44 48
22.820820 8.104265 68.251129 63 44 47
22.664513 8.340994 67.783661 59 43 43
22.257975 8.334878 66.567810 58 42 42
24.094797 10.886786 72.061264 56 39 40
24.094797 11.042125 72.061264 54 37 39
24.036457 11.170352 71.886787 53 36 38
24.390802 11.492274 72.946541 52 35 37
24.390802 11.649522 72.946541 51 35 36
24.571922 12.844939 73.488220 53 36 38
33.765499 21.133862 100.983818 57 38 40
33.200859 20.994499 99.295128 56 38 39
23.468220 16.353086 70.187332 52 35 39
22.979298 16.160545 68.725098 54 36 40
23.248377 16.499662 69.529839 55 36 42
23.194057 16.610643 69.367386 56 37 42
23.032614 16.643517 68.884552 57 37 43
23.086178 16.831059 69.044746 56 37 42
23.086178 16.979897 69.044746 56 37 42
23.032614 17.088991 68.884552 56 38 43
23.086178 17.277571 69.044746 57 40 42
22.926228 17.305672 68.566376 55 40 41
22.768478 17.333384 68.094589 54 40 40
24.730339 7.934048 73.488220 66 44 47
24.548050 8.032814 72.946541 65 44 48
23.959368 7.993658 71.197220 64 44 48
23.959368 10.449294 71.197220 56 40 40
23.959368 10.602771 71.197220 56 40 40
24.132988 10.834192 71.713142 56 39 40
24.191420 11.015388 71.886787 55 38 39
24.132988 11.143371 71.713142 54 37 39
24.428011 11.436077 72.589836 53 36 39
24.487885 11.620969 72.767754 52 36 38
23.619520 16.353086 70.187332 53 35 39
22.915268 16.012283 68.094589 54 35 40
23.289177 16.422741 69.205696 55 36 40
23.235016 16.533384 69.044746 55 36 40
23.074034 16.566641 68.566376 56 36 40
23.127445 16.753138 68.725098 56 36 39
23.074034 16.862253 68.566376 55 37 39
23.020868 16.970865 68.408394 55 38 39
23.074034 17.157866 68.566376 55 39 39
22.915268 17.186596 68.094589 55 40 39
22.862829 17.293720 67.938766 54 40 38
24.705299 8.032814 72.946541 65 44 47
24.112846 7.993658 71.197220 64 44 48
23.997749 10.246672 70.857384 56 39 39
24.055159 10.424295 71.026894 55 40 40
24.055159 10.577405 71.026894 55 40 40
24.170809 10.782104 71.368370 55 39 40
24.287577 10.988781 71.713142 55 38 39
24.229052 11.116519 71.540344 54 38 39
24.584490 11.436077 72.589836 53 38 39
24.524529 11.564281 72.412788 53 37 39
22.956751 15.939168 67.783661 54 36 39
23.329597 16.346533 68.884552 54 36 39
23.329597 16.495024 68.884552 55 36 39
23.168333 16.528469 68.408394 55 36 38
23.221840 16.714447 68.566376 55 36 37
23.009283 16.707907 67.938766 55 37 37
24.150494 10.246672 70.857384 55 39 39
24.208269 10.424295 71.026894 55 39 39
24.150494 10.552161 70.857384 54 39 39
24.266323 10.756248 71.197220 54 39 39
24.383268 10.962302 71.540344 54 39 40
24.383268 11.116519 71.540344 54 39 40
24.620575 11.536144 72.236603 53 38 40
27.128838 13.054572 79.595825 54 38 40
22.842113 15.759268 67.018608 54 36 40
23.050243 16.194431 67.629250 54 37 39
23.315798 17.855658 68.408394 48 42 40
23.423742 18.086472 68.725098 47 42 41
23.315798 18.150589 68.408394 48 43 41
23.642656 18.853634 69.367386 54 48 41
24.361380 10.577405 71.026894 54 40 39
24.303238 10.704906 70.857384 55 40 39
24.537485 10.962302 71.540344 55 40 40
27.746748 13.267999 80.897118 54 38 40
27.521774 13.333393 80.241196 54 38 40
22.986584 15.614798 67.018608 54 37 41
22.679413 15.548676 66.123032 53 37 40
22.780888 15.761421 66.418884 53 37 39
22.780888 15.904598 66.418884 53 37 39
22.730038 16.011953 66.270630 53 37 38
23.463264 17.855658 68.408394 44 42 41
23.626581 18.128435 68.884552 44 43 42
23.409327 18.108864 68.251129 44 44 42
23.736729 18.511318 69.205696 43 42 39
28.151255 13.377350 81.563850 55 39 40
25.301374 15.025569 73.306770 55 39 41
25.053928 15.035099 72.589836 55 39 41
23.027094 15.544619 66.717400 54 38 41
22.670479 15.445477 65.684166 53 38 40
22.620434 15.552661 65.539169 52 38 39
22.670479 15.728662 65.684166 52 38 39
22.720747 16.189259 65.829803 53 37 38
21.989391 15.942822 63.710819 52 37 36
23.610729 17.855658 68.408394 42 43 40
23.720039 18.086472 68.725098 40 44 43
29.292774 13.651578 84.344437 56 40 41
25.087729 14.961935 72.236603 54 39 41
23.118961 15.509766 66.567810 53 39 40
22.661663 15.343638 65.251083 53 38 40
22.661663 15.484298 65.251083 52 38 40
22.761715 15.693941 65.539169 52 38 40
22.222105 16.011541 63.985435 51 37 36
30.425386 14.655002 87.065224 55 40 40
30.247978 14.756139 86.557556 55 40 39
24.940041 14.782104 71.368370 54 39 41
24.820709 14.864487 71.026894 54 39 42
24.643841 14.910583 70.520767 54 39 42
22.953665 15.303884 65.684166 52 39 40
30.884783 14.785075 87.837997 56 41 41
30.523558 14.799285 86.810646 56 41 41
21.347765 11.528335 60.714195 56 40 40
23.833462 13.601268 67.783661 57 42 45
24.737101 14.723591 70.353653 55 40 44
24.504827 14.735577 69.693054 54 40 43
22.892668 15.169640 65.107986 51 38 39
22.743042 15.209925 64.682442 51 39 39
31.074133 14.595726 87.837997 58 42 43
31.259098 14.873082 88.360840 58 42 43
30.710691 14.799285 86.810646 58 43 43
21.434809 11.504807 60.590290 58 42 42
23.979582 13.601268 67.783661 59 44 48
24.034454 13.925299 67.938766 58 43 48
24.482649 14.334162 69.205696 57 43 47
24.200592 14.463953 68.408394 55 40 44
23.762571 14.346958 67.170235 54 40 43
23.444323 14.440526 66.270630 54 39 42
23.185556 14.422419 65.539169 54 38 41
23.340126 15.798568 65.976097 50 39 39
30.807745 14.756139 86.557556 60 43 44
30.718187 14.899289 86.305939 60 43 44
24.631834 13.737426 69.205696 60 44 48
24.125700 13.601268 67.783661 59 44 49
24.016037 13.830354 67.475548 59 44 50
24.016037 13.975808 67.475548 58 44 49
30.814657 14.670595 86.055771 61 44 45
30.725597 14.813166 85.807060 62 44 45
30.549013 14.911941 85.313911 62 44 44
30.116308 15.063330 84.105499 62 44 44
25.866318 13.871911 72.236603 61 44 45
25.192078 13.813639 70.353653 61 44 48
24.838917 13.769522 69.367386 60 44 49
24.271818 13.747387 67.783661 60 44 50
23.783125 13.900125 66.418884 57 43 48
26.213373 13.660185 72.767754 62 45 45
26.149282 13.783265 72.589836 62 45 45
25.958876 13.838242 72.061264 62 44 46
25.709270 13.859028 71.368370 62 44 47
25.464420 13.879417 70.688675 62 44 48
25.343737 13.965298 70.353653 61 45 49
25.555954 12.022222 70.520767 63 44 45
26.177753 12.781887 72.236603 65 43 45
25.555954 12.630298 70.520767 65 44 45
26.177753 13.249040 72.236603 66 45 46
25.863117 13.243643 71.368370 66 45 46
25.801096 13.365361 71.197220 66 45 46
25.801096 13.518838 71.197220 65 45 46
25.616802 13.574656 70.688675 64 45 46
25.555954 13.694431 70.520767 63 45 47
25.435122 13.780982 70.187332 62 44 48
