ply
format ascii 1.0
element vertex 1231
property float x
property float y
property float z
property uchar red
property uchar green
property uchar blue
end_header
-8.900090 -2.916101 61.723995 111 58 66
-8.937251 -2.794665 61.981716 112 58 67
-8.918632 -2.522176 61.852589 111 58 65
-8.790438 -2.223089 60.963535 108 57 61
-8.826688 -2.100298 61.214931 107 56 60
-8.881625 -1.980590 61.595940 107 57 59
-8.955949 -1.863273 62.111385 107 57 60
-8.900090 -1.718596 61.723995 108 58 60
-8.974724 -1.598835 62.241596 108 58 62
-8.993579 -1.467741 62.372356 108 58 63
-9.012512 -1.336094 62.503666 108 58 65
-9.186574 -1.087220 63.710819 107 57 67
-9.186574 -0.949881 63.710819 106 57 67
-9.306398 -0.684010 64.541832 102 56 65
-9.306398 -0.544879 64.541832 100 55 64
-9.450206 -0.129458 65.539169 98 58 63
-9.555677 0.011954 66.270630 97 58 63
-9.641765 0.156206 66.867661 97 58 63
-9.620097 0.299675 66.717400 96 57 63
-9.620097 0.443495 66.717400 96 56 62
-9.598528 0.585999 66.567810 95 54 61
-10.415920 4.840281 72.236603 68 47 52
-10.365480 4.971805 71.886787 66 45 50
-10.315526 5.102061 71.540344 65 42 47
-10.340443 5.268975 71.713142 65 41 47
-10.340443 5.423564 71.713142 66 41 48
-10.365480 5.591660 71.886787 71 44 51
-10.415920 5.774588 72.236603 76 47 55
-10.415920 5.930305 72.236603 81 50 58
-10.415920 6.086023 72.236603 84 52 61
-10.365480 6.211514 71.886787 85 51 62
-10.441325 6.413062 72.412788 85 51 63
-10.365480 6.521442 71.886787 84 51 63
-10.365480 6.676405 71.886787 83 51 64
-10.649113 7.336705 73.853836 82 50 67
-10.492508 7.385675 72.767754 82 50 67
-10.266051 7.379749 71.197220 83 50 67
-10.049163 7.975013 69.693054 85 57 70
-10.144416 8.202264 70.353653 84 57 68
-10.144416 8.353923 70.353653 81 55 64
-10.144416 8.505582 70.353653 79 53 61
-10.144416 8.657241 70.353653 77 51 59
-10.144416 8.808899 70.353653 75 48 56
-10.144416 8.960558 70.353653 74 47 55
-10.168511 9.133861 70.520767 74 47 55
-10.144416 9.263876 70.353653 75 48 56
-10.144416 9.415534 70.353653 75 49 56
-10.144416 9.567193 70.353653 75 49 56
-9.751579 12.841356 67.629250 65 43 49
-9.751579 12.987143 67.629250 64 44 50
-9.796209 13.193033 67.938766 63 44 50
-9.751579 13.278714 67.629250 62 44 50
-9.773843 13.455150 67.783661 61 44 49
-9.707355 13.508742 67.322548 61 43 48
-9.641765 13.561611 66.867661 61 43 47
-9.663529 13.736694 67.018608 61 43 47
-9.555677 13.726240 66.270630 61 44 46
-9.471113 13.746362 65.684166 61 44 45
-9.577054 14.043301 66.418884 61 43 44
-6.408598 9.780472 44.444973 61 40 45
-6.370451 9.817493 44.180420 62 41 45
-6.332757 9.854076 43.918999 62 41 45
-6.286261 9.875706 43.596539 61 41 45
-6.267853 9.940491 43.468876 59 41 44
-6.249552 10.004898 43.341961 58 40 42
-6.195287 10.010645 42.965618 56 40 41
-6.012561 10.074938 41.698376 56 41 40
-9.577054 16.620481 66.418884 57 41 42
-9.513207 16.651901 65.976097 57 40 42
-9.534395 16.831526 66.123032 56 39 40
-9.429391 16.787127 65.394806 54 38 39
-9.388034 16.853849 65.107986 53 37 38
-9.707355 17.717360 67.322548 54 36 37
-9.641765 17.885935 66.867661 55 36 39
-9.555677 17.869097 66.270630 55 37 39
-9.450206 17.813147 65.539169 55 37 39
-9.513207 18.074123 65.976097 55 37 39
-9.513207 18.216345 65.976097 57 39 40
-8.877775 -7.129778 62.503666 121 72 67
-8.859125 -6.980346 62.372356 121 72 67
-8.840552 -6.831540 62.241596 120 72 66
-8.748845 -6.627893 61.595940 119 73 66
-8.822057 -6.549466 62.111385 119 72 66
-8.785298 -6.388843 61.852589 118 71 66
-8.712693 -6.203811 61.341408 118 70 67
-8.803639 -6.001346 61.981716 118 68 68
-5.637625 -2.901931 39.691502 112 65 62
-8.694729 -3.024009 61.214931 110 58 66
-8.712693 -2.898026 61.341408 112 58 67
-8.748845 -2.777271 61.595940 113 58 67
-8.785298 -2.655509 61.852589 113 59 67
-8.712693 -2.501332 61.341408 112 59 66
-8.606007 -2.209479 60.590290 109 56 62
-8.641277 -2.087386 60.838612 108 55 61
-8.822057 -1.863273 62.111385 108 56 61
-8.803639 -1.725771 61.981716 108 57 62
-8.822057 -1.595491 62.111385 108 57 63
-8.840552 -1.464664 62.241596 108 57 64
-8.859125 -1.333287 62.372356 108 57 66
-9.029858 -1.084892 63.574394 107 57 67
-9.029858 -0.947847 63.574394 107 57 67
-9.519059 0.156559 67.018608 97 58 64
-9.455029 0.299003 66.567810 97 57 64
-9.476277 0.443495 66.717400 97 56 63
-9.476277 0.587316 66.717400 96 54 61
-9.412820 0.726240 66.270630 95 53 60
-10.285228 4.852087 72.412788 69 47 53
-10.235299 4.983872 72.061264 67 45 51
-10.210517 5.126769 71.886787 67 42 48
-10.210517 5.281733 71.886787 68 41 48
-10.210517 5.436696 71.886787 71 43 50
-10.235299 5.605232 72.061264 76 45 53
-10.285228 5.788672 72.412788 81 49 58
-10.285228 5.944769 72.412788 84 52 62
-10.260202 6.086023 72.236603 86 52 63
-10.235299 6.226591 72.061264 85 52 63
-10.285228 6.413062 72.412788 84 51 63
-10.235299 6.537271 72.061264 83 50 63
-10.437979 7.300385 73.488220 81 50 63
-10.335646 7.385675 72.767754 81 50 63
-10.210517 7.451224 71.886787 81 51 63
-10.016493 7.917709 70.520767 85 56 67
-9.922219 7.993778 69.857040 85 57 67
-9.992757 8.202264 70.353653 83 56 64
-9.992757 8.353923 70.353653 80 54 61
-9.992757 8.505582 70.353653 78 52 58
-10.016493 8.677804 70.520767 77 50 56
-9.992757 8.808899 70.353653 75 48 53
-10.016493 8.981842 70.520767 74 47 52
-10.040341 9.155608 70.688675 75 47 53
-10.016493 9.285880 70.520767 76 48 53
-10.016493 9.437899 70.520767 75 48 54
-9.992757 9.567193 70.353653 75 48 55
-10.064304 9.788438 70.857384 74 48 54
-9.627725 13.016793 67.783661 63 44 49
-9.649756 13.193033 67.938766 62 44 50
-9.605794 13.278714 67.629250 61 44 50
-9.605794 13.424500 67.629250 61 44 49
-9.562230 13.508742 67.322548 61 44 48
-9.476277 13.531136 66.717400 61 44 47
-9.412820 13.583383 66.270630 61 44 47
-9.329521 13.604769 65.684166 61 44 46
-9.268007 13.655726 65.251083 61 43 44
-6.228868 9.839520 43.854126 61 40 45
-6.192281 9.875706 43.596539 60 40 44
-6.183201 9.955067 43.532612 59 40 44
-6.156122 10.004898 43.341961 58 39 43
-6.102668 10.010645 42.965618 57 40 42
-9.519059 16.626085 67.018608 57 42 41
-9.433878 16.620481 66.418884 56 40 41
-9.370985 16.651901 65.976097 55 39 40
-9.370985 16.794123 65.976097 54 38 38
-9.268007 16.750233 65.251083 53 37 37
-9.519059 17.926310 67.018608 54 35 38
-9.433878 17.909073 66.418884 55 36 39
-9.308926 17.813147 65.539169 55 37 39
-9.391856 18.114378 66.123032 55 38 39
-9.370985 18.216345 65.976097 56 39 40
-9.817833 -8.914053 70.187332 121 71 65
-8.743038 -7.129778 62.503666 121 72 66
-8.688166 -6.951139 62.111385 120 72 65
-8.688166 -6.817248 62.111385 119 72 64
-8.670028 -6.669404 61.981716 120 73 65
-8.633978 -6.508616 61.723995 119 73 65
-8.633978 -6.375560 61.723995 119 72 64
-8.580462 -6.203811 61.341408 119 71 65
-5.552063 -2.901931 39.691502 113 66 62
-5.537258 -2.808859 39.585655 112 66 62
-8.527604 -3.274424 60.963535 109 60 66
-8.475394 -3.123764 60.590290 110 59 67
-8.510130 -3.005419 60.838612 111 59 67
-8.545151 -2.886100 61.088974 112 58 67
-8.724671 -1.736648 62.372356 108 55 63
-8.724671 -1.602194 62.372356 108 56 64
-8.743038 -1.470831 62.503666 108 56 65
-8.761484 -1.338912 62.635532 107 56 65
-8.950309 -1.091906 63.985435 107 55 67
-8.911896 -0.949881 63.710819 107 55 67
-9.187928 0.295034 65.684166 97 57 64
-9.353476 0.588638 66.867661 96 54 61
-9.311532 0.729497 66.567810 95 53 60
-9.460008 0.886914 67.629250 94 53 58
-9.395800 1.025691 67.170235 92 52 57
-10.178782 4.875871 72.767754 68 48 55
-10.153895 5.020429 72.589836 68 46 53
-10.104486 5.151716 72.236603 68 43 51
-10.129130 5.320379 72.412788 70 43 52
-10.129130 5.476477 72.412788 74 45 54
-10.129130 5.632574 72.412788 79 48 57
-10.153895 5.802825 72.589836 84 51 62
-10.153895 5.959304 72.589836 87 53 66
-10.129130 6.100867 72.412788 86 53 66
-10.079960 6.226591 72.061264 85 52 65
-10.129130 6.413062 72.412788 83 51 64
-10.079960 6.537271 72.061264 81 51 63
-10.178782 7.385675 72.767754 80 51 60
-10.055552 7.451224 71.886787 81 51 61
-9.983037 7.551335 71.368370 81 52 61
-9.983037 7.859027 71.368370 83 54 63
-9.887960 7.936561 70.688675 84 55 64
-9.794678 8.012630 70.021797 84 56 64
-9.864473 8.221747 70.520767 82 56 63
-9.841098 8.353923 70.353653 80 54 60
-9.841098 8.505582 70.353653 78 52 57
-9.864473 8.677804 70.520767 77 51 55
-9.841098 8.808899 70.353653 75 49 53
-9.864473 8.981842 70.520767 74 48 52
-9.887960 9.155608 70.688675 75 48 52
-9.864473 9.285880 70.520767 75 48 52
-9.864473 9.437899 70.520767 75 48 53
-9.841098 9.567193 70.353653 75 47 53
-9.887960 9.765132 70.688675 73 47 52
-9.503303 13.193033 67.938766 61 44 49
-9.460008 13.278714 67.629250 61 44 49
-9.438508 13.393990 67.475548 61 45 49
-9.395800 13.478180 67.170235 61 45 48
-9.269963 13.440526 66.270630 61 44 47
-9.167645 13.433455 65.539169 61 44 46
-9.107332 13.485429 65.107986 61 44 45
-9.067562 13.566278 64.823669 61 43 43
-9.187928 14.029548 65.684166 61 42 42
-9.147452 14.108712 65.394806 60 41 41
-9.353476 16.588638 66.867661 56 41 40
-9.290701 16.620481 66.418884 55 40 39
-9.249317 16.831526 66.123032 52 37 36
-9.332457 17.989563 66.717400 55 36 39
-9.228763 17.931902 65.976097 55 37 39
-9.269963 18.154812 66.270630 55 38 39
-9.973033 -9.352792 72.412788 120 70 64
-9.712455 -8.956400 70.520767 120 70 64
-8.590218 -7.114799 62.372356 121 72 65
-8.518632 -6.922176 61.852589 119 72 64
-8.500922 -6.774729 61.723995 119 72 64
-8.518632 -6.655509 61.852589 120 73 65
-8.500922 -6.508616 61.723995 120 73 65
-8.483285 -6.362333 61.595940 119 73 64
-8.448230 -6.203811 61.341408 119 72 65
-8.483285 -3.441171 61.595940 110 62 68
-8.430811 -3.287927 61.214931 110 61 68
-8.378983 -3.136567 60.838612 111 61 69
-8.396188 -3.011590 60.963535 112 60 69
-8.608302 -1.605567 62.503666 108 55 64
-8.644701 -1.341743 62.767956 107 55 64
-8.774556 -0.949881 63.710819 108 55 66
-9.230121 0.589967 67.018608 97 54 61
-9.209332 0.732783 66.867661 96 53 59
-9.335487 0.888939 67.783661 93 52 57
-9.251003 1.025691 67.170235 92 51 56
-10.096156 4.753964 73.306770 69 49 57
-10.071289 4.899890 73.126213 69 47 56
-10.046544 5.045099 72.946541 69 46 55
-10.021920 5.189597 72.767754 70 45 55
-10.021920 5.346459 72.767754 72 45 55
-10.021920 5.503322 72.767754 76 47 57
-10.046544 5.674092 72.946541 81 49 61
-10.071289 5.845703 73.126213 84 52 65
-10.046544 5.988588 72.946541 85 52 67
-10.021920 6.130773 72.767754 84 52 66
-9.948768 6.241741 72.236603 83 51 66
-9.997416 6.428742 72.589836 82 52 66
-9.924620 6.537271 72.061264 81 52 65
-9.876675 7.433226 71.713142 81 52 60
-9.735579 7.936561 70.688675 84 55 62
-9.643734 8.012630 70.021797 83 56 62
-9.712455 8.221747 70.520767 81 56 61
-9.689439 8.353923 70.353653 79 55 59
-9.689439 8.505582 70.353653 78 53 57
-9.712455 8.677804 70.520767 76 52 55
-9.689439 8.808899 70.353653 75 51 53
-9.712455 8.981842 70.520767 74 49 52
-9.758815 9.177460 70.857384 74 48 51
-9.735579 9.307989 70.688675 74 48 52
-9.712455 9.437899 70.520767 75 48 52
-9.666533 9.544576 70.187332 74 47 52
-9.399870 13.253691 68.251129 61 43 47
-9.335487 13.309031 67.783661 60 44 48
-9.293053 13.393990 67.475548 60 44 48
-9.271980 13.508742 67.322548 60 44 47
-9.106778 13.410591 66.123032 60 44 46
-8.986689 13.374408 65.251083 61 44 45
-8.927824 13.426540 64.823669 61 44 44
-8.850527 13.448821 64.262428 61 43 43
-8.737059 13.413153 63.438553 61 42 42
-9.356850 15.829188 67.938766 57 40 42
-9.314221 15.902860 67.629250 57 41 42
-9.271980 15.975863 67.322548 57 41 42
-9.209332 16.588638 66.867661 56 40 39
-9.086541 16.794123 65.976097 52 36 35
-10.121147 20.290483 73.488220 55 39 40
-9.876675 19.954966 71.713142 56 39 40
-9.816935 -9.352792 72.412788 121 71 65
-9.629051 -9.020680 71.026894 121 71 65
-8.420383 -3.469968 62.111385 110 63 69
-8.350505 -3.308391 61.595940 111 62 70
-8.298852 -3.155968 61.214931 112 61 70
-8.315999 -3.030257 61.341408 112 60 70
-8.315999 -2.501332 61.341408 114 57 66
-8.281776 -2.359351 61.088974 113 56 66
-9.168436 0.886914 67.629250 93 52 56
-9.085651 1.023376 67.018608 92 51 55
-9.962731 4.607316 73.488220 72 50 59
-9.962731 4.765731 73.488220 70 48 58
-9.938131 4.911989 73.306770 70 47 58
-9.913653 5.057526 73.126213 70 46 58
-9.889296 5.202348 72.946541 71 46 58
-9.913653 5.372797 73.126213 74 47 59
-9.913653 5.530432 73.126213 77 49 61
-9.938131 5.702112 73.306770 81 51 64
-9.962731 5.874642 73.488220 84 52 67
-9.913653 6.003339 73.126213 84 52 68
-9.913653 6.160974 73.126213 83 51 67
-9.816935 6.256965 72.412788 82 51 67
-9.583199 7.936561 70.688675 84 56 63
-9.515232 8.031573 70.187332 83 56 63
-9.560435 8.221747 70.520767 81 56 61
-9.537781 8.353923 70.353653 79 55 60
-9.537781 8.505582 70.353653 77 53 57
-9.537781 8.657241 70.353653 75 52 55
-9.537781 8.808899 70.353653 74 51 53
-9.537781 8.960558 70.353653 73 50 52
-9.583199 9.155608 70.688675 73 49 52
-9.560435 9.285880 70.520767 74 48 51
-9.537781 9.415534 70.353653 74 47 51
-9.492791 9.522065 70.021797 73 47 51
-9.492791 12.088102 70.021797 66 42 46
-9.560435 12.326260 70.520767 66 41 45
-9.560435 12.478279 70.520767 66 41 45
-9.448224 13.082994 69.693054 65 44 47
-9.382153 13.439057 69.205696 61 43 47
-9.295481 13.462715 68.566376 61 44 47
-9.252744 13.547944 68.251129 61 44 47
-9.231522 13.663659 68.094589 61 44 46
-9.044817 13.531136 66.717400 61 44 45
-8.711999 13.310293 64.262428 62 44 44
-8.618722 13.304830 63.574394 62 43 43
-8.693182 13.834461 64.123634 61 41 43
-9.252744 15.607714 68.251129 57 39 41
-9.231522 15.718705 68.094589 58 40 42
-9.189368 15.793049 67.783661 58 40 42
-9.147598 15.866717 67.475548 58 41 42
-9.085651 15.903737 67.018608 57 40 40
-9.044817 15.976080 66.717400 56 40 39
-8.924486 15.905444 65.829803 56 40 39
-8.865514 15.941312 65.394806 56 40 39
-8.885085 16.117783 65.539169 56 39 38
-9.024537 16.514250 66.567810 56 39 38
-8.944319 16.509678 65.976097 54 38 37
-8.904742 16.719812 65.684166 52 36 36
-9.938131 20.240383 73.306770 55 39 38
-9.698659 19.906881 71.540344 55 39 38
-9.684458 -9.375659 72.589836 121 71 67
-9.521499 -9.064050 71.368370 121 72 67
-8.018104 -7.244220 60.099682 121 72 66
-8.001905 -7.100292 59.978268 121 73 65
-7.985773 -6.956944 59.857342 121 73 64
-6.864720 -5.425727 51.454491 119 71 64
-8.217725 -3.308391 61.595940 111 62 70
-8.150089 -2.359351 61.088974 113 56 64
-8.116687 -2.218534 60.838612 112 55 64
-8.941181 1.023376 67.018608 93 52 56
-9.780107 4.595940 73.306770 73 49 59
-9.804316 4.765731 73.488220 72 48 58
-9.780107 4.911989 73.306770 71 47 58
-9.756018 5.057526 73.126213 71 47 59
-9.756018 5.215161 73.126213 73 48 60
-9.780107 5.386063 73.306770 76 49 62
-9.780107 5.544087 73.306770 79 51 64
-9.804316 5.716227 73.488220 82 52 66
-9.853093 5.903869 73.853836 84 53 68
-9.430818 7.784180 70.688675 85 55 64
-9.408417 7.917709 70.520767 84 55 64
-9.341847 8.012630 70.021797 83 56 63
-9.386122 8.202264 70.353653 81 56 62
-9.341847 8.314518 70.021797 79 55 61
-9.341847 8.465461 70.021797 77 53 58
-9.363933 8.636774 70.187332 75 52 56
-9.363933 8.788074 70.187332 74 51 54
-9.341847 8.918291 70.021797 74 50 53
-9.386122 9.112217 70.353653 74 49 52
-9.363933 9.241975 70.187332 73 48 51
-9.341847 9.371121 70.021797 73 47 51
-9.254540 9.433074 69.367386 72 47 52
-9.363933 12.116679 70.187332 66 40 46
-9.408417 12.326260 70.520767 65 40 45
-9.408417 12.478279 70.520767 65 40 45
-9.363933 12.570580 70.187332 66 41 45
-9.408417 12.782317 70.520767 67 42 45
-9.386122 12.903686 70.353653 67 42 46
-9.341847 12.993763 70.021797 66 43 46
-9.319867 13.113777 69.857040 65 44 46
-9.297989 13.233229 69.693054 64 44 46
-9.341847 13.446593 70.021797 63 43 46
-9.254540 13.470457 69.367386 62 43 46
-9.211496 13.854315 69.044746 62 44 45
-8.463554 13.686657 63.438553 61 42 44
-9.084732 15.571917 68.094589 58 39 42
-9.063944 15.682735 67.938766 58 40 42
-9.022650 15.757074 67.629250 58 41 42
-9.002144 15.866717 67.475548 58 40 42
-8.941181 15.903737 67.018608 57 39 40
-8.921043 16.012062 66.867661 56 38 38
-8.821700 15.976293 66.123032 55 39 37
-8.743804 15.976502 65.539169 56 39 37
-8.724545 16.082281 65.394806 56 38 37
-8.900996 16.551361 66.717400 56 38 37
-8.821700 16.546448 66.123032 54 38 37
-8.743804 16.682903 65.539169 53 37 36
-9.756018 20.190531 73.126213 53 38 37
-9.453325 19.716839 70.857384 53 39 38
-9.527979 -9.375659 72.589836 121 71 68
-9.367652 -9.064050 71.368370 121 72 68
-7.888549 -7.244220 60.099682 120 73 66
-7.825188 -7.057519 59.616951 120 73 65
-7.778330 -6.887514 59.259964 120 73 65
-6.777293 -5.555903 51.633465 119 71 65
-6.695779 -5.379114 51.012444 119 70 64
-6.684294 -5.260111 50.924942 119 70 64
-5.931421 -4.375410 45.189106 119 69 65
-5.895527 -4.252110 44.915646 120 70 68
-5.913419 -4.167898 45.051960 120 70 68
-5.230796 -3.343147 39.851334 118 69 65
-8.856689 1.612172 67.475548 86 51 55
-8.856689 1.757626 67.475548 86 52 55
-8.876864 1.907416 67.629250 86 52 56
-8.937943 2.214118 68.094589 86 52 56
-5.367691 2.123079 40.894272 79 52 58
-9.527979 4.394512 72.589836 78 49 58
-9.598383 4.584620 73.126213 77 47 57
-9.622083 4.753964 73.306770 77 47 57
-9.622083 4.911989 73.306770 76 48 58
-9.598383 5.057526 73.126213 76 49 59
-9.598383 5.215161 73.126213 76 49 60
-9.622083 5.386063 73.306770 78 50 63
-9.622083 5.544087 73.306770 81 52 66
-9.645900 5.716227 73.488220 83 54 68
-9.693889 5.903869 73.853836 84 55 70
-9.212632 7.880273 70.187332 84 54 65
-9.147755 7.975013 69.693054 83 55 65
-9.190905 8.163574 70.021797 81 55 64
-9.147755 8.275482 69.693054 79 54 63
-9.126331 8.405985 69.529839 78 53 60
-9.169278 8.596130 69.857040 76 52 58
-9.147755 8.726187 69.693054 75 51 55
-9.126331 8.855634 69.529839 74 49 53
-9.190905 9.069235 70.021797 74 48 52
-9.190905 9.220178 70.021797 73 47 51
-9.147755 9.327126 69.693054 72 47 51
-8.979132 9.302662 68.408394 73 47 52
-9.190905 12.088102 70.021797 65 39 46
-9.234463 12.297050 70.353653 65 39 46
-9.256397 12.478279 70.520767 65 40 45
-9.190905 12.540933 70.021797 66 41 45
-9.234463 12.752028 70.353653 67 41 45
-9.234463 12.903686 70.353653 67 42 45
-9.190905 12.993763 70.021797 66 43 45
-9.169278 13.113777 69.857040 65 43 45
-9.147755 13.233229 69.693054 64 43 45
-9.190905 13.446593 70.021797 63 43 45
-8.291368 13.628416 63.168602 62 44 46
-8.221399 13.648429 62.635532 62 44 46
-8.897131 15.646931 67.783661 57 40 42
-8.836606 15.685614 67.322548 57 40 42
-8.836606 15.830738 67.322548 57 40 41
-8.816614 15.939718 67.170235 57 39 40
-8.816614 16.084515 67.170235 56 38 38
-8.737541 16.083757 66.567810 56 38 37
-8.621556 16.011848 65.684166 56 38 37
-8.583575 16.082281 65.394806 56 38 37
-8.816614 16.663700 67.170235 55 38 36
-8.717994 16.620481 66.418884 55 38 36
-8.659874 16.651901 65.976097 55 37 36
-8.583575 16.646158 65.394806 55 37 37
-9.574800 20.140923 72.946541 53 38 37
-9.256397 19.623173 70.520767 52 39 38
-7.712160 -7.329265 59.736904 121 73 68
-7.743320 -7.229585 59.978268 120 73 67
-7.665887 -7.029289 59.378483 120 73 66
-7.635345 -6.873794 59.141918 119 73 66
-6.642883 -5.536645 51.454491 120 70 66
-6.574517 -5.369888 50.924942 120 70 65
-5.825142 -4.368761 45.120430 120 69 65
-5.789945 -4.245687 44.847797 120 70 67
-5.193690 -3.461578 40.229324 118 70 66
-5.165692 -3.356664 40.012455 117 69 64
-8.120643 -1.886959 62.900936 107 56 62
-8.103475 -1.747663 62.767956 105 54 62
-8.751012 1.911770 67.783661 86 51 55
-8.934600 2.250246 69.205696 87 51 55
-8.791155 2.360907 68.094589 86 51 55
-8.632755 2.462512 66.867661 85 51 55
-5.279536 2.123079 40.894272 79 52 57
-9.394469 4.405283 72.767754 80 47 55
-9.440747 4.584620 73.126213 79 46 54
-9.440747 4.742255 73.126213 80 48 56
-9.464058 4.911989 73.306770 83 52 60
-9.440747 5.057526 73.126213 81 52 60
-9.440747 5.215161 73.126213 78 49 59
-9.464058 5.386063 73.306770 79 51 62
-9.464058 5.544087 73.306770 82 53 66
-9.487484 5.716227 73.488220 83 55 70
-9.534685 5.903869 73.853836 85 56 72
-9.018690 7.843189 69.857040 84 53 66
-8.955475 7.937747 69.367386 84 55 66
-8.955475 8.087279 69.367386 82 55 66
-8.913822 8.198501 69.044746 80 54 64
-8.831667 8.270404 68.408394 78 52 61
-8.872554 8.456841 68.725098 77 51 58
-8.893140 8.624954 68.884552 76 50 55
-8.913822 8.793850 69.044746 75 49 53
-8.955475 8.984475 69.367386 74 48 52
-8.976448 9.155399 69.529839 73 47 51
-8.913822 9.240361 69.044746 73 47 51
-8.731078 9.196710 67.629250 73 48 52
-8.997519 11.881116 69.693054 65 39 48
-9.018690 12.059660 69.857040 64 38 47
-9.061332 12.267980 70.187332 65 39 46
-9.061332 12.419280 70.187332 65 39 46
-9.018690 12.511425 69.857040 66 41 46
-9.061332 12.721881 70.187332 67 42 46
-9.061332 12.873180 70.187332 67 44 47
-9.018690 12.963189 69.857040 67 44 47
-8.976448 13.052355 69.529839 66 43 46
-8.955475 13.171391 69.367386 64 42 45
-9.018690 13.414954 69.857040 64 42 44
-8.069354 13.215486 62.503666 64 44 46
-8.137884 13.599481 63.034485 63 45 47
-8.086378 13.648429 62.635532 62 45 46
-8.260653 14.356370 63.985435 59 43 44
-8.671818 15.650126 67.170235 56 39 41
-8.671818 15.794922 67.170235 56 39 40
-8.671818 15.939718 67.170235 56 39 39
-8.691482 16.120987 67.322548 56 38 38
-8.613356 16.119900 66.717400 56 38 37
-8.479963 16.011848 65.684166 55 37 36
-8.424051 16.046936 65.251083 55 37 36
-8.632755 16.588638 66.867661 56 37 36
-8.574818 16.620481 66.418884 56 37 36
-8.479963 16.578220 65.684166 56 38 37
-7.583387 -7.458037 59.736904 122 72 69
-7.552993 -7.299889 59.497478 121 72 69
-7.568160 -7.186033 59.616951 120 72 68
-7.507855 -7.001284 59.141918 119 72 67
-7.492929 -6.860128 59.024338 118 72 67
-5.701881 -4.252110 44.915646 121 69 66
-8.002003 -1.890965 63.034485 106 57 64
-7.985050 -1.751366 62.900936 105 55 64
-7.968168 -1.612356 62.767956 103 53 63
-8.002003 -1.347441 63.034485 101 51 59
-8.847285 2.416327 69.693054 87 50 54
-8.644365 2.507696 68.094589 86 50 54
-8.585293 2.927917 67.629250 83 51 55
-9.125771 4.042023 71.886787 80 51 56
-9.237606 4.248420 72.767754 80 48 54
-9.237606 4.405283 72.767754 80 46 52
-9.283112 4.584620 73.126213 78 44 49
-9.283112 4.742255 73.126213 83 50 54
-9.306033 4.911989 73.306770 96 64 67
-9.306033 5.070014 73.306770 94 65 69
-9.306033 5.228038 73.306770 81 53 59
-9.306033 5.386063 73.306770 78 50 59
-9.306033 5.544087 73.306770 81 54 66
-9.329068 5.716227 73.488220 83 55 70
-9.375481 5.903869 73.853836 85 56 74
-9.329068 6.033058 73.488220 85 57 75
-8.785416 7.919243 69.205696 84 55 66
-8.744648 8.030987 68.884552 83 55 65
-8.724406 8.160545 68.725098 81 53 63
-8.624584 8.213628 67.938766 79 51 60
-8.624584 8.360081 67.938766 78 50 57
-8.664238 8.545645 68.251129 77 49 55
-8.684201 8.712801 68.408394 75 48 53
-8.704257 8.880729 68.566376 75 47 53
-8.744648 9.070431 68.884552 74 47 53
-8.664238 9.134151 68.251129 74 47 53
-8.546357 9.155001 67.322548 74 48 53
-8.826565 11.703408 69.529839 67 41 50
-8.785416 11.798032 69.205696 66 39 48
-8.826565 12.003175 69.529839 64 38 47
-8.868102 12.210248 69.857040 65 39 47
-8.889017 12.389989 70.021797 66 40 47
-8.847285 12.482055 69.693054 66 41 47
-8.868102 12.662013 69.857040 67 42 47
-8.868102 12.812601 69.857040 68 44 49
-8.826565 12.902472 69.529839 69 45 49
-8.744648 12.931219 68.884552 67 43 47
-8.744648 13.079711 68.884552 65 42 45
-8.805943 13.320924 69.367386 65 41 45
-7.934618 13.215486 62.503666 65 45 47
-7.951357 13.378387 62.635532 64 45 47
-7.968168 13.541978 62.767956 63 45 47
-7.917948 13.591083 62.372356 63 46 47
-7.835641 13.582860 61.723995 63 46 46
-8.002003 14.143005 63.034485 61 44 45
-8.036126 14.339777 63.303288 58 42 43
-8.431641 15.331891 66.418884 55 40 41
-8.469536 15.544619 66.717400 55 40 40
-8.488611 15.723774 66.867661 55 40 39
-8.488611 15.867918 66.867661 55 39 38
-8.488611 16.012062 66.867661 55 38 37
-8.431641 16.047775 66.418884 55 38 36
-8.338370 16.011848 65.684166 54 37 36
-8.283392 16.046936 65.251083 55 37 37
-8.338370 16.295034 65.684166 56 37 37
-8.375430 16.509678 65.976097 57 38 37
-8.265226 16.432796 65.107986 57 38 38
-8.105254 16.390011 63.847832 57 39 39
-7.236217 -7.864540 57.986801 121 71 70
-7.264595 -7.769891 58.214199 122 71 69
-7.250379 -7.629441 58.100277 123 71 69
-7.409887 -7.413289 59.378483 123 72 69
-7.380365 -7.256264 59.141918 122 72 69
-7.395096 -7.143003 59.259964 121 72 69
-7.336522 -6.959692 58.790577 120 72 69
-7.561109 -6.780907 60.590290 119 70 67
-7.530373 -6.623261 60.343987 120 70 68
-7.484734 -6.453827 59.978268 121 70 68
-7.866122 -1.890965 63.034485 106 57 66
-7.866122 -1.755084 63.034485 105 56 65
-7.849456 -1.615772 62.900936 103 54 64
-7.849456 -1.480179 62.900936 102 52 61
-7.882858 -1.350307 63.168602 100 51 59
-7.866122 -1.211560 63.034485 101 51 58
-8.717514 2.422013 69.857040 88 49 54
-8.616147 2.542687 69.044746 87 50 54
-8.517111 2.660587 68.251129 86 50 54
-8.497577 2.801274 68.094589 85 51 55
-8.478131 2.941317 67.938766 84 51 55
-8.401232 3.059763 67.322548 83 51 55
-8.906114 3.705181 71.368370 79 51 55
-8.970807 3.887059 71.886787 79 51 55
-8.992581 4.051834 72.061264 79 50 55
-9.058541 4.238033 72.589836 79 48 53
-9.080744 4.405283 72.767754 79 46 50
-9.103055 4.573355 72.946541 75 43 44
-9.125476 4.742255 73.126213 85 54 53
-9.125476 4.899890 73.126213 109 80 79
-9.125476 5.057526 73.126213 108 81 81
-9.148008 5.228038 73.306770 84 57 60
-9.148008 5.386063 73.306770 76 50 57
-9.148008 5.544087 73.306770 81 55 65
-9.170651 5.716227 73.488220 83 57 71
-9.216277 5.903869 73.853836 85 57 75
-9.170651 6.033058 73.488220 85 57 77
-9.170651 6.191474 73.488220 85 57 78
-8.636231 7.919243 69.205696 84 54 66
-8.576258 8.012397 68.725098 83 53 65
-8.536736 8.122939 68.408394 81 52 62
-8.458775 8.194876 67.783661 80 50 59
-8.439507 8.321994 67.629250 79 49 56
-8.478131 8.506535 67.938766 78 48 55
-8.517111 8.692771 68.251129 77 47 55
-8.497577 8.819623 68.094589 76 48 55
-8.536736 9.007731 68.408394 76 48 55
-8.458775 9.071588 67.783661 75 48 55
-8.382225 9.134289 67.170235 74 48 55
-8.656409 11.676064 69.367386 67 41 51
-8.616147 11.770594 69.044746 66 40 49
-8.676682 12.003175 69.529839 65 39 48
-8.717514 12.210248 69.857040 65 39 47
-8.717514 12.360836 69.857040 66 41 47
-8.676682 12.452823 69.529839 67 42 48
-8.697050 12.632290 69.693054 67 43 48
-8.697050 12.782524 69.693054 68 45 50
-8.656409 12.872326 69.367386 70 46 50
-8.556451 12.871490 68.566376 68 44 48
-8.556451 13.019297 68.566376 67 43 46
-8.656409 13.320924 69.367386 67 43 46
-7.832861 13.271364 62.767956 67 46 50
-7.832861 13.406672 62.767956 65 46 49
-7.832861 13.541978 62.767956 65 46 49
-7.799881 13.619696 62.503666 64 47 48
-7.767177 13.696762 62.241596 63 46 46
-7.832861 13.947897 62.767956 62 46 46
-7.882858 14.173097 63.168602 61 46 45
-7.916546 14.370418 63.438553 59 43 44
-8.233208 15.229679 65.976097 55 41 41
-8.288464 15.475068 66.418884 55 41 40
-8.325715 15.688439 66.717400 54 41 39
-8.325715 15.832259 66.717400 54 40 38
-8.325715 15.976080 66.717400 54 39 37
-8.288464 16.047775 66.418884 53 38 37
-8.214952 16.047352 65.829803 53 38 37
-8.160668 16.082281 65.394806 54 38 37
-8.178683 16.259064 65.539169 55 38 37
-8.214952 16.473072 65.829803 56 39 38
-8.124876 16.432796 65.107986 57 39 38
-8.071772 16.464827 64.682442 58 39 39
-7.984792 16.425335 63.985435 58 39 39
-7.042444 -7.788481 57.425999 120 70 69
-7.056092 -7.679543 57.537292 121 71 68
-7.028848 -7.526341 57.315140 122 71 68
-7.267352 -7.398492 59.259964 122 71 69
-7.238456 -7.241838 59.024338 122 71 69
-7.252875 -7.128774 59.141918 121 71 69
-7.181348 -6.932238 58.558662 120 71 69
-7.209789 -6.832960 58.790577 119 71 69
-7.415363 -6.767097 60.466888 119 68 66
-7.400291 -6.623261 60.343987 120 69 67
-7.340611 -6.440815 59.857342 121 69 68
-7.267352 -6.248792 59.259964 122 69 68
-7.430497 -4.038050 60.590290 115 63 66
-7.746688 -1.758818 63.168602 104 56 66
-7.730241 -1.619203 63.034485 102 54 64
-7.730241 -1.483322 63.034485 101 52 61
-7.763206 -1.353187 63.303288 100 51 59
-7.763206 -1.216726 63.303288 100 51 58
-7.763206 -1.080266 63.303288 101 51 58
-8.546816 2.416327 69.693054 87 49 54
-8.526799 2.560551 69.529839 87 50 54
-8.467310 2.691524 69.044746 86 50 54
-8.487047 2.846982 69.205696 85 50 55
-8.350787 2.948063 68.094589 84 51 55
-8.274871 3.066717 67.475548 83 51 55
-8.794549 3.723081 71.713142 78 51 55
-8.858743 3.905974 72.236603 77 51 55
-8.858743 4.061692 72.236603 76 51 54
-8.902062 4.238033 72.589836 75 50 52
-8.923881 4.405283 72.767754 75 48 49
-8.945807 4.573355 72.946541 72 46 45
-8.945807 4.730603 72.946541 82 57 54
-8.945807 4.887851 72.946541 102 79 75
-8.967841 5.057526 73.126213 100 78 74
-8.967841 5.215161 73.126213 80 57 58
-8.967841 5.372797 73.126213 75 52 57
-8.967841 5.530432 73.126213 81 56 65
-8.989984 5.702112 73.306770 83 57 71
-9.034599 5.889220 73.670578 84 57 75
-9.012236 6.033058 73.488220 84 57 78
-9.012236 6.191474 73.488220 85 56 80
-4.933527 3.562812 40.229324 86 57 80
-8.815844 6.676405 71.886787 86 58 75
-8.794549 6.814868 71.713142 85 57 72
-8.815844 6.986333 71.886787 87 58 71
-8.487047 7.919243 69.205696 85 53 65
-8.389271 7.975473 68.408394 82 52 63
-8.369985 8.104265 68.251129 80 50 59
-8.293720 8.176208 67.629250 79 48 57
-8.274871 8.303081 67.475548 79 48 56
-8.312656 8.487113 67.783661 79 47 55
-8.369985 8.692771 68.251129 79 48 56
-8.350787 8.819623 68.094589 78 48 57
-8.350787 8.966412 68.094589 78 49 58
-8.293720 9.050923 67.629250 77 49 58
-8.237429 9.134289 67.170235 75 48 57
-8.408646 11.393431 68.566376 68 42 52
-8.487047 11.648848 69.205696 67 41 51
-8.447664 11.743284 68.884552 66 40 49
-8.526799 12.003175 69.529839 65 40 48
-8.566926 12.210248 69.857040 66 40 48
-8.566926 12.360836 69.857040 67 41 48
-8.546816 12.482055 69.693054 67 42 48
-8.546816 12.632290 69.693054 68 44 50
-8.566926 12.812601 69.857040 69 45 52
-8.526799 12.902472 69.529839 70 46 52
-8.447664 12.931219 68.884552 69 45 50
-8.467310 13.110129 69.044746 68 45 49
-8.566926 13.414954 69.857040 68 44 47
-8.546816 13.533698 69.693054 68 44 46
-7.713863 13.299482 62.900936 67 48 51
-7.730241 13.463600 63.034485 66 47 50
-7.730241 13.599481 63.034485 65 47 49
-7.713863 13.706262 62.900936 64 47 47
-7.796453 14.264145 63.574394 60 45 45
-7.829986 14.463130 63.847832 59 44 44
-8.090985 15.229679 65.976097 56 42 42
-8.127106 15.440526 66.270630 55 42 40
-8.145288 15.618245 66.418884 54 41 39
-8.163550 15.796762 66.567810 53 40 38
-8.163550 15.940259 66.567810 52 39 37
-8.145288 16.047775 66.418884 51 39 37
-8.073045 16.047352 65.829803 52 39 37
-8.019699 16.082281 65.394806 53 39 38
-8.019699 16.223249 65.394806 54 39 38
-8.073045 16.473072 65.829803 56 39 38
-7.915094 16.429033 64.541832 57 39 38
-5.844211 13.055145 47.655285 54 38 39
-6.918653 -7.664690 57.425999 121 71 68
-7.125385 -7.383754 59.141918 122 71 69
-7.111219 -7.241838 59.024338 121 70 69
-7.111219 -7.114602 59.024338 121 71 70
-7.055115 -6.932238 58.558662 120 71 70
-7.055115 -6.806005 58.558662 119 70 69
-7.270210 -6.753343 60.343987 119 67 66
-7.270210 -6.623261 60.343987 119 67 66
-7.211579 -6.440815 59.857342 121 68 68
-7.139607 -6.248792 59.259964 122 68 68
-7.285017 -6.245712 60.466888 121 68 67
-7.314813 -4.177187 60.714195 114 63 65
-7.285017 -4.029826 60.466888 114 63 65
-7.610518 -1.758818 63.168602 104 55 67
-7.594359 -1.619203 63.034485 102 54 64
-7.610518 -1.486478 63.168602 101 52 62
-7.659408 -1.358982 63.574394 101 52 60
-7.659408 -1.221937 63.574394 101 51 59
-7.643041 -1.082574 63.438553 101 51 58
-8.416337 2.271425 69.857040 87 50 55
-8.416337 2.422013 69.857040 87 50 55
-8.396581 2.566562 69.693054 87 50 54
-8.376917 2.710434 69.529839 86 50 54
-8.376917 2.860317 69.529839 85 51 54
-8.222858 2.954840 68.251129 84 51 55
-8.810205 3.481171 73.126213 81 50 55
-8.724252 3.603306 72.412788 79 50 55
-8.703025 3.750257 72.236603 77 51 56
-8.724252 3.915501 72.412788 75 52 56
-8.724252 4.071599 72.412788 74 52 55
-8.745583 4.238033 72.589836 73 52 55
-8.767018 4.405283 72.767754 73 52 53
-8.788559 4.573355 72.946541 74 53 52
-8.788559 4.730603 72.946541 79 58 57
-8.788559 4.887851 72.946541 86 66 64
-8.788559 5.045099 72.946541 84 64 63
-8.788559 5.202348 72.946541 78 56 59
-8.788559 5.359596 72.946541 78 55 61
-8.810205 5.530432 73.126213 81 57 66
-8.810205 5.688067 73.126213 82 57 71
-8.853820 5.874642 73.488220 83 57 74
-8.831959 6.018162 73.306770 83 56 77
-8.831959 6.176187 73.306770 84 57 80
-8.724252 6.256965 72.412788 86 57 81
-8.619141 6.644230 71.540344 86 58 75
-8.598421 6.782104 71.368370 86 58 72
-8.598421 6.935951 71.368370 87 58 71
-8.557281 7.055874 71.026894 87 58 70
-8.357345 7.788214 69.367386 85 52 65
-8.299172 7.882495 68.884552 85 52 64
-8.222858 7.957139 68.251129 81 50 60
-8.203999 8.085678 68.094589 78 47 56
-8.147935 8.176208 67.629250 78 46 54
-8.222858 8.692771 68.251129 80 48 57
-8.166537 8.779350 67.783661 79 49 59
-8.147935 8.905138 67.629250 79 49 60
-8.110983 9.009876 67.322548 77 49 60
-8.318473 11.621757 69.044746 67 41 50
-8.260839 11.689043 68.566376 66 41 49
-8.337863 11.947215 69.205696 65 41 48
-8.416337 12.210248 69.857040 66 41 48
-8.416337 12.360836 69.857040 67 43 49
-8.396581 12.482055 69.693054 68 44 50
-8.396581 12.632290 69.693054 69 46 52
-8.416337 12.812601 69.857040 70 46 53
-8.396581 12.932759 69.693054 70 46 53
-8.318473 12.961291 69.044746 70 46 51
-8.376917 13.202238 69.529839 69 46 50
-8.416337 13.414954 69.857040 68 45 48
-8.396581 13.533698 69.693054 68 45 47
-7.610518 13.219905 63.168602 68 49 52
-7.578270 13.299482 62.900936 67 48 51
-7.594359 13.463600 63.034485 66 48 50
-7.594359 13.599481 63.034485 65 47 49
-7.775964 14.620338 64.541832 59 44 43
-7.896122 14.987539 65.539169 58 43 43
-7.948763 15.229679 65.976097 56 43 42
-7.984249 15.440526 66.270630 55 42 40
-7.966466 15.548676 66.123032 53 42 39
-7.984249 15.726240 66.270630 52 41 38
-7.984249 15.869097 66.270630 51 39 37
-7.966466 15.976293 66.123032 50 39 36
-7.913591 16.011848 65.684166 52 39 37
-7.861414 16.046936 65.251083 53 40 38
-7.844174 16.152096 65.107986 54 39 38
-7.896122 16.400343 65.539169 55 39 38
-6.997895 -7.256264 59.141918 122 72 69
-6.956324 -7.086425 58.790577 122 72 70
-6.915243 -6.918591 58.443390 121 71 70
-6.901657 -6.779263 58.328571 120 70 70
-7.125646 -6.739644 60.221588 119 68 67
-7.140129 -6.623261 60.343987 119 67 66
-7.082547 -6.440815 59.857342 120 66 65
-7.011863 -6.248792 59.259964 120 66 65
-7.125646 -6.220374 60.221588 120 66 65
-7.228279 -4.729721 61.088974 117 65 66
-7.183933 -4.569825 60.714195 116 65 66
-7.198655 -4.448042 60.838612 115 64 65
-7.198655 -4.316895 60.838612 114 63 64
-7.154671 -4.160172 60.466888 113 63 64
-7.154671 -4.029826 60.466888 112 62 63
-7.474348 -1.758818 63.168602 104 55 66
-7.458478 -1.619203 63.034485 102 54 65
-7.474348 -1.486478 63.168602 102 53 63
-7.522363 -1.358982 63.574394 102 52 61
-7.522363 -1.221937 63.574394 102 52 60
-7.506289 -1.082574 63.438553 101 52 60
-7.490284 -0.943805 63.303288 101 52 60
-8.227034 1.961020 69.529839 87 51 56
-8.265749 2.120836 69.857040 87 51 56
-8.265749 2.271425 69.857040 86 50 55
-8.265749 2.422013 69.857040 86 50 55
-8.265749 2.572601 69.857040 86 50 55
-8.246346 2.716797 69.693054 85 50 54
-8.246346 2.867032 69.693054 85 51 55
-8.113033 2.968488 68.566376 84 51 55
-8.652570 3.481171 73.126213 80 50 55
-8.610155 3.620969 72.767754 77 50 56
-8.589104 3.768595 72.589836 75 51 57
-8.589104 3.925075 72.589836 73 52 57
-8.589104 4.081554 72.589836 72 53 58
-8.589104 4.238033 72.589836 71 54 58
-8.610155 4.405283 72.767754 71 56 58
-8.631310 4.573355 72.946541 75 60 61
-8.631310 4.730603 72.946541 81 65 67
-8.631310 4.887851 72.946541 81 64 66
-8.631310 5.045099 72.946541 76 58 61
-8.631310 5.202348 72.946541 75 55 60
-8.631310 5.359596 72.946541 78 56 63
-8.631310 5.516844 72.946541 81 57 68
-8.631310 5.674092 72.946541 83 58 72
-8.673934 5.860137 73.306770 83 57 75
-8.652570 6.003339 73.126213 82 56 77
-8.631310 6.145836 72.946541 85 57 80
-8.547307 6.241741 72.236603 87 59 82
-8.424325 6.612363 71.197220 86 58 75
-8.384113 6.733545 70.857384 86 58 73
-8.364151 6.869894 70.688675 87 58 71
-8.150681 7.437020 68.884552 84 52 67
-8.131813 7.567953 68.725098 84 51 66
-8.131813 7.716101 68.725098 84 51 64
-8.075732 7.810012 68.251129 83 51 62
-8.057210 7.938889 68.094589 81 49 59
-8.057210 8.085678 68.094589 79 47 56
-8.002149 8.176208 67.629250 78 46 55
-8.057210 8.672833 68.094589 80 49 58
-8.020418 8.779350 67.783661 80 49 59
-7.983962 8.884899 67.475548 79 49 60
-7.965858 9.009876 67.322548 77 48 60
-7.894255 9.504169 66.717400 69 43 52
-8.113033 11.689043 68.566376 66 42 48
-8.246346 12.181585 69.693054 66 42 48
-8.246346 12.331820 69.693054 67 44 49
-8.227034 12.452823 69.529839 68 45 51
-8.227034 12.602706 69.529839 69 47 54
-8.246346 12.782524 69.693054 69 47 54
-8.246346 12.932759 69.693054 69 47 53
-8.188679 12.991505 69.205696 69 47 52
-8.246346 13.383464 69.693054 68 45 48
-7.947835 13.478180 67.170235 68 47 49
-7.554717 13.224421 63.847832 68 48 52
-7.474348 13.219905 63.168602 67 48 51
-7.458478 13.599481 63.034485 65 47 49
-7.789231 15.054004 65.829803 58 43 42
-7.823927 15.263597 66.123032 56 43 41
-7.841392 15.440526 66.270630 55 43 40
-7.806541 15.514123 65.976097 53 43 39
-7.789231 15.621631 65.829803 52 41 37
-7.806541 15.798568 65.976097 50 39 36
-7.789231 15.905444 65.829803 51 39 36
-7.737761 15.941312 65.394806 53 40 37
-7.686966 15.976707 64.965523 54 40 38
-7.670182 16.081562 64.823669 54 39 38
-6.856746 -7.369075 59.024338 122 72 69
-6.911710 -7.299889 59.497478 123 72 69
-6.843142 -7.100485 58.907227 122 72 69
-6.816093 -6.945938 58.674393 121 71 69
-7.010047 -6.753343 60.343987 119 68 67
-7.010047 -6.623261 60.343987 118 67 66
-6.953515 -6.440815 59.857342 118 66 64
-6.897887 -6.261289 59.378483 118 64 63
-6.981667 -6.207782 60.099682 118 64 64
-7.111223 -5.003391 61.214931 119 64 66
-7.096591 -4.861409 61.088974 119 64 67
-7.096591 -4.729721 61.088974 118 64 66
-7.067507 -4.579190 60.838612 116 63 65
-7.067507 -4.448042 60.838612 114 62 64
-7.053054 -4.308066 60.714195 112 61 63
-7.010047 -4.151717 60.343987 111 61 62
-7.038660 -4.038050 60.590290 110 60 61
-7.338177 -1.894988 63.168602 106 56 66
-7.338177 -1.758818 63.168602 103 54 64
-7.322598 -1.619203 63.034485 103 53 64
-7.322598 -1.483322 63.034485 103 53 63
-7.385318 -1.358982 63.574394 103 53 62
-7.369537 -1.219326 63.438553 103 53 62
-7.353824 -1.080266 63.303288 102 53 61
-7.338177 -0.941797 63.168602 101 52 60
-8.096111 1.815388 69.693054 88 53 56
-8.096111 1.965623 69.693054 87 52 56
-8.115161 2.120836 69.857040 86 51 56
-8.134300 2.276782 70.021797 85 51 55
-8.134300 2.427725 70.021797 84 50 55
-8.115161 2.572601 69.857040 84 49 55
-8.096111 2.716797 69.693054 84 49 54
-8.096111 2.867032 69.693054 83 50 55
-7.983665 2.975360 68.725098 83 50 55
-8.494934 3.481171 73.126213 80 50 56
-8.453293 3.620969 72.767754 77 49 56
-8.453293 3.777832 72.767754 74 50 57
-8.453293 3.934695 72.767754 72 52 59
-8.453293 4.091558 72.767754 71 54 61
-8.453293 4.248420 72.767754 71 56 63
-8.453293 4.405283 72.767754 72 58 64
-8.474062 4.573355 72.946541 78 65 71
-8.474062 4.730603 72.946541 86 72 78
-8.474062 4.887851 72.946541 82 66 73
-8.474062 5.045099 72.946541 73 55 63
-8.453293 5.189597 72.767754 73 53 62
-8.474062 5.359596 72.946541 77 55 65
-8.453293 5.503322 72.767754 81 57 70
-8.453293 5.660185 72.767754 84 59 75
-8.474062 5.831340 72.946541 83 57 76
-8.453293 5.973910 72.767754 82 56 76
-8.432625 6.115784 72.589836 84 58 80
-8.371222 6.226591 72.061264 87 60 82
-8.251060 6.596544 71.026894 85 58 73
-8.211770 6.717513 70.688675 85 57 71
-8.172852 6.837335 70.353653 86 57 69
-7.910420 7.645311 68.094589 83 51 64
-7.874300 7.756519 67.783661 82 51 61
-7.874300 7.902638 67.783661 80 49 58
-7.892319 8.067175 67.938766 78 47 56
-7.856363 8.176208 67.629250 78 47 55
-7.838508 8.303081 67.475548 79 48 56
-7.856363 8.467780 67.629250 79 48 57
-7.892319 8.652987 67.938766 80 49 58
-7.874300 8.779350 67.783661 79 49 59
-7.803039 8.989492 67.170235 75 47 58
-7.750434 9.504169 66.717400 69 43 52
-7.715757 9.604822 66.418884 69 43 51
-7.928606 11.635300 68.251129 66 42 47
-8.020799 12.068269 69.044746 65 43 48
-8.077150 12.752589 69.529839 69 47 54
-7.767890 13.417467 66.867661 67 46 48
-7.596792 13.262897 65.394806 67 47 49
-7.401166 13.196042 63.710819 66 47 49
-7.338177 13.219905 63.168602 66 47 49
-7.307084 13.299482 62.900936 65 46 49
-7.322598 13.463600 63.034485 65 46 49
-7.338177 13.628416 63.168602 65 46 49
-7.563472 14.748587 65.107986 58 43 43
-7.647325 15.054004 65.829803 58 44 43
-7.681388 15.263597 66.123032 57 44 41
-7.698534 15.440526 66.270630 55 44 40
-7.664319 15.514123 65.976097 54 43 39
-7.647325 15.621631 65.829803 53 41 37
-7.664319 15.798568 65.976097 52 40 36
-7.647325 15.905444 65.829803 53 39 36
-7.580095 15.906276 65.251083 54 40 38
-7.546922 15.976707 64.965523 55 40 38
-6.797075 -7.314547 59.616951 122 71 69
-6.742915 -7.128774 59.141918 122 71 69
-6.783453 -6.786863 59.497478 120 69 68
-6.879966 -6.753343 60.343987 119 68 66
-6.879966 -6.623261 60.343987 118 66 64
-6.824482 -6.440815 59.857342 117 65 62
-6.783453 -6.273837 59.497478 117 64 62
-6.866011 -6.220374 60.221588 117 64 63
-6.979265 -5.003391 61.214931 121 63 69
-6.964904 -4.861409 61.088974 121 63 68
-6.979265 -4.739473 61.214931 119 62 67
-6.950603 -4.588593 60.963535 116 61 65
-6.936359 -4.448042 60.838612 112 60 63
-6.936359 -4.316895 60.838612 110 59 61
-7.186716 -2.026846 63.034485 108 56 66
-7.202007 -1.894988 63.168602 106 56 64
-7.202007 -1.758818 63.168602 105 54 63
-7.202007 -1.622648 63.168602 105 54 63
-7.186716 -1.483322 63.034485 105 54 64
-7.263827 -1.361898 63.710819 105 54 64
-7.248273 -1.221937 63.574394 105 54 63
-7.202007 -1.077967 63.168602 103 53 62
-7.202007 -0.941797 63.168602 101 52 61
-5.766513 -0.426992 50.577927 95 52 60
-5.746933 -0.316884 50.406185 95 53 61
-5.756706 -0.208579 50.491909 95 55 62
-5.786228 -0.100247 50.750843 95 55 63
-5.756706 0.009108 50.491909 94 55 63
-7.964572 1.819660 69.857040 88 53 57
-7.945877 1.965623 69.693054 87 53 57
-7.983357 2.125838 70.021797 85 52 56
-7.983357 2.276782 70.021797 84 51 56
-7.983357 2.427725 70.021797 82 50 55
-7.983357 2.578669 70.021797 81 49 54
-7.964572 2.723189 69.857040 81 49 54
-7.945877 2.867032 69.693054 81 49 54
-7.853697 2.982263 68.884552 80 50 55
-8.337299 3.481171 73.126213 79 50 56
-8.296430 3.620969 72.767754 75 50 57
-8.316814 3.787114 72.946541 73 51 58
-8.316814 3.944362 72.946541 70 52 61
-8.296430 4.091558 72.767754 69 54 64
-8.296430 4.248420 72.767754 71 58 67
-8.296430 4.405283 72.767754 75 62 72
-8.316814 4.573355 72.946541 81 67 78
-8.316814 4.730603 72.946541 86 70 82
-8.316814 4.887851 72.946541 81 62 75
-8.296430 5.032734 72.767754 74 53 65
-8.296430 5.189597 72.767754 74 51 64
-8.276145 5.333387 72.589836 79 55 67
-8.276145 5.489867 72.589836 83 58 72
-8.255960 5.632574 72.412788 85 59 76
-8.276145 5.802825 72.589836 83 57 75
-8.255960 5.944769 72.412788 82 56 76
-8.235872 6.086023 72.236603 85 58 79
-8.156490 6.181580 71.540344 86 60 79
-8.078624 6.275311 70.857384 85 59 77
-8.078624 6.428056 70.857384 84 58 74
-8.078624 6.580801 70.857384 83 57 71
-7.693053 7.721262 67.475548 80 50 61
-7.693053 7.866717 67.475548 79 49 58
-7.728181 8.048757 67.783661 77 48 56
-7.693053 8.157626 67.475548 77 48 55
-7.675609 8.284253 67.322548 78 48 56
-7.693053 8.448535 67.475548 78 48 56
-7.745866 8.652987 67.938766 78 48 57
-7.728181 8.779350 67.783661 77 48 57
-7.675609 8.864752 67.322548 75 47 57
-7.658243 8.989492 67.170235 73 46 55
-7.658243 9.134289 67.170235 70 44 53
-7.606614 9.504169 66.717400 68 43 53
-7.572580 9.604822 66.418884 68 43 52
-7.505418 9.661542 65.829803 68 43 50
-7.763631 11.608613 68.094589 65 43 47
-7.555677 13.297668 66.270630 66 46 47
-7.423121 13.204727 65.107986 66 46 48
-7.342610 13.200337 64.401825 66 46 49
-7.263827 13.196042 63.710819 66 46 49
-7.217363 13.248093 63.303288 66 47 49
-7.186716 13.327719 63.034485 66 47 50
-7.217363 13.521014 63.303288 65 46 50
-7.217363 13.657475 63.303288 65 46 50
-7.455822 14.813559 65.394806 58 44 43
-7.522096 15.087457 65.976097 59 45 44
-7.555677 15.297668 66.270630 58 45 42
-7.572580 15.475068 66.418884 57 44 41
-7.538849 15.548676 66.123032 55 42 39
-7.522096 15.656345 65.976097 54 40 37
-7.538849 15.833754 66.123032 54 39 37
-7.505418 15.905444 65.829803 55 39 37
-7.455822 15.941312 65.394806 56 40 38
-6.695450 -7.344041 59.857342 121 71 68
-6.641887 -7.157289 59.378483 121 71 68
-6.602273 -6.987365 59.024338 120 70 68
-6.641887 -6.901289 59.378483 120 69 68
-6.695450 -6.827912 59.857342 119 69 67
-6.749885 -6.753343 60.343987 118 67 65
-6.749885 -6.623261 60.343987 117 66 63
-6.708976 -6.453827 59.978268 116 64 61
-6.668561 -6.286435 59.616951 115 63 61
-6.749885 -6.233017 60.343987 115 62 62
-6.763632 -6.115366 60.466888 116 63 63
-6.777435 -5.605397 60.590290 121 68 71
-6.791295 -5.485981 60.714195 121 67 71
-6.777435 -5.344172 60.590290 121 66 70
-6.861453 -5.013728 61.341408 121 62 68
-7.035897 -2.158145 62.900936 110 56 65
-7.065837 -2.031159 63.168602 109 56 65
-7.080903 -1.899029 63.303288 108 56 64
-7.080903 -1.762568 63.303288 108 56 64
-7.080903 -1.626108 63.303288 108 55 63
-7.065837 -1.486478 63.168602 107 54 64
-7.141814 -1.364827 63.847832 107 54 64
-7.126488 -1.224559 63.710819 106 54 64
-7.080903 -1.080266 63.303288 104 54 63
-7.065837 -0.941797 63.168602 102 53 62
-7.235171 -0.824934 64.682442 100 52 60
-5.667139 -0.427721 50.664234 96 52 60
-5.657485 -0.317963 50.577927 96 54 61
-5.667139 -0.209291 50.664234 96 55 62
-5.676826 -0.100247 50.750843 95 55 62
-5.647863 0.009108 50.491909 95 55 62
-5.619194 0.117353 50.235603 95 53 61
-5.553417 0.223002 49.647564 94 52 59
-7.813984 1.819660 69.857040 90 56 57
-7.813984 1.970248 69.857040 91 58 59
-7.832414 2.125838 70.021797 88 56 59
-7.832414 2.276782 70.021797 84 52 56
-7.850930 2.433465 70.187332 80 50 55
-7.832414 2.578669 70.021797 79 49 54
-7.832414 2.729612 70.021797 79 49 54
-7.813984 2.873778 69.857040 79 49 55
-7.759213 3.003167 69.367386 79 50 55
-8.159566 3.472618 72.946541 77 50 56
-8.159566 3.629866 72.946541 74 50 57
-8.179664 3.796442 73.126213 71 51 59
-8.159566 3.944362 72.946541 69 52 61
-8.159566 4.101611 72.946541 68 55 65
-8.139567 4.248420 72.767754 72 60 71
-8.159566 4.416107 72.946541 80 67 79
-8.159566 4.573355 72.946541 86 71 84
-8.159566 4.730603 72.946541 84 67 81
-8.159566 4.887851 72.946541 78 57 73
-8.139567 5.032734 72.767754 74 50 65
-8.119666 5.176908 72.589836 75 50 65
-8.119666 5.333387 72.589836 80 54 68
-8.080154 5.463152 72.236603 83 56 72
-8.080154 5.618870 72.236603 83 57 74
-8.080154 5.774588 72.236603 83 56 74
-8.060542 5.915911 72.061264 84 57 76
-8.021603 6.041922 71.713142 85 58 79
-7.944840 6.137214 71.026894 85 58 78
-7.888227 6.245500 70.520767 83 57 75
-7.513446 7.686325 67.170235 78 50 61
-7.530484 7.848878 67.322548 77 49 59
-7.564791 8.030422 67.629250 76 49 56
-7.547598 8.157626 67.475548 76 48 55
-7.530484 8.284253 67.322548 76 49 55
-7.547598 8.448535 67.475548 76 49 55
-7.582062 8.633232 67.783661 76 49 56
-7.582062 8.779350 67.783661 75 47 55
-7.547598 8.884899 67.475548 73 46 55
-7.513446 8.989492 67.170235 71 45 54
-7.530484 9.155001 67.322548 69 43 52
-7.530484 9.300126 67.322548 69 43 52
-7.513446 9.423882 67.170235 68 44 53
-7.479602 9.525576 66.867661 69 45 54
-7.446061 9.626357 66.567810 69 45 53
-7.363511 9.661542 65.829803 68 44 52
-7.347220 13.179990 65.684166 66 45 46
-7.266834 13.175833 64.965523 66 46 47
-7.188189 13.171765 64.262428 66 46 48
-7.111228 13.167785 63.574394 67 47 48
-7.080903 13.248093 63.303288 67 47 50
-7.065837 13.356075 63.168602 67 47 51
-7.096033 13.549905 63.438553 66 47 51
-7.096033 13.686657 63.438553 65 46 50
-7.314853 14.813559 65.394806 59 44 44
-7.379874 15.087457 65.976097 60 45 45
-7.412820 15.297668 66.270630 60 45 44
-7.429403 15.475068 66.418884 60 44 43
-7.379874 15.514123 65.976097 57 42 40
-7.347220 15.870255 65.684166 56 39 38
-7.314853 15.941312 65.394806 57 39 39
-7.282771 16.011744 65.107986 57 39 40
-7.157206 18.218439 63.985435 53 39 39
-7.065837 18.122032 63.168602 53 39 38
-7.050835 18.219439 63.034485 53 39 38
-6.606376 -7.388731 60.221588 120 70 67
-6.540047 -7.186033 59.616951 120 69 67
-6.526941 -7.043376 59.497478 120 69 67
-6.566418 -6.956944 59.857342 120 68 67
-6.579684 -6.841706 59.978268 120 67 66
-6.619803 -6.753343 60.343987 119 66 64
