ply
format ascii 1.0
element vertex 1198
property float x
property float y
property float z
property uchar red
property uchar green
property uchar blue
end_header
-3.685825 6.052708 57.204704 102 59 75
-3.678737 6.164145 57.094696 104 61 77
-3.671676 6.275155 56.985111 106 65 80
-3.678737 6.410299 57.094696 107 67 82
-3.657635 6.495900 56.767193 106 67 81
-3.657635 6.618270 56.767193 106 67 79
-3.650655 6.727777 56.658859 106 67 77
-3.643702 6.836867 56.550938 105 67 75
-3.609327 7.255388 56.017437 103 66 72
-3.609327 7.376143 56.017437 103 66 72
-3.622999 7.525294 56.229626 103 66 72
-3.622999 7.646507 56.229626 104 67 73
-3.622999 7.767719 56.229626 105 67 73
-3.602530 8.326469 55.911945 101 66 72
-3.575595 8.742721 55.493912 105 70 80
-3.562278 9.067701 55.287228 101 62 73
-3.535940 9.118957 54.878452 102 61 73
-3.542488 9.254362 54.980080 105 60 74
-3.535940 9.355556 54.878452 107 59 75
-3.522916 9.438960 54.676319 109 59 75
-3.529416 9.574456 54.777199 126 74 90
-3.522916 9.674687 54.676319 161 109 125
-3.522916 9.792551 54.676319 164 113 128
-3.522916 9.910416 54.676319 126 78 92
-3.529416 10.046782 54.777199 105 58 72
-3.529416 10.164863 54.777199 106 62 75
-3.529416 10.282944 54.777199 106 66 80
-3.542488 10.439548 54.980080 103 67 81
-3.542488 10.558065 54.980080 99 68 82
-3.535940 10.656849 54.878452 96 70 84
-3.542488 10.795103 54.980080 97 72 90
-3.535940 10.893448 54.878452 107 84 105
-3.529416 10.991430 54.777199 126 101 127
-3.529416 11.109512 54.777199 135 107 136
-3.529416 11.227593 54.777199 129 99 129
-3.529416 12.644567 54.777199 103 119 128
-3.490772 12.622911 54.177448 130 146 154
-4.879958 21.401417 75.737862 254 254 254
-4.609502 20.369532 71.540344 254 254 254
-4.407703 19.625242 68.408394 254 254 254
-4.260453 19.112150 66.123032 254 254 254
-4.185872 18.917627 64.965523 254 254 254
-3.415970 16.238134 53.016502 254 254 254
-3.434369 16.555395 53.302052 252 254 254
-3.397768 16.492638 52.734001 250 253 252
-3.379759 16.518295 52.454491 249 252 251
-3.361939 16.543682 52.177929 252 253 252
-3.292501 16.752764 51.100246 159 154 158
-3.292501 16.862919 51.100246 146 142 146
-3.292501 16.973074 51.100246 135 131 138
-3.292501 17.083227 51.100246 120 115 125
-3.661274 0.644268 58.790577 99 63 71
-3.654038 0.769477 58.674393 97 61 69
-3.683154 1.158079 59.141918 92 58 65
-3.675832 1.283013 59.024338 92 59 65
-3.668538 1.407451 58.907227 93 60 66
-3.654038 1.907817 58.674393 93 62 67
-3.555660 5.302607 57.094696 98 61 74
-3.542037 5.404895 56.875942 99 60 73
-3.548836 5.538110 56.985111 99 58 72
-3.542037 5.650106 56.875942 100 57 72
-3.548836 5.783792 56.985111 100 56 72
-3.548836 5.906632 56.985111 101 57 73
-3.555660 6.041068 57.094696 103 59 76
-3.548836 6.152314 56.985111 104 62 79
-3.542037 6.263133 56.875942 106 65 81
-3.542037 6.385738 56.875942 107 67 82
-3.528518 6.483503 56.658859 106 67 81
-3.521797 6.593058 56.550938 104 66 78
-3.515101 6.702197 56.443428 103 65 76
-3.508431 6.810921 56.336323 103 65 75
-3.475457 7.228112 55.806847 101 65 71
-3.482002 7.362251 55.911945 101 64 71
-3.495167 7.511069 56.123333 100 64 70
-3.495167 7.632052 56.123333 102 65 71
-3.495167 7.753035 56.123333 103 66 72
-3.482002 8.326469 55.911945 103 68 74
-3.436698 8.931888 55.184464 103 67 75
-3.436698 9.050847 55.184464 103 64 74
-3.411335 9.102132 54.777199 105 63 75
-3.417640 9.237256 54.878452 107 62 75
-3.411335 9.338294 54.777199 107 61 74
-3.398793 9.421609 54.575813 107 59 73
-3.405052 9.556824 54.676319 125 74 89
-3.405052 9.674687 54.676319 164 113 127
-3.405052 9.792551 54.676319 166 116 130
-3.405052 9.910416 54.676319 126 78 92
-3.411335 10.046782 54.777199 102 56 70
-3.411335 10.164863 54.777199 104 60 74
-3.411335 10.282944 54.777199 105 66 80
-3.423969 10.439548 54.980080 103 68 82
-3.423969 10.558065 54.980080 99 69 83
-3.417640 10.656849 54.878452 97 70 86
-3.423969 10.795103 54.980080 97 72 90
-3.417640 10.893448 54.878452 101 78 99
-3.405052 10.971189 54.676319 110 86 111
-3.405052 11.089052 54.676319 120 94 123
-3.405052 11.206916 54.676319 129 101 131
-3.430322 12.714945 55.082081 104 119 129
-3.386343 12.669149 54.375900 136 149 158
-4.423309 20.223339 71.026894 254 254 254
-4.230992 19.490517 67.938766 254 254 254
-4.090583 18.985300 65.684166 254 254 254
-4.036994 18.876322 64.823669 254 254 254
-3.933922 18.530544 63.168602 254 254 254
-3.812254 18.089394 61.214931 254 254 254
-3.284091 16.492638 52.734001 241 247 245
-3.243760 16.402378 52.086391 239 244 241
-3.204408 16.314308 51.454491 247 249 247
-3.182347 16.752764 51.100246 196 190 188
-3.182347 16.862919 51.100246 185 181 181
-3.182347 16.973074 51.100246 159 155 159
-3.182347 17.083227 51.100246 120 113 124
-3.534541 0.644268 58.790577 100 63 71
-3.534541 0.771001 58.790577 98 63 70
-3.555664 1.030589 59.141918 94 61 67
-3.555664 1.158079 59.141918 92 60 66
-3.548595 1.283013 59.024338 92 60 66
-3.541554 1.407451 58.907227 92 61 67
-3.555664 1.540549 59.141918 93 62 68
-3.432583 5.302607 57.094696 98 61 74
-3.419432 5.404895 56.875942 99 60 73
-3.419432 5.527501 56.875942 99 58 72
-3.412894 5.639303 56.767193 100 57 72
-3.419432 5.772712 56.875942 100 57 72
-3.425995 5.906632 56.985111 101 58 73
-3.425995 6.029473 56.985111 102 59 75
-3.425995 6.152314 56.985111 104 62 78
-3.419432 6.263133 56.875942 106 65 81
-3.419432 6.385738 56.875942 107 67 82
-3.406380 6.483503 56.658859 106 68 81
-3.393428 6.580523 56.443428 102 65 78
-3.386989 6.689479 56.336323 101 64 76
-3.386989 6.810921 56.336323 100 64 75
-3.348862 7.214550 55.702145 99 63 71
-3.367818 7.496897 56.017437 99 62 70
-3.355157 8.310819 55.806847 103 67 75
-3.317739 8.931888 55.184464 104 68 77
-3.317739 9.050847 55.184464 105 65 76
-3.287189 9.085369 54.676319 105 64 76
-3.299341 9.237256 54.878452 106 63 76
-3.293253 9.338294 54.777199 108 61 76
-3.281146 9.421609 54.575813 109 62 77
-3.287189 9.556824 54.676319 121 72 87
-3.287189 9.674687 54.676319 145 95 110
-3.287189 9.792551 54.676319 146 97 111
-3.287189 9.910416 54.676319 120 72 86
-3.293253 10.046782 54.777199 104 58 72
-3.293253 10.164863 54.777199 103 61 75
-3.293253 10.282944 54.777199 104 66 78
-3.305451 10.439548 54.980080 102 68 80
-3.305451 10.558065 54.980080 99 69 81
-3.299341 10.656849 54.878452 96 70 84
-3.305451 10.795103 54.980080 97 73 89
-3.299341 10.893448 54.878452 101 78 98
-3.281146 10.951021 54.575813 105 82 105
-3.293253 11.109512 54.777199 113 88 116
-3.287189 11.206916 54.676319 129 103 133
-3.287189 11.324780 54.676319 136 109 140
-3.281146 11.421609 54.575813 123 98 126
-3.275126 11.518084 54.475674 110 86 111
-3.281146 11.656903 54.575813 111 90 110
-3.275126 12.574965 54.475674 112 123 134
-3.239462 12.554184 53.882473 131 141 151
-4.190008 19.843557 69.693054 254 254 254
-4.038333 19.270035 67.170235 254 254 254
-3.922952 18.860123 65.251083 254 254 254
-3.897256 18.876322 64.823669 253 253 253
-3.838588 18.729797 63.847832 251 251 251
-3.077489 16.891993 51.188347 218 214 213
-3.072192 16.973074 51.100246 187 182 187
-3.077489 17.112682 51.188347 128 117 133
-3.414570 0.645547 58.907227 99 64 71
-3.435017 1.160390 59.259964 92 61 67
-3.428174 1.285569 59.141918 91 61 67
-3.421359 1.410249 59.024338 92 62 68
-3.315883 5.312824 57.204704 98 61 73
-3.296826 5.404895 56.875942 98 60 72
-3.296826 5.527501 56.875942 98 59 72
-3.290523 5.639303 56.767193 98 58 72
-3.303154 5.783792 56.985111 98 57 72
-3.303154 5.906632 56.985111 99 58 72
-3.303154 6.029473 56.985111 101 59 74
-3.309506 6.164145 57.094696 103 61 77
-3.296826 6.263133 56.875942 104 64 79
-3.296826 6.385738 56.875942 105 66 80
-3.284243 6.483503 56.658859 105 67 80
-3.271755 6.580523 56.443428 103 66 78
-3.271755 6.702197 56.443428 101 65 76
-3.265547 6.810921 56.336323 99 64 74
-3.198780 9.050847 55.184464 105 67 78
-3.175172 9.102132 54.777199 105 66 78
-3.181041 9.237256 54.878452 106 63 77
-3.175172 9.338294 54.777199 107 63 78
-3.163499 9.421609 54.575813 110 65 81
-3.169325 9.556824 54.676319 115 69 85
-3.169325 9.674687 54.676319 124 77 92
-3.169325 9.792551 54.676319 123 77 92
-3.169325 9.910416 54.676319 114 69 83
-3.175172 10.046782 54.777199 107 63 77
-3.175172 10.164863 54.777199 106 63 77
-3.175172 10.282944 54.777199 105 66 78
-3.192845 10.458916 55.082081 103 68 79
-3.181041 10.538549 54.878452 99 69 80
-3.181041 10.656849 54.878452 96 70 83
-3.186932 10.795103 54.980080 97 73 89
-3.181041 10.893448 54.878452 101 79 97
-3.163499 10.951021 54.575813 104 81 104
-3.175172 11.109512 54.777199 109 86 113
-3.175172 11.227593 54.777199 122 99 127
-3.169325 11.324780 54.676319 129 106 134
-3.163499 11.421609 54.575813 119 97 122
-3.157694 11.518084 54.475674 108 88 109
-3.157694 11.635514 54.475674 110 93 108
-3.151911 11.731421 54.375900 125 112 121
-3.151911 12.200285 54.375900 135 139 144
-3.117651 12.415499 53.784859 117 126 136
-3.095222 12.441287 53.397919 127 134 143
-3.067635 12.444484 52.922001 161 167 174
-3.073113 12.580992 53.016502 195 199 203
-3.062177 12.650099 52.827831 209 212 213
-3.078611 12.832479 53.111347 223 224 225
-3.920144 19.255936 67.629250 254 254 254
-3.849985 19.054487 66.418884 254 254 254
-3.757518 18.876322 64.823669 249 250 249
-3.716940 18.810703 64.123634 240 241 240
-3.653808 18.627081 63.034485 237 238 238
-3.607848 18.526951 62.241596 246 247 246
-2.972268 16.810631 51.276756 212 203 201
-2.972268 16.921167 51.276756 232 227 228
-2.967144 17.002337 51.188347 209 203 211
-2.967144 17.112682 51.188347 145 132 151
-3.274592 0.642995 58.674393 100 64 70
-3.307272 1.160390 59.259964 93 63 70
-3.300684 1.285569 59.141918 92 63 69
-3.294122 1.410249 59.024338 92 63 70
-3.217366 4.359913 57.649014 97 64 74
-3.198732 5.323080 57.315140 97 60 72
-3.180314 5.415270 56.985111 98 60 72
-3.180314 5.538110 56.985111 97 59 71
-3.174221 5.650106 56.875942 97 59 71
-3.186430 5.794914 57.094696 98 58 71
-3.186430 5.917991 57.094696 98 58 72
-3.180314 6.029473 56.985111 100 59 73
-3.192569 6.176022 57.204704 101 61 74
-3.174221 6.263133 56.875942 102 63 76
-3.168152 6.373528 56.767193 103 65 77
-3.156083 6.471153 56.550938 103 66 77
-3.150082 6.580523 56.443428 102 66 76
-3.150082 6.702197 56.443428 101 65 75
-3.144105 6.810921 56.336323 98 64 74
-3.126308 6.893124 56.017437 96 62 72
-3.057091 9.102132 54.777199 106 66 80
-3.068414 9.254362 54.980080 106 64 79
-3.062742 9.355556 54.878452 106 64 80
-3.051461 9.438960 54.676319 108 65 81
-3.057091 9.574456 54.777199 109 66 81
-3.051461 9.674687 54.676319 110 66 81
-3.051461 9.792551 54.676319 111 67 82
-3.051461 9.910416 54.676319 111 67 82
-3.057091 10.046782 54.777199 109 66 80
-3.057091 10.164863 54.777199 107 65 79
-3.057091 10.282944 54.777199 105 66 78
-3.074106 10.458916 55.082081 103 68 79
-3.062742 10.538549 54.878452 100 70 81
-3.062742 10.656849 54.878452 98 72 84
-3.068414 10.795103 54.980080 98 76 90
-3.062742 10.893448 54.878452 100 80 98
-3.040263 10.930927 54.475674 103 83 106
-3.057091 11.109512 54.777199 107 87 113
-3.057091 11.227593 54.777199 114 94 121
-3.045852 11.303963 54.575813 118 99 125
-3.040263 11.400652 54.475674 116 98 120
-3.040263 11.518084 54.475674 111 95 112
-3.034695 11.614204 54.375900 114 100 111
-3.029147 11.709973 54.276493 138 126 132
-3.018112 11.783890 54.078766 170 163 165
-3.018112 11.900465 54.078766 171 168 168
-3.018112 12.017041 54.078766 144 143 145
-3.029147 12.177980 54.276493 133 136 140
-2.990872 12.139631 53.590691 135 141 147
-2.996281 12.277315 53.687599 128 136 143
-2.996281 12.393048 53.687599 122 130 138
-2.980114 12.441287 53.397919 128 135 142
-2.964120 12.489008 53.111347 155 161 166
-2.974764 12.648753 53.302052 174 178 181
-2.964120 12.717988 53.111347 178 181 183
-2.974764 12.878555 53.302052 201 203 204
-3.817842 19.330313 68.408394 254 254 254
-3.765780 19.212172 67.475548 255 255 255
-3.698534 19.011953 66.270630 255 255 255
-3.594237 18.892311 64.401825 231 234 232
-3.540477 19.293495 63.438553 246 251 251
-2.866684 16.839716 51.365471 204 192 193
-2.861733 16.921167 51.276756 227 219 224
-2.856799 17.002337 51.188347 214 204 217
-2.856799 17.112682 51.188347 160 144 165
-3.129555 0.639205 58.328571 100 64 70
-3.148109 0.769477 58.674393 100 65 71
-3.166885 1.028540 59.024338 97 65 71
-3.173194 1.158079 59.141918 94 64 70
-3.166885 1.283013 59.024338 93 63 70
-3.160602 1.407451 58.907227 91 61 68
-3.093094 4.359913 57.649014 97 63 74
-3.081128 5.333376 57.425999 96 60 71
-3.057473 5.415270 56.985111 97 60 71
-3.063353 5.548760 57.094696 97 60 71
-3.051616 5.650106 56.875942 97 59 70
-3.069255 5.806080 57.204704 98 59 70
-3.069255 5.929394 57.204704 99 59 70
-3.057473 6.029473 56.985111 100 59 71
-3.069255 6.176022 57.204704 101 60 72
-3.045781 6.251158 56.767193 101 62 73
-3.039968 6.361365 56.658859 102 64 75
-3.028409 6.458851 56.443428 102 66 75
-3.022663 6.568037 56.336323 101 65 75
-3.022663 6.689479 56.336323 100 65 74
-3.005553 6.772369 56.017437 99 64 73
-2.994254 6.867209 55.806847 97 63 72
-2.977464 6.948328 55.493912 95 61 71
-2.971909 7.054768 55.390377 96 62 71
-2.955368 9.271531 55.082081 105 65 81
-2.949895 9.372881 54.980080 104 64 80
-2.939010 9.456375 54.777199 104 63 80
-2.944443 9.592155 54.878452 104 62 78
-2.939010 9.692537 54.777199 105 62 78
-2.933597 9.792551 54.676319 107 63 78
-2.933597 9.910416 54.676319 109 65 80
-2.944443 10.065352 54.878452 108 65 79
-2.944443 10.183652 54.878452 106 65 79
-2.944443 10.301951 54.878452 105 67 79
-2.955368 10.458916 55.082081 103 70 80
-2.939010 10.519106 54.777199 101 73 83
-2.944443 10.656849 54.878452 99 76 87
-2.949895 10.795103 54.980080 98 79 92
-2.944443 10.893448 54.878452 98 82 99
-2.917479 10.910908 54.375900 100 86 108
-2.939010 11.109512 54.777199 103 90 115
-2.933597 11.206916 54.676319 108 93 120
-2.922832 11.283221 54.475674 116 101 127
-2.922832 11.400652 54.475674 129 114 136
-2.917479 11.496988 54.375900 134 120 136
-2.917479 11.614204 54.375900 132 120 130
-2.912145 11.709973 54.276493 149 139 143
-2.901536 11.783890 54.078766 175 168 169
-2.901536 11.900465 54.078766 169 166 165
-2.901536 12.017041 54.078766 143 144 143
-2.912145 12.177980 54.276493 135 138 140
-2.880548 12.161583 53.687599 137 142 146
-2.880548 12.277315 53.687599 134 140 146
-2.885767 12.415499 53.784859 134 140 146
-2.870168 12.463703 53.494129 140 146 151
-2.854737 12.511390 53.206528 155 160 163
-2.859862 12.648753 53.302052 162 166 168
-2.854737 12.740781 53.206528 167 170 171
-2.854737 12.855475 53.206528 198 200 201
-2.824368 12.832191 52.640499 237 238 238
-3.730546 19.497320 69.529839 254 254 254
-3.653540 19.241640 68.094589 254 254 254
-3.620326 19.212172 67.475548 254 254 254
-3.587710 19.183233 66.867661 254 254 254
-2.751198 16.810631 51.276756 188 174 177
-2.746454 16.891993 51.188347 199 186 194
-2.741727 16.973074 51.100246 189 174 189
-2.997928 0.637952 58.214199 100 64 70
-3.015667 0.767959 58.558662 100 65 72
-3.027611 1.024466 58.790577 98 65 72
-3.033618 1.153483 58.907227 95 64 71
-3.033618 1.280467 58.907227 92 62 69
-3.033618 1.407451 58.907227 91 60 68
-3.039649 1.537486 59.024338 90 59 66
-3.039649 1.664723 59.024338 89 58 64
-3.045704 1.795529 59.141918 88 56 61
-3.039649 1.919196 59.024338 88 56 60
-3.045704 2.050509 59.141918 91 59 64
-3.045704 2.177999 59.141918 93 62 67
-2.968822 4.359913 57.649014 96 63 76
-2.957337 5.333376 57.425999 95 61 71
-2.940276 5.425683 57.094696 96 61 71
-2.945941 5.559452 57.204704 97 60 71
-2.934632 5.660951 56.985111 97 60 71
-2.951628 5.817288 57.315140 98 59 70
-2.945941 5.929394 57.204704 99 59 70
-2.929010 6.017922 56.875942 100 60 71
-2.940276 6.164145 57.094696 100 61 71
-2.923410 6.251158 56.767193 101 62 72
-2.906736 6.337178 56.443428 101 64 73
-2.901221 6.446595 56.336323 102 66 74
-2.895726 6.555597 56.229626 101 66 74
-2.895726 6.676810 56.229626 101 66 74
-2.873954 6.746909 55.806847 100 66 74
-2.863190 6.841490 55.597832 98 64 73
-2.847194 6.922450 55.287228 97 63 71
-2.841902 7.028542 55.184464 96 62 70
-2.852506 7.174170 55.390377 97 62 69
-2.836630 9.390270 55.082081 103 63 80
-2.826143 9.473855 54.878452 103 62 79
-2.831377 9.609918 54.980080 103 61 78
-2.826143 9.710454 54.878452 104 61 77
-2.820929 9.810619 54.777199 106 62 77
-2.820929 9.928700 54.777199 107 64 78
-2.826143 10.065352 54.878452 107 64 78
-2.831377 10.202510 54.980080 105 65 79
-2.831377 10.321029 54.980080 105 68 80
-2.841902 10.478356 55.184464 104 72 83
-2.826143 10.538549 54.878452 103 76 87
-2.826143 10.656849 54.878452 101 78 91
-2.831377 10.795103 54.980080 98 81 95
-2.826143 10.893448 54.878452 96 84 102
-2.795143 10.890961 54.276493 97 87 110
-2.815734 11.089052 54.676319 99 89 115
-2.810558 11.186316 54.575813 101 90 118
-2.800262 11.262556 54.375900 118 106 134
-2.800262 11.379772 54.375900 155 142 166
-2.795143 11.475969 54.276493 176 164 182
-2.795143 11.592972 54.276493 165 154 166
-2.790043 11.688605 54.177448 154 146 152
-2.779897 11.762465 53.980442 161 155 158
-2.779897 11.878828 53.980442 157 155 155
-2.779897 11.995192 53.980442 145 146 146
-2.790043 12.155758 54.177448 141 144 147
-2.764816 12.161583 53.687599 140 146 148
-2.759825 12.255155 53.590691 139 145 148
-2.764816 12.393048 53.687599 148 154 157
-2.749898 12.441287 53.397919 156 162 164
-2.740042 12.511390 53.206528 156 161 162
-2.749898 12.671503 53.397919 158 161 162
-2.744961 12.763655 53.302052 174 176 176
-2.749898 12.901718 53.397919 209 210 210
-2.720540 12.877856 52.827831 242 242 242
-3.900366 20.258560 75.737862 253 253 253
-3.860968 20.215544 74.972832 250 250 250
-3.498726 18.904703 67.938766 254 254 254
-3.563971 19.406424 69.205696 254 254 254
-3.506751 19.241640 68.094589 254 254 254
-3.482787 19.255936 67.629250 254 254 254
-3.459148 19.270035 67.170235 254 254 254
-3.420455 20.056725 66.418884 254 254 254
-2.636109 16.781647 51.188347 171 155 157
-2.636109 16.891993 51.188347 163 146 154
-2.878081 0.639205 58.328571 100 63 70
-2.906634 1.153483 58.907227 94 63 71
-2.906634 1.280467 58.907227 92 61 69
-2.900878 1.404664 58.790577 91 59 68
-2.912412 1.537486 59.024338 89 57 66
-2.912412 1.664723 59.024338 89 56 63
-2.918214 1.795529 59.141918 87 54 60
-2.918214 1.923019 59.141918 86 54 59
-2.924039 2.054602 59.259964 90 58 63
-2.918214 2.177999 59.141918 92 61 67
-2.866817 4.268797 58.100277 94 61 75
-2.850084 4.368396 57.761173 96 63 78
-2.828076 5.570184 57.315140 97 61 71
-2.817199 5.671837 57.094696 98 61 71
-2.833546 5.828540 57.425999 99 60 71
-2.822627 5.929394 57.204704 100 60 71
-2.806405 6.017922 56.875942 100 61 71
-2.817199 6.164145 57.094696 100 61 71
-2.790368 6.227344 56.550938 100 62 71
-2.764044 6.289350 56.017437 101 64 73
-2.764044 6.410105 56.017437 101 65 74
-2.758839 6.518560 55.911945 101 66 75
-2.764044 6.651614 56.017437 101 66 75
-2.748487 6.734251 55.702145 101 66 75
-2.738212 6.828702 55.493912 99 65 74
-2.728014 6.922450 55.287228 98 64 72
-2.722943 7.028542 55.184464 97 62 69
-2.722943 9.645642 55.184464 102 60 76
-2.712858 9.728436 54.980080 103 60 75
-2.702847 9.810619 54.777199 105 62 77
-2.707844 9.947053 54.878452 106 63 78
-2.712858 10.083992 54.980080 106 64 79
-2.717891 10.221438 55.082081 105 65 80
-2.717891 10.340178 55.082081 104 68 82
-2.722943 10.478356 55.184464 105 73 86
-2.707844 10.538549 54.878452 104 78 91
-2.707844 10.656849 54.878452 101 79 93
-2.712858 10.795103 54.980080 96 80 97
-2.702847 10.873349 54.777199 94 83 103
-2.678141 10.890961 54.276493 94 86 110
-2.692911 11.068668 54.575813 92 85 113
-2.687969 11.165790 54.475674 91 83 115
-2.678141 11.241966 54.276493 114 105 137
-2.678141 11.358968 54.276493 169 159 186
-2.673254 11.455029 54.177448 206 196 216
-2.673254 11.571816 54.177448 188 180 194
-2.668385 11.667315 54.078766 151 143 156
-2.658699 11.741117 53.882473 140 134 144
-2.658699 11.857269 53.882473 144 142 148
-2.658699 11.973422 53.882473 149 150 154
-2.663533 12.111555 53.980442 154 157 160
-2.644302 12.139631 53.590691 150 155 158
-2.644302 12.255155 53.590691 145 151 152
-2.649084 12.393048 53.687599 155 161 162
-2.634790 12.441287 53.397919 157 163 163
-2.625346 12.511390 53.206528 148 152 151
-2.634790 12.671503 53.397919 160 163 162
-2.634790 12.786611 53.397919 193 194 194
-2.634790 12.901718 53.397919 227 228 228
-3.727591 20.207012 75.545143 253 253 253
-3.662358 20.013390 74.223106 250 250 250
-3.299422 18.462513 66.867661 252 252 252
-3.314352 18.690849 67.170235 254 254 254
-3.367686 19.138748 68.251129 254 254 254
-3.344620 19.153780 67.783661 254 254 254
-3.329417 19.212172 67.475548 254 254 254
-2.597417 15.555594 52.640499 253 253 253
-2.530127 16.810631 51.276756 165 148 149
-2.525764 16.891993 51.188347 142 123 131
-2.746948 0.637952 58.214199 98 62 71
-2.774145 1.151199 58.790577 93 62 71
-2.774145 1.277932 58.790577 91 60 70
-2.768663 1.401888 58.674393 90 58 69
-2.779649 1.534436 58.907227 88 56 67
-2.785176 1.664723 59.024338 87 55 64
-2.790724 1.795529 59.141918 86 55 62
-2.796294 1.926857 59.259964 85 55 60
-2.796294 2.054602 59.259964 87 57 62
-2.790724 2.177999 59.141918 88 58 65
-2.785176 2.300905 59.024338 88 58 67
-2.774145 3.685853 58.790577 101 65 75
-2.768663 3.805050 58.674393 101 65 77
-2.757762 4.168023 58.443390 97 63 77
-2.752345 4.285571 58.328571 96 62 77
-2.730884 4.376911 57.873768 96 62 77
-2.699313 5.682766 57.204704 98 63 72
-2.715007 5.839836 57.537292 100 63 73
-2.704524 5.940841 57.315140 100 62 72
-2.683800 6.017922 56.875942 100 62 72
-2.694122 6.164145 57.094696 100 62 71
-2.663390 6.215505 56.443428 99 62 71
-2.633352 6.265706 55.806847 99 63 72
-2.633352 6.386006 55.806847 99 64 73
-2.623489 6.481939 55.597832 100 65 73
-2.633352 6.626608 55.806847 100 65 73
-2.623489 6.721640 55.597832 100 65 73
-2.618586 6.828702 55.493912 99 64 72
-2.603984 6.909583 55.184464 98 63 70
-2.603984 9.764602 55.184464 102 59 74
-2.589544 9.828753 54.878452 105 61 76
-2.594340 9.965473 54.980080 106 63 78
-2.608833 10.259507 55.287228 107 66 82
-2.603984 10.359397 55.184464 106 68 85
-2.603984 10.478356 55.184464 106 72 88
-2.589544 10.538549 54.878452 104 77 92
-2.594340 10.676584 54.980080 100 79 95
-2.594340 10.795103 54.980080 96 81 100
-2.584766 10.873349 54.777199 93 84 105
-2.556466 10.871087 54.177448 90 85 111
-2.570538 11.048359 54.475674 86 82 112
-2.565830 11.145340 54.375900 83 78 112
-2.556466 11.221452 54.177448 106 100 136
-2.561140 11.358968 54.276493 167 160 189
-2.556466 11.455029 54.177448 210 204 224
-2.551809 11.550738 54.078766 190 184 200
-2.547170 11.646101 53.980442 140 134 152
-2.537941 11.719847 53.784859 120 116 132
-2.537941 11.835789 53.784859 133 133 144
-2.537941 11.951731 53.784859 153 156 163
-2.542547 12.089575 53.882473 166 170 175
-2.528779 12.139631 53.590691 161 166 169
-2.528779 12.255155 53.590691 146 153 153
-2.533351 12.393048 53.687599 148 154 154
-2.519682 12.441287 53.397919 145 150 149
-2.501685 12.466706 53.016502 144 148 146
-3.537736 20.053928 74.972832 254 254 254
-3.425289 19.572996 72.589836 252 252 252
-3.148187 18.277203 66.717400 250 250 250
-3.120141 18.256916 66.123032 252 252 252
-2.475165 15.500628 52.454491 254 254 254
-2.423777 16.839716 51.365471 163 146 146
-2.411262 16.862919 51.100246 134 115 120
-2.411262 16.973074 51.100246 120 98 110
-2.616328 0.636703 58.100277 95 63 72
-2.621458 0.763442 58.214199 94 62 72
-2.636969 1.146658 58.558662 92 63 73
-2.636969 1.272890 58.558662 90 60 71
-2.642180 1.528370 58.674393 87 56 68
-2.647413 1.658130 58.790577 86 56 65
-2.652665 1.788404 58.907227 85 56 64
-2.657939 1.919196 59.024338 84 56 63
-2.663234 2.050509 59.141918 85 57 63
-2.663234 2.177999 59.141918 86 58 65
-2.647413 3.685853 58.790577 101 65 77
-2.636969 3.797545 58.558662 101 65 77
-2.652665 3.947134 58.907227 100 64 77
-2.647413 4.066051 58.790577 99 64 77
-2.642180 4.184497 58.674393 98 63 77
-2.636969 4.302476 58.558662 97 62 77
-2.611217 4.385460 57.986801 96 62 77
-2.585964 5.952332 57.425999 100 63 73
-2.571045 6.164145 57.094696 99 62 72
-2.536894 6.203711 56.336323 98 62 71
-2.503639 6.242239 55.597832 98 62 72
-2.508337 6.374025 55.702145 98 63 72
-2.494297 6.457753 55.390377 99 63 73
-2.503639 6.601789 55.597832 99 63 73
-2.498960 6.709075 55.493912 99 63 72
-2.498960 6.828702 55.493912 99 62 71
-2.485025 6.909583 55.184464 99 61 69
-2.485025 8.337092 55.184464 98 60 68
-2.494297 8.607006 55.390377 99 61 69
-2.485025 8.693970 55.184464 99 63 71
-2.556297 10.534141 56.767193 108 67 84
-2.508337 10.456577 55.702145 108 69 87
-2.485025 10.478356 55.184464 106 71 89
-2.466685 10.519106 54.777199 105 74 93
-2.480414 10.696392 55.082081 102 77 97
-2.475821 10.795103 54.980080 98 80 101
-2.466685 10.873349 54.777199 94 83 106
-2.439678 10.871087 54.177448 91 84 112
-2.448614 11.028124 54.375900 86 83 114
-2.444138 11.124965 54.276493 82 78 114
-2.439678 11.221452 54.177448 102 98 135
-2.439678 11.338240 54.177448 157 153 185
-2.439678 11.455029 54.177448 198 194 219
-2.435234 11.550738 54.078766 182 178 201
-2.417619 11.698653 53.687599 116 115 136
-2.417619 11.814386 53.687599 127 128 144
-2.417619 11.930119 53.687599 150 155 165
-2.421999 12.067673 53.784859 165 172 179
-2.413255 12.139631 53.590691 159 166 171
-2.413255 12.255155 53.590691 137 145 147
-2.413255 12.370678 53.590691 130 137 138
-2.400257 12.418951 53.302052 143 149 149
-2.387399 12.466706 53.016502 172 175 174
-3.428060 20.198347 76.126259 254 254 254
-3.301095 19.608286 73.306770 254 254 254
-3.160623 18.925190 70.187332 253 253 253
-3.031618 18.297857 67.322548 251 251 251
-2.964398 18.034048 65.829803 251 251 251
-2.944809 18.055849 65.394806 253 253 253
-2.374677 15.242194 52.734001 249 251 249
-2.366271 15.301514 52.547333 250 251 251
-2.366271 15.414788 52.547333 253 254 253
-2.353774 15.446049 52.269794 254 254 254
-2.345515 16.065536 52.086391 223 230 230
-2.345515 16.177816 52.086391 216 220 221
-2.337314 16.345028 51.904270 201 199 199
-2.325119 16.371054 51.633465 176 171 168
-2.317060 16.425226 51.454491 146 136 132
-2.333235 16.874966 51.813686 179 163 159
-2.317060 16.868900 51.454491 155 137 136
-2.301107 16.862919 51.100246 130 110 115
-2.301107 16.973074 51.100246 124 102 112
-2.495967 0.637952 58.214199 92 62 71
-2.495967 0.763442 58.214199 91 61 70
-2.500871 1.016415 58.328571 92 63 73
-2.505794 1.144400 58.443390 92 64 74
-2.505794 1.270385 58.443390 90 61 72
-2.505794 1.396369 58.443390 87 58 69
-2.510736 1.525356 58.558662 85 57 68
-2.515698 1.654853 58.674393 84 57 66
-2.515698 1.781335 58.674393 83 56 65
-2.525681 1.915388 58.907227 83 57 64
-2.535744 2.050509 59.141918 83 57 65
-2.535744 2.177999 59.141918 85 58 67
-2.505794 3.538101 58.443390 99 63 76
-2.520680 3.685853 58.790577 99 63 77
-2.510736 3.797545 58.558662 100 63 77
-2.535744 3.962859 59.141918 100 63 77
-2.530703 4.082218 59.024338 99 63 77
-2.520680 4.192783 58.790577 99 63 77
-2.515698 4.310979 58.674393 98 63 76
-2.491083 4.394042 58.100277 97 62 75
-2.462173 5.952332 57.425999 99 64 73
-2.452685 6.176022 57.204704 99 62 71
-2.415452 6.203711 56.336323 98 61 70
-2.383789 6.242239 55.597832 97 61 69
-2.388262 6.374025 55.702145 97 62 69
-2.370472 6.445727 55.287228 97 62 70
-2.383789 6.601789 55.597832 98 62 70
-2.383789 6.721640 55.597832 99 62 70
-2.379333 6.828702 55.493912 99 62 70
-2.374894 8.248797 55.390377 98 61 69
-2.366066 8.337092 55.184464 99 61 69
-2.361676 8.440363 55.082081 100 61 68
-2.366066 8.575010 55.184464 100 61 69
-2.361676 8.677839 55.082081 100 62 70
-2.361676 8.796577 55.082081 100 64 73
-2.443269 10.574578 56.985111 109 68 85
-2.392751 10.476233 55.806847 109 69 87
-2.366066 10.478356 55.184464 107 71 89
-2.344279 10.499734 54.676319 106 74 93
-2.366066 10.716274 55.184464 103 76 96
-2.361676 10.815131 55.082081 100 80 100
-2.348604 10.873349 54.777199 95 82 104
-2.318658 10.851285 54.078766 91 84 110
-2.327136 11.007962 54.276493 88 84 114
-2.327136 11.124965 54.276493 84 82 116
-2.322889 11.221452 54.177448 99 98 134
-2.327136 11.358968 54.276493 139 137 172
-2.322889 11.455029 54.177448 172 170 203
-2.318658 11.550738 54.078766 173 171 202
-2.301887 11.814386 53.687599 125 130 148
-2.301887 11.930119 53.687599 141 148 162
-2.306057 12.067673 53.784859 152 161 171
-2.297732 12.139631 53.590691 145 155 162
-2.301887 12.277315 53.687599 124 133 139
-2.297732 12.370678 53.590691 118 126 130
-2.281260 12.396694 53.206528 161 166 168
-2.974167 18.704102 69.367386 254 254 254
-2.879962 18.256460 67.170235 253 253 253
-2.816246 17.994150 65.684166 253 253 253
-2.797678 18.016167 65.251083 254 254 254
-2.241097 15.108020 52.269794 241 243 241
-2.241097 15.220696 52.269794 245 246 245
-2.241097 15.333372 52.269794 251 252 252
-2.229323 15.364896 51.995171 254 254 254
-2.209971 15.342631 51.543823 254 254 254
-2.209971 15.453742 51.543823 254 254 254
-2.206141 15.537878 51.454491 254 254 254
-2.233234 15.840975 52.086391 251 252 252
-2.233234 15.953256 52.086391 235 238 238
-2.229323 16.037399 51.995171 208 213 213
-2.233234 16.177816 52.086391 195 199 199
-2.225425 16.233139 51.904270 204 205 206
-2.225425 16.345028 51.904270 208 205 207
-2.213814 16.371054 51.633465 187 179 180
-2.209971 16.453743 51.543823 150 138 138
-2.225425 16.904469 51.904270 163 145 144
-2.209971 16.898186 51.543823 144 125 127
-2.194730 16.891993 51.188347 132 110 116
-2.194730 17.002337 51.188347 134 110 121
-2.375134 0.639205 58.328571 90 62 71
-2.375134 0.764942 58.328571 88 61 70
-2.379810 0.892432 58.443390 88 61 70
-2.375134 1.016415 58.328571 90 64 72
-2.375134 1.142152 58.328571 91 64 74
-2.375134 1.267889 58.328571 89 62 72
-2.379810 1.396369 58.443390 86 59 70
-2.379810 1.522353 58.443390 85 58 69
-2.389216 1.654853 58.674393 84 58 67
-2.389216 1.781335 58.674393 83 57 66
-2.398697 1.915388 58.907227 82 57 65
-2.408254 2.050509 59.141918 83 58 65
-2.403466 2.173669 59.024338 84 58 67
-2.393947 2.291793 58.790577 86 58 68
-2.375134 3.531150 58.328571 98 61 76
-2.389216 3.678568 58.674393 98 61 75
-2.370477 3.775207 58.214199 98 62 75
-2.403466 4.082218 59.024338 99 63 76
-2.393947 4.192783 58.790577 99 63 75
-2.389216 4.310979 58.674393 99 63 75
-2.365838 4.394042 58.100277 98 63 73
-2.342913 5.963867 57.537292 98 64 73
-2.329371 6.176022 57.204704 97 62 70
-2.298371 6.215505 56.443428 97 61 69
-2.272450 6.265706 55.806847 96 61 68
-2.272450 6.386006 55.806847 96 61 67
-2.255491 6.457753 55.390377 97 61 67
-2.268186 6.614175 55.702145 98 62 68
-2.263939 6.721640 55.597832 99 62 68
-2.259707 6.828702 55.493912 99 62 68
-2.268186 7.935001 55.702145 96 61 69
-2.255491 8.248797 55.390377 98 60 69
-2.251291 8.352617 55.287228 100 61 69
-2.242938 8.440363 55.082081 100 61 69
-2.251291 8.590979 55.287228 101 63 70
-2.247107 8.693970 55.184464 102 64 73
-2.247107 8.812928 55.184464 102 65 74
-2.247107 8.931888 55.184464 100 64 75
-2.242938 9.034055 55.082081 100 64 75
-2.247107 9.288765 55.184464 99 60 74
-2.272450 10.476233 55.806847 109 70 87
-2.247107 10.478356 55.184464 109 71 89
-2.222322 10.480433 54.575813 107 73 93
-2.242938 10.696392 55.082081 105 76 96
-2.242938 10.815131 55.082081 102 79 99
-2.230523 10.873349 54.777199 98 81 103
-2.202083 10.851285 54.078766 93 82 107
-2.210134 11.007962 54.276493 88 83 110
-2.210134 11.124965 54.276493 87 85 115
-2.210134 11.241966 54.276493 98 97 129
-2.210134 11.358968 54.276493 120 121 153
-2.206101 11.455029 54.177448 144 146 177
-2.202083 11.550738 54.078766 158 160 189
-2.186154 11.814386 53.687599 131 138 157
-2.186154 11.930119 53.687599 136 145 161
-2.194090 12.089575 53.882473 138 148 162
-2.186154 12.161583 53.687599 129 140 152
-2.186154 12.277315 53.687599 114 124 135
-2.182208 12.370678 53.590691 127 134 143
-2.162689 12.374517 53.111347 188 193 197
-2.722845 18.174225 66.867661 255 255 255
-2.674654 17.994150 65.684166 254 254 254
-2.662871 18.055849 65.394806 253 253 253
-2.633863 17.998596 64.682442 251 251 251
-2.135942 15.048331 52.454491 247 248 248
-2.124681 15.081469 52.177929 241 242 241
-2.120953 15.167291 52.086391 244 246 245
-2.117239 15.252811 51.995171 250 251 250
-2.098860 15.231520 51.543823 252 254 253
-2.087985 15.263136 51.276756 253 254 253
-2.084385 15.347164 51.188347 253 254 253
-2.080797 15.430904 51.100246 252 253 252
-2.117239 15.813232 51.995171 241 243 242
-2.120953 15.953256 52.086391 213 217 216
-2.117239 16.037399 51.995171 177 184 183
-2.117239 16.149485 51.995171 169 174 174
-2.113537 16.233139 51.904270 193 194 196
-2.113537 16.345028 51.904270 212 208 212
-2.106173 16.399574 51.723419 196 188 192
-2.102510 16.482357 51.633465 158 145 148
-2.109849 16.651581 51.813686 138 122 125
-2.113537 16.792580 51.904270 146 128 131
-2.117239 16.934072 51.995171 145 126 129
-2.102510 16.927574 51.633465 139 118 124
-2.084385 16.891993 51.188347 138 115 124
-2.084385 17.002337 51.188347 144 118 131
-2.253825 0.640464 58.443390 90 62 71
-2.253825 0.766448 58.443390 88 61 70
-2.253825 0.892432 58.443390 88 61 69
-2.253825 1.018416 58.443390 90 63 71
-2.249398 1.142152 58.328571 90 64 73
-2.249398 1.267889 58.328571 89 62 71
-2.249398 1.393626 58.328571 87 61 70
-2.253825 1.522353 58.443390 85 59 69
-2.258271 1.651589 58.558662 84 58 67
-2.262734 1.781335 58.674393 83 58 66
-2.267215 1.911595 58.790577 83 57 65
-2.280764 2.050509 59.141918 83 57 65
-2.271713 2.169356 58.907227 84 57 65
-2.267215 2.291793 58.790577 85 57 67
-2.262734 3.425604 58.674393 96 59 74
-2.249398 3.531150 58.328571 98 60 75
-2.253825 3.664086 58.443390 97 60 74
-2.223191 3.738554 57.649014 97 61 74
-2.253825 3.916054 58.443390 98 62 74
-2.271713 4.074118 58.907227 99 62 74
-2.267215 4.192783 58.790577 99 63 74
-2.262734 4.310979 58.674393 99 64 74
-2.240594 4.394042 58.100277 99 64 72
-2.218883 5.963867 57.537292 97 64 71
-2.206057 6.176022 57.204704 97 62 69
-2.180845 6.227344 56.550938 96 61 68
-2.168453 6.313173 56.229626 96 60 67
-2.156202 6.398033 55.911945 96 60 66
-2.144089 6.481939 55.597832 96 60 66
-2.156202 6.639088 55.911945 97 61 66
-2.152149 6.746909 55.806847 99 62 68
-2.144089 6.841490 55.597832 99 62 68
-2.140081 6.948328 55.493912 98 61 68
-2.156202 7.844360 55.911945 94 58 68
-2.152149 7.949916 55.806847 95 59 70
-2.144089 8.039991 55.597832 96 61 71
-2.140081 8.264215 55.493912 97 60 69
-2.136088 8.368200 55.390377 99 60 69
-2.132111 8.471798 55.287228 100 62 69
-2.136088 8.607006 55.390377 104 66 73
-2.132111 8.710159 55.287228 108 70 79
-2.132111 8.829340 55.287228 105 68 78
-2.132111 8.948521 55.287228 100 64 75
-2.132111 9.067701 55.287228 98 62 75
-2.128148 9.169806 55.184464 98 61 76
-2.132111 9.306063 55.287228 99 60 76
-2.152149 10.476233 55.806847 109 70 86
-2.128148 10.478356 55.184464 109 71 88
-2.112442 10.519106 54.777199 108 73 91
-2.128148 10.716274 55.184464 106 75 94
-2.124199 10.815131 55.082081 104 78 97
-2.112442 10.873349 54.777199 101 79 100
-2.089313 10.871087 54.177448 96 80 102
-2.093132 11.007962 54.276493 91 80 105
-2.096966 11.145340 54.375900 92 85 111
-2.093132 11.241966 54.276493 100 96 123
-2.096966 11.379772 54.375900 112 111 138
-2.089313 11.455029 54.177448 125 125 152
-2.085507 11.550738 54.078766 138 140 165
-2.081715 11.646101 53.980442 144 147 172
-2.074173 11.719847 53.784859 139 145 168
-2.070422 11.814386 53.687599 132 142 162
-2.070422 11.930119 53.687599 130 142 161
-2.074173 12.067673 53.784859 126 139 158
-2.070422 12.161583 53.687599 115 128 145
-2.066685 12.255155 53.590691 107 119 134
-2.062961 12.348389 53.494129 141 149 163
-2.044542 12.352421 53.016502 209 213 221
-2.572906 18.133383 66.717400 254 254 254
-2.533061 17.994150 65.684166 254 254 254
-2.521902 18.055849 65.394806 253 253 253
-2.510841 18.117008 65.107986 250 251 251
-2.462244 17.903990 63.847832 249 250 250
-2.516359 18.438145 65.251083 252 252 252
-2.015745 14.995344 52.269794 251 252 251
-2.005155 15.028644 51.995171 248 249 249
-2.001649 15.114258 51.904270 247 250 249
-1.994675 15.173093 51.723419 247 251 249
-1.974040 15.126475 51.188347 247 251 249
-1.974040 15.236820 51.188347 249 253 250
-1.970643 15.320749 51.100246 250 254 252
-1.967257 15.404391 51.012444 246 250 247
-2.001649 15.785586 51.904270 221 225 223
-2.008672 15.953256 52.086391 172 180 177
-2.001649 16.009363 51.904270 146 154 152
-2.005155 16.149485 51.995171 161 166 167
-2.001649 16.233139 51.904270 198 199 203
-2.001649 16.345028 51.904270 218 214 220
-1.994675 16.399574 51.723419 200 191 199
-1.994675 16.511072 51.723419 161 147 155
-2.001649 16.680691 51.904270 136 119 128
-2.005155 16.821989 51.995171 135 116 124
-2.008672 16.963781 52.086391 135 114 122
-1.991206 16.927574 51.633465 137 113 123
-1.974040 16.891993 51.188347 142 116 129
-1.974040 17.002337 51.188347 146 118 133
-1.980871 17.171896 51.365471 145 115 131
-2.127841 0.640464 58.443390 92 61 70
-2.127841 0.766448 58.443390 90 60 69
-2.127841 0.892432 58.443390 89 60 66
-2.123661 1.016415 58.328571 89 61 68
-2.119497 1.139913 58.214199 91 64 70
-2.119497 1.265403 58.214199 90 63 70
-2.119497 1.390893 58.214199 88 62 69
-2.123661 1.519362 58.328571 86 60 68
-2.127841 1.648337 58.443390 84 59 66
-2.132038 1.777821 58.558662 83 58 65
-2.153274 2.050509 59.141918 84 57 64
-2.144729 2.169356 58.907227 85 56 64
-2.136252 2.287264 58.674393 86 57 65
-2.144729 2.423324 58.907227 87 58 66
-2.132038 2.535218 58.558662 89 59 68
-2.136252 3.425604 58.674393 96 59 74
-2.123661 3.531150 58.328571 97 59 74
-2.127841 3.664086 58.443390 97 59 73
-2.090800 3.724092 57.425999 97 60 73
-2.119497 3.900697 58.214199 98 61 73
-2.144729 4.201102 58.907227 99 63 73
-2.140482 4.319516 58.790577 99 64 73
-2.119497 4.402658 58.214199 99 65 72
-2.103003 5.862559 57.761173 97 63 70
-2.094851 5.963867 57.537292 97 63 70
-2.074747 6.029473 56.985111 97 62 69
-2.078737 6.164145 57.094696 96 61 68
-2.058940 6.227344 56.550938 96 61 67
-2.047241 6.313173 56.229626 95 60 66
-2.035675 6.398033 55.911945 95 59 65
-2.024239 6.481939 55.597832 95 59 65
-2.035675 6.639088 55.911945 96 60 65
-2.031848 6.746909 55.806847 98 61 67
-2.024239 6.841490 55.597832 99 62 68
-2.020455 6.948328 55.493912 98 61 67
-2.035675 7.844360 55.911945 93 58 69
-2.031848 7.949916 55.806847 93 58 70
-2.024239 8.039991 55.597832 94 59 71
-2.024239 8.279692 55.597832 96 59 70
-2.016685 8.368200 55.390377 97 60 70
-2.016685 8.487603 55.390377 100 63 72
-2.016685 8.607006 55.390377 108 71 80
-2.016685 8.726410 55.390377 115 79 89
-2.016685 8.845813 55.390377 111 75 86
-2.016685 8.965216 55.390377 100 64 78
-2.012930 9.067701 55.287228 97 60 76
-2.012930 9.186882 55.287228 98 61 77
-2.016685 9.323424 55.390377 99 61 78
-2.035675 9.531743 55.911945 101 61 78
-2.024239 9.598044 55.597832 103 62 77
-2.058940 10.006392 56.550938 107 65 78
-2.035675 10.495961 55.911945 108 70 84
-2.012930 10.497869 55.287228 108 72 86
-2.005461 10.577654 55.082081 108 73 89
-2.012930 10.736230 55.287228 107 74 91
-2.009188 10.835234 55.184464 104 75 93
-1.998047 10.893448 54.878452 101 76 94
-1.979750 10.910908 54.375900 98 77 96
-1.979750 11.028124 54.375900 95 78 99
-1.983382 11.165790 54.475674 97 85 106
-1.976130 11.241966 54.276493 103 95 117
-1.976130 11.358968 54.276493 110 106 128
-1.972524 11.455029 54.177448 116 114 136
-1.968931 11.550738 54.078766 120 121 143
-1.965352 11.646101 53.980442 123 127 149
-1.958231 11.719847 53.784859 123 132 153
-1.954690 11.814386 53.687599 123 135 156
-1.954690 11.930119 53.687599 123 137 158
-1.954690 12.045851 53.687599 119 135 156
-1.954690 12.161583 53.687599 108 123 144
-1.947646 12.233073 53.494129 104 119 138
-1.944143 12.326179 53.397919 146 157 175
-1.926815 12.330402 52.922001 213 220 231
-2.402096 18.074123 65.976097 254 254 254
-2.386189 18.095707 65.539169 254 254 254
-2.375700 18.156826 65.251083 253 253 253
-2.360138 18.177631 64.823669 252 253 252
-2.380933 18.478756 65.394806 253 254 254
-1.889761 15.002370 51.904270 250 252 252
-1.889761 15.114258 51.904270 244 249 249
-1.857291 15.074494 51.012444 242 249 247
-1.863696 15.236820 51.188347 245 251 249
-1.860488 15.320749 51.100246 248 253 251
-1.857291 15.404391 51.012444 241 245 244
-1.896392 15.953256 52.086391 137 147 145
-1.893071 16.037399 51.995171 132 139 140
-1.896392 16.177816 52.086391 173 178 181
-1.893071 16.261568 51.995171 215 215 220
-1.889761 16.345028 51.904270 225 221 228
-1.886463 16.428194 51.813686 201 191 202
-1.886463 16.539886 51.813686 163 149 161
-1.893071 16.709904 51.995171 141 123 135
-1.893071 16.821989 51.995171 138 116 129
-1.896392 16.963781 52.086391 135 110 123
-1.883177 16.957066 51.723419 134 107 122
-1.863696 16.891993 51.188347 138 109 125
-1.866914 17.031702 51.276756 140 110 127
-1.873385 17.201656 51.454491 136 105 123
-2.001857 0.640464 58.443390 93 60 69
-2.001857 0.766448 58.443390 91 59 67
-2.001857 0.892432 58.443390 89 58 65
-1.997924 1.016415 58.328571 89 60 66
-1.994007 1.139913 58.214199 92 65 70
-1.994007 1.265403 58.214199 92 65 71
-1.994007 1.390893 58.214199 90 63 69
-1.994007 1.516383 58.214199 87 61 66
-2.001857 1.648337 58.443390 85 59 65
-2.005805 1.777821 58.558662 84 57 63
-2.021756 2.046432 59.024338 84 56 62
-2.013749 2.165060 58.790577 85 56 63
-2.005805 2.282753 58.558662 86 56 63
-2.013749 2.418526 58.790577 87 57 65
-2.005805 2.535218 58.558662 89 59 66
-2.005805 2.661451 58.558662 91 61 69
-2.005805 2.787683 58.558662 93 62 71
-2.005805 2.913916 58.558662 94 62 71
-2.009769 3.299121 58.674393 94 59 72
-2.009769 3.425604 58.674393 95 58 72
-1.997924 3.531150 58.328571 96 58 72
-2.005805 3.671313 58.558662 96 58 72
-1.959428 3.709741 57.204704 96 59 72
-2.021756 4.209454 59.024338 98 63 73
-2.017745 4.328086 58.907227 98 64 72
-1.994007 4.402658 58.214199 98 65 72
-1.967008 5.828540 57.425999 97 62 70
-1.963211 5.940841 57.315140 97 62 71
-1.948167 6.017922 56.875942 97 62 70
-1.948167 6.140528 56.875942 96 61 70
-1.929684 6.203711 56.336323 96 60 69
-1.915148 6.277505 55.911945 95 59 67
-1.911548 6.386006 55.806847 94 59 66
-1.897282 6.457753 55.390377 94 58 65
-1.907961 6.614175 55.702145 94 58 65
-1.907961 6.734251 55.702145 94 58 66
-1.900829 6.828702 55.493912 95 58 67
-1.900829 6.948328 55.493912 95 58 67
-1.915148 7.844360 55.911945 93 58 69
-1.911548 7.949916 55.806847 92 58 70
-1.900829 8.024963 55.493912 92 58 70
-1.900829 8.264215 55.493912 94 59 70
-1.897282 8.368200 55.390377 95 60 70
-1.893749 8.471798 55.287228 99 64 74
-1.893749 8.590979 55.287228 112 78 88
-1.893749 8.710159 55.287228 126 92 104
-1.897282 8.845813 55.390377 120 86 100
-1.893749 8.948521 55.287228 103 69 84
-1.893749 9.067701 55.287228 96 61 77
-1.893749 9.186882 55.287228 98 61 79
-1.893749 9.306063 55.287228 100 61 79
-1.915148 9.531743 55.911945 102 62 79
-1.904388 9.598044 55.597832 105 63 78
-1.937035 10.006392 56.550938 110 68 79
-1.893749 10.497869 55.287228 107 72 85
-1.893749 10.617049 55.287228 108 73 88
-1.893749 10.736230 55.287228 107 73 89
-1.890229 10.835234 55.184464 105 73 90
-1.879747 10.893448 54.878452 103 74 91
-1.865951 10.930927 54.475674 100 74 93
-1.862534 11.028124 54.375900 100 77 96
-1.865951 11.165790 54.475674 102 83 103
-1.859129 11.241966 54.276493 107 92 112
-1.859129 11.358968 54.276493 112 102 121
-1.855736 11.455029 54.177448 116 110 129
-1.852356 11.550738 54.078766 114 113 133
-1.848988 11.646101 53.980442 110 114 134
-1.842289 11.719847 53.784859 110 119 140
-1.838957 11.814386 53.687599 114 127 149
-1.835638 11.908584 53.590691 118 134 156
-1.838957 12.045851 53.687599 117 135 158
-1.838957 12.161583 53.687599 110 129 151
-1.832330 12.233073 53.494129 113 130 152
-1.829035 12.326179 53.397919 154 168 186
-1.819219 12.374517 53.111347 215 223 234
-2.269963 18.154812 66.270630 253 253 253
-2.254863 18.175955 65.829803 253 253 253
-2.239963 18.196817 65.394806 254 254 254
-2.230139 18.257359 65.107986 254 254 254
-2.239963 18.478756 65.394806 253 254 254
-1.777873 15.002370 51.904270 244 248 249
-1.753351 15.347164 51.188347 246 251 251
-1.747325 15.404391 51.012444 234 239 239
-1.784111 15.953256 52.086391 129 140 140
-1.777873 16.009363 51.904270 138 147 149
-1.780987 16.149485 51.995171 187 192 196
-1.780987 16.261568 51.995171 223 224 229
-1.777873 16.345028 51.904270 225 221 229
-1.774770 16.428194 51.813686 198 189 201
-1.774770 16.539886 51.813686 166 151 165
-1.780987 16.709904 51.995171 147 128 143
-1.780987 16.821989 51.995171 142 119 135
-1.787247 16.993595 52.177929 135 109 126
-1.771678 16.957066 51.723419 130 101 118
-1.753351 16.891993 51.188347 130 99 117
-1.759418 17.061169 51.365471 132 100 118
-1.765527 17.231520 51.543823 130 97 115
-1.768597 17.372791 51.633465 123 90 107
-1.875873 0.640464 58.443390 95 60 69
-1.879573 0.767959 58.558662 93 59 67
-1.872187 1.016415 58.328571 90 60 66
-1.872187 1.142152 58.328571 93 64 69
-1.868516 1.265403 58.214199 93 66 71
-1.872187 1.393626 58.328571 91 64 69
-1.872187 1.519362 58.328571 88 62 67
-1.879573 1.651589 58.558662 86 60 66
-1.879573 1.777821 58.558662 85 58 64
-1.890761 1.915388 58.907227 84 57 63
-1.890761 2.042372 58.907227 85 56 63
-1.887017 2.165060 58.790577 86 55 62
-1.879573 2.282753 58.558662 87 56 62
-1.887017 2.418526 58.790577 89 57 63
-1.879573 2.535218 58.558662 90 59 65
-1.883287 2.666710 58.674393 91 61 67
-1.883287 2.793193 58.674393 92 62 69
-1.879573 2.913916 58.558662 93 62 69
-1.883287 3.046157 58.674393 92 61 69
-1.883287 3.172639 58.674393 92 59 70
-1.879573 3.292614 58.558662 92 58 70
-1.883287 3.425604 58.674393 93 57 70
-1.875873 3.538101 58.443390 94 57 70
-1.879573 3.671313 58.558662 95 58 71
-1.839659 3.716902 57.315140 96 59 72
-1.887017 4.319516 58.790577 98 65 73
-1.868516 4.402658 58.214199 98 66 72
-1.853975 5.613532 57.761173 97 62 69
-1.843217 5.704750 57.425999 97 61 70
-1.836114 5.806080 57.204704 97 61 70
-1.836114 5.929394 57.204704 97 61 71
-1.822071 6.006416 56.767193 97 61 71
-1.815130 6.105439 56.550938 96 61 71
-1.798006 6.168595 56.017437 96 60 70
-1.784538 6.242239 55.597832 95 59 68
-1.781203 6.350197 55.493912 94 58 67
-1.771270 6.433746 55.184464 93 57 66
-1.781203 6.589449 55.493912 92 56 66
-1.781203 6.709075 55.493912 92 55 66
-1.777879 6.815962 55.390377 92 56 66
-1.777879 6.935365 55.390377 93 56 67
-1.794620 7.844360 55.911945 93 58 68
-1.794620 7.964888 55.911945 92 59 69
-1.784538 8.039991 55.597832 91 59 69
-1.781203 8.264215 55.493912 93 60 70
-1.777879 8.368200 55.390377 93 60 71
-1.774569 8.471798 55.287228 97 65 76
-1.774569 8.590979 55.287228 114 82 94
-1.774569 8.710159 55.287228 132 99 113
-1.777879 8.845813 55.390377 128 95 110
-1.774569 8.948521 55.287228 108 74 90
-1.774569 9.067701 55.287228 96 62 78
-1.774569 9.186882 55.287228 96 60 77
-1.774569 9.306063 55.287228 99 61 77
-1.787886 9.495976 55.702145 102 62 77
-1.777879 9.562230 55.390377 105 64 78
-1.774569 10.617049 55.287228 106 73 86
-1.774569 10.736230 55.287228 106 73 88
-1.771270 10.835234 55.184464 106 74 89
-1.761448 10.893448 54.878452 105 75 92
-1.748520 10.930927 54.475674 105 76 93
-1.742127 11.007962 54.276493 106 78 96
-1.748520 11.165790 54.475674 108 84 101
-1.745317 11.262556 54.375900 110 90 108
-1.742127 11.358968 54.276493 113 98 116
-1.738948 11.455029 54.177448 115 106 125
-1.738948 11.571816 54.177448 112 108 128
-1.726347 11.835789 53.784859 111 124 146
-1.720114 11.908584 53.590691 113 130 152
-1.720114 12.024107 53.590691 116 136 157
-1.723225 12.161583 53.687599 121 141 163
-1.717015 12.233073 53.494129 133 152 172
-1.707784 12.281999 53.206528 170 185 201
-1.701685 12.352421 53.016502 223 231 237
-2.136644 18.236223 66.567810 247 247 247
-2.112957 18.175955 65.829803 247 248 247
-2.103628 18.236988 65.539169 251 252 252
-2.094381 18.297485 65.251083 254 254 254
-2.094381 18.438145 65.251083 253 254 254
-1.640178 15.430904 51.100246 220 226 227
-1.671830 15.953256 52.086391 139 152 156
-1.665985 16.009363 51.904270 157 167 172
-1.668903 16.149485 51.995171 193 200 206
-1.668903 16.261568 51.995171 216 219 225
-1.665985 16.345028 51.904270 212 210 219
-1.660180 16.399574 51.723419 187 178 191
-1.663077 16.539886 51.813686 158 144 159
-1.668903 16.709904 51.995171 143 125 141
-1.668903 16.821989 51.995171 139 117 134
-1.663077 16.986658 51.813686 125 96 114
-1.643006 16.891993 51.188347 124 92 111
-1.756805 0.642995 58.674393 96 61 70
-1.749889 1.018416 58.443390 91 62 67
-1.749889 1.144400 58.443390 92 64 69
-1.749889 1.270385 58.443390 92 65 69
