ply
format ascii 1.0
element vertex 1191
property float x
property float y
property float z
property uchar red
property uchar green
property uchar blue
end_header
17.989483 3.007139 63.168602 42 21 21
17.951288 3.136636 63.034485 47 18 21
17.951288 3.272517 63.034485 52 15 20
17.875383 3.393986 62.767956 55 10 16
17.800119 3.514433 62.503666 60 7 13
17.800119 3.649169 62.503666 78 18 24
17.800119 3.783906 62.503666 109 44 50
17.800119 3.918643 62.503666 142 75 79
17.875383 4.070519 62.767956 166 96 99
17.800119 4.188117 62.503666 182 110 113
17.762724 4.313772 62.372356 189 113 115
17.688402 4.429614 62.111385 184 104 105
17.725485 4.573072 62.241596 183 99 99
17.725485 4.707244 62.241596 193 106 103
17.800119 4.861801 62.503666 205 115 110
17.837673 5.007079 62.635532 205 114 108
17.837673 5.142100 62.635532 198 107 100
17.875383 5.288278 62.767956 196 106 101
17.875383 5.423584 62.767956 193 104 104
17.837673 5.547163 62.635532 186 97 104
17.913256 5.706262 62.900936 196 109 122
17.989483 6.002884 63.168602 223 138 158
17.989483 6.139054 63.168602 200 113 133
17.951288 6.261901 63.034485 182 93 109
17.800119 6.882854 62.503666 216 122 108
17.837673 7.032395 62.635532 236 160 143
17.837673 7.167417 62.635532 248 184 164
17.800119 7.287064 62.503666 239 162 142
17.725485 7.390682 62.241596 217 121 102
17.762724 7.540663 62.372356 198 99 81
17.725485 7.659026 62.241596 197 101 85
17.762724 7.809570 62.372356 203 110 95
17.725485 7.927370 62.241596 204 115 102
17.614702 8.011157 61.852589 209 123 111
17.578081 8.127558 61.723995 225 144 133
17.505293 8.226409 61.468410 241 170 162
17.361513 8.290257 60.963535 247 183 177
17.361513 8.421675 60.963535 242 168 164
17.361513 8.553091 60.963535 232 143 140
17.397236 8.702377 61.088974 230 139 134
17.397236 8.834064 61.088974 243 173 164
17.361513 8.947342 60.963535 252 194 178
17.361513 9.078758 60.963535 248 166 143
17.361513 9.210176 60.963535 241 135 105
17.397236 9.360814 61.088974 239 127 93
17.361513 9.473009 60.963535 234 124 89
17.325935 9.584744 60.838612 227 120 87
17.361513 9.735843 60.963535 224 120 91
17.361513 9.867260 60.963535 228 130 103
17.361513 9.998676 60.963535 239 144 120
17.325935 10.109335 60.838612 247 148 126
17.290504 10.219541 60.714195 245 140 119
17.290504 10.350420 60.714195 240 130 109
17.255219 10.459909 60.590290 234 122 103
17.255219 10.590522 60.590290 229 116 97
17.290504 10.743058 60.714195 224 110 91
17.290504 10.873938 60.714195 219 106 86
17.505293 11.141522 61.468410 214 104 80
17.614702 11.344491 61.852589 211 101 76
17.614702 11.477824 61.852589 208 101 73
17.651476 11.635398 61.981716 209 104 73
17.725485 11.818356 62.241596 214 111 79
17.725485 11.952527 62.241596 218 118 83
17.762724 12.112091 62.372356 219 120 85
17.762724 12.246545 62.372356 217 118 86
17.800119 12.407064 62.503666 214 115 85
17.800119 12.541801 62.503666 208 109 82
17.762724 12.649906 62.372356 202 103 79
17.951288 12.920075 63.034485 196 98 76
18.066360 13.139648 63.438553 190 94 75
18.027840 13.248093 63.303288 184 90 73
17.989483 13.356075 63.168602 175 84 70
17.989483 13.492246 63.168602 167 79 67
18.066360 13.686657 63.438553 163 77 67
18.066360 13.823409 63.438553 158 75 66
18.027840 13.930395 63.303288 153 72 63
20.331877 -7.624450 70.857384 20 14 16
20.187338 -7.418589 70.353653 20 14 16
20.478502 -7.371742 71.368370 21 15 16
20.778187 -7.323523 72.412788 22 15 17
20.627256 -7.115362 71.886787 23 16 18
20.828989 -7.028471 72.589836 23 16 19
21.191683 -6.832449 73.853836 24 16 18
21.404665 -6.740313 74.596085 24 16 19
21.244530 -6.530286 74.038010 24 16 19
21.458580 -6.434873 74.783989 24 17 19
21.034708 -5.833690 73.306770 24 17 18
18.281237 3.032952 63.710819 39 21 22
18.242092 3.163502 63.574394 44 18 22
18.203112 3.293495 63.438553 49 15 21
18.087170 3.408398 63.034485 53 10 17
18.048849 3.536770 62.900936 57 6 14
18.010691 3.664599 62.767956 72 13 21
18.048849 3.807956 62.900936 100 35 42
18.010691 3.935212 62.767956 133 65 70
18.048849 4.079143 62.900936 159 88 92
17.972692 4.196952 62.635532 180 105 109
17.934856 4.322854 62.503666 192 114 117
17.859657 4.438900 62.241596 186 105 107
17.897179 4.582680 62.372356 181 96 95
17.897179 4.717134 62.372356 188 100 96
17.934856 4.861801 62.503666 198 108 101
17.972692 5.007079 62.635532 198 106 100
18.010691 5.152971 62.767956 193 103 96
18.010691 5.288278 62.767956 195 105 102
18.048849 5.435075 62.900936 195 106 108
17.972692 5.547163 62.635532 185 97 106
18.048849 5.706262 62.900936 187 99 116
18.125652 6.002884 63.168602 227 147 173
18.125652 6.139054 63.168602 205 123 148
18.087170 6.261901 63.034485 175 89 110
18.010691 6.776650 62.767956 206 109 101
17.934856 6.882854 62.503666 216 124 111
17.972692 7.032395 62.635532 238 170 153
17.934856 7.152328 62.503666 251 201 182
17.934856 7.287064 62.503666 247 181 161
17.859657 7.390682 62.241596 230 138 118
17.859657 7.524854 62.241596 208 109 89
17.859657 7.659026 62.241596 199 103 86
17.897179 7.809570 62.372356 205 113 97
17.859657 7.927370 62.241596 207 119 104
17.748035 8.011157 61.852589 207 122 108
17.748035 8.144490 61.852589 217 136 123
17.637798 8.226409 61.468410 237 166 154
17.492929 8.290257 60.963535 251 189 179
17.492929 8.421675 60.963535 252 183 175
17.492929 8.553091 60.963535 247 165 157
17.528923 8.702377 61.088974 243 153 145
17.528923 8.834064 61.088974 245 160 148
17.492929 8.947342 60.963535 249 169 151
17.492929 9.078758 60.963535 249 156 133
17.492929 9.210176 60.963535 246 139 114
17.528923 9.360814 61.088974 243 134 107
17.528923 9.492501 61.088974 236 126 101
17.492929 9.604426 60.963535 223 114 92
17.528923 9.755876 61.088974 215 107 90
17.528923 9.887563 61.088974 222 117 103
17.528923 10.019250 61.088974 237 138 124
17.492929 10.130094 60.963535 246 146 132
17.457083 10.240482 60.838612 243 137 123
17.457083 10.371630 60.838612 238 128 113
17.385830 10.459909 60.590290 236 124 108
17.385830 10.590522 60.590290 233 119 102
17.421383 10.743058 60.714195 227 112 94
17.421383 10.873938 60.714195 222 107 87
17.601357 11.118503 61.341408 216 103 80
17.674391 11.297418 61.595940 210 98 73
17.674391 11.430198 61.595940 206 96 69
17.748035 11.611157 61.852589 205 98 67
17.822294 11.793631 62.111385 211 106 74
17.859657 11.952527 62.241596 218 116 81
17.897179 12.112091 62.372356 219 119 84
17.934856 12.272327 62.503666 217 116 84
17.972692 12.433239 62.635532 212 112 82
17.972692 12.568260 62.635532 207 108 81
17.934856 12.676538 62.503666 202 103 80
18.164299 12.975172 63.303288 196 98 79
18.281237 13.196042 63.710819 189 94 77
18.281237 13.333381 63.710819 182 89 74
18.203112 13.413153 63.438553 173 82 69
18.203112 13.549905 63.438553 163 76 64
18.203112 13.686657 63.438553 159 75 64
20.632347 -7.679434 71.368370 20 14 16
20.387308 -7.436210 70.520767 21 15 16
20.883350 -7.461422 72.236603 21 15 16
20.985468 -7.341429 72.589836 21 15 17
20.883350 -7.149987 72.236603 22 16 18
21.036903 -7.045697 72.767754 23 16 18
21.350887 -6.832449 73.853836 23 16 17
21.565470 -6.740313 74.596085 23 16 18
21.404131 -6.530286 74.038010 23 16 18
21.565470 -6.418705 74.596085 23 16 18
21.192732 -5.833690 73.306770 23 18 18
16.862587 -4.013054 58.328571 25 19 19
18.578045 3.197739 64.262428 41 19 22
18.537920 3.329062 64.123634 45 15 21
18.339865 3.430247 63.438553 50 10 18
18.261822 3.551820 63.168602 55 5 15
18.223051 3.680160 63.034485 67 9 18
18.223051 3.816041 63.034485 92 27 35
18.184443 3.943550 62.900936 125 54 61
18.223051 4.087803 63.034485 151 76 82
18.145998 4.205825 62.767956 170 92 98
18.107714 4.331974 62.635532 183 102 106
18.031631 4.448226 62.372356 181 96 100
18.031631 4.582680 62.372356 176 88 89
18.031631 4.717134 62.372356 181 91 89
18.069593 4.861801 62.503666 190 98 94
18.107714 5.007079 62.635532 192 98 93
18.145998 5.152971 62.767956 190 97 92
18.145998 5.288278 62.767956 192 100 99
18.145998 5.423584 62.767956 195 104 108
18.107714 5.547163 62.635532 189 99 110
18.145998 5.694198 62.767956 185 95 114
18.069593 6.748117 62.503666 207 111 105
17.993830 6.853995 62.241596 219 127 115
18.069593 7.017591 62.503666 240 171 154
18.031631 7.137301 62.372356 251 202 183
18.031631 7.271755 62.372356 248 184 165
17.993830 7.390682 62.241596 232 141 123
17.956186 7.509112 62.111385 211 112 95
17.918699 7.627047 61.981716 201 106 90
17.993830 7.793198 62.241596 205 114 100
17.918699 7.894270 61.981716 208 121 108
17.807171 7.977916 61.595940 206 121 107
17.844193 8.127558 61.723995 209 126 112
17.770304 8.226409 61.468410 224 146 133
17.624346 8.290257 60.963535 243 170 158
17.624346 8.421675 60.963535 251 178 166
17.588230 8.535564 60.838612 252 176 164
17.660610 8.702377 61.088974 250 167 153
17.624346 8.815925 60.963535 244 150 134
17.624346 8.947342 60.963535 241 141 121
17.588230 9.060155 60.838612 245 141 118
17.624346 9.210176 60.963535 249 143 120
17.660610 9.360814 61.088974 247 140 120
17.660610 9.492501 61.088974 233 125 109
17.624346 9.604426 60.963535 217 108 98
17.660610 9.755876 61.088974 214 108 103
17.660610 9.887563 61.088974 227 129 126
17.660610 10.019250 61.088974 240 146 143
17.588230 10.109335 60.838612 241 142 137
17.588230 10.240482 60.838612 237 131 123
17.588230 10.371630 60.838612 238 128 117
17.552263 10.481299 60.714195 239 127 113
17.516441 10.590522 60.590290 236 121 106
17.552263 10.743058 60.714195 231 116 98
17.552263 10.873938 60.714195 226 111 91
17.697023 11.095578 61.214931 218 104 82
17.733587 11.250734 61.341408 211 99 74
17.733587 11.382966 61.341408 209 97 71
17.770304 11.539039 61.468410 208 98 69
17.881369 11.744491 61.852589 212 105 74
17.993830 11.952527 62.241596 217 113 80
18.069593 12.137590 62.503666 218 116 83
18.107714 12.298219 62.635532 216 114 84
18.145998 12.459525 62.767956 211 110 83
18.145998 12.594831 62.767956 207 107 83
18.107714 12.703281 62.635532 203 103 83
18.379137 13.030740 63.574394 197 98 81
18.537920 13.281546 64.123634 188 93 78
18.537920 13.419774 64.123634 180 88 74
18.458187 13.499689 63.847832 169 81 69
18.418577 13.608059 63.710819 159 75 63
20.637367 -7.471705 70.857384 21 15 16
21.298168 -7.395676 73.126213 21 15 17
21.090382 -7.167426 72.412788 21 15 17
21.298168 -7.080405 73.126213 21 15 17
21.298168 -6.922770 73.126213 22 16 17
21.617641 -6.866611 74.223106 22 16 16
21.836002 -6.774355 74.972832 22 16 16
21.617641 -6.546611 74.223106 22 15 17
21.726273 -6.418705 74.596085 22 16 17
21.403606 -5.848130 73.488220 23 18 18
17.021765 -4.020954 58.443390 24 18 18
18.757174 3.204676 64.401825 37 19 22
18.757174 3.343504 64.401825 41 14 20
18.595821 3.452377 63.847832 46 9 18
18.437222 3.559393 63.303288 52 5 15
18.437222 3.695854 63.303288 63 5 16
18.397993 3.824161 63.168602 86 20 29
18.358931 3.951922 63.034485 118 47 55
18.320036 4.079143 62.900936 144 67 75
18.281303 4.205825 62.767956 159 79 86
18.242735 4.331974 62.635532 170 87 93
18.128002 4.438900 62.241596 175 90 95
18.128002 4.573072 62.241596 175 87 91
18.128002 4.707244 62.241596 178 87 87
18.166086 4.851587 62.372356 183 90 88
18.242735 5.007079 62.635532 185 92 88
18.242735 5.142100 62.635532 186 93 89
18.242735 5.277121 62.635532 187 95 93
18.242735 5.412142 62.635532 190 99 102
18.204330 5.535485 62.503666 190 100 109
18.281303 5.694198 62.767956 186 96 112
18.204330 6.613380 62.503666 208 114 117
18.166086 6.733940 62.372356 212 115 111
18.128002 6.853995 62.241596 221 126 116
18.204330 7.017591 62.503666 237 156 142
18.128002 7.122338 62.241596 244 178 162
18.166086 7.271755 62.372356 236 163 145
18.128002 7.390682 62.241596 218 126 110
18.052311 7.493435 61.981716 203 105 92
18.014702 7.611157 61.852589 200 106 94
18.090076 7.776894 62.111385 204 113 103
18.052311 7.894270 61.981716 206 119 109
17.939951 7.977916 61.595940 209 125 113
17.977249 8.127558 61.723995 213 131 119
17.902809 8.226409 61.468410 222 142 130
17.755764 8.290257 60.963535 235 155 142
17.755764 8.421675 60.963535 246 166 152
17.719378 8.535564 60.838612 251 179 164
17.792297 8.702377 61.088974 251 176 158
17.792297 8.834064 61.088974 241 149 129
17.792297 8.965752 61.088974 230 126 104
17.755764 9.078758 60.963535 232 124 103
17.755764 9.210176 60.963535 244 137 118
17.828983 9.380115 61.214931 243 139 126
17.792297 9.492501 61.088974 224 118 111
17.792297 9.624188 61.088974 205 97 97
17.792297 9.755876 61.088974 210 110 114
17.792297 9.887563 61.088974 232 147 154
17.792297 10.019250 61.088974 242 160 167
17.755764 10.130094 60.963535 233 138 143
17.719378 10.240482 60.838612 228 120 120
17.755764 10.392927 60.963535 236 125 119
17.719378 10.502778 60.838612 242 129 119
17.683142 10.612179 60.714195 238 124 110
17.683142 10.743058 60.714195 233 118 101
17.719378 10.896220 60.838612 228 113 93
17.828983 11.095578 61.214931 220 106 84
17.902809 11.274028 61.468410 214 101 77
17.865820 11.382966 61.341408 213 101 75
17.902809 11.539039 61.468410 213 102 76
17.939951 11.695758 61.595940 215 106 78
18.128002 11.952527 62.241596 216 110 80
18.204330 12.137590 62.503666 215 111 81
18.204330 12.272327 62.503666 213 110 82
18.281303 12.459525 62.767956 210 108 82
18.320036 12.621516 62.900936 207 106 83
18.281303 12.730139 62.767956 203 103 84
18.635899 13.114990 63.985435 196 98 82
18.716574 13.310293 64.262428 187 92 78
18.757174 13.477995 64.401825 177 87 74
20.839848 -7.489580 71.026894 20 15 16
21.615524 -7.450731 73.670578 22 16 18
21.942207 -7.240918 74.783989 21 15 16
21.832222 -7.044222 74.409126 22 16 16
21.997618 -6.935971 74.972832 22 17 16
22.109282 -6.808743 75.353409 22 16 15
21.942207 -6.596082 74.783989 21 16 15
21.942207 -6.434873 74.783989 21 16 15
18.937080 3.211642 64.541832 35 19 21
18.937080 3.350773 64.541832 37 14 19
18.855101 3.474795 64.262428 42 9 17
18.653227 3.574637 63.574394 49 4 15
18.693254 3.719647 63.710819 59 2 14
18.573681 3.832314 63.303288 78 13 23
18.494812 3.951922 63.034485 111 38 48
18.455629 4.079143 62.900936 138 59 69
18.416611 4.205825 62.767956 149 67 76
18.339067 4.322854 62.503666 162 79 88
18.262173 4.438900 62.241596 184 103 112
18.185923 4.553978 61.981716 195 114 121
18.223969 4.697396 62.111385 191 104 110
18.262173 4.841416 62.241596 184 91 94
18.339067 4.996538 62.503666 181 87 86
18.339067 5.131275 62.503666 182 88 86
18.377756 5.277121 62.635532 183 90 88
18.377756 5.412142 62.635532 187 95 95
18.339067 5.535485 62.503666 190 101 104
18.377756 5.682185 62.635532 188 99 108
18.377756 5.817205 62.635532 197 109 123
18.339067 6.478643 62.503666 194 101 108
18.339067 6.613380 62.503666 210 116 117
18.300539 6.733940 62.372356 215 119 113
18.262173 6.853995 62.241596 219 123 111
18.300539 7.002848 62.372356 227 136 121
18.262173 7.122338 62.241596 230 145 128
18.300539 7.271755 62.372356 219 132 116
18.223969 7.375221 62.111385 201 107 93
18.185923 7.493435 61.981716 192 97 87
18.110306 7.595334 61.723995 197 104 96
18.148035 7.744491 61.852589 200 111 105
18.110306 7.861446 61.723995 203 117 110
18.035315 7.961399 61.468410 214 130 122
18.072731 8.110696 61.595940 228 150 141
17.998051 8.209413 61.341408 236 167 156
17.887180 8.290257 60.963535 237 167 155
17.887180 8.421675 60.963535 240 161 147
17.850527 8.535564 60.838612 245 169 153
17.887180 8.684508 60.963535 246 169 150
17.923985 8.834064 61.088974 238 148 128
17.887180 8.947342 60.963535 225 126 105
17.887180 9.078758 60.963535 223 120 101
17.923985 9.229127 61.088974 235 135 119
17.923985 9.360814 61.088974 238 142 132
17.923985 9.492501 61.088974 213 115 113
17.923985 9.624188 61.088974 191 87 91
17.923985 9.755876 61.088974 202 104 112
17.923985 9.887563 61.088974 231 149 159
17.923985 10.019250 61.088974 242 163 172
17.887180 10.130094 60.963535 230 135 142
17.887180 10.261510 60.963535 223 116 117
17.923985 10.414311 61.088974 235 125 120
17.850527 10.502778 60.838612 243 132 121
17.850527 10.633925 60.838612 238 126 112
17.887180 10.787177 60.963535 233 120 103
17.887180 10.918594 60.963535 228 115 95
17.960941 11.095578 61.214931 222 108 87
17.998051 11.250734 61.341408 217 104 82
17.998051 11.382966 61.341408 216 104 80
17.998051 11.515197 61.341408 217 105 80
18.035315 11.671543 61.468410 217 107 81
18.185923 11.902621 61.981716 215 107 81
18.300539 12.112091 62.372356 213 107 80
18.339067 12.272327 62.503666 210 105 79
18.377756 12.433239 62.635532 206 103 79
18.455629 12.621516 62.900936 202 101 80
18.494812 12.784194 63.034485 198 99 81
18.855101 13.171765 64.262428 192 96 79
18.855101 13.310293 64.262428 185 91 76
21.144714 -7.543722 71.540344 19 15 15
22.103416 -7.563336 74.783989 21 15 16
22.215334 -6.629480 75.162636 22 16 15
19.076210 3.211642 64.541832 32 19 21
19.076210 3.350773 64.541832 34 14 19
19.034830 3.482333 64.401825 38 8 17
18.952606 3.605519 64.123634 45 4 15
18.993629 3.751852 64.262428 55 2 14
18.750120 3.840503 63.438553 69 7 18
18.630693 3.951922 63.034485 97 26 37
18.630693 4.087803 63.034485 126 47 59
18.591221 4.214736 62.900936 138 56 69
18.512777 4.331974 62.635532 156 75 87
18.396345 4.438900 62.241596 196 126 137
18.319534 4.553978 61.981716 224 163 174
18.357859 4.697396 62.111385 219 151 161
18.396345 4.841416 62.241596 196 113 120
18.473803 4.996538 62.503666 177 87 89
18.473803 5.131275 62.503666 174 82 82
18.512777 5.277121 62.635532 177 86 84
18.512777 5.412142 62.635532 184 93 91
18.473803 5.535485 62.503666 190 101 100
18.473803 5.670222 62.503666 190 101 103
18.512777 5.817205 62.635532 194 105 111
18.551916 5.964811 62.767956 203 115 124
18.551916 6.100117 62.767956 200 111 121
18.434994 6.465033 62.372356 194 103 104
18.434994 6.599486 62.372356 206 114 110
18.396345 6.719823 62.241596 211 118 109
18.357859 6.839656 62.111385 214 120 106
18.396345 6.988167 62.241596 220 126 108
18.319534 7.092600 61.981716 221 129 110
18.396345 7.256510 62.241596 212 120 104
18.319534 7.359824 61.981716 200 109 98
18.243361 7.462277 61.723995 195 105 98
18.205511 7.579576 61.595940 195 105 102
18.205511 7.712356 61.595940 197 109 108
18.205511 7.845136 61.595940 203 116 115
18.167820 7.961399 61.468410 218 133 131
18.205511 8.110696 61.595940 238 163 159
18.092901 8.192486 61.214931 249 196 188
18.018597 8.290257 60.963535 246 195 184
18.018597 8.421675 60.963535 234 162 148
17.944901 8.518109 60.714195 226 141 126
18.018597 8.684508 60.963535 231 143 126
18.055672 8.834064 61.088974 238 148 132
18.018597 8.947342 60.963535 237 149 135
18.018597 9.078758 60.963535 233 144 131
18.055672 9.229127 61.088974 238 147 140
18.055672 9.360814 61.088974 237 151 149
18.055672 9.492501 61.088974 215 124 127
18.055672 9.624188 61.088974 190 89 97
18.092901 9.775990 61.214931 199 98 107
18.055672 9.887563 61.088974 228 137 146
18.092901 10.039908 61.214931 242 153 160
18.055672 10.150937 61.088974 234 136 139
18.055672 10.282624 61.088974 229 123 121
18.055672 10.414311 61.088974 237 130 122
18.018597 10.524343 60.963535 242 134 121
18.018597 10.655761 60.963535 238 129 112
18.055672 10.809374 61.088974 233 123 103
18.055672 10.941061 61.088974 228 116 96
18.130281 11.118503 61.341408 222 110 89
18.130281 11.250734 61.341408 219 108 85
18.092901 11.359496 61.214931 219 107 85
18.092901 11.491454 61.214931 218 108 85
18.130281 11.647429 61.341408 217 108 84
18.243361 11.853130 61.723995 215 106 82
18.434994 12.112091 62.372356 211 103 80
18.434994 12.246545 62.372356 205 100 77
18.473803 12.407064 62.503666 200 97 74
18.551916 12.594831 62.767956 196 95 74
18.670334 12.811395 63.168602 193 94 77
22.264626 -6.596082 74.783989 22 16 15
19.215340 3.211642 64.541832 29 19 21
19.215340 3.350773 64.541832 31 14 20
19.215340 3.489903 64.541832 35 9 17
19.173658 3.621161 64.401825 42 5 15
19.173658 3.759990 64.401825 51 3 14
18.967934 3.856986 63.710819 61 3 14
18.806503 3.960331 63.168602 82 15 26
18.806503 4.096501 63.168602 111 36 48
18.766575 4.223685 63.034485 130 52 64
18.647799 4.331974 62.635532 147 69 81
18.569447 4.448226 62.372356 188 120 132
18.453146 4.553978 61.981716 231 180 192
18.491751 4.697396 62.111385 238 189 200
18.530518 4.841416 62.241596 210 143 152
18.569447 4.986041 62.372356 178 95 100
18.647799 5.142100 62.635532 170 82 82
18.608540 5.266012 62.503666 177 88 85
18.608540 5.400748 62.503666 183 95 88
18.608540 5.535485 62.503666 188 100 93
18.608540 5.670222 62.503666 191 102 96
18.608540 5.804959 62.503666 195 106 103
18.647799 5.952227 62.635532 204 115 114
18.647799 6.087248 62.635532 207 118 118
18.647799 6.222269 62.635532 201 112 112
18.647799 6.357290 62.635532 195 106 104
18.569447 6.465033 62.372356 194 105 101
18.530518 6.585651 62.241596 200 110 102
18.491751 6.705765 62.111385 206 116 102
18.530518 6.853995 62.241596 211 120 103
18.530518 6.988167 62.241596 219 128 108
18.453146 7.092600 61.981716 223 133 114
18.491751 7.241330 62.111385 221 136 121
18.414701 7.344491 61.852589 219 143 132
18.338291 7.446795 61.595940 212 136 131
18.300323 7.563883 61.468410 197 114 113
18.300323 7.696388 61.468410 194 107 110
18.262514 7.812718 61.341408 204 118 122
18.262514 7.944949 61.341408 218 132 135
18.300323 8.093904 61.468410 237 163 164
18.187359 8.175629 61.088974 250 204 200
18.112822 8.273270 60.838612 247 208 200
18.150013 8.421675 60.963535 223 157 147
18.075781 8.518109 60.714195 200 114 101
18.150013 8.684508 60.963535 210 120 107
18.150013 8.815925 60.963535 235 155 143
18.150013 8.947342 60.963535 248 185 175
18.150013 9.078758 60.963535 245 184 178
18.187359 9.229127 61.088974 241 167 167
18.187359 9.360814 61.088974 239 159 163
18.187359 9.492501 61.088974 225 139 147
18.187359 9.624188 61.088974 202 106 117
18.224859 9.775990 61.214931 200 99 109
18.224859 9.907949 61.214931 223 124 132
18.224859 10.039908 61.214931 240 142 146
18.187359 10.150937 61.088974 240 139 138
18.187359 10.282624 61.088974 238 134 127
18.224859 10.435784 61.214931 241 136 124
18.187359 10.545999 61.088974 241 136 119
18.150013 10.655761 60.963535 237 132 110
18.187359 10.809374 61.088974 232 126 103
18.224859 10.963619 61.214931 227 118 96
18.224859 11.095578 61.214931 221 112 89
18.224859 11.227537 61.214931 219 110 87
18.187359 11.336123 61.088974 219 111 88
18.187359 11.467810 61.088974 219 111 87
18.187359 11.599497 61.088974 218 109 87
18.262514 11.779660 61.341408 215 107 85
18.530518 12.086699 62.241596 209 102 80
18.530518 12.220871 62.241596 202 96 75
18.608540 12.407064 62.503666 195 92 70
18.687223 12.594831 62.767956 192 90 70
19.396637 3.218639 64.682442 28 19 21
19.396637 3.358073 64.682442 30 15 20
19.354471 3.489903 64.541832 34 11 19
19.396637 3.636940 64.682442 39 7 17
19.396637 3.776374 64.682442 48 4 15
19.229065 3.881977 64.123634 56 3 14
18.983063 3.968775 63.303288 71 8 19
18.983063 4.105236 63.303288 99 29 40
18.942675 4.232671 63.168602 126 52 64
18.862408 4.350329 62.900936 139 64 76
18.743277 4.457591 62.503666 163 93 105
18.625641 4.563505 62.111385 206 147 160
18.625641 4.697396 62.111385 232 180 192
18.664688 4.841416 62.241596 219 155 166
18.703901 4.986041 62.372356 188 111 117
18.743277 5.131275 62.503666 181 97 98
18.743277 5.266012 62.503666 191 105 101
18.703901 5.389402 62.372356 191 104 96
18.703901 5.523856 62.372356 186 99 88
18.703901 5.658310 62.372356 189 101 88
18.703901 5.792764 62.372356 198 111 99
18.743277 5.939696 62.503666 213 126 116
18.743277 6.074432 62.503666 222 135 127
18.743277 6.209169 62.503666 217 130 123
18.743277 6.343906 62.503666 204 117 108
18.703901 6.465033 62.372356 195 109 98
18.664688 6.585651 62.241596 196 110 95
18.625641 6.705765 62.111385 201 114 97
18.664688 6.853995 62.241596 208 120 100
18.664688 6.988167 62.241596 219 132 109
18.586758 7.092600 61.981716 229 144 123
18.664688 7.256510 62.241596 234 161 144
18.548035 7.344491 61.852589 238 184 173
18.471071 7.446795 61.595940 229 172 167
18.432829 7.563883 61.468410 201 124 125
18.432829 7.696388 61.468410 190 103 108
18.394745 7.812718 61.341408 199 111 118
18.356817 7.928568 61.214931 211 123 129
18.394745 8.077181 61.341408 228 150 154
18.319046 8.175629 61.088974 240 184 185
18.243969 8.273270 60.838612 234 186 183
18.281431 8.421675 60.963535 210 143 136
18.206659 8.518109 60.714195 190 108 100
18.243969 8.666712 60.838612 203 117 110
18.281431 8.815925 60.963535 230 154 149
18.281431 8.947342 60.963535 247 191 189
18.281431 9.078758 60.963535 248 197 199
18.319046 9.229127 61.088974 241 176 182
18.319046 9.360814 61.088974 241 163 172
18.319046 9.492501 61.088974 235 153 165
18.319046 9.624188 61.088974 214 125 136
18.394745 9.796189 61.341408 202 104 112
18.356817 9.907949 61.214931 216 116 119
18.394745 10.060652 61.341408 235 136 134
18.356817 10.171867 61.214931 242 142 135
18.356817 10.303825 61.214931 241 141 128
18.394745 10.457346 61.341408 240 140 122
18.356817 10.567743 61.214931 239 137 115
18.319046 10.677686 61.088974 234 132 107
18.356817 10.831661 61.214931 230 127 100
18.356817 10.963619 61.214931 225 120 94
18.356817 11.095578 61.214931 220 115 89
18.319046 11.204435 61.088974 219 114 88
18.281431 11.312845 60.963535 219 115 90
18.281431 11.444262 60.963535 219 113 90
18.281431 11.575679 60.963535 217 111 89
18.356817 11.755372 61.214931 214 108 86
18.664688 12.086699 62.241596 208 102 81
19.536072 3.358073 64.682442 28 16 20
19.493601 3.489903 64.541832 31 12 19
19.536072 3.636940 64.682442 37 8 17
19.536072 3.776374 64.682442 44 5 15
19.367292 3.881977 64.123634 53 4 14
19.119524 3.968775 63.303288 64 6 15
19.119524 4.105236 63.303288 86 22 30
19.078844 4.232671 63.168602 116 49 55
18.998001 4.350329 62.900936 134 67 72
18.917841 4.466995 62.635532 151 84 90
18.798861 4.573072 62.241596 180 117 124
18.798861 4.707244 62.241596 208 146 155
18.838354 4.851587 62.372356 208 142 150
18.838354 4.986041 62.372356 192 117 122
18.878014 5.131275 62.503666 194 115 114
18.878014 5.266012 62.503666 208 125 120
18.838354 5.389402 62.372356 203 118 108
18.838354 5.523856 62.372356 188 102 89
18.838354 5.658310 62.372356 186 99 84
18.838354 5.792764 62.372356 197 110 95
18.878014 5.939696 62.503666 216 130 117
18.878014 6.074432 62.503666 230 145 133
18.878014 6.209169 62.503666 225 140 129
18.838354 6.330579 62.372356 207 121 109
18.838354 6.465033 62.372356 195 109 95
18.798861 6.585651 62.241596 195 110 93
18.720369 6.691765 61.981716 199 115 95
18.838354 6.868394 62.372356 203 118 96
18.798861 6.988167 62.241596 214 129 105
18.720369 7.092600 61.981716 226 144 122
18.798861 7.256510 62.241596 234 171 153
18.681368 7.344491 61.852589 244 206 193
18.565334 7.431378 61.468410 236 191 185
18.526976 7.548255 61.341408 202 129 129
18.526976 7.680487 61.341408 183 96 100
18.488777 7.796609 61.214931 187 99 105
18.488777 7.928568 61.214931 198 111 117
18.526976 8.077181 61.341408 214 130 135
18.412848 8.158841 60.963535 221 145 147
18.375116 8.273270 60.838612 211 140 137
18.412848 8.421675 60.963535 196 121 116
18.337540 8.518109 60.714195 192 112 106
18.337540 8.648989 60.714195 205 125 121
18.412848 8.815925 60.963535 226 152 152
18.412848 8.947342 60.963535 244 180 184
18.412848 9.078758 60.963535 247 187 195
18.450733 9.229127 61.088974 240 171 182
18.488777 9.380115 61.214931 240 161 174
18.488777 9.512074 61.214931 239 159 172
18.488777 9.644032 61.214931 223 138 149
18.565334 9.816471 61.468410 205 110 117
18.526976 9.928420 61.341408 210 111 112
18.603851 10.102397 61.595940 228 130 124
18.526976 10.192883 61.341408 238 141 129
18.526976 10.325114 61.341408 239 142 124
18.565334 10.478997 61.468410 237 140 118
18.526976 10.589578 61.341408 235 137 111
18.488777 10.699702 61.214931 231 133 103
18.488777 10.831661 61.214931 228 128 97
18.488777 10.963619 61.214931 222 122 91
18.488777 11.095578 61.214931 218 118 88
18.412848 11.181428 60.963535 219 117 89
18.375116 11.289663 60.838612 221 119 92
18.375116 11.420811 60.838612 220 117 92
18.412848 11.575679 60.963535 217 114 90
19.675505 3.358073 64.682442 25 16 19
19.632732 3.489903 64.541832 29 13 18
19.675505 3.636940 64.682442 34 9 17
19.675505 3.776374 64.682442 41 6 15
19.505522 3.881977 64.123634 48 4 14
19.255985 3.968775 63.303288 56 4 12
19.255985 4.105236 63.303288 73 15 22
19.215014 4.232671 63.168602 101 41 44
19.133595 4.350329 62.900936 129 66 69
19.052862 4.466995 62.635532 151 87 90
18.933033 4.573072 62.241596 169 105 107
18.972809 4.717134 62.372356 182 118 120
18.972809 4.851587 62.372356 185 118 120
18.972809 4.986041 62.372356 183 112 111
19.052862 5.142100 62.635532 196 121 116
19.052862 5.277121 62.635532 212 134 125
18.972809 5.389402 62.372356 207 126 113
19.012751 5.535485 62.503666 191 107 92
18.972809 5.658310 62.372356 184 99 83
18.972809 5.792764 62.372356 190 104 88
19.012751 5.939696 62.503666 205 119 104
19.012751 6.074432 62.503666 218 134 121
19.012751 6.209169 62.503666 215 131 119
18.972809 6.330579 62.372356 200 114 102
18.972809 6.465033 62.372356 191 105 91
18.893423 6.571873 62.111385 195 109 92
18.853981 6.691765 61.981716 199 114 94
18.972809 6.868394 62.372356 200 114 93
18.893423 6.973547 62.111385 205 120 97
18.853981 7.092600 61.981716 213 131 110
18.933033 7.256510 62.241596 222 159 141
18.814701 7.344491 61.852589 240 202 188
18.697840 7.431378 61.468410 236 192 182
18.697840 7.563883 61.468410 204 130 125
18.659208 7.680487 61.341408 179 92 91
18.620735 7.796609 61.214931 182 94 95
18.620735 7.928568 61.214931 202 119 121
18.659208 8.077181 61.341408 214 135 136
18.544264 8.421675 60.963535 184 104 102
18.430727 8.500726 60.590290 188 109 108
18.468418 8.648989 60.714195 205 131 131
18.506264 8.797859 60.838612 228 162 166
18.506264 8.929008 60.838612 244 185 192
18.506264 9.060155 60.838612 246 184 194
18.544264 9.210176 60.963535 238 165 177
18.582420 9.360814 61.088974 235 154 166
18.582420 9.492501 61.088974 239 161 171
18.620735 9.644032 61.214931 232 154 161
18.697840 9.816471 61.468410 215 126 130
18.697840 9.948977 61.468410 211 115 113
18.775585 10.123400 61.723995 222 126 117
18.736631 10.235177 61.595940 232 137 122
18.736631 10.367957 61.595940 236 141 120
18.736631 10.500737 61.595940 235 140 115
18.736631 10.633517 61.595940 234 138 110
18.697840 10.744007 61.468410 231 135 103
18.659208 10.854040 61.341408 227 131 97
18.659208 10.986272 61.341408 222 125 91
18.620735 11.095578 61.214931 218 121 87
18.544264 11.181428 60.963535 219 121 90
18.506264 11.289663 60.838612 221 122 93
18.506264 11.420811 60.838612 219 120 92
21.552267 1.529278 70.353653 27 18 16
19.771862 3.350773 64.541832 24 17 19
19.728973 3.482333 64.401825 26 14 18
19.771862 3.629034 64.541832 31 11 17
19.771862 3.768164 64.541832 37 8 15
19.643751 3.881977 64.123634 44 6 13
19.392445 3.968775 63.303288 50 4 11
19.433882 4.114007 63.438553 62 10 15
19.392445 4.241696 63.303288 85 29 30
19.310099 4.359566 63.034485 119 60 57
19.228449 4.476439 62.767956 149 89 84
19.107262 4.582680 62.372356 162 102 96
19.147488 4.727064 62.503666 166 104 96
19.187883 4.872058 62.635532 168 104 94
19.147488 4.996538 62.503666 171 104 92
19.228449 5.152971 62.767956 184 114 99
19.228449 5.288278 62.767956 198 125 106
19.147488 5.400748 62.503666 197 121 100
19.147488 5.535485 62.503666 187 108 86
19.107262 5.658310 62.372356 181 99 79
19.147488 5.804959 62.503666 181 97 80
19.147488 5.939696 62.503666 188 103 89
19.187883 6.087248 62.635532 197 111 100
19.147488 6.209169 62.503666 196 109 99
19.147488 6.343906 62.503666 187 99 89
19.147488 6.478643 62.503666 185 96 84
19.067205 6.585651 62.241596 192 104 89
18.987593 6.691765 61.981716 199 111 92
19.147488 6.882854 62.503666 199 111 90
19.067205 6.988167 62.241596 199 111 89
19.027315 7.107438 62.111385 201 115 94
19.107262 7.271755 62.372356 211 138 120
18.987593 7.359824 61.981716 232 179 163
18.869411 7.446795 61.595940 233 176 162
18.830345 7.563883 61.468410 209 130 120
18.830345 7.696388 61.468410 186 98 90
18.752693 7.796609 61.214931 188 101 95
18.791439 8.077181 61.341408 233 173 169
18.561340 8.500726 60.590290 183 106 109
18.561340 8.631338 60.590290 205 134 140
18.599298 8.779868 60.714195 232 176 185
18.599298 8.910748 60.714195 246 200 209
18.637411 9.060155 60.838612 244 188 198
18.675680 9.210176 60.963535 236 161 171
18.714108 9.360814 61.088974 234 152 160
18.714108 9.492501 61.088974 239 165 170
18.752693 9.644032 61.214931 241 174 176
18.869411 9.836837 61.595940 230 156 154
18.869411 9.969617 61.595940 218 131 125
18.987593 10.165669 61.981716 219 127 116
18.908642 10.256456 61.723995 227 134 118
18.908642 10.389512 61.723995 232 139 118
18.948034 10.544491 61.852589 234 140 116
18.948034 10.677824 61.852589 234 140 110
18.908642 10.788681 61.723995 232 138 105
18.908642 10.921737 61.723995 229 135 100
18.869411 11.031857 61.595940 225 131 95
18.791439 11.118503 61.341408 220 126 90
18.714108 11.204435 61.088974 218 124 90
22.284809 1.414490 72.236603 27 18 16
21.859324 1.540228 70.857384 27 18 16
19.910994 3.350773 64.541832 22 17 18
19.824799 3.474795 64.262428 24 15 18
19.867802 3.621161 64.401825 28 13 17
19.867802 3.759990 64.401825 33 10 16
19.781981 3.881977 64.123634 39 8 13
19.570633 3.977255 63.438553 46 6 10
19.570633 4.114007 63.438553 54 7 10
19.487354 4.232671 63.168602 70 18 18
19.404781 4.350329 62.900936 101 46 41
19.363756 4.476439 62.767956 136 80 70
19.201376 4.573072 62.241596 152 95 82
19.241716 4.717134 62.372356 153 96 78
19.282225 4.861801 62.503666 157 98 75
19.241716 4.986041 62.372356 160 99 72
19.322905 5.142100 62.635532 164 101 71
19.322905 5.277121 62.635532 172 105 74
19.241716 5.389402 62.372356 176 105 74
19.282225 5.535485 62.503666 175 101 72
19.241716 5.658310 62.372356 172 96 71
19.241716 5.792764 62.372356 172 92 73
19.282225 5.939696 62.503666 179 96 83
19.322905 6.087248 62.635532 188 102 94
19.322905 6.222269 62.635532 186 98 91
19.282225 6.343906 62.503666 177 87 81
19.282225 6.478643 62.503666 178 87 79
19.201376 6.585651 62.241596 188 97 86
19.121204 6.691765 61.981716 197 106 91
19.282225 6.882854 62.503666 199 109 91
19.201376 6.988167 62.241596 198 108 88
19.161207 7.107438 62.111385 198 109 90
19.241716 7.271755 62.372356 207 123 105
19.121204 7.359824 61.981716 221 144 127
19.002192 7.446795 61.595940 224 146 128
18.962851 7.563883 61.468410 214 129 111
18.923670 7.680487 61.341408 198 110 93
18.884653 7.796609 61.214931 197 110 94
18.884653 7.928568 61.214931 223 152 137
18.923670 8.077181 61.341408 242 188 177
18.807098 8.158841 60.963535 223 161 152
18.691952 8.500726 60.590290 185 107 113
18.691952 8.631338 60.590290 205 133 143
18.730177 8.779868 60.714195 230 177 188
18.730177 8.910748 60.714195 244 205 215
18.768559 9.060155 60.838612 240 190 198
18.807098 9.210176 60.963535 233 160 167
18.845795 9.360814 61.088974 236 155 157
18.845795 9.492501 61.088974 244 171 170
18.884653 9.644032 61.214931 248 192 187
19.002192 9.836837 61.595940 243 188 181
19.002192 9.969617 61.595940 229 157 148
19.121204 10.165669 61.981716 220 134 121
19.081367 10.277823 61.852589 220 131 116
19.121204 10.432893 61.981716 226 136 117
19.121204 10.566504 61.981716 232 140 118
19.161207 10.722501 62.111385 233 140 114
19.121204 10.833728 61.981716 232 140 109
19.121204 10.967340 61.981716 230 139 104
19.121204 11.100951 61.981716 227 136 99
19.834530 3.452377 63.847832 22 16 17
19.920208 3.605519 64.123634 25 14 16
19.963326 3.751852 64.262428 29 12 15
19.834530 3.865281 63.847832 35 10 13
19.707386 3.977255 63.438553 41 7 10
19.623526 4.096501 63.168602 48 6 9
19.581861 4.223685 63.034485 57 10 11
19.499063 4.341132 62.767956 82 32 28
19.499063 4.476439 62.767956 118 67 55
19.295097 4.563505 62.111385 138 87 67
19.335548 4.707244 62.241596 142 92 63
19.416962 4.861801 62.503666 145 95 58
19.376169 4.986041 62.372356 147 96 52
19.416962 5.131275 62.503666 147 95 48
19.457926 5.277121 62.635532 153 98 51
19.335548 5.378104 62.241596 160 101 57
19.416962 5.535485 62.503666 163 99 60
19.376169 5.658310 62.372356 164 94 64
19.376169 5.792764 62.372356 165 90 70
19.376169 5.927217 62.372356 177 97 86
19.416962 6.074432 62.503666 194 110 104
19.416962 6.209169 62.503666 194 107 104
19.376169 6.330579 62.372356 179 88 86
19.376169 6.465033 62.372356 172 79 75
19.335548 6.585651 62.241596 182 89 81
19.214701 6.677824 61.852589 195 101 89
19.376169 6.868394 62.372356 200 107 93
19.295097 6.973547 62.111385 201 109 93
19.254816 7.092600 61.981716 202 111 94
19.335548 7.256510 62.241596 206 114 98
19.214701 7.344491 61.852589 210 118 101
19.095356 7.431378 61.468410 214 124 104
19.055902 7.548255 61.341408 214 126 103
19.016611 7.664650 61.214931 207 119 96
18.977484 7.780567 61.088974 205 118 93
18.977484 7.912254 61.088974 218 141 118
19.016611 8.060527 61.214931 233 169 150
18.938515 8.158841 60.963535 220 153 138
18.861057 8.256351 60.714195 190 113 104
18.899706 8.404417 60.838612 181 101 99
18.822565 8.500726 60.590290 191 110 115
18.822565 8.631338 60.590290 204 128 137
18.861057 8.779868 60.714195 224 165 176
18.861057 8.910748 60.714195 240 197 207
18.899706 9.060155 60.838612 237 188 194
18.938515 9.210176 60.963535 231 160 162
18.938515 9.341593 60.963535 238 157 154
18.938515 9.473009 60.963535 248 175 167
18.977484 9.624188 61.088974 252 198 187
19.134972 9.836837 61.595940 251 209 197
19.134972 9.969617 61.595940 240 185 173
19.254816 10.165669 61.981716 224 148 135
19.214701 10.277823 61.852589 215 129 116
19.254816 10.432893 61.981716 219 131 116
19.254816 10.566504 61.981716 226 137 118
19.254816 10.700116 61.981716 230 139 116
19.214701 10.811157 61.852589 230 140 111
19.844137 3.430247 63.438553 20 16 16
19.886631 3.574637 63.574394 22 15 15
19.972164 3.727646 63.847832 26 14 14
19.844137 3.840503 63.438553 30 11 12
19.759695 3.960331 63.168602 36 8 10
19.759695 4.096501 63.168602 42 7 9
19.675968 4.214736 62.900936 48 7 8
19.634369 4.341132 62.767956 66 22 18
19.634369 4.476439 62.767956 98 53 40
19.510624 4.582680 62.372356 122 77 53
19.510624 4.717134 62.372356 130 88 51
19.592947 4.872058 62.635532 134 93 44
19.551699 4.996538 62.503666 133 93 35
19.592947 5.142100 62.635532 138 97 36
19.592947 5.277121 62.635532 156 116 54
19.469721 5.378104 62.241596 169 124 67
19.551699 5.535485 62.503666 165 110 62
19.510624 5.658310 62.372356 158 94 58
19.510624 5.792764 62.372356 159 89 65
19.510624 5.927217 62.372356 174 97 85
19.510624 6.061671 62.372356 198 116 111
19.551699 6.209169 62.503666 207 120 120
19.469721 6.317307 62.241596 190 99 99
19.510624 6.465033 62.372356 172 79 77
19.469721 6.585651 62.241596 178 83 77
19.348034 6.677824 61.852589 191 96 86
19.510624 6.868394 62.372356 198 104 90
19.428989 6.973547 62.111385 201 108 92
19.428989 7.107438 62.111385 202 110 94
19.510624 7.271755 62.372356 204 112 96
19.388428 7.359824 61.981716 205 113 95
19.267752 7.446795 61.595940 208 117 97
19.227861 7.563883 61.468410 213 123 100
19.148571 7.664650 61.214931 213 125 98
19.109171 7.780567 61.088974 211 124 95
19.148571 7.928568 61.214931 214 131 103
19.188133 8.077181 61.341408 221 144 118
19.109171 8.175629 61.088974 213 137 115
19.030853 8.273270 60.838612 195 115 100
19.069931 8.421675 60.963535 191 108 101
18.953176 8.500726 60.590290 197 114 114
18.991936 8.648989 60.714195 203 122 127
19.030853 8.797859 60.838612 217 146 154
19.030853 8.929008 60.838612 232 177 184
19.069931 9.078758 60.963535 233 177 181
19.109171 9.229127 61.088974 226 155 154
19.109171 9.360814 61.088974 232 153 146
19.069931 9.473009 60.963535 245 173 161
19.109171 9.624188 61.088974 252 195 180
19.227861 9.816471 61.468410 253 211 197
19.267752 9.969617 61.595940 249 202 190
19.348034 10.144490 61.852589 234 170 160
19.307810 10.256456 61.723995 219 140 131
19.388428 10.432893 61.981716 216 131 119
19.348034 10.544491 61.852589 220 132 118
19.348034 10.677824 61.852589 223 135 117
19.895864 3.551820 63.168602 20 15 14
19.980890 3.703751 63.438553 23 14 14
19.938288 3.832314 63.303288 26 12 12
19.895864 3.960331 63.168602 31 10 11
19.938288 4.105236 63.303288 36 8 10
19.853624 4.223685 63.034485 42 7 8
19.853624 4.359566 63.034485 55 17 13
19.853624 4.495447 63.034485 79 40 27
19.727968 4.602016 62.635532 103 64 39
19.727968 4.737037 62.635532 118 82 41
19.769676 4.882358 62.767956 122 90 35
19.686436 4.996538 62.503666 118 86 24
19.727968 5.142100 62.635532 129 98 32
19.727968 5.277121 62.635532 168 140 72
19.645077 5.389402 62.372356 191 158 95
19.686436 5.535485 62.503666 173 125 72
19.645077 5.658310 62.372356 150 90 51
19.603893 5.780620 62.241596 151 83 57
19.645077 5.927217 62.372356 165 90 77
19.645077 6.061671 62.372356 188 107 103
19.645077 6.196125 62.372356 204 118 119
19.603893 6.317307 62.241596 195 104 107
19.645077 6.465033 62.372356 177 84 83
19.603893 6.585651 62.241596 176 82 77
19.522039 6.691765 61.981716 185 90 82
19.645077 6.868394 62.372356 193 99 87
19.562880 6.973547 62.111385 198 105 91
19.603893 7.122338 62.241596 200 108 92
19.645077 7.271755 62.372356 201 109 94
19.522039 7.359824 61.981716 202 111 94
19.440866 7.462277 61.723995 205 114 95
19.400532 7.579576 61.595940 211 121 98
19.320366 7.680487 61.341408 214 126 99
19.240858 7.780567 61.088974 213 127 95
19.280529 7.928568 61.214931 212 127 95
19.320366 8.077181 61.341408 214 131 99
19.240858 8.175629 61.088974 211 129 100
19.122816 8.256351 60.714195 204 120 98
19.162001 8.404417 60.838612 202 117 101
19.083790 8.500726 60.590290 203 119 110
19.122816 8.648989 60.714195 205 120 118
19.162001 8.797859 60.838612 210 130 131
19.162001 8.929008 60.838612 219 148 150
19.162001 9.060155 60.838612 220 153 153
19.201349 9.210176 60.963535 215 141 137
19.201349 9.341593 60.963535 218 141 132
19.201349 9.473009 60.963535 233 161 149
19.240858 9.624188 61.088974 244 181 168
19.320366 9.796189 61.341408 248 194 182
19.320366 9.928420 61.341408 250 202 194
19.400532 10.102397 61.595940 246 194 188
19.360365 10.213986 61.468410 229 160 154
19.400532 10.367957 61.595940 217 134 128
20.117641 3.703751 63.438553 21 14 13
20.074747 3.832314 63.303288 24 12 12
19.989504 3.951922 63.034485 28 10 12
19.989504 4.087803 63.034485 32 8 11
20.074747 4.241696 63.303288 38 7 9
20.074747 4.378157 63.303288 47 12 10
20.032036 4.505012 63.168602 64 29 17
19.947153 4.621516 62.900936 86 52 27
19.947153 4.757109 62.900936 106 75 34
19.947153 4.892702 62.900936 113 85 30
19.904982 5.017665 62.767956 106 79 20
19.904982 5.152971 62.767956 120 95 31
19.904982 5.288278 62.767956 170 150 82
19.821173 5.400748 62.503666 202 176 112
19.862989 5.547163 62.635532 175 132 77
19.779531 5.658310 62.372356 141 83 42
19.779531 5.792764 62.372356 142 74 47
19.779531 5.927217 62.372356 156 81 67
19.821173 6.074432 62.503666 172 90 86
19.821173 6.209169 62.503666 185 98 100
19.779531 6.330579 62.372356 187 95 98
19.779531 6.465033 62.372356 178 84 85
19.779531 6.599486 62.372356 174 79 76
19.696772 6.705765 62.111385 178 82 74
19.821173 6.882854 62.503666 186 91 80
19.738064 6.988167 62.241596 194 100 86
19.779531 7.137301 62.372356 196 103 88
19.779531 7.271755 62.372356 197 104 89
19.696772 7.375221 62.111385 198 106 90
19.614702 7.477824 61.852589 202 111 94
19.614702 7.611157 61.852589 207 117 97
19.452597 7.680487 61.341408 210 123 97
19.412487 7.796609 61.214931 212 126 95
19.452597 7.944949 61.341408 212 127 93
19.492870 8.093904 61.468410 212 129 93
19.372545 8.175629 61.088974 213 129 95
19.293148 8.273270 60.838612 212 127 97
19.332766 8.421675 60.963535 211 125 101
19.253695 8.518109 60.714195 210 125 106
19.253695 8.648989 60.714195 209 124 111
19.293148 8.797859 60.838612 207 123 115
19.293148 8.929008 60.838612 206 126 119
19.293148 9.060155 60.838612 204 127 119
19.332766 9.210176 60.963535 202 126 117
19.293148 9.322450 60.838612 207 130 120
19.293148 9.453597 60.838612 218 146 134
19.332766 9.604426 60.963535 228 159 148
19.412487 9.775990 61.214931 233 165 156
19.412487 9.907949 61.214931 241 179 174
19.452597 10.060652 61.341408 245 188 186
17.684807 -4.049710 55.390377 17 15 12
17.586376 -3.908432 55.082081 18 15 11
20.040289 5.017665 62.767956 108 79 22
20.040289 5.152971 62.767956 120 93 31
20.040289 5.288278 62.767956 168 147 80
19.955908 5.400748 62.503666 205 180 116
19.998011 5.547163 62.635532 186 143 87
19.955908 5.670222 62.503666 152 92 48
19.913984 5.792764 62.372356 144 75 46
19.955908 5.939696 62.503666 152 75 60
19.955908 6.074432 62.503666 161 77 72
19.955908 6.209169 62.503666 167 78 79
19.913984 6.330579 62.372356 172 80 82
19.955908 6.478643 62.503666 174 78 80
19.913984 6.599486 62.372356 170 74 72
19.872236 6.719823 62.241596 168 72 67
19.955908 6.882854 62.503666 177 81 72
19.913984 7.002848 62.372356 188 93 80
19.955908 7.152328 62.503666 191 97 84
19.955908 7.287064 62.503666 192 100 86
19.913984 7.406209 62.372356 194 102 88
19.830662 7.509112 62.111385 197 107 91
19.830662 7.643003 62.111385 202 113 95
19.666092 7.712356 61.595940 206 120 96
19.584827 7.812718 61.341408 209 124 96
19.625376 7.961399 61.468410 211 127 95
19.666092 8.110696 61.595940 213 129 94
19.544447 8.192486 61.214931 215 131 95
19.464182 8.290257 60.963535 216 131 97
19.464182 8.421675 60.963535 216 131 100
19.384573 8.518109 60.714195 216 130 103
19.424297 8.666712 60.838612 214 130 106
19.424297 8.797859 60.838612 210 127 107
19.424297 8.929008 60.838612 203 121 104
19.424297 9.060155 60.838612 198 119 104
19.464182 9.210176 60.963535 201 123 109
19.424297 9.322450 60.838612 209 133 120
19.424297 9.453597 60.838612 218 143 133
19.464182 9.604426 60.963535 223 147 140
19.504232 9.755876 61.088974 221 143 138
19.504232 9.887563 61.088974 225 148 147
17.904421 -4.192579 55.702145 17 14 12
17.837488 -4.057280 55.493912 17 15 12
17.738024 -3.915696 55.184464 18 15 12
22.721563 4.431799 70.688675 27 10 12
22.830278 4.606113 71.026894 32 9 13
22.667593 4.725310 70.520767 37 9 13
22.244886 4.786376 69.205696 43 10 12
20.175596 5.558891 62.767956 203 154 100
20.133030 5.682185 62.635532 177 112 71
20.090645 5.804959 62.503666 158 84 57
20.090645 5.939696 62.503666 158 77 62
20.090645 6.074432 62.503666 163 77 71
20.090645 6.209169 62.503666 164 73 74
20.090645 6.343906 62.503666 169 74 78
20.090645 6.478643 62.503666 173 77 79
20.090645 6.613380 62.503666 169 72 72
20.048439 6.733940 62.372356 163 66 63
20.133030 6.897375 62.635532 168 71 64
20.090645 7.017591 62.503666 178 83 74
20.133030 7.167417 62.635532 186 91 81
20.133030 7.302438 62.635532 188 95 84
20.090645 7.421801 62.503666 190 98 87
20.048439 7.540663 62.372356 193 103 91
20.133030 7.707501 62.635532 197 110 94
19.922874 7.760659 61.981716 201 116 96
19.840034 7.861446 61.723995 206 122 98
19.922874 8.027882 61.981716 210 126 98
19.922874 8.161493 61.981716 213 130 97
19.798872 8.243476 61.595940 215 131 97
19.676405 8.324444 61.214931 218 133 97
19.635920 8.439003 61.088974 219 134 99
19.555445 8.535564 60.838612 219 134 101
19.595598 8.684508 60.963535 218 136 105
19.595598 8.815925 60.963535 215 135 106
19.555445 8.929008 60.838612 208 129 104
19.595598 9.078758 60.963535 203 125 103
19.595598 9.210176 60.963535 207 130 111
19.555445 9.322450 60.838612 220 145 129
19.555445 9.453597 60.838612 234 162 151
19.595598 9.604426 60.963535 237 165 157
17.923613 -4.049710 55.390377 18 15 13
17.856983 -3.915696 55.184464 18 14 13
22.446394 3.451765 69.367386 26 17 19
22.034534 3.535219 68.094589 26 16 17
23.431845 4.227696 72.412788 27 13 12
22.928535 4.289631 70.857384 29 13 12
23.149534 4.485194 71.540344 32 12 13
23.261639 4.661878 71.886787 36 11 14
22.983389 4.759223 71.026894 39 10 14
22.604839 4.831425 69.857040 43 9 12
20.353933 5.570668 62.900936 191 131 88
20.310902 5.694198 62.767956 182 112 79
20.268051 5.817205 62.635532 168 91 69
20.268051 5.952227 62.635532 167 84 72
20.268051 6.087248 62.635532 171 83 79
20.225382 6.209169 62.503666 171 78 80
20.225382 6.343906 62.503666 174 78 82
20.225382 6.478643 62.503666 176 79 81
20.225382 6.613380 62.503666 171 73 75
20.225382 6.748117 62.503666 162 64 63
20.268051 6.897375 62.635532 159 62 59
20.268051 7.032395 62.635532 168 72 66
20.268051 7.167417 62.635532 179 84 77
20.268051 7.302438 62.635532 185 92 84
20.225382 7.421801 62.503666 187 96 86
20.225382 7.556538 62.503666 190 101 90
20.268051 7.707501 62.635532 193 106 94
20.140579 7.793198 62.241596 197 112 97
20.014702 7.877824 61.852589 202 119 99
20.140579 8.061542 62.241596 207 125 101
20.182892 8.212932 62.372356 211 129 101
20.056486 8.295105 61.981716 214 131 100
19.890387 8.358914 61.468410 216 132 99
