ply
format ascii 1.0
element vertex 1253
property float x
property float y
property float z
property uchar red
property uchar green
property uchar blue
end_header
-0.196331 -3.323402 31.517242 47 39 38
-0.194882 -3.231448 31.284765 48 39 38
-0.381327 -4.607514 61.214931 43 35 34
-0.380542 -4.466347 61.088974 43 35 35
-0.379761 -4.325759 60.963535 46 36 35
-0.388536 -3.887909 62.372356 50 38 36
-0.386911 -3.737750 62.111385 49 38 36
-0.387722 -3.477242 62.241596 49 37 35
-0.386911 -3.336076 62.111385 48 37 35
-0.391001 -2.965422 62.767956 45 36 34
-0.391001 -2.830115 62.767956 44 36 34
-0.389354 -2.683462 62.503666 44 35 35
-0.390176 -2.554102 62.635532 44 36 36
-0.391829 -2.429332 62.900936 46 39 38
-0.391829 -2.293738 62.900936 49 42 42
-0.392661 -2.162727 63.034485 50 43 43
-0.392661 -2.026846 63.034485 50 42 42
-0.391829 -1.886959 62.900936 48 40 41
-0.391829 -1.344586 62.900936 48 39 41
-0.391829 -0.259840 62.900936 42 35 35
-0.389354 0.819696 62.503666 45 35 37
-0.388536 0.952427 62.372356 45 35 37
-0.386103 1.080074 61.981716 45 36 37
-0.382114 1.201148 61.341408 45 36 36
-0.380542 1.327892 61.088974 45 36 36
-0.379761 1.456582 60.963535 45 37 36
-0.376667 1.575062 60.466888 45 37 36
-0.382114 1.730073 61.341408 45 37 36
-0.381327 1.858465 61.214931 44 38 36
-0.381327 1.990424 61.214931 44 38 37
-0.384498 2.140032 61.723995 44 39 37
-0.383700 2.268372 61.595940 43 38 37
-0.384498 2.406144 61.723995 44 38 37
-0.395178 3.019990 63.438553 43 36 36
-0.394336 3.150012 63.303288 42 36 35
-0.394336 3.286472 63.303288 41 35 35
-0.397728 3.452377 63.847832 42 34 36
-0.398585 3.597749 63.985435 43 35 37
-0.397728 3.727646 63.847832 44 35 37
-0.396874 3.856986 63.710819 45 35 37
-0.428110 8.456841 68.725098 34 29 29
-0.403806 10.911257 64.823669 28 27 22
-0.416539 12.408459 66.867661 25 24 22
-0.104262 -6.285038 25.594173 24 22 18
-0.104262 -6.229866 25.594173 24 22 18
-0.265227 -14.865449 65.107986 25 22 19
-0.264646 -14.692877 64.965523 24 22 19
-0.264068 -14.521058 64.823669 23 22 18
-0.264068 -14.381320 64.823669 22 21 18
-0.264646 -14.272745 64.965523 21 21 18
-0.264068 -14.101844 64.823669 21 22 17
-0.265227 -14.023343 65.107986 22 21 17
-0.262920 -13.762271 64.541832 23 21 16
-0.258979 -13.418939 63.574394 24 22 16
-0.256780 -13.169097 63.034485 24 22 17
-0.255155 -12.950727 62.635532 25 22 18
-0.255694 -12.842800 62.767956 25 22 19
-0.424363 -20.191734 104.172783 30 24 26
-0.267574 -11.598771 65.684166 35 28 27
-0.268167 -11.482582 65.829803 35 29 28
-0.267574 -11.315585 65.684166 36 29 29
-0.265810 -11.100318 65.251083 35 30 29
-0.265227 -10.935624 65.107986 35 30 29
-0.264646 -10.771651 64.965523 34 30 28
-0.262920 -10.562271 64.541832 33 30 28
-0.262920 -10.423141 64.541832 33 29 28
-0.261782 -10.239491 64.262428 34 29 28
-0.262920 -10.144879 64.541832 35 30 29
-0.261782 -9.962434 64.262428 36 31 30
-0.260093 -9.760526 63.847832 37 31 31
-0.190762 -6.553067 46.828457 40 34 35
-0.191366 -6.472539 46.976650 41 36 36
-0.190762 -6.149282 46.828457 43 37 39
-0.130891 -3.665200 32.131214 46 36 36
-0.129628 -3.561248 31.821266 46 37 37
-0.129213 -3.481458 31.719276 47 39 38
-0.129213 -3.413082 31.719276 48 40 38
-0.128663 -3.330473 31.584301 49 41 39
-0.127712 -3.238273 31.350836 49 40 39
-0.255155 -5.659587 62.635532 48 38 37
-0.252491 -5.466899 61.981716 47 38 37
-0.250400 -5.289119 61.468410 45 37 36
-0.248344 -5.114260 60.963535 44 37 35
-0.248855 -4.993096 61.088974 43 36 35
-0.248855 -4.861409 61.088974 42 36 34
-0.248855 -4.729721 61.088974 42 35 33
-0.249368 -4.607514 61.214931 42 34 34
-0.248855 -4.466347 61.088974 42 35 35
-0.248344 -4.325759 60.963535 45 36 36
-0.246823 -4.168662 60.590290 48 38 37
-0.253020 -3.871641 62.111385 49 38 36
-0.252491 -3.729947 61.981716 49 38 36
-0.252491 -3.462723 61.981716 48 37 35
-0.251965 -3.322176 61.852589 48 37 36
-0.255155 -2.959166 62.635532 46 38 37
-0.255694 -2.830115 62.767956 46 38 37
-0.254618 -2.683462 62.503666 46 38 37
-0.255155 -2.554102 62.635532 47 39 38
-0.255694 -2.424196 62.767956 48 41 40
-0.255694 -2.288889 62.767956 50 44 43
-0.256236 -2.158145 62.900936 51 45 45
-0.253020 1.082334 62.111385 45 35 36
-0.250400 1.203635 61.468410 45 35 35
-0.249883 1.333379 61.341408 46 36 35
-0.249368 1.462589 61.214931 46 37 35
-0.248344 1.587999 60.963535 46 37 35
-0.253020 1.751790 62.111385 45 37 36
-0.251442 1.873920 61.723995 44 38 36
-0.252491 2.015356 61.981716 43 38 37
-0.255155 2.171636 62.635532 44 38 37
-0.255694 2.311534 62.767956 43 38 37
-0.256236 2.452024 62.900936 44 38 37
-0.258426 3.019990 63.438553 43 37 36
-0.257875 3.150012 63.303288 42 37 35
-0.257875 3.286472 63.303288 42 36 35
-0.260093 3.452377 63.847832 41 35 35
-0.260093 3.590012 63.847832 42 34 36
-0.260093 3.727646 63.847832 43 34 37
-0.260093 3.865281 63.847832 44 35 38
-0.283240 12.003175 69.529839 27 25 22
-0.283905 12.181585 69.693054 26 25 22
-0.274871 12.375808 67.475548 26 25 23
-0.273010 12.436468 67.018608 25 25 23
-0.272395 12.552603 66.867661 25 24 23
-0.049302 -6.367658 25.704971 23 21 18
-0.049131 -6.290461 25.616257 23 21 17
-0.049089 -6.229866 25.594173 24 21 18
-0.125150 -15.038779 65.251083 26 22 20
-0.124876 -14.865449 65.107986 26 22 20
-0.124603 -14.692877 64.965523 25 21 19
-0.124060 -14.489422 64.682442 24 21 18
-0.124330 -14.381320 64.823669 23 21 18
-0.124330 -14.241582 64.823669 23 21 17
-0.124330 -14.101844 64.823669 22 21 17
-0.124603 -13.992658 64.965523 23 21 17
-0.124060 -13.792253 64.682442 23 22 16
-0.122196 -13.447735 63.710819 24 22 17
-0.121156 -13.197116 63.168602 25 22 18
-0.120388 -12.978106 62.767956 25 22 19
-0.200505 -20.488186 104.539589 29 23 24
-0.197036 -19.912264 102.730942 30 24 26
-0.198409 -19.828030 103.446838 31 25 27
-0.126260 -11.624489 65.829803 34 28 27
-0.126541 -11.508099 65.976097 35 29 28
-0.126260 -11.340675 65.829803 36 30 29
-0.125426 -11.124767 65.394806 36 30 29
-0.125150 -10.959659 65.251083 36 30 29
-0.124876 -10.795273 65.107986 35 31 29
-0.123521 -10.539359 64.401825 35 31 29
-0.124060 -10.445848 64.682442 34 30 29
-0.123521 -10.261702 64.401825 35 30 29
-0.123790 -10.144879 64.541832 35 30 30
-0.090819 -7.034521 47.351265 40 34 34
-0.090243 -6.685649 47.051098 41 35 35
-0.090100 -6.573805 46.976650 41 35 36
-0.090243 -6.482796 47.051098 40 35 36
-0.090243 -6.381370 47.051098 41 35 36
-0.090386 -6.289912 47.125782 42 36 37
-0.061761 -3.673150 32.200912 46 37 35
-0.061229 -3.572736 31.923916 47 38 36
-0.060902 -3.485181 31.753201 48 39 38
-0.060578 -3.330473 31.584301 51 42 40
-0.060067 -3.234857 31.317766 51 41 41
-0.121414 -5.856385 63.303288 49 39 38
-0.120134 -5.659587 62.635532 49 39 38
-0.118880 -5.466899 61.981716 48 39 38
-0.118140 -5.300092 61.595940 47 39 37
-0.117652 -5.145960 61.341408 46 39 36
-0.118140 -5.034532 61.595940 45 38 35
-0.117652 -4.881497 61.341408 43 37 34
-0.117409 -4.739473 61.214931 42 36 34
-0.117409 -4.607514 61.214931 42 35 34
-0.117409 -4.475556 61.214931 43 35 35
-0.116927 -4.325759 60.963535 45 36 36
-0.116211 -4.168662 60.590290 47 38 38
-0.118385 -3.980550 61.723995 49 38 37
-0.118632 -3.855510 61.852589 49 38 37
-0.118385 -3.714438 61.723995 48 38 37
-0.118140 -3.573951 61.595940 47 37 36
-0.119881 -2.952936 62.503666 47 39 38
-0.120134 -2.824145 62.635532 48 40 39
-0.119629 -2.677825 62.372356 48 41 39
-0.120134 -2.554102 62.635532 49 42 40
-0.120388 -2.424196 62.767956 50 43 42
-0.120388 -2.288889 62.767956 51 44 44
-0.120643 -2.158145 62.900936 51 45 45
-0.119128 1.082334 62.111385 46 34 35
-0.117895 1.203635 61.468410 45 35 34
-0.117652 1.333379 61.341408 46 35 35
-0.117652 1.465611 61.341408 46 36 35
-0.118140 1.604472 61.595940 46 37 35
-0.120134 1.766573 62.635532 45 37 36
-0.119128 1.885681 62.111385 44 37 36
-0.120134 2.036615 62.635532 43 37 35
-0.121156 2.190118 63.168602 43 37 36
-0.121414 2.331248 63.303288 44 38 36
-0.121156 2.462458 63.168602 45 38 37
-0.120899 2.593112 63.034485 46 38 38
-0.120899 2.728992 63.034485 45 38 37
-0.121414 2.877090 63.303288 44 38 37
-0.121934 3.026457 63.574394 43 37 36
-0.121414 3.150012 63.303288 43 37 35
-0.121414 3.286472 63.303288 42 36 35
-0.122723 3.459818 63.985435 42 34 35
-0.122723 3.597749 63.985435 42 34 36
-0.122459 3.727646 63.847832 43 34 36
-0.122723 3.873611 63.985435 44 35 38
-0.132119 9.070431 68.884552 33 30 28
-0.133670 12.031351 69.693054 27 25 21
-0.133984 12.210248 69.857040 26 25 22
-0.132735 12.394768 69.205696 26 25 23
-0.130904 12.370933 68.251129 27 25 23
-0.129417 12.375808 67.475548 27 25 23
-0.128540 12.436468 67.018608 26 24 23
-0.127963 12.524394 66.717400 25 24 23
0.006152 -6.467868 25.884256 22 20 19
0.006120 -6.378703 25.749559 22 20 18
0.006094 -6.295893 25.638378 23 21 17
0.006089 -6.235241 25.616257 24 21 18
0.015441 -15.113008 64.965523 27 23 21
0.015509 -15.038779 65.251083 27 23 21
0.015475 -14.865449 65.107986 26 22 19
0.015441 -14.692877 64.965523 25 21 18
0.015374 -14.489422 64.682442 24 21 18
0.015374 -14.349988 64.682442 24 21 17
0.015408 -14.241582 64.823669 23 21 17
0.015408 -14.101844 64.823669 23 21 17
0.015441 -13.992658 64.965523 24 22 17
0.015374 -13.792253 64.682442 24 22 17
0.015143 -13.447735 63.710819 24 22 18
0.024417 -20.133718 102.730942 29 23 24
0.024167 -19.707687 101.675484 30 24 25
0.024250 -19.555479 102.024887 31 25 26
0.024760 -19.068928 104.172783 30 25 24
0.024588 -18.713047 103.446838 31 25 24
0.015716 -11.676269 66.123032 34 27 26
0.015716 -11.533730 66.123032 35 28 28
0.015647 -11.340675 65.829803 36 29 29
0.015509 -11.100318 65.251083 36 30 29
0.015475 -10.935624 65.107986 36 31 29
0.015441 -10.771651 64.965523 36 31 29
0.015307 -10.539359 64.401825 36 31 29
0.015441 -10.491564 64.965523 36 31 29
0.015374 -10.306416 64.682442 36 31 29
0.015441 -10.211476 64.965523 36 31 30
0.011345 -7.091068 47.731899 41 34 34
0.011201 -6.899436 47.125782 41 35 34
0.011201 -6.696261 47.125782 41 35 35
0.011183 -6.584223 47.051098 41 35 35
0.011219 -6.503409 47.200703 39 34 35
0.011219 -6.401660 47.200703 40 34 34
0.007563 -3.492652 31.821266 49 40 38
0.007547 -3.416732 31.753201 50 42 39
0.007507 -3.330473 31.584301 51 43 41
0.007420 -3.224653 31.218971 52 42 42
0.007320 -3.114776 30.797970 51 41 41
0.015014 -5.980095 63.168602 51 40 41
0.014951 -5.819162 62.900936 50 40 40
0.014856 -5.647673 62.503666 50 40 40
0.014701 -5.455510 61.852589 49 40 39
0.014640 -5.300092 61.595940 49 40 38
0.014640 -5.167312 61.595940 48 40 38
0.014701 -5.055510 61.852589 47 39 37
0.014610 -4.891603 61.468410 46 38 37
0.014580 -4.749266 61.341408 45 37 36
0.014550 -4.607514 61.214931 45 37 35
0.014550 -4.475556 61.214931 45 37 35
0.014490 -4.325759 60.963535 46 36 36
0.014431 -4.177187 60.714195 47 37 37
0.014372 -4.029826 60.466888 48 38 37
0.014610 -3.964067 61.468410 48 38 37
0.014671 -3.847494 61.723995 48 38 37
0.014671 -3.714438 61.723995 47 37 37
0.014763 -3.068294 62.111385 46 38 38
0.014825 -2.946732 62.372356 48 40 39
0.014887 -2.824145 62.635532 48 41 40
0.014825 -2.677825 62.372356 50 43 41
0.014887 -2.554102 62.635532 51 44 43
0.014887 -2.419081 62.635532 51 44 44
0.014887 -2.284060 62.635532 51 44 46
0.014919 -2.153583 62.767956 51 44 46
0.014919 -2.018276 62.767956 48 41 44
0.014887 -1.878997 62.635532 47 38 42
0.014856 -1.740304 62.503666 47 38 43
0.014856 -1.605567 62.503666 49 40 44
0.014701 1.077824 61.852589 46 33 33
0.014580 1.201148 61.341408 45 33 33
0.014520 1.327892 61.088974 46 35 34
0.014640 1.471692 61.595940 46 36 35
0.014951 1.774058 62.900936 45 36 35
0.014856 1.897591 62.503666 44 36 35
0.014982 2.049587 63.034485 43 35 34
0.015078 2.199477 63.438553 43 35 35
0.015176 2.351302 63.847832 44 36 35
0.015078 2.472982 63.438553 45 37 36
0.015014 2.598629 63.168602 46 37 37
0.015046 2.740630 63.303288 46 37 37
0.015078 2.883238 63.438553 45 37 37
0.015143 3.032952 63.710819 44 37 36
0.015078 3.156743 63.438553 43 36 35
0.015078 3.293495 63.438553 42 35 35
0.015241 3.467290 64.123634 42 34 35
0.015241 3.605519 64.123634 42 34 35
0.015176 3.727646 63.847832 43 35 36
0.015208 3.873611 63.985435 44 35 38
0.015241 4.020206 64.123634 46 36 39
0.016411 9.091524 69.044746 33 30 27
0.016604 12.059660 69.857040 26 25 21
0.016373 12.337252 68.884552 26 25 23
0.016185 12.342559 68.094589 27 25 23
0.016001 12.347745 67.322548 27 24 23
0.015893 12.408459 66.867661 26 24 24
0.015787 12.468357 66.418884 25 24 23
0.062004 -6.473512 25.906843 22 20 19
0.061735 -6.389787 25.794302 22 20 18
0.061415 -6.301335 25.660538 23 21 18
0.155145 -15.080009 64.823669 28 24 22
0.156168 -15.038779 65.251083 28 23 21
0.155826 -14.865449 65.107986 26 22 19
0.155145 -14.660796 64.823669 25 21 18
0.154807 -14.489422 64.682442 24 20 17
0.154136 -14.287732 64.401825 24 20 17
0.151184 -13.333286 63.168602 25 22 18
0.242514 -20.077286 101.328468 27 23 23
0.241689 -19.791307 100.983818 28 23 24
0.240870 -19.507269 100.641502 29 24 24
0.241689 -19.355934 100.983818 30 25 25
0.243345 -19.269331 101.675484 30 25 25
0.243345 -19.050152 101.675484 29 25 25
0.245871 -19.026451 102.730942 29 25 24
0.247584 -18.936043 103.446838 29 25 24
0.245023 -18.519464 102.376694 30 25 24
0.159320 -11.611311 66.567810 35 28 27
0.158255 -11.391191 66.123032 36 29 28
0.156512 -11.124767 65.394806 36 30 29
0.155826 -10.935624 65.107986 36 31 29
0.155826 -10.795273 65.107986 36 31 29
0.155145 -10.608395 64.823669 36 31 29
0.155826 -10.514571 65.107986 36 31 29
0.155826 -10.374221 65.107986 36 31 30
0.113148 -6.717587 47.275864 41 35 34
0.112788 -6.594674 47.125782 41 35 34
0.113148 -6.513765 47.275864 40 34 34
0.113148 -6.411854 47.275864 39 33 33
0.076078 -3.420390 31.787197 50 42 40
0.075673 -3.334020 31.617937 52 43 42
0.153470 -6.208735 64.123634 52 42 41
0.150863 -5.967398 63.034485 51 42 42
0.150544 -5.819162 62.900936 51 42 41
0.149593 -5.647673 62.503666 50 41 41
0.148344 -5.466899 61.981716 50 41 40
0.147727 -5.311111 61.723995 50 41 40
0.148035 -5.188843 61.852589 50 40 40
0.148654 -5.076662 62.111385 50 40 39
0.147727 -4.911943 61.723995 49 40 38
0.147115 -4.759099 61.468410 48 39 37
0.146509 -4.607514 61.214931 48 38 36
0.146811 -4.484803 61.341408 47 37 36
0.146207 -4.334660 61.088974 47 37 36
0.145310 -4.177187 60.714195 47 37 36
0.145014 -4.038050 60.590290 46 37 36
0.146811 -3.955877 61.341408 47 38 37
0.147420 -3.839511 61.595940 46 37 36
0.147420 -3.706731 61.595940 46 37 36
0.148966 -3.074727 62.241596 46 39 38
0.149593 -2.952936 62.503666 48 41 40
0.149909 -2.824145 62.635532 49 43 42
0.149279 -2.677825 62.372356 51 45 43
0.150225 -2.559502 62.767956 52 45 44
0.150225 -2.424196 62.767956 52 45 45
0.149909 -2.284060 62.635532 52 45 46
0.150544 -2.158145 62.900936 52 45 47
0.150225 -2.018276 62.767956 50 42 45
0.148035 0.811157 61.852589 47 33 33
0.147115 0.938624 61.468410 47 33 33
0.147420 1.073352 61.595940 45 32 32
0.146811 1.201148 61.341408 44 32 31
0.146207 1.327892 61.088974 46 34 33
0.148966 1.487118 62.241596 46 36 35
0.149593 1.628117 62.503666 45 36 35
0.150544 1.774058 62.900936 44 35 35
0.149909 1.901594 62.635532 43 34 34
0.151184 2.053948 63.168602 43 33 34
0.151830 2.199477 63.438553 43 33 34
0.152810 2.351302 63.847832 43 35 35
0.151830 2.472982 63.438553 45 35 36
0.151184 2.598629 63.168602 46 36 37
0.151507 2.740630 63.303288 46 37 37
0.151830 2.883238 63.438553 46 37 37
0.152156 3.026457 63.574394 45 37 36
0.151507 3.150012 63.303288 44 36 35
0.153139 3.459818 63.985435 43 34 35
0.153470 3.605519 64.123634 42 34 35
0.152810 3.727646 63.847832 43 35 36
0.153139 3.873611 63.985435 44 36 38
0.165633 8.963532 69.205696 34 30 27
0.165633 9.112717 69.205696 34 29 26
0.163725 9.155197 68.408394 33 29 25
0.164103 12.280267 68.566376 26 25 23
0.162230 12.286200 67.783661 27 24 23
0.161126 12.347745 67.322548 27 24 23
0.160037 12.408459 66.867661 26 24 23
0.158609 12.440526 66.270630 25 24 23
0.156858 12.444493 65.539169 25 24 23
0.117441 -6.395343 25.816732 23 21 18
0.294241 -15.047155 64.682442 27 23 21
0.294883 -14.800534 64.823669 26 22 19
0.293601 -14.597054 64.541832 25 21 18
0.292965 -14.426560 64.401825 25 20 17
0.290444 -14.164827 63.847832 25 20 17
0.457819 -19.724218 100.641502 28 23 23
0.453210 -19.310888 99.628326 29 24 24
0.456272 -19.225151 100.301491 29 24 24
0.459376 -19.138247 100.983818 29 24 24
0.457819 -18.856422 100.641502 29 24 24
0.464112 -18.675755 102.024887 28 24 23
0.462523 -18.392618 101.675484 29 24 23
0.304182 -11.807758 66.867661 32 26 25
0.302818 -11.611311 66.567810 34 27 26
0.300126 -11.365877 65.976097 36 28 27
0.296828 -11.100318 65.251083 36 29 28
0.296177 -10.935624 65.107986 36 30 28
0.295529 -10.771651 64.965523 36 31 28
0.294241 -10.585282 64.682442 37 31 29
0.294883 -10.468657 64.823669 36 31 29
0.294883 -10.328918 64.823669 36 30 30
0.294883 -10.049442 64.823669 38 31 32
0.292965 -9.845216 64.401825 39 32 33
0.214376 -6.594674 47.125782 41 35 34
0.145850 -3.519055 32.061817 48 41 39
0.144755 -3.424056 31.821266 50 42 41
0.143830 -3.334020 31.617937 52 44 43
0.296177 -6.444396 65.107986 53 45 44
0.291699 -6.208735 64.123634 53 45 44
0.286744 -5.967398 63.034485 52 44 44
0.286137 -5.819162 62.900936 52 43 43
0.284930 -5.659587 62.635532 51 42 42
0.283138 -5.489821 62.241596 50 41 41
0.282545 -5.344445 62.111385 50 40 41
0.283138 -5.221477 62.241596 50 40 40
0.283138 -5.087305 62.241596 51 40 40
0.281368 -4.922176 61.852589 51 40 40
0.280201 -4.768972 61.595940 51 40 39
0.279043 -4.617034 61.341408 50 39 37
0.279043 -4.484803 61.341408 49 39 36
0.278467 -4.343597 61.214931 48 38 36
0.276755 -4.185747 60.838612 47 38 36
0.276189 -4.046308 60.714195 46 38 36
0.278467 -3.947721 61.214931 46 38 36
0.279620 -3.831562 61.468410 46 37 36
0.280201 -3.706731 61.595940 46 37 36
0.283732 -3.081186 62.372356 46 38 38
0.284330 -2.952936 62.503666 48 40 40
0.284930 -2.824145 62.635532 49 43 41
0.284330 -2.683462 62.503666 51 45 43
0.285532 -2.559502 62.767956 52 45 44
0.286137 -2.429332 62.900936 53 46 45
0.285532 -2.288889 62.767956 54 45 47
0.286137 -2.158145 62.900936 54 45 47
0.287967 -0.261502 63.303288 53 44 45
0.284330 0.684959 62.503666 49 35 33
0.281368 0.811157 61.852589 47 34 32
0.279620 0.938624 61.468410 47 34 32
0.280783 1.075583 61.723995 46 34 32
0.279043 1.201148 61.341408 45 33 32
0.284930 1.496531 62.635532 46 35 34
0.284930 1.631552 62.635532 45 35 34
0.286137 1.774058 62.900936 44 34 34
0.285532 1.905614 62.767956 42 32 33
0.286744 2.049587 63.034485 42 32 33
0.287355 2.190118 63.168602 43 32 34
0.289821 2.346256 63.710819 44 33 34
0.288583 2.472982 63.438553 45 34 34
0.287967 2.604169 63.303288 46 36 35
0.287355 2.734799 63.168602 46 37 36
0.287967 2.877090 63.303288 46 37 36
0.288583 3.019990 63.438553 45 37 35
0.287355 3.143310 63.168602 44 36 35
0.291070 3.597749 63.985435 43 34 36
0.314817 8.963532 69.205696 35 29 26
0.315553 9.134008 69.367386 34 29 25
0.311909 9.176340 68.566376 33 28 24
0.319283 12.267980 70.187332 26 24 21
0.316292 12.302940 69.529839 26 24 22
0.310475 12.223805 68.251129 26 24 22
0.307646 12.258213 67.629250 27 24 22
0.306251 12.347745 67.322548 27 23 22
0.304868 12.436468 67.018608 26 24 23
0.301466 12.440526 66.270630 25 25 24
0.297482 12.417083 65.394806 25 25 24
0.448326 -16.996946 66.867661 22 20 20
0.448326 -16.852802 66.867661 22 20 20
0.432732 -15.014444 64.541832 25 22 19
0.433675 -14.907722 64.682442 25 22 19
0.432732 -14.736184 64.541832 25 21 19
0.429001 -14.471216 63.985435 26 21 19
0.426245 -14.241209 63.574394 26 21 19
0.423525 -14.014137 63.168602 26 22 19
0.422626 -13.848502 63.034485 27 23 19
0.661318 -19.118420 98.635353 28 24 23
0.446315 -11.754808 66.567810 31 25 24
0.443333 -11.533730 66.123032 33 27 25
0.439419 -11.290606 65.539169 35 28 26
0.435573 -11.051739 64.965523 35 29 27
0.435573 -10.911695 64.965523 36 29 28
0.434621 -10.748132 64.823669 36 30 28
0.431793 -10.539359 64.401825 36 30 28
0.430859 -10.378018 64.262428 36 30 29
0.432732 -10.284010 64.541832 37 30 30
0.432732 -10.144879 64.541832 37 30 31
0.431793 -9.984044 64.401825 38 30 32
0.429001 -9.781562 63.985435 39 31 33
0.427160 -9.602242 63.710819 40 33 34
0.315462 -6.584223 47.051098 40 34 33
0.417310 -7.636571 62.241596 45 37 37
0.402135 -7.229585 59.978268 46 39 38
0.213351 -3.424056 31.821266 50 43 43
0.211762 -3.330473 31.584301 52 44 45
0.436528 -6.444396 65.107986 54 47 46
0.430859 -6.222174 64.262428 54 46 46
0.423525 -5.980095 63.168602 54 45 46
0.422626 -5.831517 63.034485 54 45 46
0.420839 -5.671553 62.767956 53 43 44
0.419067 -5.512936 62.503666 51 41 42
0.419067 -5.378199 62.503666 50 40 41
0.418186 -5.232447 62.372356 50 39 40
0.418186 -5.097993 62.372356 51 39 40
0.416436 -4.942771 62.111385 52 40 41
0.414701 -4.788843 61.852589 53 41 41
0.412981 -4.636192 61.595940 53 42 40
0.412981 -4.503412 61.595940 52 41 39
0.411274 -4.352571 61.341408 50 40 37
0.408741 -4.194342 60.963535 48 39 37
0.407903 -4.054599 60.838612 46 39 36
0.409582 -3.939598 61.088974 45 38 36
0.411274 -3.823646 61.341408 45 38 36
0.412126 -3.699057 61.468410 45 37 36
0.418186 -3.081186 62.372356 45 38 37
0.419067 -2.952936 62.503666 47 40 38
0.419067 -2.818199 62.503666 49 42 40
0.419067 -2.683462 62.503666 50 44 42
0.420839 -2.559502 62.767956 52 45 44
0.421730 -2.429332 62.900936 53 45 45
0.420839 -2.288889 62.767956 55 45 47
0.423525 -0.397116 63.168602 57 48 52
0.423525 -0.260946 63.168602 56 46 49
0.430859 0.150120 64.262428 55 42 41
0.412981 1.073352 61.595940 48 36 34
0.411274 1.201148 61.341408 48 36 34
0.420839 1.499694 62.767956 48 37 35
0.420839 1.635001 62.767956 46 35 34
0.422626 1.777825 63.034485 44 33 33
0.421730 1.909651 62.900936 42 31 33
0.422626 2.049587 63.034485 42 31 33
0.423525 2.190118 63.168602 43 31 33
0.428079 2.351302 63.847832 43 32 33
0.426245 2.478277 63.574394 44 34 34
0.424428 2.604169 63.303288 46 36 35
0.423525 2.734799 63.168602 47 38 35
0.423525 2.870969 63.168602 47 38 35
0.425335 3.019990 63.438553 45 37 34
0.422626 3.136636 63.034485 44 36 35
0.465086 8.984475 69.367386 35 29 26
0.465086 9.134008 69.367386 34 28 25
0.458656 9.155197 68.408394 34 28 25
0.471698 12.145392 70.353653 27 24 21
0.470583 12.267980 70.187332 26 23 21
0.467269 12.331820 69.693054 26 23 21
0.459715 12.280267 68.566376 26 23 21
0.455507 12.314315 67.938766 26 23 21
0.453432 12.403998 67.629250 26 23 22
0.450354 12.464605 67.170235 26 24 22
0.446315 12.496313 66.567810 25 25 23
0.439419 12.444493 65.539169 25 25 24
0.589813 -17.064226 66.567810 23 21 21
0.593807 -17.035315 67.018608 23 20 21
0.595151 -16.929060 67.170235 22 19 20
0.569387 -14.949447 64.262428 24 21 18
0.570622 -14.843047 64.401825 24 21 19
0.569387 -14.672391 64.262428 25 21 19
0.562087 -14.347531 63.438553 25 21 20
0.557323 -13.954756 62.900936 27 23 21
0.225220 -5.310483 25.418871 27 24 20
0.433372 -9.058722 48.911438 28 23 22
0.584570 -11.650321 65.976097 31 25 23
0.580699 -11.431887 65.539169 33 26 24
0.578146 -11.240977 65.251083 34 27 25
0.574359 -11.027608 64.823669 35 28 26
0.571862 -10.840531 64.541832 35 28 27
0.570622 -10.678187 64.401825 35 29 27
0.568157 -10.493833 64.123634 36 29 27
0.564499 -10.288937 63.710819 36 29 28
0.568157 -10.217375 64.123634 37 30 30
0.568157 -10.079145 64.123634 38 30 31
0.566932 -9.919493 63.985435 39 30 33
0.564499 -9.739580 63.710819 39 31 33
0.562087 -9.561206 63.438553 40 33 34
0.415571 -6.563419 46.902435 39 32 31
0.543505 -7.526125 61.341408 45 38 36
0.530356 -7.215009 59.857342 46 40 38
0.578146 -6.599219 65.251083 55 47 46
0.576879 -6.444396 65.107986 55 47 47
0.570622 -6.235672 64.401825 56 47 48
0.560888 -5.992846 63.303288 56 47 48
0.559695 -5.843925 63.168602 55 46 47
0.557323 -5.683569 62.900936 54 45 46
0.556145 -5.536246 62.767956 53 43 44
0.554972 -5.389545 62.635532 51 41 42
0.554972 -5.254524 62.635532 50 39 41
0.554972 -5.119503 62.635532 51 39 40
0.551481 -4.953133 62.241596 52 40 41
0.549179 -4.798841 61.981716 55 43 42
0.548035 -4.655509 61.852589 56 44 43
0.548035 -4.522176 61.852589 54 43 41
0.545761 -4.370632 61.595940 51 41 38
0.541269 -4.202972 61.088974 49 39 37
0.540157 -4.062925 60.963535 47 39 37
0.542385 -3.947721 61.214931 46 39 36
0.543505 -3.823646 61.341408 46 39 37
0.543505 -3.691414 61.341408 46 38 37
0.543505 -3.559183 61.341408 45 38 37
0.549179 -3.329112 61.981716 42 35 33
0.550328 -3.202185 62.111385 42 34 34
0.551481 -3.074727 62.241596 44 37 36
0.552640 -2.946732 62.372356 47 40 38
0.553803 -2.818199 62.503666 49 42 40
0.553803 -2.683462 62.503666 51 44 42
0.557323 -2.564925 62.900936 53 45 44
0.557323 -2.429332 62.900936 54 46 45
0.556145 -2.288889 62.767956 55 46 46
0.556145 -2.153583 62.767956 56 46 47
0.559695 -0.397116 63.168602 60 50 55
0.559695 -0.260946 63.168602 58 48 52
0.560888 -0.125042 63.303288 57 46 49
0.563290 0.011468 63.574394 57 45 46
0.565713 0.149152 63.847832 57 44 43
0.558507 1.777825 63.034485 45 33 33
0.557323 1.909651 62.900936 44 32 32
0.558507 2.049587 63.034485 43 31 32
0.559695 2.190118 63.168602 42 31 32
0.566932 2.356369 63.985435 43 32 33
0.564499 2.483595 63.710819 45 34 34
0.562087 2.609734 63.438553 46 36 35
0.623357 12.145392 70.353653 27 23 22
0.623357 12.297050 70.353653 27 23 21
0.618957 12.360836 69.857040 26 23 21
0.611760 12.365943 69.044746 25 23 20
0.606121 12.399437 68.408394 25 23 21
0.601960 12.460768 67.938766 25 23 21
0.597856 12.521262 67.475548 25 24 22
0.593807 12.580937 67.018608 25 24 23
0.587180 12.583383 66.270630 26 25 23
0.733311 -17.064226 66.567810 23 20 21
0.741625 -17.112572 67.322548 23 20 20
0.739947 -16.929060 67.170235 22 19 19
0.738277 -16.746376 67.018608 22 20 18
0.700335 -14.789389 63.574394 24 21 19
0.280014 -5.310483 25.418871 27 24 21
0.471263 -8.476433 42.779888 26 22 20
0.467892 -8.324241 42.473881 26 22 21
0.465893 -8.197499 42.292366 27 22 21
0.721979 -11.573167 65.539169 31 25 23
0.718806 -11.381637 65.251083 32 25 24
0.715660 -11.191782 64.965523 34 26 25
0.709450 -10.955845 64.401825 34 27 26
0.706386 -10.770290 64.123634 34 28 26
0.703348 -10.586332 63.847832 35 28 27
0.701838 -10.426276 63.710819 36 28 27
0.698839 -10.244967 63.438553 36 29 28
0.701838 -10.151598 63.710819 36 29 29
0.703348 -10.035794 63.847832 37 29 31
0.700335 -9.855770 63.574394 38 30 32
0.700335 -9.718725 63.574394 39 31 33
0.697349 -9.540820 63.303288 40 33 33
0.695865 -8.567328 63.168602 41 32 32
0.694388 -8.413258 63.034485 42 33 32
0.681368 -7.988843 61.852589 44 35 34
0.652808 -7.143003 59.259964 46 40 37
0.641288 -6.891460 58.214199 48 41 39
0.714097 -6.555993 64.823669 56 46 47
0.715660 -6.430295 64.965523 57 47 48
0.707915 -6.222174 64.262428 58 47 48
0.697349 -5.992846 63.303288 57 47 48
0.695865 -5.843925 63.168602 56 47 48
0.694388 -5.695636 63.034485 55 46 47
0.692917 -5.547976 62.900936 54 44 46
0.692917 -5.412383 62.900936 52 42 44
0.691452 -5.265633 62.767956 50 39 41
0.691452 -5.130327 62.767956 50 39 40
0.687094 -4.963539 62.372356 52 40 41
0.682790 -4.798841 61.981716 54 42 43
0.681368 -4.655509 61.852589 55 43 43
0.682790 -4.531617 61.981716 54 42 41
0.679951 -4.379718 61.723995 52 41 39
0.674344 -4.211638 61.214931 50 39 38
0.672956 -4.071285 61.088974 48 39 37
0.674344 -3.947721 61.214931 46 39 37
0.675737 -3.823646 61.341408 46 39 37
0.675737 -3.691414 61.341408 47 39 38
0.675737 -3.559183 61.341408 47 39 39
0.678541 -3.441171 61.595940 45 38 37
0.681368 -3.322176 61.852589 43 36 35
0.684219 -3.202185 62.111385 42 35 34
0.685653 -3.074727 62.241596 45 37 36
0.687094 -2.946732 62.372356 49 41 39
0.688540 -2.818199 62.503666 51 42 41
0.688540 -2.683462 62.503666 52 44 43
0.692917 -2.564925 62.900936 54 45 44
0.692917 -2.429332 62.900936 55 46 46
0.691452 -2.288889 62.767956 57 47 48
0.691452 -2.153583 62.767956 58 48 49
0.694388 -0.668035 63.034485 71 58 67
0.695865 -0.533286 63.168602 66 54 61
0.697349 -0.397963 63.303288 62 51 57
0.695865 -0.260946 63.168602 60 49 54
0.697349 -0.125042 63.303288 58 47 50
0.703348 0.011517 63.847832 57 46 47
0.703348 0.149152 63.847832 57 45 45
0.692917 0.418126 62.900936 56 45 41
0.780565 12.079607 70.857384 28 24 23
0.776857 12.174241 70.520767 28 24 22
0.776857 12.326260 70.520767 28 23 22
0.771360 12.389989 70.021797 27 23 22
0.765941 12.452823 69.529839 26 23 21
0.758832 12.485744 68.884552 25 23 21
0.751854 12.518059 68.251129 24 23 22
0.746705 12.578437 67.783661 25 23 22
0.743311 12.666717 67.475548 25 24 23
0.738277 12.725408 67.018608 26 24 23
0.884744 -16.929060 67.170235 21 19 18
0.334236 -5.301405 25.375422 27 23 21
0.561863 -8.452075 42.656956 25 22 19
0.558652 -8.312349 42.413204 26 22 20
0.557061 -8.197499 42.292366 27 22 21
0.850123 -11.118793 64.541832 33 26 25
0.840982 -10.861601 63.847832 34 27 26
0.837380 -10.678040 63.574394 34 27 26
0.833809 -10.496044 63.303288 34 27 27
0.833809 -10.359583 63.303288 35 28 27
0.833809 -10.086662 63.303288 35 28 29
0.837380 -9.992815 63.574394 36 29 30
0.835591 -9.834710 63.438553 38 30 32
0.833809 -9.677280 63.303288 39 32 33
0.830269 -9.500307 63.034485 40 33 34
0.833809 -8.722056 63.303288 39 29 30
0.830269 -8.549139 63.034485 41 31 32
0.826758 -8.377684 62.767956 43 33 33
0.818110 -8.156160 62.111385 45 34 34
0.802991 -7.874013 60.963535 46 36 35
0.798075 -7.695193 60.590290 46 37 36
0.794831 -7.533830 60.343987 46 38 36
0.780552 -7.143003 59.259964 48 40 38
0.768284 -6.904999 58.328571 49 41 38
0.753481 -6.648641 57.204704 49 42 39
0.768284 -6.527789 58.328571 51 43 41
0.760811 -6.339776 57.761173 52 43 41
0.848279 -6.513329 64.401825 57 46 46
0.850123 -6.388358 64.541832 58 46 47
0.840982 -6.182031 63.847832 58 47 48
0.832035 -5.980095 63.168602 57 47 48
0.830269 -5.831517 63.034485 57 46 48
0.830269 -5.695636 63.034485 56 46 48
0.830269 -5.559755 63.034485 54 44 47
0.828510 -5.412383 62.900936 53 43 45
0.826758 -5.265633 62.767956 51 41 42
0.826758 -5.130327 62.767956 51 40 41
0.823277 -4.973989 62.503666 52 41 42
0.818110 -4.808880 62.111385 53 42 42
0.816402 -4.665229 61.981716 53 42 42
0.816402 -4.531617 61.981716 53 41 41
0.814701 -4.388843 61.852589 52 40 40
0.809641 -4.229078 61.468410 50 40 38
0.806302 -4.079679 61.214931 48 39 38
0.807968 -3.955877 61.341408 47 38 38
0.809641 -3.831562 61.468410 47 39 38
0.809641 -3.699057 61.468410 47 40 39
0.807968 -3.559183 61.341408 48 40 40
0.811321 -3.441171 61.595940 47 39 39
0.814701 -3.322176 61.852589 46 38 38
0.818110 -3.202185 62.111385 46 38 37
0.819825 -3.074727 62.241596 48 40 39
0.819825 -2.940555 62.241596 52 44 42
0.821548 -2.812279 62.372356 54 45 43
0.821548 -2.677825 62.372356 54 45 44
0.826758 -2.559502 62.767956 56 47 45
0.828510 -2.429332 62.900936 58 49 48
0.825014 -2.284060 62.635532 60 51 51
0.826758 -2.153583 62.767956 62 53 53
0.826758 -2.018276 62.767956 64 54 55
0.830269 -0.803916 63.034485 73 59 67
0.828510 -0.666620 62.900936 74 60 68
0.830269 -0.532154 63.034485 71 58 64
0.832035 -0.397116 63.168602 66 53 58
0.830269 -0.260392 63.034485 62 51 54
0.832035 -0.124776 63.168602 59 48 50
0.833809 0.011419 63.303288 58 47 47
0.832035 0.147565 63.168602 58 46 45
0.825014 0.281341 62.635532 58 46 44
0.825014 0.416362 62.635532 57 46 43
0.823277 0.550222 62.503666 56 46 42
0.818110 0.680660 62.111385 55 45 41
0.813008 0.809471 61.723995 54 43 40
0.933309 12.079607 70.857384 29 24 24
0.928876 12.174241 70.520767 28 24 24
0.928876 12.326260 70.520767 28 23 23
0.922303 12.389989 70.021797 27 23 23
0.915824 12.452823 69.529839 26 23 22
0.909434 12.514780 69.044746 25 23 21
0.901052 12.546902 68.408394 24 23 22
0.896919 12.636136 68.094589 25 23 22
0.890790 12.695571 67.629250 26 24 22
0.884744 12.754198 67.170235 26 24 23
0.500072 7.863626 37.965782 23 23 21
0.425684 -6.760191 27.772911 24 21 19
0.424098 -6.675344 27.669378 25 22 20
0.391278 -5.388344 25.528152 27 23 22
0.388605 -5.296878 25.353750 27 23 21
0.653817 -8.452075 42.656956 26 22 18
0.650081 -8.312349 42.413204 27 23 19
0.648229 -8.197499 42.292366 28 23 20
0.655701 -8.015338 42.779888 29 23 23
0.651011 -7.866444 42.473881 29 24 23
0.970270 -10.632504 63.303288 33 27 27
0.968206 -10.473712 63.168602 34 27 27
0.968206 -10.337542 63.168602 34 27 28
0.972343 -9.971462 63.438553 36 29 30
0.970270 -9.813741 63.303288 37 30 32
0.968206 -9.656691 63.168602 39 32 33
0.966150 -8.685020 63.034485 39 29 30
0.962065 -8.512991 62.767956 42 31 32
0.956001 -8.324883 62.372356 45 33 34
0.946064 -8.105290 61.723995 46 35 35
0.936331 -7.890215 61.088974 48 37 36
0.930586 -7.710929 60.714195 48 38 37
0.928687 -7.564580 60.590290 49 40 38
0.932493 -7.464436 60.838612 49 40 38
0.919306 -7.229585 59.978268 50 40 38
0.899321 -6.945938 58.674393 50 41 38
0.982844 -6.623422 64.123634 55 44 43
0.980726 -6.471217 63.985435 56 45 45
0.980726 -6.333286 63.985435 57 45 46
0.972343 -6.142403 63.438553 57 46 47
0.966150 -5.967398 63.034485 57 46 47
0.964103 -5.819162 62.900936 56 45 47
0.964103 -5.683569 62.900936 56 45 47
0.964103 -5.547976 62.900936 55 44 46
0.964103 -5.412383 62.900936 54 43 45
0.962065 -5.265633 62.767956 53 42 43
0.964103 -5.141196 62.900936 52 42 43
0.958014 -4.973989 62.503666 52 42 43
0.953997 -4.818961 62.241596 54 43 44
0.952001 -4.674989 62.111385 54 43 44
0.952001 -4.541097 62.111385 54 43 43
0.952001 -4.407206 62.111385 52 41 41
0.946064 -4.246662 61.723995 50 40 39
0.940200 -4.088109 61.341408 49 39 38
0.944101 -3.972291 61.595940 48 38 38
0.944101 -3.839511 61.595940 48 39 39
0.944101 -3.706731 61.595940 49 40 40
0.940200 -3.559183 61.341408 50 40 41
0.944101 -3.441171 61.595940 50 41 42
0.948035 -3.322176 61.852589 50 41 41
0.950014 -3.195500 61.981716 50 41 41
0.952001 -3.068294 62.111385 53 44 43
0.952001 -2.934403 62.111385 58 48 46
0.953997 -2.806383 62.241596 58 49 46
0.953997 -2.672211 62.241596 57 48 46
0.960035 -2.554102 62.635532 57 48 46
0.964103 -2.429332 62.900936 60 51 49
0.958014 -2.279252 62.503666 64 55 54
0.960035 -2.149039 62.635532 68 57 58
0.960035 -2.014018 62.635532 70 60 61
0.958014 -0.931883 62.503666 75 58 63
0.964103 -0.802213 62.900936 76 60 66
0.964103 -0.666620 62.900936 79 64 69
0.962065 -0.529904 62.767956 76 62 67
0.966150 -0.396273 63.034485 68 55 59
0.964103 -0.259840 62.900936 63 51 54
0.966150 -0.124511 63.034485 60 48 50
0.964103 0.011346 62.900936 59 48 48
0.962065 0.146629 62.767956 58 47 46
0.956001 0.280159 62.372356 57 47 45
0.953997 0.413743 62.241596 56 47 45
0.956001 0.549066 62.372356 56 46 44
0.952001 0.680660 62.111385 55 44 42
0.952001 0.814551 62.111385 54 43 40
0.946064 0.942527 61.723995 53 41 39
1.278249 5.767852 83.396751 46 39 40
1.260545 5.865251 82.241669 46 38 40
1.078333 12.145392 70.353653 29 24 24
1.080895 12.326260 70.520767 28 23 23
1.070722 12.360836 69.857040 27 24 23
1.065706 12.452823 69.529839 26 23 22
1.058271 12.514780 69.044746 25 23 21
1.050939 12.575879 68.566376 24 23 21
1.046107 12.665185 68.251129 23 22 21
1.036575 12.695571 67.629250 25 23 21
1.027216 12.725408 67.018608 25 23 22
0.462205 -5.865222 26.437437 26 24 24
0.460974 -5.792757 26.367001 27 24 25
0.458531 -5.705516 26.227245 28 24 25
0.446692 -5.392982 25.550123 27 23 22
0.443638 -5.301405 25.375422 27 23 22
0.742570 -8.324241 42.473881 27 23 19
0.740452 -8.209193 42.352699 28 23 20
0.742570 -8.141123 42.473881 28 23 21
0.747920 -8.015338 42.779888 30 24 23
0.743634 -7.877714 42.534733 30 25 24
0.738345 -7.730647 42.232208 30 25 24
1.097371 -8.918910 62.767956 38 30 32
1.095056 -8.765073 62.635532 39 30 32
1.097371 -8.648297 62.767956 41 30 33
1.095056 -8.495030 62.635532 43 32 34
1.090455 -8.324883 62.372356 45 34 35
1.083626 -8.139132 61.981716 47 35 36
1.072431 -7.922819 61.341408 49 37 37
1.068018 -7.758528 61.088974 50 39 38
1.068018 -7.626841 61.088974 50 40 39
1.074651 -7.541707 61.468410 50 41 39
1.061466 -7.318292 60.714195 51 41 39
1.116251 -6.594934 63.847832 55 44 43
1.113855 -6.443443 63.710819 56 45 44
1.113855 -6.306104 63.710819 56 44 45
1.106731 -6.129306 63.303288 56 44 46
1.099696 -5.954755 62.900936 56 44 47
1.097371 -5.806859 62.767956 56 44 47
1.099696 -5.683569 62.900936 56 44 47
1.099696 -5.547976 62.900936 56 44 47
1.099696 -5.412383 62.900936 55 43 45
1.097371 -5.265633 62.767956 55 43 45
1.097371 -5.130327 62.767956 55 43 44
1.095056 -4.984482 62.635532 55 44 45
1.090455 -4.829085 62.372356 57 45 46
1.088169 -4.684789 62.241596 58 46 47
1.088169 -4.550618 62.241596 57 46 46
1.090455 -4.425724 62.372356 54 43 43
1.083626 -4.264394 61.981716 52 41 41
1.076881 -4.105072 61.595940 51 40 40
1.079120 -3.980550 61.723995 50 39 40
1.081368 -3.855510 61.852589 51 40 41
1.079120 -3.714438 61.723995 52 41 42
1.074651 -3.566552 61.468410 54 43 44
1.076881 -3.441171 61.595940 55 44 45
1.079120 -3.315269 61.723995 56 45 46
1.081368 -3.188843 61.852589 56 45 46
1.083626 -3.061888 61.981716 59 48 48
1.083626 -2.928277 61.981716 61 51 50
1.085893 -2.800512 62.111385 61 52 49
1.088169 -2.672211 62.241596 59 50 47
1.092751 -2.548725 62.503666 59 50 47
1.099696 -2.429332 62.900936 61 52 50
1.095056 -2.284060 62.635532 68 57 57
1.095056 -2.149039 62.635532 72 60 61
1.097371 -2.018276 62.767956 74 62 63
1.092751 -0.931883 62.503666 77 61 65
1.099696 -0.802213 62.900936 77 62 65
1.097371 -0.665210 62.767956 79 64 67
1.097371 -0.529904 62.767956 76 61 64
1.102031 -0.396273 63.034485 69 55 58
1.097371 -0.259291 62.767956 64 51 53
1.099696 -0.124247 62.900936 61 49 49
1.097371 0.011322 62.767956 59 48 48
1.095056 0.146320 62.635532 57 47 46
1.085893 0.278986 62.111385 56 47 45
1.083626 0.412016 61.981716 55 46 45
1.090455 0.549066 62.372356 55 45 44
1.088169 0.682087 62.241596 55 43 42
1.088169 0.816259 62.241596 54 42 41
1.458024 5.767852 83.396751 47 39 40
1.433858 5.849048 82.014481 47 38 40
1.161201 5.023167 66.418884 47 37 38
1.163804 5.177927 66.567810 47 36 38
1.171685 5.357461 67.018608 47 36 37
1.229992 12.145392 70.353653 29 24 24
1.232914 12.326260 70.520767 28 24 23
1.224190 12.389989 70.021797 27 24 23
1.218443 12.482055 69.693054 25 23 22
1.207108 12.514780 69.044746 24 22 21
1.207108 12.663617 69.044746 23 22 20
1.201520 12.753138 68.725098 23 22 20
1.156028 12.555357 66.123032 24 23 21
0.519196 -5.922213 26.437437 25 23 23
0.518734 -5.860004 26.413916 26 24 24
0.517812 -5.792757 26.367001 27 24 24
0.515979 -5.715615 26.273666 28 24 25
0.500049 -5.319592 25.462471 28 24 23
0.837725 -8.452075 42.656956 28 24 19
0.834130 -8.324241 42.473881 28 24 19
0.831750 -8.209193 42.352699 28 24 19
0.832938 -8.129492 42.413204 29 24 20
0.840139 -8.015338 42.779888 32 26 23
0.836523 -7.889017 42.595757 31 26 24
0.829384 -7.730647 42.232208 31 26 24
0.742747 -6.515471 37.820690 32 28 26
1.232678 -8.918910 62.767956 38 30 32
1.227488 -8.746620 62.503666 40 30 33
1.230077 -8.630052 62.635532 41 31 34
1.227488 -8.477146 62.503666 43 32 34
1.224909 -8.324883 62.372356 45 34 34
1.222341 -8.173259 62.241596 47 36 35
1.212176 -7.972234 61.723995 49 38 37
1.207157 -7.806717 61.468410 51 39 38
1.209661 -7.690134 61.595940 51 41 40
1.217237 -7.604686 61.981716 52 41 40
1.202179 -7.378648 61.214931 52 42 40
1.209661 -7.291794 61.595940 52 41 40
1.245847 -6.415907 63.438553 56 45 44
1.245847 -6.279155 63.438553 55 44 45
1.243191 -6.129306 63.303288 56 45 46
1.235289 -5.954755 62.900936 56 44 47
1.232678 -5.806859 62.767956 57 45 48
1.235289 -5.683569 62.900936 56 45 48
1.232678 -5.536246 62.767956 56 45 48
1.232678 -5.400940 62.767956 57 44 47
1.232678 -5.265633 62.767956 57 45 47
1.232678 -5.130327 62.767956 59 46 47
1.230077 -4.984482 62.635532 60 48 48
1.224909 -4.829085 62.372356 61 48 49
1.222341 -4.684789 62.241596 61 49 49
1.222341 -4.550618 62.241596 60 49 49
1.224909 -4.425724 62.372356 57 46 46
1.219784 -4.273315 62.111385 54 43 43
1.212176 -4.113606 61.723995 54 42 43
1.214701 -3.988843 61.852589 53 41 43
1.217237 -3.863559 61.981716 54 42 43
1.212176 -3.714438 61.723995 56 44 45
1.207157 -3.566552 61.468410 58 46 48
1.209661 -3.441171 61.595940 60 48 50
1.212176 -3.315269 61.723995 62 49 52
1.214701 -3.188843 61.852589 62 50 52
1.217237 -3.061888 61.981716 63 51 52
1.214701 -2.922176 61.852589 63 52 52
1.217237 -2.794665 61.981716 62 52 50
1.219784 -2.666620 62.111385 61 52 49
1.224909 -2.543371 62.372356 60 51 48
1.235289 -2.429332 62.900936 64 54 51
1.232678 -2.288889 62.767956 71 59 58
1.232678 -2.153583 62.767956 76 63 63
1.235289 -2.022552 62.900936 78 64 64
1.227488 -0.931883 62.503666 79 62 67
1.232678 -0.800517 62.767956 78 62 66
1.232678 -0.665210 62.767956 78 62 64
1.230077 -0.528786 62.635532 74 59 61
1.235289 -0.395433 62.900936 68 55 57
1.230077 -0.258744 62.635532 64 52 53
1.232678 -0.123984 62.767956 61 49 49
1.232678 0.011322 62.767956 59 48 48
1.230077 0.146320 62.635532 57 47 47
1.219784 0.278986 62.111385 55 46 45
1.217237 0.412016 61.981716 54 45 45
1.227488 0.550222 62.503666 53 44 44
1.224909 0.683520 62.372356 54 42 42
1.227488 0.819696 62.503666 54 41 41
1.214701 0.944491 61.852589 53 41 40
1.628650 5.735630 82.930847 47 39 39
1.606217 5.832935 81.788544 47 38 38
1.281443 4.934847 65.251083 47 37 38
1.284266 5.086686 65.394806 47 37 37
1.289948 5.250786 65.684166 47 37 37
1.295681 5.416346 65.976097 47 37 37
1.381651 12.297050 70.353653 29 25 24
1.375134 12.389989 70.021797 28 25 24
1.368678 12.482055 69.693054 27 24 22
1.359106 12.543952 69.205696 25 23 21
1.365472 12.752589 69.529839 24 22 21
1.362282 12.872326 69.367386 24 21 21
1.331179 12.724556 67.783661 24 22 21
1.307302 12.639811 66.567810 24 22 21
0.575673 -5.916944 26.413916 26 23 22
0.575673 -5.860004 26.413916 26 23 23
0.574141 -5.787617 26.343605 27 23 23
0.572617 -5.715615 26.273666 27 23 23
0.567594 -5.609337 26.043196 26 23 23
0.931017 -8.464236 42.718334 29 25 21
0.925689 -8.324241 42.473881 30 25 20
0.921733 -8.197499 42.292366 30 26 20
0.923048 -8.117895 42.352699 31 26 20
0.936406 -8.050137 42.965618 32 27 23
0.928345 -7.889017 42.595757 32 27 23
0.920422 -7.730647 42.232208 32 27 24
0.827438 -6.540466 37.965782 33 29 26
1.365098 -8.900094 62.635532 39 31 33
1.359363 -8.728245 62.372356 41 32 34
1.359363 -8.593791 62.372356 42 32 34
1.356513 -8.441603 62.241596 43 32 33
1.359363 -8.324883 62.372356 45 34 34
1.353675 -8.156160 62.111385 47 36 36
1.345232 -7.972234 61.723995 50 38 38
1.339662 -7.806717 61.468410 51 41 39
1.348035 -7.722176 61.852589 52 42 40
1.353675 -7.620595 62.111385 52 42 41
1.342441 -7.424574 61.595940 52 42 41
1.356513 -7.368227 62.241596 52 42 40
1.376716 -6.116265 63.168602 56 44 46
1.367984 -5.942166 62.767956 57 44 47
1.367984 -5.806859 62.767956 57 45 48
1.367984 -5.671553 62.767956 57 45 49
1.367984 -5.536246 62.767956 58 46 49
1.367984 -5.400940 62.767956 60 47 50
1.367984 -5.265633 62.767956 62 49 51
1.367984 -5.130327 62.767956 65 52 52
1.365098 -4.984482 62.635532 66 53 54
1.359363 -4.829085 62.372356 65 53 53
1.359363 -4.694632 62.372356 63 51 51
1.359363 -4.560178 62.372356 61 50 50
1.362224 -4.435041 62.503666 60 48 49
1.356513 -4.282274 62.241596 58 46 48
1.348035 -4.122176 61.852589 57 45 47
1.353675 -4.005532 62.111385 57 45 47
1.353675 -3.871641 62.111385 58 45 48
1.348035 -3.722176 61.852589 60 48 51
1.342441 -3.573951 61.595940 64 51 55
1.342441 -3.441171 61.595940 67 53 57
1.345232 -3.315269 61.723995 67 55 58
1.348035 -3.188843 61.852589 67 55 58
1.350849 -3.061888 61.981716 65 53 55
1.345232 -2.916101 61.723995 63 52 53
1.350849 -2.794665 61.981716 63 53 51
1.350849 -2.661053 61.981716 63 53 51
1.356513 -2.538039 62.241596 64 54 51
1.370883 -2.429332 62.900936 68 57 53
1.367984 -2.288889 62.767956 75 62 59
1.370883 -2.158145 62.900936 80 66 63
1.370883 -2.022552 62.900936 82 66 65
1.362224 -0.258199 62.503666 65 52 53
1.365098 -0.123723 62.635532 62 50 50
1.365098 0.011298 62.635532 60 49 49
1.365098 0.146320 62.635532 58 48 47
1.356513 0.279571 62.241596 56 46 46
1.353675 0.412878 62.111385 55 44 45
1.362224 0.550222 62.503666 54 43 44
1.362224 0.684959 62.503666 54 42 43
1.365098 0.821425 62.635532 53 41 42
1.359363 0.952427 62.372356 53 41 40
1.767914 5.785124 81.118149 47 37 37
1.409709 4.891842 64.682442 47 36 37
1.409709 5.031276 64.682442 47 37 37
1.409709 5.170709 64.682442 47 37 37
1.422102 5.356825 65.251083 47 38 37
1.529685 12.267980 70.187332 29 25 24
1.522486 12.360836 69.857040 29 25 24
1.518912 12.482055 69.693054 28 24 23
1.515355 12.602706 69.529839 27 23 22
1.518912 12.782524 69.693054 26 22 21
1.518912 12.932759 69.693054 25 21 21
1.490914 12.841833 68.408394 24 21 21
0.632050 -5.911684 26.390438 26 23 22
0.632050 -5.854795 26.390438 26 23 22
0.630929 -5.787617 26.343605 26 23 22
0.629254 -5.715615 26.273666 26 23 22
1.024577 -8.476433 42.779888 30 26 22
1.017248 -8.324241 42.473881 31 26 21
1.023103 -7.911719 42.718334 32 27 24
1.012901 -7.741659 42.292366 32 28 24
0.982122 -7.329619 41.007240 33 28 26
1.503291 -9.054216 62.767956 40 32 33
1.496961 -8.881357 62.503666 41 32 34
1.490685 -8.709947 62.241596 42 33 34
1.490685 -8.575775 62.241596 43 33 34
1.487566 -8.423943 62.111385 44 33 33
1.490685 -8.307431 62.241596 45 34 34
1.487566 -8.156160 62.111385 47 37 36
1.478288 -7.972234 61.723995 50 39 38
1.475221 -7.822914 61.595940 52 42 40
1.478288 -7.706122 61.723995 53 43 41
1.484461 -7.604686 61.981716 53 43 42
1.478288 -7.440010 61.723995 53 43 42
1.487566 -7.352813 62.111385 52 42 40
1.493816 -7.249253 62.372356 52 41 39
1.506476 -6.090349 62.900936 57 45 46
1.490685 -5.892336 62.241596 58 45 48
1.496961 -5.782410 62.503666 58 45 49
1.500119 -5.659587 62.635532 59 46 50
1.500119 -5.524567 62.635532 61 47 51
1.500119 -5.389545 62.635532 64 50 53
1.500119 -5.254524 62.635532 68 53 55
1.503291 -5.130327 62.767956 71 57 58
1.500119 -4.984482 62.635532 73 58 59
1.493816 -4.829085 62.372356 70 56 56
1.490685 -4.684789 62.241596 65 52 53
1.493816 -4.560178 62.372356 63 51 51
1.496961 -4.435041 62.503666 62 50 50
1.490685 -4.282274 62.241596 61 49 50
1.484461 -4.130782 61.981716 60 48 50
1.487566 -4.005532 62.111385 60 48 51
1.487566 -3.871641 62.111385 61 49 53
1.484461 -3.729947 61.981716 66 53 57
1.475221 -3.573951 61.595940 71 58 63
1.478288 -3.448325 61.723995 74 61 66
1.478288 -3.315269 61.723995 74 61 66
1.484461 -3.195500 61.981716 72 60 63
1.484461 -3.061888 61.981716 68 57 59
1.478288 -2.916101 61.723995 65 54 55
1.484461 -2.794665 61.981716 65 55 54
1.484461 -2.661053 61.981716 67 56 54
1.490685 -2.538039 62.241596 68 58 54
1.506476 -2.429332 62.900936 72 61 56
1.506476 -2.293738 62.900936 77 65 60
1.509674 -2.162727 63.034485 80 67 62
1.509674 -2.026846 63.034485 83 68 66
1.493816 -0.257657 62.372356 67 54 54
1.496961 -0.123462 62.503666 63 51 51
1.500119 0.011298 62.635532 61 51 50
1.500119 0.146320 62.635532 60 50 49
1.493816 0.280159 62.372356 58 47 47
1.490685 0.413743 62.241596 56 45 46
1.500119 0.551383 62.635532 55 43 44
1.496961 0.684959 62.503666 54 42 43
1.503291 0.823162 62.767956 53 42 42
1.500119 0.956446 62.635532 53 41 41
1.942778 5.785124 81.118149 47 37 36
1.539084 4.860077 64.262428 47 37 36
1.529154 4.966356 63.847832 48 37 36
1.525873 5.093038 63.710819 48 38 37
1.549143 5.310143 64.682442 47 38 38
1.451136 9.153787 60.590290 34 28 25
1.669147 12.331820 69.693054 29 24 23
1.665238 12.452823 69.529839 28 24 22
1.661347 12.573260 69.367386 27 23 22
1.673074 12.812601 69.857040 26 22 21
0.692015 -5.995218 26.508251 27 23 21
0.689552 -5.916944 26.413916 27 23 22
0.689552 -5.860004 26.413916 27 23 22
0.687717 -5.787617 26.343605 26 23 22
1.070520 -7.329619 41.007240 32 28 26
1.628270 -8.862699 62.372356 42 33 34
1.621457 -8.691725 62.111385 44 34 35
1.621457 -8.557834 62.111385 45 34 35
1.618072 -8.406356 61.981716 44 34 34
1.621457 -8.290051 62.111385 45 35 35
1.618072 -8.139132 61.981716 47 38 37
1.608001 -7.955694 61.595940 50 40 39
1.604672 -7.806717 61.468410 52 43 42
1.611344 -7.706122 61.723995 53 44 43
1.618072 -7.604686 61.981716 54 44 43
1.614701 -7.455510 61.852589 53 43 42
1.618072 -7.337462 61.981716 52 42 40
1.624857 -7.234056 62.241596 51 41 38
1.598055 -6.191020 61.214931 55 46 45
1.611344 -5.976392 61.723995 58 46 47
1.614701 -5.855509 61.852589 59 46 48
1.624857 -5.758164 62.241596 60 46 50
1.631698 -5.647673 62.503666 61 47 51
1.628270 -5.501354 62.372356 64 48 52
1.631698 -5.378199 62.503666 67 52 54
1.631698 -5.243462 62.503666 72 56 58
1.635141 -5.119503 62.635532 76 60 62
1.635141 -4.984482 62.635532 75 60 61
1.628270 -4.829085 62.372356 70 56 57
1.624857 -4.684789 62.241596 66 53 54
1.624857 -4.550618 62.241596 65 52 53
1.631698 -4.435041 62.503666 63 51 52
1.624857 -4.282274 62.241596 62 51 52
