ply
format ascii 1.0
element vertex 1161
property float x
property float y
property float z
property uchar red
property uchar green
property uchar blue
end_header
-10.013360 -10.363904 80.241196 160 143 148
-10.013360 -10.190931 80.241196 159 141 146
-10.040497 -10.045107 80.458649 155 136 141
-10.067780 -9.898491 80.677292 151 130 136
-10.040497 -9.698224 80.458649 146 125 131
-9.986370 -9.473435 80.024910 142 120 127
-9.959525 -9.275927 79.809792 138 116 124
-9.959525 -9.103883 79.809792 134 113 121
-9.932824 -8.907894 79.595825 132 111 119
-9.959525 -8.759797 79.809792 130 111 119
-9.959525 -8.587754 79.809792 130 112 120
-9.959525 -8.415711 79.809792 130 114 122
-9.959525 -8.243669 79.809792 131 118 124
-9.932824 -8.049985 79.595825 134 122 128
-9.906265 -7.857338 79.383003 137 128 132
-9.906265 -7.686215 79.383003 140 131 134
-9.906265 -7.515092 79.383003 143 134 137
-9.853573 -7.304906 78.960747 146 137 140
-9.827435 -7.115768 78.751305 149 141 143
-9.853573 -6.964480 78.960747 153 145 148
-9.853573 -6.794267 78.960747 156 149 153
-9.879849 -6.641719 79.171310 158 152 158
-9.906265 -6.488354 79.383003 161 155 162
-9.879849 -6.300385 79.171310 164 159 167
-9.827435 -6.097200 78.751305 167 161 169
-9.801437 -5.911758 78.542969 167 161 169
-9.801437 -5.742446 78.542969 166 159 167
-9.749851 -5.543801 78.129585 165 155 165
-9.724260 -5.361272 77.924522 160 147 159
-9.573497 -4.451278 76.716385 137 113 126
-9.548823 -4.274857 76.518669 137 113 126
-9.524276 -4.099343 76.321960 138 114 126
-9.524276 -3.934819 76.321960 140 117 127
-9.524276 -3.770294 76.321960 142 120 130
-9.451386 -3.578175 75.737862 144 123 133
-9.451386 -3.414910 75.737862 147 127 136
-9.499855 -3.268319 76.126259 149 129 139
-9.475558 -3.096277 75.931564 150 131 140
-9.403410 -2.910265 75.353409 152 134 141
-9.379603 -2.740872 75.162636 153 136 143
-9.475558 -2.605229 75.931564 154 138 144
-9.524276 -2.454099 76.321960 155 141 145
-9.648290 -2.319387 77.315735 156 143 146
-9.623230 -2.147129 77.114914 158 145 147
-9.648290 -1.986053 77.315735 159 147 148
-9.648290 -1.819387 77.315735 161 149 149
-9.573497 -1.639908 76.716385 163 150 149
-9.573497 -1.474534 76.716385 165 152 151
-9.573497 -1.309159 76.716385 168 154 153
-9.548823 -1.140836 76.518669 170 155 154
-9.475558 -0.968400 75.931564 171 155 156
-9.403410 -0.798590 75.353409 171 155 156
-9.262359 -0.306611 74.223106 169 152 158
-9.262359 -0.146611 74.223106 168 152 158
-9.262359 0.013389 74.223106 168 152 158
-9.216277 0.172526 73.853836 166 153 158
-9.216277 0.331730 73.853836 165 153 157
-9.170651 0.488504 73.488220 164 155 157
-9.125476 0.643733 73.126213 166 157 158
-9.080744 0.797440 72.767754 169 159 161
-9.058541 0.951969 72.589836 171 159 162
-9.058541 1.108449 72.589836 171 159 162
-9.058541 1.264928 72.589836 172 157 161
-9.058541 1.421407 72.589836 172 155 160
-9.080744 1.581754 72.767754 172 153 159
-9.036448 1.730135 72.412788 171 151 157
-9.014461 1.881644 72.236603 170 149 156
-9.036448 2.042331 72.412788 168 147 155
-9.014461 2.193079 72.236603 166 145 153
-9.036448 2.354526 72.412788 165 144 153
-9.058541 2.516762 72.589836 166 144 152
-9.036448 2.666721 72.412788 166 144 152
-9.036448 2.822818 72.412788 167 143 151
-9.014461 2.971668 72.236603 166 142 149
-9.014461 3.127386 72.236603 165 140 146
-8.970807 3.267205 71.886787 164 139 144
-8.949139 3.413902 71.713142 163 139 143
-9.036448 3.603306 72.412788 162 138 141
-9.014461 3.750257 72.236603 159 136 137
-9.014461 3.905974 72.236603 157 134 135
-9.058541 4.081554 72.589836 156 133 133
-9.058541 4.238033 72.589836 155 132 133
-9.170651 4.448900 73.488220 154 130 132
-9.285572 4.665051 74.409126 152 128 132
-9.499855 5.100912 76.126259 150 124 131
-9.524276 5.278549 76.321960 149 122 131
-9.499855 5.429117 76.126259 147 121 130
-9.548823 5.622050 76.518669 146 121 129
-9.598299 5.816983 76.915138 145 121 127
-9.623230 5.998326 77.114914 143 121 124
-9.598299 6.148589 76.915138 144 124 125
-9.623230 6.330793 77.114914 146 127 128
-9.623230 6.497027 77.114914 146 130 131
-9.698805 6.715590 77.720528 147 133 134
-9.673481 6.865158 77.517601 147 135 138
-9.724260 7.069174 77.924522 147 137 141
-9.775577 7.275344 78.335732 149 139 145
-9.801437 7.463903 78.542969 151 142 149
-9.775577 7.613075 78.335732 155 146 154
-9.775577 7.781940 78.335732 159 150 159
-9.775577 7.950806 78.335732 160 150 160
-9.775577 8.119672 78.335732 158 148 158
-9.775577 8.288537 78.335732 156 145 154
-9.749851 8.435146 78.129585 153 141 151
-9.749851 8.603567 78.129585 150 137 148
-9.749851 8.771988 78.129585 148 133 145
-9.724260 8.916944 77.924522 146 130 142
-9.573497 8.944071 76.716385 143 126 139
-9.475558 9.016254 75.931564 140 123 135
-9.451386 9.156519 75.737862 139 121 133
-9.475558 9.343620 75.931564 138 121 130
-9.451386 9.483049 75.737862 135 120 126
-9.499855 9.695784 76.126259 132 118 122
-9.499855 9.859886 76.126259 128 115 118
-9.499855 10.023989 76.126259 125 113 115
-9.475558 10.162034 75.931564 123 110 112
-9.475558 10.325717 75.931564 121 106 112
-9.475558 10.489400 75.931564 120 103 111
-9.475558 10.653083 75.931564 119 100 111
-9.475558 10.816766 75.931564 117 97 110
-9.475558 10.980449 75.931564 113 92 107
-9.451386 11.115703 75.737862 105 85 102
-9.451386 11.278968 75.737862 100 81 98
-9.427337 11.413118 75.545143 99 83 100
-9.403410 11.546588 75.353409 102 88 105
-9.403410 11.709024 75.353409 105 95 110
-9.403410 11.871461 75.353409 108 100 114
-9.403410 12.033897 75.353409 108 102 117
-9.403410 12.196334 75.353409 108 102 119
-9.379603 12.327482 75.162636 108 100 118
-9.332351 12.426588 74.783989 106 96 116
-9.332351 12.587797 74.783989 100 90 111
-9.332351 12.749006 74.783989 94 82 104
-9.355918 12.942817 74.972832 89 75 99
-9.355918 13.104433 74.972832 83 69 93
-9.332351 13.232634 74.783989 76 63 87
-9.285572 13.326705 74.409126 74 61 85
-9.262359 13.453388 74.223106 75 64 87
-9.262359 13.613389 74.223106 76 66 89
-9.239261 13.739041 74.038010 78 67 91
-9.262359 13.933389 74.223106 79 68 92
-9.239261 14.058243 74.038010 77 67 90
-9.170651 14.112266 73.488220 74 66 88
-9.148008 14.235446 73.306770 73 66 87
-9.125476 14.358018 73.126213 72 67 88
-9.125476 14.515654 73.126213 71 67 88
-9.080744 14.601361 72.767754 67 65 85
-9.080744 14.758224 72.767754 63 62 81
-9.036448 14.842330 72.412788 62 61 80
-9.036448 14.998428 72.412788 64 63 81
-9.014461 15.117653 72.236603 66 64 83
-9.014461 15.273371 72.236603 66 65 83
-8.992581 15.391640 72.061264 66 64 82
-8.992581 15.546979 72.061264 64 63 81
-8.970807 15.664299 71.886787 62 60 79
-8.906114 15.705181 71.368370 60 59 76
-8.927574 15.897243 71.540344 57 56 72
-9.920827 -12.192492 80.897118 150 132 138
-9.787482 -11.340443 79.809792 152 138 142
-9.813864 -11.198503 80.024910 153 140 143
-9.840387 -11.055796 80.241196 154 141 145
-9.840387 -10.882823 80.241196 156 143 147
-9.813864 -10.680983 80.024910 159 143 148
-9.787482 -10.480227 79.809792 161 143 148
-9.840387 -10.363904 80.241196 161 142 147
-9.840387 -10.190931 80.241196 158 138 143
-9.840387 -10.017959 80.241196 153 131 136
-9.867055 -9.871665 80.458649 147 125 130
-9.840387 -9.672012 80.241196 142 119 125
-9.787482 -9.447969 79.809792 138 115 122
-9.787482 -9.275927 79.809792 134 112 119
-9.761242 -9.079476 79.595825 131 110 117
-9.761242 -8.907894 79.595825 129 110 117
-9.761242 -8.736313 79.595825 130 112 119
-9.761242 -8.564731 79.595825 131 115 122
-9.735143 -8.370708 79.383003 133 118 126
-9.709183 -8.177719 79.171310 135 122 129
-9.683360 -7.985757 78.960747 138 127 132
-9.683360 -7.815544 78.960747 140 130 135
-9.683360 -7.645331 78.960747 142 134 138
-9.683360 -7.475119 78.960747 146 138 141
-9.657675 -7.285529 78.751305 149 141 145
-9.632125 -7.096943 78.542969 152 145 149
-9.657675 -6.946007 78.751305 157 150 155
-9.683360 -6.794267 78.960747 161 154 160
-9.709183 -6.641719 79.171310 163 157 163
-9.709183 -6.471052 79.171310 165 158 166
-9.709183 -6.300385 79.171310 166 160 168
-9.657675 -6.097200 78.751305 166 159 167
-9.408122 -4.285903 76.716385 137 113 124
-9.383875 -4.109909 76.518669 140 116 126
-9.359752 -3.934819 76.321960 142 118 129
-9.335752 -3.760627 76.126259 144 122 132
-9.288121 -3.578175 75.737862 146 125 135
-9.264487 -3.406220 75.545143 148 129 138
-9.264487 -3.243370 75.545143 150 131 141
-9.240973 -3.072702 75.353409 152 133 142
-9.171142 -2.888273 74.783989 153 136 144
-9.102359 -2.706611 74.223106 154 138 146
-9.264487 -2.591971 75.545143 156 141 147
-9.288121 -2.435318 75.737862 157 144 149
-9.359752 -2.289575 76.321960 158 147 151
-9.383875 -2.130527 76.518669 160 149 152
-9.383875 -1.965579 76.518669 162 151 154
-9.408122 -1.805283 76.716385 163 153 155
-9.359752 -1.631477 76.321960 165 155 156
-9.383875 -1.470733 76.518669 168 156 157
-9.383875 -1.305785 76.518669 170 157 158
-9.359752 -1.137904 76.321960 171 158 158
-9.288121 -0.965930 75.737862 172 158 159
-9.240973 -0.798590 75.353409 172 157 159
-9.148099 0.013456 74.596085 167 152 157
-9.102359 0.173389 74.223106 165 152 156
-9.057073 0.331730 73.853836 165 154 157
-9.012236 0.488504 73.488220 165 155 158
-8.945807 0.642151 72.946541 167 157 159
-8.902062 0.795490 72.589836 169 158 162
-8.880350 0.949647 72.412788 171 159 163
-8.858743 1.103055 72.236603 172 159 163
-8.858743 1.258772 72.236603 173 158 163
-8.858743 1.414490 72.236603 174 157 162
-8.902062 1.577886 72.589836 173 155 160
-8.858743 1.725926 72.236603 172 153 158
-8.837241 1.877076 72.061264 170 151 157
-8.858743 2.037361 72.236603 167 148 154
-8.837241 2.187756 72.061264 165 146 152
-8.858743 2.348797 72.236603 165 145 152
-8.902062 2.516762 72.589836 167 146 153
-8.880350 2.666721 72.412788 168 146 153
-8.880350 2.822818 72.412788 168 146 152
-8.880350 2.978916 72.412788 167 144 151
-8.858743 3.127386 72.236603 166 142 148
-8.794549 3.259313 71.713142 164 139 145
-8.794549 3.413902 71.713142 163 139 143
-8.837241 3.585814 72.061264 162 138 140
-8.815844 3.732095 71.886787 160 136 137
-8.837241 3.896494 72.061264 158 135 134
-8.837241 4.051834 72.061264 156 134 133
-8.837241 4.207173 72.061264 155 133 132
-8.923881 4.405283 72.767754 154 131 132
-8.923881 4.562146 72.767754 152 130 132
-8.967841 4.742255 73.126213 151 128 132
-9.171142 5.010971 74.783989 150 125 132
-9.311875 5.251548 75.931564 149 123 132
-9.288121 5.401417 75.737862 148 122 131
-9.288121 5.564682 75.737862 147 122 129
-9.359752 5.772122 76.321960 145 121 126
-9.359752 5.936646 76.321960 144 120 124
-9.359752 6.101171 76.321960 144 122 125
-9.359752 6.265695 76.321960 146 126 128
-9.335752 6.413732 76.126259 146 129 131
-9.408122 6.628826 76.716385 147 132 134
-9.432496 6.811802 76.915138 147 134 138
-9.506379 7.032260 77.517601 148 136 141
-9.556282 7.237154 77.924522 150 138 144
-9.606710 7.444210 78.335732 151 141 147
-9.606710 7.613075 78.335732 155 145 153
-9.581429 7.761462 78.129585 160 150 158
-9.606710 7.950806 78.335732 161 151 159
-9.581429 8.098304 78.129585 159 148 157
-9.581429 8.266725 78.129585 156 144 154
-9.581429 8.435146 78.129585 154 141 150
-9.581429 8.603567 78.129585 151 137 147
-9.581429 8.771988 78.129585 149 134 144
-9.556282 8.916944 77.924522 147 131 141
-9.408122 8.944071 76.716385 144 128 138
-9.311875 9.016254 75.931564 142 125 135
-9.288121 9.156519 75.737862 141 124 134
-9.311875 9.343620 75.931564 140 122 131
-9.288121 9.483049 75.737862 138 121 127
-9.359752 9.720708 76.321960 134 118 122
-9.335752 9.859886 76.126259 129 115 118
-9.335752 10.023989 76.126259 126 112 114
-9.335752 10.188091 76.126259 123 108 112
-9.311875 10.325717 75.931564 120 105 110
-9.311875 10.489400 75.931564 119 101 110
-9.311875 10.653083 75.931564 118 98 110
-9.311875 10.816766 75.931564 117 94 109
-9.311875 10.980449 75.931564 112 90 106
-9.288121 11.115703 75.737862 105 84 101
-9.288121 11.278968 75.737862 101 82 100
-9.264487 11.413118 75.545143 102 86 104
-9.240973 11.546588 75.353409 105 93 109
-9.240973 11.709024 75.353409 108 99 114
-9.240973 11.871461 75.353409 109 102 116
-9.217578 12.003431 75.162636 108 102 117
-9.217578 12.165457 75.162636 107 100 118
-9.194302 12.296352 74.972832 106 99 118
-9.171142 12.426588 74.783989 104 95 116
-9.171142 12.587797 74.783989 98 88 109
-9.194302 12.781200 74.972832 91 80 102
-9.194302 12.942817 74.972832 86 72 96
-9.194302 13.104433 74.972832 80 65 90
-9.194302 13.266049 74.972832 73 60 85
-9.148099 13.360189 74.596085 72 60 84
-9.125172 13.487106 74.409126 75 63 87
-9.125172 13.647508 74.409126 79 67 90
-9.102359 13.773389 74.223106 82 69 92
-9.102359 13.933389 74.223106 84 71 94
-9.102359 14.093389 74.223106 81 70 92
-9.034599 14.147285 73.670578 77 68 89
-8.989984 14.235446 73.306770 73 66 87
-8.967841 14.358018 73.126213 72 67 87
-8.967841 14.515654 73.126213 72 69 89
-8.945807 14.637237 72.946541 68 67 86
-8.923881 14.758224 72.767754 63 62 82
-8.902062 14.878620 72.589836 63 62 80
-8.902062 15.035099 72.589836 65 64 82
-8.880350 15.154526 72.412788 67 66 84
-8.880350 15.310623 72.412788 67 66 84
-8.858743 15.429089 72.236603 66 65 83
-8.858743 15.584806 72.236603 65 64 81
-8.837241 15.702319 72.061264 63 61 78
-8.794549 15.781052 71.713142 60 59 75
-8.794549 15.935641 71.713142 58 56 71
-9.641356 -12.061036 80.024910 152 134 141
-9.641356 -11.888530 80.024910 152 134 142
-9.564019 -11.622045 79.383003 152 135 142
-9.589661 -11.481621 79.595825 151 135 142
-9.589661 -11.310039 79.595825 152 137 143
-9.615439 -11.168399 79.809792 154 140 145
-9.667415 -11.055796 80.241196 156 142 147
-9.667415 -10.882823 80.241196 158 143 148
-9.641356 -10.680983 80.024910 159 143 148
-9.615439 -10.480227 79.809792 160 141 146
-9.667415 -10.363904 80.241196 158 139 143
-9.667415 -10.190931 80.241196 154 133 138
-9.667415 -10.017959 80.241196 147 125 130
-9.667415 -9.844985 80.241196 141 118 124
-9.641356 -9.645942 80.024910 138 114 120
-9.615439 -9.447969 79.809792 134 112 117
-9.589661 -9.251058 79.595825 131 110 116
-9.589661 -9.079476 79.595825 129 110 115
-9.564019 -8.884076 79.383003 129 111 116
-9.589661 -8.736313 79.595825 131 114 120
-9.564019 -8.541830 79.383003 133 118 125
-9.538516 -8.348386 79.171310 135 122 129
-9.513147 -8.155970 78.960747 139 127 134
-9.487913 -7.964574 78.751305 141 131 137
-9.487913 -7.794813 78.751305 143 134 139
-9.487913 -7.625052 78.751305 145 137 142
-9.487913 -7.455290 78.751305 149 141 146
-9.462813 -7.266255 78.542969 152 145 150
-9.462813 -7.096943 78.542969 156 149 154
-9.487913 -6.946007 78.751305 160 153 159
-9.487913 -6.776246 78.751305 163 157 163
-9.513147 -6.624054 78.960747 165 159 166
-9.538516 -6.471052 79.171310 167 161 168
-9.513147 -6.283629 78.960747 168 161 170
-9.462813 -6.081070 78.542969 166 158 168
-9.195227 -4.099343 76.321960 141 118 129
-9.171650 -3.924730 76.126259 143 121 131
-9.148192 -3.751009 75.931564 145 124 134
-9.101637 -3.569070 75.545143 147 128 138
-9.032685 -3.380415 74.972832 150 131 141
-8.987295 -3.202625 74.596085 152 134 144
-8.987295 -3.041821 74.596085 153 136 146
-8.897869 -2.852350 73.853836 154 138 147
-8.853820 -2.679813 73.488220 156 140 149
-9.032685 -2.572335 74.972832 157 143 151
-9.101637 -2.429121 75.545143 158 146 153
-9.148192 -2.277863 75.931564 160 149 155
-9.148192 -2.114180 75.931564 162 152 157
-9.171650 -1.955499 76.126259 165 155 160
-9.195227 -1.796001 76.321960 167 157 162
-9.195227 -1.631477 76.321960 170 159 163
-9.218926 -1.470733 76.518669 171 160 163
-9.218926 -1.305785 76.518669 173 160 163
-9.171650 -1.134986 76.126259 173 160 163
-9.124855 -0.965930 75.737862 173 160 163
-8.987295 -0.147348 74.596085 167 153 156
-8.987295 0.013456 74.596085 164 151 155
-8.964770 0.173823 74.409126 164 152 155
-8.920058 0.332557 74.038010 165 154 157
-8.875790 0.489716 73.670578 166 155 159
-8.810205 0.643733 73.126213 167 156 160
-8.745583 0.795490 72.589836 170 158 162
-8.724252 0.949647 72.412788 171 158 162
-8.703025 1.103055 72.236603 172 158 163
-8.724252 1.261843 72.412788 173 158 163
-8.724252 1.417940 72.412788 174 157 162
-8.724252 1.574038 72.412788 173 155 160
-8.703025 1.725926 72.236603 171 153 158
-8.681901 1.877076 72.061264 169 151 156
-8.703025 2.037361 72.236603 167 149 153
-8.681901 2.187756 72.061264 165 147 151
-8.703025 2.348797 72.236603 166 147 151
-8.745583 2.516762 72.589836 168 148 153
-8.745583 2.673241 72.589836 170 149 154
-8.724252 2.822818 72.412788 170 148 153
-8.724252 2.978916 72.412788 169 146 151
-8.703025 3.127386 72.236603 167 144 149
-8.660880 3.267205 71.886787 165 141 145
-8.639959 3.413902 71.713142 163 139 141
-8.703025 3.594539 72.236603 162 138 138
-8.681901 3.741154 72.061264 161 137 135
-8.703025 3.905974 72.236603 159 136 133
-8.703025 4.061692 72.236603 157 135 133
-8.681901 4.207173 72.061264 155 134 132
-8.745583 4.394512 72.589836 154 133 132
-8.745583 4.550992 72.589836 153 131 132
-8.745583 4.707470 72.589836 151 129 132
-8.920058 5.120587 74.038010 150 124 132
-9.009933 5.333389 74.783989 149 123 130
-8.987295 5.480793 74.596085 148 122 128
-9.078536 5.698872 75.353409 146 122 127
-9.078536 5.861308 75.353409 145 121 125
-9.078536 6.023745 75.353409 145 122 126
-9.078536 6.186182 75.353409 145 124 128
-9.078536 6.348618 75.353409 146 126 130
-9.148192 6.561011 75.931564 147 129 133
-9.171650 6.741937 76.126259 148 132 137
-9.242747 6.959575 76.716385 149 135 141
-9.290762 7.161962 77.114914 151 138 144
-9.413009 7.424620 78.129585 152 141 147
-9.413009 7.593041 78.129585 156 144 152
-9.388303 7.741090 77.924522 160 148 156
-9.413009 7.929883 78.129585 160 149 156
-9.388303 8.077048 77.924522 158 147 154
-9.388303 8.245028 77.924522 157 144 151
-9.388303 8.413007 77.924522 155 141 148
-9.413009 8.603567 78.129585 152 138 145
-9.413009 8.771988 78.129585 150 135 142
-9.339277 8.870379 77.517601 148 132 140
-9.195227 8.898086 76.321960 145 130 138
-9.124855 8.993254 75.737862 143 127 136
-9.078536 9.110040 75.353409 142 125 133
-9.124855 9.319784 75.737862 140 123 130
-9.101637 9.458920 75.545143 137 120 126
-9.171650 9.695784 76.126259 134 118 121
-9.171650 9.859886 76.126259 130 114 117
-9.195227 10.049757 76.321960 126 111 114
-9.171650 10.188091 76.126259 122 107 111
-9.148192 10.325717 75.931564 120 103 109
-9.148192 10.489400 75.931564 118 99 108
-9.148192 10.653083 75.931564 116 95 107
-9.148192 10.816766 75.931564 114 92 106
-9.124855 10.952437 75.737862 111 89 105
-9.101637 11.087419 75.545143 107 86 104
-9.101637 11.250268 75.545143 105 87 104
-9.078536 11.384151 75.353409 105 91 108
-9.055552 11.517356 75.162636 107 96 112
-9.055552 11.679381 75.162636 109 101 116
-9.055552 11.841406 75.162636 109 102 118
-9.055552 12.003431 75.162636 108 101 118
-9.032685 12.134736 74.972832 106 99 118
-9.032685 12.296352 74.972832 106 97 117
-8.987295 12.395366 74.596085 103 92 113
-9.009933 12.587797 74.783989 96 84 106
-9.009933 12.749006 74.783989 89 76 99
-9.055552 12.975583 75.162636 82 68 92
-9.055552 13.137609 75.162636 76 62 86
-9.032685 13.266049 74.972832 72 59 83
-8.987295 13.360189 74.596085 72 60 83
-8.987295 13.520993 74.596085 74 63 86
-8.987295 13.681798 74.596085 78 67 90
-8.964770 13.807908 74.409126 84 72 95
-8.964770 13.968309 74.409126 86 74 97
-8.942358 14.093389 74.223106 85 72 95
-8.875790 14.147285 73.670578 79 69 90
-8.853820 14.270681 73.488220 74 66 87
-8.831959 14.393471 73.306770 74 68 88
-8.810205 14.515654 73.126213 75 71 91
-8.788559 14.637237 72.946541 70 68 88
-8.788559 14.794485 72.946541 64 63 83
-8.767018 14.915087 72.767754 63 62 81
-8.767018 15.071950 72.767754 65 64 83
-8.724252 15.154526 72.412788 66 66 84
-8.724252 15.310623 72.412788 67 67 84
-8.703025 15.429089 72.236603 66 66 82
-8.724252 15.622818 72.412788 65 64 80
-8.703025 15.740524 72.236603 62 62 77
-8.660880 15.819263 71.886787 60 59 73
-8.639959 15.935641 71.713142 58 56 70
-8.577802 15.974474 71.197220 56 54 66
-9.731145 -13.104279 82.241669 150 130 137
-9.520172 -12.126408 80.458649 153 135 143
-9.546041 -11.985447 80.677292 154 135 144
-9.468850 -11.716023 80.024910 154 135 144
-9.443397 -11.512486 79.809792 153 135 143
-9.443397 -11.340443 79.809792 153 136 143
-9.443397 -11.168399 79.809792 155 139 145
-9.468850 -11.025996 80.024910 157 141 147
-9.494442 -10.882823 80.241196 159 142 147
-9.468850 -10.680983 80.024910 160 141 148
-9.443397 -10.480227 79.809792 158 138 144
-9.494442 -10.363904 80.241196 154 133 138
-9.494442 -10.190931 80.241196 149 127 132
-9.468850 -9.990955 80.024910 143 119 125
-9.468850 -9.818449 80.024910 137 113 119
-9.468850 -9.645942 80.024910 134 110 116
-9.443397 -9.447969 79.809792 131 109 114
-9.418078 -9.251058 79.595825 128 109 113
-9.392897 -9.055200 79.383003 128 110 114
-9.392897 -8.884076 79.383003 129 113 117
-9.392897 -8.712954 79.383003 132 117 122
-9.392897 -8.541830 79.383003 135 122 127
-9.342935 -8.326182 78.960747 138 127 133
-9.318152 -8.134336 78.751305 142 132 139
-9.293501 -7.943504 78.542969 145 135 142
-9.293501 -7.774192 78.542969 147 138 144
-9.293501 -7.604880 78.542969 149 140 146
-9.293501 -7.435567 78.542969 152 144 150
-9.293501 -7.266255 78.542969 155 148 154
-9.293501 -7.096943 78.542969 160 153 159
-9.318152 -6.946007 78.751305 164 157 163
-9.318152 -6.776246 78.751305 166 159 166
-9.318152 -6.606484 78.751305 167 160 168
-9.342935 -6.453842 78.960747 168 161 169
-9.318152 -6.266962 78.751305 168 160 169
-9.268980 -6.065025 78.335732 165 155 165
-9.007547 -4.088832 76.126259 143 121 131
-8.984509 -3.914692 75.931564 144 124 134
-8.961590 -3.741440 75.737862 146 127 136
-8.871069 -3.542032 74.972832 149 131 140
-8.716981 -3.321699 73.670578 152 134 143
-8.652570 -3.139518 73.126213 154 136 146
-8.652570 -2.981883 73.126213 155 138 149
-8.631310 -2.817308 72.946541 156 141 151
-8.631310 -2.660060 72.946541 157 143 152
-8.782358 -2.546611 74.223106 159 145 154
-8.871069 -2.410718 74.972832 160 148 157
-8.916100 -2.260519 75.353409 162 152 159
-8.916100 -2.098083 75.353409 165 155 162
-8.938787 -1.940571 75.545143 168 159 165
-8.961590 -1.782256 75.737862 171 162 167
-8.984509 -1.623132 75.931564 172 163 168
-9.007547 -1.463191 76.126259 174 164 168
-9.007547 -1.299089 76.126259 175 163 169
-8.984509 -1.132083 75.931564 175 162 168
-8.804369 0.013422 74.409126 163 150 153
-8.804369 0.173823 74.409126 164 152 155
-8.782358 0.333389 74.223106 167 155 159
-8.716981 0.489716 73.670578 167 156 160
-8.673934 0.645322 73.306770 168 156 161
-8.631310 0.799399 72.946541 169 156 162
-8.610155 0.954303 72.767754 170 156 161
-8.589104 1.108449 72.589836 171 156 161
-8.610155 1.268028 72.767754 173 156 161
-8.610155 1.581754 72.767754 172 155 159
-8.568154 1.730135 72.412788 171 154 157
-8.568154 1.886233 72.412788 168 152 155
-8.568154 2.042331 72.412788 167 150 152
-8.547307 2.193079 72.236603 166 148 150
-8.568154 2.354526 72.412788 166 148 150
-8.610155 2.522930 72.767754 168 149 152
-8.589104 2.673241 72.589836 170 150 153
-8.589104 2.829720 72.589836 171 149 152
-8.568154 2.978916 72.412788 169 146 150
-8.547307 3.127386 72.236603 167 144 147
-8.526562 3.275135 72.061264 165 141 143
-8.505917 3.422168 71.886787 162 138 139
-8.568154 3.603306 72.412788 161 137 135
-8.526562 3.741154 72.061264 160 136 133
-8.547307 3.905974 72.236603 158 135 132
-8.547307 4.061692 72.236603 157 135 132
-8.547307 4.217410 72.236603 157 135 134
-8.589104 4.394512 72.589836 155 134 134
-8.610155 4.562146 72.767754 153 131 133
-8.589104 4.707470 72.589836 150 129 131
-8.738665 5.267054 73.853836 149 124 129
-8.716981 5.412793 73.670578 149 123 128
-8.848723 5.655807 74.783989 147 122 127
-8.871069 5.831706 74.972832 146 121 126
-8.871069 5.993322 74.972832 145 121 126
-8.871069 6.154938 74.972832 144 121 127
-8.893527 6.332545 75.162636 145 124 130
-8.938787 6.527622 75.545143 146 128 133
-8.961590 6.707540 75.737862 148 131 136
-9.007547 6.906040 76.126259 149 134 140
-9.053978 7.106586 76.518669 151 138 144
-9.172175 7.366463 77.517601 154 142 147
-9.220324 7.573112 77.924522 157 145 151
-9.196187 7.720826 77.720528 158 146 153
-9.196187 7.888365 77.720528 158 146 153
-9.196187 8.055904 77.720528 157 145 151
-9.196187 8.223444 77.720528 156 143 149
-9.220324 8.413007 77.924522 154 141 146
-9.220324 8.580985 77.924522 152 138 143
-9.220324 8.748964 77.924522 150 136 141
-9.124528 8.824300 77.114914 148 133 139
-8.984509 8.852571 75.931564 145 131 137
-8.938787 8.970370 75.545143 143 127 134
-8.871069 9.064029 74.972832 141 124 131
-8.893527 9.249002 75.162636 139 122 127
-8.893527 9.411027 75.162636 136 119 123
-8.938787 9.621770 75.545143 133 116 120
-8.984509 9.834669 75.931564 130 113 117
-9.030703 10.049757 76.321960 126 109 113
-8.984509 10.162034 75.931564 122 105 110
-8.984509 10.325717 75.931564 119 101 108
-8.984509 10.489400 75.931564 117 96 106
-8.961590 10.625907 75.737862 115 93 106
-8.984509 10.816766 75.931564 113 90 106
-8.961590 10.952437 75.737862 111 89 105
-8.938787 11.087419 75.545143 109 90 106
-8.938787 11.250268 75.545143 108 92 108
-8.916100 11.384151 75.353409 107 94 111
-8.893527 11.517356 75.162636 108 97 114
-8.893527 11.679381 75.162636 110 101 117
-8.893527 11.841406 75.162636 110 102 118
-8.893527 12.003431 75.162636 107 99 117
-8.871069 12.134736 74.972832 105 96 115
-8.871069 12.296352 74.972832 104 93 114
-8.848723 12.426588 74.783989 100 88 109
-8.871069 12.619584 74.972832 93 81 103
-8.848723 12.749006 74.783989 86 73 95
-8.893527 12.975583 75.162636 79 66 88
-8.893527 13.137609 75.162636 72 60 83
-8.848723 13.232634 74.783989 69 59 82
-8.826490 13.360189 74.596085 69 60 83
-8.826490 13.520993 74.596085 71 61 85
-8.804369 13.647508 74.409126 74 65 89
-8.804369 13.807908 74.409126 82 71 95
-8.804369 13.968309 74.409126 88 77 100
-8.782358 14.093389 74.223106 88 77 99
-8.738665 14.182476 73.853836 83 73 94
-8.716981 14.306093 73.670578 78 70 91
-8.673934 14.393471 73.306770 77 72 92
-8.673934 14.551495 73.306770 77 74 94
-8.652570 14.673289 73.126213 71 69 90
-8.631310 14.794485 72.946541 64 63 84
-8.631310 14.951734 72.946541 63 62 82
-8.610155 15.071950 72.767754 65 64 83
-8.589104 15.191578 72.589836 66 67 84
-8.568154 15.310623 72.412788 66 67 84
-8.547307 15.429089 72.236603 66 66 82
-8.547307 15.584806 72.236603 64 64 79
-8.526562 15.702319 72.061264 61 61 75
-8.505917 15.819263 71.886787 59 58 71
-8.485371 15.935641 71.713142 57 56 68
-8.424325 15.974474 71.197220 56 54 64
-9.501222 -12.503153 81.788544 153 135 143
-9.449160 -12.259300 81.340393 153 135 144
-9.475120 -12.117155 81.563850 155 136 145
-9.423343 -11.876078 81.118149 155 136 145
-9.372128 -11.637621 80.677292 155 136 145
-9.321468 -11.401742 80.241196 157 137 145
-9.321468 -11.228769 80.241196 158 139 146
-9.321468 -11.055796 80.241196 158 139 145
-9.321468 -10.882823 80.241196 159 139 145
-9.296343 -10.680983 80.024910 160 138 145
-9.271353 -10.480227 79.809792 157 134 141
-9.296343 -10.335969 80.024910 151 127 133
-9.296343 -10.163463 80.024910 145 120 126
-9.296343 -9.990955 80.024910 140 114 120
-9.296343 -9.818449 80.024910 135 110 116
-9.296343 -9.645942 80.024910 131 108 113
-9.271353 -9.447969 79.809792 128 107 111
-9.246497 -9.251058 79.595825 126 108 111
-9.221774 -9.055200 79.383003 127 110 113
-9.221774 -8.884076 79.383003 130 116 119
-9.221774 -8.712954 79.383003 134 121 125
-9.221774 -8.541830 79.383003 138 127 131
-9.172722 -8.326182 78.960747 142 132 138
-9.148391 -8.134336 78.751305 146 136 144
-9.100115 -7.922545 78.335732 148 139 147
-9.076167 -7.733275 78.129585 150 141 149
-9.100115 -7.584814 78.335732 153 145 152
-9.124188 -7.435567 78.542969 156 148 155
-9.124188 -7.266255 78.542969 159 152 158
-9.124188 -7.096943 78.542969 164 156 163
-9.148391 -6.946007 78.751305 168 160 167
-9.124188 -6.758319 78.542969 168 161 168
-9.124188 -6.589007 78.542969 167 160 167
-9.124188 -6.419694 78.542969 165 158 166
-9.100115 -6.233891 78.335732 162 153 162
-9.100115 -6.065025 78.335732 158 146 157
-9.076167 -5.880643 78.129585 152 138 150
-9.052344 -5.697230 77.924522 148 131 144
-9.005075 -5.500377 77.517601 142 124 137
-8.981624 -5.319387 77.315735 137 116 130
-8.775937 -3.894770 75.545143 146 128 137
-8.709453 -3.703648 74.972832 148 131 139
-8.579461 -3.489166 73.853836 151 134 142
-8.474062 -3.289053 72.946541 153 136 145
-8.432625 -3.116490 72.589836 155 139 148
-8.453293 -2.967266 72.767754 157 142 151
-8.453293 -2.810403 72.767754 159 144 153
-8.474062 -2.660060 72.946541 159 146 155
-8.536988 -2.521397 73.488220 160 148 157
-8.600856 -2.380660 74.038010 161 151 159
-8.665687 -2.237800 74.596085 164 155 161
-8.643969 -2.071791 74.409126 168 158 165
-8.665687 -1.916192 74.596085 171 162 169
-8.709453 -1.764254 74.972832 173 165 171
-8.753663 -1.610773 75.353409 174 166 172
-8.798325 -1.455726 75.737862 175 166 172
-8.798325 -1.292461 75.737862 175 165 172
-8.665687 0.013456 74.596085 164 151 155
-8.665687 0.174260 74.596085 167 154 159
-8.643969 0.334224 74.409126 169 157 163
-8.622358 0.493389 74.223106 169 156 163
-8.558172 0.648525 73.670578 169 156 163
-8.515909 0.803347 73.306770 169 155 162
-8.494934 0.959004 73.126213 169 154 161
-8.474062 1.113896 72.946541 170 154 160
-8.494934 1.274275 73.126213 171 155 160
-8.494934 1.431910 73.126213 173 155 160
-8.474062 1.585640 72.946541 173 156 160
-8.453293 1.738616 72.767754 173 156 159
-8.432625 1.890845 72.589836 169 153 155
-8.432625 2.047324 72.589836 166 149 151
-8.412057 2.198428 72.412788 165 148 149
-8.432625 2.360282 72.589836 166 148 149
-8.474062 2.529129 72.946541 168 148 150
-8.432625 2.673241 72.589836 169 148 150
-8.432625 2.829720 72.589836 168 146 149
-8.412057 2.978916 72.412788 166 144 146
-8.391590 3.127386 72.236603 165 141 143
-8.371222 3.275135 72.061264 163 139 140
-8.371222 3.430475 72.061264 161 138 137
-8.412057 3.603306 72.412788 160 136 134
-8.371222 3.741154 72.061264 158 134 131
-8.391590 3.905974 72.236603 156 133 130
-8.412057 4.071599 72.412788 157 135 132
-8.412057 4.227696 72.412788 158 135 135
-8.453293 4.405283 72.767754 156 134 135
-8.474062 4.573355 72.946541 153 132 134
-8.453293 4.719008 72.767754 151 129 132
-8.558172 5.253984 73.670578 149 124 129
-8.536988 5.399395 73.488220 149 123 128
-8.665687 5.641597 74.596085 148 122 128
-8.687514 5.817016 74.783989 146 121 127
-8.687514 5.978225 74.783989 145 120 126
-8.687514 6.139434 74.783989 144 120 127
-8.687514 6.300643 74.783989 144 123 129
-8.731503 6.494571 75.162636 145 127 133
-8.775937 6.690472 75.545143 147 130 136
-8.798325 6.870805 75.737862 149 134 140
-8.843445 7.070142 76.126259 151 138 143
-8.935086 7.309211 76.915138 154 142 147
-9.005075 7.533565 77.517601 158 146 151
-8.981624 7.680613 77.315735 158 146 152
-9.005075 7.867769 77.517601 156 145 151
-9.005075 8.034871 77.517601 156 144 149
-9.005075 8.201973 77.517601 155 143 147
-9.028647 8.390983 77.720528 153 141 144
-9.028647 8.558522 77.720528 152 139 142
-9.052344 8.748964 77.924522 150 137 140
-8.958295 8.824300 77.114914 147 134 138
-8.798325 8.829988 75.737862 145 131 135
-8.753663 8.947602 75.353409 142 127 132
-8.709453 9.064029 74.972832 139 123 129
-8.731503 9.249002 75.162636 137 120 125
-8.731503 9.411027 75.162636 135 117 122
-8.775937 9.621770 75.545143 133 115 120
-8.843445 9.859886 76.126259 130 111 116
-8.866179 10.049757 76.321960 125 107 111
-8.820827 10.162034 75.931564 121 103 108
-8.820827 10.325717 75.931564 118 98 106
-8.798325 10.462642 75.737862 116 95 104
-8.820827 10.653083 75.931564 114 92 104
-8.798325 10.789172 75.737862 112 91 104
-8.775937 10.924568 75.545143 111 90 104
-8.775937 11.087419 75.545143 110 91 105
-8.753663 11.221714 75.353409 109 93 108
-8.731503 11.355330 75.162636 108 95 110
-8.731503 11.517356 75.162636 109 97 113
-8.731503 11.679381 75.162636 110 99 115
-8.731503 11.841406 75.162636 108 98 116
-8.731503 12.003431 75.162636 106 96 114
-8.709453 12.134736 74.972832 104 92 112
-8.687514 12.265379 74.783989 102 88 109
-8.687514 12.426588 74.783989 97 84 105
-8.709453 12.619584 74.972832 91 78 99
-8.687514 12.749006 74.783989 85 72 92
-8.709453 12.942817 74.972832 78 66 86
-8.709453 13.104433 74.972832 72 62 83
-8.687514 13.232634 74.783989 69 60 82
-8.665687 13.360189 74.596085 67 59 82
-8.665687 13.520993 74.596085 67 59 82
-8.622358 13.613389 74.223106 70 61 85
-8.643969 13.807908 74.409126 78 68 92
-8.643969 13.968309 74.409126 89 79 102
-8.622358 14.093389 74.223106 93 83 105
-8.579461 14.182476 73.853836 89 79 101
-8.558172 14.306093 73.670578 85 76 99
-8.536988 14.429098 73.488220 84 78 101
-8.515909 14.551495 73.306770 81 77 99
-8.494934 14.673289 73.126213 72 70 92
-8.474062 14.794485 72.946541 65 63 85
-8.474062 14.951734 72.946541 63 62 82
-8.474062 15.108981 72.946541 65 65 83
-8.432625 15.191578 72.589836 66 68 84
-8.412057 15.310623 72.412788 67 68 84
-8.391590 15.429089 72.236603 66 66 82
-8.391590 15.584806 72.236603 63 64 78
-8.350952 15.664299 71.886787 60 61 74
-8.350952 15.819263 71.886787 58 57 69
-8.310707 15.897243 71.540344 56 54 65
-8.231368 15.898223 70.857384 55 52 62
-9.299294 -12.468803 81.563850 154 137 146
-9.273817 -12.259300 81.340393 155 137 146
-9.299294 -12.117155 81.563850 156 138 147
-9.248479 -11.876078 81.118149 156 137 147
-9.223279 -11.669332 80.897118 158 139 148
-9.198215 -11.463708 80.677292 160 141 149
-9.173288 -11.259199 80.458649 161 140 148
-9.148496 -11.055796 80.241196 160 138 146
-9.148496 -10.882823 80.241196 159 136 144
-9.123837 -10.680983 80.024910 157 133 141
-9.074915 -10.452130 79.595825 153 127 135
-9.099310 -10.308185 79.809792 147 121 128
-9.099310 -10.136141 79.809792 142 115 122
-9.099310 -9.964098 79.809792 137 111 117
-9.099310 -9.792055 79.809792 132 108 113
-9.099310 -9.620012 79.809792 129 106 110
-9.099310 -9.447969 79.809792 127 107 110
-9.074915 -9.251058 79.595825 126 109 111
-9.050651 -9.055200 79.383003 127 113 115
-9.050651 -8.884076 79.383003 131 119 121
-9.050651 -8.712954 79.383003 136 125 128
-9.050651 -8.541830 79.383003 140 130 135
-8.978630 -8.304097 78.751305 145 136 142
-8.978630 -8.134336 78.751305 148 140 147
-8.907745 -7.901696 78.129585 150 141 149
-8.884366 -7.712978 77.924522 153 144 152
-8.907745 -7.564854 78.129585 157 148 156
-8.931249 -7.415949 78.335732 160 152 159
-8.931249 -7.247083 78.335732 163 155 162
-8.954877 -7.096943 78.542969 166 158 165
-8.978630 -6.946007 78.751305 169 161 167
-8.954877 -6.758319 78.542969 169 162 168
-8.931249 -6.571621 78.335732 167 160 166
-8.931249 -6.402756 78.335732 161 152 159
-8.907745 -6.217485 78.129585 153 144 152
-8.884366 -6.033188 77.924522 148 136 145
-8.884366 -5.865209 77.924522 143 128 140
-8.861108 -5.682315 77.720528 139 121 135
-8.814957 -5.486053 77.315735 136 116 130
-8.792061 -5.305570 77.114914 133 111 125
-8.769283 -5.126022 76.915138 131 109 122
-8.591227 -3.884885 75.353409 148 132 140
-8.504883 -3.685036 74.596085 150 135 143
-8.357884 -3.463320 73.306770 153 137 145
-8.296430 -3.280992 72.767754 154 139 148
-8.255960 -3.108889 72.412788 157 142 151
-8.296430 -2.967266 72.767754 159 144 153
-8.296430 -2.810403 72.767754 160 146 155
-8.296430 -2.653541 72.767754 161 148 157
-8.357884 -2.515172 73.306770 162 150 159
-8.399364 -2.368845 73.670578 163 153 161
-8.441256 -2.221059 74.038010 165 157 164
-8.441256 -2.061458 74.038010 169 160 168
-8.420258 -1.897126 73.853836 172 164 171
-8.462358 -1.746611 74.223106 174 166 173
-8.526306 -1.598601 74.783989 175 167 174
-8.569477 -1.444670 75.162636 175 167 175
-8.591227 -1.285900 75.353409 175 166 174
-8.504883 -0.147348 74.596085 168 156 160
-8.526306 0.013490 74.783989 167 155 160
-8.504883 0.174260 74.596085 170 157 162
-8.504883 0.335064 74.596085 170 157 164
-8.483567 0.494625 74.409126 169 156 164
-8.420258 0.650138 73.853836 169 155 163
-8.378572 0.805335 73.488220 170 155 162
-8.378572 0.963751 73.488220 169 154 161
-8.357884 1.119396 73.306770 170 154 159
-8.357884 1.277421 73.306770 171 154 159
-8.357884 1.435446 73.306770 172 155 159
-8.337299 1.589545 73.126213 175 158 162
-8.296430 1.738616 72.767754 176 159 162
-8.296430 1.895479 72.767754 170 154 156
-8.296430 2.052342 72.767754 166 149 151
-8.276145 2.203803 72.589836 165 147 149
-8.276145 2.360282 72.589836 166 147 149
-8.316814 2.529129 72.946541 167 147 149
-8.296430 2.679793 72.767754 167 145 147
-8.276145 2.829720 72.589836 165 142 145
-8.276145 2.986199 72.589836 163 140 142
-8.255960 3.135013 72.412788 162 138 140
-8.235872 3.283103 72.236603 160 137 137
-8.235872 3.438821 72.236603 160 135 135
-8.276145 3.612116 72.589836 159 135 134
-8.235872 3.750257 72.236603 158 133 132
-8.235872 3.905974 72.236603 156 132 131
-8.276145 4.081554 72.589836 157 133 133
-8.276145 4.238033 72.589836 157 134 136
-8.316814 4.416107 72.946541 155 133 136
-8.316814 4.573355 72.946541 153 131 136
-8.316814 4.730603 72.946541 152 129 134
-8.276145 4.863950 72.589836 151 127 132
-8.296430 5.032734 72.767754 150 126 131
-8.378572 5.240979 73.488220 150 125 130
-8.357884 5.386063 73.306770 150 123 129
-8.504883 5.641597 74.596085 149 122 129
-8.526306 5.817016 74.783989 147 121 127
-8.526306 5.978225 74.783989 145 120 127
-8.526306 6.139434 74.783989 144 120 126
-8.526306 6.300643 74.783989 142 121 127
-8.569477 6.494571 75.162636 143 125 131
-8.591227 6.673491 75.353409 146 129 135
-8.613088 6.853322 75.545143 149 134 139
-8.657145 7.052060 75.931564 151 138 142
-8.701653 7.252842 76.321960 154 143 146
-8.814957 7.513947 77.315735 158 146 151
-8.792061 7.660664 77.114914 157 146 152
-8.792061 7.826897 77.114914 156 145 150
-8.792061 7.993131 77.114914 155 144 148
-8.814957 8.180614 77.315735 154 143 145
-8.861108 8.390983 77.720528 153 141 143
-8.861108 8.558522 77.720528 151 140 141
-8.884366 8.748964 77.924522 149 137 139
-8.792061 8.824300 77.114914 146 134 137
-8.657145 8.852571 75.931564 143 130 133
-8.591227 8.947602 75.353409 141 126 130
-8.569477 9.086976 75.162636 138 122 126
-8.591227 9.272476 75.353409 136 118 124
-8.569477 9.411027 75.162636 134 115 121
-8.657145 9.670986 75.931564 132 112 118
-8.679342 9.859886 76.126259 129 108 114
-8.701653 10.049757 76.321960 123 104 109
-8.657145 10.162034 75.931564 120 100 106
-8.657145 10.325717 75.931564 117 96 104
-8.657145 10.489400 75.931564 115 93 103
-8.657145 10.653083 75.931564 113 91 102
-8.635059 10.789172 75.737862 111 90 101
-8.591227 10.896841 75.353409 110 90 102
-8.591227 11.059278 75.353409 109 91 103
-8.591227 11.221714 75.353409 108 93 105
-8.569477 11.355330 75.162636 107 94 107
-8.547836 11.488272 74.972832 107 94 109
-8.547836 11.649887 74.972832 107 94 111
-8.569477 11.841406 75.162636 106 93 111
-8.547836 11.973120 74.972832 104 91 110
-8.547836 12.134736 74.972832 103 88 108
-8.526306 12.265379 74.783989 100 86 105
-8.526306 12.426588 74.783989 96 82 101
-8.547836 12.619584 74.972832 91 77 97
-8.526306 12.749006 74.783989 85 73 92
-8.547836 12.942817 74.972832 79 69 88
-8.547836 13.104433 74.972832 74 65 85
-8.526306 13.232634 74.783989 69 63 84
-8.504883 13.360189 74.596085 66 60 82
-8.504883 13.520993 74.596085 65 59 83
-8.462358 13.613389 74.223106 68 61 85
-8.483567 13.807908 74.409126 76 68 92
-8.483567 13.968309 74.409126 87 78 102
-8.462358 14.093389 74.223106 95 84 108
-8.441256 14.217844 74.038010 94 84 108
-8.420258 14.341681 73.853836 91 83 107
-8.378572 14.429098 73.488220 91 85 108
-8.378572 14.587514 73.488220 84 79 103
-8.357884 14.709519 73.306770 72 69 93
-8.337299 14.830925 73.126213 65 63 86
-8.316814 14.951734 72.946541 64 63 85
-8.316814 15.108981 72.946541 65 66 85
-8.276145 15.191578 72.589836 67 69 86
-8.255960 15.310623 72.412788 67 69 85
-8.235872 15.429089 72.236603 66 67 83
-8.215882 15.546979 72.061264 63 64 78
-8.195989 15.664299 71.886787 59 59 73
-8.156490 15.743025 71.540344 56 55 67
-8.136883 15.859028 71.368370 54 52 63
-8.059389 15.860371 70.688675 53 51 60
-8.002230 15.899185 70.187332 52 48 57
-9.073616 -12.400668 81.118149 155 140 149
-9.048892 -12.192492 80.897118 156 141 150
-9.073616 -12.050941 81.118149 157 141 150
-8.999846 -11.779525 80.458649 157 139 148
-8.999846 -11.606083 80.458649 159 141 150
-8.999846 -11.432641 80.458649 162 143 151
-8.999846 -11.259199 80.458649 163 142 150
-8.975523 -11.055796 80.241196 161 138 146
-8.975523 -10.882823 80.241196 159 133 141
-8.927267 -10.652270 79.809792 154 127 135
-8.879528 -10.424183 79.383003 149 121 129
-8.927267 -10.308185 79.809792 144 116 124
-8.927267 -10.136141 79.809792 139 112 119
-8.903334 -9.937385 79.595825 134 109 114
-8.927267 -9.792055 79.809792 129 106 110
-8.927267 -9.620012 79.809792 126 105 108
-8.903334 -9.422640 79.595825 126 108 109
-8.879528 -9.226322 79.383003 128 113 113
-8.879528 -9.055200 79.383003 129 117 118
-8.879528 -8.884076 79.383003 133 123 124
-8.879528 -8.712954 79.383003 137 128 131
-8.855849 -8.519053 79.171310 142 133 137
-8.808868 -8.304097 78.751305 146 138 143
-8.762383 -8.091411 78.335732 149 141 148
-8.716387 -7.880957 77.924522 150 142 150
-8.670871 -7.672701 77.517601 153 144 153
-8.716387 -7.544999 77.924522 157 149 158
-8.739325 -7.396433 78.129585 161 153 162
-8.762383 -7.247083 78.335732 164 156 164
-8.785564 -7.096943 78.542969 167 158 165
-8.785564 -6.927631 78.542969 168 160 166
-8.762383 -6.740487 78.335732 168 160 167
-8.739325 -6.554327 78.129585 164 156 163
-8.739325 -6.385907 78.129585 155 145 153
-8.716387 -6.201167 77.924522 146 135 143
-8.716387 -6.033188 77.924522 142 127 137
-8.693569 -5.849855 77.720528 139 122 133
-8.670871 -5.667479 77.517601 136 117 129
-8.625827 -5.471804 77.114914 134 113 126
-8.625827 -5.305570 77.114914 132 110 123
-8.603480 -5.126022 76.915138 132 110 123
-8.581249 -4.947402 76.716385 133 113 124
-8.537129 -4.263868 76.321960 143 129 136
-8.493462 -4.078375 75.931564 146 132 139
-8.428790 -3.884885 75.353409 149 135 142
-8.281654 -3.657468 74.038010 152 138 145
-8.159566 -3.446301 72.946541 154 140 148
-8.099862 -3.264987 72.412788 156 142 150
-8.080154 -3.101325 72.236603 157 143 152
-8.119666 -2.960011 72.589836 158 144 153
-8.119666 -2.803532 72.589836 159 147 155
-8.119666 -2.647053 72.589836 161 150 158
-8.179664 -2.508977 73.126213 161 152 160
-8.220157 -2.362982 73.488220 162 154 162
-8.281654 -2.221059 74.038010 165 158 165
-8.281654 -2.061458 74.038010 168 161 169
-8.240554 -1.892418 73.670578 171 164 172
-8.281654 -1.742256 74.038010 174 166 174
-8.344079 -1.594584 74.596085 175 168 176
-8.428790 -1.448336 75.353409 176 167 176
-8.428790 -1.285900 75.353409 176 167 176
-8.365097 -0.147719 74.783989 169 158 162
-8.386221 0.013524 74.972832 171 159 164
-8.386221 0.175140 74.972832 171 159 165
-8.365097 0.335908 74.783989 170 156 164
-8.344079 0.495868 74.596085 169 155 163
-8.302359 0.653389 74.223106 169 155 164
-8.261053 0.809342 73.853836 170 156 163
-8.240554 0.966143 73.670578 170 155 162
-8.199861 1.119396 73.306770 171 155 160
-8.179664 1.274275 73.126213 171 155 160
-8.179664 1.431910 73.126213 172 155 159
-8.139567 1.581754 72.767754 174 157 161
-8.139567 1.738616 72.767754 174 157 160
-8.139567 1.895479 72.767754 170 152 156
-8.119666 2.047324 72.589836 166 148 151
-8.119666 2.203803 72.589836 165 146 149
-8.119666 2.360282 72.589836 166 146 148
-8.139567 2.522930 72.767754 166 144 147
-8.139567 2.679793 72.767754 164 142 145
-8.139567 2.836656 72.767754 162 139 142
-8.119666 2.986199 72.589836 160 136 139
-8.099862 3.135013 72.412788 159 135 137
-8.099862 3.291111 72.412788 158 133 135
-8.099862 3.447208 72.412788 157 132 134
-8.139567 3.620969 72.767754 157 132 133
-8.080154 3.750257 72.236603 157 131 133
-8.080154 3.905974 72.236603 157 131 133
-8.119666 4.081554 72.589836 156 131 134
-8.119666 4.238033 72.589836 155 131 135
-8.159566 4.416107 72.946541 153 130 135
-8.159566 4.573355 72.946541 152 129 135
-8.159566 4.730603 72.946541 151 129 135
-8.139567 4.875871 72.767754 152 128 134
-8.119666 5.020429 72.589836 152 128 133
-8.179664 5.215161 73.126213 151 126 132
-8.179664 5.372797 73.126213 151 124 130
-8.323166 5.627457 74.409126 150 123 129
-8.344079 5.802401 74.596085 148 121 127
-8.365097 5.978225 74.783989 147 120 126
-8.365097 6.139434 74.783989 144 120 126
-8.365097 6.300643 74.783989 139 119 124
-8.386221 6.478170 74.972832 140 122 127
-8.428790 6.673491 75.353409 144 128 132
-8.450237 6.853322 75.545143 147 134 137
-8.471794 7.034070 75.737862 150 139 141
-8.515240 7.234245 76.126259 153 143 146
-8.603480 7.475014 76.915138 156 145 149
-8.581249 7.621074 76.716385 155 145 150
-8.581249 7.786448 76.716385 154 145 149
-8.581249 7.951823 76.716385 154 144 148
-8.625827 8.159365 77.114914 153 142 145
-8.670871 8.369074 77.517601 152 141 143
-8.693569 8.558522 77.720528 151 139 141
-8.716387 8.748964 77.924522 149 136 138
-8.625827 8.824300 77.114914 146 133 135
-8.493462 8.852571 75.931564 142 128 131
-8.450237 8.970370 75.545143 139 124 127
-8.450237 9.133220 75.545143 136 120 124
-8.471794 9.319784 75.737862 134 116 121
-8.450237 9.458920 75.545143 132 112 118
-8.537129 9.720708 76.321960 130 109 115
-8.537129 9.885233 76.321960 127 106 112
-8.537129 10.049757 76.321960 122 101 107
-8.493462 10.162034 75.931564 118 97 104
-8.493462 10.325717 75.931564 116 94 102
-8.493462 10.489400 75.931564 114 91 101
-8.493462 10.653083 75.931564 112 89 100
-8.471794 10.789172 75.737862 110 88 99
-8.407452 10.869254 75.162636 109 88 99
-8.428790 11.059278 75.353409 109 89 101
-8.407452 11.193305 75.162636 107 89 102
-8.386221 11.326655 74.972832 106 89 103
-8.386221 11.488272 74.972832 104 88 104
-8.386221 11.649887 74.972832 102 87 104
-8.386221 11.811503 74.972832 101 86 104
-8.386221 11.973120 74.972832 100 85 103
-8.386221 12.134736 74.972832 99 84 102
-8.365097 12.265379 74.783989 97 82 101
-8.365097 12.426588 74.783989 94 80 99
-8.386221 12.619584 74.972832 91 78 97
-8.386221 12.781200 74.972832 86 75 94
-8.386221 12.942817 74.972832 81 72 91
-8.407452 13.137609 75.162636 76 68 89
-8.365097 13.232634 74.783989 71 65 87
-8.365097 13.393843 74.783989 68 62 85
-8.344079 13.520993 74.596085 66 61 86
-8.302359 13.613389 74.223106 69 63 88
-8.323166 13.807908 74.409126 75 69 94
-8.323166 13.968309 74.409126 83 77 101
-8.302359 14.093389 74.223106 91 84 109
-8.281654 14.217844 74.038010 94 87 112
-8.261053 14.341681 73.853836 96 89 114
-8.220157 14.429098 73.488220 95 88 114
-8.220157 14.587514 73.488220 84 79 105
-8.199861 14.709519 73.306770 71 67 93
-8.179664 14.830925 73.126213 66 63 87
-8.159566 14.951734 72.946541 65 64 87
-8.159566 15.108981 72.946541 66 66 86
-8.119666 15.191578 72.589836 68 69 87
-8.099862 15.310623 72.412788 68 69 86
-8.080154 15.429089 72.236603 66 67 82
-8.060542 15.546979 72.061264 63 63 77
-8.021603 15.626463 71.713142 59 59 72
-8.002274 15.743025 71.540344 55 54 66
-7.983037 15.859028 71.368370 52 51 62
-7.925879 15.898223 70.857384 52 49 58
-7.869534 15.936861 70.353653 50 46 54
-8.874505 -12.541265 80.897118 154 142 149
-8.850389 -12.333273 80.677292 156 143 151
-8.826405 -12.126408 80.458649 158 144 152
-8.826405 -11.952966 80.458649 159 145 153
-8.778823 -11.716023 80.024910 160 144 152
-8.778823 -11.543516 80.024910 162 144 153
-8.802549 -11.401742 80.241196 164 144 153
-8.802549 -11.228769 80.241196 164 142 150
-8.778823 -11.025996 80.024910 162 138 146
-8.778823 -10.853489 80.024910 157 131 139
-8.731751 -10.623712 79.595825 150 122 130
-8.708405 -10.424183 79.383003 144 116 123
-8.731751 -10.280548 79.595825 140 112 119
-8.731751 -10.108967 79.595825 136 109 115
-8.708405 -9.910814 79.383003 132 107 111
-8.731751 -9.765803 79.595825 129 105 108
-8.731751 -9.594221 79.595825 126 105 107
-8.731751 -9.422640 79.595825 127 109 110
-8.685183 -9.201718 79.171310 129 115 115
-8.685183 -9.031052 79.171310 131 120 120
-8.685183 -8.860385 79.171310 135 125 126
-8.685183 -8.689719 79.171310 139 130 133
-8.662084 -8.496395 78.960747 143 135 139
-8.593518 -8.260276 78.335732 147 139 145
-8.570904 -8.070117 78.129585 149 142 149
-8.503769 -7.839803 77.517601 151 144 152
-8.481624 -7.652720 77.315735 154 146 155
-8.526030 -7.525248 77.720528 158 150 160
-8.570904 -7.396433 78.129585 161 153 163
-8.570904 -7.228012 78.129585 164 156 165
-8.593518 -7.078218 78.335732 166 158 165
-8.593518 -6.909352 78.335732 168 159 166
-8.593518 -6.740487 78.335732 165 156 163
-8.548408 -6.537125 77.924522 158 149 156
-8.548408 -6.369146 77.924522 150 139 147
-8.526030 -6.184933 77.720528 144 130 139
