ply
format ascii 1.0
element vertex 1150
property float x
property float y
property float z
property uchar red
property uchar green
property uchar blue
end_header
-9.242747 -6.601149 76.716385 176 109 110
-9.363726 -6.520012 77.720528 173 110 110
-9.388303 -6.369146 77.924522 171 111 112
-9.413009 -6.217485 78.129585 170 115 116
-9.462813 -6.081070 78.542969 171 121 122
-9.462813 -5.911758 78.542969 170 126 128
-9.413009 -5.712223 78.129585 166 129 131
-9.413009 -5.543801 78.129585 160 129 133
-9.413009 -5.375381 78.129585 156 130 136
-9.388303 -5.193293 77.924522 152 131 139
-9.363726 -5.012158 77.720528 140 122 133
-9.363726 -4.844619 77.720528 129 114 126
-9.339277 -4.664868 77.517601 125 112 123
-9.339277 -4.497766 77.517601 131 120 130
-9.314957 -4.319387 77.315735 168 161 168
-9.314957 -4.152720 77.315735 200 194 197
-9.314957 -3.986053 77.315735 164 157 157
-9.339277 -3.829359 77.517601 131 122 121
-9.339277 -3.662257 77.517601 167 159 160
-9.339277 -3.495155 77.517601 190 179 182
-9.339277 -3.328054 77.517601 150 133 140
-9.363726 -3.169226 77.720528 123 101 113
-9.363726 -3.001687 77.720528 126 103 119
-9.388303 -2.841587 77.924522 147 128 144
-9.388303 -2.673608 77.924522 195 183 196
-9.388303 -2.505629 77.924522 233 227 236
-9.413009 -2.343801 78.129585 231 227 235
-9.437845 -2.181120 78.335732 181 180 186
-9.413009 -2.006959 78.129585 119 121 126
-9.437845 -1.843389 78.335732 124 127 130
-9.437845 -1.674524 78.335732 174 178 177
-9.437845 -1.505658 78.335732 196 201 198
-9.437845 -1.336793 78.335732 203 208 204
-9.413009 -1.164854 78.129585 227 230 228
-9.388303 -0.993818 77.924522 242 243 244
-9.413009 -0.828012 78.129585 211 210 214
-9.437845 -0.661331 78.335732 146 144 151
-9.413009 -0.491170 78.129585 120 118 126
-9.413009 -0.322749 78.129585 158 156 162
-9.462813 -0.155144 78.542969 191 190 194
-9.413009 0.014093 78.129585 177 177 179
-9.462813 2.384538 78.542969 213 216 214
-9.462813 2.553850 78.542969 180 185 182
-9.437845 2.715977 78.335732 198 202 200
-9.487913 4.767521 78.751305 146 138 142
-9.487913 4.937283 78.751305 127 121 123
-9.487913 5.107044 78.751305 149 144 143
-9.437845 5.248959 78.335732 170 165 162
-9.413009 5.403567 78.129585 191 187 184
-9.413009 5.571988 78.129585 212 211 207
-9.437845 5.755555 78.335732 231 231 227
-9.462813 5.940094 78.542969 213 206 206
-9.437845 6.093286 78.335732 146 127 131
-9.462813 6.278718 78.542969 107 78 84
-9.462813 6.448030 78.542969 149 123 128
-9.413009 8.603567 78.129585 191 124 149
-9.437845 12.172441 78.335732 186 131 146
-9.413009 12.308830 78.129585 186 131 147
-9.437845 12.510173 78.335732 187 131 147
-9.437845 12.679038 78.335732 186 131 147
-9.462813 12.881893 78.542969 184 130 145
-9.462813 13.051205 78.542969 181 131 144
-9.462813 13.220517 78.542969 177 132 142
-9.487913 13.425346 78.751305 168 131 137
-9.487913 13.595107 78.751305 159 131 135
-9.413009 13.656199 78.129585 158 141 146
-9.413009 13.824619 78.129585 162 156 161
-9.437845 14.029962 78.335732 160 162 169
-9.462813 14.236390 78.542969 151 160 169
-9.487913 14.443913 78.751305 125 138 148
-9.487913 14.613675 78.751305 72 88 98
-9.487913 14.783436 78.751305 77 91 102
-9.487913 14.953197 78.751305 168 177 186
-9.462813 15.082951 78.542969 196 198 208
-9.462813 15.252263 78.542969 123 118 137
-9.462813 15.421576 78.542969 86 76 103
-9.487913 15.632242 78.751305 136 120 150
-11.248250 19.941370 93.362396 173 127 156
-11.248250 20.142628 93.362396 187 141 163
-11.248250 20.343885 93.362396 197 152 168
-11.248250 20.545143 93.362396 186 140 152
-11.212989 20.681366 93.069725 170 124 132
-11.283733 21.013741 93.656914 167 122 127
-9.030703 -11.009369 76.321960 168 97 100
-9.100889 -9.768509 76.915138 173 101 105
-9.030703 -9.528649 76.321960 173 102 107
-8.961590 -9.292460 75.737862 175 103 110
-8.938787 -9.105966 75.545143 175 103 112
-9.007547 -9.011909 76.126259 175 101 113
-8.984509 -8.825178 75.931564 174 100 113
-8.961590 -8.639400 75.737862 173 98 112
-8.961590 -8.476134 75.737862 172 97 110
-8.938787 -8.291717 75.545143 173 99 109
-8.916100 -8.108234 75.353409 176 103 112
-8.961590 -7.333277 75.737862 180 108 116
-8.916100 -7.133615 75.353409 179 106 114
-9.077373 -6.931898 76.716385 179 107 112
-9.100889 -6.784053 76.915138 179 109 113
-9.100889 -6.618250 76.915138 177 112 114
-9.196187 -6.520012 77.720528 175 113 114
-9.220324 -6.369146 77.924522 171 116 116
-9.220324 -6.201167 77.924522 168 120 120
-9.268980 -6.065025 78.335732 166 125 125
-9.268980 -5.896160 78.335732 164 130 130
-9.220324 -5.697230 77.924522 157 132 132
-9.244588 -5.543801 78.129585 147 128 129
-9.244588 -5.375381 78.129585 145 131 134
-9.196187 -5.179698 77.720528 159 148 156
-9.196187 -5.012158 77.720528 172 163 172
-9.196187 -4.844619 77.720528 180 172 181
-9.172175 -4.664868 77.517601 177 170 179
-9.172175 -4.497766 77.517601 141 133 143
-9.148290 -4.319387 77.315735 123 116 124
-9.124528 -4.141934 77.114914 156 149 155
-9.124528 -3.975700 77.114914 167 159 162
-9.148290 -3.819387 77.315735 146 137 137
-9.148290 -3.652720 77.315735 153 144 144
-9.148290 -3.486053 77.315735 169 157 160
-9.172175 -3.328054 77.517601 162 145 152
-9.172175 -3.160952 77.517601 158 138 148
-9.196187 -3.001687 77.720528 143 123 137
-9.220324 -2.841587 77.924522 125 105 123
-9.220324 -2.673608 77.924522 156 140 157
-9.220324 -2.505629 77.924522 211 201 214
-9.268980 -2.349986 78.335732 234 228 238
-9.268980 -2.181120 78.335732 204 202 209
-9.268980 -2.012255 78.335732 137 138 144
-9.268980 -1.843389 78.335732 99 102 106
-9.293501 -1.678954 78.542969 134 139 139
-9.268980 -1.505658 78.335732 186 193 190
-9.293501 -1.340329 78.542969 205 212 209
-9.268980 -1.167928 78.335732 221 225 222
-9.244588 -0.996433 78.129585 234 235 235
-9.244588 -0.828012 78.129585 201 199 205
-9.293501 -0.663081 78.542969 141 137 147
-9.268980 -0.492466 78.335732 114 109 121
-9.268980 -0.323600 78.335732 134 131 141
-9.318152 -0.155556 78.751305 163 161 168
-9.293501 0.014168 78.542969 155 154 158
-9.268980 2.547112 78.335732 166 172 171
-9.220324 2.701720 77.924522 160 167 167
-9.268980 3.391439 78.335732 198 201 204
-9.268980 3.898036 78.335732 185 189 190
-9.268980 4.066901 78.335732 191 192 195
-9.268980 4.235766 78.335732 209 208 211
-9.244588 4.393041 78.129585 234 230 233
-9.293501 4.754909 78.542969 152 137 142
-9.293501 4.924221 78.542969 154 139 142
-9.293501 5.093533 78.542969 166 152 153
-9.244588 5.235146 78.129585 149 135 135
-9.220324 5.389384 77.924522 171 158 159
-9.220324 5.557364 77.924522 223 214 213
-9.244588 5.740409 78.129585 247 242 241
-9.268980 5.924421 78.335732 235 222 225
-9.268980 6.093286 78.335732 181 152 159
-9.293501 6.278718 78.542969 138 97 107
-9.293501 6.448030 78.542969 166 124 133
-9.318152 7.653463 78.751305 206 142 170
-9.220324 8.580985 77.924522 192 127 149
-9.293501 12.204644 78.542969 189 135 149
-9.293501 12.373957 78.542969 189 134 148
-9.293501 12.543268 78.542969 190 133 147
-9.268980 12.679038 78.335732 188 132 144
-9.268980 12.847903 78.335732 186 130 141
-9.293501 13.051205 78.542969 183 130 137
-9.268980 13.185635 78.335732 177 130 133
-9.293501 13.389830 78.542969 168 129 129
-9.293501 13.559141 78.542969 159 130 129
-9.220324 13.620356 77.924522 155 136 136
-9.244588 13.824619 78.129585 154 144 147
-9.268980 14.029962 78.335732 153 151 158
-9.293501 14.236390 78.542969 154 156 169
-9.293501 14.405703 78.542969 137 143 159
-9.318152 14.613675 78.751305 91 98 115
-9.318152 14.783436 78.751305 90 96 114
-9.318152 14.953197 78.751305 176 178 193
-9.318152 15.122959 78.751305 193 191 204
-9.318152 15.292720 78.751305 112 104 126
-9.318152 15.462481 78.751305 97 85 112
-9.342935 15.673818 78.960747 172 158 182
-11.046991 19.941370 93.362396 173 130 158
-11.046991 20.142628 93.362396 185 141 165
-11.046991 20.343885 93.362396 192 147 167
-11.046991 20.545143 93.362396 180 135 152
-11.046991 20.746401 93.362396 166 121 135
-11.116909 21.080238 93.953300 163 119 130
-8.843445 -10.981140 76.126259 170 97 100
-8.889030 -9.553207 76.518669 172 102 109
-8.820827 -9.316226 75.931564 174 103 111
-8.820827 -9.152544 75.931564 175 102 113
-8.889030 -9.058362 76.518669 175 100 113
-8.843445 -8.847807 76.126259 173 98 112
-8.820827 -8.661495 75.931564 171 96 111
-8.820827 -8.497812 75.931564 169 93 108
-8.798325 -8.312869 75.737862 169 95 108
-8.911999 -6.766523 76.716385 181 111 117
-8.889030 -6.584136 76.518669 180 114 119
-9.005075 -6.502988 77.517601 177 117 120
-9.052344 -6.369146 77.924522 173 120 122
-9.052344 -6.201167 77.924522 169 124 125
-9.100115 -6.065025 78.335732 164 128 129
-9.100115 -5.896160 78.335732 159 133 133
-9.052344 -5.697230 77.924522 151 134 134
-9.076167 -5.543801 78.129585 135 125 126
-9.076167 -5.375381 78.129585 126 121 123
-9.028647 -5.179698 77.720528 153 150 154
-9.028647 -5.012158 77.720528 200 197 203
-9.028647 -4.844619 77.720528 229 226 231
-8.981624 -4.652720 77.315735 220 217 222
-8.981624 -4.486053 77.315735 160 156 163
-8.958295 -4.308167 77.114914 98 92 98
-8.935086 -4.131204 76.915138 101 95 99
-8.935086 -3.965400 76.915138 150 145 147
-8.958295 -3.809466 77.114914 179 172 172
-8.935086 -3.633794 76.915138 153 143 144
-8.958295 -3.476999 77.114914 123 110 113
-8.981624 -3.319387 77.315735 144 129 135
-8.981624 -3.152720 77.315735 188 175 182
-8.981624 -2.986053 77.315735 186 172 182
-9.052344 -2.841587 77.924522 135 120 135
-9.028647 -2.666609 77.720528 122 107 125
-9.052344 -2.505629 77.924522 171 159 175
-9.076167 -2.343801 78.129585 220 213 225
-9.100115 -2.181120 78.335732 227 223 231
-9.100115 -2.012255 78.335732 179 179 184
-9.124188 -1.848266 78.542969 109 113 116
-9.124188 -1.678954 78.542969 95 101 101
-9.124188 -1.509642 78.542969 153 159 157
-9.124188 -1.340329 78.542969 208 213 210
-9.100115 -1.167928 78.335732 229 232 231
-9.052344 -0.993818 77.924522 234 234 236
-9.052344 -0.825839 77.924522 210 206 213
-9.124188 -0.663081 78.542969 172 166 178
-9.100115 -0.492466 78.335732 146 139 153
-9.100115 -0.323600 78.335732 130 125 138
-9.148391 -0.155556 78.751305 129 126 136
-7.613562 1.707186 65.539169 212 217 214
-7.630405 1.852556 65.684166 223 228 226
-9.052344 2.701720 77.924522 120 130 134
-9.076167 3.382514 78.129585 178 181 187
-9.124188 3.739036 78.542969 133 137 142
-9.100115 3.898036 78.335732 184 187 190
-9.076167 4.056199 78.129585 190 189 192
-9.100115 4.235766 78.335732 205 202 205
-9.052344 4.381510 77.924522 235 229 232
-9.100115 4.573497 78.335732 210 197 200
-9.100115 4.742362 78.335732 158 135 141
-9.100115 4.911228 78.335732 165 140 143
-9.100115 5.080093 78.335732 174 148 151
-9.052344 5.221406 77.924522 146 119 122
-9.028647 5.375276 77.720528 167 139 145
-9.028647 5.542815 77.720528 224 200 207
-9.052344 5.725342 77.924522 248 229 235
-9.100115 5.924421 78.335732 230 202 212
-9.076167 6.077251 78.129585 182 138 152
-9.124188 6.278718 78.542969 158 105 120
-9.124188 6.448030 78.542969 182 126 142
-9.124188 6.617342 78.542969 202 146 163
-9.124188 6.955967 78.542969 198 137 160
-9.124188 7.463903 78.542969 203 137 162
-9.148391 7.653463 78.751305 209 142 166
-9.372128 12.362379 80.677292 191 138 151
-9.172722 12.609988 78.960747 190 134 144
-9.100115 12.679038 78.335732 189 132 139
-9.124188 12.881893 78.542969 186 131 133
-9.100115 13.016769 78.335732 181 129 125
-9.052344 13.116419 77.924522 173 128 118
-9.076167 13.319357 78.129585 166 129 115
-9.100115 13.523365 78.335732 160 132 117
-9.028647 13.584701 77.720528 152 133 121
-9.052344 13.788335 77.924522 147 136 131
-9.076167 13.993041 78.129585 152 147 149
-9.100115 14.198827 78.335732 164 162 173
-9.124188 14.405703 78.542969 153 153 171
-9.148391 14.613675 78.751305 113 112 134
-9.148391 14.783436 78.751305 110 108 132
-9.172722 14.992967 78.960747 178 175 195
-9.172722 15.163179 78.960747 183 177 195
-9.172722 15.333392 78.960747 112 101 126
-9.197183 15.544948 79.171310 117 105 130
-9.221774 15.757635 79.383003 193 181 201
-10.845734 20.343885 93.362396 175 132 153
-10.845734 20.545143 93.362396 169 126 144
-10.811734 20.681366 93.069725 164 121 137
-10.914378 21.080238 93.953300 162 120 133
-8.679342 -11.145243 76.126259 168 96 101
-8.679342 -10.981140 76.126259 170 96 101
-8.701653 -9.199600 76.321960 174 101 112
-8.792061 -9.128947 77.114914 174 99 112
-8.679342 -8.847807 76.126259 173 97 112
-8.657145 -8.661495 75.931564 171 95 111
-8.657145 -8.497812 75.931564 169 93 108
-8.657145 -8.334129 75.931564 169 94 108
-8.679342 -6.714473 76.126259 182 112 123
-8.657145 -6.533617 75.931564 182 116 124
-8.746624 -6.435774 76.716385 179 119 124
-8.837973 -6.335886 77.517601 175 122 126
-8.837973 -6.168785 77.517601 170 125 129
-8.907745 -6.049065 78.129585 165 130 133
-8.907745 -5.880643 78.129585 159 135 137
-8.884366 -5.697230 77.924522 151 137 139
-8.907745 -5.543801 78.129585 134 127 130
-8.907745 -5.375381 78.129585 111 110 114
-8.861108 -5.179698 77.720528 123 125 129
-8.861108 -5.012158 77.720528 181 183 188
-8.861108 -4.844619 77.720528 232 233 236
-8.837973 -4.664868 77.517601 226 226 229
-8.792061 -4.474401 77.114914 182 180 184
-8.792061 -4.308167 77.114914 137 134 137
-8.746624 -4.120529 76.716385 113 109 112
-8.769283 -3.965400 76.915138 140 136 137
-8.792061 -3.809466 77.114914 187 183 184
-8.769283 -3.633794 76.915138 165 159 160
-8.792061 -3.476999 77.114914 105 96 100
-8.814957 -3.319387 77.315735 116 107 112
-8.814957 -3.152720 77.315735 186 179 184
-8.814957 -2.986053 77.315735 213 206 212
-8.861108 -2.834148 77.720528 162 153 163
-8.884366 -2.673608 77.924522 111 101 113
-8.884366 -2.505629 77.924522 133 125 137
-8.931249 -2.349986 78.335732 197 191 201
-8.954877 -2.186890 78.542969 236 233 239
-8.954877 -2.017578 78.542969 215 215 218
-8.978630 -1.853168 78.751305 138 141 142
-9.002509 -1.687884 78.960747 81 87 86
-8.978630 -1.513646 78.751305 122 128 126
-8.978630 -1.343885 78.751305 200 205 202
-8.954877 -1.171017 78.542969 234 237 236
-8.907745 -0.996433 78.129585 238 239 240
-8.907745 -0.828012 78.129585 232 230 234
-8.954877 -0.663081 78.542969 218 214 223
-8.954877 -0.493769 78.542969 192 186 198
-8.954877 -0.324456 78.542969 146 140 153
-8.978630 -0.155556 78.751305 117 113 125
-7.455822 1.703426 65.394806 199 205 204
-7.472281 1.848467 65.539169 212 218 218
-7.488813 1.994149 65.684166 223 228 229
-7.455822 2.549241 65.394806 129 135 149
-8.907745 3.382514 78.129585 153 155 167
-8.931249 3.560305 78.335732 87 91 103
-8.931249 3.729170 78.335732 111 114 124
-8.907745 3.887778 78.129585 182 182 189
-8.884366 4.045552 77.924522 210 208 212
-8.884366 4.213531 77.924522 221 216 218
-8.861108 4.370040 77.720528 232 224 227
-8.907745 4.561462 78.129585 206 190 194
-8.884366 4.717468 77.924522 166 138 143
-8.907745 4.898304 78.129585 184 151 156
-8.907745 5.066725 78.129585 191 160 165
-8.884366 5.221406 77.924522 153 119 124
-8.861108 5.375276 77.720528 167 126 134
-8.861108 5.542815 77.720528 216 177 186
-8.861108 5.710355 77.720528 234 198 206
-8.907745 5.908830 78.129585 211 166 178
-8.884366 6.061300 77.924522 175 118 136
-8.931249 6.262152 78.335732 172 112 130
-8.931249 6.431017 78.335732 193 131 150
-8.931249 6.599883 78.335732 202 140 161
-8.954877 6.786654 78.542969 202 140 162
-8.931249 6.937613 78.335732 202 139 162
-8.954877 7.125279 78.542969 202 138 160
-8.954877 7.294591 78.542969 204 137 159
-8.954877 7.463903 78.542969 202 135 155
-8.978630 7.653463 78.751305 206 139 156
-9.002509 8.014243 78.960747 217 157 168
-8.954877 8.141152 78.542969 194 133 143
-8.931249 8.288537 78.335732 188 127 137
-8.931249 8.457402 78.335732 193 132 144
-9.002509 12.609988 78.960747 188 137 140
-8.931249 12.679038 78.335732 186 135 132
-8.931249 12.847903 78.335732 183 133 122
-8.931249 13.016769 78.335732 173 127 107
-8.861108 13.082083 77.720528 164 126 98
-8.884366 13.284397 77.924522 169 139 108
-8.907745 13.487778 78.129585 176 153 122
-8.861108 13.584701 77.720528 170 154 128
-8.884366 13.788335 77.924522 169 158 142
-8.907745 13.993041 78.129585 183 176 172
-8.954877 14.236390 78.542969 191 185 194
-8.978630 14.443913 78.751305 167 161 179
-9.002509 14.652541 78.960747 128 122 147
-9.002509 14.822754 78.960747 127 120 148
-9.026516 15.032948 79.171310 159 151 178
-9.026516 15.203614 79.171310 146 137 161
-9.026516 15.374281 79.171310 113 102 127
-9.026516 15.544948 79.171310 154 143 162
-9.050651 15.757635 79.383003 220 211 224
-10.577948 20.416737 92.778885 164 121 141
-10.479701 20.425249 91.917160 163 121 138
-10.644476 20.947659 93.362396 162 119 134
-8.493462 -11.116738 75.931564 168 96 103
-8.493462 -10.953055 75.931564 169 96 104
-8.625827 -9.295180 77.114914 173 100 112
-8.670871 -9.176618 77.517601 174 98 113
-8.537129 -8.870551 76.321960 173 97 113
-8.493462 -8.661495 75.931564 173 96 112
-8.493462 -8.497812 75.931564 172 96 111
-8.493462 -8.334129 75.931564 172 97 111
-8.471794 -8.149604 75.737862 176 103 116
-8.450237 -7.314617 75.545143 182 111 126
-8.450237 -7.151767 75.545143 182 109 126
-8.471794 -6.843481 75.737862 184 111 126
-8.493462 -6.697300 75.931564 184 114 127
-8.471794 -6.516950 75.737862 184 117 127
-8.537129 -6.402685 76.321960 180 118 126
-8.625827 -6.302973 77.114914 176 121 127
-8.625827 -6.136739 77.114914 172 125 129
-8.716387 -6.033188 77.924522 166 129 132
-8.716387 -5.865209 77.924522 161 134 136
-8.693569 -5.682315 77.720528 154 138 140
-8.716387 -5.529251 77.924522 139 131 135
-8.716387 -5.361272 77.924522 111 108 114
-8.716387 -5.193293 77.924522 100 101 107
-8.693569 -5.012158 77.720528 146 148 154
-8.693569 -4.844619 77.720528 211 214 217
-8.693569 -4.677080 77.720528 223 224 226
-8.670871 -4.497766 77.517601 207 207 211
-8.648290 -4.319387 77.315735 199 198 201
-8.625827 -4.141934 77.114914 160 160 161
-8.625827 -3.975700 77.114914 133 132 133
-8.648290 -3.819387 77.315735 171 170 170
-8.648290 -3.652720 77.315735 184 182 182
-8.648290 -3.486053 77.315735 123 120 122
-8.670871 -3.328054 77.517601 101 98 100
-8.670871 -3.160952 77.517601 169 166 169
-8.670871 -2.993850 77.517601 225 222 225
-8.716387 -2.841587 77.924522 195 191 196
-8.739325 -2.680644 78.129585 127 122 130
-8.739325 -2.512223 78.129585 116 111 119
-8.762383 -2.349986 78.335732 177 173 181
-8.785564 -2.186890 78.542969 234 232 236
-8.785564 -2.017578 78.542969 232 231 233
-8.808868 -1.853168 78.751305 159 162 162
-8.855849 -1.692385 79.171310 80 85 84
-8.832296 -1.517672 78.960747 89 94 92
-8.832296 -1.347459 78.960747 163 168 166
-8.808868 -1.174123 78.751305 221 224 223
-8.762383 -0.999062 78.335732 243 244 244
-8.739325 -0.828012 78.129585 248 248 249
-8.785564 -0.663081 78.542969 244 243 245
-8.785564 -0.493769 78.542969 217 215 220
-8.808868 -0.325317 78.751305 165 161 170
-8.832296 -0.155970 78.960747 136 132 143
-7.314853 1.703426 65.394806 199 204 204
-7.314853 1.844395 65.394806 205 209 211
-7.331001 1.989747 65.539169 219 222 225
-7.331001 2.131027 65.539169 190 195 202
-7.314853 2.408272 65.394806 84 93 117
-7.314853 2.549241 65.394806 117 124 146
-8.739325 3.382514 78.129585 147 149 167
-8.739325 3.550936 78.129585 78 81 100
-8.762383 3.729170 78.335732 95 96 113
-8.716387 3.877573 77.924522 176 175 186
-8.716387 4.045552 77.924522 228 225 230
-8.716387 4.213531 77.924522 224 216 220
-8.670871 4.358631 77.517601 199 186 191
-8.716387 4.549489 77.924522 181 158 163
-8.693569 4.705119 77.720528 174 140 145
-8.739325 4.898304 78.129585 206 171 175
-8.739325 5.066725 78.129585 208 176 180
-8.693569 5.207737 77.720528 159 121 127
-8.670871 5.361241 77.517601 163 115 123
-8.670871 5.528343 77.517601 198 148 160
-8.648290 5.680613 77.315735 208 157 171
-8.693569 5.877894 77.720528 194 137 154
-8.670871 6.029649 77.517601 178 117 137
-8.716387 6.229280 77.924522 182 119 140
-8.739325 6.414093 78.129585 195 133 155
-8.739325 6.582514 78.129585 200 140 162
-8.739325 6.750936 78.129585 201 140 162
-8.739325 6.919356 78.129585 201 140 161
-8.739325 7.087778 78.129585 201 139 158
-8.762383 7.275344 78.335732 202 139 155
-8.762383 7.444210 78.335732 196 132 144
-8.808868 7.653463 78.751305 198 134 141
-8.808868 7.823224 78.751305 221 162 165
-8.832296 8.014243 78.960747 218 160 160
-8.785564 8.141152 78.542969 184 125 124
-8.762383 8.288537 78.335732 179 120 121
-8.739325 8.435146 78.129585 192 133 138
-8.693569 8.558522 77.720528 194 136 144
-8.832296 12.609988 78.960747 187 140 138
-8.762383 12.679038 78.335732 183 136 127
-8.739325 12.814094 78.129585 177 132 113
-8.739325 12.982514 78.129585 159 119 88
-8.670871 13.047926 77.517601 152 119 80
-8.670871 13.215028 77.517601 178 155 116
-8.739325 13.487778 78.129585 208 194 156
-8.716387 13.620356 77.924522 214 203 170
-8.739325 13.824619 78.129585 218 210 189
-8.739325 13.993041 78.129585 227 222 216
-8.808868 14.274153 78.751305 213 208 212
-8.855849 14.691614 79.171310 131 122 146
-8.832296 14.822754 78.960747 133 124 150
-8.855849 15.032948 79.171310 132 122 147
-8.855849 15.203614 79.171310 104 94 117
-8.855849 15.374281 79.171310 119 110 128
-8.855849 15.544948 79.171310 194 187 198
-8.879528 15.757635 79.383003 243 239 244
-10.313489 20.687439 92.202614 157 114 129
-10.218287 20.693401 91.351517 151 108 122
-8.287388 -11.060164 75.545143 167 94 106
-8.526030 -9.200640 77.720528 173 98 112
-8.394184 -8.893414 76.518669 173 98 113
-8.351137 -8.683704 76.126259 175 99 115
-8.351137 -8.519602 76.126259 177 102 117
-8.351137 -8.355499 76.126259 176 102 116
-8.329779 -8.170446 75.931564 177 103 117
-8.329779 -7.843081 75.931564 181 109 124
-8.329779 -7.515715 75.931564 183 112 128
-8.308529 -7.333277 75.737862 184 112 129
-8.308529 -7.170012 75.737862 184 111 130
-8.308529 -7.006746 75.737862 185 112 131
-8.308529 -6.843481 75.737862 185 112 131
-8.351137 -6.714473 76.126259 186 114 130
-8.329779 -6.533617 75.931564 185 116 129
-8.351137 -6.386268 76.126259 182 117 126
-8.415874 -6.270399 76.716385 179 119 124
-8.415874 -6.105025 76.716385 175 122 125
-8.503769 -6.001683 77.517601 169 126 126
-8.526030 -5.849855 77.720528 162 128 128
-8.526030 -5.682315 77.720528 153 130 131
-8.548408 -5.529251 77.924522 141 126 129
-8.548408 -5.361272 77.924522 119 110 115
-8.548408 -5.193293 77.924522 101 97 103
-8.526030 -5.012158 77.720528 122 121 127
-8.548408 -4.857335 77.924522 171 171 176
-8.526030 -4.677080 77.720528 200 201 205
-8.526030 -4.509541 77.720528 218 219 221
-8.503769 -4.330665 77.517601 232 232 233
-8.481624 -4.152720 77.315735 200 201 201
-8.459593 -3.975700 77.114914 155 156 156
-8.503769 -3.829359 77.517601 162 163 163
-8.503769 -3.662257 77.517601 175 174 174
-8.503769 -3.495155 77.517601 138 137 138
-8.526030 -3.336766 77.720528 116 115 116
-8.526030 -3.169226 77.720528 162 161 162
-8.526030 -3.001687 77.720528 219 219 219
-8.593518 -2.856582 78.335732 219 218 219
-8.593518 -2.687716 78.335732 157 157 160
-8.639107 -2.022930 78.751305 237 238 238
-8.685183 -1.863052 79.171310 181 183 183
-8.708405 -1.696911 79.383003 96 99 99
-8.708405 -1.525787 79.383003 65 69 69
-8.685183 -1.351052 79.171310 116 120 119
-8.662084 -1.177246 78.960747 194 197 196
-8.639107 -1.004362 78.751305 242 243 242
-8.616252 -0.832393 78.542969 254 254 254
-8.639107 -0.664840 78.751305 250 250 250
-8.639107 -0.495078 78.751305 224 223 226
-8.685183 -0.327052 79.171310 177 175 181
-8.708405 -0.156804 79.383003 157 155 163
-8.708405 0.014319 79.383003 169 168 174
-8.755224 0.186439 79.809792 142 145 148
-8.755224 0.358482 79.809792 109 114 115
-7.158117 1.699682 65.251083 214 213 218
-7.173884 1.844395 65.394806 193 191 200
-7.189721 1.989747 65.539169 190 188 198
-7.189721 2.554869 65.539169 126 129 159
-7.173884 2.690210 65.394806 174 176 200
-8.548408 3.373636 77.924522 149 150 174
-8.570904 3.550936 78.129585 90 92 116
-8.570904 3.719357 78.129585 97 98 119
-8.548408 3.877573 77.924522 167 166 181
-8.526030 4.034962 77.720528 223 219 229
-8.526030 4.202501 77.720528 208 197 205
-8.503769 4.358631 77.517601 165 146 155
-8.503769 4.525733 77.517601 169 141 148
-8.503769 4.692834 77.517601 190 155 161
-8.548408 4.885448 77.924522 210 172 178
-8.548408 5.053426 77.924522 203 164 172
-8.526030 5.207737 77.720528 167 123 132
-8.481624 5.347280 77.315735 166 114 128
-8.481624 5.513947 77.315735 182 127 146
-8.459593 5.665858 77.114914 185 127 150
-8.503769 5.862547 77.517601 185 125 149
-8.503769 6.029649 77.517601 182 121 147
-8.526030 6.212973 77.720528 183 122 149
-8.548408 6.397258 77.924522 190 132 157
-8.548408 6.565238 77.924522 195 139 163
-8.548408 6.733216 77.924522 196 140 163
-8.526030 6.883130 77.720528 196 142 161
-8.548408 7.069174 77.924522 196 142 157
-8.570904 7.256198 78.129585 195 141 151
-8.570904 7.424620 78.129585 184 129 133
-8.616252 7.633215 78.542969 184 128 126
-8.616252 7.802528 78.542969 211 157 150
-8.639107 7.992985 78.751305 214 163 154
-8.593518 8.119672 78.335732 189 138 130
-8.570904 8.266725 78.129585 182 129 124
-8.548408 8.413007 77.924522 187 131 130
-8.481624 8.513947 77.315735 191 134 139
-9.072266 12.137481 82.699837 159 119 129
-8.923133 12.463987 81.340393 216 178 180
-8.662084 12.609988 78.960747 180 141 134
-8.570904 12.645672 78.129585 173 137 121
-8.548408 12.780460 77.924522 165 131 105
-8.570904 12.982514 78.129585 141 112 75
-8.503769 13.047926 77.517601 139 115 73
-8.503769 13.215028 77.517601 183 169 128
-8.548408 13.452376 77.924522 231 224 187
-8.548408 13.620356 77.924522 246 241 210
-8.570904 13.824619 78.129585 245 242 222
-8.593518 14.029962 78.335732 238 235 226
-8.662084 14.822754 78.960747 134 126 148
-8.708405 15.073143 79.383003 122 115 134
-8.708405 15.244266 79.383003 95 88 105
-8.685183 15.374281 79.171310 132 126 137
-8.685183 15.544948 79.171310 215 211 216
-8.708405 15.757635 79.383003 252 250 252
-8.083401 -11.004164 75.162636 167 94 108
-8.358491 -9.368179 77.720528 173 101 113
-8.358491 -9.200640 77.720528 172 99 112
-8.250500 -8.916394 76.716385 173 98 112
-8.208080 -8.706027 76.321960 176 102 115
-8.187035 -8.519602 76.126259 180 106 120
-8.208080 -8.376978 76.321960 180 106 119
-8.187035 -8.191396 76.126259 179 105 118
-8.187035 -8.027293 76.126259 180 107 120
-8.187035 -7.863191 76.126259 181 109 123
-8.166096 -7.679398 75.931564 184 112 127
-8.166096 -7.515715 75.931564 185 114 131
-8.145264 -7.333277 75.737862 185 113 132
-8.145264 -7.170012 75.737862 184 113 133
-8.145264 -7.006746 75.737862 184 113 134
-8.145264 -6.843481 75.737862 184 113 134
-8.166096 -6.697300 75.931564 185 115 133
-8.166096 -6.533617 75.931564 185 116 130
-8.166096 -6.369935 75.931564 183 118 125
-8.229236 -6.254239 76.518669 181 119 121
-8.229236 -6.089290 76.518669 177 122 118
-8.271874 -5.955038 76.915138 171 125 117
-8.314957 -5.819387 77.315735 165 127 118
-8.314957 -5.652720 77.315735 156 129 122
-8.358491 -5.514776 77.720528 147 127 123
-8.358491 -5.347237 77.720528 127 114 116
-8.380428 -5.193293 77.924522 107 98 104
-8.358491 -5.012158 77.720528 102 98 105
-8.380428 -4.857335 77.924522 116 115 121
-8.358491 -4.677080 77.720528 155 155 161
-8.358491 -4.509541 77.720528 210 211 215
-8.314957 -4.319387 77.315735 243 243 245
-8.314957 -4.152720 77.315735 238 238 238
-8.293360 -3.975700 77.114914 208 210 211
-8.336667 -3.829359 77.517601 169 171 173
-8.336667 -3.662257 77.517601 140 143 144
-8.358491 -3.504305 77.720528 146 147 148
-8.358491 -3.336766 77.720528 157 158 157
-8.380428 -3.177545 77.924522 160 161 160
-8.380428 -3.009566 77.924522 192 193 192
-8.424653 -2.856582 78.335732 223 225 224
-8.446940 -2.694827 78.542969 191 193 192
-8.491871 -2.028310 78.960747 242 243 243
-8.514516 -1.863052 79.171310 214 214 214
-8.537282 -1.696911 79.383003 134 135 135
-8.537282 -1.525787 79.383003 65 67 67
-8.537282 -1.354665 79.383003 80 83 82
-8.514516 -1.180385 79.171310 164 166 165
-8.491871 -1.007033 78.960747 231 232 232
-8.469346 -0.834601 78.751305 247 248 247
-8.514516 -0.668385 79.171310 245 246 246
-8.514516 -0.497719 79.171310 233 233 235
-8.560170 -0.328806 79.595825 199 199 202
-8.583181 -0.157647 79.809792 176 176 181
-8.583181 0.014396 79.809792 183 184 188
-8.606317 0.186942 80.024910 162 165 167
-8.606317 0.359449 80.024910 114 120 122
-8.380428 2.533741 77.924522 186 178 195
-8.380428 2.701720 77.924522 171 165 189
-8.402483 3.382514 78.129585 155 155 182
-8.380428 3.541615 77.924522 117 119 145
-8.402483 3.719357 78.129585 114 115 139
-8.380428 3.877573 77.924522 154 154 174
-8.358491 4.034962 77.720528 202 199 213
-8.336667 4.191529 77.517601 199 191 202
-8.314957 4.347280 77.315735 171 154 165
-8.314957 4.513947 77.315735 193 171 178
-8.314957 4.680613 77.315735 209 180 188
-8.336667 4.859936 77.517601 187 151 161
-8.358491 5.040197 77.720528 175 132 145
-8.336667 5.194139 77.517601 171 124 140
-8.293360 5.333391 77.114914 171 121 142
-8.293360 5.499625 77.114914 172 119 145
-8.293360 5.665858 77.114914 176 120 150
-8.336667 5.862547 77.517601 186 129 161
-8.336667 6.029649 77.517601 186 130 163
-8.336667 6.196751 77.517601 181 126 158
-8.380428 6.397258 77.924522 183 131 161
-8.380428 6.565238 77.924522 188 138 165
-8.358491 6.715590 77.720528 188 141 164
-8.336667 6.865158 77.517601 188 144 161
-8.314957 7.013947 77.315735 188 146 156
-8.358491 7.218208 77.720528 182 141 144
-8.380428 7.405132 77.924522 166 123 119
-8.424653 7.613075 78.335732 170 126 116
-8.402483 7.761462 78.129585 209 169 156
-8.446940 7.971840 78.542969 228 197 183
-8.402483 8.098304 78.129585 220 190 177
-8.380428 8.245028 77.924522 200 160 152
-8.336667 8.369074 77.517601 176 126 122
-8.771822 10.915812 81.563850 138 123 123
-8.918837 11.635071 82.930847 225 214 221
-8.893992 12.137481 82.699837 140 106 116
-8.723889 12.429933 81.118149 218 185 187
-8.514516 12.643615 79.171310 171 140 132
-8.424653 12.679038 78.335732 165 137 121
-8.380428 12.780460 77.924522 156 131 107
-8.402483 12.982514 78.129585 131 110 77
-8.336667 13.047926 77.517601 131 116 79
-8.293360 13.146378 77.114914 183 175 141
-8.358491 13.584701 77.720528 251 250 228
-8.402483 13.824619 78.129585 237 235 221
-8.402483 13.993041 78.129585 211 206 200
-8.491871 14.822754 78.960747 135 127 144
-8.560170 15.113554 79.595825 125 119 133
-8.583181 15.326224 79.809792 103 99 109
-8.537282 15.415389 79.383003 138 134 139
-8.537282 15.586512 79.383003 215 214 214
-8.537282 15.757635 79.383003 253 251 252
-7.881469 -10.948727 74.783989 167 94 109
-7.921376 -10.842138 75.162636 169 95 112
-7.881469 -10.626308 74.783989 170 96 114
-8.190951 -9.368179 77.720528 176 105 116
-8.212450 -9.224789 77.924522 175 103 114
-8.085125 -8.916394 76.716385 174 102 113
-8.064287 -8.728465 76.518669 176 105 115
-8.022932 -8.519602 76.126259 180 108 119
-8.043556 -8.376978 76.321960 180 108 119
-8.022932 -8.191396 76.126259 180 108 119
-8.043556 -8.047930 76.321960 181 109 120
-8.043556 -7.883405 76.321960 182 110 123
-8.002413 -7.679398 75.931564 184 113 127
-8.043556 -7.554356 76.321960 186 115 131
-8.002413 -7.352032 75.931564 184 115 132
-8.002413 -7.188349 75.931564 183 114 134
-8.002413 -7.024666 75.931564 182 114 135
-7.981998 -6.843481 75.737862 181 115 136
-8.022932 -6.714473 76.126259 182 117 134
-8.022932 -6.550371 76.126259 182 117 130
-8.022932 -6.386268 76.126259 181 119 124
-8.064287 -6.254239 76.518669 178 120 116
-8.064287 -6.089290 76.518669 171 118 106
-8.106071 -5.955038 76.915138 168 123 105
-8.127126 -5.804272 77.114914 178 144 125
-8.148290 -5.652720 77.315735 186 164 147
-8.169565 -5.500377 77.517601 180 165 153
-8.190951 -5.347237 77.720528 149 137 132
-8.190951 -5.179698 77.720528 110 100 100
-8.169565 -4.999072 77.517601 93 86 90
-8.169565 -4.831970 77.517601 92 88 95
-8.169565 -4.664868 77.517601 118 116 124
-8.148290 -4.486053 77.315735 177 176 182
-8.148290 -4.319387 77.315735 225 225 228
-8.148290 -4.152720 77.315735 247 247 247
-8.148290 -3.986053 77.315735 235 236 238
-8.169565 -3.829359 77.517601 177 179 181
-8.169565 -3.662257 77.517601 126 128 130
-8.190951 -3.504305 77.720528 152 154 155
-8.190951 -3.336766 77.720528 189 191 190
-8.212450 -3.177545 77.924522 171 174 172
-8.212450 -3.009566 77.924522 169 172 170
-8.255787 -2.856582 78.335732 206 208 207
-8.255787 -2.687716 78.335732 210 212 211
-8.299584 -2.532214 78.751305 164 168 166
-8.299584 -2.192691 78.751305 199 203 202
-8.299584 -2.022930 78.751305 243 245 245
-8.321658 -1.858097 78.960747 236 237 237
-8.321658 -1.687884 78.960747 173 174 174
-8.343849 -1.521719 79.171310 88 90 90
-8.343849 -1.351052 79.171310 71 72 72
-8.343849 -1.180385 79.171310 147 148 147
-8.321658 -1.007033 78.960747 216 217 216
-8.321658 -0.836821 78.960747 223 224 223
-8.366158 -0.670173 79.383003 227 228 227
-8.366158 -0.499050 79.383003 241 241 241
-8.411139 -0.329690 79.809792 228 228 229
-8.456604 -0.158499 80.241196 193 195 197
-8.456604 0.014474 80.241196 178 181 183
-8.479522 0.187955 80.458649 171 175 176
-8.456604 0.360420 80.241196 137 143 146
-8.190951 2.359569 77.720528 158 134 158
-8.190951 2.527109 77.720528 184 164 189
-8.190951 2.694648 77.720528 183 166 195
-8.190951 2.862187 77.720528 151 136 167
-8.212450 3.037678 77.924522 145 134 163
-8.234061 3.214093 78.129585 164 157 184
-8.212450 3.373636 77.924522 166 163 189
-8.212450 3.541615 77.924522 145 145 170
-8.212450 3.709594 77.924522 128 129 154
-8.212450 3.877573 77.924522 136 137 160
-8.190951 4.034962 77.720528 180 179 197
-8.190951 4.202501 77.720528 208 205 216
-8.169565 4.358631 77.517601 207 200 207
-8.148290 4.513947 77.315735 225 213 220
-8.148290 4.680613 77.315735 212 191 203
-8.169565 4.859936 77.517601 157 125 142
-8.169565 5.027038 77.517601 146 106 127
-8.169565 5.194139 77.517601 167 122 149
-8.148290 5.347280 77.315735 175 127 159
-8.148290 5.513947 77.315735 179 128 165
-8.148290 5.680613 77.315735 191 139 178
-8.169565 5.862547 77.517601 205 154 194
-8.169565 6.029649 77.517601 197 148 188
-8.169565 6.196751 77.517601 177 129 168
-8.212450 6.565238 77.924522 181 139 170
-8.190951 6.715590 77.720528 183 145 169
-8.169565 6.865158 77.517601 178 145 161
-8.148290 7.013947 77.315735 174 145 152
-8.169565 7.199361 77.517601 162 133 133
-8.190951 7.385747 77.720528 149 120 113
-8.234061 7.593041 78.129585 175 145 133
-8.234061 7.761462 78.129585 225 202 190
-8.277628 7.971840 78.542969 248 237 224
-8.234061 8.098304 78.129585 247 237 226
-8.234061 8.266725 78.129585 214 190 182
-8.169565 8.369074 77.517601 164 121 119
-8.572448 10.885905 81.340393 143 136 128
-8.715719 11.602661 82.699837 227 222 226
-8.502563 12.362379 80.677292 202 168 173
-8.388588 12.539827 79.595825 184 153 153
-8.343849 12.643615 79.171310 166 138 134
-8.255787 12.679038 78.335732 162 137 128
-8.234061 12.814094 78.129585 152 132 118
-8.255787 13.016769 78.335732 130 114 93
-8.190951 13.082083 77.720528 130 118 96
-8.127126 13.146378 77.114914 171 164 146
-8.212450 13.620356 77.924522 216 214 203
-8.212450 13.788335 77.924522 195 192 185
-8.212450 13.956313 77.924522 171 165 163
-8.321658 14.822754 78.960747 129 122 134
-8.388588 15.113554 79.595825 117 112 121
-8.433809 15.367535 80.024910 98 95 101
-8.366158 15.415389 79.383003 126 124 126
-8.343849 15.544948 79.171310 206 205 205
-8.366158 15.757635 79.383003 252 251 252
-7.700863 -10.921217 74.596085 168 94 110
-7.720260 -10.787518 74.783989 170 95 113
-7.662358 -10.546612 74.223106 171 96 115
-7.981623 -9.152720 77.315735 177 107 116
-7.899339 -8.893414 76.518669 177 106 115
-7.879032 -8.706027 76.321960 177 108 116
-7.838730 -8.497812 75.931564 179 109 117
-7.879032 -8.376978 76.321960 180 109 118
-7.858829 -8.191396 76.126259 181 109 119
-7.858829 -8.027293 76.126259 181 110 120
-7.879032 -7.883405 76.321960 182 110 121
-7.858829 -7.699089 76.126259 183 113 125
-7.879032 -7.554356 76.321960 183 115 129
-7.858829 -7.370883 76.126259 181 115 130
-7.879032 -7.225307 76.321960 179 115 133
-7.879032 -7.060783 76.321960 178 117 136
-7.858829 -6.878576 76.126259 177 118 138
-7.899339 -6.749084 76.518669 177 120 137
-7.899339 -6.584136 76.518669 179 122 134
-7.879032 -6.402685 76.321960 178 125 128
-7.919750 -6.270399 76.716385 172 121 114
-7.899339 -6.089290 76.518669 155 110 92
-7.940268 -5.955038 76.915138 154 116 92
-7.940268 -5.789235 76.915138 191 165 141
-7.981623 -5.652720 77.315735 226 214 193
-7.981623 -5.486053 77.315735 226 219 204
-8.002463 -5.333275 77.517601 183 175 167
-8.002463 -5.166174 77.517601 121 113 109
-8.002463 -4.999072 77.517601 96 89 89
-8.002463 -4.831970 77.517601 93 89 95
-8.002463 -4.664868 77.517601 95 94 102
-8.002463 -4.497766 77.517601 124 124 133
-8.002463 -4.330665 77.517601 179 181 187
-8.002463 -4.163563 77.517601 227 229 232
-8.023412 -4.006923 77.720528 228 230 233
-8.023412 -3.839384 77.720528 186 188 192
-8.023412 -3.671844 77.720528 142 144 146
-8.023412 -3.504305 77.720528 152 154 156
-8.044471 -3.345524 77.924522 198 200 200
-8.044471 -3.177545 77.924522 203 205 204
-8.065640 -3.017486 78.129585 174 179 175
-8.086922 -2.856582 78.335732 175 179 176
-8.086922 -2.687716 78.335732 195 199 197
-8.108315 -2.525515 78.542969 177 181 180
-8.108315 -2.356202 78.542969 156 161 159
-8.108315 -2.186890 78.542969 192 197 195
-8.108315 -2.017578 78.542969 234 238 237
-8.129824 -1.853168 78.751305 241 244 243
-8.129824 -1.683407 78.751305 206 208 207
-8.151445 -1.517672 78.960747 126 127 127
-8.173182 -1.351052 79.171310 82 84 84
-8.151445 -1.177246 78.960747 139 141 140
-8.151445 -1.007033 78.960747 200 203 202
-8.151445 -0.836821 78.960747 199 202 201
-8.195036 -0.670173 79.383003 209 211 210
-8.195036 -0.499050 79.383003 240 242 241
-8.239095 -0.329690 79.809792 242 243 243
-8.283630 -0.158499 80.241196 206 209 210
-8.283630 0.014474 80.241196 178 182 183
-8.306080 0.187955 80.458649 178 183 185
-8.283630 0.360420 80.241196 162 166 172
-8.261303 0.531955 80.024910 144 147 158
-8.108315 1.368665 78.542969 158 138 143
-8.044471 2.029804 77.924522 201 166 180
-8.023412 2.192030 77.720528 175 140 159
-8.002463 2.353409 77.517601 169 135 159
-8.002463 2.520510 77.517601 196 167 192
-8.002463 2.687612 77.517601 208 188 210
-8.002463 2.854714 77.517601 184 165 186
-8.044471 3.037678 77.924522 156 138 159
-8.065640 3.214093 78.129585 162 149 170
-8.044471 3.373636 77.924522 173 166 187
-8.044471 3.541615 77.924522 158 156 179
-8.044471 3.709594 77.924522 131 131 156
-8.044471 3.877573 77.924522 119 120 146
-8.023412 4.034962 77.720528 164 165 185
-8.023412 4.202501 77.720528 214 213 225
-8.002463 4.358631 77.517601 221 217 228
-7.981623 4.513947 77.315735 229 221 233
-7.981623 4.680613 77.315735 208 191 208
-8.002463 4.859936 77.517601 147 121 144
-8.002463 5.027038 77.517601 126 92 121
-8.023412 5.207737 77.720528 151 114 147
-8.002463 5.361241 77.517601 184 147 180
-8.002463 5.528343 77.517601 207 170 204
-8.002463 5.695445 77.517601 223 184 220
-8.002463 5.862547 77.517601 233 195 231
-8.023412 6.045433 77.720528 216 180 216
-8.023412 6.212973 77.720528 173 135 175
-8.065640 6.582514 78.129585 177 145 177
-8.023412 6.715590 77.720528 186 160 181
-8.023412 6.883130 77.720528 167 144 159
-7.981623 7.013947 77.315735 156 138 144
-7.981623 7.180613 77.315735 145 127 126
-8.023412 7.385747 77.720528 148 130 123
-8.065640 7.593041 78.129585 197 179 171
-8.065640 7.761462 78.129585 242 232 225
-8.129824 7.992985 78.751305 254 251 245
-8.065640 8.098304 78.129585 254 252 245
-8.065640 8.266725 78.129585 223 207 204
-8.023412 8.390983 77.720528 166 131 133
-8.420174 10.915812 81.563850 164 161 147
-8.537447 11.424389 82.699837 235 235 235
-8.537447 11.602661 82.699837 228 224 227
-8.490148 12.070237 82.241669 140 109 127
-8.466695 12.213689 82.014481 155 119 135
-8.466695 12.390485 82.014481 167 130 143
-8.328650 12.362379 80.677292 177 140 150
-8.239095 12.401493 79.809792 176 142 149
-8.217007 12.539827 79.595825 167 138 140
-8.173182 12.643615 79.171310 159 135 136
-8.108315 12.712581 78.542969 155 137 135
-8.108315 12.881893 78.542969 145 133 129
-8.108315 13.051205 78.542969 130 121 115
-8.023412 13.082083 77.720528 126 120 113
-8.002463 13.215028 77.517601 137 134 129
-8.044471 13.620356 77.924522 144 141 140
-8.065640 13.824619 78.129585 147 143 144
-8.065640 13.993041 78.129585 165 160 163
-8.173182 14.862281 79.171310 112 105 115
-8.283630 15.236095 80.241196 97 92 101
-8.328650 15.492814 80.677292 85 82 88
-8.239095 15.498267 79.809792 116 113 117
-8.195036 15.586512 79.383003 200 198 200
-8.195036 15.757635 79.383003 250 250 251
-8.306080 16.318037 80.458649 222 212 219
-7.540059 -10.921217 74.596085 168 94 110
-7.540059 -10.760413 74.596085 170 95 113
-7.483649 -10.520310 74.038010 171 95 115
-7.794658 -9.128947 77.114914 178 108 117
-7.734390 -8.893414 76.518669 177 109 117
-7.734390 -8.728465 76.518669 177 109 117
-7.694726 -8.519602 76.126259 178 110 118
-7.734390 -8.398568 76.518669 179 111 119
-7.714508 -8.212454 76.321960 181 111 120
-7.714508 -8.047930 76.321960 181 112 120
-7.734390 -7.903723 76.518669 180 112 120
-7.694726 -7.699089 76.126259 180 113 123
-7.714508 -7.554356 76.321960 178 114 125
-7.714508 -7.389832 76.321960 175 115 128
-7.734390 -7.243929 76.518669 172 116 132
-7.734390 -7.078981 76.518669 171 118 136
-7.714508 -6.896258 76.321960 171 121 139
-7.754375 -6.766523 76.716385 172 124 140
-7.734390 -6.584136 76.518669 181 136 146
-7.734390 -6.419187 76.518669 188 147 147
-7.754375 -6.270399 76.716385 172 135 124
-7.754375 -6.105025 76.716385 140 107 87
-7.754375 -5.939650 76.716385 134 108 80
-7.774465 -5.789235 76.915138 182 164 137
-7.814957 -5.652720 77.315735 233 227 204
-7.814957 -5.486053 77.315735 245 243 227
-7.835361 -5.333275 77.517601 213 211 200
-7.835361 -5.166174 77.517601 162 159 152
-7.835361 -4.999072 77.517601 134 131 128
-7.835361 -4.831970 77.517601 111 110 112
-7.835361 -4.664868 77.517601 84 84 91
-7.835361 -4.497766 77.517601 89 90 100
-7.835361 -4.330665 77.517601 134 136 145
-7.835361 -4.163563 77.517601 176 178 187
-7.855873 -4.006923 77.720528 185 189 197
-7.835361 -3.829359 77.517601 184 187 193
-7.835361 -3.662257 77.517601 168 170 173
-7.855873 -3.504305 77.720528 148 149 151
-7.876492 -3.345524 77.924522 176 178 179
-7.876492 -3.177545 77.924522 213 215 214
-7.876492 -3.009566 77.924522 190 193 191
-7.918056 -2.856582 78.335732 160 164 161
-7.918056 -2.687716 78.335732 175 179 177
-7.939003 -2.525515 78.542969 174 178 176
-7.939003 -2.356202 78.542969 147 153 150
-7.939003 -2.186890 78.542969 169 175 173
-7.939003 -2.017578 78.542969 212 218 216
-7.939003 -1.848266 78.542969 232 237 236
-7.939003 -1.678954 78.542969 220 223 222
-7.960062 -1.513646 78.751305 150 152 151
-7.981232 -1.347459 78.960747 88 90 89
-7.981232 -1.177246 78.960747 124 127 126
-7.981232 -1.007033 78.960747 189 192 190
-7.960062 -0.834601 78.751305 205 208 207
-7.981232 -0.666608 78.960747 218 220 219
-7.981232 -0.496395 78.960747 243 245 244
-8.045424 -0.328806 79.595825 246 250 248
-8.067052 -0.157647 79.809792 224 228 228
-8.067052 0.014396 79.809792 194 198 200
-8.088796 0.186942 80.024910 184 187 193
-8.067052 0.358482 79.809792 174 175 185
-8.045424 0.529103 79.595825 149 147 163
-7.939003 1.368665 78.542969 184 155 164
-7.918056 1.533919 78.335732 160 120 130
-7.918056 1.702785 78.335732 176 134 143
-7.897219 1.866725 78.129585 200 158 168
-7.876492 2.029804 77.924522 197 157 170
-7.855873 2.192030 77.720528 181 141 157
-7.835361 2.353409 77.517601 183 145 164
-7.835361 2.520510 77.517601 212 181 198
-7.835361 2.687612 77.517601 233 213 224
-7.835361 2.854714 77.517601 208 188 198
-7.855873 3.029726 77.720528 159 136 149
-7.897219 3.214093 78.129585 155 136 151
-7.876492 3.373636 77.924522 175 163 181
-7.876492 3.541615 77.924522 165 158 181
-7.876492 3.709594 77.924522 129 126 151
-7.876492 3.877573 77.924522 109 107 136
-7.855873 4.034962 77.720528 157 155 178
-7.855873 4.202501 77.720528 202 200 215
-7.855873 4.370040 77.720528 188 183 201
-7.835361 4.525733 77.517601 197 189 208
-7.835361 4.692834 77.517601 210 197 215
-7.855873 4.872658 77.720528 161 142 167
-7.835361 5.027038 77.517601 108 83 116
-7.876492 5.221406 77.924522 128 100 134
-7.855873 5.375276 77.720528 197 174 199
-7.835361 5.528343 77.517601 235 216 236
-7.835361 5.695445 77.517601 241 218 241
-7.835361 5.862547 77.517601 246 223 248
-7.855873 6.045433 77.720528 231 212 235
-7.855873 6.212973 77.720528 171 147 180
-7.897219 6.582514 78.129585 167 147 174
-7.876492 6.733216 77.924522 192 179 193
-7.876492 6.901196 77.924522 160 149 158
-7.835361 7.032260 77.517601 148 138 144
-7.835361 7.199361 77.517601 149 141 140
-7.876492 7.405132 77.924522 164 155 150
-7.897219 7.593041 78.129585 216 208 203
-7.918056 7.781940 78.335732 251 247 243
-7.981232 8.014243 78.960747 254 253 250
-7.918056 8.119672 78.335732 254 252 250
-7.918056 8.288537 78.335732 236 226 225
-7.855873 8.390983 77.720528 190 163 167
-8.267061 10.945883 81.788544 185 179 162
-8.335954 11.214876 82.470116 209 205 199
-8.359174 11.424389 82.699837 233 231 232
-8.359174 11.602661 82.699837 219 212 219
-8.335954 11.925987 82.470116 145 115 140
-8.312862 12.070237 82.241669 150 113 138
-8.289899 12.213689 82.014481 158 117 139
-8.267061 12.356351 81.788544 163 122 139
-8.154737 12.362379 80.677292 165 124 138
-8.088796 12.434920 80.024910 162 125 135
-8.067052 12.573536 79.809792 158 127 134
-8.023912 12.677421 79.383003 153 129 135
-7.939003 12.712581 78.542969 143 128 134
-7.939003 12.881893 78.542969 132 123 130
-7.939003 13.051205 78.542969 127 123 130
-7.876492 13.116419 77.924522 126 125 134
-7.897219 13.824619 78.129585 168 164 171
-7.876492 13.956313 77.924522 208 204 209
-8.267061 15.177288 81.788544 147 136 145
-8.023912 14.902020 79.383003 100 88 98
-8.154737 15.318901 80.677292 87 76 85
-8.199299 15.577474 81.118149 86 76 85
-8.067052 15.498267 79.809792 116 107 116
-8.002516 15.544948 79.171310 189 182 189
-8.023912 15.757635 79.383003 236 230 238
-8.045424 15.971462 79.595825 231 221 235
-8.132638 16.318037 80.458649 193 176 196
-6.050289 12.655958 59.857342 114 67 88
-7.379255 -10.921217 74.596085 168 93 108
-7.342359 -10.706612 74.223106 170 94 111
-7.589001 -9.908642 76.716385 177 105 123
-7.648290 -9.486053 77.315735 176 109 119
-7.608662 -9.271100 76.915138 175 109 119
-7.628424 -9.128947 77.114914 174 109 119
-7.589001 -8.916394 76.716385 174 110 120
-7.589001 -8.751019 76.716385 174 111 120
-7.549983 -8.541503 76.321960 175 112 121
-7.569442 -8.398568 76.518669 176 113 122
-7.549983 -8.212454 76.321960 178 115 122
-7.530624 -8.027293 76.126259 179 116 123
-7.569442 -7.903723 76.518669 178 117 123
-7.530624 -7.699089 76.126259 176 118 124
-7.549983 -7.554356 76.321960 173 118 126
-7.549983 -7.389832 76.321960 168 117 127
-7.549983 -7.225307 76.321960 162 116 129
-7.549983 -7.060783 76.321960 161 118 134
-7.530624 -6.878576 76.126259 161 121 138
-7.569442 -6.749084 76.518669 164 126 142
-7.589001 -6.601149 76.716385 185 152 161
-7.569442 -6.419187 76.518669 204 175 176
-7.589001 -6.270399 76.716385 180 154 146
-7.589001 -6.105025 76.716385 133 111 95
-7.589001 -5.939650 76.716385 117 101 77
-7.589001 -5.774275 76.716385 145 135 109
-7.648290 -5.652720 77.315735 190 187 163
-7.648290 -5.486053 77.315735 224 224 207
-7.668260 -5.333275 77.517601 230 230 218
-7.668260 -5.166174 77.517601 217 217 208
-7.668260 -4.999072 77.517601 201 200 195
-7.668260 -4.831970 77.517601 152 152 153
-7.688334 -4.677080 77.720528 89 90 95
-7.688334 -4.509541 77.720528 72 75 85
-7.668260 -4.330665 77.517601 93 97 110
-7.668260 -4.163563 77.517601 105 110 124
-7.708513 -4.017440 77.924522 123 128 141
-7.668260 -3.829359 77.517601 171 174 183
-7.688334 -3.671844 77.720528 186 188 193
-7.688334 -3.504305 77.720528 144 147 150
-7.708513 -3.345524 77.924522 145 148 149
-7.688334 -3.169226 77.720528 198 200 199
-7.708513 -3.009566 77.924522 206 208 206
-7.749191 -2.856582 78.335732 178 180 178
-7.728798 -2.680644 78.129585 184 187 185
-7.749191 -2.518851 78.335732 185 188 186
-7.769691 -2.356202 78.542969 147 151 149
-7.769691 -2.186890 78.542969 148 153 151
-7.769691 -2.017578 78.542969 196 201 199
-7.790301 -1.853168 78.751305 229 233 232
-7.790301 -1.683407 78.751305 228 230 229
-7.811019 -1.517672 78.960747 169 172 170
-7.831849 -1.351052 79.171310 96 99 97
-7.831849 -1.180385 79.171310 102 106 105
-7.811019 -0.666608 78.960747 241 242 242
-7.811019 -0.496395 78.960747 248 250 250
-7.852790 -0.327927 79.383003 243 248 247
