ply
format ascii 1.0
element vertex 1223
property float x
property float y
property float z
property uchar red
property uchar green
property uchar blue
end_header
-5.591759 -6.962916 63.438553 173 144 137
-5.579836 -6.811609 63.303288 169 139 138
-5.579836 -6.675148 63.303288 155 124 128
-5.579836 -6.538688 63.303288 122 90 98
-5.579836 -6.402227 63.303288 88 56 66
-5.579836 -6.265767 63.303288 70 39 48
-5.603733 -6.155556 63.574394 66 34 43
-5.603733 -6.018511 63.574394 67 35 42
-5.603733 -5.881466 63.574394 68 36 43
-5.579836 -5.719924 63.303288 70 38 44
-5.556143 -5.559755 63.034485 71 39 43
-5.556143 -5.423874 63.034485 72 41 43
-5.556143 -5.287992 63.034485 84 54 53
-5.567965 -5.163074 63.168602 111 80 75
-5.556143 -5.016231 63.034485 148 117 107
-5.556143 -4.880349 63.034485 183 149 136
-5.544372 -4.734416 62.900936 197 161 144
-5.556143 -4.608587 63.034485 175 138 119
-5.556143 -4.472706 63.034485 131 93 73
-5.556143 -4.336825 63.034485 102 65 46
-5.579836 -4.218858 63.303288 99 64 49
-5.615758 -4.108679 63.710819 98 64 55
-5.615758 -3.971340 63.710819 89 58 53
-5.627835 -3.842246 63.847832 99 71 70
-5.615758 -3.696662 63.710819 128 102 102
-5.652145 -3.582386 64.123634 123 100 102
-5.664380 -3.451612 64.262428 81 60 62
-5.676667 -3.320270 64.401825 51 31 34
-5.652145 -3.167699 64.123634 47 27 30
-5.789698 -1.828860 65.684166 45 29 29
-5.764193 -1.679834 65.394806 45 28 28
-5.713850 -1.525425 64.823669 44 26 28
-5.701402 -1.382668 64.682442 43 25 27
-5.689007 -1.240532 64.541832 43 25 27
-6.260630 3.993673 71.026894 57 32 34
-6.043749 4.150937 68.566376 55 31 33
-5.880772 7.059226 66.717400 59 31 35
-5.802535 7.107218 65.829803 60 32 35
-5.841392 9.011954 66.270630 58 33 34
-4.928330 8.326469 55.911945 58 33 35
-5.701402 11.584653 64.682442 60 33 34
-5.701402 11.724086 64.682442 61 34 35
-5.713850 11.889422 64.823669 63 37 38
-5.701402 12.002954 64.682442 64 39 40
-5.513916 -7.729254 64.123634 101 75 63
-5.478419 -7.542156 63.710819 119 93 77
-5.466688 -7.388960 63.574394 153 127 108
-5.478419 -7.267478 63.710819 177 150 132
-5.455007 -7.099668 63.438553 178 150 134
-5.443376 -6.948070 63.303288 173 144 133
-5.443376 -6.811609 63.303288 172 141 137
-5.443376 -6.675148 63.303288 154 122 124
-5.443376 -6.538688 63.303288 112 81 86
-5.455007 -6.415907 63.438553 79 48 56
-5.455007 -6.279155 63.438553 67 36 45
-5.466688 -6.155556 63.574394 65 34 43
-5.478419 -6.031426 63.710819 67 34 42
-5.466688 -5.881466 63.574394 68 36 43
-5.455007 -5.732146 63.438553 71 38 44
-5.431794 -5.571584 63.168602 72 40 44
-5.420262 -5.423874 63.034485 76 45 46
-5.431794 -5.299243 63.168602 88 57 56
-5.431794 -5.163074 63.168602 112 82 77
-5.420262 -5.016231 63.034485 149 118 108
-5.420262 -4.880349 63.034485 189 156 142
-5.408778 -4.734416 62.900936 207 172 154
-5.420262 -4.608587 63.034485 179 143 123
-5.420262 -4.472706 63.034485 127 90 70
-5.420262 -4.336825 63.034485 98 62 43
-5.443376 -4.218858 63.303288 96 62 47
-5.478419 -4.108679 63.710819 89 58 49
-5.478419 -3.971340 63.710819 79 50 45
-5.490201 -3.842246 63.847832 94 68 67
-5.478419 -3.696662 63.710819 127 104 105
-5.513916 -3.582386 64.123634 123 101 105
-5.525851 -3.451612 64.262428 77 58 61
-5.537838 -3.320270 64.401825 44 26 29
-5.525851 -3.174555 64.262428 40 23 26
-5.525851 -3.036027 64.262428 43 26 28
-5.561968 -2.916437 64.682442 44 27 28
-5.762852 -2.010484 67.018608 42 27 27
-5.724088 -1.853463 66.567810 41 26 26
-5.673207 -1.694766 65.976097 41 26 25
-6.136883 4.012874 71.368370 55 31 32
-5.895943 4.150937 68.566376 54 30 31
-5.736951 4.326642 66.717400 54 29 31
-5.736951 7.059226 66.717400 62 32 36
-5.673207 7.123012 65.976097 61 32 37
-5.610865 7.185397 65.251083 61 33 37
-5.586309 7.293994 64.965523 60 33 36
-5.635636 7.499681 65.539169 60 33 36
-5.711283 7.743525 66.418884 58 32 34
-5.660628 7.816753 65.829803 57 32 32
-5.598560 7.871394 65.107986 57 32 32
-5.598560 8.292446 65.107986 58 34 33
-5.574112 11.609946 64.823669 60 34 34
-5.574112 11.749684 64.823669 61 36 36
-5.574112 11.889422 64.823669 63 39 39
-5.574112 12.029160 64.823669 65 41 41
-5.364102 -7.712596 63.985435 105 80 69
-5.341080 -7.542156 63.710819 132 106 91
-5.329643 -7.388960 63.574394 175 149 131
-5.329643 -7.251915 63.574394 194 167 149
-5.306915 -7.084530 63.303288 181 153 138
-5.306915 -6.948070 63.303288 176 145 135
-5.306915 -6.811609 63.303288 177 146 141
-5.306915 -6.675148 63.303288 151 119 120
-5.306915 -6.538688 63.303288 102 71 76
-5.329643 -6.429646 63.574394 73 42 50
-5.329643 -6.292601 63.574394 67 36 45
-5.364102 -6.195354 63.985435 65 33 43
-5.364102 -6.057424 63.985435 66 33 41
-5.352566 -5.906763 63.847832 69 35 43
-5.341080 -5.756748 63.710819 72 38 45
-5.306915 -5.583464 63.303288 75 41 46
-5.306915 -5.447003 63.303288 79 47 50
-5.306915 -5.310543 63.303288 91 60 60
-5.306915 -5.174082 63.303288 110 79 75
-5.295624 -5.026903 63.168602 138 106 99
-5.295624 -4.890733 63.168602 175 141 130
-5.284381 -4.744468 63.034485 196 160 146
-5.284381 -4.608587 63.034485 172 135 120
-5.284381 -4.472706 63.034485 123 87 72
-5.284381 -4.336825 63.034485 94 59 45
-5.318255 -4.227873 63.438553 85 53 41
-5.352566 -4.117515 63.847832 77 48 40
-5.341080 -3.971340 63.710819 71 45 41
-5.341080 -3.834001 63.710819 78 55 55
-5.341080 -3.696662 63.710819 93 72 75
-5.375688 -3.582386 64.123634 88 69 72
-5.387323 -3.451612 64.262428 61 43 47
-5.399009 -3.320270 64.401825 41 25 27
-5.387323 -3.174555 64.262428 39 24 25
-5.387323 -3.036027 64.262428 40 25 25
-5.422534 -2.916437 64.682442 40 25 24
-5.605728 -1.861812 66.867661 38 24 23
-5.695523 4.112942 67.938766 53 29 30
-5.543303 4.288097 66.123032 54 29 30
-5.593131 7.059226 66.717400 62 33 37
-5.530985 7.123012 65.976097 62 33 38
-5.458209 7.169639 65.107986 62 33 38
-5.446266 7.293994 64.965523 61 33 38
-5.494356 7.499681 65.539169 60 33 37
-5.530985 7.691901 65.976097 59 33 35
-5.506512 7.799459 65.684166 57 32 34
-5.446266 7.854169 64.965523 57 32 33
-5.434374 7.976758 64.823669 57 33 34
-5.422534 8.238247 64.682442 59 34 33
-5.434374 11.609946 64.823669 61 35 36
-5.434374 11.749684 64.823669 62 37 37
-5.446266 11.915439 64.965523 64 39 40
-5.446266 12.055483 64.965523 66 41 42
-5.237459 -7.867483 64.123634 104 78 77
-5.203741 -7.679495 63.710819 118 92 85
-5.181503 -7.509924 63.438553 146 119 109
-5.170455 -7.357451 63.303288 183 155 143
-5.170455 -7.220991 63.303288 197 168 155
-5.159454 -7.069457 63.168602 188 159 148
-5.159454 -6.933286 63.168602 186 155 148
-5.170455 -6.811609 63.303288 178 147 144
-5.170455 -6.675148 63.303288 139 108 110
-5.170455 -6.538688 63.303288 91 61 67
-5.203741 -6.443443 63.710819 70 40 47
-5.214932 -6.319665 63.847832 67 36 44
-5.248795 -6.222174 64.262428 65 34 42
-5.248795 -6.083646 64.262428 66 33 41
-5.237459 -5.932278 64.123634 69 35 43
-5.226171 -5.781561 63.985435 72 37 44
-5.192598 -5.607376 63.574394 75 40 46
-5.192598 -5.470331 63.574394 82 48 52
-5.203741 -5.344731 63.710819 94 61 63
-5.192598 -5.196241 63.574394 108 75 74
-5.170455 -5.037621 63.303288 127 93 90
-5.148499 -4.608587 63.034485 166 131 121
-5.159454 -4.482223 63.168602 123 89 79
-5.159454 -4.346052 63.168602 88 57 47
-5.181503 -4.227873 63.438553 72 43 36
-5.214932 -4.117515 63.847832 65 39 34
-5.192598 -3.962836 63.574394 62 39 36
-5.203741 -3.834001 63.710819 60 40 40
-5.203741 -3.696662 63.710819 60 42 44
-5.237459 -3.582386 64.123634 56 39 42
-5.248795 -3.451612 64.262428 46 31 34
-5.248795 -3.313083 64.262428 40 25 27
-5.248795 -3.174555 64.262428 38 24 25
-5.248795 -3.036027 64.262428 37 24 24
-5.283101 -2.916437 64.682442 37 23 22
-5.549069 4.112942 67.938766 53 29 30
-5.511235 4.230353 67.475548 53 28 29
-5.400765 4.288097 66.123032 53 28 29
-5.306222 4.353076 64.965523 53 29 29
-5.437093 7.043398 66.567810 62 33 37
-5.376814 7.107218 65.829803 62 33 38
-5.329546 7.185397 65.251083 62 34 39
-5.329546 7.326056 65.251083 62 34 39
-5.341285 7.483162 65.394806 61 34 38
-5.376814 7.674846 65.829803 59 33 37
-5.341285 7.765100 65.394806 58 33 35
-5.294636 7.837021 64.823669 58 33 34
-5.283101 7.959380 64.682442 58 33 35
-5.271616 8.220338 64.541832 59 34 34
-5.159454 8.181607 63.168602 60 34 34
-5.306222 11.635351 64.965523 61 36 37
-5.294636 11.749684 64.823669 62 38 39
-5.294636 11.889422 64.823669 64 40 40
-5.306222 12.055483 64.965523 65 41 41
-5.088240 -7.850527 63.985435 117 91 94
-5.055553 -7.663050 63.574394 133 106 104
-5.044751 -7.509924 63.438553 153 125 120
-5.033994 -7.357451 63.303288 176 147 140
-5.023284 -7.205626 63.168602 190 160 153
-5.023284 -7.069457 63.168602 194 164 158
-5.023284 -6.933286 63.168602 193 162 158
-5.033994 -6.811609 63.303288 169 138 138
-5.033994 -6.675148 63.303288 123 92 95
-5.044751 -6.552659 63.438553 83 53 59
-5.088240 -6.471217 63.985435 68 39 45
-5.099230 -6.346964 64.123634 65 37 43
-5.121352 -6.235672 64.401825 64 34 41
-5.121352 -6.096843 64.401825 66 33 41
-5.110267 -5.945118 64.262428 67 34 41
-5.110267 -5.806590 64.262428 69 35 41
-5.088240 -5.643631 63.985435 72 37 43
-5.088240 -5.505700 63.985435 81 47 51
-5.088240 -5.367768 63.985435 97 62 66
-5.077298 -5.218590 63.847832 109 75 78
-5.055553 -5.059196 63.574394 120 84 87
-5.023284 -4.618392 63.168602 158 124 121
-5.033994 -4.491779 63.303288 118 86 82
-5.023284 -4.346052 63.168602 80 51 46
-5.044751 -4.227873 63.438553 60 35 30
-5.077298 -4.117515 63.847832 54 31 28
-5.044751 -3.954369 63.438553 50 31 30
-5.055553 -3.825791 63.574394 47 31 30
-5.066402 -3.696662 63.710819 44 30 30
-5.088240 -3.574665 63.985435 42 28 30
-5.099230 -3.444157 64.123634 40 26 28
-5.110267 -3.313083 64.262428 38 24 25
-5.088240 -3.160872 63.985435 36 23 23
-5.077298 -3.016440 63.847832 36 23 22
-5.143667 -2.916437 64.682442 36 23 21
-5.390282 4.103551 67.783661 54 28 31
-5.365780 4.230353 67.475548 54 28 30
-5.246541 4.278568 65.976097 54 28 29
-5.166178 4.353076 64.965523 53 29 29
-5.223326 7.091495 65.684166 61 34 38
-5.177507 7.169639 65.107986 62 34 39
-5.188887 7.326056 65.251083 62 35 39
-5.200316 7.483162 65.394806 61 35 38
-5.211795 7.640961 65.539169 59 34 37
-5.200316 7.765100 65.394806 58 34 36
-5.154898 7.837021 64.823669 58 33 35
-5.132485 7.942077 64.541832 58 33 36
-5.121352 8.202506 64.401825 60 34 35
-5.012619 8.164237 63.034485 60 34 34
-5.066402 9.487887 63.710819 62 35 36
-5.166178 11.635351 64.965523 62 35 37
-5.143667 11.724086 64.682442 63 37 39
-5.154898 11.889422 64.823669 65 39 41
-5.166178 12.055483 64.965523 66 40 42
-4.918508 -7.937140 63.574394 113 89 96
-4.939663 -7.833644 63.847832 130 105 110
-4.918508 -7.663050 63.574394 140 113 115
-4.897534 -7.493912 63.303288 149 121 120
-4.876738 -7.326209 63.034485 164 134 132
-4.876738 -7.190328 63.034485 179 148 145
-4.876738 -7.054447 63.034485 188 156 154
-4.887114 -6.933286 63.168602 184 153 152
-4.897534 -6.811609 63.303288 155 124 126
-4.897534 -6.675148 63.303288 111 81 84
-4.918508 -6.566690 63.574394 77 48 53
-4.961001 -6.485193 64.123634 64 37 42
-4.982523 -6.374500 64.401825 63 35 40
-4.993355 -6.249227 64.541832 63 34 40
-4.993355 -6.110097 64.541832 64 33 40
-4.982523 -5.958014 64.401825 66 33 40
-4.982523 -5.819186 64.401825 67 33 39
-4.971739 -5.668062 64.262428 70 35 41
-4.971739 -5.529533 64.262428 80 46 51
-4.971739 -5.391006 64.262428 99 64 70
-4.950309 -5.229837 63.985435 111 76 82
-4.929063 -5.070053 63.710819 116 81 87
-4.907999 -4.501377 63.438553 98 70 70
-4.897534 -4.355319 63.303288 67 42 41
-4.907999 -4.227873 63.438553 52 29 28
-4.929063 -4.108679 63.710819 46 27 25
-4.907999 -3.954369 63.438553 44 26 25
-4.918508 -3.825791 63.574394 42 26 25
-4.929063 -3.696662 63.710819 40 26 25
-4.939663 -3.566978 63.847832 38 26 25
-4.961001 -3.444157 64.123634 37 24 25
-4.971739 -3.313083 64.262428 36 23 24
-4.950309 -3.160872 63.985435 35 23 22
-4.929063 -3.009967 63.710819 35 22 21
-5.417319 3.635272 70.021797 54 29 32
-5.329335 3.724723 68.884552 54 29 32
-5.244163 3.811314 67.783661 55 29 31
-5.244163 4.103551 67.783661 56 29 31
-5.232217 4.239990 67.629250 55 29 30
-5.127106 4.297668 66.270630 55 29 29
-5.037157 4.362622 65.107986 54 29 29
-5.048227 7.748034 65.251083 57 34 36
-5.004234 7.819947 64.682442 57 34 36
-4.961001 7.890616 64.123634 58 33 36
-4.961001 8.167074 64.123634 60 33 36
-5.015160 11.609946 64.823669 64 35 38
-5.004234 11.724086 64.682442 66 37 40
-5.004234 11.863520 64.682442 67 39 43
-5.026134 12.055483 64.965523 69 41 43
-4.843695 -8.179273 64.401825 102 77 86
-4.771246 -7.920181 63.438553 119 94 102
-4.812378 -7.850527 63.985435 133 107 113
-4.781463 -7.663050 63.574394 140 113 116
-4.761073 -7.493912 63.303288 146 118 119
-4.750943 -7.341797 63.168602 157 127 126
-4.750943 -7.205626 63.168602 170 138 136
-4.740856 -7.054447 63.034485 177 145 144
-4.761073 -6.948070 63.303288 170 140 139
-4.771246 -6.826163 63.438553 143 113 114
-4.771246 -6.689411 63.438553 104 75 78
-4.791724 -6.580782 63.710819 73 46 49
-4.843695 -6.513329 64.401825 61 34 38
-4.854225 -6.388358 64.541832 60 33 37
-4.864800 -6.262842 64.682442 62 34 38
-4.854225 -6.110097 64.541832 63 34 38
-4.854225 -5.970966 64.541832 64 33 38
-4.854225 -5.831836 64.541832 65 33 38
-4.843695 -5.680357 64.401825 69 35 40
-4.843695 -5.541528 64.401825 80 46 52
-4.833211 -5.391006 64.262428 97 64 70
-4.812378 -5.229837 63.985435 109 75 82
-4.791724 -5.070053 63.710819 112 78 86
-4.750943 -4.754563 63.168602 107 77 83
-4.761073 -4.491779 63.303288 72 48 50
-4.750943 -4.346052 63.168602 56 34 35
-4.750943 -4.209882 63.168602 46 27 27
-4.761073 -4.082398 63.303288 42 25 25
-4.761073 -3.945937 63.303288 40 24 24
-4.761073 -3.809477 63.303288 38 24 23
-4.781463 -3.688746 63.574394 37 24 23
-4.791724 -3.559323 63.710819 37 24 23
-4.822772 -3.444157 64.123634 36 23 23
-4.843695 -3.320270 64.401825 36 23 22
-4.812378 -3.160872 63.985435 35 22 21
-5.582358 -3.346611 74.223106 35 21 19
-5.568437 -3.178665 74.038010 35 21 19
-5.568437 -3.019064 74.038010 34 21 19
-5.610410 -2.881016 74.596085 34 20 18
-5.527088 -2.679813 73.488220 33 20 18
-3.122998 1.618679 41.523415 46 25 24
-5.241651 3.618205 69.693054 54 29 30
-5.121430 3.682008 68.094589 55 28 31
-5.051908 3.776822 67.170235 55 29 31
-5.051908 3.921619 67.170235 56 29 31
-5.074871 4.230353 67.475548 55 30 30
-4.995399 4.307283 66.418884 55 30 29
-4.918377 4.381840 65.394806 55 30 29
-4.854225 7.802947 64.541832 57 34 36
-4.781463 7.823031 63.574394 58 33 36
-4.791724 8.114497 63.710819 61 32 36
-4.833211 9.570033 64.262428 65 36 37
-4.875422 11.609946 64.823669 67 35 39
-4.854225 11.698599 64.541832 68 37 41
-4.864800 11.863520 64.682442 70 39 43
-4.684543 -8.143941 64.123634 102 78 85
-4.634494 -7.920181 63.438553 112 89 95
-4.674447 -7.850527 63.985435 124 99 104
-4.644418 -7.663050 63.574394 138 111 114
-4.634494 -7.509924 63.438553 152 123 124
-4.624613 -7.357451 63.303288 162 132 131
-4.624613 -7.220991 63.303288 173 141 139
-4.614773 -7.069457 63.168602 180 147 145
-4.634494 -6.962916 63.438553 164 133 131
-4.644418 -6.840781 63.574394 131 102 101
-4.644418 -6.703736 63.574394 99 72 72
-4.654385 -6.580782 63.710819 74 47 48
-4.704866 -6.513329 64.401825 59 34 35
-4.715094 -6.388358 64.541832 57 32 34
-4.725367 -6.262842 64.682442 60 33 36
-4.725367 -6.123409 64.682442 62 34 37
-4.715094 -5.970966 64.541832 62 33 37
-4.715094 -5.831836 64.541832 63 33 36
-4.715094 -5.692706 64.541832 66 35 39
-4.704866 -5.541528 64.401825 76 44 49
-4.694683 -5.391006 64.262428 90 59 64
-4.674447 -5.229837 63.985435 99 68 75
-4.654385 -5.070053 63.710819 99 70 76
-4.644418 -4.922151 63.574394 94 65 72
-4.604975 -4.744468 63.034485 81 55 60
-4.595219 -4.598823 62.900936 66 43 47
-4.604975 -4.472706 63.034485 55 34 37
-4.604975 -4.336825 63.034485 47 28 30
-4.595219 -4.192043 62.900936 42 24 26
-4.595219 -4.056450 62.900936 40 23 24
-4.604975 -3.929182 63.034485 38 22 22
-4.604975 -3.793300 63.034485 37 22 21
-4.624613 -3.673016 63.303288 36 22 21
-4.634494 -3.544112 63.438553 36 22 21
-5.408836 -3.497867 74.038010 35 21 20
-5.368672 -3.313477 73.488220 35 21 19
-5.342225 -3.139518 73.126213 35 20 18
-5.329099 -2.974557 72.946541 34 20 18
-5.342225 -2.824248 73.126213 33 20 18
-5.316038 -2.653541 72.767754 33 19 18
-3.033487 1.618679 41.523415 43 23 22
-5.032351 3.576231 68.884552 53 27 29
-4.940646 3.656846 67.629250 56 28 30
-4.874030 3.751361 66.717400 56 28 30
-4.852222 3.877753 66.418884 56 28 30
-4.907112 4.066415 67.170235 56 30 30
-4.929417 4.230353 67.475548 56 30 30
-4.852222 4.307283 66.418884 56 30 29
-4.777408 4.381840 65.394806 56 30 29
-4.684543 7.752388 64.123634 57 34 35
-4.624613 7.789670 63.303288 58 33 35
-4.715094 9.611642 64.541832 65 36 37
-4.704866 11.673223 64.401825 71 37 41
-4.715094 11.837729 64.541832 73 40 43
-4.566038 -8.318101 64.401825 92 66 72
-4.546314 -8.143941 64.123634 98 73 79
-4.507373 -7.937140 63.574394 103 80 85
-4.526760 -7.833644 63.847832 115 92 96
-4.507373 -7.663050 63.574394 137 112 114
-4.497742 -7.509924 63.438553 158 130 131
-4.488152 -7.357451 63.303288 171 141 140
-4.488152 -7.220991 63.303288 182 150 148
-4.478603 -7.069457 63.168602 184 152 148
-4.507373 -6.977826 63.574394 156 125 121
-4.507373 -6.840781 63.574394 118 89 86
-4.507373 -6.703736 63.574394 96 69 67
-4.517046 -6.580782 63.710819 76 51 49
-4.566038 -6.513329 64.401825 59 34 34
-4.585933 -6.402276 64.682442 56 31 31
-4.595946 -6.276516 64.823669 59 33 34
-4.585933 -6.123409 64.682442 61 34 36
-4.585933 -5.983975 64.682442 61 33 36
-4.585933 -5.844542 64.682442 61 33 35
-4.585933 -5.705108 64.682442 63 35 38
-4.566038 -5.541528 64.401825 69 41 45
-4.546314 -5.379362 64.123634 79 51 55
-4.526760 -5.218590 63.847832 85 58 63
-4.507373 -5.059196 63.574394 82 56 62
-4.507373 -4.922151 63.574394 73 49 54
-4.459626 -4.734416 62.900936 62 40 45
-4.450197 -4.589100 62.767956 53 33 36
-4.459626 -4.463230 62.900936 47 28 30
-4.450197 -4.318487 62.767956 41 24 26
-4.431460 -4.165567 62.503666 38 22 23
-4.422150 -4.022362 62.372356 37 20 21
-4.440809 -3.904313 62.635532 36 20 20
-4.412879 -3.745586 62.241596 35 21 19
-4.450197 -3.641955 62.767956 35 21 19
-5.275548 -3.836202 74.409126 34 21 19
-5.223185 -3.639317 73.670578 34 21 19
-5.184589 -3.454789 73.126213 35 20 19
-5.184589 -3.297154 73.126213 35 20 19
-5.159175 -3.124129 72.767754 34 19 18
-5.134008 -2.952791 72.412788 34 20 18
-5.134008 -2.796694 72.412788 34 20 18
-5.121517 -2.634172 72.236603 33 20 18
-2.973084 1.544287 41.933956 40 22 21
-2.943977 1.618679 41.523415 42 21 22
-4.762315 3.632026 67.170235 54 26 29
-4.688070 3.717941 66.123032 55 27 29
-4.677652 3.851901 65.976097 56 28 29
-4.751565 4.057236 67.018608 57 30 29
-4.773114 4.220761 67.322548 57 30 30
-4.709045 4.307283 66.418884 57 30 30
-4.646674 4.391513 65.539169 57 30 30
-4.636439 4.522810 65.394806 56 30 30
-4.497742 7.259306 63.438553 58 36 37
-4.546314 7.475930 64.123634 58 36 36
-4.526760 7.719044 63.847832 58 34 35
-4.488152 7.789670 63.303288 58 33 35
-4.646674 9.618886 65.539169 66 36 35
-4.595946 9.653615 64.823669 66 36 37
-4.566038 9.868450 64.401825 64 36 38
-4.417626 -8.300097 64.262428 92 66 70
-4.398585 -8.126390 63.985435 96 71 75
-4.379707 -7.954173 63.710819 103 80 83
-4.370328 -7.800096 63.574394 117 95 97
-4.360990 -7.646677 63.438553 138 115 116
-4.351692 -7.493912 63.303288 157 132 132
-4.351692 -7.357451 63.303288 170 141 141
-4.351692 -7.220991 63.303288 177 148 146
-4.342432 -7.069457 63.168602 170 140 136
-4.360990 -6.962916 63.438553 138 108 104
-4.360990 -6.826163 63.438553 107 78 74
-4.370328 -6.703736 63.574394 93 66 63
-4.379707 -6.580782 63.710819 76 50 48
-4.427209 -6.513329 64.401825 59 34 34
-4.456208 -6.416255 64.823669 56 31 31
-4.456208 -6.276516 64.823669 58 33 33
-4.456208 -6.136778 64.823669 60 34 34
-4.446500 -5.983975 64.682442 59 33 34
-4.446500 -5.844542 64.682442 58 33 35
-4.456208 -5.717565 64.823669 59 34 36
-4.446500 -5.565674 64.682442 63 38 40
-4.427209 -5.402699 64.401825 68 44 47
-4.417626 -5.252477 64.262428 71 48 51
-4.398585 -5.091907 63.985435 66 44 48
-4.389125 -4.943322 63.847832 57 37 40
-4.333213 -4.744468 63.034485 50 31 33
-4.324032 -4.598823 62.900936 44 27 29
-4.324032 -4.463230 62.900936 40 24 25
-4.314891 -4.318487 62.767956 37 22 22
-4.287696 -4.156816 62.372356 35 20 20
-4.269756 -4.005532 62.111385 34 19 19
-4.251966 -3.855510 61.852589 33 19 18
-4.182261 -3.661157 60.838612 33 20 18
-5.076973 -3.966777 73.853836 33 20 19
-5.064375 -3.798126 73.670578 34 20 19
-5.039366 -3.621345 73.306770 34 20 18
-5.002312 -3.437854 72.767754 34 19 18
-5.002312 -3.280992 72.767754 34 19 18
-4.977911 -3.108889 72.412788 35 19 18
-4.953746 -2.938457 72.061264 35 20 18
-4.941751 -2.776379 71.886787 34 20 18
-4.941751 -2.621415 71.886787 34 20 18
-4.929815 -2.460494 71.713142 33 19 17
-2.854466 1.618679 41.523415 40 20 21
-4.627989 3.495137 67.322548 49 23 25
-4.565869 3.591399 66.418884 52 24 27
-4.505394 3.685112 65.539169 54 25 28
-4.515361 3.834857 65.684166 56 27 29
-4.586390 4.039001 66.717400 57 28 30
-4.617519 4.211212 67.170235 57 29 30
-4.565869 4.307283 66.418884 57 30 30
-4.505394 4.391513 65.539169 57 30 30
-4.515361 4.542822 65.684166 57 30 31
-4.565869 4.736813 66.418884 57 30 31
-4.333213 7.213069 63.034485 59 36 37
-4.389125 7.443775 63.847832 59 35 36
-4.389125 7.581409 63.847832 59 35 36
-4.370328 7.685986 63.574394 59 34 36
-4.446500 9.632583 64.682442 66 36 37
-4.314891 13.271364 62.767956 72 38 42
-4.305788 13.378387 62.635532 74 41 44
-4.269856 -8.420399 64.123634 94 66 69
-4.269856 -8.282169 64.123634 95 68 71
-4.260654 -8.126390 63.985435 99 75 77
-4.242368 -7.954173 63.710819 111 89 90
-4.224238 -7.783429 63.438553 125 104 105
-4.215231 -7.630372 63.303288 138 115 116
-4.224238 -7.509924 63.438553 149 124 126
-4.215231 -7.357451 63.303288 158 130 133
-4.215231 -7.220991 63.303288 161 132 134
-4.206263 -7.069457 63.168602 150 120 121
-4.224238 -6.962916 63.438553 124 94 94
-4.233284 -6.840781 63.574394 103 75 74
-4.233284 -6.703736 63.574394 90 62 61
-4.242368 -6.580782 63.710819 72 46 45
-4.297703 -6.527488 64.541832 59 34 34
-4.316470 -6.416255 64.823669 56 32 32
-4.325915 -6.290251 64.965523 57 33 33
-4.316470 -6.136778 64.823669 57 33 33
-4.316470 -5.997040 64.823669 57 33 34
-4.316470 -5.857303 64.823669 56 33 34
-4.335402 -5.742641 65.107986 56 34 35
-4.316470 -5.577826 64.823669 57 35 37
-4.307066 -5.426241 64.682442 59 38 39
-4.307066 -5.286807 64.682442 59 40 42
-4.297703 -5.136184 64.541832 54 36 38
-4.288381 -4.986214 64.401825 47 30 32
-4.224238 -4.774881 63.438553 42 26 27
-4.206263 -4.618392 63.168602 39 23 24
-4.215231 -4.491779 63.303288 36 21 21
-4.197332 -4.336825 63.034485 34 20 20
-4.153243 -4.156816 62.372356 33 18 18
-4.127230 -3.997170 61.981716 32 18 17
-4.067785 -3.807910 61.088974 32 18 16
-4.042829 -3.653670 60.714195 32 18 17
-4.833602 -3.429449 72.589836 33 18 17
-4.740871 -2.903224 71.197220 35 20 19
-4.442569 0.587316 66.717400 36 21 22
-4.354501 0.716642 65.394806 36 22 23
-4.316470 3.225667 64.823669 45 20 22
-4.354501 3.395056 65.394806 47 21 24
-4.373768 3.551672 65.684166 49 22 26
-4.344931 3.668913 65.251083 52 24 28
-4.354501 3.817964 65.394806 54 26 28
-4.422692 4.020929 66.418884 56 27 29
-4.462626 4.201705 67.018608 57 28 31
-4.422692 4.307283 66.418884 57 29 31
-4.383466 4.410988 65.829803 57 30 31
-4.402992 4.573175 66.123032 57 31 32
-4.442569 4.758102 66.717400 58 31 33
-4.452575 4.912963 66.867661 59 32 34
-4.224238 7.396059 63.438553 60 35 37
-4.224238 7.532811 63.438553 60 35 36
-4.188439 13.163889 62.900936 71 38 42
-4.170766 13.243366 62.635532 74 40 44
-4.170766 13.378387 62.635532 76 42 46
-4.161986 13.484959 62.503666 78 44 48
-4.316470 14.684182 64.823669 69 40 42
-4.140570 -8.438624 64.262428 99 70 72
-4.140570 -8.300097 64.262428 101 74 75
-4.122723 -8.126390 63.985435 108 83 83
-4.105029 -7.954173 63.710819 123 101 100
-4.096239 -7.800096 63.574394 136 113 114
-4.096239 -7.663050 63.574394 139 115 118
-4.096239 -7.526005 63.574394 138 113 118
-4.087486 -7.373172 63.438553 141 114 121
-4.096239 -7.251915 63.574394 144 116 123
-4.078771 -7.084530 63.303288 136 107 114
-4.105029 -6.992799 63.710819 119 90 95
-4.105029 -6.855460 63.710819 103 75 78
-4.105029 -6.718122 63.710819 85 58 60
-4.122723 -6.609148 63.985435 67 42 43
-4.167633 -6.541709 64.682442 57 34 34
-4.185872 -6.430295 64.965523 55 32 33
-4.185872 -6.290251 64.965523 55 32 33
-4.185872 -6.150207 64.965523 54 32 33
-4.185872 -6.010163 64.965523 53 32 33
-4.185872 -5.870119 64.965523 52 32 32
-4.204271 -5.755263 65.251083 51 32 32
-4.195051 -5.602291 65.107986 50 32 32
-4.195051 -5.461940 65.107986 50 33 33
-4.185872 -5.309944 64.965523 49 33 33
-4.185872 -5.169900 64.965523 45 30 30
-4.176732 -5.018875 64.823669 41 26 26
-4.140570 -4.836893 64.262428 38 23 23
-4.131627 -4.688217 64.123634 35 21 21
-4.131627 -4.549988 64.123634 33 20 19
-4.105029 -4.383358 63.710819 32 18 18
-4.035746 -4.174356 62.635532 31 18 17
-3.993619 -3.997170 61.981716 31 17 16
-3.928015 -3.800092 60.963535 31 18 16
-3.903966 -3.646213 60.590290 31 18 17
-4.554627 -2.882487 70.688675 35 20 19
-4.318157 0.589967 67.018608 35 20 21
-4.213531 0.716642 65.394806 35 21 22
-4.167633 0.848269 64.682442 36 22 22
-4.158573 3.211642 64.541832 43 19 22
-4.185872 3.372769 64.965523 45 20 23
-4.204271 3.528254 65.251083 47 21 25
-4.195051 3.660867 65.107986 49 22 26
-4.204271 3.809572 65.251083 52 24 27
-4.250985 3.994123 65.976097 54 26 29
-4.308431 4.192242 66.867661 56 28 30
-4.279515 4.307283 66.418884 58 29 32
-4.250985 4.420790 65.976097 59 30 33
-4.269963 4.583383 66.270630 59 31 34
-4.308431 4.768819 66.867661 59 32 35
-4.318157 4.924053 67.018608 60 33 35
-4.318157 5.068522 67.018608 59 32 34
-3.968762 6.251775 61.595940 61 33 35
-4.018788 7.137301 62.372356 63 35 38
-4.070092 7.364586 63.168602 62 35 38
-4.070092 7.500756 63.168602 62 35 37
-2.947525 5.727820 45.746136 60 34 35
-2.942990 5.817470 45.675758 60 33 34
-2.929469 5.986762 45.465916 62 32 34
-2.889642 6.002048 44.847797 64 33 35
-2.855139 6.025904 44.312302 64 33 35
-2.804902 6.013718 43.532612 64 34 35
-2.694286 6.317402 41.815834 67 37 39
-4.044278 13.000751 62.767956 72 38 41
-4.052846 13.163889 62.900936 75 41 44
-4.035746 13.243366 62.635532 78 44 47
-4.035746 13.378387 62.635532 80 46 50
-4.027249 13.484959 62.503666 81 47 51
-4.140570 14.279990 64.262428 75 43 46
-4.149552 14.449795 64.401825 72 41 44
-4.158573 14.620338 64.541832 70 39 41
-3.993398 -8.558627 64.123634 100 69 72
-4.010723 -8.456929 64.401825 104 76 76
-4.010723 -8.318101 64.401825 105 79 78
-3.993398 -8.143941 64.123634 115 90 89
-3.984792 -7.988458 63.985435 136 112 112
-3.967690 -7.816834 63.710819 147 123 126
-3.967690 -7.679495 63.710819 141 115 121
-3.967690 -7.542156 63.710819 128 101 110
-3.967690 -7.404817 63.710819 125 99 109
-3.967690 -7.267478 63.710819 132 105 117
-3.950734 -7.099668 63.438553 129 101 112
-3.967690 -6.992799 63.710819 114 87 96
-3.976222 -6.870203 63.847832 99 73 80
-3.967690 -6.718122 63.710819 79 55 59
-3.993398 -6.623422 64.123634 61 38 41
-4.019442 -6.527488 64.541832 54 33 33
-4.036994 -6.416255 64.823669 52 32 31
-4.045828 -6.290251 64.965523 50 31 31
-4.036994 -6.136778 64.823669 49 30 30
-4.036994 -5.997040 64.823669 48 29 30
-4.054700 -5.882992 65.107986 47 29 29
-4.081553 -5.780672 65.539169 46 29 29
-4.063612 -5.614604 65.251083 45 29 28
-4.063612 -5.473944 65.251083 43 29 28
-4.063612 -5.333285 65.251083 42 28 26
-4.063612 -5.192626 65.251083 39 26 24
-4.054700 -5.040887 65.107986 36 23 22
-4.028199 -4.868506 64.682442 34 21 20
-4.036994 -4.739398 64.823669 32 19 18
-4.036994 -4.599660 64.823669 31 18 17
-4.028199 -4.450206 64.682442 30 18 17
-3.900724 -4.174356 62.635532 31 18 17
-3.812254 -3.947721 61.214931 31 18 16
-3.781070 -3.784549 60.714195 31 18 16
-4.036994 3.365405 64.823669 42 19 23
-4.054700 3.520516 65.107986 44 21 24
-4.054700 3.660867 65.107986 46 21 24
-4.054700 3.801218 65.107986 49 22 25
-4.090583 3.976450 65.684166 52 25 27
-4.145613 4.173443 66.567810 55 27 29
-4.127106 4.297668 66.270630 57 29 32
-4.108763 4.420790 65.976097 60 31 34
-4.127106 4.583383 66.270630 60 32 35
-4.154929 4.758102 66.717400 60 33 35
-4.173687 4.924053 67.018608 59 33 35
-4.173687 5.068522 67.018608 58 32 34
-3.828040 6.238831 61.468410 62 33 35
-3.860007 7.092600 61.981716 65 36 38
-3.925570 7.348950 63.034485 65 36 38
-3.925570 7.484831 63.034485 63 36 37
-2.848911 5.727820 45.746136 60 34 36
-2.840159 5.808534 45.605595 60 33 35
-2.827131 5.977608 45.396397 63 33 36
-2.788753 5.992995 44.780155 65 34 36
-2.747316 5.999043 44.114773 66 34 37
-2.699187 5.987380 43.341961 66 35 36
-2.622615 5.908306 42.112400 66 35 36
-2.585935 6.094203 41.523415 67 37 38
-2.600483 6.308517 41.757023 68 37 39
-3.908971 13.000751 62.767956 75 40 44
-3.917253 13.163889 62.900936 78 44 47
-3.900724 13.243366 62.635532 81 47 50
-3.900724 13.378387 62.635532 83 49 52
-3.892512 13.484959 62.503666 82 48 52
-3.892512 13.619696 62.503666 78 45 48
-3.942310 13.930395 63.303288 76 43 47
-3.993398 14.249147 64.123634 74 43 47
-4.010723 14.449795 64.401825 72 41 44
-4.019442 14.620338 64.541832 69 39 42
-3.871895 -8.595758 64.401825 111 81 82
-3.880312 -8.475314 64.541832 113 84 84
-3.880312 -8.336184 64.541832 110 82 81
-3.863514 -8.161569 64.262428 123 97 96
-3.855169 -8.005712 64.123634 148 122 124
-3.838588 -7.833644 63.847832 157 130 136
-3.830351 -7.679495 63.710819 143 115 125
-3.838588 -7.558375 63.847832 122 94 107
-3.838588 -7.420741 63.847832 117 88 103
-3.830351 -7.267478 63.710819 123 96 111
-3.813982 -7.099668 63.438553 118 91 105
-3.830351 -6.992799 63.710819 103 77 89
-3.830351 -6.855460 63.710819 90 67 76
-3.830351 -6.718122 63.710819 73 51 57
-3.838588 -6.594934 63.847832 56 37 39
-3.863514 -6.499230 64.262428 49 32 32
-3.880312 -6.388358 64.541832 46 30 29
-3.888766 -6.262842 64.682442 45 29 28
-3.880312 -6.110097 64.541832 44 27 28
-3.888766 -5.983975 64.682442 43 27 27
-3.905784 -5.870119 64.965523 42 26 26
-3.957746 -5.806307 65.829803 41 26 26
-3.931593 -5.626970 65.394806 40 26 25
-3.922952 -5.473944 65.251083 39 26 24
-3.931593 -5.345032 65.394806 38 25 23
-3.931593 -5.204063 65.394806 36 23 21
-3.922952 -5.051966 65.251083 34 22 20
-3.905784 -4.889813 64.965523 32 20 18
-3.914350 -4.760185 65.107986 31 18 17
-3.914350 -4.619834 65.107986 30 17 16
-3.749881 -4.156816 62.372356 31 18 16
-3.650191 -3.915428 60.714195 31 18 16
-3.642741 -3.776826 60.590290 31 18 16
-3.855169 3.190833 64.123634 39 19 22
-3.880312 3.350773 64.541832 40 19 23
-3.897256 3.505143 64.823669 42 20 23
-3.905784 3.652857 64.965523 43 20 23
-3.905784 3.792900 64.965523 45 20 23
-3.922952 3.950232 65.251083 48 23 25
-3.957746 4.127174 65.829803 52 26 28
-3.957746 4.269081 65.829803 56 29 32
-3.948990 4.401229 65.684166 59 32 35
-3.957746 4.552895 65.829803 60 33 36
-3.984249 4.726240 66.270630 59 33 36
-4.020143 4.912963 66.867661 58 33 35
-4.020143 5.057107 66.867661 57 32 34
-4.020143 5.201251 66.867661 56 30 33
-3.703202 6.251775 61.595940 62 32 34
-3.672723 6.332007 61.088974 62 32 34
-3.695535 7.033862 61.468410 65 35 38
-2.763070 5.655349 45.958580 62 35 37
-2.754542 5.736660 45.816730 61 34 36
-2.746067 5.817470 45.675758 60 33 35
-2.754542 5.934191 45.816730 61 33 35
-2.729271 5.977608 45.396397 63 34 36
-2.692222 5.992995 44.780155 65 34 37
-3.880312 12.255120 64.541832 70 39 42
-2.712680 9.053732 45.120430 68 35 39
-3.773665 13.000751 62.767956 76 43 46
-3.773665 13.136058 62.767956 79 45 48
-3.765703 13.243366 62.635532 81 48 51
-3.757776 13.350222 62.503666 82 49 52
-3.757776 13.484959 62.503666 79 47 49
-3.765703 13.648429 62.635532 75 44 46
-3.805849 13.930395 63.303288 74 44 46
-3.846861 14.218438 63.985435 73 44 46
-3.871895 14.449795 64.401825 71 41 44
-3.880312 14.620338 64.541832 68 39 42
-3.733066 -8.734587 64.401825 108 77 75
-3.733066 -8.595758 64.401825 119 89 86
-3.741181 -8.475314 64.541832 121 92 89
-3.741181 -8.336184 64.541832 121 93 91
-3.733066 -8.179273 64.401825 139 111 111
-3.724986 -8.023040 64.262428 160 131 134
-3.708930 -7.850527 63.985435 161 132 139
-3.708930 -7.712596 63.985435 144 114 127
-3.716940 -7.591025 64.123634 122 92 107
-3.716940 -7.452796 64.123634 109 80 96
-3.708930 -7.298803 63.985435 108 80 96
-3.693012 -7.130138 63.710819 101 75 89
-3.708930 -7.022941 63.985435 90 66 77
-3.708930 -6.885010 63.985435 81 60 67
-3.700953 -6.732569 63.847832 65 47 51
-3.708930 -6.609148 63.985435 50 34 34
-3.716940 -6.485193 64.123634 44 29 28
-3.724986 -6.360703 64.262428 41 28 26
-3.733066 -6.235672 64.401825 40 26 25
-3.724986 -6.083646 64.262428 39 25 25
-3.733066 -5.958014 64.401825 38 24 24
-3.765740 -5.870119 64.965523 37 24 24
-3.832836 -5.832170 66.123032 36 24 23
-3.782293 -5.614604 65.251083 36 24 22
-3.782293 -5.473944 65.251083 35 23 21
-3.807397 -5.368682 65.684166 35 23 20
-3.790624 -5.204063 65.394806 34 22 19
-3.790624 -5.063094 65.394806 33 21 18
-3.773998 -4.900536 65.107986 31 19 17
-3.782293 -4.629988 65.251083 30 18 16
-3.585299 -4.122176 61.852589 31 18 16
-3.519312 -3.915428 60.714195 31 18 16
-3.693012 3.170291 63.710819 37 19 22
-3.716940 3.329062 64.123634 38 20 23
-3.749332 3.497506 64.682442 39 20 22
-3.757518 3.644881 64.823669 40 19 22
-3.757518 3.784619 64.823669 42 20 22
-3.765740 3.932944 64.965523 45 22 24
-3.798992 4.108953 65.539169 49 24 27
-3.807397 4.259636 65.684166 54 28 31
-3.798992 4.391513 65.539169 58 31 35
-3.807397 4.542822 65.684166 59 33 36
-3.815839 4.694801 65.829803 59 33 36
-3.849985 4.879990 66.418884 58 33 35
-3.867288 5.045743 66.717400 58 32 35
-3.875998 5.201251 66.867661 58 32 35
-3.623039 6.209169 62.503666 63 33 36
-3.577845 6.264772 61.723995 63 32 34
-3.555668 6.358172 61.341408 62 32 33
-3.585299 6.544490 61.852589 63 32 34
-3.600300 6.705765 62.111385 63 32 35
-3.577845 6.930053 61.723995 65 33 38
-3.548337 7.004857 61.214931 65 34 39
-2.647605 5.817470 45.675758 61 33 36
-2.647605 5.915932 45.675758 62 33 36
-2.631412 5.977608 45.396397 64 34 36
-2.595691 5.992995 44.780155 65 34 36
-2.403552 6.175077 41.465424 71 38 40
-3.773998 12.222271 65.107986 69 38 41
-3.741181 12.255120 64.541832 70 39 42
-2.607490 9.026297 44.983700 69 36 40
-3.638358 13.000751 62.767956 77 43 46
-3.646066 13.163889 62.900936 79 45 47
-3.630682 13.243366 62.635532 79 47 48
-3.623039 13.350222 62.503666 79 47 48
-3.669389 13.930395 63.303288 74 44 46
-3.700953 14.187861 63.847832 72 43 45
-3.724986 14.418518 64.262428 69 41 43
-3.733066 14.588624 64.401825 67 39 41
-3.594237 -8.734587 64.401825 109 78 73
-3.594237 -8.595758 64.401825 119 89 82
-3.602051 -8.475314 64.541832 127 98 92
-3.602051 -8.336184 64.541832 142 113 108
-3.594237 -8.179273 64.401825 164 135 133
-3.586457 -8.023040 64.262428 171 140 144
-3.578711 -7.867483 64.123634 161 129 137
-3.578711 -7.729254 64.123634 144 112 125
-3.586457 -7.607456 64.262428 120 88 103
-3.586457 -7.468927 64.262428 97 67 82
-3.586457 -7.330400 64.262428 89 61 75
-3.563319 -7.145472 63.847832 85 60 71
-3.578711 -7.038109 64.123634 80 59 66
-3.578711 -6.899880 64.123634 73 55 59
-3.570999 -6.747079 63.985435 57 42 43
-3.570999 -6.609148 63.985435 44 30 29
-3.578711 -6.485193 64.123634 39 26 24
-3.578711 -6.346964 64.123634 37 25 23
-3.578711 -6.208735 64.123634 35 24 22
-3.563319 -6.044397 63.847832 34 23 22
-3.570999 -5.919493 63.985435 34 22 22
-3.409348 -4.071285 61.088974 30 18 16
-3.374630 -3.899480 60.466888 31 18 16
-2.729725 1.695808 48.911438 34 18 18
-2.698605 1.780709 48.353813 34 18 18
-3.540477 3.156743 63.438553 35 19 21
-3.548059 3.300547 63.574394 35 20 21
-3.594237 3.482333 64.401825 36 20 22
-3.602051 3.629034 64.541832 37 19 21
-3.602051 3.768164 64.541832 39 20 22
-3.617780 3.924357 64.823669 42 21 23
-3.641634 4.090891 65.251083 45 23 25
-3.657712 4.250233 65.539169 50 26 29
-3.649655 4.381840 65.394806 55 30 33
-3.657712 4.532794 65.539169 57 32 35
-3.657712 4.674074 65.539169 59 32 36
-3.690297 4.858253 66.123032 58 32 35
-3.715120 5.034429 66.567810 58 33 35
-3.740278 5.212992 67.018608 59 33 35
-3.748741 5.369583 67.170235 59 34 35
-3.488302 6.209169 62.503666 64 33 37
-3.451965 6.277824 61.852589 63 32 36
-3.430525 6.371336 61.468410 63 32 35
-3.437642 6.517335 61.595940 63 31 35
-3.451965 6.677824 61.852589 63 32 36
-3.430525 6.901357 61.468410 65 33 39
-2.545228 5.906844 45.605595 63 34 37
-2.533553 5.977608 45.396397 64 34 37
-3.641634 12.108474 65.251083 67 36 40
-3.633648 12.222271 65.107986 69 37 41
-3.602051 12.255120 64.541832 70 39 42
-2.506722 9.012641 44.915646 70 38 41
-3.510473 13.163889 62.900936 77 45 46
-3.495661 13.243366 62.635532 77 45 46
-3.495661 13.378387 62.635532 76 44 45
-3.510473 13.570668 62.900936 75 43 44
-3.517926 13.735362 63.034485 74 43 44
-3.525411 13.900756 63.168602 72 43 44
-3.555672 14.157415 63.710819 70 42 43
-3.578711 14.387377 64.123634 67 41 41
-3.570999 14.494301 63.985435 65 40 40
-3.447929 -8.854209 64.262428 105 74 69
-3.455409 -8.734587 64.401825 110 79 72
-3.455409 -8.595758 64.401825 119 88 79
-3.462920 -8.475314 64.541832 136 105 97
-3.462920 -8.336184 64.541832 167 135 128
-3.462920 -8.197053 64.541832 189 155 153
-3.447929 -8.023040 64.262428 177 143 146
-3.440482 -7.867483 64.123634 154 121 128
-3.455409 -7.762786 64.401825 137 104 115
-3.455409 -7.623958 64.401825 107 77 89
-3.455409 -7.485129 64.401825 80 53 64
-3.455409 -7.346301 64.401825 72 47 57
-3.447929 -7.191871 64.262428 71 50 57
-3.455409 -7.068643 64.401825 71 53 56
-3.447929 -6.914815 64.262428 65 50 50
-3.440482 -6.761651 64.123634 51 38 37
-3.433068 -6.609148 63.985435 40 28 26
-3.447929 -6.499230 64.262428 36 25 23
-3.440482 -6.346964 64.123634 34 24 22
-3.433068 -6.195354 63.985435 32 22 21
-3.411014 -6.018511 63.574394 31 21 19
-3.418333 -5.894087 63.710819 31 21 19
-3.231122 -3.883660 60.221588 30 18 15
-2.650488 1.499760 49.399738 34 18 17
-3.403725 3.156743 63.438553 33 19 19
-3.389241 3.279480 63.168602 33 19 20
-3.433068 3.459818 63.985435 33 19 20
-3.447929 3.613323 64.262428 34 19 21
-3.447929 3.751852 64.262428 35 19 21
-3.462920 3.907295 64.541832 38 20 22
-3.493297 4.081920 65.107986 42 21 24
-3.508686 4.240871 65.394806 46 24 27
-3.500974 4.372210 65.251083 51 28 30
-3.508686 4.522810 65.394806 55 31 33
-3.508686 4.663779 65.394806 57 33 35
-3.532025 4.836709 65.829803 58 33 35
-3.571622 5.034429 66.567810 59 34 35
-3.595809 5.212992 67.018608 60 34 36
-3.612117 5.381758 67.322548 60 34 36
-3.595809 5.501931 67.018608 60 34 35
-3.332517 6.304091 62.111385 64 33 37
-3.304862 6.384555 61.595940 64 33 36
-3.500974 11.967814 65.251083 66 35 39
-3.500974 12.108474 65.251083 67 35 40
-3.485653 12.195526 64.965523 68 36 41
-3.455409 12.228537 64.401825 70 37 42
-3.382045 13.055957 63.034485 76 42 44
-3.382045 13.191837 63.034485 76 42 44
-3.367745 13.271364 62.767956 75 42 43
-3.374880 13.435075 62.900936 73 42 42
-3.389241 13.628416 63.168602 72 41 42
-3.389241 13.764586 63.168602 71 41 42
-3.389241 13.900756 63.168602 69 40 42
-3.440482 14.387377 64.123634 65 40 40
-3.433068 14.494301 63.985435 65 40 40
-3.309401 -8.854209 64.262428 106 76 69
-3.309401 -8.715681 64.262428 112 81 71
-3.309401 -8.577152 64.262428 124 92 80
-3.323790 -8.475314 64.541832 148 115 103
-3.323790 -8.336184 64.541832 185 150 140
-3.323790 -8.197053 64.541832 198 162 156
-3.309401 -8.023040 64.262428 170 134 133
-3.309401 -7.884512 64.262428 141 107 110
-3.316580 -7.762786 64.401825 118 87 93
-3.316580 -7.623958 64.401825 88 59 66
-3.316580 -7.485129 64.401825 66 41 47
-3.323790 -7.362271 64.541832 61 40 44
-3.316580 -7.207472 64.401825 60 42 45
-3.316580 -7.068643 64.401825 59 44 44
-3.309401 -6.914815 64.262428 54 42 40
-3.295136 -6.747079 63.985435 45 34 32
-3.295136 -6.609148 63.985435 37 27 25
-3.316580 -6.513329 64.401825 34 24 22
-3.316580 -6.374500 64.401825 32 22 21
-3.302253 -6.208735 64.123634 31 21 20
-3.273969 -6.018511 63.574394 30 20 18
-2.548239 1.502259 49.482071 34 18 17
-3.246164 3.272517 63.034485 32 19 18
-3.273969 3.437592 63.574394 32 18 19
-3.295136 3.597749 63.985435 33 18 20
-3.295136 3.735680 63.985435 34 19 20
-3.309401 3.890380 64.262428 36 19 21
-3.352946 4.081920 65.107986 39 20 23
-3.352946 4.222271 65.107986 42 22 25
-3.352946 4.362622 65.107986 47 25 28
-3.352946 4.502973 65.107986 51 29 30
-3.360315 4.653529 65.251083 55 31 32
-3.375151 4.815354 65.539169 58 33 34
-3.405219 5.000792 66.123032 60 34 35
-3.451339 5.212992 67.018608 61 34 36
-3.459148 5.369583 67.170235 61 34 36
-3.443566 5.489539 66.867661 61 34 35
-3.405219 5.570948 66.123032 62 34 35
-3.212066 6.330579 62.372356 64 34 38
-3.295136 10.080507 63.985435 70 38 41
-3.360315 12.108474 65.251083 68 34 39
-3.338304 12.168899 64.823669 69 35 40
-3.309401 12.202068 64.262428 71 36 41
-3.246164 13.055957 63.034485 75 41 42
-3.246164 13.191837 63.034485 75 41 42
-3.239287 13.299482 62.900936 73 41 41
-3.253071 13.492246 63.168602 71 40 40
-3.273969 13.715964 63.574394 70 39 41
-3.170873 -8.854209 64.262428 104 76 68
-3.170873 -8.715681 64.262428 115 85 74
-3.177751 -8.595758 64.401825 134 101 89
-3.184659 -8.475314 64.541832 160 124 112
-3.191598 -8.354345 64.682442 185 148 136
-3.184659 -8.197053 64.541832 183 145 136
-3.170873 -8.023040 64.262428 155 118 114
-3.170873 -7.884512 64.262428 130 96 95
-3.177751 -7.762786 64.401825 102 73 74
-3.177751 -7.623958 64.401825 73 47 50
-3.184659 -7.501401 64.541832 59 38 39
-3.184659 -7.362271 64.541832 55 37 37
-3.184659 -7.223140 64.541832 52 37 36
-3.170873 -7.053343 64.262428 48 36 34
-3.170873 -6.914815 64.262428 43 33 31
-3.164025 -6.761651 64.123634 39 29 27
-3.164025 -6.623422 64.123634 35 25 24
-3.184659 -6.527488 64.541832 32 22 22
-3.184659 -6.388358 64.541832 31 21 20
-3.170873 -6.222174 64.262428 30 20 19
-3.130221 -6.005651 63.438553 30 19 18
-2.437510 1.499760 49.399738 34 18 17
-3.103693 3.265584 62.900936 31 19 18
-3.116901 3.415650 63.168602 32 19 20
-3.136924 3.574637 63.574394 33 19 20
-3.136924 3.711682 63.574394 34 19 20
-3.143655 3.856986 63.710819 35 19 21
-3.198566 4.064095 64.823669 37 20 22
-3.205565 4.213032 64.965523 40 21 23
-3.205565 4.353076 64.965523 43 24 26
-3.205565 4.493119 64.965523 48 27 28
-3.212595 4.643323 65.107986 53 29 31
-3.219656 4.794188 65.251083 57 31 33
-3.248211 4.978615 65.829803 59 33 35
-3.292007 5.189563 66.717400 61 34 35
-3.299422 5.345395 66.867661 62 34 35
-3.284626 5.464922 66.567810 62 34 35
-3.262680 5.570948 66.123032 63 34 35
-2.072056 5.891592 41.993271 68 34 40
-3.164025 10.102280 64.123634 68 38 41
-3.116901 13.219905 63.168602 74 41 42
-3.164025 14.387377 64.123634 66 39 41
-3.032345 -8.992737 64.262428 96 71 68
-3.032345 -8.854209 64.262428 101 74 68
-3.032345 -8.715681 64.262428 118 88 79
-3.038923 -8.595758 64.401825 145 111 99
-3.045529 -8.475314 64.541832 164 127 114
-3.045529 -8.336184 64.541832 164 125 112
-3.038923 -8.179273 64.401825 151 112 100
-3.025796 -8.005712 64.123634 138 102 94
-3.032345 -7.884512 64.262428 124 92 87
-3.038923 -7.762786 64.401825 95 69 65
-3.038923 -7.623958 64.401825 68 46 43
-3.045529 -7.501401 64.541832 56 39 35
-3.045529 -7.362271 64.541832 50 36 33
-3.045529 -7.223140 64.541832 45 33 31
-3.038923 -7.068643 64.401825 41 31 28
-3.038923 -6.929815 64.401825 37 28 26
-3.032345 -6.776287 64.262428 34 26 24
-3.032345 -6.637759 64.262428 32 24 23
-3.045529 -6.527488 64.541832 31 22 21
-3.038923 -6.374500 64.401825 30 20 20
-3.019274 -6.195354 63.985435 29 20 19
-2.980731 -5.980095 63.168602 30 20 18
-2.955577 3.251805 62.635532 32 19 19
-2.968100 3.401177 62.900936 32 19 20
-2.987086 3.559393 63.303288 33 19 20
-2.980731 3.687990 63.168602 34 19 21
-2.980731 3.824161 63.168602 35 20 21
-3.045529 4.046425 64.541832 36 20 22
-3.065521 4.213032 64.965523 39 21 22
-3.058828 4.343571 64.823669 42 22 24
-3.065521 4.493119 64.965523 46 25 26
-3.065521 4.633163 64.965523 51 28 29
-3.078996 4.794188 65.251083 55 30 32
-3.099432 4.967601 65.684166 59 32 34
-3.127106 5.154811 66.270630 61 33 35
-3.134101 5.309520 66.418884 62 33 35
-3.120141 5.428409 66.123032 62 33 35
-3.106305 5.546243 65.829803 63 34 35
-3.106305 5.688149 65.829803 64 34 35
-1.984339 5.899937 42.052750 68 35 41
-1.970384 5.948461 41.757023 68 35 40
-3.006316 10.449261 63.710819 71 38 40
-3.006316 10.586599 63.710819 73 38 41
-3.006316 10.723939 63.710819 73 38 41
-3.019274 10.908093 63.985435 73 38 41
-2.980731 13.900756 63.168602 68 40 41
-3.012781 14.187861 63.847832 67 40 41
-3.019274 14.356370 63.985435 67 40 41
-2.943158 15.742343 62.372356 56 34 37
-2.893817 -8.992737 64.262428 98 72 74
-2.893817 -8.854209 64.262428 104 76 73
-2.900094 -8.734587 64.401825 122 91 85
-2.900094 -8.595758 64.401825 146 111 101
-2.906399 -8.475314 64.541832 153 116 103
-2.906399 -8.336184 64.541832 139 100 87
-2.900094 -8.179273 64.401825 125 88 76
-2.887567 -8.005712 64.123634 126 93 82
-2.900094 -7.901615 64.401825 120 91 82
-2.906399 -7.779662 64.541832 93 69 61
-2.906399 -7.640532 64.541832 65 47 41
-2.912731 -7.517744 64.682442 51 38 32
-2.912731 -7.378311 64.682442 44 33 29
-2.906399 -7.223140 64.541832 40 30 26
-2.900094 -7.068643 64.401825 36 28 25
-2.906399 -6.944880 64.541832 34 26 24
-2.900094 -6.790986 64.401825 32 24 23
-2.900094 -6.652157 64.401825 31 22 22
-2.906399 -6.527488 64.541832 30 21 21
-2.893817 -6.360703 64.262428 29 20 20
-2.868977 -6.168765 63.710819 30 20 19
-2.838521 -5.967398 63.034485 29 20 19
-2.814618 3.379696 62.503666 33 19 20
-2.832507 3.536770 62.900936 33 19 20
-2.826519 3.664599 62.767956 34 20 21
-2.820556 3.791889 62.635532 35 20 21
-2.856717 3.977255 63.438553 36 21 21
-2.912731 4.194674 64.682442 38 21 22
-2.912731 4.334108 64.682442 41 22 22
-2.912731 4.473541 64.682442 44 23 24
-2.919090 4.623047 64.823669 48 26 27
-2.938337 4.794188 65.251083 53 29 31
-2.951310 4.956635 65.539169 58 31 34
-2.957839 5.109193 65.684166 60 32 35
-2.964398 5.262429 65.829803 62 32 35
-2.964398 5.404336 65.829803 62 33 35
-2.957839 5.533972 65.684166 63 33 34
-2.957839 5.675565 65.684166 64 34 34
-2.951310 5.804317 65.539169 64 34 34
-2.970985 5.985234 65.976097 64 34 35
-2.964398 6.113870 65.829803 64 34 36
-2.951310 6.228158 65.539169 64 34 37
-1.909919 5.859079 42.413204 69 36 42
-1.885675 5.874972 41.874813 69 36 42
-1.880370 5.948461 41.757023 68 36 41
-2.862834 10.563931 63.574394 71 37 40
-2.850626 10.655342 63.303288 72 38 40
-2.856717 10.814862 63.438553 72 38 40
-2.779508 15.445645 61.723995 57 34 37
-2.802816 15.709341 62.241596 55 33 36
-2.808705 15.876798 62.372356 53 31 34
-2.749338 -8.973314 64.123634 106 79 85
-2.749338 -8.835085 64.123634 110 82 83
-2.755289 -8.715681 64.262428 124 93 90
-2.761266 -8.595758 64.401825 139 105 98
-2.761266 -8.456929 64.401825 139 103 93
-2.767268 -8.336184 64.541832 122 86 75
-2.761266 -8.179273 64.401825 113 78 67
-2.749338 -8.005712 64.123634 118 87 77
-2.767268 -7.918792 64.541832 113 87 78
-2.767268 -7.779662 64.541832 87 66 59
-2.773297 -7.657177 64.682442 61 45 38
-2.779352 -7.534158 64.823669 46 35 29
-2.773297 -7.378311 64.682442 39 29 24
-2.767268 -7.223140 64.541832 35 27 23
-2.767268 -7.084010 64.541832 33 25 23
-2.767268 -6.944880 64.541832 32 24 22
-2.767268 -6.805749 64.541832 31 23 22
-2.767268 -6.666618 64.541832 30 22 21
-2.761266 -6.513329 64.401825 29 21 20
-2.743412 -6.333286 63.985435 29 20 20
-2.725789 -6.155556 63.574394 29 20 19
-2.696914 -5.954755 62.900936 29 19 19
-2.702640 -3.113895 63.034485 29 16 16
-2.668644 -2.940555 62.241596 29 16 16
-2.685534 3.521847 62.635532 33 20 21
-2.679881 3.649169 62.503666 34 20 21
-2.663061 3.760158 62.111385 35 20 21
-2.679881 3.918643 62.503666 36 20 20
-2.743412 4.149473 63.985435 38 20 20
-2.755289 4.305964 64.262428 39 20 21
-2.761266 4.454134 64.401825 42 21 23
-2.773297 4.612975 64.682442 46 23 26
-2.791543 4.783674 65.107986 50 26 29
-2.810030 4.956635 65.539169 54 28 31
-2.810030 5.097915 65.539169 57 30 33
-2.822491 5.262429 65.829803 59 31 35
-2.822491 5.404336 65.829803 61 32 35
-2.822491 5.546243 65.829803 62 33 34
-2.828763 5.700790 65.976097 63 34 34
-2.828763 5.843012 65.976097 63 34 34
-2.854133 6.038914 66.567810 63 34 34
-2.854133 6.182411 66.567810 63 34 35
-2.841391 6.297668 66.270630 62 34 36
-1.810730 5.834076 42.232208 70 37 42
-1.787842 5.850218 41.698376 70 37 42
-2.646452 15.312590 61.723995 58 35 37
