ply
format ascii 1.0
element vertex 1161
property float x
property float y
property float z
property uchar red
property uchar green
property uchar blue
end_header
10.162910 12.730139 62.767956 171 155 143
10.184442 12.892702 62.900936 189 175 167
10.184442 13.028296 62.900936 165 152 150
10.184442 13.163889 62.900936 124 113 116
10.184442 13.299482 62.900936 105 95 104
10.141470 13.378387 62.635532 100 91 105
10.141470 13.513408 62.635532 102 91 109
10.141470 13.648429 62.635532 133 121 139
10.120119 13.754433 62.503666 174 159 176
10.120119 13.889170 62.503666 163 145 164
10.098859 13.994444 62.372356 121 98 119
10.120119 14.158643 62.503666 108 84 104
10.056603 14.203672 62.111385 140 115 135
10.098859 14.397805 62.372356 182 157 175
10.098859 14.532259 62.372356 181 156 171
10.014701 14.544491 61.852589 147 121 133
10.056603 14.739238 62.111385 127 99 105
10.056603 14.873129 62.111385 126 96 97
10.035609 14.975690 61.981716 122 92 86
10.056603 15.140911 62.111385 114 84 73
10.014701 15.211157 61.852589 121 92 77
10.035609 15.376525 61.981716 136 108 93
10.014701 15.477824 61.852589 130 104 89
10.056603 15.676476 62.111385 113 88 76
10.035609 15.777360 61.981716 110 86 78
10.035609 15.910972 61.981716 113 92 87
10.077687 16.111856 62.241596 122 103 101
9.973146 16.077501 61.595940 129 111 111
9.952498 16.176720 61.468410 122 106 108
9.911457 16.241970 61.214931 111 95 100
9.870753 16.306684 60.963535 109 94 100
9.850526 16.404417 60.838612 122 106 114
9.830381 16.501749 60.714195 135 120 128
9.870753 16.700935 60.963535 129 114 123
9.850526 16.797859 60.838612 99 85 94
9.810320 16.859909 60.590290 69 55 64
9.790339 16.955917 60.466888 68 55 62
9.810320 17.121134 60.590290 82 69 74
9.770440 17.181618 60.343987 100 86 91
9.770440 17.311699 60.343987 124 109 113
9.810320 17.512970 60.590290 153 136 140
9.830381 17.679663 60.714195 170 152 156
9.830381 17.810543 60.714195 160 141 145
9.830381 17.941422 60.714195 131 113 117
9.850526 18.109335 60.838612 108 90 96
9.870753 18.277937 60.963535 104 87 94
9.891063 18.447233 61.088974 101 88 95
9.870753 18.540771 60.963535 94 83 92
9.850526 18.633924 60.838612 80 70 80
9.891063 18.842295 61.088974 67 58 69
9.911457 19.013103 61.214931 71 63 74
9.870753 19.066439 60.963535 102 94 103
9.870753 19.197855 60.963535 144 135 142
9.870753 19.329271 60.963535 156 146 152
9.911457 19.540939 61.214931 158 148 150
9.830381 19.511974 60.714195 170 159 160
9.830381 19.642853 60.714195 185 173 172
10.043416 -5.135350 61.214931 196 189 186
10.105927 -5.034532 61.595940 217 213 207
10.064167 -4.881497 61.341408 229 231 224
10.085004 -4.759099 61.468410 227 231 226
10.064167 -4.617034 61.341408 229 233 232
10.085004 -4.494088 61.468410 213 219 225
10.064167 -4.352571 61.341408 197 203 215
10.043416 -4.211638 61.214931 203 206 223
10.064167 -4.088109 61.341408 222 224 238
10.064167 -3.955877 61.341408 235 236 243
10.064167 -3.823646 61.341408 222 221 230
10.085004 -3.699057 61.468410 205 205 215
10.022750 -3.544536 61.088974 218 219 224
10.043416 -3.419886 61.214931 239 240 241
10.022750 -3.281162 61.088974 245 244 245
10.022750 -3.149474 61.088974 247 246 247
10.002170 -3.011590 60.963535 251 251 251
9.981673 -2.874272 60.838612 253 253 253
9.981673 -2.743124 60.838612 253 253 250
9.961261 -2.606635 60.714195 248 250 239
10.002170 -2.485923 60.963535 247 249 238
9.981673 -2.349681 60.838612 240 242 235
9.981673 -2.218534 60.838612 221 226 218
10.022750 -2.095976 61.088974 213 219 209
10.022750 -1.964289 61.088974 222 229 220
10.064167 -1.840175 61.341408 239 243 239
10.043416 -1.704422 61.214931 247 251 250
10.064167 -1.575712 61.341408 248 252 252
10.105927 -1.449470 61.595940 251 253 253
10.085004 -1.313964 61.468410 253 253 254
10.085004 -1.181459 61.468410 250 250 252
10.064167 -1.046786 61.341408 242 242 245
10.064167 -0.914555 61.341408 236 236 241
10.085004 -0.783943 61.468410 245 245 248
10.022750 -0.647417 61.088974 253 253 254
10.022750 -0.515729 61.088974 253 254 253
10.022750 -0.384042 61.088974 254 254 253
10.022750 -0.252355 61.088974 254 254 254
9.981673 -0.120173 60.838612 254 254 254
10.043416 0.143001 61.214931 252 253 252
10.064167 0.275528 61.341408 244 245 244
10.105927 0.542231 61.595940 240 242 240
10.105927 0.675011 61.595940 249 249 249
10.105927 0.807791 61.595940 253 253 253
10.126937 0.942527 61.723995 249 249 249
10.064167 1.068916 61.341408 241 240 242
10.085004 1.336140 61.468410 242 240 246
10.043416 1.462589 61.214931 251 249 252
10.043416 1.594547 61.214931 254 253 254
10.211859 2.292150 62.241596 248 246 243
10.169221 2.416191 61.981716 235 230 224
10.233313 2.565873 62.372356 224 216 207
10.211859 2.694666 62.241596 207 198 191
10.233313 2.834780 62.372356 184 175 170
10.233313 2.969234 62.372356 194 184 182
10.211859 3.097181 62.241596 230 223 224
10.233313 3.238142 62.372356 251 249 249
10.211859 3.365525 62.241596 250 247 248
10.190495 3.492375 62.111385 232 222 225
10.190495 3.626267 62.111385 210 193 198
10.190495 3.760158 62.111385 210 192 195
10.190495 3.894049 62.111385 224 206 208
10.211859 4.036385 62.241596 233 217 217
10.211859 4.170557 62.241596 243 231 229
10.211859 4.304729 62.241596 249 240 239
10.233313 4.448226 62.372356 238 226 226
10.254856 4.592327 62.503666 215 197 198
10.298217 4.747052 62.767956 193 171 174
10.320035 4.892702 62.900936 174 152 155
10.298217 5.017665 62.767956 164 141 144
10.298217 5.152971 62.767956 166 143 145
10.276491 5.277121 62.635532 156 135 136
10.233313 5.389402 62.372356 129 109 111
10.233313 5.523856 62.372356 130 114 115
10.254856 5.670222 62.503666 177 164 165
10.233313 5.792764 62.372356 215 204 207
10.276491 5.952227 62.635532 203 191 197
10.276491 6.087248 62.635532 167 155 163
10.233313 6.196125 62.372356 141 129 136
10.190495 6.304091 62.111385 126 113 117
10.190495 6.437982 62.111385 117 102 103
10.190495 6.571873 62.111385 120 103 100
10.169221 6.691765 61.981716 143 122 115
10.211859 6.853995 62.241596 165 142 130
10.254856 7.017591 62.503666 165 139 123
10.233313 7.137301 62.372356 156 127 108
10.233313 7.271755 62.372356 146 115 92
10.211859 7.390682 62.241596 134 101 75
10.190495 7.509112 62.111385 129 94 63
10.190495 7.643003 62.111385 129 93 60
10.211859 7.793198 62.241596 142 107 72
10.298217 8.129716 62.767956 145 114 87
10.276491 8.247585 62.635532 111 83 63
10.298217 8.400329 62.767956 96 70 59
10.276491 8.517628 62.635532 97 74 71
10.276491 8.652649 62.635532 111 88 91
10.276491 8.787670 62.635532 143 119 125
10.254856 8.903906 62.503666 153 129 135
10.276491 9.057712 62.635532 121 96 102
10.298217 9.212168 62.767956 99 72 79
10.298217 9.347474 62.767956 114 86 94
10.254856 9.442854 62.503666 133 105 113
10.254856 9.577590 62.503666 135 106 115
10.254856 9.712327 62.503666 133 104 111
10.211859 9.805777 62.241596 137 108 112
10.254856 9.981801 62.503666 149 121 121
10.276491 10.137880 62.635532 164 138 132
10.298217 10.294621 62.767956 168 143 133
10.298217 10.429927 62.767956 155 132 117
10.298217 10.565233 62.767956 141 121 103
10.276491 10.677965 62.635532 141 125 105
10.276491 10.812986 62.635532 142 128 107
10.298217 10.971153 62.767956 128 115 96
10.298217 11.106460 62.767956 123 110 91
10.298217 11.241766 62.767956 157 142 127
10.298217 11.377073 62.767956 213 197 182
10.298217 11.512380 62.767956 217 199 183
10.298217 11.647686 62.767956 175 153 137
10.298217 11.782992 62.767956 170 147 130
10.298217 11.918299 62.767956 195 171 153
10.320035 12.079143 62.900936 176 154 135
10.320035 12.214736 62.900936 145 125 105
10.320035 12.350329 62.900936 147 130 109
10.320035 12.485923 62.900936 150 135 115
10.320035 12.621516 62.900936 142 127 109
10.320035 12.757109 62.900936 154 139 124
10.341947 12.920075 63.034485 183 168 159
10.320035 13.028296 62.900936 188 174 170
10.320035 13.163889 62.900936 156 142 145
10.320035 13.299482 62.900936 119 105 113
10.298217 13.406672 62.767956 107 91 105
10.276491 13.513408 62.635532 117 100 118
10.276491 13.648429 62.635532 137 118 137
10.254856 13.754433 62.503666 152 132 152
10.254856 13.889170 62.503666 145 122 142
10.233313 13.994444 62.372356 117 93 113
10.254856 14.158643 62.503666 104 81 100
10.190495 14.203672 62.111385 128 105 124
10.233313 14.397805 62.372356 164 141 157
10.211859 14.501794 62.241596 165 142 155
10.169221 14.574855 61.981716 143 119 127
10.190495 14.739238 62.111385 142 117 118
10.190495 14.873129 62.111385 160 132 127
10.169221 14.975690 61.981716 156 127 116
10.190495 15.140911 62.111385 129 100 83
10.148035 15.211157 61.852589 118 89 69
10.169221 15.376525 61.981716 133 106 85
10.126937 15.445645 61.723995 143 117 97
10.190495 15.676476 62.111385 137 113 96
10.148035 15.744491 61.852589 126 103 90
10.169221 15.910972 61.981716 119 99 89
10.211859 16.111856 62.241596 136 117 111
10.105927 16.077501 61.595940 153 134 131
10.064167 16.143297 61.341408 143 125 124
10.022750 16.208549 61.088974 121 104 107
10.002170 16.306684 60.963535 112 95 101
10.002170 16.438101 60.963535 115 100 107
9.981673 16.535564 60.838612 115 101 110
10.002170 16.700935 60.963535 103 89 100
9.981673 16.797859 60.838612 82 70 80
9.940932 16.859909 60.590290 70 58 68
9.920686 16.955917 60.466888 72 62 70
9.920686 17.086264 60.466888 83 73 78
9.880440 17.146765 60.221588 105 94 97
9.880440 17.276583 60.221588 137 125 127
9.920686 17.477303 60.466888 163 148 150
9.940932 17.643583 60.590290 166 147 149
9.961261 17.810543 60.714195 148 128 129
9.961261 17.941422 60.714195 133 112 114
9.961261 18.072302 60.714195 129 109 112
9.981673 18.240482 60.838612 123 105 109
10.002170 18.409353 60.963535 110 94 99
10.002170 18.540771 60.963535 93 81 86
10.022750 18.842295 61.088974 65 57 64
10.022750 18.973982 61.088974 68 60 68
9.981673 19.027369 60.838612 91 83 90
9.981673 19.158516 60.838612 126 117 122
10.002170 19.329271 60.963535 139 130 134
10.043416 19.540939 61.214931 144 134 136
9.981673 19.551958 60.838612 155 143 144
9.940932 19.602766 60.590290 166 153 152
10.154437 -5.124783 61.088974 181 174 171
10.217508 -5.024109 61.468410 200 197 191
10.175375 -4.871432 61.214931 227 228 223
10.196398 -4.749266 61.341408 233 235 231
10.196398 -4.617034 61.341408 227 231 230
10.196398 -4.484803 61.341408 206 211 218
10.196398 -4.352571 61.341408 202 206 219
10.196398 -4.220340 61.341408 216 217 234
10.196398 -4.088109 61.341408 226 226 240
10.196398 -3.955877 61.341408 226 225 235
10.196398 -3.823646 61.341408 210 208 218
10.238707 -3.706731 61.595940 207 206 216
10.154437 -3.544536 61.088974 227 227 232
10.175375 -3.419886 61.214931 236 236 239
10.154437 -3.281162 61.088974 233 232 236
10.154437 -3.149474 61.088974 233 232 234
10.154437 -3.017787 61.088974 239 238 239
10.112821 -2.874272 60.838612 249 247 248
10.112821 -2.743124 60.838612 253 252 251
10.112821 -2.611976 60.838612 253 252 247
10.133587 -2.485923 60.963535 251 251 245
10.112821 -2.349681 60.838612 249 249 243
10.112821 -2.218534 60.838612 242 243 235
10.154437 -2.095976 61.088974 218 222 212
10.154437 -1.964289 61.088974 195 202 191
10.175375 -1.836380 61.214931 214 219 211
10.175375 -1.704422 61.214931 243 246 243
10.196398 -1.575712 61.341408 251 254 253
10.238707 -1.449470 61.595940 253 254 253
10.217508 -1.313964 61.468410 254 254 254
10.217508 -1.181459 61.468410 253 253 254
10.196398 -1.046786 61.341408 248 248 250
10.196398 -0.914555 61.341408 243 244 246
10.217508 -0.783943 61.468410 248 249 250
10.154437 -0.647417 61.088974 253 253 253
10.175375 -0.516793 61.214931 251 251 250
10.154437 -0.384042 61.088974 250 250 249
10.133587 -0.251837 60.963535 253 253 252
10.112821 -0.120173 60.838612 254 254 254
10.238707 0.940571 61.595940 253 254 253
10.196398 1.068916 61.341408 251 251 252
10.196398 1.333379 61.341408 241 238 246
10.154437 1.591266 61.088974 254 253 254
10.154437 1.722954 61.088974 253 250 251
10.112821 1.978187 60.838612 244 237 237
10.133587 2.113666 60.963535 247 244 243
10.259993 2.273088 61.723995 250 249 247
10.196398 2.391230 61.341408 245 242 236
10.324387 2.555137 62.111385 232 227 220
10.346030 2.694666 62.241596 206 199 194
10.367766 2.834780 62.372356 177 169 166
10.367766 2.969234 62.372356 183 172 173
10.346030 3.097181 62.241596 217 208 210
10.367766 3.238142 62.372356 242 238 240
10.346030 3.365525 62.241596 251 250 250
10.324387 3.492375 62.111385 246 241 242
10.324387 3.626267 62.111385 230 218 221
10.324387 3.760158 62.111385 216 198 202
10.346030 3.902213 62.241596 214 196 199
10.346030 4.036385 62.241596 226 210 212
10.346030 4.170557 62.241596 242 231 231
10.346030 4.304729 62.241596 251 244 243
10.367766 4.448226 62.372356 245 235 235
10.411512 4.602016 62.635532 222 205 205
10.433523 4.747052 62.767956 190 169 168
10.455628 4.892702 62.900936 168 144 143
10.433523 5.017665 62.767956 170 146 146
10.433523 5.152971 62.767956 190 166 166
10.433523 5.288278 62.767956 191 168 168
10.389593 5.400748 62.503666 163 140 143
10.367766 5.523856 62.372356 143 122 126
10.389593 5.670222 62.503666 161 142 148
10.367766 5.792764 62.372356 186 171 177
10.411512 5.952227 62.635532 181 167 175
10.389593 6.074432 62.503666 159 146 154
10.346030 6.183135 62.241596 141 129 135
10.324387 6.304091 62.111385 126 114 117
10.324387 6.437982 62.111385 113 101 100
10.324387 6.571873 62.111385 111 96 91
10.302833 6.691765 61.981716 128 109 100
10.346030 6.853995 62.241596 151 129 115
10.389593 7.017591 62.503666 153 128 111
10.367766 7.137301 62.372356 144 115 94
10.346030 7.256510 62.241596 141 110 85
10.346030 7.390682 62.241596 142 108 80
10.324387 7.509112 62.111385 138 102 70
10.324387 7.643003 62.111385 133 96 63
10.324387 7.776894 62.111385 143 108 75
10.389593 8.095485 62.503666 154 125 101
10.389593 8.230222 62.503666 122 96 80
10.389593 8.364959 62.503666 103 78 73
10.367766 8.481839 62.372356 99 76 80
10.367766 8.616293 62.372356 107 83 92
10.367766 8.750747 62.372356 136 112 123
10.346030 8.866573 62.241596 160 134 144
10.367766 9.019654 62.372356 138 112 118
10.389593 9.173380 62.503666 110 84 87
10.411512 9.327754 62.635532 124 97 99
10.367766 9.423016 62.372356 146 118 120
10.346030 9.537433 62.241596 143 115 116
10.346030 9.671605 62.241596 133 105 105
10.302833 9.764834 61.981716 138 111 109
10.346030 9.939949 62.241596 157 130 125
10.367766 10.095284 62.372356 168 143 135
10.389593 10.251275 62.503666 159 135 124
10.411512 10.407923 62.635532 140 119 105
10.389593 10.520748 62.503666 124 105 90
10.389593 10.655485 62.503666 125 110 95
10.389593 10.790222 62.503666 153 140 124
10.433523 10.971153 62.767956 159 147 133
10.433523 11.106460 62.767956 127 114 100
10.433523 11.241766 62.767956 130 114 101
10.433523 11.377073 62.767956 190 175 161
10.433523 11.512380 62.767956 219 204 189
10.433523 11.647686 62.767956 186 165 147
10.433523 11.782992 62.767956 169 144 124
10.455628 11.943550 62.900936 193 167 145
10.455628 12.079143 62.900936 184 159 137
10.455628 12.214736 62.900936 151 129 106
10.455628 12.350329 62.900936 144 126 103
10.455628 12.485923 62.900936 145 130 108
10.455628 12.621516 62.900936 142 128 108
10.433523 12.730139 62.767956 157 144 127
10.455628 12.892702 62.900936 189 175 164
10.455628 13.028296 62.900936 206 191 186
10.455628 13.163889 62.900936 185 169 171
10.455628 13.299482 62.900936 140 122 130
10.411512 13.378387 62.635532 118 99 111
10.411512 13.513408 62.635532 144 122 139
10.411512 13.648429 62.635532 172 149 167
10.367766 13.725536 62.372356 163 139 159
10.389593 13.889170 62.503666 136 111 131
10.367766 13.994444 62.372356 111 87 106
10.389593 14.158643 62.503666 100 77 94
10.324387 14.203672 62.111385 111 90 106
10.367766 14.397805 62.372356 132 112 125
10.346030 14.501794 62.241596 135 114 124
10.302833 14.574855 61.981716 124 104 108
10.324387 14.739238 62.111385 136 114 112
10.324387 14.873129 62.111385 168 143 136
10.324387 15.007020 62.111385 176 150 136
10.324387 15.140911 62.111385 148 121 102
10.281368 15.211157 61.852589 126 99 77
10.281368 15.344491 61.852589 138 111 89
10.238707 15.413601 61.595940 152 125 106
10.324387 15.676476 62.111385 153 128 111
10.281368 15.744491 61.852589 143 119 105
10.302833 15.910972 61.981716 136 113 103
10.324387 16.078150 62.111385 153 131 124
10.259993 16.110926 61.723995 171 150 145
10.196398 16.143297 61.341408 159 140 137
10.175375 16.241970 61.214931 132 114 113
10.133587 16.306684 60.963535 116 98 101
10.133587 16.569519 60.963535 101 86 95
10.175375 16.769806 61.214931 84 70 82
10.112821 16.797859 60.838612 72 61 73
10.092140 16.894388 60.714195 77 67 79
10.071544 16.990520 60.590290 83 76 84
10.071544 17.121134 60.590290 86 79 85
10.030602 17.181618 60.343987 105 97 101
10.030602 17.311699 60.343987 148 137 140
10.071544 17.512970 60.590290 182 169 171
10.092140 17.679663 60.714195 176 159 160
10.092140 17.810543 60.714195 139 118 119
10.092140 17.941422 60.714195 124 101 101
10.092140 18.072302 60.714195 136 114 114
10.112821 18.240482 60.838612 132 112 113
10.133587 18.409353 60.963535 111 94 96
10.112821 18.502777 60.838612 86 73 75
10.154437 18.842295 61.088974 63 54 59
10.175375 19.013103 61.214931 72 63 68
10.112821 19.027369 60.838612 93 85 89
10.133587 19.197855 60.963535 119 110 113
10.133587 19.329271 60.963535 130 120 123
10.175375 19.540939 61.214931 138 127 129
10.112821 19.551958 60.838612 148 137 137
10.092140 19.642853 60.714195 155 142 142
10.286125 -5.124783 61.088974 155 150 146
10.350014 -5.024109 61.468410 178 175 171
10.307333 -4.871432 61.214931 226 226 223
10.328629 -4.749266 61.341408 244 246 244
10.328629 -4.617034 61.341408 231 234 235
10.328629 -4.484803 61.341408 208 212 220
10.328629 -4.352571 61.341408 215 216 228
10.328629 -4.220340 61.341408 231 230 241
10.328629 -4.088109 61.341408 231 229 241
10.350014 -3.964067 61.468410 229 227 236
10.350014 -3.831562 61.468410 219 217 226
10.371487 -3.706731 61.595940 219 216 225
10.307333 -3.551844 61.214931 233 232 237
10.328629 -3.426951 61.341408 236 236 239
10.307333 -3.287927 61.214931 229 227 232
10.328629 -3.162489 61.341408 221 218 222
10.307333 -3.024009 61.214931 225 221 224
10.265003 -2.880174 60.963535 240 235 238
10.265003 -2.748757 60.963535 248 245 246
10.243969 -2.611976 60.838612 252 250 249
10.286125 -2.491038 61.088974 253 252 249
10.265003 -2.354506 60.963535 248 246 240
10.265003 -2.223089 60.963535 241 241 232
10.307333 -2.100298 61.214931 210 213 204
10.286125 -1.964289 61.088974 167 171 160
10.307333 -1.836380 61.214931 183 187 177
10.307333 -1.704422 61.214931 234 236 232
10.328629 -1.575712 61.341408 254 254 254
10.371487 -1.449470 61.595940 254 254 254
10.350014 -1.313964 61.468410 252 253 253
10.350014 -1.181459 61.468410 250 251 251
10.307333 -1.044628 61.214931 251 252 252
10.328629 -0.914555 61.341408 249 250 250
10.350014 -0.783943 61.468410 249 250 250
10.286125 -0.647417 61.088974 251 251 251
10.307333 -0.516793 61.214931 249 249 247
10.265003 -0.383254 60.963535 247 247 244
10.265003 -0.251837 60.963535 251 251 250
10.223020 -0.119927 60.714195 254 254 254
10.371487 1.338912 61.595940 246 245 249
10.371487 1.471692 61.595940 250 248 252
10.307333 1.594547 61.214931 253 252 254
10.286125 1.722954 61.088974 251 248 250
10.223020 1.843263 60.714195 243 237 237
10.243969 1.978187 60.838612 236 229 228
10.223020 2.105021 60.714195 242 238 236
10.307333 2.254341 61.214931 250 249 247
10.265003 2.376500 60.963535 250 248 245
10.414701 2.677824 61.852589 216 211 208
10.458278 2.822919 62.111385 185 177 177
10.480203 2.963009 62.241596 178 169 171
10.458278 3.090702 62.111385 199 190 194
10.502220 3.238142 62.372356 227 221 224
10.458278 3.358484 62.111385 246 244 245
10.458278 3.492375 62.111385 251 248 249
10.458278 3.626267 62.111385 239 231 233
10.458278 3.760158 62.111385 216 201 206
10.480203 3.902213 62.241596 203 187 191
10.502220 4.044865 62.372356 217 201 205
10.480203 4.170557 62.241596 239 226 228
10.480203 4.304729 62.241596 250 240 242
10.502220 4.448226 62.372356 248 239 239
10.546533 4.602016 62.635532 228 212 212
10.568830 4.747052 62.767956 192 170 168
10.568830 4.882358 62.767956 168 143 140
10.568830 5.017665 62.767956 181 158 155
10.568830 5.152971 62.767956 212 193 190
10.568830 5.288278 62.767956 217 196 196
10.524330 5.400748 62.503666 188 165 168
10.502220 5.523856 62.372356 162 139 144
10.524330 5.670222 62.503666 157 136 144
10.502220 5.792764 62.372356 160 142 152
10.524330 5.939696 62.503666 157 141 151
10.524330 6.074432 62.503666 148 134 143
10.480203 6.183135 62.241596 140 128 135
10.436444 6.290930 61.981716 132 121 125
10.436444 6.424541 61.981716 120 109 109
10.414701 6.544490 61.852589 110 96 92
10.371487 6.650115 61.595940 113 96 87
10.436444 6.825377 61.981716 129 108 95
10.480203 6.988167 62.241596 139 114 98
10.480203 7.122338 62.241596 139 111 90
10.458278 7.241330 62.111385 140 109 85
10.480203 7.390682 62.241596 145 112 84
10.436444 7.493435 61.981716 148 113 81
10.436444 7.627047 61.981716 145 110 77
10.458278 7.776894 62.111385 155 123 91
10.524330 8.095485 62.503666 173 147 125
10.524330 8.230222 62.503666 135 110 97
10.524330 8.364959 62.503666 108 83 81
10.502220 8.481839 62.372356 102 77 84
10.502220 8.616293 62.372356 103 77 89
10.502220 8.750747 62.372356 125 98 110
10.480203 8.866573 62.241596 155 127 135
10.480203 9.000745 62.241596 148 120 123
10.502220 9.154108 62.372356 120 92 90
10.502220 9.288562 62.372356 123 95 91
10.458278 9.383589 62.111385 146 118 113
10.458278 9.517480 62.111385 153 124 119
10.436444 9.631223 61.981716 143 115 110
10.371487 9.704057 61.595940 136 109 103
10.414701 9.877824 61.852589 147 121 113
10.414701 10.011157 61.852589 157 133 123
10.458278 10.186936 62.111385 146 123 112
10.480203 10.342464 62.241596 129 109 97
10.502220 10.498646 62.372356 116 98 87
10.480203 10.610808 62.241596 114 99 88
10.502220 10.767553 62.372356 151 138 129
10.546533 10.948008 62.635532 193 181 171
10.546533 11.083029 62.635532 168 156 147
10.546533 11.218049 62.635532 130 113 106
10.568830 11.377073 62.767956 162 145 137
10.568830 11.512380 62.767956 215 201 190
10.568830 11.647686 62.767956 212 194 180
10.591222 11.943550 62.900936 187 159 138
10.613708 12.104789 63.034485 178 152 129
10.613708 12.240670 63.034485 149 127 103
10.591222 12.350329 62.900936 133 114 91
10.613708 12.512432 63.034485 126 110 89
10.591222 12.621516 62.900936 130 117 98
10.568830 12.730139 62.767956 160 148 132
10.591222 12.892702 62.900936 198 185 174
10.568830 13.000751 62.767956 215 201 196
10.568830 13.136058 62.767956 205 189 190
10.568830 13.271364 62.767956 164 147 153
10.524330 13.350222 62.503666 129 110 120
10.524330 13.484959 62.503666 153 131 145
10.524330 13.619696 62.503666 198 175 190
10.502220 13.725536 62.372356 189 165 182
10.502220 13.859990 62.372356 146 122 139
10.502220 13.994444 62.372356 113 90 106
10.524330 14.158643 62.503666 98 76 90
10.458278 14.203672 62.111385 99 79 92
10.502220 14.397805 62.372356 112 93 103
10.502220 14.532259 62.372356 117 98 105
10.480203 14.635965 62.241596 112 94 95
10.480203 14.770137 62.241596 120 100 96
10.480203 14.904309 62.241596 147 125 116
10.480203 15.038481 62.241596 165 141 128
10.480203 15.172653 62.241596 153 127 109
10.414701 15.211157 61.852589 139 112 92
10.436444 15.376525 61.981716 150 124 104
10.393049 15.445645 61.723995 162 135 118
10.458278 15.676476 62.111385 161 134 120
10.393049 15.711758 61.723995 160 134 122
10.414701 15.877824 61.852589 159 134 125
10.436444 16.044584 61.981716 167 142 135
10.371487 16.077501 61.595940 173 149 143
10.307333 16.110012 61.214931 163 141 135
10.286125 16.208549 61.088974 142 121 117
10.265003 16.306684 60.963535 124 105 104
10.286125 16.471926 61.088974 112 94 97
10.307333 16.637846 61.214931 94 79 86
10.328629 16.804453 61.341408 74 61 72
10.265003 16.832352 60.963535 71 60 73
10.243969 16.929007 60.838612 89 80 93
10.243969 17.060154 60.838612 99 93 104
10.223020 17.156147 60.714195 97 91 101
10.181378 17.216610 60.466888 111 103 111
10.202156 17.382359 60.590290 153 143 150
10.223020 17.548784 60.714195 196 184 189
10.243969 17.715893 60.838612 193 177 181
10.243969 17.847040 60.838612 144 123 126
10.223020 17.941422 60.714195 117 92 94
10.265003 18.277937 60.963535 130 107 107
10.265003 18.409353 60.963535 108 88 87
10.265003 18.540771 60.963535 83 68 67
10.286125 18.842295 61.088974 66 56 57
10.307333 19.013103 61.214931 77 68 70
10.243969 19.027369 60.838612 98 88 91
10.243969 19.158516 60.838612 120 110 112
10.243969 19.289663 60.838612 134 124 125
10.286125 19.500731 61.088974 144 133 134
10.243969 19.551958 60.838612 151 139 140
10.460861 -5.013728 61.341408 172 172 166
10.439292 -4.871432 61.214931 220 223 219
10.460861 -4.749266 61.341408 243 247 245
10.439292 -4.607514 61.214931 229 233 235
10.460861 -4.484803 61.341408 205 208 217
10.460861 -4.352571 61.341408 211 210 222
10.460861 -4.220340 61.341408 222 221 232
10.460861 -4.088109 61.341408 223 220 230
10.460861 -3.955877 61.341408 234 232 238
10.460861 -3.823646 61.341408 237 234 241
10.482519 -3.699057 61.468410 229 226 234
10.417812 -3.544536 61.088974 234 232 238
10.460861 -3.426951 61.341408 242 241 245
10.439292 -3.287927 61.214931 240 238 241
10.460861 -3.162489 61.341408 230 228 231
10.439292 -3.024009 61.214931 230 226 229
10.417812 -2.886100 61.088974 234 229 232
10.396420 -2.748757 60.963535 237 232 235
10.396420 -2.617340 60.963535 247 244 245
10.439292 -2.496174 61.214931 253 252 251
10.396420 -2.354506 60.963535 249 247 242
10.396420 -2.223089 60.963535 242 242 235
10.460861 -2.104637 61.341408 209 210 203
10.439292 -1.968339 61.214931 149 151 140
10.439292 -1.836380 61.214931 152 155 143
10.439292 -1.704422 61.214931 219 220 214
10.482519 -1.578974 61.468410 254 254 252
10.504267 -1.449470 61.595940 253 253 253
10.482519 -1.313964 61.468410 245 246 246
10.482519 -1.181459 61.468410 241 242 241
10.439292 -1.044628 61.214931 247 248 248
10.460861 -0.914555 61.341408 250 251 250
10.482519 -0.783943 61.468410 248 249 248
10.417812 -0.647417 61.088974 251 251 251
10.439292 -0.516793 61.214931 250 250 248
10.396420 -0.383254 60.963535 248 248 245
10.504267 1.471692 61.595940 251 249 252
10.439292 1.594547 61.214931 250 248 250
10.417812 1.722954 61.088974 248 246 246
10.375116 1.847040 60.838612 241 237 235
10.375116 1.978187 60.838612 237 231 228
10.353899 2.105021 60.714195 243 240 238
10.396420 2.245083 60.963535 252 251 250
10.375116 2.371630 60.838612 252 251 249
10.460861 2.655693 61.341408 229 224 224
10.504267 2.799493 61.595940 212 206 207
10.526105 2.938369 61.723995 205 199 201
10.526105 3.071425 61.723995 209 202 205
10.570056 3.217861 61.981716 221 214 218
10.570056 3.351473 61.981716 239 234 237
10.548035 3.477824 61.852589 247 243 245
10.570056 3.618696 61.981716 234 226 230
10.570056 3.752308 61.981716 208 195 201
10.570056 3.885920 61.981716 197 183 189
10.614374 4.036385 62.241596 215 200 206
10.614374 4.170557 62.241596 236 220 225
10.592169 4.295723 62.111385 243 229 232
10.614374 4.438900 62.241596 243 230 231
10.681554 4.602016 62.635532 229 212 211
10.681554 4.737037 62.635532 200 178 175
10.704137 4.882358 62.767956 180 155 150
10.704137 5.017665 62.767956 191 169 164
10.704137 5.152971 62.767956 221 204 200
10.704137 5.288278 62.767956 230 211 209
10.659066 5.400748 62.503666 205 182 183
10.636674 5.523856 62.372356 176 153 157
10.659066 5.670222 62.503666 160 138 145
10.636674 5.792764 62.372356 151 131 141
10.659066 5.939696 62.503666 146 129 140
10.636674 6.061671 62.372356 140 126 136
10.592169 6.170200 62.111385 135 122 131
10.548035 6.277824 61.852589 132 121 127
10.548035 6.411157 61.852589 125 114 116
10.526105 6.530885 61.723995 112 99 97
10.460861 6.622635 61.341408 107 91 83
10.548035 6.811157 61.852589 118 99 87
10.570056 6.958989 61.981716 138 114 98
10.548035 7.211157 61.852589 142 112 88
10.570056 7.359824 61.981716 147 115 88
10.548035 7.477824 61.852589 162 129 100
10.548035 7.611157 61.852589 166 134 104
10.592169 7.776894 62.111385 165 136 106
10.636674 8.078478 62.372356 174 151 131
10.636674 8.212932 62.372356 143 120 107
10.636674 8.347385 62.372356 113 89 86
10.614374 8.464058 62.241596 102 76 81
10.614374 8.598229 62.241596 99 72 79
10.614374 8.732402 62.241596 115 87 91
10.592169 8.848024 62.111385 151 122 121
10.592169 8.981915 62.111385 159 130 123
10.614374 9.134917 62.241596 129 100 89
10.614374 9.269089 62.241596 115 86 73
10.570056 9.363999 61.981716 134 105 92
10.548035 9.477824 61.852589 155 126 115
10.526105 9.591176 61.723995 156 128 119
10.482519 9.683966 61.468410 142 116 107
10.504267 9.836837 61.595940 135 110 102
10.482519 9.948977 61.468410 139 116 107
10.504267 10.102397 61.595940 134 113 104
10.570056 10.299281 61.981716 127 108 100
10.592169 10.454719 62.111385 123 105 98
10.592169 10.588610 62.111385 116 102 97
10.614374 10.744980 62.241596 141 126 123
10.659066 10.924959 62.503666 196 183 180
10.681554 11.083029 62.635532 203 191 188
10.681554 11.218049 62.635532 152 136 135
10.704137 11.377073 62.767956 148 128 127
10.704137 11.512380 62.767956 202 185 182
10.726815 11.672363 62.900936 233 219 213
10.749590 11.968907 63.034485 199 174 159
10.749590 12.104789 63.034485 172 146 128
10.772461 12.266714 63.168602 142 119 99
10.749590 12.376551 63.034485 120 100 81
10.772461 12.539054 63.168602 105 89 71
10.726815 12.621516 62.900936 108 94 78
10.704137 12.730139 62.767956 138 126 113
10.704137 12.865445 62.767956 173 160 152
10.681554 12.973324 62.635532 192 179 176
10.681554 13.108345 62.635532 203 192 191
10.681554 13.243366 62.635532 191 179 183
10.636674 13.322175 62.372356 152 136 145
10.636674 13.456629 62.372356 149 129 142
10.636674 13.591083 62.372356 186 165 179
10.636674 13.725536 62.372356 191 168 184
10.636674 13.859990 62.372356 156 133 149
10.636674 13.994444 62.372356 125 102 117
10.659066 14.158643 62.503666 104 83 96
10.614374 14.233450 62.241596 98 78 89
10.659066 14.428117 62.503666 107 89 96
10.659066 14.562854 62.503666 118 101 104
10.614374 14.635965 62.241596 120 102 102
10.636674 14.801167 62.372356 121 103 98
10.636674 14.935620 62.372356 135 115 107
10.614374 15.038481 62.241596 149 127 116
10.614374 15.172653 62.241596 144 121 106
10.548035 15.211157 61.852589 132 108 92
10.570056 15.376525 61.981716 139 114 99
10.504267 15.413601 61.595940 152 127 113
10.548035 15.611157 61.852589 157 132 121
10.526105 15.711758 61.723995 167 141 132
10.504267 15.811941 61.595940 175 148 141
10.548035 16.011158 61.852589 175 149 142
10.504267 16.077501 61.595940 169 144 137
10.417812 16.076862 61.088974 160 136 130
10.417812 16.208549 61.088974 149 126 121
10.396420 16.306684 60.963535 134 113 110
10.417812 16.471926 61.088974 115 96 97
10.417812 16.603613 61.088974 93 76 83
10.460861 16.804453 61.341408 73 59 69
10.417812 16.866987 61.088974 75 64 77
10.396420 16.963768 60.963535 98 89 103
10.375116 17.060154 60.838612 109 102 116
10.353899 17.156147 60.714195 111 104 117
10.332768 17.251745 60.590290 125 117 129
10.396420 17.620853 60.963535 201 187 197
10.396420 17.752270 60.963535 198 181 189
10.396420 17.883686 60.963535 149 127 133
10.375116 17.978188 60.838612 117 91 95
10.396420 18.277937 60.963535 123 100 99
10.417812 18.447233 61.088974 101 81 80
10.396420 18.540771 60.963535 84 68 66
10.396420 18.672188 60.963535 77 64 63
10.417812 18.842295 61.088974 78 67 65
10.439292 19.013103 61.214931 86 77 75
10.375116 19.027369 60.838612 102 93 93
10.375116 19.158516 60.838612 123 112 113
10.353899 19.250216 60.714195 142 132 132
10.396420 19.460690 60.963535 155 143 144
10.375116 19.551958 60.838612 157 144 145
10.593092 -5.013728 61.341408 186 188 182
10.571251 -4.871432 61.214931 217 221 218
10.571251 -4.607514 61.214931 223 229 233
10.571251 -4.211638 61.214931 216 215 226
10.571251 -4.079679 61.214931 214 214 222
10.593092 -3.955877 61.341408 226 225 230
10.571251 -3.815762 61.214931 237 235 240
10.571251 -3.683803 61.214931 229 227 234
10.527837 -3.537258 60.963535 229 228 234
10.571251 -3.419886 61.214931 243 242 245
10.571251 -3.287927 61.214931 250 249 251
10.593092 -3.162489 61.341408 248 248 248
10.549500 -3.017787 61.088974 246 245 246
10.549500 -2.886100 61.088974 239 236 238
10.527837 -2.748757 60.963535 233 230 233
10.506264 -2.611976 60.838612 243 239 242
10.571251 -2.496174 61.214931 247 245 246
10.527837 -2.354506 60.963535 245 243 242
10.527837 -2.223089 60.963535 242 241 238
10.571251 -2.100298 61.214931 207 206 200
10.549500 -1.964289 61.088974 142 142 130
10.571251 -1.836380 61.214931 141 143 130
10.549500 -1.700915 61.088974 212 213 205
10.593092 -1.575712 61.341408 252 252 250
10.593092 -1.443480 61.341408 252 252 251
10.593092 -1.311249 61.341408 238 239 238
10.593092 -1.179018 61.341408 230 232 230
10.571251 -1.044628 61.214931 243 244 243
10.571251 -0.912669 61.214931 249 250 249
10.593092 -0.782323 61.341408 247 248 246
10.549500 -0.647417 61.088974 251 251 250
10.571251 -0.516793 61.214931 252 252 251
10.527837 -0.383254 60.963535 251 252 250
10.659162 1.474751 61.723995 251 250 251
10.593092 1.597842 61.341408 247 245 246
10.571251 1.726506 61.214931 240 237 236
10.506264 1.847040 60.838612 232 227 224
10.506264 1.978187 60.838612 234 230 226
10.527837 2.245083 60.963535 253 252 251
10.484778 2.366780 60.714195 251 249 248
10.571251 2.650218 61.214931 240 235 236
10.571251 2.782176 61.214931 239 235 237
10.615025 2.926202 61.468410 240 237 238
10.615025 3.058707 61.468410 235 231 234
10.703668 3.217861 61.981716 229 223 228
10.681368 3.344491 61.852589 236 231 236
10.681368 3.477824 61.852589 243 238 242
10.681368 3.611157 61.852589 227 218 224
10.681368 3.744491 61.852589 204 192 200
10.703668 3.885920 61.981716 204 191 198
10.726060 4.027940 62.111385 225 211 217
10.748547 4.170557 62.241596 238 223 228
10.726060 4.295723 62.111385 236 220 224
10.748547 4.438900 62.241596 235 218 220
10.816575 4.602016 62.635532 225 206 205
10.816575 4.737037 62.635532 205 183 179
10.839443 4.882358 62.767956 191 169 163
10.839443 5.017665 62.767956 196 174 169
10.839443 5.152971 62.767956 213 193 190
10.839443 5.288278 62.767956 222 201 200
10.793803 5.400748 62.503666 208 184 186
10.793803 5.535485 62.503666 185 160 165
10.793803 5.670222 62.503666 166 143 151
10.771128 5.792764 62.372356 155 133 145
10.771128 5.927217 62.372356 147 128 140
10.748547 6.048963 62.241596 136 121 133
10.703668 6.157318 61.981716 128 116 126
10.659162 6.264772 61.723995 127 115 122
10.637047 6.384555 61.595940 124 111 115
10.637047 6.517335 61.595940 115 101 100
10.593092 6.622635 61.341408 108 91 84
10.659162 6.796997 61.723995 117 96 83
10.659162 6.930053 61.723995 143 118 100
10.659162 7.063109 61.723995 159 131 108
10.659162 7.196165 61.723995 151 121 95
10.681368 7.344491 61.852589 154 123 95
10.659162 7.462277 61.723995 177 147 119
10.681368 7.611157 61.852589 183 155 127
10.703668 7.760659 61.981716 162 136 109
10.748547 8.061542 62.241596 157 135 117
10.748547 8.195714 62.241596 150 127 117
10.748547 8.329885 62.241596 125 100 96
10.748547 8.464058 62.241596 104 76 76
10.726060 8.580241 62.111385 98 68 67
10.748547 8.732402 62.241596 115 84 78
10.726060 8.848024 62.111385 158 128 114
10.726060 8.981915 62.111385 177 148 127
10.726060 9.115807 62.111385 142 112 88
10.703668 9.230387 61.981716 110 80 56
10.659162 9.325064 61.723995 123 93 71
10.637047 9.438497 61.595940 151 121 103
10.637047 9.571277 61.595940 168 140 126
10.593092 9.663958 61.341408 166 140 129
10.593092 9.796189 61.341408 148 123 115
10.593092 9.928420 61.341408 132 109 101
10.593092 10.060652 61.341408 124 103 96
10.637047 10.235177 61.595940 127 109 103
10.681368 10.411158 61.852589 138 122 117
10.681368 10.544491 61.852589 135 120 118
10.726060 10.722501 62.111385 133 119 119
10.771128 10.902007 62.372356 169 156 158
10.793803 11.059696 62.503666 199 185 189
10.793803 11.194432 62.503666 169 151 157
10.839443 11.377073 62.767956 142 121 128
10.816575 11.488091 62.635532 176 156 161
10.862408 11.672363 62.900936 225 211 213
10.908631 11.994373 63.168602 225 207 201
10.931890 12.156408 63.303288 190 167 157
10.931890 12.292869 63.303288 156 134 121
10.908631 12.402884 63.168602 131 112 98
10.931890 12.565790 63.303288 107 91 78
10.862408 12.621516 62.900936 96 82 69
10.839443 12.730139 62.767956 108 96 85
10.839443 12.865445 62.767956 128 116 108
10.816575 12.973324 62.635532 145 132 129
10.839443 13.136058 62.767956 176 166 165
10.839443 13.271364 62.767956 205 196 198
10.793803 13.350222 62.503666 186 174 182
10.793803 13.484959 62.503666 154 138 149
10.793803 13.619696 62.503666 161 142 156
10.771128 13.725536 62.372356 172 150 166
10.793803 13.889170 62.503666 158 136 152
10.793803 14.023907 62.503666 141 120 134
10.816575 14.188514 62.635532 122 101 114
10.771128 14.263351 62.372356 107 87 96
10.793803 14.428117 62.503666 107 89 96
10.771128 14.532259 62.372356 122 105 108
10.748547 14.635965 62.241596 135 118 118
10.748547 14.770137 62.241596 142 124 121
10.748547 14.904309 62.241596 151 132 127
10.726060 15.007020 62.111385 157 137 129
10.726060 15.140911 62.111385 143 122 112
10.659162 15.179533 61.723995 119 97 88
10.681368 15.344491 61.852589 115 92 85
10.637047 15.413601 61.595940 128 105 98
10.659162 15.578702 61.723995 143 120 115
10.637047 15.679161 61.595940 163 138 134
10.637047 15.811941 61.595940 179 153 151
10.659162 15.977870 61.723995 177 150 148
10.615025 16.044214 61.468410 163 137 133
10.527837 16.043852 60.963535 156 131 127
10.549500 16.735300 61.088974 78 62 73
10.527837 16.832352 60.963535 83 70 84
10.506264 16.929007 60.838612 101 89 106
10.506264 17.060154 60.838612 108 98 115
10.484778 17.156147 60.714195 115 106 122
10.484778 17.287025 60.714195 138 127 144
10.527837 17.620853 60.963535 194 177 192
10.527837 17.752270 60.963535 181 161 174
10.527837 17.883686 60.963535 141 117 127
10.506264 17.978188 60.838612 119 94 101
10.506264 18.109335 60.838612 128 102 107
10.549500 18.315546 61.088974 119 95 97
10.549500 18.447233 61.088974 101 79 79
10.527837 18.540771 60.963535 94 77 74
10.527837 18.672188 60.963535 97 83 80
10.527837 18.803604 60.963535 99 87 84
10.549500 18.973982 61.088974 102 92 90
10.484778 18.988457 60.714195 116 106 105
10.484778 19.119337 60.714195 132 121 121
10.463381 19.210930 60.590290 148 137 138
10.506264 19.420811 60.838612 159 146 147
10.484778 19.511974 60.714195 155 140 143
10.725324 -5.013728 61.341408 204 208 202
10.703210 -4.871432 61.214931 216 222 220
10.725324 -4.749266 61.341408 234 239 240
10.725324 -4.617034 61.341408 223 229 233
10.725324 -4.484803 61.341408 205 211 217
10.747529 -4.361583 61.468410 216 219 225
10.747529 -4.229078 61.468410 229 230 237
10.725324 -4.088109 61.341408 221 222 227
10.747529 -3.964067 61.468410 213 214 219
10.725324 -3.823646 61.341408 218 218 224
10.725324 -3.691414 61.341408 217 216 223
10.681187 -3.544536 61.088974 217 216 223
10.703210 -3.419886 61.214931 235 234 239
10.703210 -3.287927 61.214931 252 251 253
10.725324 -3.162489 61.341408 254 254 254
10.681187 -3.017787 61.088974 253 253 254
10.659254 -2.880174 60.963535 247 246 248
10.637411 -2.743124 60.838612 243 241 243
10.615658 -2.606635 60.714195 242 238 242
10.659254 -2.485923 60.963535 227 224 226
10.659254 -2.354506 60.963535 215 212 213
10.637411 -2.218534 60.838612 216 213 212
10.681187 -2.095976 61.088974 188 186 179
10.659254 -1.960256 60.963535 150 149 137
10.681187 -1.832602 61.088974 170 170 159
10.659254 -1.697422 60.963535 225 226 219
10.681187 -1.569227 61.088974 251 252 248
10.681187 -1.437540 61.088974 249 250 246
10.681187 -1.305853 61.088974 236 237 235
10.703210 -1.176587 61.214931 229 230 228
10.681187 -1.042478 61.088974 242 243 241
10.681187 -0.910791 61.088974 248 249 247
10.703210 -0.780710 61.214931 245 246 243
10.659254 -0.646087 60.963535 250 251 250
10.703210 -0.516793 61.214931 254 254 253
10.659254 -0.383254 60.963535 254 254 253
10.792217 1.474751 61.723995 253 252 252
10.725324 1.597842 61.341408 245 242 242
10.681187 1.722954 61.088974 222 217 215
10.637411 1.847040 60.838612 203 196 193
10.637411 1.978187 60.838612 217 211 208
10.615658 2.105021 60.714195 244 241 238
10.615658 2.235901 60.714195 254 250 247
10.615658 2.366780 60.714195 251 248 247
10.615658 2.497659 60.714195 248 245 246
10.681187 2.644764 61.088974 248 245 247
10.681187 2.776452 61.088974 252 250 251
10.769827 2.932273 61.595940 254 252 253
10.747529 3.058707 61.468410 250 247 250
10.837279 3.217861 61.981716 241 237 242
10.814701 3.344491 61.852589 242 238 242
10.837279 3.485085 61.981716 243 238 243
10.837279 3.618696 61.981716 228 220 227
10.837279 3.752308 61.981716 211 201 209
10.859951 3.894049 62.111385 216 206 212
10.859951 4.027940 62.111385 234 225 229
10.859951 4.161831 62.111385 241 229 233
10.859951 4.295723 62.111385 232 217 220
10.859951 4.429614 62.111385 230 212 214
10.951596 4.602016 62.635532 226 207 206
10.928540 4.727064 62.503666 211 191 189
10.974750 4.882358 62.767956 197 177 173
10.974750 5.017665 62.767956 188 168 163
10.998001 5.163889 62.900936 187 167 164
10.974750 5.288278 62.767956 195 174 174
10.928540 5.400748 62.503666 197 174 177
10.928540 5.535485 62.503666 188 165 172
10.928540 5.670222 62.503666 178 154 165
10.882718 5.780620 62.241596 165 143 156
10.905581 5.927217 62.372356 151 131 145
10.859951 6.036308 62.111385 138 121 135
10.837279 6.157318 61.981716 129 114 127
10.814701 6.277824 61.852589 124 110 121
10.792217 6.397829 61.723995 122 107 114
10.769827 6.517335 61.595940 121 103 105
10.725324 6.622635 61.341408 120 99 93
10.792217 6.796997 61.723995 126 101 88
10.769827 6.915675 61.595940 145 117 96
10.769827 7.048455 61.595940 160 129 103
10.769827 7.181235 61.595940 157 126 97
10.792217 7.329221 61.723995 162 132 102
10.769827 7.446795 61.595940 183 155 126
10.792217 7.595334 61.723995 182 159 132
10.814701 7.744491 61.852589 152 131 107
10.882718 8.061542 62.241596 144 125 111
10.882718 8.195714 62.241596 157 136 128
10.859951 8.312459 62.111385 140 115 110
10.882718 8.464058 62.241596 111 81 77
10.859951 8.580241 62.111385 99 66 57
10.882718 8.732402 62.241596 117 83 67
10.837279 8.829552 61.981716 166 136 110
10.837279 8.963163 61.981716 195 166 133
10.837279 9.096775 61.981716 158 127 92
10.837279 9.230387 61.981716 113 81 49
10.792217 9.325064 61.723995 120 88 59
10.769827 9.438497 61.595940 148 117 95
10.769827 9.571277 61.595940 177 147 132
10.725324 9.663958 61.341408 194 167 157
10.747529 9.816471 61.468410 174 149 142
10.725324 9.928420 61.341408 137 114 107
10.747529 10.081481 61.468410 119 99 94
10.769827 10.235177 61.595940 129 111 107
10.792217 10.389512 61.723995 152 137 133
10.792217 10.522569 61.723995 156 142 141
10.837279 10.700116 61.981716 134 120 122
10.905581 10.902007 62.372356 141 126 133
10.905581 11.036461 62.372356 176 160 170
10.928540 11.194432 62.503666 175 156 169
10.974750 11.377073 62.767956 145 124 138
10.951596 11.488091 62.635532 147 126 138
10.998001 11.672363 62.900936 191 173 183
10.998001 11.807957 62.900936 233 221 226
11.044802 11.994373 63.168602 237 227 227
11.068351 12.156408 63.303288 211 194 192
11.044802 12.266714 63.168602 186 165 161
11.021352 12.376551 63.034485 167 147 141
11.021352 12.512432 63.034485 138 121 114
10.974750 12.594831 62.767956 110 96 87
10.951596 12.703281 62.635532 102 89 81
10.974750 12.865445 62.767956 102 90 83
10.951596 12.973324 62.635532 106 93 89
10.951596 13.108345 62.635532 138 126 125
10.974750 13.271364 62.767956 194 185 186
10.928540 13.350222 62.503666 211 202 207
10.928540 13.484959 62.503666 176 163 172
10.951596 13.648429 62.635532 152 135 149
10.928540 13.754433 62.503666 154 135 151
10.951596 13.918471 62.635532 155 136 151
10.951596 14.053493 62.635532 158 138 152
10.974750 14.218511 62.767956 146 126 138
10.928540 14.293380 62.503666 122 102 112
10.928540 14.428117 62.503666 109 91 99
10.928540 14.562854 62.503666 119 102 107
10.882718 14.635965 62.241596 142 125 127
10.905581 14.801167 62.372356 164 147 147
10.905581 14.935620 62.372356 178 161 159
10.882718 15.038481 62.241596 178 160 156
10.882718 15.172653 62.241596 156 137 132
10.814701 15.211157 61.852589 124 105 99
10.814701 15.344491 61.852589 108 90 85
10.769827 15.413601 61.595940 118 99 95
10.792217 15.578702 61.723995 134 113 111
10.792217 15.711758 61.723995 157 135 135
10.769827 15.811941 61.595940 179 154 156
10.814701 16.011158 61.852589 176 149 151
10.769827 16.077501 61.595940 154 127 129
10.659254 16.043852 60.963535 147 121 123
10.659254 16.175268 60.963535 159 135 136
10.659254 16.306684 60.963535 159 136 138
10.681187 16.735300 61.088974 88 70 83
10.659254 16.832352 60.963535 94 79 95
10.659254 16.963768 60.963535 104 90 109
10.659254 17.095186 60.963535 102 91 109
10.637411 17.191301 60.838612 110 98 117
10.615658 17.287025 60.714195 138 125 144
10.681187 17.657110 61.088974 174 156 174
10.659254 17.752270 60.963535 150 129 146
10.681187 17.920485 61.088974 120 96 110
10.659254 18.146521 60.963535 126 100 108
10.703210 18.353310 61.214931 118 94 98
10.703210 18.485270 61.214931 104 83 82
10.681187 18.578920 61.088974 106 88 85
10.703210 18.749187 61.214931 119 105 99
10.681187 18.842295 61.088974 122 110 104
10.681187 18.973982 61.088974 119 109 104
10.615658 18.988457 60.714195 135 125 121
10.615658 19.119337 60.714195 150 139 137
10.593993 19.210930 60.590290 156 143 143
10.835168 -4.871432 61.214931 220 226 225
10.857555 -4.749266 61.341408 235 239 240
10.857555 -4.617034 61.341408 234 239 240
10.880034 -4.494088 61.468410 222 228 230
10.925274 -4.379718 61.723995 231 234 236
10.902607 -4.237852 61.595940 244 245 247
10.880034 -4.096572 61.468410 234 236 237
10.880034 -3.964067 61.468410 212 214 217
10.880034 -3.831562 61.468410 208 210 216
10.880034 -3.699057 61.468410 213 215 221
10.835168 -3.551844 61.214931 218 218 224
10.835168 -3.419886 61.214931 236 235 240
10.835168 -3.287927 61.214931 252 252 253
10.857555 -3.162489 61.341408 253 253 254
10.812874 -3.017787 61.088974 250 250 253
10.724606 -2.601315 60.590290 244 242 243
10.790670 -2.485923 60.963535 212 209 212
10.768559 -2.349681 60.838612 186 182 184
10.768559 -2.218534 60.838612 186 183 181
10.790670 -2.091673 60.963535 179 176 168
10.768559 -1.956239 60.838612 181 179 170
10.768559 -1.825091 60.838612 215 214 208
10.768559 -1.693944 60.838612 245 244 242
10.768559 -1.562796 60.838612 250 250 247
10.768559 -1.431649 60.838612 246 247 242
10.790670 -1.303172 60.963535 240 241 238
10.812874 -1.174166 61.088974 237 238 236
10.790670 -1.040338 60.963535 245 246 244
10.812874 -0.910791 61.088974 247 248 246
10.812874 -0.779104 61.088974 244 246 243
10.790670 -0.646087 60.963535 250 251 250
10.857555 -0.517861 61.341408 254 254 254
10.790670 -0.383254 60.963535 254 255 254
10.925274 1.208639 61.723995 253 252 251
10.970891 1.347297 61.981716 253 253 252
10.925274 1.474751 61.723995 254 254 253
10.857555 1.597842 61.341408 242 240 239
10.835168 1.726506 61.214931 201 195 193
10.790670 1.850833 60.963535 169 161 157
10.790670 1.982249 60.963535 195 188 184
10.746537 2.497659 60.714195 251 248 249
10.812874 2.644764 61.088974 251 250 251
10.812874 2.776452 61.088974 250 248 250
10.925274 2.938369 61.723995 250 248 250
10.880034 3.058707 61.468410 251 249 251
10.970891 3.217861 61.981716 250 247 251
10.925274 3.337537 61.723995 250 247 250
10.970891 3.485085 61.981716 246 242 246
10.970891 3.618696 61.981716 233 227 233
10.970891 3.752308 61.981716 222 214 220
10.993842 3.894049 62.111385 226 218 223
10.993842 4.027940 62.111385 238 231 234
10.970891 4.153143 61.981716 237 228 230
10.993842 4.295723 62.111385 223 210 212
10.993842 4.429614 62.111385 222 205 207
11.086617 4.602016 62.635532 228 211 211
11.063277 4.727064 62.503666 222 204 204
11.110056 4.882358 62.767956 204 187 186
11.110056 5.017665 62.767956 178 161 161
11.133595 5.163889 62.900936 161 142 145
11.110056 5.288278 62.767956 167 147 153
11.086617 5.412142 62.635532 180 159 168
11.063277 5.535485 62.503666 187 165 177
11.086617 5.682185 62.635532 188 165 180
11.016891 5.780620 62.241596 173 152 167
11.040035 5.927217 62.372356 150 130 145
11.016891 6.048963 62.241596 137 118 132
10.970891 6.157318 61.981716 129 112 125
10.948034 6.277824 61.852589 122 105 116
10.925274 6.397829 61.723995 122 104 111
10.902607 6.517335 61.595940 133 112 111
10.880034 6.636347 61.468410 145 121 111
