ply
format ascii 1.0
element vertex 1199
property float x
property float y
property float z
property uchar red
property uchar green
property uchar blue
end_header
12.384573 -2.140009 62.372356 51 24 26
12.384573 -1.871102 62.372356 49 24 25
12.205086 -1.711479 61.468410 48 24 25
12.154756 0.274960 61.214931 47 24 25
12.080034 0.535564 60.838612 47 23 24
12.154756 0.670836 61.214931 48 22 25
12.281368 0.811157 61.852589 49 21 25
12.332754 0.948442 62.111385 51 21 24
12.332754 1.082334 62.111385 55 20 24
12.179869 1.201148 61.341408 58 18 23
12.205086 1.336140 61.468410 63 18 24
12.179869 1.465611 61.341408 70 19 26
12.179869 1.597842 61.341408 77 19 27
12.230408 1.737252 61.595940 84 21 30
12.230408 1.870032 61.595940 92 23 33
12.154756 1.990424 61.214931 99 24 35
12.179869 2.126767 61.341408 103 24 36
12.154756 2.254341 61.214931 107 25 36
12.030727 2.361950 60.590290 111 26 36
12.080034 2.502778 60.838612 114 27 34
12.080034 2.633925 60.838612 115 28 31
12.006226 2.748178 60.466888 117 30 30
12.055330 2.890297 60.714195 118 31 29
12.080034 3.027368 60.838612 118 32 29
12.055330 3.152056 60.714195 117 32 30
12.055330 3.282936 60.714195 117 31 31
12.080034 3.420810 60.838612 117 29 32
12.080034 3.551958 60.838612 118 27 34
12.055330 3.675574 60.714195 120 26 36
12.230408 3.861733 61.595940 124 25 37
12.129746 3.961637 61.088974 129 24 39
12.104839 4.084919 60.963535 137 24 41
12.129746 4.225011 61.088974 144 24 43
12.104839 4.347753 60.963535 154 27 47
12.129746 4.488386 61.088974 165 32 52
12.129746 4.620073 61.088974 173 38 57
12.104839 4.742003 60.963535 178 42 60
12.129746 4.883448 61.088974 181 46 62
12.129746 5.015135 61.088974 181 48 63
12.154756 5.157434 61.214931 179 51 62
12.129746 5.278509 61.088974 180 54 62
12.154756 5.421351 61.214931 187 65 68
12.129746 5.541883 61.088974 199 82 80
12.129746 5.673571 61.088974 212 101 93
12.129746 5.805258 61.088974 223 116 104
12.080034 5.912614 60.838612 215 112 97
12.104839 6.056171 60.963535 189 91 74
12.129746 6.200320 61.088974 170 79 63
12.129746 6.332007 61.088974 168 85 73
12.104839 6.450422 60.963535 183 107 102
12.080034 6.568351 60.838612 202 135 137
12.080034 6.699499 60.838612 199 138 146
12.055330 6.816678 60.714195 179 117 128
12.080034 6.961794 60.838612 164 104 114
12.104839 7.107506 60.963535 161 104 111
12.080034 7.224089 60.838612 162 107 109
12.154756 7.400733 61.214931 164 110 107
12.129746 7.517192 61.088974 171 120 112
12.104839 7.633173 60.963535 191 144 136
12.129746 7.780567 61.088974 216 177 172
12.154756 7.928568 61.214931 223 191 190
12.129746 8.043941 61.088974 213 185 188
12.104839 8.158841 60.963535 199 172 180
12.055330 8.256351 60.714195 170 139 155
12.055330 8.387230 60.714195 142 107 128
12.006226 8.483413 60.466888 155 121 143
12.006226 8.613759 60.466888 198 168 188
11.981822 8.726333 60.343987 234 215 229
11.909205 8.802738 59.978268 248 236 243
11.909205 8.932032 59.978268 230 209 216
11.861281 9.024860 59.736904 188 151 163
11.813741 9.116945 59.497478 173 127 140
11.813741 9.245201 59.497478 202 155 167
11.790113 9.354711 59.378483 229 181 191
11.766581 9.463783 59.259964 230 180 192
11.719794 9.553391 59.024338 225 172 185
11.696541 9.661420 58.907227 219 163 179
11.673380 9.769021 58.790577 213 156 175
11.650310 9.876197 58.674393 207 148 169
11.650310 10.002679 58.674393 198 138 160
11.604443 10.089282 58.443390 195 133 155
11.536314 10.155294 58.100277 195 132 153
11.558934 10.300697 58.214199 197 133 152
11.581644 10.446671 58.328571 200 134 151
11.581644 10.572408 58.328571 199 132 148
11.581644 10.698144 58.328571 196 129 145
11.604443 10.845188 58.443390 197 128 145
11.558934 10.928148 58.214199 198 129 146
11.536314 11.032007 58.100277 196 127 145
12.519027 -8.862699 62.372356 214 98 108
12.651925 -8.820901 63.034485 204 84 89
12.598429 -8.648297 62.767956 197 76 78
12.598429 -8.512991 62.767956 194 75 76
12.571850 -8.360009 62.635532 188 75 76
12.414701 -8.122176 61.852589 176 68 73
12.388891 -7.972234 61.723995 164 61 73
12.337591 -7.806717 61.468410 158 59 80
12.337591 -7.674212 61.468410 160 62 92
12.337591 -7.541707 61.468410 181 87 124
12.337591 -7.409202 61.468410 210 129 163
12.312100 -7.261662 61.341408 205 130 160
12.337591 -7.144192 61.468410 160 75 105
12.337591 -7.011686 61.468410 124 35 60
12.261434 -6.836717 61.088974 119 35 53
12.211182 -6.677550 60.838612 117 41 52
12.760293 -6.703736 63.574394 99 38 41
12.705877 -6.402227 63.303288 85 33 36
12.598429 -6.212779 62.767956 79 31 34
12.651925 -6.103279 63.034485 74 30 34
12.625120 -5.954755 62.900936 70 29 33
12.598429 -5.806859 62.767956 67 28 31
12.545382 -5.647673 62.503666 64 27 30
12.519027 -5.501354 62.372356 60 27 29
12.440619 -5.333287 61.981716 58 26 28
12.363188 -5.167312 61.595940 57 26 26
12.388891 -5.044999 61.723995 54 25 24
12.466645 -4.942771 62.111385 53 24 23
12.492782 -4.818961 62.241596 51 23 22
12.545382 -4.704515 62.503666 50 22 21
13.011041 -2.503591 64.823669 53 26 28
12.787675 -2.323272 63.710819 51 25 27
12.598429 -2.153583 62.767956 50 25 27
12.571850 -1.878997 62.635532 47 24 25
12.363188 -1.715030 61.595940 46 24 25
12.286715 0.274960 61.214931 47 23 26
12.211182 0.535564 60.838612 47 23 25
12.337591 0.673614 61.468410 47 22 25
12.466645 0.814551 62.111385 48 22 24
12.519027 0.952427 62.372356 49 21 23
12.545382 1.089169 62.503666 51 20 23
12.337591 1.203635 61.468410 53 19 23
12.388891 1.341695 61.723995 57 19 24
12.337591 1.468645 61.468410 62 19 25
12.337591 1.601150 61.468410 68 20 27
12.363188 1.737252 61.595940 75 21 28
12.363188 1.870032 61.595940 81 22 30
12.286715 1.990424 61.214931 87 22 32
12.312100 2.126767 61.341408 92 23 34
12.286715 2.254341 61.214931 97 24 35
12.161340 2.361950 60.590290 101 24 35
12.211182 2.502778 60.838612 104 25 35
12.211182 2.633925 60.838612 106 26 33
12.136572 2.748178 60.466888 108 27 32
12.186210 2.890297 60.714195 109 28 32
12.211182 3.027368 60.838612 110 29 32
12.211182 3.158515 60.838612 110 28 32
12.186210 3.282936 60.714195 110 27 32
12.211182 3.420810 60.838612 111 26 33
12.211182 3.551958 60.838612 112 25 34
12.186210 3.675574 60.714195 115 24 34
12.388891 3.869762 61.723995 120 23 35
12.261434 3.961637 61.088974 126 22 37
12.236256 4.084919 60.963535 134 22 39
12.236256 4.216336 60.963535 142 23 41
12.236256 4.347753 60.963535 152 26 45
12.236256 4.479169 60.963535 162 30 50
12.236256 4.610586 60.963535 170 35 53
12.211182 4.732286 60.838612 176 39 56
12.236256 4.873420 60.963535 179 43 57
12.261434 5.015135 61.088974 179 45 56
12.286715 5.157434 61.214931 181 49 57
12.286715 5.289393 61.214931 186 57 61
12.312100 5.432553 61.341408 192 65 66
12.286715 5.553310 61.214931 193 69 65
12.286715 5.685269 61.214931 192 73 66
12.286715 5.817228 61.214931 201 89 79
12.261434 5.936945 61.088974 210 106 94
12.286715 6.081145 61.214931 202 105 92
12.337591 6.238831 61.468410 185 96 84
12.286715 6.345063 61.214931 177 95 87
12.261434 6.463695 61.088974 189 116 112
12.211182 6.568351 60.838612 217 156 159
12.186210 6.685799 60.714195 226 173 180
12.186210 6.816678 60.714195 202 146 156
12.211182 6.961794 60.838612 172 114 125
12.211182 7.092942 60.838612 161 105 114
12.186210 7.209316 60.714195 162 107 113
12.236256 7.370340 60.963535 161 110 112
12.211182 7.486384 60.838612 162 114 112
12.186210 7.601954 60.714195 172 127 125
12.211182 7.748679 60.838612 190 150 150
12.261434 7.912254 61.088974 206 172 176
12.261434 8.043941 61.088974 223 196 204
12.236256 8.158841 60.963535 231 208 220
12.186210 8.256351 60.714195 206 177 196
12.186210 8.387230 60.714195 168 131 156
12.136572 8.483413 60.466888 159 120 148
12.136572 8.613759 60.466888 177 140 167
12.111904 8.726333 60.343987 208 179 201
12.038498 8.802738 59.978268 236 218 232
12.038498 8.932032 59.978268 233 211 222
11.990053 9.024860 59.736904 194 157 171
11.941998 9.116945 59.497478 173 125 140
11.918114 9.226711 59.378483 202 153 167
11.918114 9.354711 59.378483 236 188 200
11.894324 9.463783 59.259964 241 192 204
11.847031 9.553391 59.024338 232 178 192
11.847031 9.680627 59.024338 220 162 178
11.800112 9.769021 58.790577 209 150 169
11.800112 9.895754 58.790577 200 140 160
11.776792 10.002679 58.674393 192 131 152
11.730427 10.089282 58.443390 190 127 148
11.684424 10.175207 58.214199 190 126 146
11.684424 10.300697 58.214199 191 126 144
11.730427 10.467236 58.443390 192 126 143
11.707380 10.572408 58.328571 192 125 140
11.707380 10.698144 58.328571 191 123 138
11.730427 10.845188 58.443390 191 123 138
11.684424 10.928148 58.214199 192 124 139
12.653481 -8.862699 62.372356 233 127 133
12.760714 -8.802213 62.900936 220 106 108
12.733735 -8.648297 62.767956 211 92 92
12.706870 -8.495030 62.635532 211 92 90
12.706870 -8.360009 62.635532 205 90 90
12.574231 -8.139132 61.981716 188 77 81
12.574231 -8.005521 61.981716 172 65 76
12.495968 -7.822914 61.595940 167 63 84
12.470097 -7.674212 61.468410 169 66 94
12.470097 -7.541707 61.468410 179 76 111
12.470097 -7.409202 61.468410 195 95 131
12.470097 -7.276697 61.468410 194 96 130
12.470097 -7.144192 61.468410 166 68 98
12.470097 -7.011686 61.468410 139 43 67
12.393121 -6.836717 61.088974 131 40 58
12.342329 -6.677550 60.838612 127 43 54
12.980725 -6.747079 63.985435 110 40 45
12.925014 -6.443443 63.710819 92 34 38
12.733735 -6.212779 62.767956 85 32 36
12.842339 -6.129306 63.303288 81 32 35
12.842339 -5.992846 63.303288 76 31 34
12.815014 -5.843925 63.168602 72 30 33
12.787806 -5.695636 63.034485 68 29 32
12.626953 -5.355649 62.241596 61 28 29
12.367673 -5.114260 60.963535 58 27 28
12.367673 -4.982843 60.963535 55 26 26
13.179555 -2.509069 64.965523 52 26 28
12.980725 -2.333286 63.985435 50 25 28
12.680120 -1.875041 62.503666 46 24 26
12.521947 -1.718596 61.723995 45 24 25
12.291952 -0.772744 60.590290 43 25 24
12.046113 -0.629289 59.378483 43 25 24
12.022069 -0.500288 59.259964 43 25 24
12.070253 0.010732 59.497478 46 23 24
12.548035 0.677824 61.852589 49 23 26
12.653481 0.817974 62.372356 49 23 25
12.680120 0.954433 62.503666 49 22 24
12.706870 1.091467 62.635532 49 21 23
12.521947 1.208639 61.723995 51 20 23
12.574231 1.347297 61.981716 54 20 24
12.521947 1.474751 61.723995 57 21 25
12.495968 1.604472 61.595940 62 21 26
12.495968 1.737252 61.595940 67 21 28
12.495968 1.870032 61.595940 73 22 29
12.444332 1.994536 61.341408 78 22 31
12.444332 2.126767 61.341408 83 22 33
12.418674 2.254341 61.214931 88 23 34
12.291952 2.361950 60.590290 92 23 34
12.342329 2.502778 60.838612 96 24 35
12.342329 2.633925 60.838612 98 25 35
12.266918 2.748178 60.466888 100 26 35
12.291952 2.884399 60.590290 102 27 35
12.342329 3.027368 60.838612 103 28 35
12.317089 3.152056 60.714195 103 27 35
12.317089 3.282936 60.714195 104 26 35
12.342329 3.420810 60.838612 106 25 34
12.317089 3.544694 60.714195 108 24 34
12.317089 3.675574 60.714195 111 22 34
12.470097 3.853738 61.468410 116 21 35
12.367673 3.953502 60.963535 123 21 36
12.342329 4.076548 60.838612 132 22 38
12.317089 4.199091 60.714195 141 24 41
12.342329 4.338843 60.838612 152 27 46
12.342329 4.469991 60.838612 162 31 50
12.317089 4.591729 60.714195 170 35 52
12.317089 4.722608 60.714195 175 39 54
12.342329 4.863433 60.838612 178 42 54
12.367673 5.004837 60.963535 177 43 51
12.393121 5.146822 61.088974 179 48 53
12.393121 5.278509 61.088974 189 60 62
12.418674 5.421351 61.214931 198 72 71
12.393121 5.541883 61.088974 193 73 68
12.418674 5.685269 61.214931 181 66 59
12.418674 5.817228 61.214931 180 71 63
12.393121 5.936945 61.088974 194 92 83
12.418674 6.081145 61.214931 204 111 101
12.495968 6.251775 61.595940 204 119 109
12.444332 6.358172 61.341408 198 119 112
12.418674 6.477022 61.214931 195 123 120
12.342329 6.568351 60.838612 210 149 149
12.342329 6.699499 60.838612 226 174 178
12.342329 6.830647 60.838612 214 162 168
12.367673 6.976089 60.963535 185 128 135
12.342329 7.092942 60.838612 168 111 117
12.317089 7.209316 60.714195 166 111 115
12.367673 7.370340 60.963535 163 111 113
12.342329 7.486384 60.838612 159 110 112
12.317089 7.601954 60.714195 158 113 115
12.367673 7.764590 60.963535 161 119 124
12.393121 7.912254 61.088974 171 133 143
12.393121 8.043941 61.088974 201 168 183
12.367673 8.158841 60.963535 230 202 220
12.317089 8.256351 60.714195 228 196 218
12.317089 8.387230 60.714195 207 168 197
12.266918 8.483413 60.466888 187 146 178
12.266918 8.613759 60.466888 165 122 156
12.241985 8.726333 60.343987 171 129 161
12.118826 8.767315 59.736904 207 171 197
12.143259 8.914023 59.857342 218 183 204
12.094491 9.006738 59.616951 193 150 170
12.046113 9.098711 59.378483 182 132 150
12.046113 9.226711 59.378483 210 158 175
12.046113 9.354711 59.378483 241 191 205
12.022069 9.463783 59.259964 248 197 210
11.950509 9.534435 58.907227 236 180 195
11.974268 9.680627 59.024338 220 161 177
11.950509 9.788404 58.907227 205 146 164
11.926845 9.895754 58.790577 194 133 152
11.926845 10.022486 58.790577 185 123 143
11.879796 10.109182 58.558662 183 120 140
11.833117 10.195197 58.328571 185 120 140
11.809915 10.300697 58.214199 185 120 139
11.856411 10.467236 58.443390 185 119 137
11.833117 10.572408 58.328571 185 118 134
11.833117 10.698144 58.328571 185 117 133
11.856411 10.845188 58.443390 185 117 132
11.786803 10.906762 58.100277 185 118 133
12.761125 -8.844118 62.241596 249 159 163
12.841891 -8.765073 62.635532 240 143 145
12.814857 -8.611883 62.503666 230 122 122
12.814857 -8.477146 62.503666 222 107 107
12.841891 -8.360009 62.635532 211 94 95
12.734428 -8.156160 62.111385 192 77 83
12.734428 -8.022269 62.111385 178 67 79
12.681368 -7.855509 61.852589 175 65 85
12.628748 -7.690134 61.595940 172 64 90
12.628748 -7.557354 61.595940 172 62 93
12.628748 -7.424574 61.595940 183 73 107
12.628748 -7.291794 61.595940 195 89 121
12.602602 -7.144192 61.468410 183 81 110
12.602602 -7.011686 61.468410 154 55 77
12.550632 -6.850813 61.214931 137 41 58
12.473476 -6.677550 60.838612 131 43 54
13.090445 -6.732569 63.847832 117 43 49
13.146991 -6.485193 64.123634 98 36 41
12.896306 -6.225942 62.900936 91 33 39
13.062353 -6.168765 63.710819 86 33 38
13.090445 -6.044397 63.847832 81 32 37
13.062353 -5.894087 63.710819 76 32 35
13.006532 -5.732146 63.438553 72 31 33
13.062353 -5.619409 63.710819 68 31 33
13.617577 -4.999205 66.418884 49 24 22
13.319599 -2.509069 64.965523 51 25 28
13.090445 -2.328268 63.847832 49 25 28
12.841891 -2.149039 62.635532 47 25 27
12.734428 -1.863273 62.111385 44 24 26
12.628748 -1.715030 61.595940 43 24 25
12.602602 -0.916448 61.468410 42 25 24
12.447968 -0.774324 60.714195 41 25 23
12.125611 -0.626782 59.141918 41 24 23
12.029757 -0.242380 58.674393 42 24 22
12.149814 0.010690 59.259964 45 22 24
12.787934 0.683520 62.372356 51 24 27
12.814857 0.819696 62.503666 50 23 26
12.869041 0.958468 62.767956 49 22 25
12.869041 1.093775 62.767956 49 21 24
12.707843 1.213686 61.981716 49 20 24
12.734428 1.350116 62.111385 51 20 24
12.681368 1.477824 61.852589 54 21 25
12.628748 1.604472 61.595940 57 21 26
12.628748 1.737252 61.595940 62 22 28
12.602602 1.866160 61.468410 67 22 29
12.550632 1.990424 61.214931 72 22 30
12.550632 2.122382 61.214931 77 22 31
12.550632 2.254341 61.214931 81 22 32
12.397264 2.357139 60.466888 85 23 33
12.422565 2.492562 60.590290 88 23 34
12.447968 2.628539 60.714195 92 25 35
12.397264 2.748178 60.466888 94 26 35
12.422565 2.884399 60.590290 97 27 36
12.447968 3.282936 60.714195 101 26 36
12.447968 3.413815 60.714195 102 25 35
12.447968 3.544694 60.714195 105 24 34
12.422565 3.668072 60.590290 108 22 33
12.550632 3.837846 61.214931 114 20 34
12.499089 3.953502 60.963535 122 20 35
12.447968 4.068212 60.714195 131 21 37
12.447968 4.199091 60.714195 141 24 41
12.447968 4.329970 60.714195 152 28 46
12.473476 4.469991 60.838612 162 33 50
12.422565 4.582358 60.590290 169 37 52
12.397264 4.703372 60.466888 174 40 53
12.447968 4.853487 60.714195 175 43 51
12.499089 5.004837 60.963535 175 45 48
12.524808 5.146822 61.088974 176 49 50
12.524808 5.278509 61.088974 185 61 58
12.524808 5.410196 61.088974 194 75 70
12.524808 5.541883 61.088974 194 80 74
12.550632 5.685269 61.214931 180 72 66
12.550632 5.817228 61.214931 167 66 59
12.524808 5.936945 61.088974 172 77 70
12.576563 6.093709 61.341408 192 105 97
12.602602 6.238831 61.468410 215 135 128
12.602602 6.371336 61.468410 225 151 146
12.576563 6.490404 61.341408 217 147 144
12.499089 6.581839 60.963535 209 144 144
12.524808 6.727069 61.088974 213 153 155
12.499089 6.844672 60.963535 211 154 157
12.524808 6.990443 61.088974 196 137 139
12.499089 7.107506 60.963535 180 122 123
12.473476 7.224089 60.838612 175 119 119
12.524808 7.385505 61.088974 171 117 117
12.524808 7.517192 61.088974 160 110 112
12.499089 7.633173 60.963535 151 106 109
12.524808 7.780567 61.088974 147 103 112
12.524808 7.912254 61.088974 149 108 121
12.550632 8.060527 61.214931 173 135 153
12.499089 8.158841 60.963535 210 175 195
12.473476 8.273270 60.838612 228 191 216
12.447968 8.387230 60.714195 229 189 219
12.397264 8.483413 60.466888 212 170 203
12.397264 8.613759 60.466888 173 126 161
12.346971 8.708632 60.221588 160 110 147
12.223005 8.749710 59.616951 189 140 174
12.247599 8.896088 59.736904 199 151 181
12.198510 8.988688 59.497478 187 137 164
12.174113 9.098711 59.378483 192 139 161
12.149814 9.208294 59.259964 217 163 182
12.149814 9.336039 59.259964 242 190 205
12.125611 9.444931 59.141918 248 196 209
12.077494 9.534435 58.907227 235 177 190
12.101504 9.680627 59.024338 219 162 176
12.077494 9.788404 58.907227 211 159 173
12.053577 9.895754 58.790577 198 142 158
12.053577 10.022486 58.790577 180 119 138
12.006029 10.109182 58.558662 176 113 133
11.958854 10.195197 58.328571 182 117 138
11.935405 10.300697 58.214199 184 119 140
11.958854 10.446671 58.328571 184 117 137
11.958854 10.572408 58.328571 183 115 134
11.958854 10.698144 58.328571 181 112 130
11.982395 10.845188 58.443390 180 111 127
11.912048 10.906762 58.100277 179 113 127
12.949593 -8.746620 62.503666 248 161 164
12.922388 -8.593791 62.372356 239 142 144
12.949593 -8.477146 62.503666 217 108 109
12.976912 -8.360009 62.635532 196 81 85
12.868320 -8.156160 62.111385 183 69 77
12.895297 -8.039087 62.241596 177 64 77
12.868320 -7.888378 62.111385 173 61 79
12.814701 -7.722176 61.852589 167 56 79
12.814701 -7.588843 61.852589 162 51 77
12.814701 -7.455510 61.852589 176 66 93
12.788059 -7.306953 61.723995 199 95 120
12.788059 -7.173897 61.723995 196 95 118
12.761528 -7.026234 61.595940 163 64 82
12.708795 -6.864968 61.341408 139 43 57
12.656495 -6.705030 61.088974 132 43 54
13.285219 -6.899880 64.123634 128 44 53
13.171428 -6.703736 63.574394 120 43 50
13.031899 -6.497128 62.900936 111 41 48
13.256588 -6.471217 63.985435 103 38 45
13.059568 -6.239161 63.034485 95 36 43
13.256588 -6.195354 63.985435 88 35 41
13.313975 -6.083646 64.262428 83 34 38
13.285219 -5.932278 64.123634 78 33 36
13.228079 -5.769128 63.847832 74 32 35
14.043509 -5.394166 67.783661 57 29 28
13.979674 -5.224192 67.475548 54 27 26
13.885004 -5.044344 67.018608 51 26 25
13.822599 -4.877853 66.717400 48 24 23
13.699458 -4.691859 66.123032 46 23 22
13.199693 -2.323272 63.710819 48 25 27
12.976912 -2.149039 62.635532 46 25 27
12.895297 -2.001351 62.241596 45 25 26
12.814701 -1.855509 61.852589 43 25 25
12.761528 -0.918350 61.595940 41 24 23
12.253101 -0.626782 59.141918 40 23 22
12.253101 -0.116822 59.141918 44 22 22
12.277558 0.010690 59.259964 45 22 23
12.976912 0.686404 62.635532 51 24 27
12.949593 0.819696 62.503666 50 23 27
13.004348 0.958468 62.767956 49 22 26
13.004348 1.093775 62.767956 48 21 25
12.841455 1.213686 61.981716 48 20 24
12.841455 1.347297 61.981716 49 20 25
12.788059 1.474751 61.723995 51 21 25
12.735106 1.601150 61.468410 55 21 26
12.735106 1.733655 61.468410 58 22 27
12.708795 1.862305 61.341408 62 22 28
12.656495 1.986328 61.088974 67 21 29
12.682591 2.254341 61.214931 75 22 30
12.476789 2.347577 60.221588 79 22 31
12.326767 2.447606 59.497478 82 23 32
12.578848 3.413815 60.714195 100 25 36
12.604624 3.551958 60.838612 102 23 34
12.553177 3.668072 60.590290 107 21 33
12.656495 3.829950 61.088974 114 20 33
12.630507 3.953502 60.963535 122 21 34
12.578848 4.068212 60.714195 132 22 37
12.578848 4.199091 60.714195 143 25 41
12.578848 4.329970 60.714195 153 30 46
12.578848 4.460850 60.714195 162 34 50
12.527610 4.573025 60.466888 168 38 52
12.527610 4.703372 60.466888 171 42 51
12.553177 4.843583 60.590290 172 45 50
12.630507 5.004837 60.963535 171 48 49
12.656495 5.146822 61.088974 171 51 50
12.656495 5.278509 61.088974 173 57 54
12.682591 5.421351 61.214931 182 71 66
12.682591 5.553310 61.214931 195 89 85
12.708795 5.697015 61.341408 192 94 90
12.708795 5.829247 61.341408 169 78 74
12.708795 5.961478 61.341408 154 68 65
12.761528 6.118995 61.595940 166 86 82
12.788059 6.264772 61.723995 197 123 119
12.735106 6.371336 61.468410 226 157 155
12.735106 6.503841 61.468410 234 170 168
12.656495 6.595382 61.088974 227 164 164
12.682591 6.740939 61.214931 220 157 158
12.656495 6.858756 61.088974 213 151 151
12.656495 6.990443 61.088974 201 140 139
12.630507 7.107506 60.963535 190 131 127
12.604624 7.224089 60.838612 190 133 128
12.630507 7.370340 60.963535 189 135 131
12.630507 7.501757 60.963535 170 118 118
12.604624 7.617532 60.838612 150 102 106
12.630507 7.764590 60.963535 147 101 111
12.656495 7.912254 61.088974 148 103 118
12.682591 8.060527 61.214931 159 116 135
12.630507 8.158841 60.963535 191 148 171
12.630507 8.290257 60.963535 222 179 206
12.578848 8.387230 60.714195 232 189 219
12.502148 8.466169 60.343987 217 171 204
12.502148 8.596251 60.343987 188 137 172
12.451531 8.691003 60.099682 183 130 167
12.326767 8.732175 59.497478 201 150 186
12.351520 8.878223 59.616951 195 142 176
12.302114 8.970711 59.378483 181 127 157
12.277558 9.080550 59.259964 191 135 160
12.277558 9.208294 59.259964 214 158 178
12.253101 9.317441 59.141918 238 185 201
12.253101 9.444931 59.141918 246 194 206
12.204477 9.534435 58.907227 229 172 182
12.228741 9.680627 59.024338 216 163 172
12.204477 9.788404 58.907227 223 182 191
12.204477 9.915388 58.907227 215 169 181
12.204477 10.042372 58.907227 183 124 141
12.132261 10.109182 58.558662 170 105 125
12.108379 10.215266 58.443390 178 113 133
12.084591 10.320934 58.328571 183 118 139
12.084591 10.446671 58.328571 182 115 137
12.084591 10.572408 58.328571 180 112 133
12.084591 10.698144 58.328571 178 110 129
12.132261 10.866579 58.558662 176 109 126
12.037292 10.906762 58.100277 175 110 125
13.029469 -8.709947 62.241596 230 133 135
13.029469 -8.575775 62.241596 219 118 120
13.056842 -8.459337 62.372356 194 86 89
13.111934 -8.360009 62.635532 174 63 68
13.002211 -8.156160 62.111385 165 56 64
13.056842 -8.055976 62.372356 162 55 66
13.029469 -7.904915 62.241596 158 52 67
12.975066 -7.738297 61.981716 153 48 66
13.002211 -7.620595 62.111385 151 46 65
12.975066 -7.471074 61.981716 161 57 77
12.948034 -7.322176 61.852589 180 78 97
12.948034 -7.188843 61.852589 178 80 96
12.921116 -7.040841 61.723995 154 59 73
12.867612 -6.879181 61.468410 136 44 56
12.788182 -6.705030 61.088974 130 43 53
13.195449 -6.782685 63.034485 124 43 52
13.251719 -6.675148 63.303288 116 41 49
13.337031 -6.443443 63.710819 101 38 45
13.481685 -6.235672 64.401825 88 35 41
13.540428 -6.123409 64.682442 82 34 39
13.481685 -5.958014 64.401825 78 33 37
13.423449 -5.794049 64.123634 74 32 35
13.750125 -5.793461 65.684166 71 32 34
14.189627 -5.394166 67.783661 59 30 29
14.125129 -5.224192 67.475548 56 29 28
14.029473 -5.044344 67.018608 53 27 27
13.997875 -4.888839 66.867661 50 26 26
13.872894 -4.702332 66.270630 48 24 25
13.841997 -4.549320 66.123032 46 23 25
13.750125 -4.377532 65.684166 46 22 25
13.308473 -2.866477 63.574394 49 24 26
13.139654 -2.694809 62.767956 49 25 26
12.975066 -2.527442 61.981716 48 25 26
13.251719 -2.308410 63.303288 47 25 27
13.111934 -2.149039 62.635532 46 25 27
12.948034 -1.988843 61.852589 44 25 26
12.867612 -1.843984 61.468410 43 25 25
12.894308 -0.918350 61.595940 40 23 22
12.761923 -0.777504 60.963535 39 22 21
12.480034 -0.631816 59.616951 39 22 21
12.430113 -0.373289 59.378483 40 22 20
12.355977 -0.243826 59.024338 42 22 21
12.606606 -0.118954 60.221588 44 21 22
13.084330 0.415485 62.503666 50 24 25
12.975066 0.545627 61.981716 50 24 26
13.111934 0.686404 62.635532 50 24 27
13.056842 0.817974 62.372356 50 23 27
13.167493 0.960499 62.900936 49 22 26
13.111934 1.091467 62.635532 48 21 26
13.002211 1.216225 62.111385 47 21 25
12.975066 1.347297 61.981716 48 21 25
12.894308 1.471692 61.595940 50 21 26
12.841026 1.597842 61.341408 53 21 26
12.841026 1.730073 61.341408 56 22 27
12.814549 1.858465 61.214931 59 22 28
12.761923 1.982249 60.963535 63 21 29
12.761923 3.427835 60.963535 96 24 34
12.761923 3.559252 60.963535 100 22 33
12.709727 3.675574 60.714195 106 20 32
12.841026 3.845776 61.341408 114 20 33
12.788182 3.961637 61.088974 123 21 34
12.735772 4.076548 60.838612 134 24 38
12.735772 4.207695 60.838612 145 28 43
12.735772 4.338843 60.838612 156 32 47
12.735772 4.469991 60.838612 163 36 50
12.657956 4.573025 60.466888 167 40 51
12.632229 4.693812 60.343987 168 43 50
12.709727 4.853487 60.714195 168 47 50
12.761923 5.004837 60.963535 170 54 54
12.788182 5.146822 61.088974 174 63 60
12.788182 5.278509 61.088974 173 68 63
12.814549 5.421351 61.214931 176 76 71
12.814549 5.553310 61.214931 193 101 97
12.841026 5.697015 61.341408 207 127 125
12.867612 5.841316 61.468410 190 118 117
12.867612 5.973821 61.468410 161 87 87
12.894308 6.118995 61.595940 152 79 79
12.948034 6.277824 61.852589 167 98 98
12.894308 6.384555 61.595940 192 127 126
12.894308 6.517335 61.595940 216 155 154
12.814549 6.608980 61.214931 231 171 170
12.841026 6.754867 61.341408 233 173 171
12.788182 6.858756 61.088974 225 165 161
12.788182 6.990443 61.088974 211 151 143
12.761923 7.107506 60.963535 199 139 130
12.735772 7.224089 60.838612 204 147 136
12.761923 7.370340 60.963535 209 155 147
12.735772 7.486384 60.838612 184 131 127
12.709727 7.601954 60.714195 153 102 104
12.709727 7.732833 60.714195 149 100 108
12.735772 7.879827 60.838612 152 105 119
12.761923 8.027424 60.963535 156 110 127
12.735772 8.142122 60.838612 177 130 151
12.735772 8.273270 60.838612 210 162 186
12.683789 8.370113 60.590290 226 177 205
12.606606 8.448997 60.221588 218 166 198
12.632229 8.596251 60.343987 205 150 184
12.555670 8.673446 59.978268 208 154 190
12.430113 8.714711 59.378483 221 170 206
12.455024 8.860432 59.497478 204 150 185
12.430113 8.970711 59.378483 180 124 156
12.405303 9.080550 59.259964 186 130 156
12.380591 9.189951 59.141918 204 147 167
12.380591 9.317441 59.141918 225 170 184
12.355977 9.426154 59.024338 239 186 196
12.331462 9.534435 58.907227 227 171 180
12.355977 9.680627 59.024338 214 161 169
12.355977 9.807864 59.024338 226 187 195
12.355977 9.935101 59.024338 229 190 201
12.380591 10.082381 59.141918 198 144 161
12.282721 10.129161 58.674393 172 109 130
12.258494 10.235415 58.558662 174 108 131
12.258494 10.361648 58.558662 182 114 139
12.258494 10.487881 58.558662 181 113 138
12.234364 10.593220 58.443390 178 110 133
12.258494 10.740346 58.558662 176 108 129
12.282721 10.888054 58.674393 175 108 126
12.186385 10.928148 58.214199 173 108 124
13.108678 -8.673579 61.981716 193 86 93
13.108678 -8.539968 61.981716 184 77 83
13.136102 -8.423943 62.111385 169 61 68
13.246955 -8.360009 62.635532 155 49 58
13.136102 -8.156160 62.111385 148 44 55
13.191296 -8.055976 62.372356 143 42 55
13.163641 -7.904915 62.241596 141 41 56
13.081368 -7.722176 61.852589 139 40 56
13.108678 -7.604686 61.981716 138 39 55
13.081368 -7.455510 61.852589 141 43 59
13.027088 -7.291794 61.595940 147 50 65
13.000117 -7.144192 61.468410 145 51 64
12.973257 -6.997200 61.341408 136 45 57
12.973257 -6.864968 61.341408 128 41 51
12.893340 -6.691262 60.963535 122 40 49
13.054172 -6.641673 61.723995 116 39 47
13.136102 -6.549466 62.111385 110 38 46
13.054172 -6.375560 61.723995 103 37 44
13.163641 -6.294852 62.241596 97 35 42
13.163641 -6.160680 62.241596 90 34 40
13.503347 -6.182031 63.847832 85 34 39
13.561677 -6.070507 64.123634 80 33 37
13.532450 -5.919493 63.985435 77 32 36
13.532450 -5.781561 63.985435 74 32 35
13.922521 -5.806307 65.829803 71 31 34
13.800124 -5.614604 65.251083 68 31 33
14.303090 -5.381878 67.629250 60 30 29
14.238224 -5.212346 67.322548 57 29 29
14.173943 -5.044344 67.018608 55 28 29
14.142019 -4.888839 66.867661 52 27 28
13.984536 -4.691859 66.123032 50 26 27
13.984536 -4.549320 66.123032 48 24 26
13.891718 -4.377532 65.684166 46 23 26
13.445518 -2.866477 63.574394 48 24 25
13.274961 -2.694809 62.767956 47 24 25
13.054172 -2.516932 61.723995 46 25 26
13.359695 -2.303499 63.168602 46 25 26
13.246955 -2.149039 62.635532 45 25 26
13.027088 -1.980590 61.595940 44 25 26
13.054172 -0.920259 61.723995 39 22 21
12.893340 -0.777504 60.963535 39 21 21
12.684963 -0.635646 59.978268 39 21 20
12.840607 -0.119927 60.714195 44 21 22
13.388181 0.147879 63.303288 47 23 24
13.388181 0.284340 63.303288 49 23 24
13.274961 0.417242 62.767956 50 24 25
13.274961 0.552549 62.767956 50 24 26
13.246955 0.686404 62.635532 50 24 27
13.219067 0.819696 62.503666 49 23 27
13.303086 0.960499 62.900936 49 23 27
13.246955 1.091467 62.635532 48 22 26
13.163641 1.218775 62.241596 48 22 26
13.136102 1.350116 62.111385 49 22 26
13.054172 1.474751 61.723995 50 22 26
12.919869 1.591266 61.088974 52 22 26
12.788302 1.966101 60.466888 59 21 28
12.360348 2.026290 58.443390 62 22 29
12.946508 3.441970 61.214931 94 22 33
12.919869 3.566575 61.088974 99 20 32
12.840607 3.675574 60.714195 105 19 31
13.000117 3.853738 61.468410 114 19 31
12.919869 3.961637 61.088974 124 21 34
12.866920 4.076548 60.838612 136 25 38
12.866920 4.207695 60.838612 149 31 45
12.866920 4.338843 60.838612 159 37 51
12.866920 4.469991 60.838612 164 39 52
12.788302 4.573025 60.466888 165 41 51
12.788302 4.703372 60.466888 164 43 50
12.840607 4.853487 60.714195 164 48 50
12.919869 5.015135 61.088974 174 64 64
12.946508 5.157434 61.214931 191 89 86
12.919869 5.278509 61.088974 200 105 101
12.973257 5.432553 61.341408 195 106 103
12.973257 5.564784 61.341408 200 120 119
12.973257 5.697015 61.341408 219 158 159
13.000117 5.841316 61.468410 218 166 169
13.000117 5.973821 61.468410 192 129 135
13.054172 6.131716 61.723995 171 103 110
13.081368 6.277824 61.852589 163 100 106
13.054172 6.397829 61.723995 160 100 105
13.027088 6.517335 61.595940 174 115 120
12.973257 6.622635 61.341408 199 142 145
13.000117 6.768852 61.468410 218 162 162
12.919869 6.858756 61.088974 225 167 164
12.919869 6.990443 61.088974 218 160 153
12.893340 7.107506 60.963535 208 149 139
12.866920 7.224089 60.838612 211 152 141
12.866920 7.355237 60.838612 214 158 148
12.840607 7.471075 60.714195 191 136 130
12.840607 7.601954 60.714195 160 105 105
12.866920 7.748679 60.838612 150 99 104
12.866920 7.879827 60.838612 152 103 113
12.919869 8.043941 61.088974 155 106 120
12.893340 8.158841 60.963535 165 116 133
12.893340 8.290257 60.963535 188 138 157
12.840607 8.387230 60.714195 209 157 180
12.762310 8.466169 60.343987 220 165 193
12.762310 8.596251 60.343987 221 165 196
12.659389 8.655958 59.857342 219 163 196
12.558113 8.714711 59.378483 225 170 204
12.583280 8.860432 59.497478 212 155 188
12.533047 8.952806 59.259964 192 137 167
12.508080 9.062461 59.141918 198 146 170
12.508080 9.189951 59.141918 202 147 165
12.508080 9.317441 59.141918 204 147 160
12.483214 9.426154 59.024338 223 168 177
12.458446 9.534435 58.907227 232 178 185
12.508080 9.699911 59.141918 223 170 177
12.483214 9.807864 59.024338 224 178 187
12.508080 9.954891 59.141918 231 189 201
12.533047 10.102506 59.259964 219 167 185
12.458446 10.169356 58.907227 194 131 153
12.458446 10.296340 58.907227 181 114 139
12.433776 10.402684 58.790577 182 114 140
12.433776 10.529417 58.790577 181 112 138
12.433776 10.656150 58.790577 177 108 133
12.433776 10.782882 58.790577 175 106 128
12.433776 10.909615 58.790577 173 105 125
13.214702 -8.655509 61.852589 178 69 79
13.214702 -8.522176 61.852589 169 63 72
13.242290 -8.406356 61.981716 154 52 60
13.325749 -8.324883 62.372356 142 43 52
13.269993 -8.156160 62.111385 132 36 46
13.325749 -8.055976 62.372356 127 33 45
13.242290 -7.871909 61.981716 125 33 46
13.187228 -7.706122 61.723995 124 33 45
13.214702 -7.588843 61.852589 123 32 44
13.159868 -7.424574 61.595940 123 32 44
13.132623 -7.276697 61.468410 124 33 45
13.105489 -7.129431 61.341408 123 35 46
13.078467 -6.982772 61.214931 120 35 45
13.105489 -6.864968 61.341408 117 35 44
13.051557 -6.705030 61.088974 113 34 44
13.105489 -6.600505 61.341408 108 34 43
13.159868 -6.495113 61.595940 103 34 41
13.159868 -6.362333 61.595940 97 33 39
13.214702 -6.255509 61.852589 91 32 37
13.242290 -6.134957 61.981716 86 32 36
13.524641 -6.129306 63.303288 82 31 35
13.553540 -6.005651 63.438553 78 31 35
13.524641 -5.856385 63.303288 76 31 35
13.553540 -5.732146 63.438553 73 31 34
14.448876 -5.381878 67.629250 61 30 29
14.416038 -5.224192 67.475548 58 29 29
14.318412 -5.044344 67.018608 56 28 29
14.318412 -4.899875 67.018608 54 27 28
14.190284 -4.712852 66.418884 51 26 27
14.254060 -4.590212 66.717400 49 24 27
14.064427 -4.387239 65.829803 46 23 26
13.670381 -3.436734 63.985435 45 23 26
13.353804 -2.683462 62.503666 45 24 25
13.132623 -2.506510 61.468410 44 24 25
12.971486 -0.774324 60.714195 38 21 21
12.686113 -0.629289 59.378483 38 20 20
12.635571 -0.499292 59.141918 38 20 19
12.971486 -0.119927 60.714195 44 21 21
13.495865 0.147565 63.168602 48 23 24
13.495865 0.283735 63.168602 49 24 25
13.381976 0.416362 62.635532 50 24 25
13.410268 0.552549 62.767956 50 24 26
13.381976 0.686404 62.635532 50 24 27
13.353804 0.819696 62.503666 50 24 27
13.467212 0.962538 63.034485 50 24 27
13.410268 1.093775 62.767956 49 24 27
13.353804 1.223906 62.503666 49 24 27
13.353804 1.358643 62.503666 50 24 27
13.214702 1.477824 61.852589 51 23 27
12.437366 2.018344 58.214199 60 22 28
13.105489 3.449082 61.341408 91 22 31
13.078467 3.573929 61.214931 97 20 30
12.998067 3.683105 60.838612 104 19 30
13.159868 3.861733 61.595940 112 18 30
13.078467 3.969805 61.214931 123 20 32
13.024757 4.084919 60.963535 136 26 39
13.024757 4.216336 60.963535 149 33 47
13.024757 4.347753 60.963535 160 39 53
13.024757 4.479169 60.963535 163 41 54
12.918649 4.573025 60.466888 162 41 52
12.918649 4.703372 60.466888 160 43 51
12.998067 4.863433 60.838612 159 47 53
13.051557 5.015135 61.088974 174 69 72
13.078467 5.157434 61.214931 205 111 113
13.078467 5.289393 61.214931 226 146 148
13.105489 5.432553 61.341408 217 143 146
13.105489 5.564784 61.341408 201 129 134
13.105489 5.697015 61.341408 207 148 154
13.132623 5.841316 61.468410 215 164 173
13.159868 5.986215 61.595940 206 148 159
13.187228 6.131716 61.723995 200 138 150
13.187228 6.264772 61.723995 194 137 148
13.159868 6.384555 61.595940 171 116 125
13.159868 6.517335 61.595940 157 104 111
13.051557 6.595382 61.088974 168 116 121
13.078467 6.740939 61.214931 184 132 134
13.024757 6.844672 60.963535 197 144 142
12.998067 6.961794 60.838612 204 149 143
12.998067 7.092942 60.838612 208 151 142
12.971486 7.209316 60.714195 215 157 146
12.971486 7.340195 60.714195 215 157 146
12.971486 7.471075 60.714195 198 139 131
12.945014 7.586440 60.590290 175 117 112
12.971486 7.732833 60.714195 157 102 102
12.998067 7.879827 60.838612 149 96 101
13.024757 8.027424 60.963535 153 101 110
12.998067 8.142122 60.838612 160 108 120
12.998067 8.273270 60.838612 171 119 133
12.971486 8.387230 60.714195 189 136 154
12.918649 8.483413 60.466888 212 157 180
12.892391 8.596251 60.343987 224 168 195
12.762690 8.638542 59.736904 220 162 193
12.660791 8.697316 59.259964 220 160 192
12.686113 8.842710 59.378483 216 157 187
12.635571 8.934971 59.141918 213 159 186
12.610451 9.044444 59.024338 223 176 197
12.610451 9.171680 59.024338 212 161 177
12.610451 9.298918 59.024338 190 133 145
12.610451 9.426154 59.024338 203 148 156
12.585430 9.534435 58.907227 229 178 184
12.635571 9.699911 59.141918 231 179 186
12.635571 9.827401 59.141918 221 167 178
12.660791 9.974761 59.259964 222 169 184
12.686113 10.122711 59.378483 225 170 189
12.635571 10.209871 59.141918 213 151 175
12.610451 10.316810 59.024338 194 128 154
12.610451 10.444047 59.024338 184 116 144
12.610451 10.571283 59.024338 181 111 139
12.585430 10.677293 58.907227 178 107 134
12.585430 10.804276 58.907227 174 105 129
12.610451 10.952993 59.024338 171 104 124
13.292648 -8.619595 61.595940 185 75 89
13.292648 -8.486814 61.595940 174 67 80
13.320284 -8.371403 61.723995 154 51 62
13.403884 -8.290051 62.111385 137 39 49
13.375901 -8.139132 61.981716 126 33 43
13.403884 -8.022269 62.111385 119 30 40
13.292648 -7.822914 61.595940 117 29 39
13.237720 -7.658357 61.341408 115 29 39
13.237720 -7.526125 61.341408 113 27 38
13.210426 -7.378648 61.214931 112 26 38
13.210426 -7.246690 61.214931 111 27 38
13.183244 -7.100091 61.088974 110 27 39
13.183244 -6.968404 61.088974 109 28 40
13.237720 -6.864968 61.341408 108 28 41
13.183244 -6.705030 61.088974 105 29 42
13.210426 -6.586896 61.214931 102 30 41
13.292648 -6.495113 61.595940 98 30 40
13.320284 -6.375560 61.723995 92 30 38
13.320284 -6.242504 61.723995 87 29 35
13.375901 -6.134957 61.981716 83 29 34
13.603092 -6.103279 63.034485 79 29 33
13.603092 -5.967398 63.034485 77 29 33
13.603092 -5.831517 63.034485 74 30 33
13.632035 -5.707754 63.168602 71 29 33
13.661101 -5.310543 63.303288 64 28 30
14.528473 -5.357471 67.322548 60 28 28
14.462882 -5.188814 67.018608 59 28 28
14.397881 -5.021673 66.717400 57 28 29
14.430307 -4.888839 66.867661 54 27 28
14.301466 -4.702332 66.270630 52 25 27
14.269614 -4.549320 66.123032 49 24 27
14.174904 -4.377532 65.684166 47 23 27
14.206334 -3.819611 65.829803 41 23 25
13.958729 -3.613605 64.682442 41 23 25
13.749048 -3.421984 63.710819 41 23 25
13.603092 -3.249776 63.034485 42 23 25
13.516997 -3.094187 62.635532 43 24 26
13.460203 -2.677825 62.372356 43 24 25
13.237720 -2.501332 61.341408 42 24 25
13.102365 -0.774324 60.714195 37 21 21
12.814114 -0.629289 59.378483 37 21 20
12.788536 -0.500288 59.259964 38 20 20
13.102365 -0.250807 60.714195 41 21 20
13.048995 -0.119439 60.466888 43 22 21
12.891462 0.010776 59.736904 46 22 23
13.460203 0.414612 62.372356 50 24 26
13.460203 0.549066 62.372356 50 24 27
13.516997 0.686404 62.635532 51 24 27
13.632035 0.964586 63.168602 51 24 28
12.587538 2.022309 58.328571 58 22 28
13.265127 3.456223 61.468410 87 22 29
13.237720 3.581313 61.341408 94 20 29
13.156174 3.690668 60.963535 101 19 29
13.320284 3.869762 61.723995 109 18 29
13.237720 3.978007 61.341408 121 20 32
13.156174 4.084919 60.963535 134 26 40
13.183244 4.225011 61.088974 146 32 47
13.156174 4.347753 60.963535 154 37 51
13.156174 4.479169 60.963535 157 39 52
13.075625 4.582358 60.590290 158 42 53
13.075625 4.712970 60.590290 157 43 54
13.129214 4.863433 60.838612 156 46 57
13.183244 5.015135 61.088974 168 65 74
13.237720 5.168090 61.341408 198 106 115
13.210426 5.289393 61.214931 223 145 155
13.237720 5.432553 61.341408 214 143 154
13.265127 5.576305 61.468410 188 111 124
13.265127 5.708810 61.468410 176 102 117
13.292648 5.853435 61.595940 182 116 131
13.320284 5.998660 61.723995 190 127 142
13.320284 6.131716 61.723995 206 148 163
13.320284 6.264772 61.723995 222 170 184
13.292648 6.384555 61.595940 206 158 169
13.265127 6.503841 61.468410 177 131 139
13.156174 6.581839 60.963535 166 122 127
13.183244 6.727069 61.088974 163 120 121
13.129214 6.830647 60.838612 161 116 114
13.102365 6.947557 60.714195 166 118 111
13.102365 7.078436 60.714195 185 134 124
13.075625 7.194603 60.590290 213 159 147
13.102365 7.340195 60.714195 223 167 154
13.102365 7.471075 60.714195 212 152 140
13.075625 7.586440 60.590290 196 135 125
13.102365 7.732833 60.714195 171 112 106
13.129214 7.879827 60.838612 148 92 89
13.156174 8.027424 60.963535 149 95 97
13.156174 8.158841 60.963535 159 106 112
13.183244 8.307316 61.088974 165 113 122
13.156174 8.421675 60.963535 174 121 135
13.102365 8.518109 60.714195 192 138 157
13.075625 8.631338 60.590290 208 152 175
12.943549 8.673446 59.978268 212 153 180
12.763061 8.679991 59.141918 215 155 183
12.788536 8.825061 59.259964 223 163 190
12.763061 8.934971 59.141918 232 177 201
12.737687 9.044444 59.024338 239 192 210
12.712414 9.153483 58.907227 222 172 185
12.737687 9.298918 59.024338 193 137 147
12.712414 9.407452 58.907227 195 140 147
12.712414 9.534435 58.907227 219 167 173
12.763061 9.699911 59.141918 228 176 182
12.737687 9.807864 59.024338 218 163 173
12.763061 9.954891 59.141918 213 155 170
12.788536 10.102506 59.259964 216 156 177
12.763061 10.209871 59.141918 215 152 177
12.737687 10.316810 59.024338 201 136 164
12.737687 10.444047 59.024338 187 119 148
12.737687 10.571283 59.024338 180 110 139
12.712414 10.677293 58.907227 178 106 134
12.712414 10.804276 58.907227 175 104 129
12.712414 10.931261 58.907227 172 103 124
13.397633 -8.469243 61.468410 179 67 82
13.425428 -8.354034 61.595940 158 51 64
13.537775 -8.290051 62.111385 140 38 50
13.509513 -8.139132 61.981716 130 33 43
13.566156 -8.039087 62.241596 123 31 40
13.425428 -7.822914 61.595940 119 30 39
13.342385 -7.642566 61.214931 115 28 37
13.342385 -7.510607 61.214931 111 27 36
13.314931 -7.363466 61.088974 109 25 35
13.342385 -7.246690 61.214931 107 24 35
13.342385 -7.114731 61.214931 106 24 37
13.342385 -6.982772 61.214931 105 25 39
13.397633 -6.879181 61.468410 105 26 42
13.369952 -6.732737 61.341408 103 27 44
13.342385 -6.586896 61.214931 101 28 44
13.425428 -6.495113 61.595940 98 29 43
13.453341 -6.375560 61.723995 93 28 40
13.453341 -6.242504 61.723995 88 28 36
13.481368 -6.122176 61.852589 83 27 33
13.680881 -6.077473 62.767956 79 27 32
13.652019 -5.929630 62.635532 76 28 32
13.652019 -5.794609 62.635532 74 28 31
13.709866 -5.683569 62.900936 71 28 32
14.253428 -5.626970 65.394806 66 27 31
14.036999 -5.402699 64.401825 64 27 29
14.541700 -5.309314 66.717400 60 27 27
14.476637 -5.142382 66.418884 59 27 27
14.412153 -4.976937 66.123032 57 27 28
14.476637 -4.856028 66.418884 55 26 28
14.380126 -4.681432 65.976097 53 25 27
14.316497 -4.519125 65.684166 50 24 28
14.284893 -4.367869 65.539169 47 23 27
14.640400 -4.042182 67.170235 40 24 25
14.222102 -3.786032 65.251083 38 23 24
14.067514 -3.605749 64.541832 37 23 23
13.856652 -3.414656 63.574394 37 22 23
13.738974 -3.249776 63.034485 38 22 24
13.652019 -3.094187 62.635532 40 23 26
13.566156 -2.940555 62.241596 40 24 26
13.537775 -2.666620 62.111385 40 24 24
13.206238 -0.772744 60.590290 36 21 20
12.916281 -0.628033 59.259964 37 21 20
12.864923 -0.498299 59.024338 38 20 20
13.179341 -0.249785 60.466888 41 22 20
13.099305 -0.118714 60.099682 43 22 21
12.916281 0.010690 59.259964 45 23 23
13.566156 0.547915 62.241596 50 24 26
13.623277 0.684959 62.503666 51 24 27
12.763425 2.030287 58.558662 57 22 28
13.369952 3.316850 61.341408 79 23 29
13.397633 3.456223 61.468410 84 22 28
13.369952 3.581313 61.341408 90 21 29
13.314931 3.698262 61.088974 98 19 29
13.453341 3.869762 61.723995 106 19 30
13.369952 3.978007 61.341408 117 21 33
13.314931 4.093324 61.088974 128 25 38
13.314931 4.225011 61.088974 138 29 43
13.287591 4.347753 60.963535 145 33 47
13.287591 4.479169 60.963535 150 37 50
13.206238 4.582358 60.590290 154 41 54
13.206238 4.712970 60.590290 155 44 57
13.260362 4.863433 60.838612 154 46 62
13.342385 5.025475 61.214931 161 57 75
13.369952 5.168090 61.341408 181 82 102
13.369952 5.300321 61.341408 198 107 129
13.369952 5.432553 61.341408 199 111 134
13.397633 5.576305 61.468410 185 97 121
13.397633 5.708810 61.468410 170 86 109
13.397633 5.841316 61.468410 162 85 107
13.425428 5.986215 61.595940 162 94 115
13.453341 6.131716 61.723995 181 122 140
13.397633 6.238831 61.468410 209 159 174
13.369952 6.358172 61.341408 215 172 185
13.342385 6.477022 61.214931 201 163 173
13.260362 6.568351 60.838612 187 153 159
13.287591 6.713255 60.963535 177 145 147
13.233245 6.816678 60.714195 166 133 131
13.206238 6.933379 60.590290 156 119 113
13.206238 7.063991 60.590290 167 123 114
13.206238 7.194603 60.590290 202 152 142
13.206238 7.325215 60.590290 219 164 152
13.206238 7.455828 60.590290 213 153 139
13.206238 7.586440 60.590290 208 146 133
13.233245 7.732833 60.714195 193 134 123
13.260362 7.879827 60.838612 166 110 102
13.287591 8.027424 60.963535 151 96 92
13.260362 8.142122 60.838612 155 99 100
13.287591 8.290257 60.963535 162 107 114
13.287591 8.421675 60.963535 166 112 124
13.233245 8.518109 60.714195 173 119 136
13.233245 8.648989 60.714195 185 130 149
13.046485 8.655958 59.857342 196 139 162
12.890551 8.679991 59.141918 211 152 176
12.864923 8.789971 59.024338 228 168 191
12.864923 8.917208 59.024338 239 183 203
12.864923 9.044444 59.024338 240 187 204
12.839398 9.153483 58.907227 223 169 181
12.839398 9.280467 58.907227 200 145 154
12.839398 9.407452 58.907227 199 145 151
12.839398 9.534435 58.907227 215 161 168
12.864923 9.680627 59.024338 223 170 178
12.839398 9.788404 58.907227 217 163 176
12.890551 9.954891 59.141918 209 152 169
12.916281 10.102506 59.259964 206 148 169
12.890551 10.209871 59.141918 207 146 170
12.864923 10.316810 59.024338 203 138 166
12.839398 10.423325 58.907227 193 125 154
12.864923 10.571283 59.024338 182 112 141
12.839398 10.677293 58.907227 176 104 131
12.839398 10.804276 58.907227 173 102 125
12.839398 10.931261 58.907227 171 102 123
13.530138 -8.469243 61.468410 180 63 78
13.586396 -8.371403 61.723995 164 52 65
13.700329 -8.307431 62.241596 150 43 53
13.700329 -8.173259 62.241596 141 39 48
13.758014 -8.072936 62.503666 134 37 45
13.671666 -7.888378 62.111385 127 34 41
13.586396 -7.706122 61.723995 121 32 39
13.558208 -7.557354 61.595940 116 30 37
13.474343 -7.378648 61.214931 113 29 37
13.530138 -7.276697 61.468410 110 28 39
13.530138 -7.144192 61.468410 109 27 42
13.502183 -6.997200 61.341408 108 28 46
13.558208 -6.893454 61.595940 108 28 51
13.502183 -6.732737 61.341408 107 29 53
13.474343 -6.586896 61.214931 105 29 53
13.502183 -6.468274 61.341408 102 29 51
13.558208 -6.362333 61.595940 97 29 47
13.530138 -6.216655 61.468410 92 28 41
13.558208 -6.096773 61.595940 87 27 37
13.758014 -6.051883 62.503666 83 28 35
13.671666 -5.880010 62.111385 79 28 33
13.671666 -5.746118 62.111385 76 28 32
13.787040 -5.659587 62.635532 73 28 32
14.426173 -5.639392 65.539169 67 28 31
14.331264 -5.461940 65.107986 64 27 29
14.587180 -5.273760 66.270630 60 26 27
14.490148 -5.096773 65.829803 59 26 27
14.490148 -4.954866 65.829803 57 26 27
14.554692 -4.834398 66.123032 55 25 27
14.522348 -4.681432 65.976097 53 25 27
14.490148 -4.529145 65.829803 51 24 27
14.458090 -4.377532 65.684166 48 24 27
14.685520 -4.014932 66.717400 40 24 24
14.331264 -3.777729 65.107986 36 23 23
13.993697 -3.414656 63.574394 34 23 22
13.874855 -3.249776 63.034485 35 22 23
13.787040 -3.094187 62.635532 36 23 24
13.671666 -2.934403 62.111385 37 23 25
13.787040 -2.824145 62.635532 38 23 24
13.558208 -2.644491 61.595940 38 23 23
13.228860 -0.766487 60.099682 35 20 19
13.044025 -0.628033 59.259964 36 20 19
12.966382 -0.497311 58.907227 37 20 20
13.018041 -0.371802 59.141918 38 21 19
13.282636 -0.249278 60.343987 41 22 20
13.175517 -0.118235 59.857342 43 23 21
13.018041 0.010668 59.141918 44 23 23
13.530138 3.323717 61.468410 77 24 29
13.530138 3.456223 61.468410 81 22 28
13.502183 3.581313 61.341408 87 21 28
13.446619 3.698262 61.088974 94 20 29
13.586396 3.869762 61.723995 103 20 30
13.530138 3.986243 61.468410 112 21 32
13.446619 4.093324 61.088974 121 23 35
13.446619 4.225011 61.088974 129 25 39
13.419007 4.347753 60.963535 136 29 43
13.419007 4.479169 60.963535 142 34 48
13.336850 4.582358 60.590290 147 38 53
13.364124 4.722608 60.714195 149 42 59
13.419007 4.873420 60.963535 150 44 66
13.474343 5.025475 61.214931 155 51 77
13.502183 5.168090 61.341408 168 65 96
13.502183 5.300321 61.341408 179 78 113
13.502183 5.432553 61.341408 187 88 124
13.530138 5.576305 61.468410 197 101 136
13.502183 5.697015 61.341408 193 103 135
13.530138 5.841316 61.468410 169 88 116
13.530138 5.973821 61.468410 147 77 100
13.530138 6.106326 61.468410 147 87 106
13.502183 6.225941 61.341408 166 117 132
13.474343 6.345063 61.214931 190 151 162
13.446619 6.463695 61.088974 204 172 180
13.391509 6.568351 60.838612 205 179 182
13.391509 6.699499 60.838612 204 184 182
13.364124 6.816678 60.714195 208 190 185
