ply
format ascii 1.0
element vertex 1180
property float x
property float y
property float z
property uchar red
property uchar green
property uchar blue
end_header
4.190128 -1.832331 56.985111 254 158 171
4.190128 -1.709490 56.985111 254 170 184
4.174105 -1.580582 56.767193 254 185 200
4.182101 -1.461005 56.875942 254 189 204
4.182101 -1.338400 56.875942 254 187 201
4.166139 -1.211154 56.658859 254 192 206
4.166139 -1.089016 56.658859 254 202 214
4.174105 -0.968728 56.767193 254 205 217
4.174105 -0.846357 56.767193 254 206 216
4.190128 -0.726765 56.985111 254 208 216
4.182101 -0.480162 56.875942 254 216 221
4.174105 -0.356873 56.767193 254 221 226
4.190128 0.255961 56.985111 254 229 230
4.166139 0.376633 56.658859 254 232 231
4.111218 0.492195 55.911945 254 234 231
4.072867 0.607006 55.390377 253 235 232
4.072867 0.726409 55.390377 252 237 234
4.050198 0.841105 55.082081 251 240 237
4.020362 0.952772 54.676319 249 243 239
4.027780 1.072612 54.777199 246 244 240
4.027780 1.190693 54.777199 244 244 241
4.012972 1.303962 54.575813 244 244 242
4.005609 1.419001 54.475674 246 247 245
3.983680 1.528021 54.177448 249 250 248
3.976424 1.641813 54.078766 251 252 250
4.042697 2.024732 54.980080 254 254 254
4.035225 2.139289 54.878452 254 254 254
4.065282 2.274405 55.287228 254 254 254
4.088121 2.407033 55.597832 254 254 254
4.095791 2.531624 55.702145 250 251 250
4.095791 2.651699 55.702145 244 245 245
4.103490 2.776984 55.806847 239 239 239
4.103490 2.897285 55.806847 232 232 232
4.111218 3.023268 55.911945 228 228 228
4.118975 3.149727 56.017437 238 238 238
4.118975 3.270482 56.017437 250 250 250
4.118975 3.391237 56.017437 247 246 246
4.118975 3.511992 56.017437 234 235 235
4.126761 3.639613 56.123333 236 237 236
4.111218 3.746432 55.911945 248 248 248
4.111218 3.866959 55.911945 254 254 254
4.111218 3.987487 55.911945 254 254 254
4.095791 4.092599 55.702145 254 254 254
4.103490 4.220593 55.806847 253 254 254
4.072867 4.308499 55.390377 248 250 249
4.042697 5.461770 54.980080 254 235 242
4.042697 5.580288 54.980080 254 234 241
4.042697 5.698806 54.980080 254 233 240
4.035225 5.806572 54.878452 254 228 234
4.005609 5.881386 54.475674 254 221 229
3.976424 5.955110 54.078766 254 220 227
4.050198 6.421810 55.082081 254 223 229
4.567064 8.044677 62.111385 254 209 223
4.644801 8.862458 63.168602 254 187 213
4.634940 8.979524 63.034485 254 181 208
4.166139 8.559838 56.658859 255 158 193
4.142423 8.632553 56.336323 254 152 189
4.118975 8.704444 56.017437 254 143 182
4.088121 8.759092 55.597832 254 144 184
4.080480 8.862347 55.493912 254 149 188
4.095791 9.015676 55.702145 254 145 184
4.095791 9.135752 55.702145 254 134 173
4.080480 9.221225 55.493912 254 123 160
4.080480 9.340852 55.493912 254 114 149
4.080480 9.460478 55.493912 255 112 145
4.072867 9.562230 55.390377 254 120 151
4.072867 9.681633 55.390377 254 137 165
4.072867 9.801036 55.390377 254 151 178
4.072867 9.920440 55.390377 254 155 181
4.080480 10.058608 55.493912 254 153 180
4.088121 10.197295 55.597832 254 152 179
4.080480 10.297861 55.493912 255 151 180
4.080480 10.417487 55.493912 255 149 180
4.072867 10.517454 55.390377 254 148 180
4.080480 10.656739 55.493912 254 147 178
4.080480 10.776365 55.493912 254 144 175
4.080480 10.895991 55.493912 254 140 170
4.080480 11.015617 55.493912 254 135 164
4.072867 11.114470 55.390377 254 133 160
4.080480 11.254870 55.493912 254 137 161
4.072867 11.353275 55.390377 255 143 166
4.072867 11.472678 55.390377 254 148 169
4.065282 11.570495 55.287228 254 152 173
4.088121 11.755347 55.597832 254 159 179
4.150298 12.055809 56.443428 254 166 185
4.126761 12.108422 56.123333 254 171 190
4.150298 12.299155 56.443428 254 177 195
4.142423 12.397259 56.336323 254 179 197
4.111218 12.424398 55.911945 254 182 199
4.111218 12.544926 55.911945 254 187 202
4.095791 12.617928 55.702145 254 193 206
4.103490 12.761947 55.806847 254 197 209
4.095791 12.858078 55.702145 254 201 212
4.095791 12.978153 55.702145 254 208 217
4.080480 13.049263 55.493912 254 213 222
4.080480 13.168889 55.493912 254 215 223
4.088121 13.313399 55.597832 254 216 225
4.088121 13.433249 55.597832 254 221 228
4.088121 13.553101 55.597832 254 228 235
4.095791 13.698603 55.702145 254 233 238
4.095791 13.818678 55.702145 254 234 239
4.095791 13.938753 55.702145 254 235 240
4.095791 14.058828 55.702145 254 239 243
4.118975 14.259161 56.017437 254 240 244
4.720707 -8.055976 62.372356 238 113 146
4.720707 -7.921522 62.372356 243 120 152
4.730646 -7.803462 62.503666 251 141 172
4.720707 -7.652615 62.372356 254 155 183
4.720707 -7.518161 62.372356 254 157 183
4.710811 -7.368227 62.241596 254 156 179
4.700955 -7.218922 62.111385 254 156 176
4.691141 -7.070239 61.981716 254 163 182
4.681368 -6.922176 61.852589 254 175 194
4.681368 -6.788843 61.852589 254 182 202
4.691141 -6.669404 61.981716 254 185 205
4.691141 -6.535792 61.981716 254 186 207
4.661943 -6.362333 61.595940 254 186 207
4.652291 -6.216655 61.468410 254 184 205
4.642679 -6.071579 61.341408 254 183 203
4.614079 -5.902761 60.963535 254 181 200
4.604624 -5.759518 60.838612 254 177 195
4.595208 -5.616860 60.714195 254 176 193
4.595208 -5.485981 60.714195 254 177 193
4.576490 -5.333288 60.466888 254 176 192
4.567188 -5.192367 60.343987 254 176 193
4.548697 -5.041790 60.099682 254 175 192
4.521241 -4.882585 59.736904 254 171 189
4.512162 -4.744266 59.616951 254 165 184
4.476208 -4.578973 59.141918 254 158 177
4.458446 -4.433818 58.907227 254 154 173
4.449617 -4.298306 58.790577 254 151 169
4.458446 -4.179850 58.907227 254 148 166
4.440824 -4.036847 58.674393 254 149 167
4.440824 -3.910365 58.674393 254 152 170
4.423340 -3.768985 58.443390 254 150 170
4.405993 -3.628715 58.214199 255 143 164
4.380228 -3.482738 57.873768 254 135 160
4.380228 -3.357981 57.873768 254 130 159
4.380228 -3.233225 57.873768 254 125 157
4.371706 -3.102421 57.761173 254 119 153
4.388783 -2.989540 57.986801 254 115 148
4.354761 -2.842334 57.537292 254 115 147
4.354761 -2.718303 57.537292 254 117 148
4.346338 -2.589254 57.425999 254 114 141
4.329589 -2.455962 57.204704 254 109 132
4.337947 -2.337152 57.315140 254 112 131
4.321263 -2.205086 57.094696 254 126 143
4.329589 -2.086020 57.204704 254 146 160
4.321263 -1.958932 57.094696 254 159 173
4.312969 -1.832331 56.985111 254 166 181
4.304706 -1.706216 56.875942 254 174 190
4.296475 -1.580582 56.767193 254 182 198
4.296475 -1.458211 56.767193 254 185 201
4.304706 -1.338400 56.875942 254 185 201
4.288276 -1.211154 56.658859 254 190 205
4.280108 -1.086942 56.550938 254 197 211
4.288276 -0.966879 56.658859 254 201 215
4.296475 -0.846357 56.767193 254 205 218
4.304706 -0.725373 56.875942 254 208 218
4.296475 -0.479244 56.767193 254 212 219
4.296475 -0.356873 56.767193 254 216 222
4.288276 0.376633 56.658859 254 228 227
4.247744 0.494056 56.123333 254 230 227
4.192270 0.607006 55.390377 252 233 229
4.192270 0.726409 55.390377 251 236 232
4.168936 0.841105 55.082081 251 242 237
4.138226 0.952772 54.676319 250 246 241
4.145861 1.072612 54.777199 247 246 242
4.145861 1.190693 54.777199 244 244 242
4.145861 1.308774 54.777199 244 246 243
4.138226 1.424227 54.676319 248 249 248
4.115489 1.533618 54.375900 251 252 251
4.100468 1.644809 54.177448 253 253 253
4.161216 2.024732 54.980080 254 254 254
4.145861 2.135342 54.777199 254 254 254
4.176685 2.270177 55.184464 254 254 254
4.200106 2.402534 55.493912 253 253 253
4.207971 2.526883 55.597832 250 250 250
4.207971 2.646733 55.597832 247 247 247
4.215866 2.771774 55.702145 246 246 246
4.215866 2.891849 55.702145 242 240 240
4.231745 3.023268 55.911945 235 232 232
4.231745 3.143796 55.911945 239 236 236
4.231745 3.264323 55.911945 249 247 247
4.231745 3.384850 55.911945 248 246 246
4.231745 3.505378 55.911945 237 235 235
4.239729 3.632746 56.017437 237 236 235
4.231745 3.746432 55.911945 247 247 246
4.231745 3.866959 55.911945 254 253 253
4.231745 3.987487 55.911945 254 254 254
4.215866 4.092599 55.702145 254 254 254
4.215866 4.212675 55.702145 254 254 254
4.168936 5.115687 55.082081 254 243 248
4.168936 5.234426 55.082081 254 240 246
4.168936 5.353164 55.082081 254 235 242
4.161216 5.461770 54.980080 254 230 238
4.161216 5.580288 54.980080 254 229 238
4.161216 5.698806 54.980080 254 228 237
4.153524 5.806572 54.878452 254 221 230
4.130619 5.892198 54.575813 254 214 223
4.100468 5.965977 54.177448 254 214 223
4.115489 6.105047 54.375900 254 218 226
4.168936 6.303071 55.082081 254 220 228
4.153524 6.398069 54.878452 254 220 227
4.652291 7.961399 61.468410 254 204 219
4.791165 9.017816 63.303288 254 175 203
4.801403 9.173837 63.438553 254 166 197
4.280108 8.543534 56.550938 254 151 187
4.263865 8.632553 56.336323 254 144 181
4.223791 8.671721 55.806847 254 134 174
4.200106 8.742721 55.493912 254 132 174
4.192270 8.845813 55.390377 254 135 177
4.200106 8.981973 55.493912 254 132 173
4.200106 9.101599 55.493912 254 126 166
4.192270 9.204021 55.390377 254 121 159
4.192270 9.323424 55.390377 254 117 154
4.184463 9.425243 55.287228 254 116 149
4.184463 9.544424 55.287228 254 119 150
4.184463 9.663604 55.287228 254 129 156
4.184463 9.782784 55.287228 254 138 164
4.184463 9.901965 55.287228 254 145 169
4.192270 10.039843 55.390377 254 149 173
4.200106 10.178234 55.493912 254 150 175
4.192270 10.278648 55.390377 255 147 174
4.192270 10.398051 55.390377 254 145 173
4.184463 10.497869 55.287228 254 144 173
4.200106 10.656739 55.493912 254 143 172
4.200106 10.776365 55.493912 254 140 169
4.207971 10.916396 55.597832 254 137 165
4.200106 11.015617 55.493912 254 132 159
4.200106 11.135243 55.493912 254 128 153
4.200106 11.254870 55.493912 254 129 153
4.184463 11.332133 55.287228 254 135 157
4.184463 11.451314 55.287228 254 141 161
4.184463 11.570495 55.287228 254 144 164
4.207971 11.755347 55.597832 254 148 167
4.231745 11.942289 55.911945 254 153 172
4.223791 12.040142 55.806847 254 159 177
4.239729 12.206331 56.017437 254 164 183
4.247744 12.350389 56.123333 254 167 186
4.223791 12.401044 55.806847 254 170 188
4.215866 12.497852 55.702145 254 175 192
4.207971 12.594298 55.597832 254 183 198
4.223791 12.761947 55.806847 254 190 203
4.207971 12.833999 55.597832 254 196 208
4.207971 12.953849 55.597832 254 203 214
4.192270 13.024917 55.390377 254 208 218
4.192270 13.144320 55.390377 254 209 220
4.192270 13.263722 55.390377 254 211 221
4.200106 13.408141 55.493912 254 216 225
4.192270 13.502529 55.390377 254 224 232
4.200106 13.647393 55.493912 254 230 236
4.200106 13.767019 55.493912 254 232 237
4.200106 13.886645 55.493912 254 233 237
4.834846 -8.022269 62.111385 242 123 155
4.844983 -7.904915 62.241596 244 121 152
4.855161 -7.787068 62.372356 251 140 169
4.844983 -7.636571 62.241596 254 156 183
4.844983 -7.502399 62.241596 254 159 185
4.844983 -7.368227 62.241596 253 153 176
4.834846 -7.218922 62.111385 250 145 165
4.824753 -7.070239 61.981716 249 148 167
4.814702 -6.922176 61.852589 252 165 185
4.814702 -6.788843 61.852589 254 181 202
4.824753 -6.669404 61.981716 254 187 209
4.824753 -6.535792 61.981716 254 189 211
4.804692 -6.375560 61.723995 254 189 211
4.794724 -6.229553 61.595940 254 188 209
4.784796 -6.084150 61.468410 254 187 207
4.755260 -5.914907 61.088974 254 186 205
4.745496 -5.771344 60.963535 254 186 205
4.745496 -5.639927 60.963535 254 187 205
4.735772 -5.497222 60.838612 254 187 203
4.726087 -5.355101 60.714195 254 185 201
4.706836 -5.202942 60.466888 254 183 199
4.697269 -5.062285 60.343987 255 181 197
4.668801 -4.902312 59.978268 254 177 194
4.659389 -4.763396 59.857342 254 171 189
4.603698 -4.578973 59.141918 254 164 182
4.585430 -4.433818 58.907227 254 159 176
4.576350 -4.298306 58.790577 254 156 173
4.585430 -4.179850 58.907227 254 154 171
4.576350 -4.044841 58.790577 254 154 172
4.576350 -3.918108 58.790577 254 155 173
4.558297 -3.776419 58.558662 254 151 171
4.531484 -3.628715 58.214199 254 146 167
4.513783 -3.489540 57.986801 254 142 166
4.513783 -3.364540 57.986801 254 137 165
4.504984 -3.233225 57.873768 254 134 165
4.487489 -3.096397 57.649014 254 132 164
4.522616 -2.995390 58.100277 254 128 161
4.478792 -2.842334 57.537292 254 128 160
4.478792 -2.718303 57.537292 254 132 163
4.470129 -2.589254 57.425999 254 133 160
4.461499 -2.460704 57.315140 254 127 150
4.461499 -2.337152 57.315140 254 125 146
4.452903 -2.209334 57.204704 254 137 157
4.461499 -2.090047 57.315140 254 157 174
4.444340 -1.958932 57.094696 254 169 187
4.435809 -1.832331 56.985111 254 174 191
4.427311 -1.706216 56.875942 254 177 195
4.418846 -1.580582 56.767193 254 180 199
4.418846 -1.458211 56.767193 254 182 201
4.427311 -1.338400 56.875942 254 184 202
4.402013 -1.208847 56.550938 254 188 205
4.402013 -1.086942 56.550938 254 193 209
4.402013 -0.965037 56.550938 254 198 213
4.410413 -0.844741 56.658859 254 203 217
4.427311 -0.480162 56.875942 254 208 216
4.427311 -0.357557 56.875942 254 212 218
4.418846 0.377353 56.767193 254 225 225
4.393644 0.496874 56.443428 254 228 226
4.327821 0.609280 55.597832 254 232 229
4.319732 0.727767 55.493912 253 236 232
4.295644 0.842668 55.184464 252 242 237
4.263942 0.954530 54.777199 251 246 242
4.279735 1.195103 54.980080 245 245 242
4.279735 1.313621 54.980080 246 247 245
4.271824 1.429493 54.878452 250 251 250
4.240471 1.536432 54.475674 253 253 253
4.217257 1.644809 54.177448 254 254 254
4.303644 1.916863 55.287228 254 254 254
4.279735 2.024732 54.980080 254 254 254
4.248266 2.127492 54.575813 254 254 254
4.279735 2.261769 54.980080 254 254 254
4.303644 2.393586 55.287228 254 253 253
4.311673 2.517454 55.390377 252 251 251
4.319732 2.641786 55.493912 251 250 250
4.327821 2.766583 55.597832 252 249 250
4.327821 2.886433 55.597832 249 243 244
4.344091 3.017586 55.806847 245 236 237
4.344091 3.137886 55.806847 245 237 238
4.344091 3.258187 55.806847 250 244 244
4.344091 3.378488 55.806847 250 244 244
4.344091 3.498788 55.806847 243 237 235
4.352273 3.625905 55.911945 242 236 235
4.352273 3.746432 55.911945 249 244 243
4.352273 3.866959 55.911945 254 251 249
4.352273 3.987487 55.911945 254 254 252
4.335941 4.092599 55.702145 254 254 253
4.344091 4.220593 55.806847 254 254 253
4.327821 4.804037 55.597832 254 252 252
4.287674 4.996949 55.082081 254 246 250
4.287674 5.115687 55.082081 254 245 250
4.287674 5.234426 55.082081 254 241 247
4.287674 5.353164 55.082081 254 230 238
4.287674 5.471902 55.082081 254 220 231
4.279735 5.580288 54.980080 254 221 232
4.279735 5.698806 54.980080 254 222 234
4.271824 5.806572 54.878452 254 218 229
4.256090 5.903049 54.676319 254 212 223
4.224967 5.976884 54.276493 255 212 223
4.240471 6.116249 54.475674 254 215 226
4.295644 6.314787 55.184464 254 216 227
4.279735 6.409917 54.980080 254 216 225
4.295644 6.552705 55.184464 254 216 226
4.385307 8.511111 56.336323 254 150 185
4.360484 8.583690 56.017437 254 141 179
4.335941 8.655451 55.702145 254 132 173
4.311673 8.726410 55.390377 254 128 170
4.311673 8.845813 55.390377 254 125 169
4.311673 8.965216 55.390377 254 123 166
4.311673 9.084619 55.390377 254 122 163
4.311673 9.204021 55.390377 254 124 164
4.303644 9.306063 55.287228 254 126 163
4.295644 9.407724 55.184464 254 122 156
4.295644 9.526683 55.184464 254 119 149
4.295644 9.645642 55.184464 254 122 150
4.295644 9.764602 55.184464 254 132 157
4.295644 9.883560 55.184464 254 143 167
4.303644 10.021146 55.287228 254 151 175
4.311673 10.159245 55.390377 255 151 176
4.303644 10.259507 55.287228 254 147 173
4.295644 10.359397 55.184464 254 144 171
4.295644 10.478356 55.184464 254 142 169
4.303644 10.617049 55.287228 254 139 167
4.303644 10.736230 55.287228 254 137 164
4.311673 10.875663 55.390377 254 134 161
4.311673 10.995067 55.390377 254 131 158
4.303644 11.093772 55.287228 254 127 153
4.303644 11.212953 55.287228 254 126 151
4.295644 11.311069 55.184464 254 132 155
4.295644 11.430029 55.184464 254 137 158
4.295644 11.548987 55.184464 254 139 159
4.303644 11.689675 55.287228 254 142 162
4.311673 11.830887 55.390377 254 145 166
4.327821 11.995048 55.597832 254 149 170
4.344091 12.160442 55.806847 254 154 174
4.352273 12.303871 55.911945 254 157 178
4.335941 12.377778 55.702145 254 161 181
4.335941 12.497852 55.702145 254 165 184
4.327821 12.594298 55.597832 255 172 190
4.344091 12.761947 55.806847 254 182 198
4.335941 12.858078 55.702145 254 191 207
4.327821 12.953849 55.597832 254 199 214
4.311673 13.024917 55.390377 254 204 218
4.287674 13.071160 55.082081 254 206 220
4.311673 13.502529 55.390377 254 220 228
4.311673 13.741335 55.390377 254 228 233
4.958364 -8.005521 61.981716 249 144 173
4.968738 -7.888378 62.111385 249 131 161
4.979155 -7.770743 62.241596 252 137 166
4.968738 -7.620595 62.111385 253 151 178
4.968738 -7.486704 62.111385 254 161 187
4.968738 -7.352813 62.111385 253 158 181
4.958364 -7.203851 61.981716 247 143 164
4.958364 -7.070239 61.981716 243 136 156
4.948035 -6.922176 61.852589 247 152 173
4.948035 -6.788843 61.852589 253 174 196
4.958364 -6.669404 61.981716 254 185 207
4.958364 -6.535792 61.981716 254 186 208
4.937747 -6.375560 61.723995 254 187 209
4.937747 -6.242504 61.723995 254 189 211
4.927504 -6.096773 61.595940 254 190 211
4.907142 -5.939348 61.341408 254 190 210
4.897024 -5.795143 61.214931 254 192 211
4.897024 -5.663185 61.214931 254 193 211
4.876913 -5.508510 60.963535 255 192 209
4.866920 -5.366075 60.838612 254 190 207
4.856966 -5.224222 60.714195 254 189 205
4.827351 -5.062285 60.343987 254 187 203
4.807807 -4.912236 60.099682 255 184 200
4.798094 -4.773019 59.978268 254 179 195
4.740632 -4.588113 59.259964 254 171 188
4.712414 -4.433818 58.907227 254 163 180
4.712414 -4.306834 58.907227 254 159 176
4.721783 -4.188160 59.024338 254 157 174
4.703083 -4.044841 58.790577 254 156 175
4.703083 -3.918108 58.790577 254 156 174
4.684530 -3.776419 58.558662 255 153 173
4.666123 -3.635844 58.328571 254 149 171
4.647861 -3.496369 58.100277 254 145 169
4.647861 -3.371124 58.100277 254 140 168
4.629740 -3.233225 57.873768 254 137 167
4.611761 -3.096397 57.649014 254 138 169
4.638783 -2.989540 57.986801 254 137 169
4.593920 -2.836837 57.425999 254 135 167
4.602823 -2.718303 57.537292 254 140 171
4.593920 -2.589254 57.425999 254 144 171
4.585052 -2.460704 57.315140 255 140 165
4.602823 -2.346210 57.537292 254 139 162
4.576217 -2.209334 57.204704 255 149 171
4.602823 -2.098148 57.537292 254 165 185
4.576217 -1.962706 57.204704 254 171 191
4.567417 -1.835855 57.094696 254 172 192
4.558650 -1.709490 56.985111 254 175 196
4.549917 -1.583610 56.875942 254 177 198
4.558650 -1.463809 56.985111 254 179 200
4.549917 -1.338400 56.875942 254 180 201
4.532551 -1.211154 56.658859 254 184 203
4.532551 -1.089016 56.658859 254 189 207
4.532551 -0.966879 56.658859 254 193 209
4.558650 -0.481084 56.985111 254 205 213
4.558650 -0.358243 56.985111 254 207 213
4.567417 0.256453 57.094696 255 223 226
4.549917 0.378076 56.875942 254 225 226
4.532551 0.498770 56.658859 254 228 227
4.464392 0.611570 55.806847 254 232 230
4.447671 0.729130 55.597832 254 236 232
4.406413 1.197320 55.082081 247 244 241
4.406413 1.316058 55.082081 249 248 245
4.398253 1.432140 54.980080 252 252 251
4.365913 1.539256 54.575813 254 254 254
4.334045 1.644809 54.177448 254 254 254
4.422824 1.916863 55.287228 254 254 254
4.398253 2.024732 54.980080 254 253 253
4.365913 2.127492 54.575813 254 253 253
4.390123 2.257589 54.878452 254 253 253
4.398253 2.380288 54.980080 254 251 251
4.422824 2.512766 55.287228 254 248 249
4.431076 2.636857 55.390377 254 249 250
4.439358 2.761412 55.493912 254 247 249
4.439358 2.881038 55.493912 253 241 243
4.456016 3.011924 55.702145 251 238 240
4.456016 3.131999 55.702145 251 237 239
4.456016 3.252074 55.702145 252 238 239
4.456016 3.372149 55.702145 252 236 237
4.456016 3.492224 55.702145 250 232 232
4.464392 3.619089 55.806847 249 232 231
4.464392 3.739390 55.806847 252 237 235
4.472800 3.866959 55.911945 254 244 242
4.472800 3.987487 55.911945 254 249 247
4.464392 4.100292 55.806847 254 252 249
4.447671 4.804037 55.597832 254 251 251
4.431076 4.905514 55.390377 254 249 251
4.406413 4.996949 55.082081 254 247 251
4.406413 5.115687 55.082081 254 248 252
4.406413 5.234426 55.082081 254 243 248
4.414603 5.363114 55.184464 254 227 235
4.406413 5.471902 55.082081 254 214 226
4.406413 5.590641 55.082081 254 211 224
4.406413 5.709379 55.082081 254 211 225
4.398253 5.817325 54.980080 254 210 225
4.390123 5.924871 54.878452 254 209 224
4.357902 5.998817 54.475674 254 209 223
4.373953 6.138776 54.676319 254 210 223
4.422824 6.326547 55.287228 254 211 224
4.414603 6.433746 55.184464 254 211 223
4.439358 6.589449 55.493912 254 210 223
4.515317 8.162272 56.443428 254 164 194
4.489710 8.236967 56.123333 254 165 196
4.481239 8.342180 56.017437 254 161 193
4.481239 8.462934 56.017437 254 152 187
4.464392 8.551420 55.806847 254 144 182
4.447671 8.639242 55.597832 254 136 176
4.431076 8.726410 55.390377 254 129 172
4.431076 8.845813 55.390377 254 124 168
4.422824 8.948521 55.287228 254 120 164
4.431076 9.084619 55.390377 254 119 162
4.431076 9.204021 55.390377 254 123 164
4.422824 9.306063 55.287228 254 126 163
4.406413 9.390270 55.082081 254 120 154
4.406413 9.509008 55.082081 254 112 142
4.406413 9.627747 55.082081 254 113 141
4.406413 9.746485 55.082081 254 127 153
4.406413 9.865224 55.082081 254 144 168
4.414603 10.002520 55.184464 254 152 177
4.414603 10.121479 55.184464 254 154 179
4.414603 10.240438 55.184464 254 152 178
4.398253 10.321029 54.980080 254 150 177
4.398253 10.439548 54.980080 254 146 173
4.406413 10.577654 55.082081 254 141 168
4.414603 10.716274 55.184464 254 136 163
4.414603 10.835234 55.184464 254 133 160
4.422824 10.974591 55.287228 254 130 156
4.414603 11.073152 55.184464 254 127 153
4.414603 11.192110 55.184464 254 127 152
4.414603 11.311069 55.184464 254 130 154
4.406413 11.408823 55.082081 254 133 156
4.414603 11.548987 55.184464 254 136 158
4.414603 11.667947 55.184464 254 139 161
4.422824 11.808856 55.287228 254 142 165
4.439358 11.972627 55.493912 254 144 168
4.431076 12.069693 55.390377 254 148 171
4.447671 12.234748 55.597832 254 151 174
4.439358 12.331506 55.493912 254 154 176
4.439358 12.451132 55.493912 254 157 178
4.431076 12.547305 55.390377 254 164 184
4.464392 12.761947 55.806847 254 175 194
4.456016 12.858078 55.702145 254 184 203
4.439358 12.929636 55.493912 254 191 209
4.422824 13.000662 55.287228 254 198 215
5.091976 -8.005521 61.981716 253 170 197
5.102629 -7.888378 62.111385 252 153 181
5.102629 -7.754487 62.111385 251 142 171
5.102629 -7.620595 62.111385 251 145 173
5.102629 -7.486704 62.111385 253 162 188
5.102629 -7.352813 62.111385 253 172 196
5.091976 -7.203851 61.981716 248 158 180
5.091976 -7.070239 61.981716 240 136 158
5.091976 -6.936627 61.981716 240 136 159
5.081368 -6.788843 61.852589 248 160 183
5.091976 -6.669404 61.981716 253 179 203
5.091976 -6.535792 61.981716 254 183 208
5.070804 -6.375560 61.723995 254 184 207
5.070804 -6.242504 61.723995 254 187 210
5.060284 -6.096773 61.595940 254 190 212
5.049807 -5.951645 61.468410 254 191 213
5.028983 -5.795143 61.214931 254 194 215
5.039373 -5.674885 61.341408 254 196 216
5.018635 -5.519845 61.088974 254 196 215
5.008330 -5.377093 60.963535 254 194 213
4.998067 -5.234927 60.838612 254 193 211
4.977666 -5.082948 60.590290 254 192 208
4.957432 -4.932204 60.343987 254 190 206
4.957432 -4.802123 60.343987 254 188 204
4.907558 -4.625039 59.736904 254 182 198
4.868377 -4.460368 59.259964 254 172 189
4.868377 -4.332624 59.259964 254 164 182
4.878113 -4.213289 59.378483 254 159 178
4.858678 -4.069013 59.141918 254 156 176
4.849019 -3.933687 59.024338 255 156 176
4.829815 -3.791375 58.790577 254 155 175
4.810762 -3.650187 58.558662 254 149 171
4.801292 -3.517017 58.443390 254 144 169
4.810762 -3.397721 58.558662 254 141 168
4.782464 -3.252244 58.214199 254 139 168
4.754497 -3.108469 57.873768 254 140 170
4.773105 -2.995390 58.100277 254 140 172
4.736032 -2.847853 57.649014 254 140 171
4.736032 -2.723582 57.649014 254 143 174
4.726854 -2.594272 57.537292 254 146 175
4.717711 -2.465463 57.425999 254 146 173
4.745246 -2.355340 57.761173 254 148 173
4.726854 -2.222179 57.537292 254 157 179
4.754497 -2.110418 57.873768 254 164 186
4.717711 -1.970299 57.425999 254 166 187
4.699531 -1.839392 57.204704 254 167 189
4.699531 -1.716078 57.204704 254 171 194
4.690494 -1.589701 57.094696 254 174 197
4.708603 -1.472287 57.315140 254 176 200
4.690494 -1.343547 57.094696 254 178 200
4.663588 -1.213470 56.767193 254 182 203
4.663588 -1.091099 56.767193 254 187 206
4.681491 -0.481084 56.985111 254 202 209
4.681491 -0.358243 56.985111 254 201 208
4.690494 0.256453 57.094696 254 221 225
4.672522 0.378076 56.875942 254 225 227
4.654688 0.498770 56.658859 254 228 229
4.601994 0.613878 56.017437 254 233 232
4.576091 0.730498 55.702145 254 234 232
4.542005 1.320960 55.287228 252 245 244
4.542005 1.440140 55.287228 254 250 248
4.508423 1.547792 54.878452 254 252 251
4.483560 1.656903 54.575813 254 252 251
4.567522 1.927632 55.597832 254 251 251
4.533563 2.032259 55.184464 254 250 251
4.516772 2.143251 54.980080 254 250 251
4.533563 2.270177 55.184464 254 250 251
4.516772 2.380288 54.980080 254 246 248
4.542005 2.512766 55.287228 254 242 245
4.542005 2.631947 55.287228 254 244 247
4.558984 2.761412 55.493912 254 243 247
4.558984 2.881038 55.493912 254 238 243
4.576091 3.011924 55.702145 254 235 240
4.576091 3.131999 55.702145 254 235 240
4.576091 3.252074 55.702145 254 232 237
4.576091 3.372149 55.702145 254 227 231
4.576091 3.492224 55.702145 254 224 227
4.584693 3.619089 55.806847 253 223 225
4.584693 3.739390 55.806847 254 226 227
4.601994 3.874256 56.017437 254 232 232
4.601994 3.995010 56.017437 255 238 237
4.576091 4.813050 55.702145 254 248 249
4.558984 4.914683 55.493912 254 247 250
4.533563 5.006237 55.184464 254 247 251
4.533563 5.125196 55.184464 254 249 253
4.525151 5.234426 55.082081 254 247 251
4.533563 5.363114 55.184464 255 233 241
4.533563 5.482073 55.184464 254 215 228
4.525151 5.590641 55.082081 254 199 215
4.525151 5.709379 55.082081 254 195 212
4.516772 5.817325 54.980080 254 200 218
4.508423 5.924871 54.878452 254 202 220
4.491817 6.020913 54.676319 254 202 220
4.500104 6.150102 54.777199 254 202 220
4.542005 6.326547 55.287228 254 202 219
4.533563 6.433746 55.184464 254 202 218
4.567522 6.601789 55.597832 254 201 218
4.690494 7.517991 57.094696 254 192 211
4.663588 7.597238 56.767193 254 187 207
4.628191 7.661016 56.336323 254 182 204
4.619425 7.767719 56.229626 254 177 201
4.610693 7.874018 56.123333 254 171 196
4.584693 7.949916 55.806847 254 164 191
4.576091 8.055076 55.702145 254 164 193
4.567522 8.159842 55.597832 254 167 197
4.558984 8.264215 55.493912 254 163 194
4.567522 8.399542 55.597832 254 154 189
4.567522 8.519392 55.597832 254 147 185
4.550479 8.607006 55.390377 254 140 180
4.542005 8.710159 55.287228 254 133 174
4.533563 8.812928 55.184464 254 126 169
4.516772 8.898807 54.980080 254 120 164
4.533563 9.050847 55.184464 254 115 159
4.533563 9.169806 55.184464 254 115 156
4.525151 9.271531 55.082081 254 113 152
4.508423 9.355556 54.878452 254 106 141
4.508423 9.473855 54.878452 254 97 129
4.508423 9.592155 54.878452 254 101 130
4.508423 9.710454 54.878452 254 121 148
4.508423 9.828753 54.878452 254 141 167
4.516772 9.965473 54.980080 254 150 176
4.525151 10.102700 55.082081 254 152 179
4.516772 10.202510 54.980080 255 155 182
4.491817 10.264007 54.676319 254 159 186
4.491817 10.381870 54.676319 254 159 185
4.508423 10.538549 54.878452 254 153 179
4.525151 10.696392 55.082081 254 146 172
4.525151 10.815131 55.082081 254 142 168
4.533563 10.954192 55.184464 254 137 163
4.533563 11.073152 55.184464 254 130 156
4.533563 11.192110 55.184464 254 127 153
4.533563 11.311069 55.184464 254 126 151
4.525151 11.408823 55.082081 254 126 152
4.542005 11.570495 55.287228 254 130 156
4.542005 11.689675 55.287228 254 135 160
4.542005 11.808856 55.287228 254 138 164
4.567522 11.995048 55.597832 254 140 166
4.567522 12.114898 55.597832 254 141 167
4.576091 12.257703 55.702145 254 143 169
4.550479 12.308499 55.390377 254 147 172
4.558984 12.451132 55.493912 254 151 175
4.550479 12.547305 55.390377 254 156 179
4.601994 12.810104 56.017437 255 165 187
4.593327 12.906507 55.911945 254 173 195
4.558984 12.929636 55.493912 254 179 201
4.525151 12.952422 55.082081 254 187 207
5.225588 -8.005521 61.981716 254 193 219
5.225588 -7.871909 61.981716 254 180 207
5.236520 -7.754487 62.111385 251 162 190
5.225588 -7.604686 61.981716 251 154 182
5.225588 -7.471074 61.981716 253 167 194
5.225588 -7.337462 61.981716 254 185 211
5.225588 -7.203851 61.981716 250 180 205
5.225588 -7.070239 61.981716 240 148 173
5.225588 -6.936627 61.981716 232 126 151
5.214701 -6.788843 61.852589 239 142 168
5.236520 -6.683357 62.111385 251 173 199
5.225588 -6.535792 61.981716 254 185 211
5.203860 -6.375560 61.723995 254 184 210
5.203860 -6.242504 61.723995 255 183 208
5.193064 -6.096773 61.595940 254 185 210
5.171605 -5.939348 61.341408 255 189 213
5.160942 -5.795143 61.214931 254 193 217
5.171605 -5.674885 61.341408 254 196 219
5.150322 -5.519845 61.088974 254 199 220
5.139747 -5.377093 60.963535 254 198 219
5.129214 -5.234927 60.838612 254 196 215
5.108279 -5.082948 60.590290 254 194 212
5.097875 -4.942250 60.466888 254 194 210
5.108279 -4.821723 60.590290 254 194 210
5.077194 -4.662565 60.221588 254 192 207
5.056680 -4.514433 59.978268 254 182 198
5.056680 -4.385140 59.978268 254 173 190
5.056680 -4.255847 59.978268 254 166 185
5.036331 -4.109949 59.736904 254 160 180
4.996121 -3.949390 59.259964 254 157 177
4.976256 -3.806450 59.024338 254 156 177
4.956548 -3.664643 58.790577 254 151 173
4.956548 -3.537910 58.790577 254 145 169
4.966382 -3.417945 58.907227 254 143 169
4.936996 -3.271488 58.558662 254 143 170
4.898350 -3.120635 58.100277 254 143 173
4.907954 -3.001264 58.214199 254 143 174
4.869760 -2.853394 57.761173 254 144 175
4.869760 -2.728880 57.761173 254 146 176
4.879253 -2.359931 57.873768 254 155 180
4.879253 -2.235174 57.873768 254 160 184
4.888783 -2.114540 57.986801 254 165 188
4.850885 -1.974117 57.537292 254 166 188
4.832156 -1.842943 57.315140 254 168 191
4.860304 -1.729407 57.649014 254 171 195
4.841502 -1.598926 57.425999 254 174 200
4.850885 -1.477993 57.537292 255 177 203
4.822845 -1.346136 57.204704 254 180 204
4.776825 -1.211154 56.658859 255 184 207
4.804331 -0.481084 56.985111 254 197 204
4.804331 -0.358243 56.985111 254 194 202
4.813570 0.256453 57.094696 254 218 224
4.795128 0.378076 56.875942 254 222 226
4.776825 0.498770 56.658859 254 226 229
4.678610 1.206272 55.493912 253 237 237
4.678610 1.325898 55.493912 254 240 240
4.678610 1.445524 55.493912 254 243 242
4.652522 1.556423 55.184464 255 245 244
4.722748 1.821425 56.017437 254 245 246
4.740638 1.949537 56.229626 254 244 246
4.696167 2.051324 55.702145 254 244 246
4.704994 2.175480 55.806847 254 243 246
4.704994 2.295781 55.806847 254 242 245
4.687372 2.407033 55.597832 254 238 243
4.678610 2.522160 55.493912 254 234 240
4.669882 2.636857 55.390377 254 234 241
4.687372 2.766583 55.597832 254 234 242
4.687372 2.886433 55.597832 254 231 240
4.704994 3.017586 55.806847 254 229 238
4.704994 3.137886 55.806847 254 230 239
4.696167 3.252074 55.702145 255 228 237
4.696167 3.372149 55.702145 254 220 229
4.687372 3.485684 55.597832 254 214 221
4.696167 3.612299 55.702145 254 212 219
4.704994 3.739390 55.806847 254 214 219
4.731676 3.881579 56.123333 254 217 222
4.740638 4.010143 56.229626 254 221 224
4.722748 4.115765 56.017437 254 225 227
4.704994 4.822097 55.806847 254 242 244
4.678610 4.914683 55.493912 254 240 245
4.652522 5.006237 55.184464 254 241 248
4.652522 5.125196 55.184464 254 246 253
4.643890 5.234426 55.082081 254 248 254
4.643890 5.353164 55.082081 254 241 249
4.643890 5.471902 55.082081 254 217 230
4.643890 5.590641 55.082081 254 188 206
4.635290 5.698806 54.980080 254 182 201
4.635290 5.817325 54.980080 255 193 213
4.626722 5.924871 54.878452 254 197 218
4.601207 6.009845 54.575813 254 195 217
4.618186 6.150102 54.777199 254 194 216
4.643890 6.303071 55.082081 254 192 214
4.643890 6.421810 55.082081 254 191 211
4.661186 6.564908 55.287228 254 190 210
4.643890 6.659286 55.082081 254 190 210
4.643890 6.778025 55.082081 254 189 210
4.696167 7.334626 55.702145 254 188 208
4.652522 7.504378 55.184464 254 180 201
4.652522 7.861256 55.184464 254 166 192
4.661186 7.995075 55.287228 254 165 192
4.661186 8.114256 55.287228 254 166 194
4.643890 8.202886 55.082081 254 162 192
4.643890 8.321624 55.082081 254 155 188
4.635290 8.424732 54.980080 254 149 186
4.609681 8.496051 54.676319 254 143 182
4.635290 8.661769 54.980080 254 136 178
4.643890 8.796577 55.082081 254 129 172
4.601207 8.833374 54.575813 254 121 165
4.643890 9.034055 55.082081 254 113 156
4.643890 9.152793 55.082081 254 106 148
4.618186 9.220213 54.777199 254 100 139
4.601207 9.303963 54.575813 254 93 129
4.592764 9.404322 54.475674 254 87 119
4.601207 9.539256 54.575813 254 94 124
4.609681 9.674687 54.676319 254 118 146
4.609681 9.792551 54.676319 254 139 167
4.609681 9.910416 54.676319 254 145 173
4.618186 10.046782 54.777199 254 145 174
4.618186 10.164863 54.777199 254 151 179
4.584353 10.207611 54.375900 254 163 190
4.584353 10.324827 54.375900 254 170 197
4.626722 10.538549 54.878452 254 169 195
4.643890 10.696392 55.082081 254 167 193
4.652522 10.835234 55.184464 255 166 191
4.661186 10.974591 55.287228 254 158 183
4.661186 11.093772 55.287228 254 146 171
4.661186 11.212953 55.287228 254 135 161
4.652522 11.311069 55.184464 254 125 152
4.643890 11.408823 55.082081 254 120 147
4.661186 11.570495 55.287228 254 125 153
4.669882 11.711484 55.390377 254 132 160
4.669882 11.830887 55.390377 254 134 163
4.678610 11.972627 55.493912 254 135 164
4.678610 12.092254 55.493912 254 135 163
4.687372 12.234748 55.597832 254 137 164
4.652522 12.262742 55.184464 254 142 168
4.696167 12.738003 55.702145 254 156 181
4.704994 12.882247 55.806847 254 162 187
4.669882 12.905514 55.390377 254 169 193
4.626722 12.904539 54.878452 254 175 198
4.643890 13.664852 55.082081 254 200 210
5.348035 -7.988843 61.852589 254 207 230
5.348035 -7.855509 61.852589 254 202 227
5.359200 -7.738297 61.981716 254 188 216
5.359200 -7.604686 61.981716 254 176 204
5.359200 -7.471074 61.981716 254 179 206
5.359200 -7.337462 61.981716 254 195 222
5.359200 -7.203851 61.981716 253 197 225
5.359200 -7.070239 61.981716 243 166 194
5.359200 -6.936627 61.981716 231 128 156
5.336916 -6.774729 61.723995 234 128 157
5.359200 -6.669404 61.981716 247 159 189
5.348035 -6.522176 61.852589 254 182 212
5.325844 -6.362333 61.595940 254 183 213
5.325844 -6.229553 61.595940 254 177 205
5.314817 -6.084150 61.468410 254 177 205
5.303836 -5.939348 61.341408 254 183 211
5.292900 -5.795143 61.214931 254 188 216
5.292900 -5.663185 61.214931 254 192 218
5.282010 -5.519845 61.088974 254 197 221
5.271163 -5.377093 60.963535 254 197 220
5.271163 -5.245677 60.963535 254 196 216
5.249605 -5.093343 60.714195 254 194 213
5.238891 -4.952336 60.590290 254 194 210
5.249605 -4.831584 60.714195 254 193 209
5.238891 -4.691111 60.590290 254 192 207
5.228221 -4.551211 60.466888 254 186 202
5.228221 -4.420865 60.466888 254 180 197
5.217595 -4.281798 60.343987 255 174 193
5.207011 -4.143295 60.221588 254 167 187
5.175518 -3.989203 59.857342 254 162 183
5.144402 -3.836963 59.497478 254 159 181
5.123866 -3.693901 59.259964 255 155 177
5.113658 -3.559053 59.141918 254 150 173
5.113658 -3.431563 59.141918 254 147 172
5.083281 -3.284445 58.790577 254 145 173
5.053261 -3.139064 58.443390 254 145 174
5.043333 -3.007160 58.328571 254 145 175
5.023594 -2.870146 58.100277 254 147 178
5.004009 -2.110418 57.873768 254 167 189
4.965293 -1.970299 57.425999 254 169 191
5.013783 -1.614540 57.986801 254 175 203
5.004009 -1.486637 57.873768 254 177 205
4.936647 -1.343547 57.094696 254 178 204
4.927172 -0.358243 56.985111 254 187 197
4.946159 0.256947 57.204704 254 210 219
4.917733 0.378076 56.875942 254 212 221
4.908330 0.499724 56.767193 255 216 223
4.798237 1.086646 55.493912 254 225 228
4.816241 1.210798 55.702145 254 228 231
4.807222 1.328381 55.597832 254 230 232
4.807222 1.448231 55.597832 254 232 234
4.798237 1.565150 55.493912 254 233 236
4.825294 1.694277 55.806847 254 234 237
4.889632 1.838772 56.550938 254 235 239
4.898963 1.964419 56.658859 254 235 239
4.880336 2.078623 56.443428 254 234 239
4.898963 2.208694 56.658859 254 232 238
4.889632 2.326391 56.550938 254 230 237
4.871075 2.439005 56.336323 254 227 234
4.825294 2.536382 55.806847 254 225 233
4.825294 2.656683 55.806847 254 223 232
4.834382 2.782214 55.911945 254 222 232
4.816241 2.891849 55.702145 254 220 232
4.843503 3.028973 56.017437 254 220 233
4.843503 3.149727 56.017437 254 222 235
4.825294 3.258187 55.806847 254 222 235
4.816241 3.372149 55.702145 254 214 225
4.807222 3.485684 55.597832 254 204 215
4.816241 3.612299 55.702145 254 201 212
4.852659 3.760596 56.123333 254 202 212
4.898963 3.918617 56.658859 254 205 213
4.880336 4.025391 56.443428 254 207 215
4.880336 4.147064 56.443428 254 210 217
4.843503 4.840293 56.017437 254 227 234
4.807222 4.923887 55.597832 253 224 233
4.780366 5.015560 55.287228 253 229 240
4.771481 5.125196 55.184464 254 239 250
4.771481 5.244155 55.184464 254 243 254
4.771481 5.363114 55.184464 254 238 250
4.762628 5.471902 55.082081 254 214 229
4.762628 5.590641 55.082081 254 183 201
4.753808 5.698806 54.980080 254 180 199
4.745021 5.806572 54.878452 254 191 212
4.736267 5.913940 54.777199 254 193 215
4.718854 6.009845 54.575813 254 190 213
4.727544 6.138776 54.676319 254 187 210
4.745021 6.279770 54.878452 254 185 208
4.745021 6.398069 54.878452 254 184 206
4.753808 6.528436 54.980080 254 182 204
4.736267 6.622427 54.777199 254 181 203
4.736267 6.740508 54.777199 254 182 204
4.736267 6.858590 54.777199 254 184 206
4.753808 7.002510 54.980080 254 185 208
4.753808 7.121028 54.980080 254 186 209
4.753808 7.239547 54.980080 255 184 206
4.753808 7.358066 54.980080 254 181 203
4.736267 7.448995 54.777199 254 178 201
4.753808 7.595103 54.980080 254 175 199
4.762628 7.727932 55.082081 254 172 197
4.753808 7.832140 54.980080 254 169 195
4.762628 7.965409 55.082081 254 167 194
4.753808 8.069177 54.980080 255 165 193
4.736267 8.157482 54.777199 254 161 191
4.718854 8.245139 54.575813 254 156 189
4.701569 8.332153 54.375900 254 152 187
4.642056 8.342415 53.687599 254 147 184
4.675877 8.519773 54.078766 254 142 180
4.736267 8.747889 54.777199 254 134 174
4.675877 8.752924 54.078766 254 125 166
4.753808 9.017325 54.980080 254 115 156
4.745021 9.118957 54.878452 254 104 144
4.710196 9.169459 54.475674 254 95 133
4.692974 9.252935 54.276493 254 88 123
4.684410 9.352839 54.177448 254 84 117
4.692974 9.486938 54.276493 254 92 123
4.701569 9.621531 54.375900 254 116 145
4.701569 9.738747 54.375900 254 137 167
4.701569 9.855963 54.375900 254 143 172
4.710196 9.991478 54.475674 254 139 169
4.718854 10.127492 54.575813 254 143 172
4.675877 10.151832 54.078766 254 156 183
4.684410 10.287145 54.177448 254 167 193
4.745021 10.538549 54.878452 254 171 196
4.771481 10.716274 55.184464 254 176 201
4.780366 10.855411 55.287228 254 181 205
4.798237 11.015617 55.493912 254 175 198
4.789285 11.114470 55.390377 254 165 188
4.789285 11.233872 55.390377 254 157 181
4.780366 11.332133 55.287228 254 141 167
4.771481 11.430029 55.184464 254 125 152
4.789285 11.592081 55.390377 254 124 153
4.798237 11.733375 55.493912 254 129 159
4.780366 11.808856 55.287228 254 131 161
4.780366 11.928037 55.287228 254 133 164
4.771481 12.024824 55.184464 254 135 164
4.771481 12.143784 55.184464 255 136 164
4.736267 12.172242 54.777199 254 139 166
4.753808 12.572881 54.980080 254 149 176
4.771481 12.857538 55.184464 254 159 186
4.710196 12.809827 54.475674 254 165 190
4.736267 13.471135 54.777199 254 187 202
4.753808 13.639547 54.980080 254 190 204
5.492811 -8.005521 61.981716 254 216 236
5.492811 -7.871909 61.981716 254 215 237
5.492811 -7.738297 61.981716 254 205 230
5.492811 -7.604686 61.981716 254 195 222
5.492811 -7.471074 61.981716 254 198 224
5.492811 -7.337462 61.981716 254 208 234
5.481368 -7.188843 61.852589 254 207 236
5.492811 -7.070239 61.981716 249 181 214
5.492811 -6.936627 61.981716 238 141 177
5.469972 -6.774729 61.723995 236 124 161
5.492811 -6.669404 61.981716 246 145 183
5.481368 -6.522176 61.852589 253 173 210
5.458624 -6.362333 61.595940 254 178 214
5.458624 -6.229553 61.595940 253 165 201
5.447322 -6.084150 61.468410 251 158 192
5.436068 -5.939348 61.341408 251 167 200
5.436068 -5.807117 61.341408 254 180 211
5.436068 -5.674885 61.341408 254 187 215
5.424859 -5.531226 61.214931 254 190 217
5.413697 -5.388157 61.088974 254 191 215
5.424859 -5.267308 61.214931 254 191 212
5.402580 -5.114260 60.963535 254 190 210
5.391510 -4.972632 60.838612 254 190 207
5.402580 -4.851426 60.963535 254 190 206
5.391510 -4.710337 60.838612 254 188 204
5.380484 -4.569825 60.714195 254 185 202
5.369503 -4.429887 60.590290 254 183 200
5.358568 -4.290518 60.466888 254 178 198
5.358568 -4.160172 60.466888 254 173 194
5.336829 -4.013478 60.221588 254 169 190
5.315266 -3.867969 59.978268 254 165 187
5.283246 -3.716154 59.616951 254 160 182
5.272659 -3.580450 59.497478 254 154 177
5.272659 -3.452193 59.497478 254 148 173
5.230729 -3.297504 59.024338 254 146 173
5.210013 -3.157712 58.790577 254 145 174
5.199717 -3.024989 58.674393 254 145 175
5.189461 -2.892790 58.558662 254 148 177
5.158935 -2.750283 58.214199 254 151 179
5.118787 -2.106312 57.761173 254 164 186
5.079260 -1.966495 57.315140 254 167 190
5.059724 -0.482009 57.094696 254 183 198
5.059724 -0.358932 57.094696 254 181 195
5.040339 -0.234951 56.875942 254 175 189
5.069473 0.256947 57.204704 254 195 209
5.050013 0.378801 56.985111 254 199 211
5.040339 0.500681 56.875942 254 202 212
4.917863 1.086646 55.493912 254 212 219
4.945595 1.213074 55.806847 254 216 221
4.936316 1.330873 55.702145 254 217 222
4.945595 1.453676 55.806847 254 218 224
4.936316 1.571023 55.702145 254 219 225
4.973642 1.703886 56.123333 254 220 226
5.030701 1.845804 56.767193 254 222 229
5.040339 1.971945 56.875942 254 223 230
5.040339 2.094551 56.875942 254 222 229
5.040339 2.217156 56.875942 254 220 229
5.030701 2.335288 56.767193 255 219 228
5.040339 2.462367 56.875942 254 217 227
5.002009 2.565315 56.443428 254 216 225
5.021101 2.697243 56.658859 254 213 224
5.021101 2.819381 56.658859 254 211 223
4.992517 2.924773 56.336323 254 210 224
5.002009 3.052006 56.443428 254 211 225
5.002009 3.173680 56.443428 254 213 228
4.983062 3.282870 56.229626 254 213 228
4.954909 3.384850 55.911945 254 206 220
4.936316 3.492224 55.702145 254 196 210
4.954909 3.625905 55.911945 254 191 205
5.011537 3.789248 56.550938 254 191 205
5.050013 3.941181 56.985111 254 193 206
5.030701 4.048481 56.767193 254 194 207
5.040339 4.178842 56.875942 254 195 208
5.040339 4.301447 56.875942 254 197 210
4.973642 4.607477 56.123333 254 209 217
4.992517 4.867847 56.336323 254 210 221
4.945595 4.942398 55.806847 253 205 217
4.899547 5.134740 55.287228 254 230 243
4.899547 5.253921 55.287228 254 237 251
4.890440 5.363114 55.184464 254 233 248
4.890440 5.482073 55.184464 254 209 225
4.890440 5.601032 55.184464 254 182 200
4.872327 5.698806 54.980080 254 183 202
4.863321 5.806572 54.878452 254 193 214
4.854348 5.913940 54.777199 254 190 213
4.827627 5.998817 54.475674 254 184 207
4.836501 6.127491 54.575813 255 180 203
4.854348 6.268184 54.777199 254 178 202
4.854348 6.386265 54.777199 254 178 201
4.854348 6.504346 54.777199 254 176 199
4.836501 6.598080 54.575813 254 174 198
4.836501 6.715727 54.575813 254 176 200
4.827627 6.820836 54.475674 254 180 204
4.836501 6.951021 54.575813 254 180 204
4.836501 7.068668 54.575813 254 176 201
4.854348 7.212833 54.777199 254 174 198
4.854348 7.330914 54.777199 254 175 198
4.845408 7.435277 54.676319 254 173 197
4.863321 7.581064 54.878452 254 171 196
4.863321 7.699363 54.878452 254 169 195
4.863321 7.817663 54.878452 254 166 192
4.881367 7.965409 55.082081 254 164 191
4.872327 8.069177 54.980080 254 162 190
4.854348 8.157482 54.777199 254 159 188
4.827627 8.230010 54.475674 254 155 186
4.809976 8.316920 54.276493 254 152 185
4.766407 8.357528 53.784859 255 148 183
4.775057 8.488849 53.882473 254 144 180
4.818785 8.683802 54.375900 254 138 174
4.783740 8.737010 53.980442 254 129 167
4.854348 8.984051 54.777199 255 118 156
4.836501 9.068668 54.575813 254 104 142
4.809976 9.135933 54.276493 255 93 129
4.792453 9.219227 54.078766 254 86 121
4.792453 9.335802 54.078766 254 83 115
4.801198 9.469626 54.177448 254 89 120
4.801198 9.586415 54.177448 254 109 140
4.801198 9.703203 54.177448 254 130 161
4.801198 9.819992 54.177448 254 139 168
4.809976 9.954946 54.276493 254 136 166
4.836501 10.127492 54.575813 254 136 164
4.783740 10.133373 53.980442 254 142 169
4.792453 10.268407 54.078766 254 149 175
4.872327 10.558065 54.980080 255 154 178
4.899547 10.736230 55.287228 254 159 183
4.936316 10.936877 55.702145 254 164 187
4.945595 11.077736 55.806847 254 163 185
4.927073 11.156096 55.597832 254 168 190
4.936316 11.297102 55.702145 254 179 202
4.917863 11.374496 55.493912 254 172 197
4.890440 11.430029 55.184464 255 148 175
4.917863 11.613749 55.493912 254 131 159
4.917863 11.733375 55.493912 254 123 152
4.890440 11.786906 55.184464 254 123 154
4.890440 11.905865 55.184464 254 128 159
4.881367 12.002515 55.082081 254 133 163
4.872327 12.098806 54.980080 254 136 165
4.827627 12.105240 54.475674 254 137 165
4.863321 12.786240 54.878452 254 152 180
4.801198 12.739699 54.177448 254 158 185
4.854348 13.589217 54.777199 254 179 197
4.872327 13.758065 54.980080 254 183 199
4.863321 13.850934 54.878452 254 187 204
4.836501 13.892198 54.575813 254 191 208
4.801198 13.907583 54.177448 254 194 210
5.614701 -7.988843 61.852589 254 223 240
5.626423 -7.871909 61.981716 254 220 239
5.626423 -7.738297 61.981716 254 211 232
5.626423 -7.604686 61.981716 254 206 230
5.626423 -7.471074 61.981716 254 216 239
5.626423 -7.337462 61.981716 254 223 245
5.614701 -7.188843 61.852589 254 211 240
5.626423 -7.070239 61.981716 253 189 226
5.626423 -6.936627 61.981716 247 162 204
5.603028 -6.774729 61.723995 244 139 183
5.626423 -6.669404 61.981716 248 142 188
5.614701 -6.522176 61.852589 253 162 209
5.591404 -6.362333 61.595940 254 172 216
5.591404 -6.229553 61.595940 249 155 198
5.579827 -6.084150 61.468410 242 135 176
5.579827 -5.951645 61.468410 244 144 182
5.579827 -5.819140 61.468410 251 170 205
5.579827 -5.686635 61.468410 254 183 216
5.568299 -5.542654 61.341408 254 184 215
5.556818 -5.399267 61.214931 254 184 211
5.568299 -5.278191 61.341408 255 184 208
5.545384 -5.124783 61.088974 254 184 206
5.533997 -4.982843 60.963535 255 186 206
5.556818 -4.871432 61.214931 254 186 205
5.533997 -4.720009 60.963535 254 184 202
5.545384 -4.598034 61.088974 255 183 201
5.511364 -4.438946 60.714195 254 183 202
5.500115 -4.299274 60.590290 254 180 201
5.511364 -4.177187 60.714195 254 177 198
5.500115 -4.038050 60.590290 254 174 196
5.488914 -3.899480 60.466888 255 171 194
5.488914 -3.769134 60.466888 254 165 189
5.477757 -3.631391 60.343987 254 157 181
5.466646 -3.494208 60.221588 254 151 177
5.411760 -3.330611 59.616951 254 148 175
5.390113 -3.189289 59.378483 255 145 174
5.390113 -3.061289 59.378483 254 146 175
5.368639 -2.921603 59.141918 254 149 177
5.253522 -2.110418 57.873768 254 161 181
5.212875 -1.970299 57.425999 254 164 184
5.172853 -0.358243 56.985111 254 176 194
5.153072 -0.234502 56.767193 254 171 189
5.192787 0.256947 57.204704 254 182 199
5.172853 0.378801 56.985111 254 185 201
5.162944 0.500681 56.875942 254 186 201
5.153072 0.622095 56.767193 254 188 201
5.104274 0.737416 56.229626 254 189 200
5.075436 1.215359 55.911945 254 202 211
5.075436 1.335886 55.911945 254 202 211
5.094625 1.461920 56.123333 254 203 212
5.085012 1.579916 56.017437 254 204 214
5.143238 1.720144 56.658859 254 205 215
5.162944 1.849340 56.875942 254 206 217
5.172853 1.975730 56.985111 254 207 218
5.172853 2.098571 56.985111 254 208 219
5.172853 2.221412 56.985111 254 209 220
5.172853 2.344252 56.985111 254 209 220
5.172853 2.467093 56.985111 254 208 220
5.153072 2.580029 56.767193 254 208 219
5.162944 2.707577 56.875942 254 205 218
5.162944 2.830183 56.875942 254 203 217
5.153072 2.947142 56.767193 255 203 218
5.143238 3.063655 56.658859 254 203 219
5.143238 3.185793 56.658859 254 203 220
