ply
format ascii 1.0
element vertex 1181
property float x
property float y
property float z
property uchar red
property uchar green
property uchar blue
end_header
-8.999869 16.418835 68.566376 52 47 59
-8.937943 16.452650 68.094589 50 45 55
-8.897131 16.523643 67.783661 49 44 52
-8.856689 16.593990 67.475548 48 43 50
-8.796712 16.626085 67.018608 46 43 47
-8.757176 16.695181 66.717400 45 43 46
-7.743320 -10.720494 59.978268 225 211 227
-7.727708 -10.569848 59.857342 228 213 229
-7.727708 -10.440816 59.857342 228 211 227
-7.727708 -10.311784 59.857342 227 211 227
-7.727708 -10.182751 59.857342 228 212 228
-7.727708 -10.053719 59.857342 228 212 228
-7.727708 -9.924686 59.857342 227 211 225
-7.758995 -9.835313 60.099682 225 210 223
-7.774733 -9.725446 60.221588 224 209 222
-7.790535 -9.615131 60.343987 222 208 219
-7.790535 -9.485050 60.343987 222 208 218
-7.790535 -9.354969 60.343987 224 212 220
-7.790535 -9.224887 60.343987 224 213 222
-7.854392 -9.169353 60.838612 221 211 221
-7.870520 -9.056765 60.963535 222 213 225
-7.886715 -8.943713 61.088974 228 220 232
-7.902976 -8.830194 61.214931 228 221 234
-7.902976 -8.698236 61.214931 223 217 231
-7.902976 -8.566278 61.214931 219 214 229
-7.902976 -8.434319 61.214931 219 214 230
-7.919304 -8.319513 61.341408 219 215 231
-7.935700 -8.204233 61.468410 219 216 233
-7.968697 -8.105290 61.723995 219 216 233
-7.985299 -7.988843 61.852589 218 216 234
-7.985299 -7.855509 61.852589 221 218 235
-7.985299 -7.722176 61.852589 225 222 238
-7.985299 -7.588843 61.852589 226 225 239
-7.985299 -7.455510 61.852589 225 224 236
-7.968697 -7.306953 61.723995 224 224 234
-7.968697 -7.173897 61.723995 228 229 236
-7.968697 -7.040841 61.723995 235 238 242
-7.985299 -6.922176 61.852589 239 242 246
-7.985299 -6.788843 61.852589 229 232 238
-7.985299 -6.655509 61.852589 216 219 227
-7.985299 -6.522176 61.852589 224 226 232
-7.985299 -6.388843 61.852589 243 244 246
-7.985299 -6.255509 61.852589 239 240 240
-8.001969 -6.134957 61.981716 214 214 214
-8.018710 -6.013901 62.111385 194 193 191
-8.035521 -5.892336 62.241596 198 197 192
-8.035521 -5.758164 62.241596 221 219 214
-8.052402 -5.635808 62.372356 221 220 215
-8.052402 -5.501354 62.372356 192 190 186
-8.052402 -5.366900 62.372356 185 183 185
-8.069354 -5.243462 62.503666 207 205 215
-8.069354 -5.108726 62.503666 206 202 222
-8.052402 -4.963539 62.372356 197 191 215
-8.052402 -4.829085 62.372356 214 207 227
-8.069354 -4.704515 62.503666 223 214 230
-8.086378 -4.579419 62.635532 206 192 211
-8.137884 -4.472706 63.034485 202 185 205
-8.172587 -4.355319 63.303288 218 201 214
-8.190050 -3.407360 63.438553 216 201 210
-8.172587 -3.263634 63.303288 228 212 223
-8.172587 -3.127174 63.303288 232 216 228
-8.172587 -2.990713 63.303288 227 211 224
-8.190050 -2.860352 63.438553 223 206 219
-8.207587 -2.729432 63.574394 224 206 219
-8.225201 -2.597950 63.710819 228 210 222
-8.242889 -2.465902 63.847832 230 212 222
-8.260653 -2.333286 63.985435 231 211 220
-8.260653 -2.195355 63.985435 231 210 219
-8.296414 -2.066330 64.262428 231 209 217
-8.332485 -1.936184 64.541832 228 206 215
-8.350639 -1.800969 64.682442 227 203 212
-8.368872 -1.665163 64.823669 226 202 211
-8.442607 -1.538865 65.394806 226 200 210
-8.442607 -1.397895 65.394806 226 199 208
-8.442607 -1.256926 65.394806 226 198 207
-8.442607 -1.115957 65.394806 226 196 206
-8.442607 -0.974988 65.394806 224 192 203
-8.442607 -0.834019 65.394806 217 184 197
-8.442607 -0.693050 65.394806 205 172 187
-8.442607 -0.552080 65.394806 196 165 181
-8.461244 -0.412019 65.539169 200 170 186
-8.461244 -0.270738 65.539169 209 179 196
-8.461244 -0.129458 65.539169 212 183 200
-8.479963 0.011848 65.684166 210 182 198
-8.479963 0.153441 65.684166 207 179 194
-8.536622 0.297006 66.123032 204 177 189
-8.574818 0.441511 66.418884 201 175 184
-8.731078 0.595343 67.629250 198 173 180
-8.751012 0.742821 67.783661 195 170 175
-8.771037 0.890974 67.938766 190 166 169
-8.791155 1.039806 68.094589 185 161 164
-8.831667 1.192063 68.408394 180 155 158
-8.831667 1.339529 68.408394 174 150 154
-8.852063 1.490428 68.566376 169 145 151
-8.852063 1.638234 68.566376 162 141 148
-8.831667 1.781925 68.408394 155 137 146
-8.831667 1.929390 68.408394 151 135 146
-8.831667 2.076856 68.408394 151 138 150
-8.852063 2.229458 68.566376 157 145 157
-8.893140 2.388296 68.884552 162 152 164
-8.934600 2.548614 69.205696 166 155 167
-8.976448 2.710434 69.529839 168 158 169
-9.061332 2.887365 70.187332 170 160 170
-9.126056 3.060370 70.688675 170 161 169
-9.147836 3.220419 70.857384 167 158 166
-9.147836 3.373163 70.857384 162 154 163
-9.039961 3.484329 70.021797 154 149 159
-8.997519 3.618205 69.693054 143 143 154
-8.976448 3.759615 69.529839 135 139 150
-8.913822 3.882222 69.044746 128 134 146
-8.893140 4.021707 68.884552 108 117 127
-8.872554 4.160545 68.725098 72 85 92
-8.872554 4.308693 68.725098 75 90 94
-8.872554 4.456841 68.725098 148 163 164
-8.872554 4.604990 68.725098 212 223 223
-8.872554 4.753138 68.725098 203 212 211
-8.913822 4.924082 69.044746 180 191 186
-8.955475 5.096625 69.367386 194 205 198
-8.955475 5.246158 69.367386 184 188 185
-9.039961 5.446593 70.021797 117 113 115
-9.147836 5.664333 70.857384 71 63 68
-9.191710 5.844977 71.197220 77 66 76
-9.213806 6.012874 71.368370 91 80 93
-9.236008 6.181580 71.540344 95 82 100
-9.236008 6.335796 71.540344 93 80 103
-9.213806 6.474412 71.368370 91 79 104
-9.213806 6.628258 71.368370 88 77 101
-9.191710 6.765841 71.197220 84 74 98
-9.169721 6.902764 71.026894 81 71 94
-9.169721 7.055874 71.026894 80 70 92
-9.147836 7.191779 70.857384 79 68 90
-9.104379 7.309633 70.520767 77 66 87
-9.061332 7.426372 70.187332 74 62 83
-9.018690 7.542013 69.857040 71 59 79
-8.955475 7.638681 69.367386 67 56 74
-8.934600 7.770060 69.205696 62 53 69
-8.913822 7.900826 69.044746 58 50 64
-8.893140 8.030987 68.884552 56 48 61
-8.893140 8.179479 68.884552 54 47 58
-8.893140 8.327971 68.884552 52 45 56
-8.913822 8.496176 69.044746 51 44 54
-8.913822 8.645013 69.044746 52 44 54
-8.913822 8.793850 69.044746 53 45 54
-8.893140 8.921939 68.884552 57 48 57
-8.913822 9.091524 69.044746 60 50 60
-8.913822 9.240361 69.044746 61 49 60
-8.955475 9.433074 69.367386 58 46 58
-8.997519 9.627595 69.693054 55 44 55
-9.039961 9.823952 70.021797 55 42 53
-9.061332 9.998476 70.187332 55 42 52
-9.061332 10.149776 70.187332 55 42 50
-9.061332 10.301077 70.187332 55 42 48
-9.039961 10.427725 70.021797 53 41 45
-8.997519 10.529003 69.693054 50 39 42
-8.976448 10.654228 69.529839 47 37 40
-8.955475 10.778868 69.367386 44 36 38
-8.934600 10.902926 69.205696 43 36 38
-8.934600 11.052111 69.205696 42 34 38
-8.934600 11.201295 69.205696 41 33 39
-8.913822 11.324082 69.044746 40 31 39
-8.893140 11.446301 68.884552 41 31 40
-8.893140 11.594792 68.884552 41 32 41
-8.893140 11.743284 68.884552 43 33 42
-8.934600 11.947215 69.205696 46 34 44
-9.018690 12.210248 69.857040 48 36 45
-9.147836 12.537841 70.857384 50 37 45
-9.169721 12.720946 71.026894 51 38 45
-9.191710 12.904929 71.197220 52 39 45
-9.169721 13.027166 71.026894 53 39 45
-9.169721 13.180276 71.026894 52 39 45
-9.147836 13.301564 70.857384 52 38 45
-9.147836 13.454309 70.857384 51 38 45
-9.126056 13.574656 70.688675 51 38 46
-9.126056 13.727036 70.688675 51 38 48
-9.126056 13.879417 70.688675 52 40 50
-9.126056 14.031798 70.688675 55 41 52
-9.104379 14.150488 70.520767 58 43 55
-9.082804 14.268615 70.353653 60 45 57
-9.018690 14.318483 69.857040 61 47 59
-8.976448 14.401300 69.529839 63 48 61
-8.934600 14.483346 69.205696 64 50 63
-8.913822 14.598501 69.044746 65 52 64
-8.913822 14.747338 69.044746 65 54 66
-8.913822 14.896175 69.044746 66 56 67
-8.913822 15.045012 69.044746 66 58 70
-8.913822 15.193850 69.044746 71 64 75
-8.913822 15.342688 69.044746 77 70 81
-8.893140 15.455581 68.884552 77 70 82
-8.893140 15.604073 68.884552 74 67 80
-8.872554 15.716101 68.725098 70 63 77
-8.852063 15.827611 68.566376 67 60 73
-8.852063 15.975417 68.566376 62 56 70
-8.872554 16.160545 68.725098 58 53 66
-8.872554 16.308693 68.725098 54 49 61
-8.831667 16.381004 68.408394 50 46 57
-8.771037 16.415001 67.938766 48 44 54
-8.731078 16.486004 67.629250 48 44 52
-8.691482 16.556362 67.322548 47 43 50
-8.613356 16.551361 66.717400 45 42 48
-8.594044 16.657747 66.567810 43 42 46
-8.594044 16.801245 66.567810 41 40 43
-7.598676 -10.827912 59.857342 220 208 221
-7.598676 -10.698880 59.857342 226 212 226
-7.598676 -10.569848 59.857342 228 213 228
-7.598676 -10.440816 59.857342 228 212 227
-7.598676 -10.311784 59.857342 228 211 227
-7.598676 -10.182751 59.857342 230 213 229
-7.598676 -10.053719 59.857342 230 213 229
-7.598676 -9.924686 59.857342 226 210 225
-7.614027 -9.815443 59.978268 223 207 222
-7.644916 -9.725446 60.221588 222 207 222
-7.660454 -9.615131 60.343987 221 207 220
-7.660454 -9.485050 60.343987 221 207 219
-7.676056 -9.374022 60.466888 224 212 223
-7.676056 -9.243675 60.466888 224 213 224
-7.723245 -9.169353 60.838612 219 208 220
-7.739103 -9.056765 60.963535 220 210 223
-7.755027 -8.943713 61.088974 226 217 231
-7.755027 -8.812026 61.088974 227 220 234
-7.771017 -8.698236 61.214931 223 216 231
-7.755027 -8.548652 61.088974 219 214 229
-7.755027 -8.416965 61.088974 219 214 230
-7.755027 -8.285276 61.088974 219 216 232
-7.771017 -8.170401 61.214931 218 217 233
-7.819385 -8.088474 61.595940 217 216 233
-7.851965 -7.988843 61.852589 217 215 233
-7.851965 -7.855509 61.852589 221 219 236
-7.851965 -7.722176 61.852589 226 225 240
-7.851965 -7.588843 61.852589 226 225 239
-7.851965 -7.455510 61.852589 222 222 234
-7.851965 -7.322176 61.852589 225 226 235
-7.851965 -7.188843 61.852589 236 237 244
-7.851965 -7.055510 61.852589 241 242 247
-7.851965 -6.922176 61.852589 235 238 241
-7.851965 -6.788843 61.852589 224 227 233
-7.851965 -6.655509 61.852589 218 220 227
-7.835641 -6.508616 61.723995 228 229 235
-7.851965 -6.388843 61.852589 244 243 246
-7.851965 -6.255509 61.852589 243 243 244
-7.851965 -6.122176 61.852589 221 222 222
-7.884819 -6.013901 62.111385 198 199 196
-7.884819 -5.880010 62.111385 206 204 201
-7.901349 -5.758164 62.241596 233 230 227
-7.901349 -5.623993 62.241596 233 230 226
-7.917948 -5.501354 62.372356 210 207 205
-7.934618 -5.378199 62.503666 202 200 203
-7.934618 -5.243462 62.503666 211 208 219
-7.951357 -5.119503 62.635532 207 204 222
-7.934618 -4.973989 62.503666 201 195 217
-7.934618 -4.839252 62.503666 216 209 228
-7.951357 -4.714440 62.635532 233 225 239
-8.002003 -4.608587 63.034485 224 211 228
-8.019029 -4.482223 63.168602 213 197 215
-8.036126 -4.355319 63.303288 221 204 217
-8.070542 -3.551701 63.574394 225 210 218
-8.053298 -3.407360 63.438553 221 205 215
-8.053298 -3.270608 63.438553 227 211 222
-8.036126 -3.127174 63.303288 229 213 225
-8.036126 -2.990713 63.303288 225 209 221
-8.053298 -2.860352 63.438553 223 205 218
-8.070542 -2.729432 63.574394 224 207 219
-8.070542 -2.592386 63.574394 229 211 222
-8.105254 -2.465902 63.847832 230 212 222
-8.122723 -2.333286 63.985435 230 211 220
-8.122723 -2.195355 63.985435 231 211 218
-8.140266 -2.061867 64.123634 232 210 217
-8.175582 -1.931984 64.401825 231 208 215
-8.193356 -1.797053 64.541832 230 206 212
-8.229134 -1.665163 64.823669 229 204 211
-8.247141 -1.528763 64.965523 229 202 209
-8.247141 -1.388719 64.965523 229 200 209
-8.283392 -1.254164 65.251083 229 199 208
-8.283392 -1.113504 65.251083 229 198 208
-8.283392 -0.972845 65.251083 227 194 207
-8.283392 -0.832186 65.251083 221 187 202
-8.283392 -0.691526 65.251083 210 175 192
-8.301638 -0.552080 65.394806 200 167 184
-8.301638 -0.411111 65.394806 200 168 186
-8.301638 -0.270142 65.394806 208 178 195
-8.319963 -0.129458 65.539169 213 183 200
-8.319963 0.011822 65.539169 211 182 198
-8.338370 0.153441 65.684166 207 179 193
-8.394083 0.297006 66.123032 203 176 188
-8.412820 0.440526 66.270630 201 174 184
-8.527021 0.591302 67.170235 200 174 181
-8.585293 0.741129 67.629250 198 172 178
-8.604894 0.888939 67.783661 193 167 172
-8.624584 1.037427 67.938766 187 160 166
-8.684201 1.192063 68.408394 183 155 162
-8.704257 1.342622 68.566376 178 150 158
-8.724406 1.493878 68.725098 172 146 155
-8.724406 1.642027 68.725098 166 141 152
-8.724406 1.790175 68.725098 159 137 148
-8.704257 1.933846 68.566376 153 134 145
-8.704257 2.081652 68.566376 151 135 146
-8.724406 2.234619 68.725098 154 140 152
-8.744648 2.388296 68.884552 159 147 159
-8.805943 2.554569 69.367386 163 152 164
-8.847285 2.716797 69.693054 166 155 166
-8.910031 2.887365 70.187332 167 158 167
-8.973675 3.060370 70.688675 167 158 167
-8.995091 3.220419 70.857384 164 155 165
-8.995091 3.373163 70.857384 159 152 162
-8.910031 3.492566 70.187332 151 149 159
-8.889017 3.635272 70.021797 142 145 155
-8.847285 3.768440 69.693054 134 141 152
-8.805943 3.900363 69.367386 124 136 147
-8.764984 4.031059 69.044746 97 113 121
-8.744648 4.170198 68.884552 55 75 80
-8.724406 4.308693 68.725098 66 89 91
-8.724406 4.456841 68.725098 152 174 174
-8.724406 4.604990 68.725098 221 236 236
-8.724406 4.753138 68.725098 222 235 235
-8.764984 4.924082 69.044746 193 209 207
-8.785416 5.084744 69.205696 167 184 181
-8.805943 5.246158 69.367386 133 143 144
-8.868102 5.433778 69.857040 84 86 91
-9.016611 5.677884 71.026894 68 64 73
-9.059960 5.859027 71.368370 85 77 91
-9.081791 6.027362 71.540344 98 87 105
-9.103728 6.196511 71.713142 98 86 107
-9.103728 6.351100 71.713142 96 83 107
-9.081791 6.490013 71.540344 93 81 106
-9.059960 6.628258 71.368370 90 78 103
-9.059960 6.782104 71.368370 86 75 98
-9.016611 6.902764 71.026894 82 72 92
-9.016611 7.055874 71.026894 77 67 86
-8.973675 7.174656 70.688675 74 64 81
-8.931146 7.292312 70.353653 72 61 78
-8.889017 7.408857 70.021797 69 58 74
-8.847285 7.524309 69.693054 67 55 72
-8.805943 7.638681 69.367386 64 53 69
-8.785416 7.770060 69.205696 61 51 65
-8.744648 7.882495 68.884552 58 48 62
-8.744648 8.030987 68.884552 55 46 59
-8.744648 8.179479 68.884552 53 44 56
-8.744648 8.327971 68.884552 52 42 54
-8.764984 8.496176 69.044746 51 42 53
-8.764984 8.645013 69.044746 52 43 52
-8.764984 8.793850 69.044746 53 44 52
-8.744648 8.921939 68.884552 55 45 52
-8.744648 9.070431 68.884552 57 47 54
-8.744648 9.218923 68.884552 57 45 53
-8.785416 9.411085 69.205696 53 41 50
-8.805943 9.582606 69.367386 50 38 47
-8.847285 9.777830 69.693054 50 38 46
-8.889017 9.974895 70.021797 51 38 45
-8.910031 10.149776 70.187332 51 38 44
-8.910031 10.301077 70.187332 52 38 43
-8.910031 10.452377 70.187332 51 38 42
-8.889017 10.578669 70.021797 49 38 40
-8.847285 10.679238 69.693054 47 37 39
-8.847285 10.829473 69.693054 45 37 39
-8.805943 10.928401 69.367386 44 36 39
-8.826565 11.103877 69.529839 42 34 39
-8.826565 11.253760 69.529839 41 32 39
-8.826565 11.403643 69.529839 40 31 39
-8.785416 11.499663 69.205696 40 31 40
-8.785416 11.648848 69.205696 41 32 41
-8.868102 11.909072 69.857040 43 33 42
-8.868102 12.059660 69.857040 45 34 44
-8.952359 12.326260 70.520767 47 35 45
-9.038234 12.597975 71.197220 49 36 45
-9.059960 12.782104 71.368370 50 37 45
-9.059960 12.935950 71.368370 51 38 45
-9.038234 13.058407 71.197220 52 38 44
-9.038234 13.211884 71.197220 51 38 44
-9.016611 13.333386 71.026894 50 37 43
-8.995091 13.454309 70.857384 49 37 43
-8.973675 13.574656 70.688675 49 37 43
-8.973675 13.727036 70.688675 48 37 45
-8.973675 13.879417 70.688675 49 39 47
-8.973675 14.031798 70.688675 52 40 49
-8.973675 14.184179 70.688675 55 42 52
-8.931146 14.268615 70.353653 58 45 56
-8.868102 14.318483 69.857040 61 47 59
-8.805943 14.367653 69.367386 63 50 63
-8.744648 14.416138 68.884552 65 52 65
-8.744648 14.564630 68.884552 66 53 67
-8.744648 14.713121 68.884552 67 56 70
-8.744648 14.861613 68.884552 68 58 72
-8.744648 15.010105 68.884552 68 61 74
-8.764984 15.193850 69.044746 72 65 78
-8.744648 15.307089 68.884552 74 67 80
-8.744648 15.455581 68.884552 73 67 79
-8.724406 15.567952 68.725098 71 65 77
-8.704257 15.679805 68.566376 68 62 74
-8.704257 15.827611 68.566376 65 59 71
-8.704257 15.975417 68.566376 61 56 68
-8.724406 16.160545 68.725098 57 53 64
-8.724406 16.308693 68.725098 53 49 60
-8.684201 16.381004 68.408394 50 46 57
-8.604894 16.377523 67.783661 48 44 54
-8.546357 16.411238 67.322548 47 43 52
-8.507772 16.481615 67.018608 46 43 50
-8.450545 16.514250 66.567810 44 41 48
-8.412820 16.583384 66.270630 42 40 45
-8.412820 16.726240 66.270630 39 38 42
-8.624584 17.293720 67.938766 37 37 39
-7.469644 -10.956944 59.857342 222 210 223
-7.469644 -10.827912 59.857342 224 211 223
-7.469644 -10.698880 59.857342 225 211 224
-7.469644 -10.569848 59.857342 227 212 225
-7.469644 -10.440816 59.857342 227 212 226
-7.469644 -10.311784 59.857342 229 213 227
-7.469644 -10.182751 59.857342 229 213 227
-7.469644 -10.053719 59.857342 225 209 224
-7.469644 -9.924686 59.857342 221 205 220
-7.484734 -9.815443 59.978268 219 203 218
-7.499886 -9.705758 60.099682 219 204 220
-7.515098 -9.595628 60.221588 220 206 221
-7.530373 -9.485050 60.343987 220 207 221
-7.545710 -9.374022 60.466888 223 212 224
-7.561109 -9.262540 60.590290 224 213 225
-7.592097 -9.169353 60.838612 220 209 223
-7.607687 -9.056765 60.963535 220 210 225
-7.623340 -8.943713 61.088974 225 215 231
-7.639059 -8.830194 61.214931 225 217 233
-7.639059 -8.698236 61.214931 223 216 232
-7.639059 -8.566278 61.214931 220 215 231
-7.623340 -8.416965 61.088974 219 214 231
-7.639059 -8.302360 61.214931 218 215 232
-7.639059 -8.170401 61.214931 215 214 231
-7.686604 -8.088474 61.595940 214 214 230
-7.718632 -7.988843 61.852589 217 216 232
-7.718632 -7.855509 61.852589 223 223 239
-7.718632 -7.722176 61.852589 228 228 243
-7.718632 -7.588843 61.852589 225 226 239
-7.718632 -7.455510 61.852589 219 221 231
-7.718632 -7.322176 61.852589 222 225 233
-7.718632 -7.188843 61.852589 237 239 244
-7.718632 -7.055510 61.852589 243 243 247
-7.718632 -6.922176 61.852589 233 233 238
-7.718632 -6.788843 61.852589 223 223 229
-7.702585 -6.641673 61.723995 222 221 227
-7.702585 -6.508616 61.723995 231 228 234
-7.702585 -6.375560 61.723995 241 237 241
-7.718632 -6.255509 61.852589 243 239 241
-7.718632 -6.122176 61.852589 230 229 229
-7.734746 -6.001346 61.981716 207 204 204
-7.750927 -5.880010 62.111385 209 205 204
-7.750927 -5.746118 62.111385 236 233 231
-7.750927 -5.612227 62.111385 242 238 237
-7.783494 -5.501354 62.372356 224 220 221
-7.799881 -5.378199 62.503666 212 208 214
-7.816336 -5.254524 62.635532 210 207 218
-7.816336 -5.119503 62.635532 208 205 221
-7.816336 -4.984482 62.635532 207 203 222
-7.799881 -4.839252 62.503666 222 216 232
-7.849456 -4.734416 62.900936 237 230 242
-7.882858 -4.618392 63.168602 231 219 233
-7.899666 -4.491779 63.303288 220 205 221
-7.916546 -4.364625 63.438553 223 208 219
-7.899666 -3.809477 63.303288 240 227 232
-7.916546 -3.544112 63.438553 231 215 224
-7.916546 -3.407360 63.438553 224 208 219
-7.916546 -3.270608 63.438553 225 209 220
-7.899666 -3.127174 63.303288 225 210 221
-7.899666 -2.990713 63.303288 225 208 220
-7.916546 -2.860352 63.438553 225 209 221
-7.933497 -2.729432 63.574394 227 210 222
-7.933497 -2.592386 63.574394 229 211 222
-7.967620 -2.465902 63.847832 229 211 220
-7.967620 -2.328268 63.847832 228 209 217
-7.984792 -2.195355 63.985435 228 208 214
-8.002037 -2.061867 64.123634 230 208 213
-8.019358 -1.927802 64.262428 230 206 211
-8.054225 -1.797053 64.541832 229 205 209
-8.089396 -1.665163 64.823669 231 206 209
-8.089396 -1.525425 64.823669 231 204 209
-8.089396 -1.385687 64.823669 229 201 207
-8.124876 -1.251413 65.107986 228 198 207
-8.142733 -1.113504 65.251083 227 197 208
-8.142733 -0.972845 65.251083 228 195 209
-8.089396 -0.826735 64.823669 225 190 206
-8.089396 -0.686997 64.823669 216 182 199
-8.142733 -0.550867 65.251083 206 173 191
-8.160668 -0.129173 65.394806 213 183 200
-8.160668 0.011796 65.394806 212 182 198
-8.178683 0.153103 65.539169 207 178 192
-8.233208 0.296345 65.976097 202 175 186
-8.251544 0.439544 66.123032 200 173 182
-8.363303 0.589967 67.018608 201 174 182
-8.382225 0.736098 67.170235 202 174 181
-8.439507 0.886914 67.629250 197 169 176
-8.458775 1.035058 67.783661 190 161 169
-8.556451 1.194816 68.566376 186 156 165
-8.576258 1.345730 68.725098 182 151 162
-8.576258 1.493878 68.725098 176 147 159
-8.576258 1.642027 68.725098 170 143 155
-8.576258 1.790175 68.725098 164 139 150
-8.576258 1.938323 68.725098 156 135 146
-8.576258 2.086471 68.725098 151 133 144
-8.576258 2.234619 68.725098 151 135 147
-8.596156 2.388296 68.884552 155 142 153
-8.676682 2.560551 69.529839 160 148 159
-8.758731 2.736065 70.187332 164 152 162
-8.779487 2.894207 70.353653 164 154 163
-8.821294 3.060370 70.688675 164 154 163
-8.821294 3.212751 70.688675 162 153 162
-8.821294 3.365132 70.688675 158 150 161
-8.758731 3.492566 70.187332 152 148 158
-8.738074 3.635272 70.021797 143 145 155
-8.717514 3.777307 69.857040 134 141 152
-8.656409 3.900363 69.367386 124 135 146
-8.636231 4.040456 69.205696 98 113 123
-8.596156 4.170198 68.884552 60 79 87
-8.576258 4.308693 68.725098 69 91 95
-8.576258 4.456841 68.725098 146 166 167
-8.576258 4.604990 68.725098 218 232 232
-8.576258 4.753138 68.725098 236 245 247
-8.596156 4.912658 68.884552 191 203 208
-8.616147 5.072920 69.044746 116 128 137
-8.656409 5.246158 69.367386 76 81 94
-8.697050 5.421022 69.693054 71 70 87
-8.884756 5.691500 71.197220 79 74 94
-8.927574 5.873146 71.540344 92 83 105
-8.970807 6.056551 71.886787 98 87 111
-8.970807 6.211514 71.886787 98 86 111
-8.970807 6.366478 71.886787 96 83 109
-8.949139 6.505690 71.713142 93 81 106
-8.927574 6.644230 71.540344 90 79 102
-8.906114 6.782104 71.368370 87 76 97
-8.884756 6.919318 71.197220 81 71 88
-8.863501 7.055874 71.026894 74 64 79
-8.800341 7.157614 70.520767 69 60 73
-8.758731 7.275072 70.187332 67 57 69
-8.717514 7.391425 69.857040 65 54 66
-8.676682 7.506687 69.529839 64 52 64
-8.636231 7.620875 69.205696 62 50 62
-8.636231 7.770060 69.205696 59 48 60
-8.616147 7.900826 69.044746 56 46 59
-8.596156 8.030987 68.884552 54 44 57
-8.596156 8.179479 68.884552 52 42 55
-8.616147 8.347339 69.044746 51 41 53
-8.616147 8.496176 69.044746 51 41 52
-8.616147 8.645013 69.044746 51 41 51
-8.616147 8.793850 69.044746 52 42 50
-8.596156 8.921939 68.884552 52 43 48
-8.596156 9.070431 68.884552 51 42 47
-8.596156 9.218923 68.884552 50 40 46
-8.616147 9.389198 69.044746 49 37 43
-8.616147 9.538036 69.044746 47 36 42
-8.656409 9.732139 69.367386 47 35 41
-8.697050 9.928064 69.693054 48 36 40
-8.738074 10.125838 70.021797 49 36 40
-8.758731 10.301077 70.187332 49 36 39
-8.758731 10.452377 70.187332 49 36 39
-8.758731 10.603677 70.187332 47 37 38
-8.738074 10.729612 70.021797 47 37 39
-8.717514 10.854954 69.857040 47 37 40
-8.717514 11.005543 69.857040 46 37 40
-8.758731 11.208879 70.187332 44 35 40
-8.758731 11.360178 70.187332 42 34 40
-8.758731 11.511478 70.187332 41 32 41
-8.738074 11.635272 70.021797 41 32 41
-8.738074 11.786216 70.021797 42 32 42
-8.821294 12.050846 70.688675 44 33 43
-8.800341 12.174241 70.520767 45 34 44
-8.821294 12.355608 70.688675 46 35 45
-8.884756 12.597975 71.197220 48 36 45
-8.906114 12.782104 71.368370 49 37 45
-8.906114 12.935950 71.368370 50 38 45
-8.884756 13.058407 71.197220 51 39 45
-8.884756 13.211884 71.197220 51 39 44
-8.884756 13.365361 71.197220 49 37 41
-8.863501 13.486496 71.026894 48 36 41
-8.821294 13.574656 70.688675 48 37 41
-8.800341 13.694431 70.520767 47 37 42
-8.821294 13.879417 70.688675 48 38 44
-8.821294 14.031798 70.688675 49 39 45
-8.821294 14.184179 70.688675 52 41 49
-8.779487 14.268615 70.353653 56 44 54
-8.676682 14.251418 69.529839 60 47 58
-8.616147 14.300827 69.044746 63 50 62
-8.576258 14.382768 68.725098 65 52 66
-8.576258 14.530915 68.725098 66 54 69
-8.576258 14.679064 68.725098 67 55 71
-8.576258 14.827211 68.725098 68 57 73
-8.596156 15.010105 68.884552 70 61 76
-8.596156 15.158597 68.884552 73 66 81
-8.596156 15.307089 68.884552 73 67 81
-8.576258 15.419805 68.725098 72 66 79
-8.576258 15.567952 68.725098 70 65 76
-8.556451 15.679805 68.566376 67 62 73
-8.536736 15.791142 68.408394 64 59 70
-8.556451 15.975417 68.566376 60 56 66
-8.576258 16.160545 68.725098 56 52 63
-8.576258 16.308693 68.725098 52 49 59
-8.497577 16.305861 68.094589 50 46 57
-8.420326 16.303082 67.475548 48 44 54
-8.363303 16.337145 67.018608 47 43 52
-8.344467 16.444494 66.867661 45 42 50
-8.288464 16.477304 66.418884 43 40 47
-8.269963 16.583384 66.270630 40 38 44
-8.269963 16.726240 66.270630 38 36 41
-8.458775 17.254236 67.783661 35 35 38
-7.340611 -10.956944 59.857342 222 210 222
-7.340611 -10.827912 59.857342 223 211 222
-7.340611 -10.698880 59.857342 223 210 222
-7.340611 -10.569848 59.857342 224 209 222
-7.340611 -10.440816 59.857342 226 211 224
-7.340611 -10.311784 59.857342 231 216 228
-7.325842 -10.162263 59.736904 229 213 225
-7.340611 -10.053719 59.857342 222 206 218
-7.340611 -9.924686 59.857342 220 203 216
-7.340611 -9.795654 59.857342 218 202 216
-7.370331 -9.705758 60.099682 216 201 216
-7.370331 -9.576203 60.099682 218 204 218
-7.400291 -9.485050 60.343987 220 208 222
-7.430497 -9.393152 60.590290 224 212 226
-7.430497 -9.262540 60.590290 224 213 227
-7.476270 -9.188182 60.963535 220 210 224
-7.491653 -9.075400 61.088974 220 210 226
-7.507100 -8.962153 61.214931 223 213 230
-7.507100 -8.830194 61.214931 223 215 231
-7.522610 -8.716208 61.341408 221 215 231
-7.522610 -8.583977 61.341408 221 215 232
-7.507100 -8.434319 61.214931 219 215 232
-7.507100 -8.302360 61.214931 217 215 231
-7.522610 -8.187283 61.341408 215 214 230
-7.538185 -8.071728 61.468410 215 215 230
-7.585299 -7.988843 61.852589 220 220 234
-7.585299 -7.855509 61.852589 228 229 243
-7.585299 -7.722176 61.852589 231 233 247
-7.585299 -7.588843 61.852589 227 230 241
-7.585299 -7.455510 61.852589 220 223 233
-7.585299 -7.322176 61.852589 223 226 234
-7.585299 -7.188843 61.852589 236 238 243
-7.585299 -7.055510 61.852589 242 242 246
-7.585299 -6.922176 61.852589 233 232 236
-7.585299 -6.788843 61.852589 225 222 225
-7.569529 -6.641673 61.723995 228 223 226
-7.569529 -6.508616 61.723995 235 230 231
-7.569529 -6.375560 61.723995 237 232 231
-7.585299 -6.255509 61.852589 239 234 233
-7.585299 -6.122176 61.852589 236 232 231
-7.601134 -6.001346 61.981716 217 211 209
-7.601134 -5.867734 61.981716 211 205 203
-7.601134 -5.734122 61.981716 235 231 230
-7.617036 -5.612227 62.111385 248 245 246
-7.633005 -5.489821 62.241596 237 233 237
-7.649041 -5.366900 62.372356 220 217 223
-7.681315 -5.254524 62.635532 213 209 219
-7.681315 -5.119503 62.635532 213 209 223
-7.681315 -4.984482 62.635532 215 210 227
-7.665144 -4.839252 62.503666 227 223 236
-7.665144 -4.704515 62.503666 235 228 239
-7.730241 -4.608587 63.034485 227 214 227
-7.763206 -4.491779 63.303288 221 205 219
-7.763206 -4.355319 63.303288 226 210 221
-7.779794 -4.227873 63.438553 229 214 222
-7.779794 -3.954369 63.438553 230 216 221
-7.763206 -3.809477 63.303288 234 220 226
-7.763206 -3.673016 63.303288 236 221 229
-7.779794 -3.544112 63.438553 232 217 226
-7.779794 -3.407360 63.438553 227 212 222
-7.779794 -3.270608 63.438553 225 210 220
-7.763206 -3.127174 63.303288 224 210 220
-7.763206 -2.990713 63.303288 226 210 221
-7.779794 -2.860352 63.438553 229 213 224
-7.779794 -2.723599 63.438553 230 214 225
-7.796453 -2.592386 63.574394 229 212 223
-7.829986 -2.465902 63.847832 228 210 219
-7.829986 -2.328268 63.847832 225 207 214
-7.846861 -2.195355 63.985435 224 204 209
-7.863809 -2.061867 64.123634 224 202 206
-7.863809 -1.923638 64.123634 223 199 203
-7.915094 -1.797053 64.541832 223 199 202
-7.932338 -1.661535 64.682442 229 204 206
-7.949658 -1.525425 64.823669 231 205 208
-7.949658 -1.385687 64.823669 228 200 206
-7.967053 -1.248675 64.965523 227 198 206
-8.002073 -1.113504 65.251083 227 196 208
-8.002073 -0.972845 65.251083 226 195 209
-7.949658 -0.826735 64.823669 224 191 208
-7.949658 -0.686997 64.823669 217 183 202
-7.949658 -0.547259 64.823669 207 173 192
-7.984525 -0.128606 65.107986 213 182 200
-7.984525 0.011744 65.107986 212 181 198
-8.019699 0.152765 65.394806 207 177 192
-8.073045 0.295688 65.829803 202 173 184
-8.090985 0.438568 65.976097 200 171 181
-8.181895 0.587316 66.717400 203 175 183
-8.218834 0.734437 67.018608 204 176 184
-8.218834 0.878906 67.018608 201 171 180
-8.293720 1.032700 67.629250 195 165 174
-8.389271 1.192063 68.408394 190 159 170
-8.428109 1.345730 68.725098 185 154 167
-8.447664 1.497344 68.884552 180 149 162
-8.467310 1.649664 69.044746 174 145 158
-8.467310 1.798501 69.044746 167 140 153
-8.428109 1.938323 68.725098 160 135 148
-8.428109 2.086471 68.725098 153 133 144
-8.447664 2.239804 68.884552 150 132 144
-8.467310 2.393850 69.044746 152 136 147
-8.526799 2.560551 69.529839 156 143 153
-8.607431 2.736065 70.187332 160 149 158
-8.627828 2.894207 70.353653 162 151 160
-8.648321 3.053101 70.520767 162 152 160
-8.668913 3.212751 70.688675 162 152 160
-8.648321 3.357139 70.520767 159 150 160
-8.607431 3.492566 70.187332 153 147 158
-8.587131 3.635272 70.021797 144 143 154
-8.587131 3.786216 70.021797 134 138 148
-8.526799 3.909497 69.529839 125 133 143
-8.506877 4.049896 69.367386 108 119 129
-8.467310 4.179896 69.044746 78 93 100
-8.428109 4.308693 68.725098 68 85 91
-8.428109 4.456841 68.725098 117 133 137
-8.428109 4.604990 68.725098 196 207 209
-8.428109 4.753138 68.725098 231 237 241
-8.428109 4.901286 68.725098 180 186 196
-8.467310 5.072920 69.044746 91 96 112
-8.487047 5.233929 69.205696 57 57 78
-8.546816 5.421022 69.693054 72 67 91
-8.752268 5.705182 71.368370 87 77 104
-8.902062 5.959304 72.589836 94 81 110
-8.923881 6.130773 72.767754 97 82 111
-8.923881 6.287636 72.767754 96 82 110
-8.858743 6.397459 72.236603 96 81 109
-8.837241 6.537271 72.061264 94 81 106
-8.815844 6.676405 71.886787 91 79 101
-8.773357 6.798447 71.540344 87 76 95
-8.752268 6.935951 71.368370 80 70 85
-8.710391 7.055874 71.026894 72 62 74
-8.648321 7.157614 70.520767 67 56 67
-8.587131 7.257914 70.021797 64 53 63
-8.546816 7.374074 69.693054 62 51 60
-8.526799 7.506687 69.529839 60 49 58
-8.487047 7.620875 69.205696 59 48 57
-8.487047 7.770060 69.205696 58 47 57
-8.467310 7.900826 69.044746 57 46 58
-8.467310 8.049664 69.044746 56 45 57
-8.467310 8.198501 69.044746 54 44 56
-8.467310 8.347339 69.044746 53 42 55
-8.467310 8.496176 69.044746 52 41 54
-8.467310 8.645013 69.044746 52 41 52
-8.467310 8.793850 69.044746 51 41 50
-8.467310 8.942687 69.044746 50 41 46
-8.467310 9.091524 69.044746 48 39 43
-8.467310 9.240361 69.044746 46 37 41
-8.467310 9.389198 69.044746 45 35 39
-8.467310 9.538036 69.044746 45 34 38
-8.487047 9.709454 69.205696 45 34 37
-8.546816 9.928064 69.693054 46 34 37
-8.607431 10.149776 70.187332 46 34 36
-8.648321 10.350013 70.520767 47 34 36
-8.648321 10.502032 70.520767 46 34 36
-8.648321 10.654051 70.520767 46 35 37
-8.607431 10.754977 70.187332 47 36 39
-8.607431 10.906278 70.187332 49 38 41
-8.648321 11.110108 70.520767 48 38 42
-8.668913 11.288941 70.688675 45 36 41
-8.668913 11.441322 70.688675 43 34 41
-8.648321 11.566165 70.520767 42 34 42
-8.648321 11.718184 70.520767 43 34 42
-8.668913 11.898465 70.688675 44 34 43
-8.689602 12.079607 70.857384 45 34 44
-8.668913 12.203227 70.688675 45 34 44
-8.668913 12.355608 70.688675 46 35 44
-8.689602 12.537841 70.857384 47 36 45
-8.731279 12.751451 71.197220 48 37 45
-8.731279 12.904929 71.197220 51 39 45
-8.731279 13.058407 71.197220 52 40 45
-8.731279 13.211884 71.197220 51 39 44
-8.710391 13.333386 71.026894 50 38 41
-8.689602 13.454309 70.857384 48 37 40
-8.648321 13.542412 70.520767 47 37 39
-8.648321 13.694431 70.520767 47 37 40
-8.648321 13.846450 70.520767 47 37 41
-8.648321 13.998469 70.520767 48 38 42
-8.648321 14.150488 70.520767 50 40 46
-8.607431 14.234883 70.187332 55 44 51
-8.506877 14.218121 69.367386 59 47 56
-8.428109 14.234619 68.725098 62 50 61
-8.389271 14.316487 68.408394 65 52 66
-8.389271 14.463953 68.408394 67 53 70
-8.389271 14.611418 68.408394 66 53 71
-8.428109 14.827211 68.725098 66 55 73
-8.428109 14.975360 68.725098 69 60 77
-8.428109 15.123508 68.725098 73 66 81
-8.428109 15.271656 68.725098 74 67 81
-8.428109 15.419805 68.725098 72 67 80
-8.408646 15.531999 68.566376 71 66 77
-8.369985 15.607714 68.251129 68 63 73
-8.369985 15.754840 68.251129 63 59 69
-8.389271 15.938607 68.408394 59 55 66
-8.408646 16.123222 68.566376 56 52 62
-8.389271 16.233538 68.408394 53 49 59
-8.312656 16.231405 67.783661 50 46 57
-8.274871 16.303082 67.475548 49 44 55
-8.218834 16.337145 67.018608 47 43 52
-8.200323 16.444494 66.867661 44 42 49
-8.145288 16.477304 66.418884 42 40 45
-8.127106 16.583384 66.270630 39 37 42
-8.127106 16.726240 66.270630 36 35 39
-8.293720 17.214933 67.629250 34 34 36
-8.293720 17.360718 67.629250 32 33 33
-7.211579 -11.085977 59.857342 219 208 218
-7.211579 -10.956944 59.857342 220 209 219
-7.211579 -10.827912 59.857342 222 209 219
-7.211579 -10.698880 59.857342 223 209 220
-7.211579 -10.569848 59.857342 225 210 221
-7.197069 -10.419807 59.736904 228 212 223
-7.197069 -10.291036 59.736904 231 214 225
-7.197069 -10.162263 59.736904 226 208 219
-7.197069 -10.033490 59.736904 223 206 217
-7.211579 -9.924686 59.857342 227 212 222
-7.211579 -9.795654 59.857342 222 206 217
-7.240776 -9.705758 60.099682 210 196 208
-7.240776 -9.576203 60.099682 212 198 211
-7.270210 -9.485050 60.343987 220 208 221
-7.299884 -9.393152 60.590290 225 214 228
-7.344853 -9.319598 60.963535 224 213 228
-7.359966 -9.207088 61.088974 219 209 225
-7.375141 -9.094112 61.214931 219 209 225
-7.390379 -8.980671 61.341408 220 211 228
-7.390379 -8.848439 61.341408 219 212 229
-7.390379 -8.716208 61.341408 219 213 230
-7.390379 -8.583977 61.341408 219 214 231
-7.390379 -8.451745 61.341408 216 212 229
-7.390379 -8.319513 61.341408 214 212 228
-7.390379 -8.187283 61.341408 219 218 233
-7.405680 -8.071728 61.468410 224 224 237
-7.451965 -7.988843 61.852589 226 227 241
-7.451965 -7.855509 61.852589 230 233 246
-7.451965 -7.722176 61.852589 232 236 248
-7.451965 -7.588843 61.852589 229 234 243
-7.451965 -7.455510 61.852589 225 231 239
-7.451965 -7.322176 61.852589 229 234 241
-7.451965 -7.188843 61.852589 238 241 246
-7.451965 -7.055510 61.852589 240 241 244
-7.451965 -6.922176 61.852589 231 229 231
-7.451965 -6.788843 61.852589 224 220 220
-7.436473 -6.641673 61.723995 231 225 221
-7.436473 -6.508616 61.723995 240 235 228
-7.436473 -6.375560 61.723995 239 235 226
-7.451965 -6.255509 61.852589 238 233 226
-7.451965 -6.122176 61.852589 239 234 228
-7.467523 -6.001346 61.981716 220 214 208
-7.467523 -5.867734 61.981716 209 201 196
-7.467523 -5.734122 61.981716 230 225 223
-7.483145 -5.612227 62.111385 247 246 245
-7.483145 -5.478336 62.111385 242 240 244
-7.498833 -5.355649 62.241596 228 224 231
-7.530407 -5.243462 62.503666 222 217 227
-7.530407 -5.108726 62.503666 224 219 231
-7.530407 -4.973989 62.503666 222 217 232
-7.530407 -4.839252 62.503666 230 225 237
-7.530407 -4.704515 62.503666 235 227 237
-7.546294 -4.579419 62.635532 223 211 223
-7.610518 -4.482223 63.168602 220 205 219
-7.626745 -4.355319 63.303288 227 212 223
-7.643041 -4.227873 63.438553 231 215 224
-7.643041 -4.091121 63.438553 230 215 223
-7.643041 -3.954369 63.438553 230 215 223
-7.626745 -3.809477 63.303288 231 217 225
-7.626745 -3.673016 63.303288 233 219 227
-7.643041 -3.544112 63.438553 232 218 227
-7.643041 -3.407360 63.438553 229 216 226
-7.643041 -3.270608 63.438553 227 214 223
-7.643041 -3.133856 63.438553 226 212 222
-7.643041 -2.997104 63.438553 228 213 224
-7.643041 -2.860352 63.438553 231 216 227
-7.659408 -2.729432 63.574394 231 215 226
-7.659408 -2.592386 63.574394 229 212 222
-7.692351 -2.465902 63.847832 227 210 218
-7.692351 -2.328268 63.847832 225 206 213
-7.692351 -2.190633 63.847832 223 203 208
-7.708930 -2.057424 63.985435 220 199 203
-7.725580 -1.923638 64.123634 214 192 195
-7.775964 -1.797053 64.541832 214 190 193
-7.792905 -1.661535 64.682442 225 199 202
-7.809920 -1.525425 64.823669 231 205 209
-7.792905 -1.382668 64.682442 229 201 207
-7.827010 -1.248675 64.965523 228 199 208
-7.844174 -1.111063 65.107986 228 198 209
-7.844174 -0.970712 65.107986 227 196 210
-7.809920 -0.826735 64.823669 225 193 210
-7.809920 -0.686997 64.823669 217 185 202
-7.809920 -0.547259 64.823669 204 172 191
-7.827010 -0.128325 64.965523 213 182 199
-7.827010 0.011719 64.965523 212 181 196
-7.878730 0.152765 65.394806 207 177 190
-7.931138 0.295688 65.829803 202 172 184
-7.931138 0.437595 65.829803 200 171 181
-8.002110 0.584688 66.418884 204 175 184
-8.038074 0.731136 66.717400 208 178 186
-8.038074 0.874956 66.717400 205 174 184
-8.074365 1.023376 67.018608 199 169 179
-8.147935 1.178486 67.629250 194 163 174
-8.241805 1.339529 68.408394 189 157 170
-8.318473 1.500827 69.044746 184 153 165
-8.337863 1.653509 69.205696 179 149 161
-8.357345 1.806905 69.367386 172 144 156
-8.337863 1.951878 69.205696 165 140 150
-8.318473 2.096175 69.044746 158 136 146
-8.318473 2.245013 69.044746 152 133 143
-8.337863 2.399430 69.205696 149 132 142
-8.376917 2.560551 69.529839 152 137 146
-8.456131 2.736065 70.187332 156 143 152
-8.476169 2.894207 70.353653 159 147 155
-8.496303 3.053101 70.520767 162 150 158
-8.496303 3.205120 70.520767 162 150 158
-8.496303 3.357139 70.520767 159 149 157
-8.436187 3.484329 70.021797 155 147 156
-8.436187 3.635272 70.021797 146 141 151
-8.436187 3.786216 70.021797 136 134 144
-8.436187 3.937159 70.021797 128 129 139
-8.376917 4.059381 69.529839 120 123 133
-8.337863 4.189640 69.205696 99 104 114
-8.299172 4.318690 68.884552 71 78 87
-8.279962 4.456841 68.725098 94 102 109
-8.279962 4.604990 68.725098 178 182 188
-8.279962 4.753138 68.725098 214 215 223
-8.299172 4.912658 68.884552 156 155 171
-8.318473 5.072920 69.044746 89 84 107
-8.376917 5.258444 69.529839 76 67 94
-8.396581 5.421022 69.693054 87 74 104
-8.724252 5.788672 72.412788 91 76 107
-8.767018 5.973910 72.767754 93 78 108
-8.875790 6.206837 73.670578 94 78 109
-8.853820 6.349890 73.488220 95 79 109
-8.810205 6.476245 73.126213 94 79 107
-8.745583 6.585221 72.589836 93 79 103
-8.681901 6.692610 72.061264 91 78 97
-8.660880 6.831369 71.886787 86 75 90
-8.598421 6.935951 71.368370 79 68 80
-8.577802 7.072795 71.197220 71 61 70
-8.476169 7.140653 70.353653 66 56 63
-8.416337 7.240837 69.857040 63 51 58
-8.376917 7.356804 69.529839 60 49 56
-8.357345 7.489148 69.367386 59 47 55
-8.357345 7.638681 69.367386 58 46 54
-8.337863 7.770060 69.205696 58 46 56
-8.337863 7.919243 69.205696 58 47 58
-8.337863 8.068428 69.205696 58 47 58
-8.337863 8.217612 69.205696 57 46 58
-8.318473 8.347339 69.044746 55 44 57
-8.318473 8.496176 69.044746 54 43 55
-8.337863 8.665164 69.205696 53 42 53
-8.337863 8.814348 69.205696 51 41 50
-8.337863 8.963532 69.205696 49 40 46
-8.337863 9.112717 69.205696 47 38 42
-8.318473 9.240361 69.044746 45 36 38
-8.318473 9.389198 69.044746 43 34 36
-8.318473 9.538036 69.044746 43 33 36
-8.337863 9.709454 69.205696 44 34 36
-8.456131 9.998476 70.187332 44 34 35
-8.516532 10.222275 70.688675 45 33 34
-8.577802 10.449294 71.197220 45 33 34
-8.577802 10.602771 71.197220 44 33 34
-8.536858 10.704906 70.857384 45 33 35
-8.496303 10.806070 70.520767 48 36 39
-8.496303 10.958089 70.520767 50 39 42
-8.557281 11.189846 71.026894 49 38 43
-8.557281 11.342956 71.026894 46 37 42
-8.557281 11.496066 71.026894 44 35 41
-8.516532 11.593703 70.688675 44 35 43
-8.516532 11.746084 70.688675 45 36 44
-8.516532 11.898465 70.688675 45 36 45
-8.536858 12.079607 70.857384 45 36 45
-8.536858 12.232352 70.857384 46 36 45
-8.516532 12.355608 70.688675 46 36 45
-8.516532 12.507989 70.688675 47 36 45
-8.557281 12.720946 71.026894 48 37 44
-8.557281 12.874056 71.026894 51 39 45
-8.557281 13.027166 71.026894 53 41 45
-8.557281 13.180276 71.026894 53 42 45
-8.536858 13.301564 70.857384 54 43 44
-8.516532 13.422275 70.688675 51 40 40
-8.496303 13.542412 70.520767 47 36 36
-8.476169 13.661980 70.353653 46 36 37
-8.476169 13.813639 70.353653 47 37 39
-8.476169 13.965298 70.353653 48 38 41
-8.456131 14.083583 70.187332 51 40 45
-8.396581 14.134637 69.693054 55 44 51
-8.318473 14.151990 69.044746 59 47 56
-8.260839 14.201745 68.566376 62 50 61
-8.185225 14.218204 67.938766 64 51 65
-8.185225 14.364657 67.938766 66 52 68
-8.241805 14.611418 68.408394 65 52 69
-8.241805 14.758883 68.408394 65 54 72
-8.241805 14.906349 68.408394 68 59 75
-8.260839 15.088581 68.566376 72 64 79
-8.260839 15.236386 68.566376 76 70 83
-8.260839 15.384192 68.566376 77 71 83
-8.260839 15.531999 68.566376 73 68 78
-8.241805 15.643676 68.408394 67 63 73
-8.241805 15.791142 68.408394 62 59 69
-8.241805 15.938607 68.408394 59 55 65
-8.279962 16.160545 68.725098 55 51 62
-8.241805 16.233538 68.408394 53 48 59
-8.185225 16.268547 67.938766 50 45 57
-8.166537 16.377523 67.783661 48 43 55
-8.129416 16.448536 67.475548 46 42 52
-8.074365 16.481615 67.018608 43 41 48
-8.020052 16.514250 66.567810 40 39 44
-8.002110 16.620481 66.418884 38 37 41
-8.020052 16.801245 66.567810 35 35 38
-8.147935 17.214933 67.629250 34 35 35
-8.147935 17.360718 67.629250 32 33 33
-8.110983 17.427111 67.322548 32 32 32
-7.082547 -11.215009 59.857342 219 207 216
-7.082547 -11.085977 59.857342 219 208 218
-7.082547 -10.956944 59.857342 220 209 218
-7.082547 -10.827912 59.857342 222 209 218
-7.082547 -10.698880 59.857342 223 209 219
-7.082547 -10.569848 59.857342 227 211 221
-7.068296 -10.419807 59.736904 232 216 225
-7.068296 -10.291036 59.736904 230 212 221
-7.068296 -10.162263 59.736904 221 203 212
-7.082547 -10.053719 59.857342 226 210 217
-7.082547 -9.924686 59.857342 234 222 228
-7.096855 -9.815443 59.978268 222 209 216
-7.111221 -9.705758 60.099682 204 190 199
-7.125646 -9.595628 60.221588 205 192 202
-7.154671 -9.504368 60.466888 219 206 218
-7.213436 -9.451015 60.963535 225 214 226
-7.228279 -9.338775 61.088974 223 212 226
-7.243182 -9.226071 61.214931 220 209 225
-7.258147 -9.112902 61.341408 218 208 225
-7.258147 -8.980671 61.341408 218 208 226
-7.273175 -8.866759 61.468410 217 209 227
-7.273175 -8.734254 61.468410 217 211 228
-7.258147 -8.583977 61.341408 216 210 228
-7.258147 -8.451745 61.341408 211 207 223
-7.258147 -8.319513 61.341408 212 210 225
-7.258147 -8.187283 61.341408 224 224 236
-7.273175 -8.071728 61.468410 233 235 245
-7.303417 -7.972234 61.723995 233 236 248
-7.318632 -7.855509 61.852589 232 236 248
-7.318632 -7.722176 61.852589 231 237 247
-7.318632 -7.588843 61.852589 228 235 245
-7.318632 -7.455510 61.852589 228 236 245
-7.318632 -7.322176 61.852589 233 240 247
-7.318632 -7.188843 61.852589 240 244 249
-7.318632 -7.055510 61.852589 238 239 242
-7.318632 -6.922176 61.852589 228 226 227
-7.318632 -6.788843 61.852589 223 218 215
-7.318632 -6.655509 61.852589 230 223 214
-7.318632 -6.522176 61.852589 240 234 221
-7.318632 -6.388843 61.852589 241 236 221
-7.318632 -6.255509 61.852589 240 234 221
-7.318632 -6.122176 61.852589 239 233 222
-7.333911 -6.001346 61.981716 216 209 198
-7.333911 -5.867734 61.981716 198 190 182
-7.333911 -5.734122 61.981716 218 212 208
-7.349254 -5.612227 62.111385 238 236 235
-7.349254 -5.478336 62.111385 239 237 240
-7.364661 -5.355649 62.241596 229 225 233
-7.380133 -5.232447 62.372356 225 221 230
-7.395670 -5.108726 62.503666 228 224 235
-7.380133 -4.963539 62.372356 227 221 235
-7.380133 -4.829085 62.372356 231 226 238
-7.380133 -4.694632 62.372356 236 229 238
-7.411273 -4.579419 62.635532 226 215 227
-7.458478 -4.472706 63.034485 222 208 221
-7.474348 -4.346052 63.168602 229 214 225
-7.490284 -4.218858 63.303288 230 215 226
-7.490284 -4.082398 63.303288 228 214 223
-7.474348 -3.937541 63.168602 228 214 224
-7.474348 -3.801371 63.168602 231 218 227
-7.490284 -3.673016 63.303288 233 220 230
-7.506289 -3.544112 63.438553 231 219 229
-7.522363 -3.414656 63.574394 230 217 228
-7.522363 -3.277611 63.574394 228 216 227
-7.506289 -3.133856 63.438553 228 215 226
-7.506289 -2.997104 63.438553 230 216 227
-7.522363 -2.866477 63.574394 232 218 229
-7.522363 -2.729432 63.574394 230 215 225
-7.538505 -2.597950 63.710819 226 209 219
-7.554717 -2.465902 63.847832 225 207 216
-7.554717 -2.328268 63.847832 225 206 214
-7.554717 -2.190633 63.847832 225 204 210
-7.570999 -2.057424 63.985435 221 200 204
-7.603774 -1.927802 64.262428 213 191 195
-7.636833 -1.797053 64.541832 212 188 192
-7.653471 -1.661535 64.682442 222 197 201
-7.670182 -1.525425 64.823669 231 204 209
-7.670182 -1.385687 64.823669 231 204 210
-7.703823 -1.251413 65.107986 229 202 210
-7.703823 -1.111063 65.107986 229 201 212
-7.703823 -0.970712 65.107986 230 202 215
-7.653471 -0.824934 64.682442 228 199 214
-7.653471 -0.685500 64.682442 216 187 203
-7.670182 -0.547259 64.823669 203 174 191
-7.670182 -0.407521 64.823669 202 172 189
-7.670182 -0.267783 64.823669 209 179 196
-7.670182 -0.128045 64.823669 213 183 199
-7.686966 0.011719 64.965523 212 182 196
-7.737761 0.152765 65.394806 209 179 192
-7.771998 0.295034 65.684166 206 176 188
-7.789231 0.437595 65.829803 205 175 185
-7.841392 0.583383 66.270630 208 177 186
-7.858934 0.727865 66.418884 210 179 188
-7.858934 0.871041 66.418884 207 177 185
-7.894255 1.018776 66.717400 202 172 181
-7.929895 1.167845 67.018608 197 167 176
-8.075732 1.336449 68.251129 193 162 172
-8.188679 1.504325 69.205696 189 159 169
-8.207811 1.657373 69.367386 186 157 166
-8.285244 1.823952 70.021797 182 153 162
-8.227034 1.961020 69.529839 174 148 157
-8.188679 2.101062 69.205696 167 143 152
-8.188679 2.250246 69.205696 159 138 148
-8.227034 2.410669 69.529839 153 135 144
-8.246346 2.566562 69.693054 152 135 145
-8.304831 2.736065 70.187332 154 138 147
-8.324511 2.894207 70.353653 156 142 151
-8.344283 3.053101 70.520767 159 146 155
-8.344283 3.205120 70.520767 159 147 155
-8.324511 3.349184 70.353653 158 146 154
-8.285244 3.484329 70.021797 155 144 152
-8.285244 3.635272 70.021797 149 138 148
-8.304831 3.795166 70.187332 141 131 142
-8.304831 3.946467 70.187332 135 126 137
-8.265749 4.078484 69.857040 131 124 135
-8.227034 4.209263 69.529839 119 112 124
-8.169636 4.328733 69.044746 96 89 100
-8.150681 4.467182 68.884552 105 98 110
-8.150681 4.615674 68.884552 162 153 166
-8.150681 4.764166 68.884552 177 165 182
-8.188679 4.935561 69.205696 124 110 134
-8.227034 5.108561 69.529839 89 72 102
-8.246346 5.270788 69.693054 94 73 107
-8.424325 5.538023 71.197220 98 76 111
-8.568154 5.788672 72.412788 95 73 108
-8.716981 6.048028 73.670578 95 74 108
-8.760457 6.237794 74.038010 96 76 109
-8.716981 6.365646 73.670578 95 76 108
-8.716981 6.524455 73.670578 94 77 105
-8.695404 6.666721 73.488220 92 76 100
-8.589104 6.741701 72.589836 89 74 94
-8.526562 6.847950 72.061264 84 71 86
-8.464924 6.952664 71.540344 79 65 78
-8.424325 7.072795 71.197220 72 60 69
-8.324511 7.140653 70.353653 67 55 63
-8.227034 7.206922 69.529839 62 50 57
-8.227034 7.356804 69.529839 59 48 55
-8.207811 7.489148 69.367386 58 46 54
-8.207811 7.638681 69.367386 57 45 53
-8.188679 7.770060 69.205696 58 46 55
-8.188679 7.919243 69.205696 58 47 57
-8.188679 8.068428 69.205696 59 47 58
-8.188679 8.217612 69.205696 59 47 58
-8.188679 8.366796 69.205696 58 46 58
-8.169636 8.496176 69.044746 56 44 56
-8.169636 8.645013 69.044746 55 43 53
-8.188679 8.814348 69.205696 53 42 50
-8.188679 8.963532 69.205696 50 40 46
-8.188679 9.112717 69.205696 47 38 42
-8.169636 9.240361 69.044746 44 36 38
-8.169636 9.389198 69.044746 42 33 35
-8.169636 9.538036 69.044746 42 33 35
-8.188679 9.709454 69.205696 43 34 35
-8.344283 10.045975 70.520767 43 34 35
-8.444575 10.320566 71.368370 43 33 34
-8.444575 10.474412 71.368370 43 32 33
-8.444575 10.628259 71.368370 43 32 33
-8.424325 10.756248 71.197220 44 32 35
-8.404171 10.883626 71.026894 47 35 38
-8.404171 11.036736 71.026894 48 37 41
-8.424325 11.216680 71.197220 48 37 42
-8.424325 11.370157 71.197220 46 36 42
-8.424325 11.523634 71.197220 46 36 42
-8.404171 11.649176 71.026894 46 37 44
-8.364151 11.746084 70.688675 46 37 45
-8.364151 11.898465 70.688675 46 38 46
-8.384113 12.079607 70.857384 47 38 46
-8.364151 12.203227 70.688675 46 37 46
-8.324511 12.297050 70.353653 46 37 45
-8.324511 12.448709 70.353653 47 37 45
-8.364151 12.660370 70.688675 48 38 44
-8.384113 12.843330 70.857384 51 40 44
-8.384113 12.996075 70.857384 55 43 45
-8.384113 13.148820 70.857384 60 47 48
-8.364151 13.269894 70.688675 63 51 49
-8.344283 13.390393 70.520767 57 44 42
-8.324511 13.510321 70.353653 48 35 33
