ply
format ascii 1.0
element vertex 1242
property float x
property float y
property float z
property uchar red
property uchar green
property uchar blue
end_header
17.633541 3.900938 50.150745 79 42 48
17.663378 4.015830 50.235603 78 42 47
17.723356 4.138125 50.406185 77 41 48
17.814091 4.268525 50.664234 77 40 47
17.814091 4.377740 50.664234 76 39 47
17.875097 4.502321 50.837742 76 39 47
17.936523 4.627759 51.012444 77 39 48
17.967396 4.745879 51.100246 77 40 49
17.967396 4.856033 51.100246 78 41 51
17.967396 4.966188 51.100246 79 42 52
17.967396 5.076344 51.100246 80 43 54
17.998373 5.195440 51.188347 80 43 54
18.060652 5.324144 51.365471 80 43 54
18.091953 5.444290 51.454491 79 41 52
18.123362 5.564853 51.543823 78 40 49
18.123362 5.675964 51.543823 77 39 46
18.123362 5.787076 51.543823 75 37 44
18.091953 5.887964 51.454491 74 37 41
18.060652 5.988504 51.365471 73 36 40
18.060652 6.099231 51.365471 71 36 39
17.967396 6.177892 51.100246 69 35 38
17.814091 6.234395 50.664234 67 34 37
17.753498 6.322033 50.491909 66 33 36
17.663378 6.398232 50.235603 64 32 35
17.663378 6.506524 50.235603 63 31 34
17.633541 6.603641 50.150745 63 32 35
17.633541 6.711749 50.150745 64 32 35
17.633541 6.819857 50.150745 65 33 37
17.254639 7.519596 49.073128 68 34 39
17.226166 7.612798 48.992149 67 34 38
17.226166 7.718409 48.992149 67 34 39
17.311869 7.862945 49.235889 68 35 40
17.456617 8.035711 49.647564 68 36 41
17.515196 8.170059 49.814163 68 36 41
17.544634 8.291354 49.897884 68 36 41
17.633541 8.441479 50.150745 67 36 41
17.693316 8.578568 50.320751 66 36 41
17.693316 8.687043 50.320751 66 36 41
17.693316 8.795518 50.320751 67 36 42
17.693316 8.903993 50.320751 67 36 42
17.693316 9.012466 50.320751 67 36 42
17.783743 9.167556 50.577927 67 37 41
17.783743 9.276586 50.577927 66 37 41
17.753498 9.369652 50.491909 65 36 41
17.663378 9.430382 50.235603 64 35 41
17.633541 9.522560 50.150745 64 35 40
17.663378 9.646963 50.235603 64 35 40
17.633541 9.738776 50.150745 64 35 41
17.633541 9.846884 50.150745 64 35 40
17.633541 9.954992 50.150745 63 35 39
17.693316 10.097213 50.320751 63 34 39
17.723356 10.223015 50.406185 63 33 38
17.723356 10.331673 50.406185 62 34 38
17.753498 10.458088 50.491909 62 34 38
17.753498 10.566931 50.491909 62 35 39
17.753498 10.675775 50.491909 62 37 39
17.753498 10.784618 50.491909 61 38 39
17.723356 10.874967 50.406185 59 37 38
17.693316 10.965010 50.320751 58 37 38
17.693316 11.073483 50.320751 56 36 37
17.693316 11.181958 50.320751 55 36 36
17.723356 11.309602 50.406185 55 35 36
17.723356 11.418261 50.406185 55 35 35
17.723356 11.526919 50.406185 55 35 36
17.633541 11.576614 50.150745 55 34 36
17.603806 11.665018 50.066177 55 34 37
17.603806 11.772943 50.066177 55 34 37
14.241550 10.397484 40.503742 52 32 36
14.068810 10.357622 40.012455 52 33 36
13.881724 10.304994 39.480373 52 33 36
13.881724 10.390100 39.480373 50 33 36
13.844903 10.447421 39.375652 49 33 36
13.790035 10.490562 39.219608 48 33 34
13.663687 10.478214 38.860264 48 32 34
13.592522 10.506973 38.657867 48 31 33
13.539633 10.549099 38.507446 48 31 33
13.469750 10.577233 38.308701 48 30 33
13.487153 10.673586 38.358192 48 29 32
18.218248 14.529416 51.813686 48 29 32
18.218248 14.641109 51.813686 47 29 31
18.091953 14.650530 51.454491 47 29 30
18.029459 14.710459 51.276756 47 30 30
18.029459 14.820994 51.276756 48 31 31
18.060652 14.957362 51.365471 49 31 31
18.029459 15.042065 51.276756 49 31 31
17.814091 14.971597 50.664234 49 31 31
17.663378 14.953224 50.235603 49 32 31
17.663378 15.061515 50.235603 49 32 31
17.633541 15.144181 50.150745 47 32 31
18.411036 16.150539 52.361980 43 31 30
18.314135 16.177816 52.086391 43 31 30
18.123362 16.120409 51.543823 42 31 29
18.123362 16.231520 51.543823 41 30 29
14.641033 13.381986 41.639893 38 28 28
14.518855 13.359326 41.292408 37 28 28
14.518855 13.448339 41.292408 37 28 29
14.661596 13.670444 41.698376 37 28 30
27.044188 25.879160 76.915138 36 27 29
17.905758 17.244177 50.924942 36 27 29
17.905758 17.353954 50.924942 36 27 29
20.388783 19.885460 57.986801 36 27 29
20.428682 20.049620 58.100277 36 27 29
20.388783 20.135460 57.986801 36 27 29
20.349039 20.220966 57.873768 35 27 28
20.152618 20.149334 57.315140 35 27 27
20.152618 20.272886 57.315140 35 27 27
19.770941 20.010143 56.229626 35 26 26
18.060652 18.832794 51.365471 35 28 26
17.967396 18.845707 51.100246 35 27 25
18.029459 19.021339 51.276756 36 27 25
17.862341 2.839040 50.491909 79 39 48
17.832014 2.942878 50.406185 79 40 48
17.771669 3.041211 50.235603 80 41 49
17.741650 3.144181 50.150745 82 42 51
17.681913 3.241339 49.981888 85 45 53
17.681913 3.349083 49.981888 86 46 54
17.681913 3.456827 49.981888 85 45 54
17.681913 3.564571 49.981888 82 43 51
17.711731 3.678508 50.066177 81 41 48
17.711731 3.786434 50.066177 80 41 47
17.741650 3.900938 50.150745 79 42 47
17.771669 4.015830 50.235603 77 42 47
17.832014 4.138125 50.406185 77 41 47
17.923306 4.268525 50.664234 76 40 47
17.923306 4.377740 50.664234 76 39 46
17.953943 4.494625 50.750843 76 39 46
18.046490 4.627759 51.012444 77 40 48
18.046490 4.737724 51.012444 77 40 49
18.046490 4.847690 51.012444 77 41 50
18.046490 4.957655 51.012444 78 42 51
18.046490 5.067621 51.012444 78 43 52
18.046490 5.177587 51.012444 78 43 53
18.077551 5.296653 51.100246 78 43 52
18.108719 5.416130 51.188347 78 41 51
18.171379 5.545598 51.365471 77 40 49
18.234474 5.675964 51.543823 76 39 46
18.202871 5.777046 51.454491 74 38 43
18.171379 5.877778 51.365471 73 37 41
18.171379 5.988504 51.365471 72 37 40
18.171379 6.099231 51.365471 70 36 39
18.046490 6.167277 51.012444 69 35 38
17.923306 6.234395 50.664234 68 35 38
17.892771 6.332803 50.577927 66 33 36
17.832014 6.419958 50.406185 64 32 35
17.771669 6.506524 50.235603 63 32 35
17.771669 6.614815 50.235603 63 32 35
17.741650 6.711749 50.150745 64 32 35
17.563641 6.751431 49.647564 64 32 36
17.563641 6.858454 49.647564 65 33 37
17.274765 6.850914 48.830990 65 33 38
17.105955 6.888201 48.353813 65 33 38
17.105955 6.992435 48.353813 65 33 38
17.274765 7.166703 48.830990 66 33 39
17.274765 7.271966 48.830990 67 34 39
17.331778 7.401577 48.992149 67 34 39
17.303223 7.494820 48.911438 67 33 38
17.303223 7.600256 48.911438 66 33 37
17.303223 7.705693 48.911438 66 33 38
17.563641 7.928688 49.647564 67 34 39
17.563641 8.035711 49.647564 67 35 39
17.563641 8.142735 49.647564 67 35 40
17.652197 8.291354 49.897884 67 36 40
17.801790 8.470094 50.320751 67 36 40
17.923306 8.637125 50.664234 66 36 41
17.923306 8.746341 50.664234 66 36 41
17.923306 8.855556 50.664234 67 36 41
18.139994 9.073153 51.276756 67 36 41
18.202871 9.215521 51.454491 67 36 41
18.108719 9.278199 51.188347 67 36 41
18.077551 9.372385 51.100246 66 36 40
17.953943 9.417702 50.750843 65 36 40
17.862341 9.478496 50.491909 65 36 40
17.771669 9.538672 50.235603 64 36 39
17.771669 9.646963 50.235603 64 36 39
17.771669 9.755255 50.235603 63 36 39
17.741650 9.846884 50.150745 62 35 39
17.741650 9.954992 50.150745 62 34 38
17.801790 10.097213 50.320751 62 34 38
17.801790 10.205688 50.320751 62 33 37
17.801790 10.314162 50.320751 61 34 38
17.832014 10.440331 50.406185 62 35 38
17.832014 10.548990 50.406185 62 36 39
17.862341 10.675775 50.491909 62 37 39
17.832014 10.766308 50.406185 61 37 39
17.801790 10.856535 50.320751 59 37 39
17.801790 10.965010 50.320751 58 37 38
17.771669 11.054747 50.235603 56 36 37
17.801790 11.181958 50.320751 54 35 36
17.801790 11.290433 50.320751 54 34 35
17.832014 11.418261 50.406185 54 34 35
17.801790 11.507382 50.320751 55 34 35
17.741650 11.576614 50.150745 55 34 36
17.741650 11.684722 50.150745 55 34 37
17.741650 11.792830 50.150745 55 34 37
18.426414 13.146237 52.086391 52 31 36
18.361988 13.212160 51.904270 52 31 36
18.234474 13.231520 51.543823 52 32 36
13.966830 10.219888 39.480373 52 32 36
13.911333 10.264047 39.323498 52 33 36
13.892932 10.335126 39.271484 51 33 36
13.856276 10.392289 39.167866 49 33 36
13.765474 10.408068 38.911194 48 33 35
13.675855 10.423640 38.657867 47 32 34
13.622642 10.466090 38.507446 47 31 33
13.569840 10.508211 38.358192 47 31 33
13.552331 10.577233 38.308701 47 30 33
18.426414 14.493606 52.086391 47 30 33
18.361988 14.554817 51.904270 47 29 32
18.329943 14.641109 51.813686 47 30 31
18.202871 14.650530 51.454491 47 29 30
18.046490 14.634631 51.012444 47 30 30
18.046490 14.744597 51.012444 48 30 30
18.139994 14.931529 51.276756 48 30 31
18.139994 15.042065 51.276756 49 31 31
17.923306 14.971597 50.664234 49 31 31
17.801790 14.978569 50.320751 49 32 31
17.771669 15.061515 50.235603 49 32 31
17.832014 15.221316 50.406185 47 32 31
18.523909 16.037664 52.361980 44 31 30
18.426414 16.065536 52.086391 43 32 31
18.234474 16.009298 51.543823 43 31 31
18.234474 16.120409 51.543823 42 31 30
18.234474 16.231520 51.543823 41 31 30
14.919114 13.553061 42.172218 38 28 29
14.730795 13.471746 41.639893 37 28 29
14.751484 13.580555 41.698376 37 28 29
12.839923 12.133686 36.294918 36 27 29
12.669550 12.049886 35.813320 36 27 29
12.533481 11.996844 35.428692 35 26 29
18.015535 17.353954 50.924942 36 27 29
20.553926 19.924376 58.100277 36 27 29
20.553926 20.049620 58.100277 36 27 29
20.513783 20.135460 57.986801 36 27 29
20.473795 20.220966 57.873768 35 27 28
20.276171 20.149334 57.315140 35 27 28
20.276171 20.272886 57.315140 35 27 27
19.929899 20.048113 56.336323 35 27 26
18.523909 19.198158 52.361980 35 27 26
18.171379 18.943521 51.365471 36 27 25
17.940674 2.942878 50.406185 79 40 48
17.879961 3.041211 50.235603 79 41 48
17.849758 3.144181 50.150745 81 42 49
17.819656 3.246805 50.066177 83 43 51
17.789658 3.349083 49.981888 84 45 52
17.819656 3.462657 50.066177 83 44 51
17.819656 3.570583 50.066177 82 42 49
17.819656 3.678508 50.066177 80 41 46
17.819656 3.786434 50.066177 79 40 46
17.819656 3.894360 50.066177 78 41 46
17.849758 4.009047 50.150745 77 41 46
17.910265 4.131111 50.320751 76 41 46
18.063345 4.275821 50.750843 75 40 46
18.063345 4.385223 50.750843 75 39 46
18.094275 4.502321 50.837742 75 39 46
18.125311 4.619821 50.924942 76 40 47
18.125311 4.729598 50.924942 76 40 48
18.125311 4.839375 50.924942 76 41 48
18.032520 4.923815 50.664234 76 42 49
18.032520 5.033030 50.664234 76 42 50
18.001801 5.133485 50.577927 76 42 51
18.001801 5.242514 50.577927 75 42 50
18.032520 5.360675 50.664234 75 41 50
18.187706 5.516963 51.100246 75 40 47
18.282104 5.656324 51.365471 74 39 45
18.282104 5.767051 51.365471 73 38 43
18.282104 5.877778 51.365471 73 37 41
18.282104 5.988504 51.365471 72 37 40
18.282104 6.099231 51.365471 70 37 40
18.125311 6.156699 50.924942 70 36 40
18.032520 6.234395 50.664234 68 35 39
18.032520 6.343610 50.664234 66 34 38
18.032520 6.452825 50.664234 65 33 37
17.940674 6.528617 50.406185 65 33 36
17.910265 6.626026 50.320751 64 33 36
17.849758 6.711749 50.150745 64 33 36
17.670664 6.751431 49.647564 64 33 36
17.495127 6.790324 49.154373 64 32 37
17.380028 6.850914 48.830990 64 32 37
17.266432 6.910712 48.511833 64 32 37
17.266432 7.015287 48.511833 64 32 37
17.323044 7.143206 48.670887 64 32 37
17.380028 7.271966 48.830990 65 32 37
17.380028 7.377229 48.830990 65 32 37
17.380028 7.482492 48.830990 65 32 37
17.380028 7.587756 48.830990 64 32 36
17.380028 7.693019 48.830990 64 32 36
17.729961 7.955295 49.814163 65 33 37
17.729961 8.062677 49.814163 66 34 37
17.582457 8.102089 49.399738 67 35 38
17.582457 8.208578 49.399738 67 36 39
18.063345 8.542488 50.750843 67 36 40
18.250530 8.741547 51.276756 66 36 39
18.250530 8.852082 51.276756 66 35 39
18.377489 9.024966 51.633465 65 35 39
18.603973 9.248865 52.269794 65 35 39
18.473875 9.296076 51.904270 65 35 40
18.313789 9.326439 51.454491 66 36 40
18.219063 9.388544 51.188347 65 36 40
18.187706 9.482539 51.100246 65 36 40
18.063345 9.527103 50.750843 65 37 40
17.940674 9.571062 50.406185 65 37 40
17.879961 9.646963 50.235603 64 37 40
17.879961 9.755255 50.235603 63 36 39
17.849758 9.846884 50.150745 62 35 38
17.849758 9.954992 50.150745 61 34 37
17.879961 10.080128 50.235603 61 34 37
17.910265 10.205688 50.320751 61 34 37
17.910265 10.314162 50.320751 61 34 38
17.910265 10.422636 50.320751 62 35 39
17.940674 10.548990 50.406185 62 37 39
17.940674 10.657649 50.406185 62 37 39
17.910265 10.748060 50.320751 62 38 39
17.879961 10.838165 50.235603 60 38 39
17.879961 10.946456 50.235603 58 37 38
17.879961 11.054747 50.235603 56 35 37
17.879961 11.163038 50.235603 54 34 36
17.910265 11.290433 50.320751 53 33 35
17.910265 11.398908 50.320751 53 33 34
17.910265 11.507382 50.320751 54 33 35
17.849758 11.576614 50.150745 54 33 36
17.849758 11.684722 50.150745 54 33 36
17.849758 11.792830 50.150745 54 34 37
26.220984 17.482271 73.670578 54 34 38
18.506229 12.786963 51.995171 53 32 37
18.473875 12.876495 51.904270 52 32 37
18.377489 12.920618 51.633465 52 31 36
18.377489 13.031922 51.633465 52 31 36
18.409506 13.166124 51.723419 52 31 36
18.473875 13.324048 51.904270 52 31 36
14.014664 10.192780 39.375652 52 31 36
13.977588 10.250470 39.271484 52 32 36
13.959124 10.321473 39.219608 51 33 36
13.940708 10.392289 39.167866 49 33 35
13.831226 10.394444 38.860264 48 33 34
13.831226 10.478214 38.860264 47 32 33
13.723450 10.479682 38.557457 46 31 33
13.705650 10.549099 38.507446 47 30 32
18.669712 14.596034 52.454491 46 30 32
18.538696 14.605886 52.086391 46 29 31
18.473875 14.666705 51.904270 46 29 30
18.345585 14.675964 51.543823 46 29 30
18.125311 14.609529 50.924942 46 29 29
18.125311 14.719306 50.924942 47 29 30
18.282104 14.957362 51.365471 47 30 30
18.282104 15.068089 51.365471 47 30 30
18.032520 14.971597 50.664234 47 30 30
17.910265 14.978569 50.320751 47 31 31
17.910265 15.087043 50.320751 46 32 31
18.032520 15.299241 50.664234 46 32 31
18.187706 15.651215 51.100246 44 31 31
18.345585 15.898187 51.543823 43 31 31
18.345585 16.009298 51.543823 42 31 31
18.313789 16.092470 51.454491 41 31 31
18.313789 16.203388 51.454491 41 31 31
18.345585 16.564854 51.543823 38 28 29
14.820557 13.471746 41.639893 38 28 29
14.696880 13.448339 41.292408 37 28 30
12.918162 12.055447 36.294918 37 27 31
12.746751 11.972685 35.813320 36 26 30
12.609853 11.920472 35.428692 35 26 29
12.461152 11.855372 35.010899 34 25 28
12.461152 11.930843 35.010899 35 26 28
20.638783 19.885460 57.986801 36 26 28
20.638783 20.010460 57.986801 36 27 28
20.638783 20.135460 57.986801 36 27 28
20.558475 20.181625 57.761173 35 27 28
20.439180 20.188309 57.425999 35 27 28
20.439180 20.312099 57.425999 35 27 27
18.669712 19.232077 52.454491 35 27 25
18.409506 19.075533 51.723419 37 27 25
18.049332 2.942878 50.406185 78 40 47
17.957867 3.036073 50.150745 79 41 48
17.927584 3.138879 50.066177 80 42 49
17.927584 3.246805 50.066177 82 42 49
17.927584 3.354731 50.066177 82 42 49
17.927584 3.462657 50.066177 82 43 48
17.927584 3.570583 50.066177 81 41 47
17.897402 3.672316 49.981888 79 40 45
17.927584 3.786434 50.066177 78 40 45
17.927584 3.894360 50.066177 77 40 45
17.927584 4.002286 50.066177 76 40 46
17.957867 4.117155 50.150745 75 40 46
18.110828 4.261253 50.577927 74 40 47
18.141735 4.377740 50.664234 75 39 46
18.141735 4.486955 50.664234 75 39 46
18.172747 4.604026 50.750843 74 39 46
18.172747 4.713428 50.750843 74 40 46
18.141735 4.814600 50.664234 74 40 47
18.049332 4.898736 50.406185 74 40 47
18.049332 5.007395 50.406185 74 40 48
17.988251 5.098740 50.235603 73 40 48
17.957867 5.198236 50.150745 73 40 47
17.957867 5.306344 50.150745 73 40 47
18.049332 5.442029 50.406185 74 40 46
18.266420 5.617449 51.012444 73 39 44
18.266420 5.727415 51.012444 73 39 43
18.297859 5.847428 51.100246 72 38 42
18.361065 5.978161 51.276756 72 37 41
18.361065 6.088697 51.276756 71 37 41
18.141735 6.125180 50.664234 70 37 41
18.141735 6.234395 50.664234 69 36 40
18.266420 6.387209 51.012444 67 35 39
18.266420 6.497174 51.012444 67 34 38
18.141735 6.562040 50.664234 66 34 37
18.049332 6.637276 50.406185 66 34 37
17.988251 6.723106 50.235603 65 34 37
17.897402 6.796895 49.981888 65 33 36
17.777687 6.858454 49.647564 64 33 36
17.571995 6.884885 49.073128 64 32 36
17.485291 6.956177 48.830990 63 32 36
17.427961 7.038288 48.670887 63 32 36
17.485291 7.166703 48.830990 63 31 36
17.485291 7.271966 48.830990 63 31 36
17.514097 7.389383 48.911438 63 31 36
17.514097 7.494820 48.911438 63 30 36
17.514097 7.600256 48.911438 62 30 36
17.514097 7.705693 48.911438 62 31 36
17.601088 8.061847 49.154373 65 34 37
17.601088 8.167807 49.154373 66 34 38
18.361065 8.631011 51.276756 66 34 38
18.392832 8.756670 51.365471 65 34 38
18.488794 8.913662 51.633465 64 34 38
18.716648 9.136189 52.269794 64 34 38
18.816029 9.297975 52.547333 64 34 38
18.782785 9.394621 52.454491 64 34 39
18.553328 9.391545 51.813686 64 35 39
18.456696 9.453742 51.543823 64 36 39
18.329409 9.498889 51.188347 65 36 39
18.266420 9.576212 51.012444 64 36 40
18.080029 9.587339 50.491909 64 37 40
18.018740 9.663315 50.320751 64 37 40
17.957867 9.738776 50.150745 63 36 39
17.957867 9.846884 50.150745 61 34 37
17.957867 9.954992 50.150745 60 34 36
17.957867 10.063101 50.150745 61 34 37
17.957867 10.171208 50.150745 61 34 37
17.957867 10.279317 50.150745 61 34 38
17.957867 10.387424 50.150745 61 35 38
17.988251 10.513291 50.235603 61 35 38
17.988251 10.621583 50.235603 62 37 39
17.988251 10.729874 50.235603 62 38 40
17.988251 10.838165 50.235603 61 38 40
17.957867 10.927965 50.150745 59 37 39
17.957867 11.036074 50.150745 56 35 37
17.957867 11.144181 50.150745 54 34 36
17.988251 11.271329 50.235603 53 33 35
17.988251 11.379621 50.235603 52 33 35
17.988251 11.487911 50.235603 53 33 35
17.957867 11.576614 50.150745 53 33 36
17.957867 11.684722 50.150745 53 33 37
17.957867 11.792830 50.150745 54 34 37
17.957867 11.900938 50.150745 54 34 37
18.650976 12.472553 52.086391 53 34 38
18.650976 12.584834 52.086391 53 33 38
18.618313 12.674878 51.995171 53 33 37
18.553328 12.742331 51.813686 53 32 37
18.521004 12.831630 51.723419 52 32 37
18.456696 12.898187 51.543823 52 31 36
18.456696 13.009297 51.543823 52 31 36
18.488794 13.143227 51.633465 52 31 35
18.521004 13.277623 51.723419 52 31 35
18.488794 13.365835 51.633465 52 32 35
14.080870 10.264047 39.323498 52 32 35
14.062244 10.335126 39.271484 51 33 35
14.025141 10.392289 39.167866 49 33 35
14.043668 10.490562 39.219608 48 33 34
17.399439 13.102055 48.591232 47 32 32
17.485291 13.271966 48.830990 46 32 32
18.782785 14.709108 52.454491 45 30 31
18.749659 14.796041 52.361980 45 29 30
18.749659 14.908916 52.361980 44 29 30
18.456696 14.787075 51.543823 45 29 29
18.749659 15.134665 52.361980 45 29 29
18.553328 15.087880 51.813686 45 29 29
18.424707 15.094204 51.454491 45 30 30
18.141735 14.971597 50.664234 44 30 30
18.018740 14.978569 50.320751 44 30 30
18.018740 15.087043 50.320751 44 31 30
18.141735 15.299241 50.664234 44 31 30
18.049332 15.329975 50.406185 43 31 30
18.049332 15.438634 50.406185 43 31 31
18.361065 15.815812 51.276756 42 31 31
18.424707 15.981552 51.454491 41 31 31
18.392832 16.064629 51.365471 41 31 31
18.392832 16.175356 51.365471 40 30 31
18.297859 16.201988 51.100246 39 29 30
18.456696 16.453743 51.543823 38 28 29
18.361065 16.479025 51.276756 38 28 29
12.581132 11.367285 35.135197 38 28 29
12.640971 11.497450 35.302311 37 27 30
12.671104 11.601139 35.386463 37 27 30
12.964704 11.947994 36.206394 37 27 31
12.948912 12.011395 36.162292 37 27 31
12.793089 11.943870 35.727127 36 26 30
12.686225 11.920472 35.428692 35 26 29
12.536623 11.855372 35.010899 34 25 28
12.536623 11.930843 35.010899 34 25 28
20.804417 19.924376 58.100277 35 26 28
20.804417 20.049620 58.100277 36 27 28
20.763783 20.135460 57.986801 36 27 28
20.682989 20.181625 57.761173 36 27 28
20.642828 20.266710 57.649014 35 27 28
18.065973 3.036073 50.150745 79 41 48
18.035509 3.138879 50.066177 80 42 49
18.035509 3.246805 50.066177 81 41 48
18.035509 3.354731 50.066177 81 41 48
18.035509 3.462657 50.066177 80 41 46
18.035509 3.570583 50.066177 79 40 45
18.005146 3.672316 49.981888 77 39 44
17.974886 3.773707 49.897884 76 39 44
17.974886 3.881270 49.897884 75 39 45
17.974886 3.988833 49.897884 74 39 46
18.005146 4.103292 49.981888 73 39 46
18.157991 4.246783 50.406185 73 39 46
18.157991 4.355442 50.406185 73 39 46
18.157991 4.464101 50.406185 73 39 46
18.188871 4.580536 50.491909 73 39 46
18.188871 4.689380 50.491909 72 38 45
18.157991 4.790077 50.406185 71 39 45
18.096542 4.882158 50.235603 71 39 45
18.065973 4.982019 50.150745 71 40 46
18.065973 5.090127 50.150745 70 39 45
18.005146 5.180733 49.981888 70 39 44
17.974886 5.279589 49.897884 70 39 44
18.005146 5.396221 49.981888 71 39 44
18.157991 5.550688 50.406185 71 39 44
18.188871 5.668972 50.491909 72 39 43
18.282148 5.807445 50.750843 72 38 42
18.376387 5.947346 51.012444 72 38 42
18.344866 6.046922 50.924942 71 38 42
18.250950 6.125180 50.664234 71 37 41
18.250950 6.234395 50.664234 70 36 41
18.408014 6.398202 51.100246 68 35 40
18.408014 6.508357 51.100246 68 35 39
18.250950 6.562040 50.664234 67 35 38
18.157991 6.637276 50.406185 67 35 38
18.096542 6.723106 50.235603 66 35 37
18.005146 6.796895 49.981888 65 34 37
17.974886 6.893034 49.897884 64 34 36
17.854853 6.953849 49.564678 63 33 36
17.677780 6.990670 49.073128 63 32 36
17.648609 7.084745 48.992149 62 32 36
17.677780 7.202240 49.073128 62 31 35
17.677780 7.308025 49.073128 61 31 35
17.677780 7.413811 49.073128 61 30 35
17.619534 7.494820 48.911438 61 29 34
17.677780 7.625381 49.073128 61 30 35
17.795435 8.102089 49.399738 64 32 36
17.795435 8.208578 49.399738 65 33 37
18.471600 8.631011 51.276756 65 33 37
18.600098 8.802358 51.633465 64 33 37
18.829325 9.023513 52.269794 63 33 37
18.929304 9.184700 52.547333 62 33 36
18.962866 9.314460 52.640499 62 33 37
18.996548 9.444681 52.734001 62 33 37
18.895861 9.507695 52.454491 63 34 38
18.632504 9.486682 51.723419 63 35 38
18.535627 9.548276 51.454491 63 36 38
18.439753 9.609234 51.188347 63 36 39
18.250950 9.620061 50.664234 63 36 39
18.188871 9.696183 50.491909 63 36 39
18.065973 9.738776 50.150745 61 36 37
18.065973 9.846884 50.150745 60 35 36
18.065973 9.954992 50.150745 60 34 36
18.065973 10.063101 50.150745 61 35 37
18.065973 10.171208 50.150745 61 35 37
18.065973 10.279317 50.150745 61 35 37
18.035509 10.369908 50.066177 61 34 37
18.035509 10.477834 50.066177 60 34 37
18.065973 10.603641 50.150745 61 36 38
18.065973 10.711749 50.150745 62 38 40
18.065973 10.819858 50.150745 61 38 40
18.065973 10.927965 50.150745 59 36 39
18.065973 11.036074 50.150745 57 35 37
18.065973 11.144181 50.150745 54 34 36
18.065973 11.252290 50.150745 53 33 35
18.096542 11.379621 50.235603 52 32 35
18.096542 11.487911 50.235603 52 32 36
18.065973 11.576614 50.150745 53 33 36
18.065973 11.684722 50.150745 53 33 37
18.065973 11.792830 50.150745 52 33 37
18.065973 11.900938 50.150745 52 33 37
18.127214 12.049755 50.320751 51 33 36
18.600098 12.475401 51.633465 51 33 36
18.632504 12.608633 51.723419 52 32 36
18.600098 12.698009 51.633465 52 32 36
18.567806 12.787075 51.543823 52 31 35
18.567806 12.898187 51.543823 51 31 35
18.567806 13.009297 51.543823 51 31 35
18.600098 13.143227 51.633465 51 31 34
18.632504 13.277623 51.723419 51 31 34
18.632504 13.389121 51.723419 51 32 34
18.439753 13.360958 51.188347 51 32 34
14.165638 10.348815 39.323498 50 33 34
14.165638 10.433583 39.323498 49 33 34
17.677780 13.126207 49.073128 48 33 33
17.677780 13.231993 49.073128 47 32 32
17.914667 13.838117 49.730724 44 30 31
18.895861 14.709108 52.454491 44 30 30
18.535627 15.205122 51.454491 42 29 30
18.250950 15.080812 50.664234 42 30 30
18.250950 15.190026 50.664234 42 30 30
18.471600 15.705277 51.276756 42 30 31
18.600098 15.925836 51.633465 42 30 31
18.600098 16.037140 51.633465 41 30 31
18.503559 16.064629 51.365471 40 29 31
18.313454 16.009171 50.837742 39 29 31
18.188871 16.009108 50.491909 38 29 30
12.582419 11.149830 34.928520 38 28 29
12.567635 11.211933 34.887478 38 28 29
12.582419 11.300418 34.928520 37 28 29
12.641911 11.429498 35.093666 37 27 29
12.671868 11.532412 35.176826 37 27 30
12.747386 11.677420 35.386463 37 26 31
12.870104 11.866854 35.727127 36 26 31
12.854635 11.929514 35.684185 35 25 30
12.747386 11.906264 35.386463 35 25 29
12.612095 11.855372 35.010899 34 25 28
12.612095 11.930843 35.010899 34 26 27
20.929661 19.924376 58.100277 35 26 28
20.929661 20.049620 58.100277 36 27 28
20.848064 20.096209 57.873768 36 27 28
20.807503 20.181625 57.761173 36 27 28
20.807503 20.306139 57.761173 36 27 28
18.143435 3.138879 50.066177 80 42 49
18.143435 3.246805 50.066177 80 41 48
18.143435 3.354731 50.066177 79 40 46
18.143435 3.462657 50.066177 78 40 46
18.112890 3.564571 49.981888 77 40 45
18.082449 3.666144 49.897884 76 39 44
18.082449 3.773707 49.897884 75 38 43
18.052109 3.874758 49.814163 73 39 44
18.052109 3.982140 49.814163 73 39 45
18.021870 4.082673 49.730724 72 39 46
18.112890 4.211036 49.981888 72 39 46
18.174082 4.333371 50.150745 72 38 46
18.174082 4.441479 50.150745 71 38 46
18.174082 4.549587 50.150745 70 37 44
18.204834 4.665576 50.235603 70 38 44
18.204834 4.773867 50.235603 70 38 43
18.174082 4.873911 50.150745 69 38 43
18.174082 4.982019 50.150745 68 38 43
18.112890 5.072989 49.981888 68 37 42
18.052109 5.163348 49.814163 67 37 41
18.021870 5.261902 49.730724 67 37 41
18.021870 5.369105 49.730724 68 38 41
18.112890 5.503965 49.981888 69 38 42
18.235689 5.649755 50.320751 70 38 43
18.235689 5.758230 50.320751 71 38 42
18.297716 5.886659 50.491909 71 38 42
18.297716 5.995502 50.491909 71 38 42
18.297716 6.104346 50.491909 70 37 42
18.297716 6.213190 50.491909 70 37 41
18.518169 6.398202 51.100246 69 36 40
18.518169 6.508357 51.100246 69 36 40
18.266649 6.528617 50.406185 68 35 39
18.204834 6.614815 50.235603 67 35 39
18.143435 6.700431 50.066177 67 35 38
18.112890 6.796895 49.981888 65 35 37
18.082449 6.893034 49.897884 64 34 37
17.961697 6.953849 49.564678 63 33 36
17.901924 7.037197 49.399738 62 32 35
17.872187 7.131820 49.317677 61 32 35
17.872187 7.238132 49.317677 61 31 34
17.872187 7.344444 49.317677 61 31 35
17.872187 7.450757 49.317677 60 30 34
17.813007 7.532045 49.154373 60 29 34
17.991734 7.714641 49.647564 60 29 34
17.901924 8.102089 49.399738 64 32 36
17.901924 8.208578 49.399738 64 32 36
18.486351 8.586521 51.012444 64 32 36
18.842482 8.864020 51.995171 63 32 36
18.942001 9.023513 52.269794 62 32 36
19.042578 9.184700 52.547333 61 32 35
19.110226 9.331004 52.734001 60 32 35
19.144228 9.461487 52.827831 60 32 36
18.678917 9.564854 51.543823 61 35 37
18.614285 9.642484 51.365471 62 35 38
18.423042 9.653006 50.837742 62 35 38
18.328886 9.712701 50.577927 61 36 38
18.297716 9.805026 50.491909 60 35 37
18.174082 9.846884 50.150745 60 35 36
18.174082 9.954992 50.150745 60 34 36
18.174082 10.063101 50.150745 60 35 37
18.174082 10.171208 50.150745 61 35 37
18.143435 10.261982 50.066177 61 35 37
18.143435 10.369908 50.066177 60 34 37
18.112890 10.460195 49.981888 59 34 36
18.143435 10.585760 50.066177 60 36 37
18.143435 10.693686 50.066177 62 38 40
18.143435 10.801611 50.066177 61 37 40
18.143435 10.909537 50.066177 59 36 39
18.143435 11.017463 50.066177 57 34 37
18.143435 11.125389 50.066177 55 33 36
18.174082 11.252290 50.150745 53 32 35
18.204834 11.379621 50.235603 52 32 35
18.204834 11.487911 50.235603 52 32 36
18.174082 11.576614 50.150745 52 32 36
18.174082 11.684722 50.150745 51 32 35
18.174082 11.792830 50.150745 51 32 35
18.204834 11.921075 50.235603 50 32 35
18.235689 12.049755 50.320751 50 32 35
18.678917 12.453742 51.543823 50 32 35
18.711403 12.586705 51.633465 50 32 34
18.678917 12.675964 51.543823 51 31 34
18.678917 12.787075 51.543823 51 30 34
18.678917 12.898187 51.543823 50 30 33
18.678917 13.009297 51.543823 50 30 33
18.678917 13.120409 51.543823 50 30 33
18.678917 13.231520 51.543823 51 31 33
18.614285 13.296463 51.365471 50 32 33
18.550098 13.360958 51.188347 49 32 32
18.112890 13.153797 49.981888 48 32 32
17.842548 13.063608 49.235889 48 32 32
17.842548 13.169744 49.235889 47 32 32
17.783566 13.231993 49.073128 47 32 32
17.783566 13.337778 49.073128 45 31 31
18.021870 13.623711 49.730724 45 31 31
18.021870 13.730914 49.730724 45 31 31
17.695816 13.587756 48.830990 44 31 31
17.695816 13.693019 48.830990 43 30 30
18.942001 16.009428 52.269794 41 31 31
18.776712 15.981423 51.813686 41 31 31
18.711403 16.037140 51.633465 41 30 31
18.550098 16.009233 51.188347 40 29 31
18.297716 15.900265 50.491909 40 29 31
12.672623 11.087580 34.969662 38 28 30
12.642839 11.136728 34.887478 37 28 30
12.642839 11.211933 34.887478 37 28 30
12.642839 11.287139 34.887478 37 27 29
12.702546 11.416004 35.052235 37 27 29
12.747698 11.532412 35.176826 36 27 30
12.762819 11.622011 35.218555 36 26 30
12.931559 11.852591 35.684185 36 25 30
12.931559 11.929514 35.684185 36 25 29
12.823667 11.906264 35.386463 35 26 29
12.702546 11.869369 35.052235 34 25 28
12.702546 11.944930 35.052235 35 26 27
12.777977 12.091871 35.260384 35 26 28
21.054905 20.049620 58.100277 36 27 28
20.972820 20.096209 57.873768 36 27 28
20.972820 20.220966 57.873768 36 27 28
16.603483 16.600857 45.816730 33 27 26
18.282190 3.144181 50.150745 80 42 49
18.282190 3.252290 50.150745 79 41 47
18.282190 3.360398 50.150745 77 40 45
18.282190 3.468506 50.150745 76 39 45
18.251360 3.570583 50.066177 76 39 44
18.190012 3.666144 49.897884 75 39 44
18.190012 3.773707 49.897884 74 38 43
18.159491 3.874758 49.814163 72 38 44
18.129072 3.975470 49.730724 71 38 45
18.098757 4.075845 49.647564 72 39 46
18.098757 4.182868 49.647564 72 39 46
18.220634 4.318780 49.981888 71 38 46
18.190012 4.419085 49.897884 70 37 45
18.190012 4.526648 49.897884 69 37 44
18.282190 4.657695 50.150745 69 37 43
18.251360 4.973618 50.066177 66 36 41
18.220634 5.072989 49.981888 65 36 40
18.068542 5.137488 49.564678 65 36 39
18.068542 5.244333 49.564678 65 36 39
18.129072 5.369105 49.730724 66 36 39
18.190012 5.494715 49.897884 67 37 40
18.282190 5.630668 50.150745 68 38 41
18.313124 5.748487 50.235603 69 38 42
18.313124 5.856778 50.235603 70 38 42
18.313124 5.965068 50.235603 70 38 42
18.628325 6.177892 51.100246 70 37 42
18.757463 6.331639 51.454491 69 37 41
21.602907 7.419871 59.259964 68 36 40
18.628325 6.508357 51.100246 68 36 40
18.313124 6.506524 50.235603 68 35 39
18.282190 6.603641 50.150745 67 35 39
18.190012 6.677908 49.897884 66 35 39
18.129072 6.762740 49.730724 65 35 38
18.129072 6.869942 49.730724 64 34 37
18.068542 6.953849 49.564678 63 33 36
18.068542 7.060694 49.564678 61 32 35
18.068542 7.167538 49.564678 60 32 35
18.129072 7.298753 49.730724 60 31 34
18.129072 7.405956 49.730724 60 31 34
18.098757 7.500595 49.647564 60 30 34
18.038427 7.582259 49.482071 60 30 34
18.129072 7.727563 49.730724 59 29 33
18.159491 8.170059 49.814163 62 31 35
18.159491 8.277442 49.814163 63 32 35
18.437916 8.513382 50.577927 63 32 35
18.954565 8.864020 51.995171 62 32 35
19.155853 9.071425 52.547333 61 31 35
19.155853 9.184700 52.547333 60 31 34
18.725012 9.642484 51.365471 60 35 37
18.564419 9.669563 50.924942 61 35 38
18.532631 9.762595 50.837742 60 35 38
18.469379 9.838490 50.664234 60 34 37
18.406559 9.913870 50.491909 59 34 36
18.375309 10.005697 50.406185 59 34 36
18.282190 10.063101 50.150745 60 34 37
18.282190 10.171208 50.150745 60 34 37
18.251360 10.261982 50.066177 61 35 37
18.220634 10.352450 49.981888 61 35 37
18.220634 10.460195 49.981888 60 35 37
18.220634 10.567939 49.981888 60 36 38
18.251360 10.693686 50.066177 61 37 39
18.251360 10.801611 50.066177 61 37 39
18.251360 10.909537 50.066177 59 36 39
18.220634 10.998915 49.981888 57 34 37
18.220634 11.106659 49.981888 56 33 36
18.251360 11.233315 50.066177 54 32 35
18.282190 11.360397 50.150745 52 31 35
18.282190 11.468506 50.150745 51 31 35
18.282190 11.576614 50.150745 51 31 35
18.282190 11.684722 50.150745 51 31 35
18.282190 11.792830 50.150745 50 33 36
18.344164 11.941280 50.320751 50 33 35
18.344164 12.049755 50.320751 49 32 34
18.790030 12.453742 51.543823 49 31 33
18.790030 12.564854 51.543823 49 31 33
18.790030 12.675964 51.543823 49 30 32
18.790030 12.787075 51.543823 49 29 32
18.790030 12.898187 51.543823 49 29 32
18.790030 13.009297 51.543823 48 30 31
18.790030 13.120409 51.543823 49 30 32
18.692671 13.162963 51.276756 48 31 32
18.660442 13.250613 51.188347 48 31 32
18.596317 13.315043 51.012444 48 31 32
18.375309 13.265459 50.406185 47 31 31
18.220634 13.261541 49.981888 46 32 31
18.159491 13.324422 49.814163 45 32 31
17.978498 13.297933 49.317677 46 31 31
18.008413 13.426548 49.399738 45 31 31
18.129072 13.623711 49.730724 45 31 31
18.129072 13.730914 49.730724 44 31 31
17.801081 13.587756 48.830990 44 30 31
17.801081 13.693019 48.830990 44 30 30
17.742716 13.753042 48.670887 43 30 30
18.220634 14.231238 49.981888 43 29 30
17.742716 13.962878 48.670887 42 29 29
17.316891 13.730168 47.502789 42 29 29
16.964039 13.550714 46.534863 42 29 29
19.292437 16.209190 52.922001 40 31 31
18.987818 16.065536 52.086391 40 31 31
18.822708 16.037140 51.633465 41 30 31
18.628325 15.981679 51.100246 40 29 31
18.406559 15.900265 50.491909 39 29 31
18.375309 15.981928 50.406185 38 28 30
12.733007 11.149830 34.928520 37 28 30
12.703118 11.198774 34.846527 36 27 30
12.703118 11.273891 34.846527 36 27 29
12.778107 11.416004 35.052235 36 27 28
12.823526 11.532412 35.176826 36 26 29
12.823526 11.608241 35.176826 36 26 29
13.008482 11.852591 35.684185 36 26 29
13.008482 11.929514 35.684185 36 26 29
12.899948 11.906264 35.386463 35 26 29
12.778107 11.869369 35.052235 35 26 28
12.778107 11.944930 35.052235 35 26 27
12.853987 12.091871 35.260384 35 26 27
21.097576 19.971453 57.873768 35 26 27
21.180149 20.174864 58.100277 35 26 27
16.702248 16.502092 45.816730 33 27 26
16.599781 16.499012 45.535648 33 27 26
18.483967 3.268855 50.406185 76 41 46
18.452639 3.371789 50.320751 75 40 45
18.452639 3.480263 50.320751 75 40 45
18.421415 3.582666 50.235603 75 39 44
18.359285 3.678508 50.066177 74 39 44
18.297575 3.773707 49.897884 72 38 43
18.297575 3.881270 49.897884 71 38 44
18.266874 3.982140 49.814163 70 38 45
18.236277 4.082673 49.730724 70 38 46
18.236277 4.189875 49.730724 70 38 47
18.297575 4.311522 49.897884 69 37 45
18.297575 4.419085 49.897884 68 36 44
18.297575 4.526648 49.897884 68 36 43
18.546946 4.697369 50.577927 67 36 42
18.452639 4.998908 50.320751 65 35 40
18.328379 5.072989 49.981888 64 35 39
18.236277 5.154699 49.730724 63 35 38
18.236277 5.261902 49.730724 64 35 37
18.266874 5.378113 49.814163 65 35 38
18.297575 5.494715 49.897884 66 36 39
18.359285 5.621173 50.066177 67 37 40
18.359285 5.729099 50.066177 68 37 41
18.328379 5.827198 49.981888 69 37 42
18.297575 5.924967 49.897884 69 37 42
18.738480 6.177892 51.100246 69 37 42
22.083279 7.410457 60.221588 68 36 41
22.083279 7.540275 60.221588 67 36 40
21.515923 7.473034 58.674393 67 35 39
18.390299 6.495533 50.150745 67 35 39
18.236277 6.548334 49.730724 66 35 39
18.084812 6.600258 49.317677 65 35 39
18.084812 6.706571 49.317677 64 35 38
18.084812 6.812883 49.317677 62 34 37
18.145094 6.942259 49.482071 61 33 36
18.175386 7.060694 49.564678 59 32 35
18.236277 7.191550 49.730724 59 31 34
18.266874 7.310999 49.814163 59 31 34
18.266874 7.418382 49.814163 59 31 34
18.236277 7.513158 49.730724 59 31 34
18.236277 7.620361 49.730724 59 30 34
18.328379 7.766592 49.981888 60 30 34
18.359285 8.211392 50.066177 61 31 35
18.359285 8.319318 50.066177 61 31 35
18.483967 8.484474 50.406185 61 31 35
19.066648 8.864020 51.995171 61 31 35
19.406519 9.136106 52.922001 61 31 34
18.835737 9.642484 51.365471 59 34 36
18.770788 9.719579 51.188347 59 34 37
18.738480 9.813004 51.100246 59 34 37
18.738480 9.923160 51.100246 59 34 37
18.674196 9.998895 50.924942 59 33 36
18.546946 10.039788 50.577927 59 33 36
18.483967 10.114356 50.406185 59 33 36
18.390299 10.171208 50.150745 59 33 36
18.359285 10.261982 50.066177 60 34 37
18.328379 10.352450 49.981888 61 35 38
18.297575 10.442615 49.897884 61 35 38
18.328379 10.567939 49.981888 61 36 38
18.328379 10.675683 49.981888 60 36 39
18.328379 10.783426 49.981888 60 36 39
18.328379 10.891171 49.981888 59 35 39
18.297575 10.980430 49.897884 57 34 38
18.297575 11.087993 49.897884 55 33 36
18.328379 11.214403 49.981888 54 31 35
18.390299 11.360397 50.150745 52 31 35
18.390299 11.468506 50.150745 51 30 34
18.390299 11.576614 50.150745 50 30 34
18.390299 11.684722 50.150745 50 32 35
18.452639 11.832806 50.320751 50 34 37
18.452639 11.941280 50.320751 50 33 36
18.452639 12.049755 50.320751 49 32 34
18.901140 12.453742 51.543823 48 32 33
18.934011 12.586705 51.633465 48 31 32
18.901140 12.675964 51.543823 48 30 31
18.901140 12.787075 51.543823 48 29 30
18.901140 12.898187 51.543823 49 29 31
18.934011 13.031922 51.633465 48 29 31
18.934011 13.143227 51.633465 48 30 31
18.901140 13.231520 51.543823 47 31 31
18.770788 13.250613 51.188347 46 31 31
18.770788 13.360958 51.188347 46 31 31
18.578594 13.333371 50.664234 46 31 31
18.483967 13.374118 50.406185 45 31 31
18.328379 13.369286 49.981888 44 32 31
18.266874 13.431805 49.814163 44 31 31
18.390299 13.630668 50.150745 44 31 31
18.328379 13.692517 49.981888 44 31 31
18.266874 13.753952 49.814163 44 31 31
17.906343 13.587756 48.830990 44 30 31
17.531492 13.406369 47.808765 44 30 30
17.503307 13.487710 47.731899 43 30 30
17.419291 13.525369 47.502789 42 29 30
17.363728 13.584299 47.351265 42 29 30
17.064352 13.450400 46.534863 42 29 30
16.905367 13.424465 46.101307 41 29 30
16.879158 13.502876 46.029835 42 30 30
19.545883 16.325594 53.302052 40 31 30
19.235083 16.179073 52.454491 40 31 31
18.934011 16.037140 51.633465 40 30 31
18.738480 15.981679 51.100246 40 29 31
18.738480 16.091833 51.100246 39 29 31
18.674196 16.146408 50.924942 38 27 30
18.934011 16.482357 51.633465 36 27 30
12.778235 11.198774 34.846527 35 27 29
12.778235 11.273891 34.846527 35 26 29
12.853668 11.416004 35.052235 35 26 28
12.899356 11.532412 35.176826 35 26 28
12.899356 11.608241 35.176826 35 26 28
13.054025 11.824167 35.598610 36 26 29
13.054025 11.900906 35.598610 36 26 29
12.976230 11.906264 35.386463 36 26 28
12.853668 11.869369 35.052235 36 26 27
12.853668 11.944930 35.052235 35 26 27
12.929996 12.091871 35.260384 35 26 26
12.991714 12.225961 35.428692 35 26 26
16.697939 16.400852 45.535648 34 28 27
16.672369 16.473745 45.465916 34 28 27
18.687811 3.394804 50.664234 75 40 45
18.655973 3.498050 50.577927 75 40 45
18.561113 3.588738 50.320751 74 39 44
18.498407 3.684722 50.150745 73 38 43
18.467213 3.786434 50.066177 71 38 43
18.467213 3.894360 50.066177 70 38 45
18.405138 3.988833 49.897884 70 38 46
18.374256 4.089522 49.814163 69 38 46
18.374256 4.196905 49.814163 68 37 46
18.436123 4.318780 49.981888 68 36 44
18.436123 4.426524 49.981888 67 35 43
18.436123 4.534268 49.981888 67 35 42
18.561113 4.673484 50.320751 66 35 41
18.561113 4.998908 50.320751 64 35 39
18.467213 5.081544 50.066177 63 35 38
18.405138 5.172026 49.897884 62 34 37
18.405138 5.279589 49.897884 63 34 37
18.405138 5.387152 49.897884 64 35 37
18.436123 5.503965 49.981888 65 36 38
18.436123 5.611710 49.981888 65 36 39
18.436123 5.719454 49.981888 66 36 40
18.374256 5.807643 49.814163 67 36 40
18.312803 5.895243 49.647564 68 36 41
18.282232 5.992246 49.564678 68 36 41
18.405138 6.140093 49.897884 67 36 41
22.168131 7.525011 60.099682 66 35 40
21.642405 7.473034 58.674393 65 35 39
18.343479 6.441132 49.730724 65 34 38
18.191124 6.493946 49.317677 65 35 39
18.071051 6.556692 48.992149 64 35 38
18.011606 6.640387 48.830990 62 35 37
18.011606 6.745650 48.830990 61 34 37
18.071051 6.873524 48.992149 60 34 36
18.282232 7.060694 49.564678 59 32 35
18.467213 7.240060 50.066177 58 32 35
18.467213 7.347986 50.066177 58 31 35
18.374256 7.418382 49.814163 59 31 35
18.374256 7.525764 49.814163 59 31 35
18.405138 7.645976 49.897884 60 31 35
18.467213 7.779689 50.066177 61 31 35
18.592627 8.158498 50.406185 62 32 35
18.561113 8.253145 50.320751 61 31 35
18.561113 8.361619 50.320751 61 31 35
19.520599 8.907942 52.922001 60 31 35
19.012251 9.675964 51.543823 57 33 36
18.946465 9.753210 51.365471 58 33 36
18.913742 9.846901 51.276756 58 33 36
18.913742 9.957436 51.276756 58 33 37
18.848635 10.033314 51.100246 59 33 37
18.783974 10.108671 50.924942 59 32 37
18.655973 10.148817 50.577927 58 32 36
18.529707 10.188418 50.235603 59 32 36
18.467213 10.261982 50.066177 59 33 37
18.405138 10.335052 49.897884 60 34 37
18.405138 10.442615 49.897884 60 35 38
18.405138 10.550178 49.897884 60 36 38
18.436123 10.675683 49.981888 60 36 39
18.436123 10.783426 49.981888 60 36 39
18.405138 10.872867 49.897884 59 35 38
18.405138 10.980430 49.897884 56 33 37
18.405138 11.087993 49.897884 54 32 35
18.405138 11.195556 49.897884 54 31 35
18.498407 11.360397 50.150745 52 30 34
18.498407 11.468506 50.150745 51 30 34
18.498407 11.576614 50.150745 50 31 35
18.498407 11.684722 50.150745 50 32 36
18.561113 11.832806 50.320751 50 34 37
18.561113 11.941280 50.320751 50 34 36
18.561113 12.049755 50.320751 49 33 34
19.045317 12.475401 51.633465 48 33 33
19.111792 12.630638 51.813686 47 32 31
19.012251 12.675964 51.543823 47 31 30
19.012251 12.787075 51.543823 47 29 30
19.314034 13.102920 52.361980 48 29 30
19.314034 13.215795 52.361980 48 30 30
19.178734 13.235298 51.995171 47 30 30
19.078495 13.277623 51.723419 47 31 30
19.045317 13.365835 51.633465 46 31 31
19.045317 13.477139 51.633465 45 31 32
19.045317 13.588445 51.633465 45 31 31
18.687811 13.442586 50.664234 44 31 31
18.687811 13.551801 50.664234 43 31 31
19.314034 14.118793 52.361980 43 31 31
19.012251 14.009297 51.543823 43 31 30
18.624247 13.832237 50.491909 44 31 31
18.436123 13.800261 49.981888 44 31 31
18.041279 13.610141 48.911438 45 31 31
17.606201 13.384816 47.731899 44 30 31
17.191612 13.170103 46.607914 43 30 31
17.191612 13.270574 46.607914 42 29 31
17.164665 13.350087 46.534863 42 29 31
17.164665 13.450400 46.534863 42 29 30
16.978382 13.403652 46.029835 41 30 31
16.796099 13.357907 45.535648 41 30 31
16.796099 13.456067 45.535648 41 30 31
19.660784 16.325594 53.302052 40 30 29
19.348156 16.179073 52.454491 40 30 29
19.045317 16.037140 51.633465 40 30 29
18.913742 16.036884 51.276756 39 29 29
18.913742 16.147419 51.276756 39 28 29
19.045317 16.371054 51.633465 37 28 30
19.045317 16.482357 51.633465 36 27 29
19.045317 16.593662 51.633465 35 26 29
18.913742 16.589560 51.276756 34 26 28
12.959830 11.443025 35.135197 33 26 28
12.975185 11.532412 35.176826 34 26 28
13.006005 11.635814 35.260384 35 26 28
13.099350 11.795879 35.513447 35 26 28
13.099350 11.872435 35.513447 35 27 28
13.036972 11.892090 35.344337 36 27 27
12.929229 11.869369 35.052235 36 26 27
12.929229 11.944930 35.052235 35 26 26
13.006005 12.091871 35.260384 35 26 25
13.068087 12.225961 35.428692 35 26 25
16.719170 16.325733 45.327087 35 29 28
18.797026 3.504019 50.664234 74 40 45
18.733089 3.600945 50.491909 73 39 44
18.606514 3.684722 50.150745 72 39 44
18.575138 3.786434 50.066177 70 38 44
18.575138 3.894360 50.066177 69 38 45
18.512701 3.988833 49.897884 69 38 47
18.481638 4.089522 49.814163 68 38 46
18.481638 4.196905 49.814163 67 36 44
18.543867 4.318780 49.981888 66 34 43
18.543867 4.426524 49.981888 66 34 42
18.543867 4.534268 49.981888 66 35 42
18.606514 4.657695 50.150745 66 35 41
18.669588 4.781959 50.320751 65 35 40
18.669588 4.890433 50.320751 65 35 40
18.669588 4.998908 50.320751 64 34 38
18.575138 5.081544 50.066177 63 34 37
18.512701 5.172026 49.897884 62 34 37
18.512701 5.279589 49.897884 62 34 36
18.512701 5.387152 49.897884 63 34 37
18.543867 5.503965 49.981888 64 35 37
18.543867 5.611710 49.981888 65 35 38
18.543867 5.719454 49.981888 65 35 38
18.419827 5.788220 49.647564 65 36 39
18.297436 5.856072 49.317677 66 36 39
18.236849 5.942642 49.154373 66 35 40
18.206705 6.038604 49.073128 66 35 40
18.327881 6.185284 49.399738 65 35 40
18.358427 6.302259 49.482071 65 35 38
18.358427 6.408926 49.482071 64 34 38
18.176661 6.451082 48.992149 63 35 38
18.116869 6.535124 48.830990 62 35 37
18.116869 6.640387 48.830990 61 34 37
18.087120 6.734574 48.750809 60 34 36
18.087120 6.839664 48.750809 59 34 36
18.236849 7.002244 49.154373 58 33 35
18.575138 7.240060 50.066177 58 32 35
18.575138 7.347986 50.066177 59 31 35
18.450682 7.405956 49.730724 59 31 35
18.450682 7.513158 49.730724 59 31 35
18.543867 7.658848 49.981888 60 31 35
18.575138 7.779689 50.066177 61 32 35
18.606514 7.900939 50.150745 62 32 36
18.701284 8.049840 50.406185 62 32 36
18.669588 8.144670 50.320751 62 32 36
18.669588 8.253145 50.320751 61 31 35
18.701284 8.375815 50.406185 60 31 35
19.123362 9.675964 51.543823 56 32 35
19.057192 9.753210 51.365471 57 32 36
19.057192 9.863936 51.365471 57 33 36
19.057192 9.974664 51.365471 58 33 37
19.024277 10.067971 51.276756 59 33 37
18.893751 10.108671 50.924942 59 32 37
18.765003 10.148817 50.577927 58 32 35
18.637999 10.188418 50.235603 58 32 36
18.575138 10.261982 50.066177 58 32 36
18.512701 10.335052 49.897884 59 33 37
18.512701 10.442615 49.897884 60 35 38
18.512701 10.550178 49.897884 60 36 38
18.512701 10.657741 49.897884 60 36 39
18.512701 10.765304 49.897884 60 37 39
18.512701 10.872867 49.897884 59 36 38
18.481638 10.962006 49.814163 56 33 36
18.481638 11.069388 49.814163 54 31 34
18.512701 11.195556 49.897884 53 30 34
18.606514 11.360397 50.150745 52 31 34
18.606514 11.468506 50.150745 52 31 35
18.606514 11.576614 50.150745 50 31 35
18.606514 11.684722 50.150745 50 32 36
18.669588 11.832806 50.320751 50 33 37
18.669588 11.941280 50.320751 50 33 36
18.669588 12.049755 50.320751 49 33 34
19.223484 12.518945 51.813686 48 32 32
19.257092 12.652719 51.904270 47 32 31
19.156620 12.698009 51.633465 47 31 30
19.223484 12.854024 51.813686 47 30 30
19.530243 13.172616 52.640499 47 30 30
19.530243 13.286091 52.640499 47 30 30
19.426908 13.328670 52.361980 46 30 30
19.324661 13.370799 52.086391 46 30 30
19.426908 13.554419 52.361980 46 30 31
19.461231 13.691441 52.454491 45 30 31
19.530243 13.853467 52.640499 44 30 31
19.599745 14.016646 52.827831 43 30 31
19.704931 14.206361 53.111347 43 30 31
20.027376 14.555192 53.980442 42 30 31
20.027376 14.671556 53.980442 43 31 31
19.426908 14.344543 52.361980 43 31 31
18.958790 14.109046 51.100246 44 31 31
18.606514 13.954992 50.150745 44 31 31
18.116869 13.693019 48.830990 44 30 31
17.264978 13.149460 46.534863 44 30 31
17.211025 13.208368 46.389442 43 30 31
17.211025 13.308368 46.389442 43 29 31
17.211025 13.408368 46.389442 42 29 31
17.077608 13.403652 46.029835 42 30 31
16.868387 13.337451 45.465916 42 30 31
16.868387 13.435460 45.465916 41 30 31
16.920210 13.575047 45.605595 40 29 31
19.775684 16.325594 53.302052 39 29 27
19.426908 16.150539 52.361980 39 29 27
19.156620 16.037140 51.633465 39 29 27
19.024277 16.036884 51.276756 38 29 28
19.024277 16.147419 51.276756 38 28 28
19.123362 16.342630 51.543823 37 28 28
19.123362 16.453743 51.543823 36 27 28
19.156620 16.593662 51.633465 35 27 28
26.542305 23.453869 71.540344 33 26 28
13.175905 11.719325 35.513447 34 26 28
13.175905 11.795879 35.513447 34 26 27
13.175905 11.872435 35.513447 35 27 26
13.113163 11.892090 35.344337 35 27 26
13.004789 11.869369 35.052235 35 27 25
13.004789 11.944930 35.052235 35 26 25
13.082015 12.091871 35.260384 35 26 24
13.160163 12.240568 35.471020 35 26 25
18.778063 3.588738 50.320751 72 39 45
18.683064 3.678508 50.066177 71 38 44
18.620264 3.773707 49.897884 69 38 44
18.589022 3.874758 49.814163 68 37 45
18.589022 3.982140 49.814163 68 38 46
18.557884 4.082673 49.730724 67 37 46
18.557884 4.189875 49.730724 65 35 44
18.651611 4.318780 49.981888 64 34 42
18.651611 4.426524 49.981888 64 34 42
18.651611 4.534268 49.981888 65 35 41
18.714622 4.657695 50.150745 65 35 41
18.714622 4.765803 50.150745 64 35 40
18.778063 4.890433 50.320751 64 35 39
18.778063 4.998908 50.320751 63 34 38
18.714622 5.090127 50.150745 62 34 37
18.651611 5.180733 49.981888 61 33 36
18.651611 5.288477 49.981888 61 33 36
18.651611 5.396221 49.981888 62 34 36
18.620264 5.494715 49.897884 63 34 36
18.620264 5.602278 49.897884 64 34 37
18.620264 5.709841 49.897884 64 35 37
18.557884 5.797915 49.730724 64 35 37
18.403749 5.856072 49.317677 65 35 38
18.312490 5.932819 49.073128 65 35 38
18.222132 6.008808 48.830990 64 34 39
18.222132 6.114071 48.830990 63 34 39
18.434370 6.291773 49.399738 62 34 38
18.434370 6.398262 49.399738 62 34 37
18.252153 6.440454 48.911438 62 34 37
18.222132 6.535124 48.830990 61 34 37
18.222132 6.640387 48.830990 61 34 36
18.192211 6.734574 48.750809 60 34 36
18.192211 6.839664 48.750809 59 34 36
