ply
format ascii 1.0
element vertex 1238
property float x
property float y
property float z
property uchar red
property uchar green
property uchar blue
end_header
17.306465 4.084949 51.100246 64 42 49
17.336304 4.202337 51.188347 63 41 47
17.336304 4.312682 51.188347 61 40 46
17.276730 4.407827 51.012444 60 39 44
17.158800 4.486955 50.664234 58 37 42
16.984894 4.549587 50.150745 57 36 40
16.786406 4.603264 49.564678 57 35 39
16.619928 4.663397 49.073128 56 34 38
16.537922 4.745650 48.830990 57 32 36
16.537922 4.850914 48.830990 58 31 35
16.537922 4.956177 48.830990 60 31 35
16.483700 5.044845 48.670887 62 33 36
16.456720 5.141335 48.591232 65 33 37
16.376314 5.220448 48.353813 68 34 39
16.191717 5.264663 47.808765 71 34 40
16.088091 5.333369 47.502789 74 34 41
15.935114 5.384081 47.051098 77 34 42
15.711026 5.408368 46.389442 80 34 43
15.493154 5.431981 45.746136 83 35 45
15.374704 5.488311 45.396397 85 36 47
15.374704 5.586171 45.396397 85 36 49
15.469317 5.719008 45.675758 85 38 52
15.469317 5.817470 45.675758 84 41 55
15.469317 5.915932 45.675758 85 45 58
15.445556 6.005154 45.605595 88 52 63
15.421866 6.094103 45.535648 101 68 79
15.421866 6.192263 45.535648 127 94 104
15.421866 6.290422 45.535648 152 117 128
15.421866 6.388582 45.535648 162 126 138
15.421866 6.486742 45.535648 152 113 128
15.445556 6.595016 45.605595 133 90 109
15.445556 6.693326 45.605595 123 77 99
15.421866 6.781220 45.535648 123 74 97
15.398249 6.868845 45.465916 124 74 96
15.374704 6.956201 45.396397 123 72 93
15.351232 7.043291 45.327087 121 71 89
15.304501 7.119263 45.189106 117 68 84
15.281241 7.205708 45.120430 113 66 80
15.258053 7.291890 45.051960 111 65 77
15.258053 7.389007 45.051960 109 63 75
15.258053 7.486124 45.051960 107 61 73
15.281241 7.594765 45.120430 108 60 74
15.281241 7.692029 45.120430 108 59 73
15.281241 7.789294 45.120430 110 61 75
15.304501 7.898562 45.189106 113 64 78
18.517599 9.792551 54.676319 111 61 74
18.483561 9.892198 54.575813 108 59 72
18.483561 10.009845 54.575813 106 58 70
18.483561 10.127492 54.575813 105 57 69
18.483561 10.245139 54.575813 104 57 70
18.483561 10.362785 54.575813 103 58 71
18.449646 10.461203 54.475674 102 58 72
18.382187 10.539955 54.276493 98 56 70
18.382187 10.656957 54.276493 94 53 68
18.483561 10.833374 54.575813 92 53 68
18.620476 11.032140 54.980080 90 54 68
15.517063 9.983573 45.816730 81 47 58
15.517063 10.082338 45.816730 81 47 59
23.329597 15.307089 68.884552 82 46 59
24.055159 15.936257 71.026894 84 46 60
23.940611 16.012751 70.688675 84 47 60
23.940611 16.165133 70.688675 84 47 60
23.940611 16.317513 70.688675 84 47 60
22.394335 15.406137 66.123032 84 47 58
21.717184 15.078522 64.123634 83 47 56
21.393738 14.990118 63.168602 82 47 55
20.948034 14.811157 61.852589 82 46 53
20.478731 14.609685 60.466888 80 45 51
20.272291 14.591442 59.857342 77 44 48
20.069973 14.573564 59.259964 77 44 48
19.677214 14.413611 58.100277 77 44 48
19.677214 14.538857 58.100277 75 44 47
19.638783 14.635460 57.986801 73 43 46
19.715797 14.818344 58.214199 72 43 46
19.562366 15.201080 57.761173 71 41 46
19.448853 15.236665 57.425999 71 41 46
19.152489 15.126391 56.550938 71 41 44
15.613442 12.430676 46.101307 71 41 44
15.469317 12.414393 45.675758 71 40 44
15.445556 12.493633 45.605595 72 41 45
15.445556 12.591944 45.605595 73 41 46
15.493154 12.729362 45.746136 74 41 47
15.445556 12.788565 45.605595 74 40 46
15.398249 12.847405 45.465916 73 40 46
15.398249 12.945415 45.465916 72 39 45
15.374704 13.023479 45.396397 71 39 45
15.374704 13.121339 45.396397 69 38 45
15.374704 13.219198 45.396397 68 37 44
15.398249 13.337451 45.465916 67 37 44
15.421866 13.456067 45.535648 65 37 43
15.469317 13.595931 45.675758 63 37 42
15.469317 13.694393 45.675758 60 36 39
15.445556 13.771667 45.605595 58 37 38
15.445556 13.869978 45.605595 57 36 37
15.469317 13.989778 45.675758 57 36 37
15.469317 14.088239 45.675758 57 37 37
15.565104 14.274544 45.958580 57 37 38
15.711026 14.508368 46.389442 57 37 38
15.859711 14.746617 46.828457 56 37 39
16.088091 15.061369 47.502789 57 37 39
16.483700 15.536649 48.670887 56 37 39
16.483700 15.641566 48.670887 56 37 40
16.403028 15.669421 48.432693 56 36 40
16.165686 15.545588 47.731899 56 35 40
16.011236 15.498974 47.275864 56 34 39
15.859711 15.453242 46.828457 56 33 38
15.760277 15.456670 46.534863 56 33 37
15.760277 15.556984 46.534863 55 32 37
15.760277 15.657297 46.534863 55 33 37
15.637724 16.232279 46.173004 50 31 33
15.686516 16.382771 46.317070 49 31 32
16.294777 -2.980104 47.808765 82 39 48
16.268579 -2.872419 47.731899 83 39 49
16.268579 -2.769525 47.731899 83 40 50
16.268579 -2.666631 47.731899 84 41 50
16.268579 -2.563737 47.731899 84 42 50
16.268579 -2.460843 47.731899 84 43 50
16.190491 -2.039431 47.502789 82 42 49
16.164627 -1.933937 47.426903 82 42 48
16.164627 -1.831701 47.426903 82 43 48
16.164627 -1.729464 47.426903 82 43 47
16.138845 -1.624632 47.351265 82 43 47
16.113148 -1.520135 47.275864 82 42 47
16.113148 -1.418224 47.275864 81 43 47
16.113148 -1.316313 47.275864 82 44 49
16.061995 -1.210547 47.125782 83 44 50
16.036539 -1.107202 47.051098 84 44 51
15.960657 -1.001017 46.828457 85 43 50
15.960657 -0.900070 46.828457 85 43 50
15.935522 -0.797865 46.754711 86 42 49
15.885489 -0.694889 46.607914 86 42 48
15.860590 -0.593487 46.534863 85 42 47
15.811026 -0.491632 46.389442 84 42 46
15.639964 -0.387395 45.887547 83 41 46
15.496258 -0.285826 45.465916 82 41 46
15.448941 -0.187244 45.327087 82 41 47
15.425391 -0.089397 45.257992 81 41 49
15.425391 0.008164 45.257992 81 41 49
15.425391 0.105725 45.257992 82 41 49
15.496258 0.204220 45.465916 82 41 49
15.496258 0.302229 45.465916 83 41 49
15.520025 0.400852 45.535648 83 40 48
15.615829 0.502092 45.816730 84 40 47
15.664174 0.602717 45.958580 85 41 47
15.737258 0.705063 46.173004 86 44 48
15.761770 0.805850 46.244926 88 47 51
15.761770 0.905538 46.244926 89 49 55
15.761770 1.005227 46.244926 92 52 59
15.786360 1.106639 46.317070 95 56 64
15.811026 1.208368 46.389442 95 57 65
15.811026 1.308368 46.389442 90 53 61
15.786360 1.406171 46.317070 84 47 55
15.761770 1.503669 46.244926 79 43 49
15.761770 1.603357 46.244926 74 39 45
15.761770 1.703046 46.244926 71 37 42
15.639964 1.788803 45.887547 71 37 41
15.543866 1.876122 45.605595 70 37 42
15.496258 1.968385 45.465916 68 37 41
15.496258 2.066394 45.465916 65 37 40
16.321058 2.279606 47.885876 63 37 39
16.588617 2.421894 48.670887 61 37 39
17.093000 2.927965 50.150745 56 34 39
17.093000 3.036073 50.150745 57 35 40
17.093000 3.144181 50.150745 59 37 43
17.150944 3.263314 50.320751 62 40 46
17.297533 3.400608 50.750843 65 43 48
17.356873 3.522051 50.924942 67 44 50
17.356873 3.631828 50.924942 68 46 52
17.356873 3.741605 50.924942 69 47 52
17.297533 3.838214 50.750843 68 46 52
17.268015 3.940880 50.664234 66 43 50
17.356873 4.070936 50.924942 64 41 48
17.386696 4.187896 51.012444 62 40 46
17.386696 4.297862 51.012444 60 39 44
17.297533 4.385223 50.750843 59 38 42
17.150944 4.456535 50.320751 57 37 40
17.006819 4.526648 49.897884 56 36 39
16.781189 4.572729 49.235889 56 35 38
16.670605 4.648032 48.911438 57 34 37
16.643185 4.745650 48.830990 57 33 37
16.615856 4.842948 48.750809 59 32 36
16.588617 4.939927 48.670887 61 32 36
16.561468 5.036588 48.591232 63 32 37
16.507433 5.124560 48.432693 66 33 38
16.427040 5.203499 48.196823 70 33 39
16.242466 5.247762 47.655285 73 33 40
16.113148 5.307891 47.275864 76 34 41
15.910466 5.341754 46.681198 79 34 42
15.712821 5.374775 46.101307 81 34 43
15.543866 5.415293 45.605595 83 35 44
15.448941 5.479932 45.327087 85 35 46
15.448941 5.577642 45.327087 85 36 48
15.591766 5.727820 45.746136 85 37 51
15.591766 5.826434 45.746136 85 40 54
15.567780 5.915932 45.675758 86 45 58
15.543866 6.005154 45.605595 95 57 70
15.520025 6.094103 45.535648 115 78 91
15.520025 6.192263 45.535648 134 97 109
15.520025 6.290422 45.535648 144 105 118
15.520025 6.388582 45.535648 144 103 117
15.520025 6.486742 45.535648 136 93 109
15.520025 6.584901 45.535648 126 79 99
15.520025 6.683061 45.535648 120 71 94
15.496258 6.770835 45.465916 121 70 93
15.448941 6.847871 45.327087 121 71 92
15.425391 6.934993 45.257992 120 70 90
15.401913 7.021850 45.189106 117 68 85
15.331904 7.086902 44.983700 113 65 80
15.331904 7.183872 44.983700 109 63 75
15.308709 7.269827 44.915646 107 62 73
15.331904 7.377811 44.983700 105 61 72
15.355169 7.486124 45.051960 105 61 72
15.355169 7.583241 45.051960 106 61 73
15.355169 7.680357 45.051960 107 61 73
15.378506 7.789294 45.120430 108 61 75
15.378506 7.886559 45.120430 110 62 75
15.378506 7.983823 45.120430 109 62 74
15.401913 8.093388 45.189106 108 60 72
15.425391 8.203286 45.257992 106 58 69
15.448941 8.313519 45.327087 104 57 67
18.601208 10.127492 54.575813 103 56 67
18.635464 10.264007 54.676319 102 55 67
18.635464 10.381870 54.676319 101 55 68
18.635464 10.499734 54.676319 99 55 69
18.601208 10.598080 54.575813 95 54 67
18.601208 10.715727 54.575813 92 52 65
18.738995 10.913621 54.980080 89 51 64
23.478090 15.307089 68.884552 81 45 59
24.208269 15.936257 71.026894 82 45 59
23.478090 15.604073 68.884552 83 45 59
24.092993 16.165133 70.688675 83 46 59
22.536875 15.263597 66.123032 83 47 59
22.387293 15.303884 65.684166 83 47 58
21.855413 15.078522 64.123634 82 46 56
21.529907 14.990118 63.168602 81 46 55
21.081367 14.811157 61.852589 80 46 53
20.609077 14.609685 60.466888 79 45 51
20.401323 14.591442 59.857342 77 44 49
20.197718 14.573564 59.259964 76 43 48
19.802460 14.413611 58.100277 75 43 47
19.763783 14.510460 57.986801 74 43 46
19.648653 14.550205 57.649014 72 42 46
19.686880 14.703026 57.761173 71 42 46
15.543866 12.297013 45.605595 70 40 43
15.472564 12.338464 45.396397 70 40 43
15.448941 12.417336 45.327087 70 40 43
15.448941 12.515046 45.327087 71 40 44
15.448941 12.612757 45.327087 72 40 45
15.448941 12.710466 45.327087 72 40 46
15.448941 12.808176 45.327087 71 39 45
15.425391 12.886212 45.257992 71 39 45
15.425391 12.983773 45.257992 70 38 45
15.448941 13.101306 45.327087 69 38 45
15.472564 13.219198 45.396397 67 38 45
15.520025 13.357907 45.535648 66 37 44
15.567780 13.497470 45.675758 64 37 43
15.591766 13.616880 45.746136 62 36 41
15.639964 13.757891 45.887547 59 36 39
15.591766 13.814107 45.746136 58 36 38
15.567780 13.891316 45.675758 57 36 37
15.567780 13.989778 45.675758 57 36 37
15.639964 14.153563 45.887547 56 36 38
15.712821 14.318875 46.101307 56 36 38
15.811026 14.508368 46.389442 56 36 38
15.910466 14.700245 46.681198 55 36 39
15.960657 14.847564 46.828457 55 36 39
16.216436 15.188069 47.578915 55 36 39
16.507433 15.565017 48.432693 55 36 40
16.321058 15.492509 47.885876 55 35 40
16.242466 15.520635 47.655285 56 35 40
16.087530 15.474333 47.200703 56 34 39
15.960657 15.453242 46.828457 56 33 38
15.860590 15.456670 46.534863 55 33 38
15.835770 15.532638 46.462036 55 32 37
15.811026 15.608368 46.389442 55 33 37
15.737258 16.232279 46.173004 49 32 33
15.688460 16.281172 46.029835 49 31 32
16.397837 -2.980104 47.808765 81 38 47
16.371473 -2.872419 47.731899 82 39 47
16.371473 -2.769525 47.731899 83 41 49
16.371473 -2.666631 47.731899 83 42 50
16.371473 -2.563737 47.731899 84 43 50
16.345196 -2.456893 47.655285 84 43 51
16.292891 -2.039431 47.502789 82 42 49
16.292891 -1.937031 47.502789 82 42 49
16.292891 -1.834631 47.502789 82 42 48
16.266863 -1.729464 47.426903 82 42 47
16.266863 -1.627228 47.426903 82 42 47
16.240919 -1.522559 47.351265 82 42 47
16.240919 -1.420486 47.351265 82 42 47
16.240919 -1.318412 47.351265 82 43 48
16.189280 -1.212471 47.200703 82 43 49
16.163582 -1.108960 47.125782 82 43 50
16.112431 -1.004184 46.976650 82 42 50
16.086977 -0.901492 46.902435 83 42 49
16.061604 -0.799124 46.828457 84 42 49
16.011095 -0.695982 46.681198 85 42 48
15.985960 -0.594418 46.607914 84 42 47
15.911026 -0.491632 46.389442 83 42 46
15.836791 -0.389805 46.173004 82 41 46
15.618185 -0.286265 45.535648 82 41 47
15.570423 -0.187530 45.396397 81 41 48
15.522952 -0.089397 45.257992 81 41 50
15.522952 0.008164 45.257992 82 41 51
15.570423 0.106048 45.396397 82 42 51
15.690380 0.205478 45.746136 83 42 51
15.642176 0.303157 45.605595 84 41 50
15.690380 0.402705 45.746136 84 41 49
15.738882 0.502868 45.887547 83 40 47
15.812200 0.604589 46.101307 84 41 47
15.861459 0.706161 46.244926 86 43 49
15.886204 0.807107 46.317070 87 47 52
15.861459 0.905538 46.244926 89 49 54
15.861459 1.005227 46.244926 90 51 57
15.886204 1.106639 46.317070 93 54 61
15.911026 1.208368 46.389442 93 56 62
15.911026 1.308368 46.389442 89 51 58
15.911026 1.408368 46.389442 82 46 52
15.886204 1.506015 46.317070 77 42 47
15.886204 1.605859 46.317070 73 39 44
15.861459 1.703046 46.244926 71 38 41
15.738882 1.788803 45.887547 69 38 41
15.690380 1.881904 45.746136 68 38 41
15.642176 1.974432 45.605595 66 38 41
16.638981 2.204829 48.511833 64 37 40
16.693535 2.316976 48.670887 61 37 38
17.201109 2.819857 50.150745 56 34 39
17.201109 2.927965 50.150745 56 35 40
17.201109 3.036073 50.150745 58 36 41
17.201109 3.144181 50.150745 60 38 43
17.259418 3.263314 50.320751 63 41 47
17.377230 3.394804 50.664234 66 43 49
17.406935 3.510009 50.750843 68 46 51
17.406935 3.619411 50.750843 69 46 52
17.406935 3.728813 50.750843 68 46 52
17.377230 3.831665 50.664234 67 45 50
17.318123 3.927475 50.491909 65 42 48
17.347626 4.043195 50.577927 62 40 45
17.406935 4.166420 50.750843 60 39 44
17.406935 4.275821 50.750843 58 38 42
17.288721 4.355442 50.406185 57 37 40
17.201109 4.441479 50.150745 56 36 39
17.000095 4.496420 49.564678 55 35 38
16.803724 4.550092 48.992149 55 35 38
16.748449 4.640387 48.830990 57 34 37
16.720947 4.737858 48.750809 58 33 36
16.693535 4.835009 48.670887 60 32 37
16.638981 4.923783 48.511833 63 32 37
16.611837 5.020156 48.432693 65 32 38
16.530935 5.099603 48.196823 68 33 38
16.450819 5.178280 47.963234 71 33 39
16.319000 5.239352 47.578915 75 33 40
16.137966 5.282655 47.051098 77 33 41
15.911026 5.308368 46.389442 80 34 41
15.690380 5.333367 45.746136 82 34 42
15.546651 5.382222 45.327087 84 35 44
15.522952 5.471579 45.257992 85 35 45
15.522952 5.569139 45.257992 85 36 48
15.642176 5.710224 45.605595 85 37 50
15.666241 5.817470 45.675758 84 39 53
15.642176 5.906844 45.605595 88 46 60
15.642176 6.005154 45.605595 106 65 79
15.618185 6.094103 45.535648 129 88 102
15.594268 6.182780 45.465916 140 98 113
15.594268 6.280789 45.465916 139 95 111
15.594268 6.378798 45.465916 133 87 104
15.594268 6.476808 45.465916 128 79 98
15.594268 6.574817 45.465916 123 73 94
15.594268 6.672826 45.465916 120 68 91
15.546651 6.750161 45.327087 120 67 91
15.522952 6.837432 45.257992 120 68 89
15.475770 6.913914 45.120430 118 68 86
15.428874 6.989933 44.983700 114 66 82
15.382260 7.065492 44.847797 110 64 77
15.382260 7.162169 44.847797 107 61 74
15.382260 7.258845 44.847797 104 61 71
15.405532 7.366650 44.915646 103 61 70
15.428874 7.474781 44.983700 103 60 69
15.428874 7.571751 44.983700 103 61 70
15.452287 7.680357 45.051960 104 61 71
15.452287 7.777474 45.051960 105 60 72
15.475770 7.886559 45.120430 105 59 71
15.475770 7.983823 45.120430 104 58 70
15.499325 8.093388 45.189106 103 57 67
15.499325 8.190800 45.189106 102 56 65
15.522952 8.300847 45.257992 101 55 64
15.522952 8.398408 45.257992 101 54 63
15.546651 8.508940 45.327087 100 54 64
18.753326 10.381870 54.676319 98 53 65
18.753326 10.499734 54.676319 96 53 65
18.753326 10.617598 54.676319 94 52 64
15.911026 10.508368 46.389442 82 44 59
15.985960 10.658329 46.607914 82 45 59
22.429640 15.095496 65.394806 82 46 59
21.993643 14.940292 64.123634 81 46 58
21.993643 15.078522 64.123634 80 46 57
21.666079 14.990118 63.168602 79 46 55
21.214701 14.811157 61.852589 79 46 53
20.697269 14.579990 60.343987 78 45 51
20.366114 14.474710 59.378483 77 44 49
20.284973 14.544533 59.141918 75 44 48
19.888783 14.385460 57.986801 74 43 47
19.811394 14.453999 57.761173 73 42 46
19.696434 14.493917 57.425999 72 41 45
19.811394 14.703026 57.761173 71 41 45
15.570423 12.240604 45.396397 67 38 42
15.570423 12.338464 45.396397 68 38 42
15.546651 12.417336 45.327087 69 38 42
15.546651 12.515046 45.327087 70 38 43
15.546651 12.612757 45.327087 71 39 44
15.546651 12.710466 45.327087 71 39 45
15.522952 12.788651 45.257992 70 39 45
15.499325 12.866599 45.189106 70 39 45
15.499325 12.964011 45.189106 70 39 45
15.499325 13.061424 45.189106 69 38 45
15.546651 13.199016 45.327087 68 38 45
15.618185 13.357907 45.535648 66 37 44
15.666241 13.497470 45.675758 64 37 43
15.714594 13.637895 45.816730 61 36 41
15.787684 13.800551 46.029835 60 36 40
15.714594 13.835425 45.816730 58 36 39
15.690380 13.912721 45.746136 57 35 38
15.690380 14.011333 45.746136 56 35 38
15.787684 14.197451 46.029835 56 36 38
15.836791 14.341144 46.173004 56 36 39
15.861459 14.463170 46.244926 55 36 39
15.911026 14.608368 46.389442 55 35 39
15.935925 14.731386 46.462036 55 35 39
15.935925 14.831542 46.462036 55 35 39
16.319000 15.290634 47.578915 55 35 40
16.319000 15.393198 47.578915 55 35 41
16.189280 15.372584 47.200703 56 34 40
16.137966 15.425286 47.051098 56 34 39
16.011095 15.404647 46.681198 56 34 39
15.960904 15.456670 46.534863 55 33 37
15.911026 15.508368 46.389442 54 33 36
13.686904 13.426553 39.904896 54 33 37
13.505381 13.333363 39.375652 54 33 37
15.787684 16.082722 46.029835 49 33 34
15.738882 16.131926 45.887547 48 32 33
15.738882 16.230843 45.887547 48 31 32
16.500896 -2.980104 47.808765 80 39 46
16.447924 -2.867808 47.655285 81 40 46
16.447924 -2.765079 47.655285 82 42 48
16.474367 -2.666631 47.731899 83 42 49
16.474367 -2.563737 47.731899 83 43 50
16.447924 -2.456893 47.655285 84 44 51
16.474367 -2.357949 47.731899 84 44 51
21.259453 -2.910051 61.595940 83 44 51
16.447924 -2.148707 47.655285 82 43 50
16.395290 -2.039431 47.502789 81 42 50
16.395290 -1.937031 47.502789 82 41 49
16.395290 -1.834631 47.502789 82 41 49
16.395290 -1.732231 47.502789 82 41 48
16.395290 -1.629831 47.502789 82 41 48
16.369101 -1.524991 47.426903 82 41 48
16.369101 -1.422755 47.426903 82 42 48
16.342993 -1.318412 47.351265 81 42 48
16.316969 -1.214402 47.275864 80 42 48
16.265169 -1.108960 47.125782 80 41 48
16.239393 -1.005776 47.051098 81 41 48
16.239393 -0.904350 47.051098 82 42 49
16.213697 -0.801653 46.976650 83 42 48
16.188084 -0.699280 46.902435 84 43 48
16.111725 -0.595353 46.681198 83 43 48
16.061216 -0.493173 46.534863 82 43 47
16.011026 -0.391632 46.389442 81 42 47
15.911578 -0.289821 46.101307 81 42 47
15.716345 -0.188105 45.535648 80 42 49
15.668283 -0.089671 45.396397 81 42 50
15.788993 0.008252 45.746136 82 42 52
15.862317 0.107361 45.958580 83 42 52
15.886909 0.206753 46.029835 85 42 52
15.862317 0.305504 45.958580 85 42 52
15.886909 0.405202 46.029835 84 41 49
15.911578 0.505210 46.101307 83 39 47
15.936324 0.605529 46.173004 83 40 46
15.986048 0.707263 46.317070 85 43 49
15.986048 0.807107 46.317070 87 46 53
15.986048 0.906951 46.317070 88 49 55
15.961147 1.005227 46.244926 88 49 55
15.961147 1.104915 46.244926 89 51 57
16.011026 1.208368 46.389442 89 51 57
16.011026 1.308368 46.389442 85 48 53
16.011026 1.408368 46.389442 79 43 48
16.011026 1.508368 46.389442 75 40 44
16.011026 1.608368 46.389442 72 39 42
15.986048 1.705703 46.317070 70 38 40
15.911578 1.797136 46.101307 69 38 40
15.886909 1.893574 46.029835 67 38 40
16.853712 2.114072 48.830990 65 38 40
16.853712 2.219335 48.830990 62 37 39
16.881477 2.328428 48.911438 59 37 37
17.309217 2.819857 50.150745 55 34 39
17.309217 2.927965 50.150745 57 35 40
17.309217 3.036073 50.150745 59 37 42
17.309217 3.144181 50.150745 61 39 45
17.367893 3.263314 50.320751 64 42 48
17.486444 3.394804 50.664234 68 45 50
17.486444 3.504019 50.664234 69 47 52
17.486444 3.613235 50.664234 69 46 51
17.486444 3.722450 50.664234 68 45 50
17.426968 3.818632 50.491909 66 43 48
17.426968 3.927475 50.491909 63 40 46
17.397379 4.029466 50.406185 61 39 43
17.426968 4.145163 50.491909 59 38 41
17.397379 4.246783 50.406185 57 37 40
17.309217 4.333371 50.150745 56 36 39
17.193048 4.411670 49.814163 56 36 38
16.965326 4.459198 49.154373 55 35 37
16.853712 4.535124 48.830990 55 34 36
16.826036 4.632768 48.750809 57 33 36
16.798454 4.730091 48.670887 59 33 36
16.743557 4.819208 48.511833 61 32 37
16.716242 4.915751 48.432693 63 32 37
16.634832 4.995707 48.196823 66 32 38
16.554211 5.074888 47.963234 68 33 38
16.474367 5.153305 47.731899 72 33 39
16.342993 5.214283 47.351265 76 33 40
16.061216 5.224695 46.534863 79 33 40
15.837800 5.250936 45.887547 82 33 41
15.692277 5.300697 45.465916 83 34 42
15.620513 5.374018 45.257992 84 34 43
15.620513 5.471579 45.257992 85 35 45
15.620513 5.569139 45.257992 85 36 47
15.692277 5.692734 45.465916 84 37 49
15.740486 5.808534 45.605595 84 39 53
15.740486 5.906844 45.605595 95 52 66
15.716345 5.995944 45.535648 119 75 89
15.692277 6.084771 45.465916 140 96 111
15.692277 6.182780 45.465916 146 100 116
15.668283 6.271186 45.396397 139 91 109
15.668283 6.369045 45.396397 130 80 98
15.692277 6.476808 45.465916 124 72 92
15.692277 6.574817 45.465916 121 68 89
15.644361 6.652451 45.327087 119 66 88
15.620513 6.739871 45.257992 118 65 87
15.573034 6.816649 45.120430 118 64 85
15.525844 6.892963 44.983700 115 64 83
15.455590 6.958304 44.780155 112 63 78
15.432314 7.044210 44.712715 109 61 75
15.455590 7.151366 44.780155 105 60 72
15.455590 7.247897 44.780155 103 59 70
15.478937 7.355522 44.847797 102 59 68
15.502355 7.463473 44.915646 102 58 67
15.502355 7.560296 44.915646 102 58 67
15.525844 7.668720 44.983700 102 59 68
15.549403 7.777474 45.051960 102 58 68
15.549403 7.874591 45.051960 102 56 67
15.573034 7.983823 45.120430 100 55 65
15.596738 8.093388 45.189106 99 54 63
15.596738 8.190800 45.189106 99 53 61
15.620513 8.300847 45.257992 98 52 60
15.620513 8.398408 45.257992 98 52 60
15.620513 8.495969 45.257992 98 52 61
15.620513 8.593530 45.257992 97 52 62
18.836502 10.480433 54.575813 95 52 62
16.036083 10.524813 46.462036 80 44 58
16.061216 10.641623 46.534863 80 44 58
16.061216 10.741937 46.534863 81 45 58
22.084173 14.908093 63.985435 80 46 57
22.084173 15.046024 63.985435 78 46 56
21.755959 14.958292 63.034485 78 45 55
21.348034 14.811157 61.852589 77 45 52
20.827351 14.579990 60.343987 76 45 51
20.494114 14.474710 59.378483 75 44 49
20.412464 14.544533 59.141918 74 44 47
20.013783 14.385460 57.986801 73 42 46
19.935907 14.453999 57.761173 72 41 46
19.781963 14.465938 57.315140 71 41 45
15.692277 12.161341 45.465916 68 40 44
15.668283 12.240604 45.396397 67 38 42
15.668283 12.338464 45.396397 67 37 41
15.644361 12.417336 45.327087 67 37 42
15.644361 12.515046 45.327087 68 37 42
15.644361 12.612757 45.327087 69 38 43
15.620513 12.691091 45.257992 70 39 44
15.620513 12.788651 45.257992 70 40 44
15.573034 12.847045 45.120430 70 40 44
15.573034 12.944309 45.120430 70 39 45
15.573034 13.041574 45.120430 69 39 45
15.620513 13.178896 45.257992 68 38 44
15.716345 13.357907 45.535648 67 37 44
15.764703 13.497470 45.675758 64 37 42
15.837800 13.658973 45.887547 62 36 41
15.936324 13.843476 46.173004 60 36 41
15.837800 13.856809 45.887547 59 36 39
15.813359 13.934191 45.816730 57 35 38
15.813359 14.032956 45.816730 56 35 38
15.886909 14.197451 46.029835 57 36 39
15.936324 14.341144 46.173004 56 36 40
15.911578 14.418254 46.101307 56 36 41
15.936324 14.540211 46.173004 56 36 40
15.764703 14.482085 45.675758 55 35 40
15.740486 14.558149 45.605595 55 35 39
15.740486 14.656460 45.605595 55 35 40
16.239393 15.222433 47.051098 55 34 40
16.239393 15.323860 47.051098 56 34 40
16.369101 15.548491 47.426903 56 34 39
16.188084 15.477654 46.902435 56 34 38
16.036083 15.532638 46.462036 54 33 36
16.011026 15.608368 46.389442 53 33 36
13.554308 13.298089 39.271484 53 33 36
13.325171 13.156509 38.607597 53 33 36
13.325171 13.239734 38.607597 52 33 35
13.325171 13.322959 38.607597 51 33 35
13.290606 13.371408 38.507446 49 33 34
15.596738 15.788973 45.189106 48 32 33
15.668283 15.959259 45.396397 47 31 32
15.692277 16.081709 45.465916 47 31 32
22.761715 -4.226588 65.539169 78 38 44
16.577261 -2.975313 47.731899 79 39 45
16.550653 -2.867808 47.655285 80 40 46
16.550653 -2.765079 47.655285 81 42 47
16.577261 -2.666631 47.731899 82 42 49
16.577261 -2.563737 47.731899 83 43 50
16.603956 -2.464806 47.808765 83 44 51
16.603956 -2.361746 47.808765 83 44 51
21.347944 -2.904026 61.468410 82 44 51
16.550653 -2.148707 47.655285 81 42 50
16.497690 -2.039431 47.502789 81 41 50
16.471336 -1.933937 47.426903 81 41 49
16.497690 -1.834631 47.502789 81 41 49
16.524130 -1.735007 47.578915 82 41 49
16.524130 -1.632443 47.578915 82 41 49
16.471336 -1.524991 47.426903 82 41 49
16.471336 -1.422755 47.426903 81 41 49
16.471336 -1.320518 47.426903 79 41 48
16.392776 -1.110723 47.200703 77 40 47
16.366756 -1.007372 47.125782 79 41 48
16.366756 -0.905785 47.125782 81 42 48
16.366756 -0.804198 47.125782 82 43 49
16.366756 -0.702610 47.125782 82 43 49
16.263496 -0.597231 46.828457 82 43 49
16.212353 -0.494724 46.681198 81 43 48
16.136238 -0.392245 46.462036 80 43 48
16.111027 -0.291632 46.389442 80 42 48
16.035858 -0.190738 46.173004 80 42 49
16.010958 -0.091063 46.101307 81 42 51
16.010958 0.008316 46.101307 83 43 52
16.010958 0.107695 46.101307 84 43 52
16.010958 0.207074 46.101307 86 42 52
16.010958 0.306453 46.101307 86 42 52
16.035858 0.406463 46.173004 85 41 50
16.035858 0.505996 46.173004 83 40 48
16.085892 0.607419 46.317070 83 40 48
16.085892 0.707263 46.317070 84 43 50
16.085892 0.807107 46.317070 86 46 53
16.085892 0.906951 46.317070 86 47 54
16.060837 1.005227 46.244926 85 47 53
16.060837 1.104915 46.244926 85 47 53
16.111027 1.208368 46.389442 83 46 52
16.111027 1.308368 46.389442 80 43 48
16.111027 1.408368 46.389442 77 40 43
16.111027 1.508368 46.389442 74 39 41
16.111027 1.608368 46.389442 72 39 40
16.085892 1.705703 46.317070 70 38 40
16.111027 1.808368 46.389442 68 38 39
16.986914 2.012118 48.911438 66 38 39
17.043068 2.124554 49.073128 64 38 39
17.014944 2.226659 48.992149 61 37 38
17.043068 2.336125 49.073128 58 36 37
17.417326 2.819857 50.150745 55 34 38
17.417326 2.927965 50.150745 57 35 40
17.417326 3.036073 50.150745 59 37 42
17.417326 3.144181 50.150745 63 41 46
17.476368 3.263314 50.320751 67 44 48
17.535810 3.383258 50.491909 69 46 51
17.595659 3.504019 50.664234 70 47 52
17.595659 3.613235 50.664234 69 46 51
17.535810 3.709788 50.491909 67 43 48
17.535810 3.818632 50.491909 65 42 46
17.476368 3.914162 50.320751 63 41 44
17.476368 4.022636 50.320751 60 39 42
17.446796 4.124121 50.235603 59 38 40
17.417326 4.225263 50.150745 57 37 40
17.329508 4.311522 49.897884 56 36 38
17.128000 4.367700 49.317677 55 35 37
16.986914 4.437159 48.911438 55 35 37
16.903372 4.520255 48.670887 55 34 36
16.903372 4.625173 48.670887 57 33 36
16.848131 4.714633 48.511833 60 33 36
16.820646 4.811347 48.432693 62 32 37
16.711599 4.883883 48.118706 64 32 37
16.603956 4.955484 47.808765 66 31 37
16.577261 5.050411 47.731899 69 31 37
16.445066 5.112210 47.351265 73 31 38
16.289188 5.164858 46.902435 77 32 39
15.986135 5.167993 46.029835 80 33 40
15.814504 5.210668 45.535648 83 34 41
15.718074 5.276456 45.257992 85 34 41
15.694150 5.365838 45.189106 86 35 43
15.694150 5.463250 45.189106 86 36 45
15.718074 5.569139 45.257992 86 37 47
15.766142 5.684030 45.396397 86 39 50
15.790286 5.790743 45.465916 91 45 57
15.814504 5.897784 45.535648 108 64 76
15.790286 5.986762 45.465916 131 87 100
15.766142 6.075467 45.396397 146 100 116
15.766142 6.173326 45.396397 149 99 117
15.766142 6.271186 45.396397 140 89 108
15.766142 6.369045 45.396397 129 76 96
15.766142 6.466904 45.396397 122 67 87
15.742071 6.554741 45.327087 118 63 84
15.742071 6.652451 45.327087 117 63 84
15.694150 6.729612 45.189106 117 64 84
15.646520 6.806306 45.051960 117 64 83
15.552121 6.861773 44.780155 114 62 80
15.552121 6.958304 44.780155 110 60 75
15.528700 7.044210 44.712715 107 59 72
15.552121 7.151366 44.780155 104 58 70
15.552121 7.247897 44.780155 102 57 68
15.575614 7.355522 44.847797 101 57 66
15.599178 7.463473 44.915646 100 56 65
15.599178 7.560296 44.915646 100 56 65
15.622813 7.668720 44.983700 100 56 65
15.646520 7.777474 45.051960 99 55 65
15.670299 7.886559 45.120430 98 54 63
15.694150 7.995975 45.189106 97 52 61
15.694150 8.093388 45.189106 96 52 60
15.718074 8.203286 45.257992 95 51 58
15.742071 8.313519 45.327087 95 51 57
15.742071 8.411230 45.327087 95 51 58
15.718074 8.495969 45.257992 95 51 58
15.575614 8.515643 44.847797 94 51 58
15.575614 8.612319 44.847797 92 51 58
16.497690 10.248569 47.502789 77 44 53
16.111027 10.408368 46.389442 78 43 55
16.111027 10.508368 46.389442 78 43 55
16.136238 10.624969 46.462036 79 44 56
16.136238 10.725126 46.462036 79 45 57
16.186903 10.859271 46.607914 78 45 56
21.891840 14.822411 63.034485 77 45 55
21.845459 14.926600 62.900936 77 45 54
21.481367 14.811157 61.852589 76 45 52
20.957432 14.579990 60.343987 75 44 50
20.663441 14.503718 59.497478 74 44 48
20.622114 14.602711 59.378483 73 44 46
20.622114 14.730711 59.378483 72 42 46
20.138783 14.510460 57.986801 71 41 45
15.790286 12.161341 45.465916 68 40 44
15.766142 12.240604 45.396397 66 38 42
15.766142 12.338464 45.396397 66 37 41
15.742071 12.417336 45.327087 66 36 41
15.718074 12.495969 45.257992 67 37 42
15.718074 12.593530 45.257992 69 38 42
15.718074 12.691091 45.257992 70 39 44
15.694150 12.769186 45.189106 70 40 44
15.670299 12.847045 45.120430 70 41 44
15.670299 12.944309 45.120430 70 40 44
15.646520 13.021784 45.051960 69 39 44
15.670299 13.138838 45.120430 68 38 43
15.766142 13.317058 45.396397 67 37 43
15.838797 13.476736 45.605595 65 36 42
15.961388 13.680117 45.958580 63 36 41
16.035858 13.843476 46.173004 61 36 40
15.961388 13.878260 45.958580 59 35 39
15.912125 13.934191 45.816730 58 35 38
15.912125 14.032956 45.816730 57 35 39
15.961388 14.175473 45.958580 56 35 39
16.010958 14.318875 46.101307 56 35 40
15.986135 14.395900 46.029835 56 35 41
15.887607 14.405787 45.746136 56 35 41
15.790286 14.415552 45.465916 55 35 41
15.766142 14.491369 45.396397 55 35 40
15.718074 14.544749 45.257992 56 35 40
15.766142 14.687088 45.396397 56 35 40
16.340818 15.323860 47.051098 56 34 39
13.443359 13.107373 38.708267 52 33 35
13.373614 13.122380 38.507446 52 32 35
13.356291 13.188284 38.457569 52 33 35
13.356291 13.271186 38.457569 50 33 34
13.339012 13.336812 38.407818 49 32 33
13.339012 13.419606 38.407818 47 31 32
15.599178 15.790251 44.915646 47 31 32
23.158609 -4.416617 66.270630 75 38 43
22.902994 -4.226588 65.539169 76 38 44
16.680155 -2.975313 47.731899 78 39 45
16.626694 -2.863212 47.578915 79 40 46
16.626694 -2.760648 47.578915 81 41 47
16.707016 -2.670925 47.808765 82 42 48
16.707016 -2.567866 47.808765 82 43 50
16.707016 -2.464806 47.808765 82 43 50
16.707016 -2.361746 47.808765 82 43 51
16.707016 -2.258687 47.808765 81 42 50
12.683443 -1.636485 36.294918 79 41 48
12.683443 -1.558245 36.294918 79 40 48
16.573572 -1.933937 47.426903 79 40 48
16.626694 -1.837571 47.578915 79 40 48
16.626694 -1.735007 47.578915 80 41 49
16.626694 -1.632443 47.578915 80 41 49
16.626694 -1.529879 47.578915 80 41 49
16.520790 -1.112491 47.275864 76 40 46
16.468344 -1.007372 47.125782 77 41 47
16.468344 -0.905785 47.125782 79 42 48
16.494526 -0.805476 47.200703 80 43 49
16.468344 -0.702610 47.125782 80 43 49
16.416229 -0.599121 46.976650 80 43 49
16.312983 -0.494724 46.681198 80 43 49
16.236395 -0.392245 46.462036 80 43 49
16.211025 -0.291632 46.389442 79 42 49
16.211025 -0.191632 46.389442 80 42 50
16.211025 -0.091632 46.389442 81 42 51
16.160524 0.008342 46.244926 83 43 52
16.160524 0.108030 46.244926 85 43 52
16.160524 0.207719 46.244926 86 42 52
16.185736 0.307887 46.317070 86 42 52
16.185736 0.407731 46.317070 86 41 51
16.185736 0.507575 46.317070 84 41 51
16.185736 0.607419 46.317070 84 42 51
16.185736 0.707263 46.317070 84 43 52
16.185736 0.807107 46.317070 84 45 52
16.185736 0.906951 46.317070 84 46 53
16.135391 1.003663 46.173004 82 45 51
16.135391 1.103197 46.173004 80 43 48
16.211025 1.208368 46.389442 78 41 46
16.211025 1.308368 46.389442 76 40 43
16.211025 1.408368 46.389442 74 38 41
16.211025 1.508368 46.389442 72 38 39
16.211025 1.608368 46.389442 71 38 39
16.185736 1.705703 46.317070 69 38 39
16.211025 1.808368 46.389442 67 38 39
17.205732 2.025465 49.235889 65 38 38
17.205732 2.131601 49.235889 63 38 38
17.205732 2.237737 49.235889 60 37 37
17.407814 2.371402 49.814163 57 36 35
17.525433 2.711749 50.150745 55 34 36
17.525433 2.819857 50.150745 56 34 38
17.525433 2.927965 50.150745 57 36 40
17.525433 3.036073 50.150745 60 38 43
17.525433 3.144181 50.150745 64 41 46
17.584843 3.263314 50.320751 68 45 49
17.584843 3.371789 50.320751 69 46 50
17.644653 3.492101 50.491909 69 46 50
17.644653 3.600945 50.491909 68 45 48
17.644653 3.709788 50.491909 66 43 46
17.584843 3.805687 50.320751 64 42 44
17.555088 3.907539 50.235603 62 40 43
17.525433 4.009047 50.150745 60 39 41
17.525433 4.117155 50.150745 58 38 40
17.437071 4.203959 49.897884 57 37 39
17.291761 4.275592 49.482071 56 36 38
17.120556 4.338871 48.992149 55 35 37
17.008289 4.415337 48.670887 55 35 37
16.897486 4.490807 48.353813 57 34 36
16.897486 4.595041 48.353813 59 33 36
16.897486 4.699276 48.353813 61 33 36
16.788118 4.772420 48.040844 62 32 36
16.680155 4.844623 47.731899 65 31 36
16.600090 4.923769 47.502789 67 31 36
16.468344 4.986279 47.125782 71 30 37
16.390295 5.063753 46.902435 74 31 38
16.185736 5.100399 46.317070 78 32 39
15.961626 5.128239 45.675758 82 33 40
15.864001 5.194733 45.396397 85 34 40
15.815635 5.276456 45.257992 86 35 41
15.767563 5.357683 45.120430 87 37 43
15.791563 5.463250 45.189106 87 39 45
15.791563 5.560663 45.189106 87 40 48
15.839781 5.675352 45.327087 90 43 53
15.864001 5.781889 45.396397 102 57 66
15.888295 5.888752 45.465916 123 78 89
15.864001 5.977608 45.396397 142 95 108
15.839781 6.066192 45.327087 148 100 115
15.839781 6.163901 45.327087 145 94 112
15.839781 6.261611 45.327087 137 84 102
15.839781 6.359321 45.327087 127 71 91
15.839781 6.457031 45.327087 119 62 82
15.839781 6.554741 45.327087 116 58 79
15.815635 6.642310 45.257992 116 59 80
15.791563 6.729612 45.189106 117 62 81
15.719783 6.795993 44.983700 116 63 80
15.625085 6.851439 44.712715 111 60 76
15.625085 6.947824 44.712715 107 57 71
15.625085 7.044210 44.712715 105 56 69
15.672291 7.162169 44.847797 103 56 68
15.672291 7.258845 44.847797 101 55 66
15.719783 7.377811 44.983700 100 55 64
15.719783 7.474781 44.983700 99 55 62
15.719783 7.571751 44.983700 99 54 62
15.743637 7.680357 45.051960 98 54 62
15.743637 7.777474 45.051960 97 53 61
15.791563 7.898562 45.189106 96 52 60
15.815635 8.008163 45.257992 94 51 59
15.815635 8.105724 45.257992 94 50 58
15.815635 8.203286 45.257992 93 50 57
15.839781 8.313519 45.327087 92 51 56
15.839781 8.411230 45.327087 92 51 56
15.791563 8.483037 45.189106 92 51 57
15.648652 8.502799 44.780155 92 50 57
15.648652 8.599330 44.780155 91 50 56
15.648652 8.695861 44.780155 89 49 55
16.600090 10.146169 47.502789 78 43 52
16.364443 10.103085 46.828457 78 43 52
16.364443 10.204031 46.828457 78 42 52
16.364443 10.304977 46.828457 78 42 52
16.211025 10.308368 46.389442 78 42 52
16.211025 10.408368 46.389442 78 43 53
16.211025 10.508368 46.389442 78 43 54
16.211025 10.608368 46.389442 79 44 54
16.211025 10.708368 46.389442 78 44 55
16.211025 10.808368 46.389442 78 44 55
21.934580 14.759737 62.767956 77 44 54
21.934580 14.895043 62.767956 76 44 53
21.614702 14.811157 61.852589 75 44 51
21.087513 14.579990 60.343987 75 44 49
20.791697 14.503718 59.497478 73 44 48
20.750113 14.602711 59.378483 72 43 46
20.791697 14.760231 59.497478 71 42 45
16.085360 12.212955 46.029835 67 40 46
15.912663 12.179993 45.535648 67 40 44
15.864001 12.240604 45.396397 66 39 43
15.864001 12.338464 45.396397 66 38 42
15.815635 12.398408 45.257992 66 37 41
15.815635 12.495969 45.257992 67 37 42
15.791563 12.574362 45.189106 68 38 42
15.791563 12.671774 45.189106 69 40 43
15.767563 12.749781 45.120430 70 41 44
15.767563 12.847045 45.120430 70 41 44
15.743637 12.924666 45.051960 70 39 44
15.719783 13.002054 44.983700 69 38 43
15.743637 13.118900 45.051960 67 37 42
15.815635 13.276457 45.257992 66 37 41
15.912663 13.456067 45.535648 65 36 40
16.060459 13.680117 45.958580 63 35 40
16.135391 13.843476 46.173004 61 35 39
16.060459 13.878260 45.958580 59 35 39
16.010889 13.934191 45.816730 58 35 39
15.961626 13.989778 45.675758 57 36 39
15.961626 14.088239 45.675758 57 36 40
16.085360 14.296675 46.029835 56 36 41
15.961626 14.285162 45.675758 57 36 41
15.912663 14.339502 45.535648 56 35 41
15.864001 14.393510 45.396397 56 35 41
15.815635 14.447188 45.257992 56 35 40
15.815635 14.544749 45.257992 56 35 40
15.815635 14.642310 45.257992 56 34 39
13.421806 13.088428 38.407818 52 33 35
13.421806 13.171223 38.407818 51 33 34
13.421806 13.254018 38.407818 49 32 34
13.421806 13.336812 38.407818 48 31 33
13.421806 13.419606 38.407818 47 31 32
15.625085 15.718909 44.712715 46 30 31
23.301466 -4.559474 66.270630 75 39 45
23.044275 -4.367869 65.539169 74 39 45
23.044275 -4.226588 65.539169 75 39 45
16.864389 -2.989733 47.963234 76 39 46
16.729258 -2.863212 47.578915 78 40 47
16.729258 -2.760648 47.578915 79 40 48
16.783049 -2.666631 47.731899 80 41 48
16.810076 -2.567866 47.808765 81 41 49
16.810076 -2.464806 47.808765 81 41 49
16.810076 -2.361746 47.808765 81 41 49
16.756109 -2.251436 47.655285 79 40 47
12.746101 -1.634487 36.250603 77 39 46
12.746101 -1.556342 36.250603 76 38 45
16.702490 -1.937031 47.502789 76 38 46
21.479540 -2.359351 61.088974 77 39 47
21.479540 -2.227664 61.088974 77 40 48
21.523829 -2.100298 61.214931 78 40 49
16.622702 -0.908670 47.275864 77 42 47
16.622702 -0.806759 47.275864 78 43 48
16.569931 -0.702610 47.125782 78 43 49
16.517494 -0.599121 46.976650 79 42 49
16.413610 -0.494724 46.681198 79 42 49
16.336552 -0.392245 46.462036 79 42 49
16.311026 -0.291632 46.389442 79 42 49
16.311026 -0.191632 46.389442 80 42 50
16.311026 -0.091632 46.389442 81 42 51
16.311026 0.008368 46.389442 82 42 51
16.311026 0.108368 46.389442 84 42 51
16.311026 0.208368 46.389442 85 42 51
16.311026 0.308368 46.389442 85 42 51
16.311026 0.408368 46.389442 85 42 51
16.311026 0.508368 46.389442 84 42 51
16.311026 0.608368 46.389442 84 43 52
16.311026 0.708368 46.389442 83 43 52
16.311026 0.808368 46.389442 83 45 52
16.285580 0.906951 46.317070 82 45 52
16.234924 1.003663 46.173004 79 43 49
16.234924 1.103197 46.173004 75 39 44
16.311026 1.208368 46.389442 73 38 42
16.311026 1.308368 46.389442 73 37 41
16.311026 1.408368 46.389442 72 37 39
16.285580 1.506015 46.317070 71 37 39
16.285580 1.605859 46.317070 70 38 38
16.285580 1.705703 46.317070 68 38 38
16.311026 1.808368 46.389442 66 38 38
17.340626 2.028830 49.317677 64 37 37
17.340626 2.135142 49.317677 61 37 37
17.340626 2.241454 49.317677 59 36 35
17.515196 2.371402 49.814163 56 35 34
17.574169 2.487130 49.981888 55 33 34
17.633541 2.603641 50.150745 55 33 35
17.633541 2.711749 50.150745 56 34 36
17.633541 2.819857 50.150745 57 35 38
17.633541 2.927965 50.150745 59 37 41
17.633541 3.036073 50.150745 61 39 43
17.633541 3.144181 50.150745 64 42 46
17.663378 3.257793 50.235603 67 45 48
17.693316 3.371789 50.320751 67 45 48
17.693316 3.480263 50.320751 67 45 47
17.693316 3.588738 50.320751 66 44 46
17.693316 3.697213 50.320751 64 42 44
17.663378 3.799248 50.235603 63 42 43
17.633541 3.900938 50.150745 61 40 42
17.574169 3.995548 49.981888 59 39 40
17.485857 4.082673 49.730724 58 38 39
17.398428 4.168926 49.482071 57 36 39
17.226166 4.233260 48.992149 56 35 38
17.113207 4.310419 48.670887 55 34 37
16.974075 4.379440 48.275192 56 34 37
16.864389 4.454532 47.963234 58 33 36
16.837189 4.550573 47.885876 59 33 36
16.837189 4.653799 47.885876 62 32 36
16.783049 4.741729 47.731899 64 32 36
16.702490 4.821369 47.502789 66 31 36
16.569931 4.884691 47.125782 69 31 37
16.465389 4.954819 46.828457 72 31 37
16.311026 5.008368 46.389442 76 32 38
16.184584 5.068768 46.029835 80 33 39
16.035418 5.120362 45.605595 83 34 40
15.913197 5.178895 45.257992 85 35 40
15.864828 5.260418 45.120430 86 36 41
15.864828 5.357683 45.120430 87 38 42
15.864828 5.454947 45.120430 87 39 44
15.888975 5.560663 45.189106 89 42 48
15.913197 5.666700 45.257992 97 51 58
15.961861 5.781889 45.396397 114 70 78
15.961861 5.879748 45.396397 134 89 99
15.937491 5.968482 45.327087 145 98 111
15.913197 6.056944 45.257992 145 95 110
15.913197 6.154505 45.257992 139 87 103
15.913197 6.252066 45.257992 131 77 95
15.913197 6.349627 45.257992 122 67 86
15.913197 6.447188 45.257992 116 60 79
15.913197 6.544749 45.257992 112 56 76
15.913197 6.642310 45.257992 112 56 75
15.840754 6.709189 45.051960 113 59 77
15.768968 6.775461 44.847797 112 60 76
15.721471 6.851439 44.712715 108 57 72
15.721471 6.947824 44.712715 104 55 68
15.768968 7.065492 44.847797 103 54 67
15.816752 7.183872 44.983700 101 54 66
15.816752 7.280842 44.983700 100 54 64
15.840754 7.389007 45.051960 99 54 62
15.864828 7.497501 45.120430 98 53 60
15.864828 7.594765 45.120430 97 52 59
15.864828 7.692029 45.120430 96 52 58
15.888975 7.801150 45.189106 95 51 58
15.937491 7.922680 45.327087 94 50 57
15.937491 8.020390 45.327087 93 49 57
15.913197 8.105724 45.257992 92 49 56
15.937491 8.215810 45.327087 91 50 56
15.961861 8.326232 45.396397 92 51 56
15.961861 8.424091 45.396397 91 50 56
15.888975 8.483037 45.189106 90 50 55
15.697829 8.477226 44.645477 89 49 54
15.697829 8.573467 44.645477 88 48 54
15.674259 8.656690 44.578442 87 47 53
16.837189 10.124767 47.885876 79 44 52
16.702490 10.146169 47.502789 79 43 51
16.465389 10.103085 46.828457 79 43 51
16.465389 10.204031 46.828457 80 43 51
16.336552 10.224343 46.462036 79 42 52
16.311026 10.308368 46.389442 79 42 52
16.311026 10.408368 46.389442 79 43 52
16.311026 10.508368 46.389442 79 43 52
16.285580 10.591818 46.317070 80 44 53
16.260212 10.675009 46.244926 80 45 53
16.260212 10.774697 46.244926 79 45 54
22.069887 14.759737 62.767956 78 45 53
22.069887 14.895043 62.767956 76 44 52
21.748035 14.811157 61.852589 75 43 50
21.260807 14.609685 60.466888 75 43 49
20.919952 14.503718 59.497478 74 42 48
20.919952 14.631975 59.497478 72 42 46
16.184584 12.212955 46.029835 66 39 44
16.035418 12.198703 45.605595 66 39 44
15.961861 12.240604 45.396397 66 39 43
15.961861 12.338464 45.396397 66 38 43
15.913197 12.398408 45.257992 66 38 43
15.913197 12.495969 45.257992 67 38 43
15.888975 12.574362 45.189106 67 39 43
15.864828 12.652516 45.120430 68 40 43
15.864828 12.749781 45.120430 69 41 44
15.864828 12.847045 45.120430 69 40 44
15.840754 12.924666 45.051960 68 39 43
15.816752 13.002054 44.983700 68 38 42
15.840754 13.118900 45.051960 66 37 41
15.840754 13.216018 45.051960 65 36 40
15.937491 13.394436 45.327087 64 35 39
16.159531 13.680117 45.958580 62 34 39
16.209715 13.821980 46.101307 61 34 39
16.109655 13.835425 45.816730 60 35 39
16.060087 13.891316 45.675758 59 35 39
16.035418 13.968288 45.605595 57 36 39
16.035418 14.066598 45.605595 56 36 40
16.060087 14.186701 45.675758 56 36 40
16.060087 14.285162 45.675758 56 36 41
16.060087 14.383624 45.675758 56 36 41
16.060087 14.482085 45.675758 56 35 41
15.913197 14.447188 45.257992 56 35 40
15.913197 14.544749 45.257992 57 35 40
15.913197 14.642310 45.257992 57 35 39
13.610244 12.940490 38.708267 56 33 36
13.592522 13.006973 38.657867 55 33 35
13.557217 13.056306 38.557457 53 33 35
13.504601 13.088428 38.407818 52 33 35
13.504601 13.171223 38.407818 51 32 34
13.522094 13.271186 38.457569 49 32 34
13.522094 13.354088 38.457569 48 31 33
13.522094 13.436989 38.457569 47 30 31
15.721471 15.718909 44.712715 47 30 31
23.392109 -4.549320 66.123032 75 39 46
23.185556 -4.367869 65.539169 74 39 46
23.185556 -4.226588 65.539169 75 39 47
16.967781 -2.989733 47.963234 75 40 47
16.831821 -2.863212 47.578915 77 40 47
16.831821 -2.760648 47.578915 78 40 48
16.858839 -2.662351 47.655285 79 40 48
16.885942 -2.563737 47.731899 80 40 48
16.885942 -2.460843 47.731899 80 40 48
16.858839 -2.354165 47.655285 79 40 48
16.831821 -2.247828 47.578915 77 39 46
12.824245 -1.634487 36.250603 76 38 45
12.824245 -1.556342 36.250603 75 37 44
21.611227 -2.491038 61.088974 75 38 44
21.655787 -2.364216 61.214931 75 39 45
21.611227 -2.227664 61.088974 76 39 47
21.700531 -2.104637 61.341408 76 39 46
16.671518 -0.702610 47.125782 76 42 49
16.566336 -0.597231 46.828457 77 42 49
16.488316 -0.493947 46.607914 78 42 49
16.436708 -0.392245 46.462036 78 41 49
16.436708 -0.292088 46.462036 79 41 49
16.436708 -0.191932 46.462036 80 41 50
16.436708 -0.091775 46.462036 80 41 50
16.436708 0.008381 46.462036 81 41 50
16.436708 0.108538 46.462036 82 41 49
16.436708 0.208694 46.462036 83 41 50
16.436708 0.308850 46.462036 84 41 50
16.436708 0.409007 46.462036 84 41 50
16.436708 0.509163 46.462036 83 42 51
16.411026 0.608368 46.389442 83 43 52
16.411026 0.708368 46.389442 82 43 51
16.411026 0.808368 46.389442 82 44 52
16.385424 0.906951 46.317070 80 44 51
16.334457 1.003663 46.173004 76 41 47
16.334457 1.103197 46.173004 71 37 43
16.411026 1.208368 46.389442 70 35 41
16.411026 1.308368 46.389442 70 35 40
16.411026 1.408368 46.389442 70 36 39
16.411026 1.508368 46.389442 70 37 38
16.411026 1.608368 46.389442 69 37 38
16.411026 1.708368 46.389442 68 37 38
17.303223 1.906681 48.911438 66 37 38
17.446938 2.028830 49.317677 62 37 37
17.446938 2.135142 49.317677 59 36 35
17.446938 2.241454 49.317677 57 35 35
17.622578 2.371402 49.814163 56 34 34
17.681913 2.487130 49.981888 55 33 34
17.681913 2.594875 49.981888 56 34 35
17.741650 2.711749 50.150745 57 35 37
17.741650 2.819857 50.150745 59 37 39
17.741650 2.927965 50.150745 61 39 42
17.741650 3.036073 50.150745 63 41 45
17.741650 3.144181 50.150745 65 44 46
17.741650 3.252290 50.150745 67 45 47
17.771669 3.366084 50.235603 66 45 46
17.771669 3.474375 50.235603 66 44 46
17.771669 3.582666 50.235603 65 43 44
17.771669 3.690957 50.235603 63 42 43
17.741650 3.792830 50.150745 62 41 42
17.681913 3.887804 49.981888 60 40 41
17.593060 3.975470 49.730724 59 39 40
17.475967 4.055500 49.399738 57 37 39
17.360424 4.134472 49.073128 57 36 38
17.218126 4.205501 48.670887 56 35 38
17.022781 4.261516 48.118706 56 34 38
16.940414 4.344122 47.885876 57 33 37
16.858839 4.425932 47.655285 58 33 36
16.831821 4.521403 47.578915 60 32 36
16.831821 4.623967 47.578915 63 32 36
16.804890 4.718969 47.502789 65 32 37
16.698023 4.790708 47.200703 68 32 37
16.566336 4.853873 46.828457 71 32 37
16.436708 4.916049 46.462036 74 32 38
16.309093 4.977260 46.101307 78 33 39
16.208420 5.045301 45.816730 81 34 40
16.059719 5.096874 45.396397 83 35 40
15.986387 5.171013 45.189106 85 36 40
15.986387 5.268425 45.189106 85 36 40
15.962092 5.357683 45.120430 85 38 40
15.986387 5.463250 45.189106 85 38 41
15.986387 5.560663 45.189106 90 44 48
16.010757 5.666700 45.257992 107 61 67
16.035200 5.773062 45.327087 127 82 90
16.035200 5.870772 45.327087 140 94 103
16.010757 5.959383 45.257992 142 95 106
16.010757 6.056944 45.257992 138 88 102
16.010757 6.154505 45.257992 131 79 96
16.010757 6.252066 45.257992 124 71 88
16.010757 6.349627 45.257992 118 64 82
16.010757 6.447188 45.257992 113 58 77
16.010757 6.544749 45.257992 109 55 74
15.986387 6.632200 45.189106 107 54 72
15.937870 6.709189 45.051960 107 55 72
15.865644 6.775461 44.847797 106 55 70
15.841715 6.861773 44.780155 103 54 67
15.841715 6.958304 44.780155 100 53 64
15.889647 7.076181 44.915646 100 53 64
15.913722 7.183872 44.983700 99 53 63
15.937870 7.291890 45.051960 99 52 62
15.962092 7.400236 45.120430 98 52 60
15.962092 7.497501 45.120430 96 51 58
15.986387 7.606325 45.189106 95 50 57
15.986387 7.703737 45.189106 94 50 56
16.035200 7.824970 45.327087 94 49 55
16.084312 7.946946 45.465916 93 49 55
16.084312 8.044954 45.465916 92 48 54
16.059719 8.130513 45.396397 90 48 55
16.059719 8.228373 45.396397 89 49 55
16.108982 8.351772 45.535648 89 49 55
16.108982 8.449932 45.535648 89 49 55
15.986387 8.483037 45.189106 88 48 54
15.794070 8.477226 44.645477 87 46 52
15.794070 8.573467 44.645477 86 46 52
15.770355 8.656690 44.578442 85 45 51
15.865644 8.805673 44.847797 83 45 51
16.010757 8.983773 45.257992 82 45 50
16.913136 10.108463 47.808765 81 44 52
16.778046 10.129961 47.426903 81 44 51
16.566336 10.103085 46.828457 80 43 51
16.540247 10.187962 46.754711 80 43 51
16.436708 10.224343 46.462036 80 43 51
16.411026 10.308368 46.389442 80 43 51
22.635899 14.356370 63.985435 80 43 51
