ply
format ascii 1.0
element vertex 1183
property float x
property float y
property float z
property uchar red
property uchar green
property uchar blue
end_header
7.077848 1.501330 46.173004 254 192 217
7.088873 1.603357 46.244926 254 192 215
7.099932 1.705703 46.317070 254 189 212
7.099932 1.805547 46.317070 254 189 210
7.099932 1.905391 46.317070 254 191 211
7.111026 2.008368 46.389442 254 192 212
7.099932 2.105079 46.317070 254 194 212
7.099932 2.204923 46.317070 254 199 216
7.099932 2.304767 46.317070 254 204 220
7.099932 2.404611 46.317070 254 206 221
7.111026 2.508368 46.389442 254 208 223
7.111026 2.608368 46.389442 254 216 230
7.144516 2.721123 46.607914 254 224 237
7.178323 2.834945 46.828457 254 228 242
7.201039 2.945183 46.976650 254 228 243
7.212451 3.051276 47.051098 255 227 242
7.223899 3.157707 47.125782 254 228 241
7.223899 3.259295 47.125782 254 233 244
7.235384 3.366225 47.200703 254 242 250
7.235384 3.467974 47.200703 254 248 252
7.235384 3.569722 47.200703 254 244 251
7.235384 3.671471 47.200703 254 241 249
7.223899 3.767231 47.125782 254 243 250
7.189663 3.850482 46.902435 254 245 253
7.178323 3.945356 46.828457 254 245 253
7.178323 4.046302 46.828457 254 245 252
7.178323 4.147248 46.828457 254 246 252
7.201039 4.261638 46.976650 254 249 253
7.189663 4.356012 46.902435 254 252 254
7.201039 4.464170 46.976650 254 254 254
7.178323 4.551034 46.828457 254 253 254
7.155749 4.637352 46.681198 254 251 253
7.122154 4.715736 46.462036 254 251 253
7.122154 4.815893 46.462036 254 252 254
7.122154 4.916049 46.462036 254 252 253
7.122154 5.016206 46.462036 254 252 253
7.044979 5.853491 45.958580 254 254 254
7.023235 5.934191 45.816730 255 255 255
7.034091 6.042281 45.887547 254 254 254
7.066858 6.169806 46.101307 254 254 254
7.088873 6.288716 46.244926 254 254 254
7.088873 6.388404 46.244926 251 252 252
7.099932 6.498214 46.317070 250 251 251
7.111026 6.808368 46.389442 254 254 254
7.111026 6.908368 46.389442 254 254 254
7.122154 7.019336 46.462036 255 255 255
7.122154 7.119492 46.462036 254 254 254
7.111026 7.208368 46.389442 254 254 254
7.044979 7.240489 45.958580 254 254 254
7.034091 7.328216 45.887547 254 254 254
7.055902 7.450163 46.029835 254 254 254
7.077848 7.572870 46.173004 254 254 254
7.088873 7.684354 46.244926 254 254 254
7.099932 7.796186 46.317070 254 254 254
7.099932 7.896030 46.317070 254 254 254
7.088873 7.983420 46.244926 254 254 254
7.088873 8.083108 46.244926 254 254 254
7.099932 8.195562 46.317070 254 254 254
7.099932 8.295406 46.317070 254 254 254
6.958802 8.424091 45.396397 254 254 254
6.958802 8.521951 45.396397 255 254 255
6.948178 8.606649 45.327087 255 254 255
6.948178 8.704359 45.327087 254 253 254
6.948178 8.802070 45.327087 254 251 254
6.948178 8.899779 45.327087 254 251 254
6.969459 9.025046 45.465916 254 252 254
6.969459 9.123055 45.465916 254 251 254
6.969459 9.221065 45.465916 254 248 253
6.980148 9.333367 45.535648 254 248 252
6.980148 9.431527 45.535648 253 248 252
6.980148 9.529686 45.535648 253 248 252
6.990870 9.642635 45.605595 253 248 252
6.990870 9.740946 45.605595 254 251 253
7.012414 9.869577 45.746136 254 253 254
7.034091 9.999003 45.887547 254 253 254
7.034091 10.097922 45.887547 254 254 254
7.001626 10.149777 45.675758 254 254 254
6.980148 10.216803 45.535648 255 254 254
6.980148 10.314962 45.535648 254 254 254
6.980148 10.413122 45.535648 254 254 254
6.980148 10.511281 45.535648 254 251 253
6.980148 10.609441 45.535648 254 244 251
6.980148 10.707601 45.535648 254 240 251
6.958802 10.772715 45.396397 254 239 252
6.958802 10.870574 45.396397 254 238 251
6.948178 10.951688 45.327087 254 236 250
6.937586 11.032554 45.257992 254 235 248
6.937586 11.130116 45.257992 254 236 248
6.948178 11.244818 45.327087 254 241 249
6.969459 11.377267 45.465916 254 242 249
6.969459 11.475276 45.465916 254 233 243
6.969459 11.573285 45.465916 254 227 239
8.141425 13.633909 53.111347 254 227 239
8.923640 15.696775 58.214199 252 217 230
8.888783 15.760460 57.986801 252 216 229
8.854196 15.823648 57.761173 252 216 229
8.819878 15.886348 57.537292 251 216 229
8.819878 16.010378 57.537292 250 213 226
8.785824 16.072115 57.315140 247 210 223
8.768895 16.164461 57.204704 245 207 221
8.635781 16.040524 56.336323 244 206 220
8.365913 15.656903 54.575813 243 205 219
8.200102 15.461902 53.494129 242 204 218
8.069249 15.328645 52.640499 240 202 216
8.069249 15.442120 52.640499 237 199 213
8.069249 15.782545 52.640499 226 190 204
7.914881 15.591923 51.633465 221 185 199
8.026555 15.924789 52.361980 217 180 195
7.270059 14.832836 47.426903 209 171 188
7.144516 14.677167 46.607914 208 170 187
7.111026 14.708368 46.389442 206 169 186
7.099932 14.785266 46.317070 205 168 186
7.077848 14.838811 46.173004 204 167 186
7.077848 14.938344 46.173004 204 167 186
7.099932 15.084798 46.317070 204 167 186
7.099932 15.184642 46.317070 205 166 185
7.099932 15.284486 46.317070 205 167 184
7.088873 15.360367 46.244926 206 166 183
7.077848 15.436011 46.173004 206 165 182
7.077848 15.535545 46.173004 205 165 181
7.088873 15.659432 46.244926 205 164 180
7.088873 15.759121 46.244926 204 161 177
7.066858 15.809558 46.101307 202 158 173
7.044979 15.859683 45.958580 201 155 171
7.012414 15.884985 45.746136 202 155 171
7.012414 15.983599 45.746136 204 155 170
7.001626 16.057470 45.675758 206 155 168
6.969459 16.081709 45.465916 206 154 164
6.969459 16.179718 45.465916 205 151 159
6.958802 16.252836 45.396397 206 149 154
6.958802 16.350697 45.396397 211 151 152
6.948178 16.423443 45.327087 224 171 170
6.948178 16.521152 45.327087 238 192 191
6.948178 16.618864 45.327087 244 195 195
6.948178 16.716574 45.327087 238 177 180
6.958802 16.839993 45.396397 223 149 156
6.948178 16.911993 45.327087 203 126 137
6.958802 17.035711 45.396397 189 112 127
6.969459 17.159809 45.465916 179 105 124
6.969459 17.257818 45.465916 173 103 124
6.948178 17.302834 45.327087 169 103 124
6.937586 17.374018 45.257992 164 105 125
7.395924 -0.299110 47.578915 254 155 170
7.395924 -0.196546 47.578915 254 172 187
7.384090 -0.093831 47.502789 254 174 189
7.372295 0.008555 47.426903 253 158 174
7.360537 0.110615 47.351265 252 149 165
7.348816 0.212349 47.275864 254 154 172
7.337133 0.313761 47.200703 254 164 183
7.313878 0.414192 47.051098 254 170 191
7.279269 0.513179 46.828457 252 165 188
7.267806 0.613158 46.754711 249 158 181
7.256378 0.712823 46.681198 250 166 190
7.256378 0.813452 46.681198 253 181 205
7.233631 0.911215 46.534863 254 186 208
7.211026 1.008368 46.389442 254 186 207
7.199776 1.106639 46.317070 254 188 208
7.188562 1.204604 46.244926 254 191 211
7.166237 1.300241 46.101307 254 193 213
7.166237 1.399620 46.101307 254 196 217
7.166237 1.498999 46.101307 254 199 219
7.177382 1.600864 46.173004 255 201 220
7.188562 1.703046 46.244926 254 202 220
7.199776 1.805547 46.317070 254 203 221
7.199776 1.905391 46.317070 254 204 222
7.199776 2.005235 46.317070 254 204 221
7.211026 2.108368 46.389442 254 202 218
7.199776 2.204923 46.317070 254 203 219
7.199776 2.304767 46.317070 254 205 220
7.211026 2.408368 46.389442 254 203 218
7.211026 2.508368 46.389442 254 204 220
7.244987 2.620652 46.607914 254 214 229
7.279269 2.733999 46.828457 254 228 240
7.302305 2.843917 46.976650 254 236 246
7.313878 2.949850 47.051098 254 237 247
7.325487 3.056120 47.125782 254 235 246
7.325487 3.157707 47.125782 255 235 246
7.337133 3.264476 47.200703 254 241 249
7.337133 3.366225 47.200703 254 248 253
7.337133 3.467974 47.200703 254 250 253
7.337133 3.569722 47.200703 254 243 250
7.337133 3.671471 47.200703 254 237 246
7.337133 3.773220 47.200703 255 238 248
7.313878 3.862687 47.051098 254 244 252
7.313878 3.964113 47.051098 254 247 253
7.290769 4.052694 46.902435 254 248 253
7.313878 4.166966 47.051098 254 249 252
7.313878 4.268392 47.051098 254 250 253
7.313878 4.369819 47.051098 254 251 254
7.313878 4.471245 47.051098 254 252 254
7.279269 4.551034 46.828457 254 253 254
7.256378 4.637352 46.681198 254 252 254
7.222311 4.715736 46.462036 254 252 254
7.222311 4.815893 46.462036 254 253 254
7.222311 4.916049 46.462036 254 253 254
7.222311 5.016206 46.462036 254 253 254
7.133008 5.844444 45.887547 254 254 254
7.100087 5.915932 45.675758 254 254 254
7.133008 6.042281 45.887547 254 254 254
7.166237 6.169806 46.101307 254 254 254
7.177382 6.278935 46.173004 254 254 254
7.188562 6.388404 46.244926 252 252 252
7.199776 6.498214 46.317070 251 252 252
7.211026 6.808368 46.389442 254 254 254
7.211026 6.908368 46.389442 254 254 254
7.222311 7.019336 46.462036 254 254 254
7.222311 7.119492 46.462036 254 254 254
7.211026 7.208368 46.389442 254 254 254
7.133008 7.229298 45.887547 254 254 254
7.111027 7.305633 45.746136 254 254 254
7.133008 7.427134 45.887547 255 255 255
7.177382 7.572870 46.173004 254 254 254
7.177382 7.672403 46.173004 254 254 254
7.188562 7.784043 46.244926 254 254 254
7.188562 7.883731 46.244926 253 253 253
7.188562 7.983420 46.244926 253 253 253
7.199776 8.295406 46.317070 254 254 254
7.045888 8.606649 45.327087 254 253 254
7.045888 8.704359 45.327087 254 252 254
7.045888 8.802070 45.327087 254 250 253
7.045888 8.899779 45.327087 255 249 253
7.078308 9.038889 45.535648 254 251 253
7.078308 9.137049 45.535648 254 252 254
7.078308 9.235208 45.535648 253 251 253
7.089180 9.347704 45.605595 251 247 250
7.089180 9.446014 45.605595 251 246 250
7.089180 9.544325 45.605595 253 248 251
7.089180 9.642635 45.605595 254 251 253
7.089180 9.740946 45.605595 254 253 254
7.133008 9.900085 45.887547 254 253 254
7.133008 9.999003 45.887547 254 250 253
7.133008 10.097922 45.887547 254 250 252
7.100087 10.149777 45.675758 254 252 253
7.078308 10.216803 45.535648 255 254 254
7.078308 10.314962 45.535648 254 254 254
7.078308 10.413122 45.535648 254 254 254
7.078308 10.511281 45.535648 254 251 253
7.089180 10.625738 45.605595 254 244 251
7.078308 10.707601 45.535648 254 239 249
7.067468 10.789212 45.465916 254 236 249
7.056662 10.870574 45.396397 254 234 248
7.045888 10.951688 45.327087 254 234 249
7.045888 11.049397 45.327087 254 234 248
7.045888 11.147107 45.327087 254 235 248
7.067468 11.279258 45.465916 254 240 250
7.078308 11.394717 45.535648 254 243 250
7.067468 11.475276 45.465916 254 236 245
7.067468 11.573285 45.465916 254 229 241
8.255916 13.633909 53.111347 255 227 240
9.013783 15.635460 57.986801 252 218 232
8.978709 15.699135 57.761173 251 216 230
8.858074 15.611047 56.985111 252 216 230
8.926609 15.855619 57.425999 251 217 230
8.943909 16.010378 57.537292 250 214 227
8.909376 16.072115 57.315140 247 211 224
8.909376 16.195667 57.315140 245 208 222
8.875109 16.256453 57.094696 244 206 221
8.467994 15.628175 54.475674 242 205 220
8.315417 15.461902 53.494129 242 204 219
8.182725 15.328645 52.640499 240 203 218
8.182725 15.442120 52.640499 237 200 215
8.270711 15.952250 53.206528 227 190 205
8.182725 15.896020 52.640499 224 188 203
8.182725 16.009495 52.640499 221 185 200
7.222311 14.631229 46.462036 208 172 188
7.199776 14.685422 46.317070 207 171 187
7.199776 14.785266 46.317070 206 170 187
7.177382 14.838811 46.173004 205 169 187
7.177382 14.938344 46.173004 206 169 188
7.199776 15.084798 46.317070 207 170 189
7.211026 15.208368 46.389442 208 170 189
7.199776 15.284486 46.317070 207 169 187
7.199776 15.384330 46.317070 207 168 185
7.188562 15.460055 46.244926 206 167 184
7.188562 15.559744 46.244926 206 166 182
7.199776 15.683862 46.317070 206 165 181
7.188562 15.759121 46.244926 205 164 179
7.188562 15.858809 46.244926 204 161 177
7.166237 15.908937 46.101307 202 158 174
7.144051 15.958755 45.958580 201 155 171
7.111027 15.983599 45.746136 201 154 169
7.100087 16.057470 45.675758 201 153 167
7.067468 16.081709 45.465916 201 152 164
7.056662 16.154978 45.396397 201 151 159
7.056662 16.252836 45.396397 202 150 156
7.045888 16.325733 45.327087 208 153 155
7.045888 16.423443 45.327087 221 167 168
7.035147 16.495968 45.257992 235 184 184
7.035147 16.593529 45.257992 244 193 194
7.035147 16.691092 45.257992 245 187 189
7.045888 16.814283 45.327087 233 166 172
7.045888 16.911993 45.327087 209 137 147
7.056662 17.035711 45.396397 188 114 128
7.067468 17.159809 45.465916 176 104 120
7.067468 17.257818 45.465916 170 102 121
7.056662 17.329290 45.396397 168 104 124
7.035147 17.374018 45.257992 165 107 127
7.498488 -0.299110 47.578915 255 159 174
7.498488 -0.196546 47.578915 254 171 185
7.486491 -0.093831 47.502789 254 170 186
7.474531 0.008555 47.426903 254 160 177
7.462610 0.110615 47.351265 254 157 175
7.450727 0.212349 47.275864 254 163 182
7.438882 0.313761 47.200703 254 171 191
7.415304 0.414192 47.051098 254 175 197
7.368593 0.512371 46.754711 250 167 192
7.357008 0.612194 46.681198 245 156 181
7.357008 0.712823 46.681198 245 165 189
7.357008 0.813452 46.681198 252 185 208
7.333945 0.911215 46.534863 254 190 212
7.322467 1.009946 46.462036 254 188 209
7.311026 1.108368 46.389442 254 191 210
7.288250 1.204604 46.244926 254 195 212
7.276916 1.302264 46.173004 254 198 215
7.265616 1.399620 46.101307 254 201 219
7.265616 1.498999 46.101307 254 204 222
7.276916 1.600864 46.173004 254 208 225
7.288250 1.703046 46.244926 254 211 227
7.288250 1.802734 46.244926 254 215 230
7.299620 1.905391 46.317070 254 219 234
7.311026 2.008368 46.389442 254 221 235
7.311026 2.108368 46.389442 254 219 233
7.311026 2.208368 46.389442 254 220 233
7.311026 2.308368 46.389442 254 221 234
7.311026 2.408368 46.389442 254 219 232
7.345458 2.520181 46.607914 254 217 231
7.380216 2.633053 46.828457 254 221 236
7.403571 2.742651 46.976650 254 232 244
7.415304 2.848424 47.051098 254 240 249
7.427074 2.954532 47.125782 254 241 250
7.438882 3.060978 47.200703 254 241 250
7.438882 3.162727 47.200703 254 243 251
7.450727 3.269674 47.275864 254 247 252
7.450727 3.371585 47.275864 254 248 252
7.450727 3.473496 47.275864 254 247 252
7.462610 3.581109 47.351265 254 243 251
7.450727 3.677318 47.275864 254 240 249
7.438882 3.773220 47.200703 254 240 250
7.427074 3.868818 47.125782 254 243 252
7.427074 3.970406 47.125782 254 246 253
7.415304 4.065539 47.051098 254 249 254
7.415304 4.166966 47.051098 254 252 254
7.415304 4.268392 47.051098 254 251 254
7.415304 4.369819 47.051098 254 250 254
7.415304 4.471245 47.051098 254 251 254
7.368593 4.543867 46.754711 254 253 254
7.357008 4.637352 46.681198 254 253 254
7.322467 4.715736 46.462036 254 253 254
7.322467 4.815893 46.462036 254 254 254
7.322467 4.916049 46.462036 254 254 254
7.322467 5.016206 46.462036 254 254 254
7.198549 5.915932 45.675758 254 254 254
7.265616 6.070428 46.101307 254 254 254
7.265616 6.169806 46.101307 254 254 254
7.265616 6.269186 46.101307 254 254 254
7.288250 6.388404 46.244926 253 254 254
7.311026 6.808368 46.389442 254 254 254
7.311026 6.908368 46.389442 254 254 254
7.311026 7.008368 46.389442 254 254 254
7.311026 7.108368 46.389442 254 254 254
7.311026 7.208368 46.389442 254 254 254
7.209641 7.207019 45.746136 254 254 254
7.154521 7.249779 45.396397 255 255 255
7.154521 7.347638 45.396397 254 254 254
7.265616 7.561111 46.101307 254 254 254
7.276916 7.672403 46.173004 254 254 254
7.288250 7.784043 46.244926 254 254 254
7.299620 7.896030 46.317070 252 252 252
7.288250 7.983420 46.244926 251 250 251
7.143598 8.802070 45.327087 254 251 253
7.154521 8.913387 45.396397 254 251 253
7.176467 9.038889 45.535648 254 252 254
7.187491 9.151084 45.605595 254 253 254
7.187491 9.249394 45.605595 253 251 252
7.198549 9.362085 45.675758 250 246 249
7.187491 9.446014 45.605595 249 244 248
7.187491 9.544325 45.605595 252 249 251
7.187491 9.642635 45.605595 254 254 254
7.187491 9.740946 45.605595 254 254 254
7.198549 9.854393 45.675758 254 251 254
7.231927 9.999003 45.887547 254 245 251
7.198549 10.051316 45.675758 254 244 249
7.187491 10.134187 45.605595 254 249 252
7.176467 10.216803 45.535648 254 254 254
7.176467 10.314962 45.535648 254 254 254
7.176467 10.413122 45.535648 254 254 254
7.187491 10.527428 45.605595 254 250 253
7.187491 10.625738 45.605595 254 243 250
7.187491 10.724049 45.605595 254 236 247
7.176467 10.805760 45.535648 254 233 245
7.154521 10.870574 45.396397 254 233 246
7.143598 10.951688 45.327087 254 234 247
7.143598 11.049397 45.327087 254 233 247
7.154521 11.164152 45.396397 254 233 247
7.165477 11.279258 45.465916 254 238 250
7.165477 11.377267 45.465916 254 240 250
7.165477 11.475276 45.465916 254 237 247
7.154521 11.555590 45.396397 254 230 242
7.154521 11.653449 45.396397 254 227 240
9.138783 15.510460 57.986801 253 221 235
9.103223 15.574621 57.761173 252 219 232
9.085546 15.668652 57.649014 250 216 230
8.795219 15.288262 55.806847 249 215 228
8.430733 14.770010 53.494129 248 214 227
8.400461 14.831877 53.302052 247 212 225
8.296200 14.761269 52.640499 246 210 224
8.828409 15.828973 56.017437 245 208 223
8.762279 15.830254 55.597832 242 206 221
8.585425 15.628175 54.475674 239 203 218
8.430733 15.461902 53.494129 238 201 216
8.310935 15.355871 52.734001 237 201 216
8.266885 15.387554 52.454491 235 198 214
8.266885 15.500628 52.454491 233 196 211
8.445951 15.951905 53.590691 230 192 208
8.445951 16.067429 53.590691 227 190 205
8.445951 16.182953 53.590691 226 189 205
7.299620 14.685422 46.317070 208 173 188
7.299620 14.785266 46.317070 207 172 188
7.299620 14.885110 46.317070 206 171 188
7.299620 14.984954 46.317070 206 171 190
7.311026 15.108368 46.389442 208 172 191
7.311026 15.208368 46.389442 209 173 192
7.311026 15.308368 46.389442 208 172 190
7.299620 15.384330 46.317070 207 170 187
7.299620 15.484174 46.317070 207 169 185
7.311026 15.608368 46.389442 206 168 184
7.322467 15.732950 46.462036 207 167 182
7.322467 15.833107 46.462036 207 166 181
7.311026 15.908368 46.389442 206 165 180
7.265616 15.908937 46.101307 204 162 177
7.243122 15.958755 45.958580 203 159 174
7.231927 16.033007 45.887547 200 156 171
7.198549 16.057470 45.675758 198 153 167
7.165477 16.081709 45.465916 196 150 163
7.143598 16.130314 45.327087 195 149 159
7.143598 16.228024 45.327087 197 148 157
7.132708 16.300846 45.257992 205 153 158
7.132708 16.398407 45.257992 215 161 164
7.132708 16.495968 45.257992 224 168 170
7.132708 16.593529 45.257992 231 173 176
7.132708 16.691092 45.257992 235 174 178
7.132708 16.788652 45.257992 229 165 172
7.143598 16.911993 45.327087 211 142 152
7.143598 17.009703 45.327087 191 120 133
7.154521 17.133572 45.396397 178 109 123
7.154521 17.231430 45.396397 171 106 123
7.154521 17.329290 45.396397 169 108 127
7.132708 17.374018 45.257992 167 111 130
7.132708 17.471579 45.257992 167 116 133
7.601052 -0.299110 47.578915 254 159 174
7.601052 -0.196546 47.578915 254 164 179
7.588891 -0.093831 47.502789 254 164 181
7.576768 0.008555 47.426903 254 162 180
7.564683 0.110615 47.351265 254 163 181
7.552638 0.212349 47.275864 254 169 188
7.528661 0.313263 47.125782 254 174 195
7.504837 0.413537 46.976650 254 176 199
7.469380 0.512371 46.754711 250 169 194
7.457636 0.612194 46.681198 243 156 181
7.457636 0.712823 46.681198 242 163 188
7.457636 0.813452 46.681198 250 184 208
7.445929 0.912646 46.607914 254 191 213
7.434258 1.011529 46.534863 254 191 211
7.411026 1.108368 46.389442 254 194 212
7.411026 1.208368 46.389442 254 198 214
7.376449 1.302264 46.173004 254 201 216
7.364995 1.399620 46.101307 254 205 220
7.353576 1.496675 46.029835 254 209 224
7.376449 1.600864 46.173004 254 213 227
7.387938 1.703046 46.244926 254 217 230
7.387938 1.802734 46.244926 254 224 235
7.399464 1.905391 46.317070 254 232 243
7.411026 2.008368 46.389442 254 235 246
7.411026 2.108368 46.389442 254 233 244
7.411026 2.208368 46.389442 254 236 245
7.411026 2.308368 46.389442 255 243 248
7.422624 2.412137 46.462036 254 243 248
7.445929 2.520181 46.607914 254 240 248
7.481162 2.633053 46.828457 254 237 248
7.516730 2.746998 47.051098 254 235 248
7.528661 2.852945 47.125782 254 235 249
7.540631 2.959230 47.200703 254 235 250
7.540631 3.060978 47.200703 254 235 250
7.552638 3.167763 47.275864 254 239 251
7.552638 3.269674 47.275864 254 242 251
7.552638 3.371585 47.275864 254 239 248
7.564683 3.479036 47.351265 254 236 247
7.564683 3.581109 47.351265 254 238 250
7.564683 3.683182 47.351265 254 240 251
7.564683 3.785256 47.351265 254 241 251
7.540631 3.874969 47.200703 254 240 250
7.528661 3.970406 47.125782 254 241 250
7.516730 4.065539 47.051098 254 246 252
7.528661 4.173580 47.125782 254 252 254
7.516730 4.268392 47.051098 254 252 254
7.516730 4.369819 47.051098 254 250 254
7.516730 4.471245 47.051098 254 250 254
7.469380 4.543867 46.754711 254 251 254
7.457636 4.637352 46.681198 254 254 254
7.422624 4.715736 46.462036 254 254 254
7.422624 4.815893 46.462036 254 254 254
7.422624 4.916049 46.462036 254 254 254
7.364995 6.070428 46.101307 254 254 254
7.364995 6.169806 46.101307 254 254 254
7.376449 6.278935 46.173004 254 254 254
7.387938 6.388404 46.244926 254 254 254
7.387938 6.587781 46.244926 254 254 254
7.411026 6.708368 46.389442 254 254 254
7.411026 6.808368 46.389442 254 254 254
7.411026 6.908368 46.389442 254 254 254
7.411026 7.008368 46.389442 254 254 254
7.411026 7.108368 46.389442 254 254 254
7.411026 7.208368 46.389442 254 254 254
7.308254 7.207019 45.746136 254 254 254
7.241308 7.238710 45.327087 255 255 255
7.241308 7.336421 45.327087 254 254 254
7.376449 7.572870 46.173004 254 254 254
7.376449 7.672403 46.173004 254 254 254
7.387938 7.983420 46.244926 251 250 251
7.230269 8.788651 45.257992 254 254 254
7.230269 8.886212 45.257992 254 254 254
7.252380 9.011247 45.396397 254 254 254
7.285801 9.151084 45.605595 254 253 254
7.308254 9.277898 45.746136 253 251 253
7.308254 9.376511 45.746136 251 247 250
7.297010 9.460546 45.675758 250 247 250
7.285801 9.544325 45.605595 253 252 253
7.285801 9.642635 45.605595 254 254 254
7.285801 9.740946 45.605595 254 253 254
7.297010 9.854393 45.675758 254 249 253
7.297010 9.952854 45.675758 253 241 250
7.285801 10.035876 45.605595 253 240 248
7.263486 10.103148 45.465916 254 247 251
7.252380 10.185559 45.396397 254 252 254
7.252380 10.283418 45.396397 254 254 254
7.252380 10.381277 45.396397 254 253 254
7.285801 10.527428 45.605595 254 250 253
7.252380 10.870574 45.396397 254 237 248
7.241308 10.951688 45.327087 254 238 249
7.263486 11.181249 45.465916 254 229 243
7.252380 11.262012 45.396397 254 233 245
7.252380 11.359871 45.396397 254 237 249
7.241308 11.440237 45.327087 254 237 247
7.241308 11.537948 45.327087 254 230 243
7.241308 11.635657 45.327087 254 226 240
7.252380 11.751308 45.396397 254 227 241
9.281911 15.165079 58.100277 253 227 241
9.281911 15.290324 58.100277 252 223 238
9.263783 15.385460 57.986801 251 221 235
9.227736 15.450108 57.761173 251 221 235
9.227736 15.574621 57.761173 251 219 233
9.209819 15.668652 57.649014 249 216 230
8.734911 14.978555 54.676319 247 214 227
8.515362 14.716976 53.302052 246 212 225
8.379959 14.596034 52.454491 245 211 224
8.321152 14.605886 52.086391 245 209 223
8.321152 14.718167 52.086391 244 209 223
8.702856 15.510744 54.475674 242 206 221
8.686917 15.599552 54.375900 238 202 217
8.592494 15.545934 53.784859 235 199 214
8.469744 15.438135 53.016502 235 198 214
8.424612 15.469548 52.734001 234 197 213
8.424612 15.583224 52.734001 232 195 211
8.500101 15.837555 53.206528 228 191 207
8.561474 16.067429 53.590691 226 189 205
7.399464 14.685422 46.317070 209 175 189
7.399464 14.785266 46.317070 208 174 189
7.422624 15.132011 46.462036 208 173 192
7.422624 15.232168 46.462036 209 174 192
7.422624 15.332325 46.462036 207 172 190
7.411026 15.408368 46.389442 206 170 188
7.411026 15.508368 46.389442 206 169 186
7.422624 15.632794 46.462036 206 169 185
7.434258 15.757610 46.534863 206 169 184
7.457636 15.907792 46.681198 206 168 182
7.387938 15.958498 46.244926 205 164 179
7.342193 15.958755 45.958580 204 162 177
7.308254 15.983599 45.746136 201 158 173
7.297010 16.057470 45.675758 198 154 168
7.241308 16.032604 45.327087 194 150 164
7.241308 16.130314 45.327087 192 147 159
7.230269 16.203285 45.257992 191 144 155
7.230269 16.300846 45.257992 196 147 155
7.230269 16.398407 45.257992 204 152 158
7.230269 16.495968 45.257992 211 155 161
7.230269 16.593529 45.257992 215 156 161
7.230269 16.691092 45.257992 218 156 162
7.230269 16.788652 45.257992 216 152 160
7.230269 16.886213 45.257992 207 140 150
7.241308 17.009703 45.327087 195 129 140
7.252380 17.133572 45.396397 186 121 134
7.252380 17.231430 45.396397 180 117 132
7.241308 17.302834 45.327087 176 118 134
7.230269 17.374018 45.257992 173 119 136
7.219265 17.444986 45.189106 171 122 137
7.703617 -0.401674 47.578915 254 166 182
7.703617 -0.299110 47.578915 254 160 177
7.691291 -0.196231 47.502789 254 161 179
7.679004 -0.093681 47.426903 254 163 182
7.666757 0.008541 47.351265 255 165 184
7.654549 0.110439 47.275864 254 168 187
7.642379 0.212012 47.200703 254 171 191
7.630249 0.313263 47.125782 254 174 196
7.606102 0.413537 46.976650 254 177 201
7.558265 0.511565 46.681198 251 171 196
7.558265 0.612194 46.681198 242 156 182
7.558265 0.712823 46.681198 240 159 184
7.558265 0.813452 46.681198 249 180 204
7.546400 0.912646 46.607914 254 192 212
7.534572 1.011529 46.534863 254 193 211
7.511026 1.108368 46.389442 254 196 212
7.511026 1.208368 46.389442 254 201 215
7.475982 1.302264 46.173004 254 204 217
7.452801 1.397450 46.029835 255 209 222
7.441264 1.494358 45.958580 254 215 228
7.452801 1.595900 46.029835 254 219 231
7.475982 1.700397 46.173004 254 222 233
7.487627 1.802734 46.244926 254 228 238
7.487627 1.902423 46.244926 254 238 246
7.499308 2.005235 46.317070 254 242 250
7.511026 2.108368 46.389442 254 242 249
7.511026 2.208368 46.389442 254 246 250
7.511026 2.308368 46.389442 254 252 253
7.511026 2.408368 46.389442 254 254 254
7.546400 2.520181 46.607914 254 252 254
7.570168 2.628906 46.754711 254 248 254
7.594086 2.738318 46.902435 254 241 252
7.630249 2.852945 47.125782 254 236 251
7.642379 2.959230 47.200703 255 234 250
7.642379 3.060978 47.200703 254 232 249
7.654549 3.167763 47.275864 254 233 250
7.654549 3.269674 47.275864 254 234 249
7.666757 3.376962 47.351265 254 230 245
7.666757 3.479036 47.351265 254 228 243
7.679004 3.586830 47.426903 254 231 245
7.679004 3.689066 47.426903 254 234 247
7.679004 3.791303 47.426903 254 237 248
7.666757 3.887329 47.351265 254 236 247
7.642379 3.976718 47.200703 254 236 246
7.630249 4.071993 47.125782 254 242 249
7.630249 4.173580 47.125782 254 250 253
7.630249 4.275167 47.125782 255 252 255
7.618156 4.369819 47.051098 254 250 254
7.618156 4.471245 47.051098 254 249 254
7.570168 4.543867 46.754711 254 251 254
7.558265 4.637352 46.681198 254 254 254
7.522780 4.715736 46.462036 254 254 254
7.522780 4.815893 46.462036 254 254 254
7.522780 4.916049 46.462036 254 254 254
7.475982 6.179402 46.173004 254 254 254
7.475982 6.278935 46.173004 254 254 254
7.487627 6.388404 46.244926 255 255 255
7.487627 6.587781 46.244926 254 254 254
7.511026 6.708368 46.389442 254 254 254
7.511026 6.808368 46.389442 254 254 254
7.511026 6.908368 46.389442 254 254 254
7.522780 7.019336 46.462036 254 254 254
7.522780 7.119492 46.462036 254 254 254
7.511026 7.208368 46.389442 254 254 254
7.429763 7.229298 45.887547 254 254 254
7.406867 7.305633 45.746136 254 254 254
7.475982 7.473337 46.173004 254 254 254
7.475982 7.572870 46.173004 254 254 254
7.475982 7.672403 46.173004 254 254 254
7.406867 9.179284 45.746136 254 251 253
7.406867 9.277898 45.746136 254 250 252
7.406867 9.376511 45.746136 253 250 252
7.384111 9.446014 45.605595 253 252 253
7.372786 9.529686 45.535648 254 254 254
7.372786 9.627846 45.535648 254 254 254
7.372786 9.726006 45.535648 254 251 254
7.372786 9.824164 45.535648 253 244 251
7.372786 9.922324 45.535648 250 235 247
7.372786 10.020484 45.535648 252 238 248
7.350239 10.087700 45.396397 254 248 252
7.339018 10.170009 45.327087 255 251 254
7.327830 10.252067 45.257992 254 250 253
7.339018 10.365428 45.327087 254 250 254
7.372786 10.511281 45.535648 254 249 252
7.327830 10.934993 45.257992 254 242 250
7.350239 11.262012 45.396397 254 229 241
7.339018 11.342527 45.327087 254 235 247
7.339018 11.440237 45.327087 254 236 248
7.327830 11.520359 45.257992 254 230 244
7.327830 11.617920 45.257992 253 226 240
7.327830 11.715481 45.257992 253 227 241
9.407156 15.165079 58.100277 253 228 242
9.407156 15.290324 58.100277 252 225 239
9.388783 15.385460 57.986801 251 221 236
9.370481 15.480225 57.873768 250 220 235
9.370481 15.604981 57.873768 250 220 234
9.334090 15.668652 57.649014 250 218 232
8.820288 14.923588 54.475674 250 217 230
8.584030 14.638135 53.016502 248 214 227
8.463128 14.544640 52.269794 246 213 225
8.403945 14.554817 51.904270 245 211 224
8.403945 14.666705 51.904270 244 210 223
8.788037 15.454032 54.276493 242 208 222
8.788037 15.571033 54.276493 239 204 219
8.740103 15.602465 53.980442 237 201 216
8.614797 15.493468 53.206528 236 200 215
8.568728 15.524698 52.922001 234 198 213
8.568728 15.638780 52.922001 232 196 211
8.630263 15.865989 53.302052 229 192 208
7.534572 15.256043 46.534863 209 174 193
7.522780 15.332325 46.462036 207 172 191
7.522780 15.432481 46.462036 205 170 188
7.522780 15.532638 46.462036 205 170 187
7.534572 15.657297 46.534863 206 170 186
7.558265 15.807162 46.681198 206 170 185
7.441264 15.958755 45.958580 203 162 176
7.429763 16.033007 45.887547 200 159 173
7.395472 16.057470 45.675758 197 155 170
7.339018 16.032604 45.327087 194 151 166
7.339018 16.130314 45.327087 191 147 161
7.327830 16.203285 45.257992 188 142 154
7.327830 16.300846 45.257992 187 140 152
7.327830 16.398407 45.257992 192 142 152
7.327830 16.495968 45.257992 197 144 154
7.327830 16.593529 45.257992 201 144 154
7.327830 16.691092 45.257992 203 144 152
7.327830 16.788652 45.257992 203 142 152
7.327830 16.886213 45.257992 201 138 149
7.327830 16.983774 45.257992 197 135 146
7.339018 17.107412 45.327087 192 132 144
7.339018 17.205122 45.327087 187 130 143
7.327830 17.276457 45.257992 183 130 143
7.327830 17.374018 45.257992 178 129 142
7.305557 17.418474 45.120430 175 128 141
7.806180 -0.401674 47.578915 254 165 183
7.806180 -0.299110 47.578915 254 163 182
7.781240 -0.195918 47.426903 254 165 185
7.781240 -0.093681 47.426903 254 167 187
7.768830 0.008541 47.351265 254 170 189
7.744128 0.110263 47.200703 254 172 192
7.731836 0.211675 47.125782 254 174 194
7.719583 0.312766 47.051098 254 175 197
7.695192 0.412884 46.902435 254 178 201
7.658894 0.511565 46.681198 251 173 198
7.658894 0.612194 46.681198 240 157 182
7.658894 0.712823 46.681198 237 156 180
7.658894 0.813452 46.681198 248 179 201
7.646871 0.912646 46.607914 254 193 212
7.634885 1.011529 46.534863 254 194 211
7.634885 1.111842 46.534863 254 198 212
7.611026 1.208368 46.389442 254 204 217
7.587316 1.304292 46.244926 254 208 220
7.575516 1.401797 46.173004 254 214 226
7.540335 1.494358 45.958580 254 222 234
7.575516 1.600864 46.173004 254 226 237
7.587316 1.703046 46.244926 254 227 237
7.587316 1.802734 46.244926 254 232 241
7.599152 1.905391 46.317070 254 240 247
7.599152 2.005235 46.317070 254 246 251
7.611026 2.108368 46.389442 254 249 253
7.611026 2.208368 46.389442 254 252 253
7.611026 2.308368 46.389442 254 254 254
7.611026 2.408368 46.389442 255 254 255
7.646871 2.520181 46.607914 254 253 254
7.670955 2.628906 46.754711 254 250 254
7.683054 2.733999 46.828457 254 247 254
7.719583 2.848424 47.051098 254 246 254
7.744128 2.959230 47.200703 254 242 253
7.744128 3.060978 47.200703 254 237 252
7.756460 3.167763 47.275864 254 235 250
7.768830 3.274889 47.351265 254 235 249
7.768830 3.376962 47.351265 254 233 247
7.781240 3.484593 47.426903 254 231 245
7.781240 3.586830 47.426903 254 232 245
7.781240 3.689066 47.426903 254 233 246
7.781240 3.791303 47.426903 254 235 247
7.768830 3.887329 47.351265 254 235 246
7.756460 3.983050 47.275864 254 235 246
7.731836 4.071993 47.125782 254 240 249
7.731836 4.173580 47.125782 254 247 253
7.731836 4.275167 47.125782 254 249 254
7.719583 4.369819 47.051098 254 248 254
7.707368 4.464170 46.976650 254 248 254
7.658894 4.536723 46.681198 254 251 254
7.634885 4.622814 46.534863 254 254 254
7.611026 4.708368 46.389442 254 254 254
7.611026 4.808368 46.389442 254 254 254
7.611026 4.908368 46.389442 254 254 254
7.622937 5.016206 46.462036 254 254 254
7.611026 6.808368 46.389442 254 254 254
7.611026 6.908368 46.389442 254 254 254
7.744128 7.130931 47.200703 254 254 254
7.744128 7.232679 47.200703 254 254 254
7.611026 7.208368 46.389442 255 255 255
7.528681 7.229298 45.887547 254 254 254
7.528681 7.328216 45.887547 254 254 254
7.575516 7.473337 46.173004 254 254 254
7.575516 7.572870 46.173004 254 254 254
7.575516 7.672403 46.173004 255 255 255
7.482422 9.347704 45.605595 254 252 253
7.470946 9.431527 45.535648 254 254 254
7.470946 9.529686 45.535648 254 254 254
7.470946 9.627846 45.535648 254 253 254
7.470946 9.726006 45.535648 254 249 254
7.470946 9.824164 45.535648 251 239 251
7.459505 9.907129 45.465916 248 231 247
7.459505 10.005138 45.465916 251 238 249
7.448099 10.087700 45.396397 254 248 253
7.436728 10.170009 45.327087 254 249 253
7.425391 10.252067 45.257992 254 245 251
7.436728 10.365428 45.327087 254 245 252
7.470946 10.511281 45.535648 254 246 251
7.448099 10.870574 45.396397 254 239 249
7.425391 10.934993 45.257992 254 242 251
7.448099 11.066293 45.396397 254 241 249
7.436728 11.147107 45.327087 254 235 245
7.436728 11.244818 45.327087 254 232 243
7.436728 11.342527 45.327087 254 235 247
7.425391 11.422798 45.257992 254 235 248
7.425391 11.520359 45.257992 254 231 244
7.414089 11.600237 45.189106 252 227 240
7.425391 11.715481 45.257992 253 226 240
9.532400 15.165079 58.100277 254 228 241
9.551091 15.320305 58.214199 254 228 242
9.551091 15.445795 58.214199 253 227 241
9.551091 15.571285 58.214199 252 225 238
9.440032 15.638286 57.537292 252 220 233
8.937718 14.923588 54.475674 251 218 231
8.921350 15.013472 54.375900 248 216 229
8.698316 14.752420 53.016502 247 214 226
8.515833 14.554817 51.904270 245 212 224
8.515833 14.666705 51.904270 243 210 222
8.905040 15.454032 54.276493 242 208 221
8.905040 15.571033 54.276493 240 206 219
8.856466 15.602465 53.980442 238 204 217
8.745165 15.521284 53.302052 237 201 215
8.682811 15.524698 52.922001 235 199 213
8.682811 15.638780 52.922001 232 196 210
8.760893 15.894525 53.397919 229 193 207
7.646871 15.279993 46.607914 209 174 193
7.634885 15.356357 46.534863 209 174 192
7.622937 15.432481 46.462036 208 172 190
7.622937 15.532638 46.462036 207 172 189
7.646871 15.681877 46.607914 207 171 187
7.670955 15.832056 46.754711 205 170 184
7.658894 16.109049 46.681198 204 166 180
7.599152 16.083239 46.317070 202 163 177
7.540335 16.057825 45.958580 200 160 174
7.505480 16.082212 45.746136 198 156 171
7.459505 16.081709 45.465916 195 153 168
7.436728 16.130314 45.327087 192 149 164
7.436728 16.228024 45.327087 189 145 158
7.436728 16.325733 45.327087 186 140 154
7.436728 16.423443 45.327087 186 137 151
7.436728 16.521152 45.327087 186 135 149
7.425391 16.593529 45.257992 188 134 147
7.425391 16.691092 45.257992 191 135 147
7.425391 16.788652 45.257992 193 136 149
7.425391 16.886213 45.257992 194 137 149
7.425391 16.983774 45.257992 194 138 149
7.425391 17.081335 45.257992 193 138 149
7.436728 17.205122 45.327087 191 138 149
7.425391 17.276457 45.257992 187 137 148
7.414089 17.347572 45.189106 183 135 147
7.402822 17.418474 45.120430 179 134 145
7.908745 -0.504238 47.578915 248 161 180
7.908745 -0.401674 47.578915 252 160 181
7.896091 -0.298631 47.502789 254 167 188
7.883477 -0.195918 47.426903 254 170 191
7.870904 -0.093532 47.351265 254 172 193
7.858370 0.008528 47.275864 254 174 194
7.833423 0.110088 47.125782 254 175 195
7.821009 0.211340 47.051098 254 175 195
7.796298 0.311778 46.902435 254 175 195
7.784001 0.412233 46.828457 254 178 198
7.759523 0.511565 46.681198 252 177 198
7.759523 0.612194 46.681198 243 164 185
7.759523 0.712823 46.681198 240 162 182
7.759523 0.813452 46.681198 249 182 200
7.759523 0.914081 46.681198 254 196 213
7.747342 1.013117 46.607914 254 198 213
7.747342 1.113588 46.607914 254 202 215
7.723094 1.210259 46.462036 255 208 220
7.711026 1.308368 46.389442 254 213 225
7.687004 1.403980 46.244926 254 218 229
7.675049 1.501330 46.173004 254 224 235
7.698997 1.605859 46.317070 254 229 239
7.711026 1.708368 46.389442 254 233 242
7.711026 1.808368 46.389442 254 238 244
7.711026 1.908368 46.389442 254 244 249
7.711026 2.008368 46.389442 254 248 251
7.711026 2.108368 46.389442 254 251 253
7.711026 2.208368 46.389442 254 253 254
7.711026 2.308368 46.389442 254 254 254
7.723094 2.412137 46.462036 254 254 254
7.747342 2.520181 46.607914 254 251 253
7.759523 2.624773 46.681198 254 247 253
7.771743 2.729694 46.754711 254 248 254
7.808634 2.843917 46.976650 254 250 254
7.845877 2.959230 47.200703 254 248 254
7.858370 3.065853 47.275864 254 244 254
7.858370 3.167763 47.275864 254 242 253
7.870904 3.274889 47.351265 254 242 252
7.883477 3.382357 47.426903 254 242 252
7.896091 3.490169 47.502789 254 242 251
7.883477 3.586830 47.426903 254 242 250
7.883477 3.689066 47.426903 254 241 250
7.883477 3.791303 47.426903 254 241 250
7.883477 3.893539 47.426903 254 241 250
7.858370 3.983050 47.275864 254 241 250
7.833423 4.071993 47.125782 254 243 252
7.833423 4.173580 47.125782 254 245 253
7.808634 4.261638 46.976650 254 245 252
7.784001 4.349141 46.828457 254 245 252
7.759523 4.436093 46.681198 254 248 254
7.735198 4.522501 46.534863 254 251 254
7.711026 4.608368 46.389442 255 254 255
7.711026 4.708368 46.389442 254 254 254
7.687004 4.793388 46.244926 254 254 254
7.675049 4.885468 46.173004 254 254 254
7.675049 4.985001 46.173004 254 254 254
7.675049 5.084534 46.173004 254 254 254
8.538160 7.538677 51.365471 254 254 254
8.116870 7.271966 48.830990 254 254 254
7.896091 7.176569 47.502789 255 255 255
7.883477 7.267341 47.426903 254 254 254
7.711026 7.208368 46.389442 254 254 254
7.627599 7.229298 45.887547 254 254 254
7.592395 7.294393 45.675758 254 254 254
7.534438 7.336421 45.327087 254 254 254
7.663131 7.561111 46.101307 254 254 254
7.663131 7.660490 46.101307 254 254 254
7.627599 8.515233 45.887547 254 254 254
7.604094 9.277898 45.746136 254 250 252
7.569105 9.333367 45.535648 255 252 253
7.569105 9.431527 45.535648 254 254 254
7.557514 9.515093 45.465916 254 254 254
7.557514 9.613102 45.465916 254 253 254
7.557514 9.711111 45.465916 254 250 254
7.557514 9.809120 45.465916 252 241 252
7.557514 9.907129 45.465916 251 235 250
7.545958 9.989841 45.396397 252 240 251
7.534438 10.072298 45.327087 254 246 253
7.534438 10.170009 45.327087 254 244 252
7.534438 10.267718 45.327087 254 239 249
7.545958 10.381277 45.396397 254 241 250
7.580732 10.527428 45.605595 254 245 252
7.534438 10.951688 45.327087 254 241 249
7.534438 11.049397 45.327087 254 244 251
7.534438 11.147107 45.327087 254 242 251
7.534438 11.244818 45.327087 254 238 248
7.522952 11.325237 45.257992 254 238 249
7.522952 11.422798 45.257992 254 237 249
7.511502 11.502824 45.189106 253 232 243
7.511502 11.600237 45.189106 252 226 238
7.511502 11.697649 45.189106 252 225 238
9.038566 15.365120 54.375900 242 209 221
9.022041 15.454032 54.276493 241 207 219
9.005578 15.542620 54.177448 239 205 217
8.972830 15.602465 53.980442 237 202 215
8.860065 15.521284 53.302052 235 199 213
8.796892 15.524698 52.922001 234 198 211
8.796892 15.638780 52.922001 232 196 209
7.735198 14.754476 46.534863 211 178 192
7.747342 15.380464 46.607914 209 174 192
7.735198 15.456670 46.534863 208 174 192
7.735198 15.556984 46.534863 207 173 190
7.747342 15.681877 46.607914 205 171 188
7.771743 15.832056 46.754711 203 169 185
7.784001 15.957973 46.828457 201 167 181
7.796298 16.084290 46.902435 203 167 181
7.735198 16.058552 46.534863 204 167 182
7.711026 16.108368 46.389442 203 165 180
7.698997 16.183083 46.317070 201 162 177
7.675049 16.232279 46.173004 199 158 174
7.627599 16.230843 45.887547 197 155 171
7.557514 16.179718 45.465916 195 151 167
7.557514 16.277727 45.465916 192 148 164
7.557514 16.375736 45.465916 190 144 160
7.557514 16.473745 45.465916 186 138 154
7.545958 16.546415 45.396397 182 132 148
7.534438 16.618864 45.327087 179 127 143
7.534438 16.716574 45.327087 180 128 143
7.522952 16.788652 45.257992 185 132 146
7.522952 16.886213 45.257992 189 135 149
7.534438 17.009703 45.327087 191 138 151
7.522952 17.081335 45.257992 192 141 152
7.522952 17.178896 45.257992 192 143 154
7.522952 17.276457 45.257992 191 144 155
7.511502 17.347572 45.189106 186 141 153
7.500086 17.418474 45.120430 181 139 150
7.500086 17.515738 45.120430 178 138 148
7.998491 -0.503431 47.502789 245 151 173
7.998491 -0.401031 47.502789 252 162 185
7.985713 -0.298154 47.426903 254 170 193
7.972977 -0.195605 47.351265 254 173 196
7.960281 -0.093383 47.275864 254 175 196
7.947626 0.008514 47.200703 254 175 196
7.922435 0.109914 47.051098 254 175 196
7.897404 0.210672 46.902435 254 175 194
7.897404 0.311778 46.902435 254 174 193
7.884947 0.412233 46.828457 254 177 195
7.860152 0.511565 46.681198 253 181 199
7.860152 0.612194 46.681198 247 175 192
7.860152 0.712823 46.681198 244 171 187
7.860152 0.813452 46.681198 249 185 200
7.860152 0.914081 46.681198 253 203 216
7.860152 1.014710 46.681198 254 207 219
7.860152 1.115339 46.681198 254 209 220
7.847813 1.214059 46.607914 254 214 224
7.823250 1.310415 46.462036 254 219 229
7.786693 1.403980 46.244926 254 222 231
7.786693 1.503669 46.244926 252 225 233
7.811026 1.608368 46.389442 252 231 239
7.811026 1.708368 46.389442 254 240 246
7.811026 1.808368 46.389442 255 247 250
7.811026 1.908368 46.389442 254 251 252
7.811026 2.008368 46.389442 255 251 252
7.811026 2.108368 46.389442 255 251 253
7.811026 2.208368 46.389442 254 253 254
7.811026 2.308368 46.389442 254 254 254
7.823250 2.412137 46.462036 254 253 253
7.847813 2.520181 46.607914 254 248 251
7.860152 2.624773 46.681198 254 244 250
7.872530 2.729694 46.754711 254 246 251
7.897404 2.839424 46.902435 254 248 253
7.935010 2.954532 47.125782 254 248 254
7.960281 3.065853 47.275864 254 248 254
7.972977 3.172816 47.351265 254 249 254
7.985713 3.280121 47.426903 254 250 253
8.011309 3.393198 47.578915 254 251 254
7.998491 3.490169 47.502789 254 252 254
7.998491 3.592569 47.502789 254 252 254
7.998491 3.694969 47.502789 254 251 254
7.998491 3.797369 47.502789 254 248 253
7.998491 3.899769 47.502789 254 247 253
7.960281 3.983050 47.275864 254 247 254
7.935010 4.071993 47.125782 254 246 254
7.909900 4.160373 46.976650 254 246 253
7.884947 4.248195 46.828457 254 244 251
7.860152 4.335464 46.681198 254 245 251
7.835512 4.422187 46.534863 254 248 253
7.811026 4.508368 46.389442 254 250 254
7.811026 4.608368 46.389442 254 251 254
7.786693 4.693700 46.244926 254 253 254
7.774583 4.785934 46.173004 254 254 254
7.750475 4.870318 46.029835 254 254 254
7.750475 4.969543 46.029835 254 254 254
7.738478 5.060922 45.958580 254 254 254
7.679042 5.120362 45.605595 254 254 254
7.667265 5.210668 45.535648 253 252 253
7.667265 5.308827 45.535648 253 252 253
7.679042 5.415293 45.605595 254 254 254
7.667265 5.505147 45.535648 254 254 254
7.667265 5.603306 45.535648 254 254 254
7.667265 5.701466 45.535648 254 254 253
7.667265 5.799625 45.535648 254 254 253
7.667265 5.897784 45.535648 254 254 254
9.122366 7.834590 54.177448 254 254 254
8.589444 7.486865 51.012444 254 254 254
8.222133 7.271966 48.830990 254 254 254
7.998491 7.176569 47.502789 254 254 254
7.985713 7.267341 47.426903 254 254 254
7.798841 7.197123 46.317070 254 254 254
7.690856 7.195931 45.675758 254 254 254
7.632147 7.238710 45.327087 254 254 254
7.597351 7.302972 45.120430 254 254 254
7.551445 7.355522 44.847797 254 254 254
7.050856 6.958188 41.874813 254 254 254
7.655523 7.848937 45.465916 254 254 254
7.667265 8.057294 45.535648 254 254 254
7.679042 8.167981 45.605595 254 254 254
7.679042 8.266291 45.605595 254 254 254
7.690856 8.377470 45.675758 254 254 254
7.714593 8.502091 45.816730 254 254 254
7.726517 8.614151 45.887547 254 254 254
7.726517 8.713069 45.887547 254 254 254
7.679042 8.757842 45.605595 255 254 255
7.690856 9.066701 45.675758 254 252 253
9.414419 11.460179 55.911945 254 252 254
7.702707 9.475124 45.746136 254 251 254
7.655523 9.515093 45.465916 255 251 254
7.643817 9.598403 45.396397 254 253 254
7.643817 9.696262 45.396397 254 252 254
7.643817 9.794122 45.396397 254 247 254
7.643817 9.891981 45.396397 254 241 253
7.643817 9.989841 45.396397 254 240 253
7.643817 10.087700 45.396397 254 241 253
7.643817 10.185559 45.396397 254 239 251
7.643817 10.283418 45.396397 254 237 250
7.643817 10.381277 45.396397 254 241 251
7.655523 11.083240 45.465916 254 243 251
7.632147 11.147107 45.327087 254 243 251
7.632147 11.244818 45.327087 254 241 249
7.620513 11.325237 45.257992 254 241 250
7.620513 11.422798 45.257992 254 240 250
7.608914 11.502824 45.189106 253 235 244
7.608914 11.600237 45.189106 251 227 238
7.608914 11.697649 45.189106 251 225 236
9.155782 15.482336 54.375900 239 206 219
9.122366 15.542620 54.177448 237 203 216
9.089194 15.602465 53.980442 234 200 212
8.974967 15.521284 53.302052 234 199 211
8.910975 15.524698 52.922001 234 198 211
8.910975 15.638780 52.922001 232 196 209
7.860152 15.605905 46.681198 207 172 190
7.884947 15.756082 46.828457 205 171 188
7.884947 15.857028 46.828457 203 168 186
8.458641 17.119045 50.235603 201 166 183
7.972977 16.238207 47.351265 202 166 182
7.860152 16.109049 46.681198 203 167 182
7.860152 16.209679 46.681198 202 165 181
7.835512 16.259178 46.534863 200 161 178
7.835512 16.359491 46.534863 199 158 175
7.786693 16.357252 46.244926 197 155 172
7.738478 16.355040 45.958580 195 153 169
7.726517 16.428679 45.887547 193 150 166
7.702707 16.476665 45.746136 191 146 163
7.690856 16.549778 45.675758 187 141 158
7.679042 16.622665 45.605595 182 134 152
7.655523 16.669764 45.465916 177 129 146
7.655523 16.767773 45.465916 177 127 144
7.632147 16.814283 45.327087 179 130 145
7.632147 16.911993 45.327087 183 134 149
7.632147 17.009703 45.327087 187 137 153
7.632147 17.107412 45.327087 189 141 156
7.632147 17.205122 45.327087 191 144 158
7.620513 17.276457 45.257992 191 146 160
7.620513 17.374018 45.257992 187 144 157
7.608914 17.444986 45.189106 182 141 154
7.608914 17.542398 45.189106 179 140 152
8.100890 -0.503431 47.502789 248 155 180
8.087950 -0.400391 47.426903 254 168 193
8.087950 -0.298154 47.426903 254 173 198
8.062192 -0.195294 47.275864 254 177 201
8.049375 -0.093235 47.200703 255 178 201
8.023862 0.008487 47.051098 255 177 198
7.998510 0.109566 46.902435 254 176 196
7.985894 0.210340 46.828457 254 175 193
7.985894 0.311286 46.828457 254 174 191
7.973318 0.411583 46.754711 254 180 195
7.960781 0.511565 46.681198 254 188 202
7.960781 0.612194 46.681198 250 185 198
7.960781 0.712823 46.681198 245 177 189
7.960781 0.813452 46.681198 245 187 198
7.960781 0.914081 46.681198 252 208 218
7.960781 1.014710 46.681198 254 215 224
7.960781 1.115339 46.681198 254 216 225
7.960781 1.215968 46.681198 254 223 231
7.935825 1.312469 46.534863 254 229 236
7.886381 1.403980 46.244926 253 231 238
7.886381 1.503669 46.244926 252 233 239
7.911026 1.608368 46.389442 252 239 244
7.911026 1.708368 46.389442 254 248 251
7.911026 1.808368 46.389442 254 253 254
7.911026 1.908368 46.389442 254 254 254
7.911026 2.008368 46.389442 254 253 254
7.911026 2.108368 46.389442 254 253 254
7.911026 2.208368 46.389442 254 254 254
7.911026 2.308368 46.389442 254 254 254
7.911026 2.408368 46.389442 254 252 253
7.948284 2.520181 46.607914 254 246 249
7.960781 2.624773 46.681198 254 244 248
7.960781 2.725402 46.681198 254 247 251
7.973318 2.830481 46.754711 254 249 253
8.011166 2.945183 46.976650 254 250 253
8.049375 3.060978 47.200703 254 251 254
8.075050 3.172816 47.351265 254 251 253
8.100890 3.285369 47.502789 254 252 253
8.113873 3.393198 47.578915 254 254 254
8.113873 3.495762 47.578915 254 254 254
8.100890 3.592569 47.502789 254 254 254
8.100890 3.694969 47.502789 254 253 254
8.100890 3.797369 47.502789 254 252 254
8.100890 3.899769 47.502789 254 252 254
8.049375 3.976718 47.200703 254 252 254
7.998510 4.052694 46.902435 254 252 254
7.985894 4.147248 46.828457 254 251 254
7.960781 4.234836 46.681198 254 250 253
7.948284 4.328659 46.607914 254 250 253
7.911026 4.408368 46.389442 254 251 254
7.911026 4.508368 46.389442 254 250 254
7.898685 4.601179 46.317070 254 249 253
7.886381 4.693700 46.244926 254 249 253
7.861889 4.778502 46.101307 254 252 254
7.849700 4.870318 46.029835 254 254 254
7.837549 4.961851 45.958580 254 254 254
7.813359 5.045301 45.816730 254 254 254
