ply
format ascii 1.0
element vertex 1167
property float x
property float y
property float z
property uchar red
property uchar green
property uchar blue
end_header
14.612447 7.583800 50.924942 246 154 181
14.612447 7.693577 50.924942 250 158 185
14.587426 7.789992 50.837742 252 159 184
14.537640 7.872620 50.664234 250 155 180
14.537640 7.981835 50.664234 248 151 176
14.537640 8.091050 50.664234 247 150 174
14.512874 8.186296 50.577927 247 150 172
14.512874 8.295324 50.577927 247 150 172
14.488192 8.390060 50.491909 249 154 175
14.488192 8.498904 50.491909 253 158 179
14.488192 8.607747 50.491909 253 157 176
14.488192 8.716591 50.491909 250 149 168
14.488192 8.825435 50.491909 246 140 158
14.488192 8.934278 50.491909 244 136 154
14.512874 9.058527 50.577927 242 134 153
14.512874 9.167556 50.577927 243 135 155
14.587426 9.324239 50.837742 246 137 157
14.612447 9.450009 50.924942 247 139 160
14.612447 9.559787 50.924942 247 140 160
14.612447 9.669563 50.924942 244 138 158
14.637554 9.796144 51.012444 241 137 156
14.662748 9.923160 51.100246 242 138 155
14.688028 10.050612 51.188347 244 144 161
14.713397 10.178507 51.276756 248 157 172
14.738853 10.306844 51.365471 252 171 184
14.738853 10.417570 51.365471 253 176 188
14.738853 10.528296 51.365471 247 168 179
14.713397 10.620648 51.276756 230 150 160
14.713397 10.731184 51.276756 210 134 143
14.713397 10.841720 51.276756 212 138 147
14.738853 10.971203 51.365471 228 158 168
14.738853 11.081930 51.365471 242 173 184
14.738853 11.192657 51.365471 246 179 190
14.713397 11.283861 51.276756 242 176 187
14.713397 11.394397 51.276756 235 169 181
14.688028 11.485096 51.188347 228 163 175
14.637554 11.555593 51.012444 224 160 171
14.612447 11.645550 50.924942 221 158 169
14.562490 11.715137 50.750843 219 156 167
14.562490 11.824539 50.750843 216 153 165
14.562490 11.933941 50.750843 205 142 155
14.587426 12.063965 50.837742 183 119 132
14.587426 12.173553 50.837742 162 96 112
14.612447 12.304212 50.924942 155 87 106
14.688028 12.478199 51.188347 157 89 109
14.713397 12.610286 51.276756 161 91 112
14.764397 12.764915 51.454491 163 92 114
14.815751 12.920618 51.633465 164 93 115
15.104711 13.286091 52.640499 165 92 114
15.185484 13.471222 52.922001 166 92 114
15.212601 13.609563 53.016502 166 91 113
15.212601 13.723849 53.016502 164 88 109
15.267127 13.887733 53.206528 161 84 106
15.294537 14.027568 53.302052 158 82 104
15.322044 14.167906 53.397919 157 80 102
15.377358 14.334577 53.590691 157 80 101
15.377358 14.450100 53.590691 156 80 102
15.349651 14.539379 53.494129 155 81 102
15.349651 14.654695 53.494129 155 82 103
15.349651 14.770010 53.494129 155 82 104
15.377358 14.912194 53.590691 154 83 105
15.349651 15.000641 53.494129 155 83 106
15.267127 15.034687 53.206528 155 83 107
15.267127 15.149383 53.206528 156 84 109
15.212601 15.209563 53.016502 158 86 112
15.185484 15.296534 52.922001 161 89 115
15.158463 15.383195 52.827831 163 90 116
15.158463 15.497074 52.827831 163 91 116
15.158463 15.610952 52.827831 161 90 113
15.131539 15.696901 52.734001 159 90 111
15.131539 15.810578 52.734001 159 92 111
15.131539 15.924254 52.734001 160 95 112
15.131539 16.037931 52.734001 159 96 112
15.104711 16.122971 52.640499 157 96 111
15.077976 16.207708 52.547333 155 95 109
15.051337 16.292147 52.454491 154 95 108
15.051337 16.405222 52.454491 153 95 109
14.971980 16.431204 52.177929 151 94 109
14.893456 16.456915 51.904270 148 94 110
14.815751 16.482357 51.633465 146 94 112
14.815751 16.593662 51.633465 145 94 116
14.815751 16.704966 51.633465 143 93 119
14.815751 16.816271 51.633465 142 93 124
14.815751 16.927574 51.633465 152 104 138
14.815751 17.038879 51.633465 177 130 166
14.815751 17.150183 51.633465 184 139 173
14.815751 17.261488 51.633465 168 123 156
14.790029 17.342630 51.543823 148 102 135
14.790029 17.453743 51.543823 145 98 129
14.815751 17.595402 51.633465 152 107 134
14.893456 17.799572 51.904270 153 109 132
14.893456 17.911461 51.904270 154 111 131
14.919538 18.054913 51.995171 156 113 130
14.919538 18.166998 51.995171 156 113 130
14.919538 18.279081 51.995171 155 112 128
14.893456 18.359013 51.904270 154 111 127
14.867464 18.438665 51.813686 155 111 127
14.867464 18.550358 51.813686 156 111 128
14.867464 18.662052 51.813686 157 110 129
14.841562 18.741037 51.723419 158 110 130
14.815751 18.819748 51.633465 159 110 131
14.790029 18.898186 51.543823 160 109 131
15.005343 -0.997630 51.904270 114 25 37
14.979156 -0.884196 51.813686 120 27 39
14.901140 -0.768480 51.543823 125 28 42
14.901140 -0.657369 51.543823 132 30 46
14.901140 -0.546258 51.543823 140 34 51
14.875315 -0.434393 51.454491 149 41 58
14.849579 -0.322914 51.365471 161 51 70
14.849579 -0.212188 51.365471 177 65 84
14.849579 -0.101461 51.365471 185 71 91
14.823932 0.009250 51.276756 181 65 84
14.823932 0.119785 51.276756 174 54 74
14.823932 0.230320 51.276756 174 50 71
14.849579 0.341445 51.365471 180 51 73
14.823932 0.451391 51.276756 186 53 77
14.823932 0.561927 51.276756 187 52 75
14.798373 0.671303 51.188347 184 48 73
14.772903 0.780302 51.100246 184 49 75
14.772903 0.890457 51.100246 187 56 83
14.722224 0.997179 50.924942 190 65 94
14.646854 1.101289 50.664234 194 77 108
14.646854 1.210504 50.664234 202 92 125
14.671892 1.321975 50.750843 210 105 142
14.747520 1.438755 51.012444 213 115 153
14.747520 1.548721 51.012444 221 129 166
14.772903 1.661541 51.100246 227 140 176
14.798373 1.774751 51.188347 220 139 173
14.798373 1.885096 51.188347 208 136 166
14.798373 1.995440 51.188347 211 149 176
14.823932 2.109422 51.276756 229 185 206
14.849579 2.223798 51.365471 232 205 222
14.875315 2.338571 51.454491 198 168 192
14.875315 2.449490 51.454491 160 124 157
14.875315 2.560408 51.454491 176 140 175
14.849579 2.666705 51.365471 222 192 221
14.849579 2.777431 51.365471 223 194 219
14.798373 2.878199 51.188347 205 166 196
14.798373 2.988544 51.188347 222 182 210
14.772903 3.093555 51.100246 231 191 212
14.747520 3.198205 51.012444 217 156 178
14.747520 3.308171 51.012444 208 129 155
14.722224 3.412274 50.924942 207 122 147
14.722224 3.522051 50.924942 217 131 156
14.747520 3.638068 51.012444 237 149 175
14.747520 3.748034 51.012444 245 157 184
14.747520 3.857999 51.012444 243 153 182
14.671892 3.947616 50.750843 240 150 181
14.671892 4.057018 50.750843 239 150 181
14.671892 4.166420 50.750843 237 150 182
14.697015 4.283143 50.837742 236 151 184
14.671892 4.385223 50.750843 235 150 183
14.671892 4.494625 50.750843 233 147 179
14.671892 4.604026 50.750843 234 147 178
14.646854 4.705385 50.664234 240 151 180
14.572252 4.790077 50.406185 244 153 182
14.572252 4.898736 50.406185 247 153 182
14.572252 5.007395 50.406185 249 151 182
14.572252 5.116054 50.406185 249 148 181
14.572252 5.224712 50.406185 245 139 174
14.547554 5.324331 50.320751 240 131 167
14.547554 5.432806 50.320751 243 135 170
14.522939 5.531904 50.235603 246 140 175
14.522939 5.640195 50.235603 240 132 167
14.498406 5.738776 50.150745 226 119 152
14.498406 5.846884 50.150745 210 108 139
14.547554 5.975179 50.320751 204 108 137
14.547554 6.083653 50.320751 211 119 146
14.547554 6.192128 50.320751 224 136 163
14.547554 6.300602 50.320751 240 155 181
14.547554 6.409077 50.320751 249 166 191
14.646854 6.562040 50.664234 251 168 191
14.671892 6.682659 50.750843 252 168 192
14.697015 6.803691 50.837742 253 168 192
14.722224 6.925138 50.924942 252 167 191
14.722224 7.034915 50.924942 252 167 192
14.722224 7.144692 50.924942 250 166 191
14.722224 7.254469 50.924942 244 159 185
14.722224 7.364246 50.924942 239 153 179
14.722224 7.474023 50.924942 239 152 179
14.722224 7.583800 50.924942 244 156 183
14.722224 7.693577 50.924942 249 159 186
14.697015 7.789992 50.837742 251 160 187
14.646854 7.872620 50.664234 250 158 183
14.646854 7.981835 50.664234 249 154 179
14.621902 8.077267 50.577927 247 151 176
14.621902 8.186296 50.577927 247 151 174
14.621902 8.295324 50.577927 249 154 176
14.597035 8.390060 50.491909 252 158 179
14.597035 8.498904 50.491909 251 157 177
14.597035 8.607747 50.491909 248 151 170
14.597035 8.716591 50.491909 244 143 162
14.597035 8.825435 50.491909 239 136 154
14.597035 8.934278 50.491909 240 135 153
14.621902 9.058527 50.577927 246 140 158
14.621902 9.167556 50.577927 250 144 164
14.697015 9.324239 50.837742 251 144 164
14.722224 9.450009 50.924942 248 140 160
14.722224 9.559787 50.924942 244 136 156
14.722224 9.669563 50.924942 238 131 151
14.747520 9.796144 51.012444 233 127 146
14.772903 9.923160 51.100246 232 128 146
14.798373 10.050612 51.188347 238 136 153
14.823932 10.178507 51.276756 245 149 164
14.849579 10.306844 51.365471 251 161 174
14.849579 10.417570 51.365471 253 169 181
14.849579 10.528296 51.365471 251 171 182
14.849579 10.639023 51.365471 239 159 169
14.823932 10.731184 51.276756 213 135 144
14.849579 10.860476 51.365471 200 124 134
14.849579 10.971203 51.365471 212 139 150
14.849579 11.081930 51.365471 233 163 174
14.849579 11.192657 51.365471 244 175 187
14.849579 11.303383 51.365471 241 174 186
14.823932 11.394397 51.276756 234 167 180
14.823932 11.504931 51.276756 227 162 174
14.772903 11.575482 51.100246 221 158 169
14.747520 11.665559 51.012444 216 154 164
14.747520 11.775525 51.012444 214 151 162
14.697015 11.844787 50.837742 211 148 160
14.722224 11.974881 50.924942 196 133 145
14.747520 12.105422 51.012444 173 108 122
14.747520 12.215387 51.012444 155 89 105
14.798373 12.367854 51.188347 151 83 101
14.823932 12.499750 51.276756 154 85 104
14.875315 12.653996 51.454491 158 87 108
14.901140 12.787075 51.543823 159 88 109
15.005343 12.988383 51.904270 160 87 110
15.299566 13.357140 52.922001 161 87 108
15.326887 13.495277 53.016502 161 86 107
15.326887 13.609563 53.016502 161 85 106
15.326887 13.723849 53.016502 160 82 103
15.381822 13.887733 53.206528 157 78 99
15.437152 14.052797 53.397919 155 76 97
15.437152 14.167906 53.397919 152 74 95
15.492882 14.334577 53.590691 151 73 94
15.492882 14.450100 53.590691 151 74 94
15.464967 14.539379 53.494129 150 75 94
15.464967 14.654695 53.494129 150 77 96
15.464967 14.770010 53.494129 150 78 97
15.492882 14.912194 53.590691 150 80 98
15.464967 15.000641 53.494129 150 81 100
15.464967 15.115955 53.494129 151 81 102
15.381822 15.149383 53.206528 153 83 104
15.326887 15.209563 53.016502 155 85 108
15.299566 15.296534 52.922001 158 88 111
15.272343 15.383195 52.827831 161 91 115
15.272343 15.497074 52.827831 163 93 116
15.245216 15.583224 52.734001 162 93 116
15.218185 15.669070 52.640499 161 94 115
15.218185 15.782545 52.640499 160 94 114
15.218185 15.896020 52.640499 159 96 114
15.218185 16.009495 52.640499 158 97 114
15.191251 16.094435 52.547333 157 97 113
15.164411 16.179073 52.454491 156 96 113
15.084458 16.206249 52.177929 155 96 112
15.084458 16.318727 52.177929 153 95 111
15.005343 16.345028 51.904270 150 94 109
14.979156 16.428194 51.813686 148 94 109
14.927055 16.482357 51.633465 147 94 111
14.927055 16.593662 51.633465 147 94 114
14.927055 16.704966 51.633465 146 94 118
14.901140 16.787075 51.543823 145 95 122
14.901140 16.898186 51.543823 148 99 129
14.927055 17.038879 51.633465 156 107 140
14.927055 17.150183 51.633465 159 110 144
14.927055 17.261488 51.633465 155 107 141
14.901140 17.342630 51.543823 149 102 134
14.901140 17.453743 51.543823 148 102 132
14.953060 17.626055 51.723419 150 106 132
15.005343 17.799572 51.904270 151 109 131
15.005343 17.911461 51.904270 154 113 131
15.031623 18.054913 51.995171 156 116 131
15.031623 18.166998 51.995171 156 116 130
15.031623 18.279081 51.995171 154 114 127
14.979156 18.326973 51.813686 152 112 125
14.979156 18.438665 51.813686 153 112 125
14.979156 18.550358 51.813686 155 112 126
14.979156 18.662052 51.813686 156 111 127
14.953060 18.741037 51.723419 158 110 128
14.953060 18.852535 51.723419 159 109 129
15.117232 -0.885742 51.904270 117 26 40
15.038360 -0.769817 51.633465 123 27 42
15.012251 -0.657369 51.543823 128 29 45
15.012251 -0.546258 51.543823 134 31 49
14.960305 -0.433641 51.365471 141 35 53
14.934467 -0.322357 51.276756 152 43 62
14.934467 -0.211821 51.276756 167 57 76
14.908718 -0.101111 51.188347 177 66 84
14.908718 0.009234 51.188347 176 61 79
14.908718 0.119578 51.188347 170 51 71
14.908718 0.229923 51.188347 170 47 67
14.934467 0.340856 51.276756 174 47 68
14.934467 0.451391 51.276756 180 48 69
14.908718 0.560958 51.188347 184 48 69
14.883058 0.670147 51.100246 185 48 70
14.883058 0.780302 51.100246 186 49 72
14.883058 0.890457 51.100246 188 54 79
14.832001 0.997179 50.924942 192 63 90
14.781294 1.103172 50.750843 196 74 103
14.781294 1.212573 50.750843 203 88 120
14.806603 1.324239 50.837742 209 101 135
14.857486 1.438755 51.012444 215 112 148
14.857486 1.548721 51.012444 224 127 162
14.883058 1.661541 51.100246 233 141 176
14.883058 1.771696 51.100246 229 143 174
14.908718 1.885096 51.188347 215 135 164
14.908718 1.995440 51.188347 211 140 168
14.934467 2.109422 51.276756 221 163 189
14.960305 2.223798 51.365471 225 179 203
14.986234 2.338571 51.454491 208 163 193
14.986234 2.449490 51.454491 189 140 178
14.986234 2.560408 51.454491 199 149 190
14.960305 2.666705 51.365471 226 179 217
14.960305 2.777431 51.365471 228 180 217
14.934467 2.883170 51.276756 218 163 202
14.908718 2.988544 51.188347 231 177 213
14.883058 3.093555 51.100246 241 187 217
14.857486 3.198205 51.012444 233 164 192
14.857486 3.308171 51.012444 224 143 171
14.832001 3.412274 50.924942 216 130 158
14.832001 3.522051 50.924942 215 128 155
14.832001 3.631828 50.924942 229 142 170
14.857486 3.748034 51.012444 243 155 183
14.832001 3.851382 50.924942 244 155 185
14.781294 3.947616 50.750843 242 153 183
14.781294 4.057018 50.750843 240 152 183
14.781294 4.166420 50.750843 238 152 184
14.806603 4.283143 50.837742 237 153 185
14.781294 4.385223 50.750843 234 151 184
14.781294 4.494625 50.750843 230 147 179
14.781294 4.604026 50.750843 231 148 179
14.756069 4.705385 50.664234 239 155 185
14.680911 4.790077 50.406185 244 159 188
14.680911 4.898736 50.406185 246 157 187
14.680911 5.007395 50.406185 247 155 186
14.680911 5.116054 50.406185 249 154 186
14.680911 5.224712 50.406185 247 148 183
14.656028 5.324331 50.320751 244 142 178
14.656028 5.432806 50.320751 247 145 181
14.656028 5.541280 50.320751 251 150 186
14.631229 5.640195 50.235603 246 142 178
14.631229 5.748487 50.235603 230 125 159
14.631229 5.856778 50.235603 213 114 144
14.656028 5.975179 50.320751 207 113 141
14.656028 6.083653 50.320751 211 122 148
14.656028 6.192128 50.320751 224 137 164
14.656028 6.300602 50.320751 238 155 181
14.656028 6.409077 50.320751 248 166 191
14.756069 6.562040 50.664234 250 169 194
14.756069 6.671255 50.664234 249 168 193
14.781294 6.792061 50.750843 249 167 192
14.781294 6.901463 50.750843 250 167 192
14.806603 7.022869 50.837742 250 168 193
14.806603 7.132458 50.837742 248 167 192
14.806603 7.242047 50.837742 244 162 187
14.806603 7.351636 50.837742 241 157 183
14.806603 7.461225 50.837742 241 157 183
14.806603 7.570814 50.837742 245 159 186
14.806603 7.680403 50.837742 248 160 188
14.781294 7.776676 50.750843 250 160 188
14.756069 7.872620 50.664234 250 159 186
14.730931 7.968237 50.577927 249 156 182
14.730931 8.077267 50.577927 249 154 180
14.730931 8.186296 50.577927 250 155 180
14.705878 8.281217 50.491909 252 156 180
14.705878 8.390060 50.491909 250 155 176
14.680911 8.484474 50.406185 245 148 168
14.680911 8.593133 50.406185 238 139 159
14.680911 8.701792 50.406185 235 135 154
14.705878 8.825435 50.491909 237 135 153
14.705878 8.934278 50.491909 241 138 157
14.730931 9.058527 50.577927 247 145 164
14.730931 9.167556 50.577927 253 150 169
14.781294 9.308300 50.750843 253 147 167
14.832001 9.450009 50.924942 249 141 161
14.832001 9.559787 50.924942 242 133 154
14.832001 9.669563 50.924942 234 126 146
14.857486 9.796144 51.012444 227 119 139
14.883058 9.923160 51.100246 224 119 138
14.908718 10.050612 51.188347 229 126 143
14.934467 10.178507 51.276756 238 139 154
14.960305 10.306844 51.365471 247 152 165
14.960305 10.417570 51.365471 250 162 173
14.960305 10.528296 51.365471 253 170 181
14.960305 10.639023 51.365471 246 167 177
14.960305 10.749750 51.365471 224 146 156
14.960305 10.860476 51.365471 204 127 138
14.960305 10.971203 51.365471 206 132 144
14.960305 11.081930 51.365471 225 153 166
14.960305 11.192657 51.365471 238 168 182
14.960305 11.303383 51.365471 239 170 183
14.934467 11.394397 51.276756 232 164 177
14.934467 11.504931 51.276756 225 159 171
14.908718 11.595441 51.188347 218 154 165
14.883058 11.685637 51.100246 210 147 158
14.857486 11.775525 51.012444 204 141 153
14.857486 11.885490 51.012444 197 134 146
14.908718 12.036819 51.188347 178 115 127
14.908718 12.147164 51.188347 159 94 108
14.934467 12.278680 51.276756 149 83 99
14.960305 12.410649 51.365471 149 81 98
14.986234 12.543077 51.454491 152 82 100
15.012251 12.675964 51.543823 154 83 102
15.064559 12.831630 51.723419 155 83 103
15.170275 13.033957 52.086391 156 82 103
15.441173 13.380992 53.016502 155 81 101
15.441173 13.495277 53.016502 156 80 99
15.441173 13.609563 53.016502 155 78 97
15.441173 13.723849 53.016502 154 74 94
15.496517 13.887733 53.206528 152 71 91
15.552260 14.052797 53.397919 149 68 87
15.552260 14.167906 53.397919 145 65 84
15.580282 14.308748 53.494129 143 64 82
15.580282 14.424064 53.494129 142 64 82
15.552260 14.513229 53.397919 142 67 84
15.552260 14.628337 53.397919 143 70 86
15.552260 14.743445 53.397919 143 72 88
15.580282 14.885325 53.494129 144 75 90
15.580282 15.000641 53.494129 145 77 93
15.552260 15.088769 53.397919 146 79 96
15.468796 15.122282 53.111347 148 81 99
15.441173 15.209563 53.016502 151 84 104
15.413649 15.296534 52.922001 155 87 108
15.386222 15.383195 52.827831 158 90 113
15.331660 15.442120 52.640499 161 94 116
15.331660 15.555594 52.640499 162 95 118
15.304525 15.641337 52.547333 162 96 118
15.304525 15.754611 52.547333 160 97 117
15.304525 15.867886 52.547333 159 97 116
15.304525 15.981160 52.547333 157 97 116
15.250541 16.037664 52.361980 156 97 116
15.196936 16.093771 52.177929 156 97 116
15.143707 16.149485 51.995171 156 97 116
15.117232 16.233139 51.904270 155 95 114
15.090849 16.316502 51.813686 153 93 112
15.064559 16.399574 51.723419 152 93 112
15.012251 16.453743 51.543823 151 94 113
15.012251 16.564854 51.543823 150 94 115
15.012251 16.675964 51.543823 149 95 118
15.012251 16.787075 51.543823 150 96 121
15.012251 16.898186 51.543823 152 100 128
15.012251 17.009298 51.543823 153 102 131
15.038360 17.150183 51.633465 151 101 131
15.012251 17.231520 51.543823 149 100 131
15.012251 17.342630 51.543823 149 101 131
15.012251 17.453743 51.543823 149 103 131
15.064559 17.626055 51.723419 149 105 130
15.117232 17.799572 51.904270 151 109 129
15.117232 17.911461 51.904270 155 114 131
15.117232 18.023348 51.904270 158 119 133
15.117232 18.135237 51.904270 158 119 131
15.090849 18.215281 51.813686 154 116 127
15.064559 18.295044 51.723419 150 113 124
15.064559 18.406542 51.723419 151 112 124
15.038360 18.485836 51.633465 153 112 125
15.038360 18.597139 51.633465 155 112 126
15.038360 18.708445 51.633465 157 111 127
15.038360 18.819748 51.633465 158 109 128
15.176057 -0.771158 51.723419 118 27 42
15.123363 -0.657369 51.543823 123 28 44
15.123363 -0.546258 51.543823 128 28 46
15.045003 -0.432892 51.276756 134 31 49
15.045003 -0.322357 51.276756 142 37 55
15.019063 -0.211456 51.188347 154 47 65
15.019063 -0.101111 51.188347 163 54 71
14.993213 0.009218 51.100246 164 51 69
14.993213 0.119373 51.100246 162 45 64
15.019063 0.229923 51.188347 163 43 62
15.019063 0.340268 51.188347 168 42 62
15.019063 0.450613 51.188347 173 43 62
14.993213 0.559992 51.100246 179 44 64
14.993213 0.670147 51.100246 183 45 67
14.993213 0.780302 51.100246 187 47 70
14.993213 0.890457 51.100246 189 52 77
14.941778 0.997179 50.924942 192 59 86
14.890696 1.103172 50.750843 197 70 100
14.890696 1.212573 50.750843 203 84 115
14.941778 1.326510 50.924942 208 96 129
14.967451 1.438755 51.012444 214 109 142
14.967451 1.548721 51.012444 224 124 157
14.993213 1.661541 51.100246 234 140 172
14.993213 1.771696 51.100246 232 143 174
14.993213 1.881851 51.100246 218 135 163
15.019063 1.995440 51.188347 210 135 163
15.019063 2.105785 51.188347 216 148 177
15.045003 2.219958 51.276756 219 159 189
15.097152 2.338571 51.454491 215 158 191
15.123363 2.453742 51.543823 211 154 191
15.123363 2.564853 51.543823 218 158 201
15.071033 2.666705 51.365471 228 167 211
15.071033 2.777431 51.365471 230 166 210
15.071033 2.888158 51.365471 230 162 206
15.045003 2.993706 51.276756 240 170 212
15.019063 3.098889 51.188347 246 176 213
14.967451 3.198205 51.012444 243 168 201
14.967451 3.308171 51.012444 237 156 187
14.941778 3.412274 50.924942 225 139 169
14.941778 3.522051 50.924942 215 128 157
14.941778 3.631828 50.924942 223 135 164
14.941778 3.741605 50.924942 238 150 179
14.941778 3.851382 50.924942 244 156 185
14.890696 3.947616 50.750843 243 155 185
14.890696 4.057018 50.750843 240 154 185
14.890696 4.166420 50.750843 238 153 185
14.890696 4.275821 50.750843 237 154 187
14.890696 4.385223 50.750843 235 152 185
14.890696 4.494625 50.750843 229 148 180
14.890696 4.604026 50.750843 230 150 181
14.865284 4.705385 50.664234 239 159 189
14.814722 4.798223 50.491909 245 163 192
14.789570 4.898736 50.406185 245 161 190
14.789570 5.007395 50.406185 246 158 190
14.789570 5.116054 50.406185 248 157 190
14.789570 5.224712 50.406185 244 151 185
14.789570 5.333371 50.406185 239 141 177
14.764503 5.432806 50.320751 242 143 180
14.764503 5.541280 50.320751 249 150 187
14.764503 5.649755 50.320751 244 143 178
14.739520 5.748487 50.235603 227 125 159
14.739520 5.856778 50.235603 215 117 148
14.764503 5.975179 50.320751 212 119 147
14.764503 6.083653 50.320751 214 126 151
14.764503 6.192128 50.320751 223 139 164
14.764503 6.300602 50.320751 238 157 182
14.764503 6.409077 50.320751 248 169 194
14.814722 6.539720 50.491909 249 171 196
14.865284 6.671255 50.664234 246 167 193
14.865284 6.780470 50.664234 245 165 191
14.865284 6.889685 50.664234 246 165 192
14.890696 7.010864 50.750843 246 166 192
14.890696 7.120266 50.750843 246 166 192
14.890696 7.229668 50.750843 245 164 189
14.890696 7.339069 50.750843 244 161 188
14.890696 7.448471 50.750843 244 161 188
14.916193 7.570814 50.837742 246 162 189
14.890696 7.667274 50.750843 248 161 190
14.865284 7.763405 50.664234 249 160 189
14.839960 7.859209 50.577927 250 158 188
14.839960 7.968237 50.577927 251 158 187
14.814722 8.063530 50.491909 252 159 187
14.814722 8.172373 50.491909 253 159 186
14.814722 8.281217 50.491909 253 156 181
14.814722 8.390060 50.491909 247 149 171
14.789570 8.484474 50.406185 236 137 158
14.789570 8.593133 50.406185 227 128 149
14.789570 8.701792 50.406185 231 131 151
14.814722 8.825435 50.491909 239 139 158
14.814722 8.934278 50.491909 245 146 165
14.839960 9.058527 50.577927 250 151 171
14.839960 9.167556 50.577927 253 151 172
14.890696 9.308300 50.750843 252 148 169
14.941778 9.450009 50.924942 250 142 165
14.941778 9.559787 50.924942 245 136 158
14.941778 9.669563 50.924942 237 127 150
14.993213 9.813004 51.100246 227 119 141
15.019063 9.940269 51.188347 221 114 135
15.045003 10.067971 51.276756 222 119 137
15.045003 10.178507 51.276756 231 132 148
15.045003 10.289042 51.276756 241 146 159
15.045003 10.399578 51.276756 245 154 166
15.045003 10.510113 51.276756 249 163 174
15.045003 10.620648 51.276756 249 169 180
15.045003 10.731184 51.276756 239 160 172
15.071033 10.860476 51.365471 222 145 158
15.071033 10.971203 51.365471 214 139 152
15.071033 11.081930 51.365471 219 146 161
15.071033 11.192657 51.365471 230 159 175
15.071033 11.303383 51.365471 235 165 181
15.045003 11.394397 51.276756 229 161 176
15.045003 11.504931 51.276756 220 153 168
15.045003 11.615467 51.276756 213 148 162
15.019063 11.705786 51.188347 204 140 153
15.019063 11.816130 51.188347 192 128 141
15.045003 11.947073 51.276756 178 114 128
15.071033 12.078469 51.365471 160 96 110
15.097152 12.210321 51.454491 146 82 96
15.123363 12.342631 51.543823 144 78 92
15.123363 12.453742 51.543823 146 79 94
15.149664 12.586705 51.633465 148 79 95
15.176057 12.720132 51.723419 149 80 96
15.255791 12.899046 51.995171 150 80 96
15.417799 13.149302 52.547333 151 79 96
15.583285 13.404929 53.111347 150 76 94
15.611213 13.543648 53.206528 149 74 90
15.583285 13.633909 53.111347 148 71 88
15.611213 13.773039 53.206528 148 67 85
15.639240 13.912667 53.302052 145 64 82
15.667368 14.052797 53.397919 142 60 77
15.723929 14.219053 53.590691 137 56 73
15.723929 14.334577 53.590691 133 53 70
15.695598 14.424064 53.494129 131 53 69
15.667368 14.513229 53.397919 133 57 71
15.639240 14.602075 53.302052 134 61 75
15.639240 14.716976 53.302052 136 65 78
15.639240 14.831877 53.302052 136 68 81
15.667368 14.973660 53.397919 138 71 85
15.639240 15.061680 53.302052 140 74 89
15.555458 15.095278 53.016502 143 78 93
15.527730 15.182452 52.922001 147 82 99
15.500101 15.269316 52.827831 151 86 105
15.445136 15.328645 52.640499 156 90 110
15.445136 15.442120 52.640499 159 94 114
15.390559 15.500628 52.454491 161 96 117
15.390559 15.613702 52.454491 161 98 119
15.417799 15.754611 52.547333 160 98 119
15.417799 15.867886 52.547333 159 98 119
15.390559 15.952925 52.454491 157 98 119
15.282556 15.953256 52.086391 157 98 119
15.255791 16.037399 51.995171 157 98 120
15.202542 16.093117 51.813686 157 97 119
15.176057 16.176577 51.723419 157 97 118
15.149664 16.259748 51.633465 157 95 117
15.123363 16.342630 51.543823 157 95 117
15.123363 16.453743 51.543823 157 95 117
15.123363 16.564854 51.543823 157 96 118
15.123363 16.675964 51.543823 155 96 119
15.123363 16.787075 51.543823 156 98 123
15.123363 16.898186 51.543823 163 106 133
15.123363 17.009298 51.543823 165 110 138
15.123363 17.120409 51.543823 160 107 135
15.123363 17.231520 51.543823 153 102 131
15.123363 17.342630 51.543823 151 101 129
15.123363 17.453743 51.543823 151 104 130
15.176057 17.626055 51.723419 151 106 130
15.202542 17.768509 51.813686 152 109 129
15.229120 17.911461 51.904270 155 114 131
15.229120 18.023348 51.904270 157 119 133
15.202542 18.103588 51.813686 157 121 132
15.176057 18.183546 51.723419 152 117 127
15.149664 18.263227 51.633465 148 113 124
15.149664 18.374531 51.633465 149 113 125
15.123363 18.453743 51.543823 152 114 127
15.123363 18.564854 51.543823 155 114 128
15.123363 18.675964 51.543823 156 112 128
15.123363 18.787075 51.543823 157 109 128
15.367875 -0.775209 51.995171 113 26 41
15.287555 -0.659659 51.723419 118 27 43
15.234473 -0.546258 51.543823 124 28 45
15.155539 -0.432892 51.276756 129 30 47
15.129408 -0.321801 51.188347 136 34 51
15.129408 -0.211456 51.188347 143 39 56
15.103368 -0.100937 51.100246 149 42 59
15.077417 0.009202 51.012444 152 41 58
15.077417 0.119167 51.012444 154 39 57
15.103368 0.229527 51.100246 158 39 57
15.103368 0.339682 51.100246 163 38 58
15.103368 0.449837 51.100246 169 39 59
15.103368 0.559992 51.100246 176 41 61
15.103368 0.670147 51.100246 182 43 64
15.103368 0.780302 51.100246 187 45 69
15.077417 0.888927 51.012444 190 50 74
15.077417 0.998893 51.012444 192 56 82
15.000097 1.103172 50.750843 197 66 95
15.000097 1.212573 50.750843 201 79 108
15.051555 1.326510 50.924942 206 91 122
15.077417 1.438755 51.012444 213 105 136
15.103368 1.551386 51.100246 222 121 152
15.103368 1.661541 51.100246 232 137 167
15.103368 1.771696 51.100246 232 142 171
15.103368 1.881851 51.100246 219 134 163
15.129408 1.995440 51.188347 213 134 163
15.129408 2.105785 51.188347 219 147 178
15.155539 2.219958 51.276756 224 156 188
15.208071 2.338571 51.454491 222 157 192
15.234473 2.453742 51.543823 223 158 196
15.234473 2.564853 51.543823 228 161 203
15.181759 2.666705 51.365471 231 163 206
15.181759 2.777431 51.365471 233 161 206
15.181759 2.888158 51.365471 237 162 206
15.181759 2.998885 51.365471 244 167 209
15.129408 3.098889 51.188347 249 174 213
15.103368 3.203710 51.100246 250 177 213
15.077417 3.308171 51.012444 247 170 202
15.077417 3.418137 51.012444 235 151 182
15.051555 3.522051 50.924942 220 133 163
15.051555 3.631828 50.924942 218 131 160
15.051555 3.741605 50.924942 230 143 172
15.051555 3.851382 50.924942 240 153 183
15.000097 3.947616 50.750843 242 155 186
15.000097 4.057018 50.750843 238 154 184
15.000097 4.166420 50.750843 235 152 184
15.000097 4.275821 50.750843 236 153 186
15.000097 4.385223 50.750843 234 153 186
15.000097 4.494625 50.750843 229 148 181
15.000097 4.604026 50.750843 230 150 182
15.000097 4.713428 50.750843 239 161 192
14.923566 4.798223 50.491909 245 166 196
14.923566 4.907067 50.491909 245 163 193
14.923566 5.015911 50.491909 245 161 192
14.923566 5.124754 50.491909 247 159 191
14.923566 5.233598 50.491909 242 151 185
14.898229 5.333371 50.406185 235 138 174
14.898229 5.442029 50.406185 238 139 176
14.898229 5.550688 50.406185 246 148 185
14.872977 5.649755 50.320751 241 141 176
14.847812 5.748487 50.235603 226 125 158
14.847812 5.856778 50.235603 218 120 151
14.872977 5.975179 50.320751 215 122 150
14.872977 6.083653 50.320751 215 127 153
14.872977 6.192128 50.320751 224 140 165
14.847812 6.289942 50.235603 237 157 182
14.872977 6.409077 50.320751 246 168 194
14.898229 6.528617 50.406185 247 170 196
14.923566 6.648564 50.491909 244 166 193
14.923566 6.757407 50.491909 241 163 191
14.948989 6.877948 50.577927 242 164 191
14.974500 6.998900 50.664234 243 164 192
14.974500 7.108115 50.664234 242 164 190
14.974500 7.217330 50.664234 243 163 189
14.974500 7.326545 50.664234 244 162 189
14.974500 7.435760 50.664234 245 163 190
15.000097 7.557873 50.750843 247 164 192
15.000097 7.667274 50.750843 249 162 192
14.974500 7.763405 50.664234 248 159 190
14.948989 7.859209 50.577927 248 156 188
14.948989 7.968237 50.577927 251 158 189
14.923566 8.063530 50.491909 252 160 190
14.923566 8.172373 50.491909 251 157 186
14.923566 8.281217 50.491909 247 149 175
14.923566 8.390060 50.491909 239 140 164
14.898229 8.484474 50.406185 227 128 150
14.898229 8.593133 50.406185 223 124 145
14.898229 8.701792 50.406185 232 134 154
14.923566 8.825435 50.491909 243 146 166
14.923566 8.934278 50.491909 250 152 172
14.948989 9.058527 50.577927 251 152 174
14.948989 9.167556 50.577927 251 149 172
15.000097 9.308300 50.750843 250 146 170
15.025782 9.433827 50.837742 251 145 169
15.051555 9.559787 50.924942 249 142 167
15.051555 9.669563 50.924942 243 135 160
15.103368 9.813004 51.100246 233 125 149
15.129408 9.940269 51.188347 224 117 140
15.129408 10.050612 51.188347 222 118 138
15.155539 10.178507 51.276756 229 130 146
15.155539 10.289042 51.276756 237 142 155
15.155539 10.399578 51.276756 239 148 159
15.155539 10.510113 51.276756 242 156 167
15.155539 10.620648 51.276756 245 163 174
15.155539 10.731184 51.276756 241 162 174
15.155539 10.841720 51.276756 231 155 168
15.181759 10.971203 51.365471 222 148 162
15.181759 11.081930 51.365471 220 147 162
15.181759 11.192657 51.365471 225 154 171
15.155539 11.283861 51.276756 231 160 178
15.155539 11.394397 51.276756 227 157 175
15.155539 11.504931 51.276756 216 148 165
15.155539 11.615467 51.276756 207 141 158
15.155539 11.726003 51.276756 198 132 149
15.155539 11.836538 51.276756 180 114 131
15.181759 11.967743 51.365471 162 97 114
15.234473 12.120409 51.543823 149 84 101
15.234473 12.231520 51.543823 142 77 93
15.260968 12.364097 51.633465 142 76 92
15.314235 12.518945 51.813686 145 78 94
15.314235 12.630638 51.813686 147 78 94
15.367875 12.786963 51.995171 148 78 94
15.503633 13.012996 52.454491 150 78 94
15.669744 13.266706 53.016502 150 77 93
15.754141 13.453062 53.302052 147 73 88
15.754141 13.567964 53.302052 143 68 82
15.725908 13.658343 53.206528 142 64 79
15.754141 13.797766 53.302052 141 61 77
15.782476 13.937690 53.397919 139 58 74
15.839453 14.103530 53.590691 136 54 70
15.868095 14.244766 53.687599 132 50 65
15.868095 14.360498 53.687599 127 47 61
15.839453 14.450100 53.590691 124 46 60
15.810913 14.539379 53.494129 124 48 61
15.754141 14.602075 53.302052 126 52 65
15.754141 14.716976 53.302052 127 56 68
15.754141 14.831877 53.302052 129 60 71
15.754141 14.946778 53.302052 131 65 76
15.725908 15.034687 53.206528 135 70 83
15.669744 15.095278 53.016502 140 75 89
15.641812 15.182452 52.922001 145 81 96
15.613979 15.269316 52.827831 150 86 103
15.558611 15.328645 52.640499 155 92 110
15.503633 15.387554 52.454491 158 95 114
15.476291 15.473290 52.361980 159 98 117
15.476291 15.586164 52.361980 159 99 119
15.476291 15.699039 52.361980 159 100 120
15.476291 15.811914 52.361980 159 100 121
15.449043 15.896752 52.269794 158 101 121
15.367875 15.925316 51.995171 158 100 122
15.314235 15.981423 51.813686 158 99 122
15.260968 16.037140 51.633465 159 99 122
15.234473 16.120409 51.543823 160 98 122
15.234473 16.231520 51.543823 160 98 121
15.234473 16.342630 51.543823 162 98 121
15.234473 16.453743 51.543823 163 98 122
15.234473 16.564854 51.543823 163 100 123
15.234473 16.675964 51.543823 161 99 123
15.234473 16.787075 51.543823 163 101 126
15.234473 16.898186 51.543823 171 110 136
15.234473 17.009298 51.543823 175 116 143
15.234473 17.120409 51.543823 169 113 140
15.234473 17.231520 51.543823 157 103 131
15.234473 17.342630 51.543823 151 99 126
15.234473 17.453743 51.543823 151 102 127
15.287555 17.626055 51.723419 152 106 128
15.287555 17.737553 51.723419 152 108 128
15.314235 17.880201 51.813686 153 111 129
15.314235 17.991894 51.813686 153 115 130
15.287555 18.072048 51.723419 153 117 130
15.260968 18.151922 51.633465 149 115 127
15.234473 18.231520 51.543823 144 111 124
15.234473 18.342630 51.543823 146 112 126
15.234473 18.453743 51.543823 154 118 133
15.234473 18.564854 51.543823 161 122 138
15.234473 18.675964 51.543823 163 119 137
15.425928 -0.660811 51.813686 114 26 42
15.345585 -0.546258 51.543823 120 28 45
15.266073 -0.432892 51.276756 125 31 47
15.239753 -0.321801 51.188347 132 33 49
15.213523 -0.211092 51.100246 136 35 51
15.187383 -0.100764 51.012444 140 35 52
15.187383 0.009202 51.012444 144 35 52
15.187383 0.119167 51.012444 149 35 53
15.187383 0.229133 51.012444 154 35 54
15.187383 0.339099 51.012444 159 35 55
15.187383 0.449064 51.012444 166 36 56
15.187383 0.559030 51.012444 173 38 58
15.187383 0.668996 51.012444 180 40 62
15.187383 0.778961 51.012444 186 43 67
15.187383 0.888927 51.012444 190 47 72
15.109499 0.993770 50.750843 193 53 79
15.109499 1.103172 50.750843 195 62 88
15.109499 1.212573 50.750843 197 72 100
15.161332 1.326510 50.924942 201 85 113
15.187383 1.438755 51.012444 209 101 129
15.213523 1.551386 51.100246 219 118 147
15.213523 1.661541 51.100246 230 136 164
15.213523 1.771696 51.100246 231 142 170
15.213523 1.881851 51.100246 220 135 163
15.239753 1.995440 51.188347 216 136 165
15.239753 2.105785 51.188347 226 151 182
15.266073 2.219958 51.276756 232 160 193
15.318989 2.338571 51.454491 231 160 195
15.345585 2.453742 51.543823 231 161 198
15.345585 2.564853 51.543823 235 164 202
15.292485 2.666705 51.365471 236 163 204
15.292485 2.777431 51.365471 237 162 204
15.292485 2.888158 51.365471 240 163 204
15.292485 2.998885 51.365471 245 168 207
15.292485 3.109612 51.365471 250 178 215
15.239753 3.209234 51.188347 253 185 220
15.213523 3.313865 51.100246 252 180 211
15.187383 3.418137 51.012444 243 163 193
15.161332 3.522051 50.924942 227 143 172
15.161332 3.631828 50.924942 216 130 160
15.161332 3.741605 50.924942 222 136 165
15.161332 3.851382 50.924942 234 149 179
15.135371 3.954376 50.837742 239 155 185
15.135371 4.063965 50.837742 236 153 183
15.109499 4.166420 50.750843 232 150 182
15.109499 4.275821 50.750843 232 151 185
15.109499 4.385223 50.750843 232 153 186
15.109499 4.494625 50.750843 227 149 183
15.109499 4.604026 50.750843 229 150 184
15.109499 4.713428 50.750843 239 161 194
15.032410 4.798223 50.491909 245 167 199
15.032410 4.907067 50.491909 245 165 197
15.032410 5.015911 50.491909 245 162 194
15.032410 5.124754 50.491909 246 159 192
15.032410 5.233598 50.491909 242 150 185
15.032410 5.342441 50.491909 235 138 174
15.006887 5.442029 50.406185 237 138 174
15.006887 5.550688 50.406185 245 145 182
14.981452 5.649755 50.320751 240 140 174
14.956102 5.748487 50.235603 226 126 158
14.956102 5.856778 50.235603 219 123 152
14.981452 5.975179 50.320751 215 123 150
14.981452 6.083653 50.320751 215 128 153
14.956102 6.181651 50.235603 226 143 166
14.956102 6.289942 50.235603 237 157 181
14.956102 6.398232 50.235603 242 165 190
14.981452 6.517551 50.320751 243 167 193
15.006887 6.637276 50.406185 241 164 192
15.006887 6.745934 50.406185 238 161 190
15.032410 6.866251 50.491909 239 162 190
15.083714 6.998900 50.664234 241 164 192
15.083714 7.108115 50.664234 240 163 190
15.083714 7.217330 50.664234 239 161 188
15.083714 7.326545 50.664234 241 161 188
15.083714 7.435760 50.664234 244 162 190
15.109499 7.557873 50.750843 247 164 193
15.109499 7.667274 50.750843 250 163 194
15.109499 7.776676 50.750843 249 158 190
15.083714 7.872620 50.664234 247 154 187
15.058018 7.968237 50.577927 247 154 186
15.058018 8.077267 50.577927 246 152 183
15.058018 8.186296 50.577927 242 145 176
15.083714 8.309481 50.664234 236 138 166
15.058018 8.404353 50.577927 229 130 155
15.058018 8.513382 50.577927 222 123 146
15.032410 8.607747 50.491909 224 125 147
15.032410 8.716591 50.491909 236 138 159
15.032410 8.825435 50.491909 247 151 171
15.058018 8.949498 50.577927 251 154 176
15.058018 9.058527 50.577927 250 150 173
15.058018 9.167556 50.577927 247 145 169
15.109499 9.308300 50.750843 248 143 169
15.109499 9.417702 50.750843 251 146 173
15.109499 9.527103 50.750843 252 146 174
15.109499 9.636505 50.750843 248 141 168
15.161332 9.779341 50.924942 240 131 157
15.213523 9.923160 51.100246 231 124 148
15.239753 10.050612 51.188347 227 123 144
15.239753 10.160957 51.188347 229 130 147
15.239753 10.271302 51.188347 233 138 152
15.239753 10.381647 51.188347 234 142 154
15.239753 10.491992 51.188347 234 147 159
15.239753 10.602337 51.188347 236 153 165
15.266073 10.731184 51.276756 234 155 168
15.266073 10.841720 51.276756 231 154 168
15.266073 10.952254 51.276756 227 152 167
15.266073 11.062790 51.276756 223 151 166
15.266073 11.173326 51.276756 224 152 169
15.266073 11.283861 51.276756 226 154 173
15.266073 11.394397 51.276756 222 152 171
15.266073 11.504931 51.276756 211 142 162
15.266073 11.615467 51.276756 201 134 153
15.292485 11.746290 51.365471 191 125 144
15.292485 11.857017 51.365471 170 105 124
15.345585 12.009297 51.543823 153 89 107
15.345585 12.120409 51.543823 144 80 99
15.372272 12.252792 51.633465 143 78 95
15.425928 12.407252 51.813686 144 79 96
15.479959 12.562794 51.995171 147 81 97
15.507117 12.697115 52.086391 148 80 96
15.616708 12.899921 52.454491 148 79 94
15.784030 13.152420 53.016502 150 78 93
15.926229 13.386226 53.494129 150 77 92
15.983828 13.550371 53.687599 145 71 86
15.983828 13.666104 53.687599 141 65 79
15.926229 13.732172 53.494129 139 61 75
15.926229 13.847487 53.494129 137 57 72
15.954976 13.988007 53.590691 136 55 70
15.954976 14.103530 53.590691 134 52 67
15.983828 14.244766 53.687599 131 48 64
15.983828 14.360498 53.687599 128 46 61
15.954976 14.450100 53.590691 125 45 60
15.926229 14.539379 53.494129 124 46 60
15.869042 14.602075 53.302052 124 49 62
15.840603 14.690601 53.206528 123 52 64
15.840603 14.805297 53.206528 123 55 67
15.840603 14.919991 53.206528 128 61 73
15.812266 15.007792 53.111347 134 70 82
15.755895 15.068370 52.922001 140 77 91
15.727859 15.155437 52.827831 145 83 98
15.699923 15.242194 52.734001 151 89 105
15.644348 15.301514 52.547333 156 95 113
15.589165 15.360415 52.361980 157 98 115
15.507117 15.391851 52.086391 157 99 117
15.507117 15.504132 52.086391 158 101 119
15.589165 15.699039 52.361980 159 103 122
15.589165 15.811914 52.361980 159 104 124
15.479959 15.813232 51.995171 158 103 124
15.425928 15.869730 51.813686 158 102 124
15.372272 15.925836 51.633465 160 102 125
15.345585 16.009298 51.543823 161 102 125
15.345585 16.120409 51.543823 162 101 125
15.318989 16.203388 51.454491 164 101 125
15.318989 16.314308 51.454491 166 102 126
15.318989 16.425226 51.454491 167 102 127
15.345585 16.564854 51.543823 168 104 129
15.345585 16.675964 51.543823 168 104 129
15.345585 16.787075 51.543823 166 104 130
15.345585 16.898186 51.543823 170 109 134
15.345585 17.009298 51.543823 173 113 139
15.345585 17.120409 51.543823 169 111 137
15.345585 17.231520 51.543823 158 103 128
15.345585 17.342630 51.543823 151 99 123
15.345585 17.453743 51.543823 152 101 124
15.372272 17.595402 51.633465 152 104 125
15.399054 17.737553 51.723419 151 106 125
15.399054 17.849051 51.723419 150 108 126
15.372272 17.929314 51.633465 149 111 127
15.372272 18.040619 51.633465 148 113 128
15.345585 18.120409 51.543823 146 112 128
15.345585 18.231520 51.543823 140 107 124
15.345585 18.342630 51.543823 141 107 126
15.345585 18.453743 51.543823 156 121 140
15.345585 18.564854 51.543823 177 141 159
15.345585 18.675964 51.543823 188 149 166
15.592043 -0.663125 51.995171 109 25 40
15.483577 -0.547208 51.633465 115 28 42
15.376609 -0.432892 51.276756 122 30 45
15.350098 -0.321801 51.188347 128 31 47
15.323677 -0.211092 51.100246 133 32 48
15.297348 -0.100764 51.012444 137 32 50
15.297348 0.009202 51.012444 141 32 51
15.244960 0.118759 50.837742 147 32 52
15.192929 0.227569 50.664234 152 33 53
15.192929 0.336784 50.664234 158 33 54
15.192929 0.445999 50.664234 165 34 55
15.192929 0.555214 50.664234 172 36 57
15.218901 0.665565 50.750843 179 38 60
15.218901 0.774967 50.750843 186 41 65
15.218901 0.884368 50.750843 191 45 70
15.192929 0.992074 50.664234 193 51 76
15.167048 1.099413 50.577927 194 58 83
15.218901 1.212573 50.750843 194 67 93
15.271110 1.326510 50.924942 196 77 104
15.297348 1.438755 51.012444 201 93 119
15.297348 1.548721 51.012444 215 114 141
15.323677 1.661541 51.100246 230 137 163
15.323677 1.771696 51.100246 232 146 172
15.323677 1.881851 51.100246 222 139 166
15.323677 1.992006 51.100246 218 139 168
15.350098 2.105785 51.188347 228 153 185
15.376609 2.219958 51.276756 236 163 196
15.403213 2.334525 51.365471 236 164 197
15.456696 2.453742 51.543823 237 164 199
15.429908 2.560408 51.454491 240 166 202
15.403213 2.666705 51.365471 240 165 202
15.403213 2.777431 51.365471 240 163 201
15.403213 2.888158 51.365471 242 164 201
15.403213 2.998885 51.365471 245 168 204
15.403213 3.109612 51.365471 249 177 211
15.376609 3.214776 51.276756 252 184 216
15.350098 3.319578 51.188347 253 182 211
15.297348 3.418137 51.012444 248 170 199
15.297348 3.528102 51.012444 236 153 181
15.271110 3.631828 50.924942 220 136 164
15.271110 3.741605 50.924942 218 133 162
15.271110 3.851382 50.924942 228 144 173
15.244960 3.954376 50.837742 236 153 183
15.244960 4.063965 50.837742 233 151 182
15.192929 4.159310 50.664234 228 148 180
15.192929 4.268525 50.664234 230 150 184
15.192929 4.377740 50.664234 231 152 187
15.218901 4.494625 50.750843 228 149 185
15.218901 4.604026 50.750843 228 151 186
15.192929 4.705385 50.664234 237 161 194
15.141253 4.798223 50.491909 243 166 199
15.141253 4.907067 50.491909 245 165 198
15.141253 5.015911 50.491909 244 161 194
15.141253 5.124754 50.491909 242 156 189
15.141253 5.233598 50.491909 240 148 183
15.141253 5.342441 50.491909 236 140 175
15.115546 5.442029 50.406185 238 139 175
15.141253 5.560128 50.491909 244 144 180
15.115546 5.659347 50.406185 238 138 172
15.089927 5.758230 50.320751 226 126 158
15.089927 5.866704 50.320751 220 124 153
15.089927 5.975179 50.320751 215 125 150
15.089927 6.083653 50.320751 217 130 154
15.064394 6.181651 50.235603 228 146 168
15.038947 6.279317 50.150745 237 158 181
15.038947 6.387425 50.150745 240 163 187
15.064394 6.506524 50.235603 240 164 191
15.115546 6.637276 50.406185 238 162 190
15.089927 6.734501 50.320751 235 159 188
15.115546 6.854593 50.406185 236 160 189
15.167048 6.986977 50.577927 240 164 193
15.192929 7.108115 50.664234 241 165 193
15.192929 7.217330 50.664234 239 161 189
15.192929 7.326545 50.664234 239 160 187
15.192929 7.435760 50.664234 243 162 190
15.218901 7.557873 50.750843 249 165 194
15.218901 7.667274 50.750843 252 165 196
15.218901 7.776676 50.750843 250 160 192
15.192929 7.872620 50.664234 245 152 185
15.167048 7.968237 50.577927 240 145 177
15.167048 8.077267 50.577927 234 137 169
15.192929 8.200265 50.664234 230 132 163
15.192929 8.309481 50.664234 228 129 158
15.192929 8.418695 50.664234 226 128 153
15.192929 8.527910 50.664234 224 126 150
15.167048 8.622412 50.577927 228 130 152
15.167048 8.731441 50.577927 238 140 162
15.167048 8.840469 50.577927 247 151 173
15.167048 8.949498 50.577927 249 153 175
15.167048 9.058527 50.577927 247 148 171
15.167048 9.167556 50.577927 244 142 166
15.167048 9.276586 50.577927 245 141 168
15.192929 9.401630 50.664234 249 145 172
15.192929 9.510845 50.664234 252 146 174
15.192929 9.620061 50.664234 250 141 170
15.218901 9.745907 50.750843 243 134 161
15.297348 9.906109 51.012444 236 129 154
15.323677 10.033314 51.100246 230 126 148
15.323677 10.143469 51.100246 228 128 146
15.297348 10.236006 51.012444 227 132 147
15.323677 10.363779 51.100246 226 135 147
15.323677 10.473933 51.100246 226 139 150
15.323677 10.584088 51.100246 227 144 157
15.350098 10.712682 51.188347 228 148 161
15.376609 10.841720 51.276756 228 152 165
15.376609 10.952254 51.276756 227 153 168
15.376609 11.062790 51.276756 225 152 168
15.376609 11.173326 51.276756 222 150 167
15.376609 11.283861 51.276756 219 147 167
15.376609 11.394397 51.276756 214 143 164
15.376609 11.504931 51.276756 205 135 157
15.403213 11.635563 51.365471 195 127 148
15.403213 11.746290 51.365471 183 117 139
15.429908 11.877565 51.454491 166 101 123
15.456696 12.009297 51.543823 150 87 107
15.483577 12.141488 51.633465 143 80 99
15.537621 12.295559 51.813686 143 80 98
15.592043 12.450710 51.995171 146 82 100
15.619397 12.584834 52.086391 149 83 100
15.729782 12.786847 52.454491 149 81 98
15.813600 12.968659 52.734001 148 78 95
16.041544 13.270911 53.494129 147 76 92
16.246454 13.557218 54.177448 147 75 90
16.216862 13.649099 54.078766 145 72 87
16.187376 13.740646 53.980442 143 68 82
16.128725 13.806804 53.784859 141 63 78
16.128725 13.922746 53.784859 139 59 74
16.099560 14.013301 53.687599 137 56 71
16.099560 14.129033 53.687599 135 53 69
16.099560 14.244766 53.687599 134 51 67
16.070499 14.334577 53.590691 132 50 67
16.041544 14.424064 53.494129 132 51 68
16.012691 14.513229 53.397919 131 53 70
15.955298 14.575906 53.206528 129 55 71
15.926756 14.664321 53.111347 127 56 71
15.926756 14.778811 53.111347 127 58 73
15.926756 14.893301 53.111347 131 65 79
15.898315 14.980992 53.016502 139 75 90
15.841738 15.041557 52.827831 146 83 99
15.813600 15.128518 52.734001 149 88 104
15.757623 15.188240 52.547333 153 92 109
15.757623 15.301514 52.547333 157 98 115
15.702040 15.360415 52.361980 157 100 117
15.619397 15.391851 52.086391 156 100 117
15.619397 15.504132 52.086391 157 102 119
15.729782 15.726776 52.454491 158 105 122
15.729782 15.839850 52.454491 159 106 125
15.564784 15.785586 51.904270 159 106 125
15.510551 15.842083 51.723419 160 106 126
15.456696 15.898187 51.543823 161 105 127
15.429908 15.981552 51.454491 162 105 128
15.429908 16.092470 51.454491 164 104 128
15.403213 16.175356 51.365471 166 105 129
15.429908 16.314308 51.454491 168 105 129
15.429908 16.425226 51.454491 170 106 130
15.456696 16.564854 51.543823 171 107 132
15.456696 16.675964 51.543823 171 107 132
15.456696 16.787075 51.543823 169 106 131
15.456696 16.898186 51.543823 168 106 131
15.456696 17.009298 51.543823 168 106 131
15.456696 17.120409 51.543823 166 106 131
15.456696 17.231520 51.543823 161 102 127
15.456696 17.342630 51.543823 156 100 123
15.456696 17.453743 51.543823 155 101 123
15.483577 17.595402 51.633465 154 102 123
15.483577 17.706705 51.633465 151 103 122
15.483577 17.818010 51.633465 149 105 123
15.456696 17.898186 51.543823 148 109 125
15.456696 18.009298 51.543823 148 112 129
15.429908 18.089005 51.454491 145 112 131
15.429908 18.199923 51.454491 136 105 125
15.429908 18.310841 51.454491 133 101 123
15.403213 18.389889 51.365471 150 118 140
15.403213 18.500614 51.365471 186 157 176
15.649314 -0.549118 51.813686 112 26 40
15.567806 -0.435147 51.543823 119 28 43
15.487144 -0.322357 51.276756 126 30 45
15.460443 -0.211456 51.188347 132 30 47
15.433832 -0.100937 51.100246 137 31 49
15.407313 0.009202 51.012444 142 32 51
