ply
format ascii 1.0
element vertex 1197
property float x
property float y
property float z
property uchar red
property uchar green
property uchar blue
end_header
7.370905 15.888657 77.517601 198 100 119
7.370905 16.055758 77.517601 202 104 122
7.351710 16.180613 77.315735 203 105 123
7.351710 16.347281 77.315735 202 104 122
7.351710 16.513947 77.315735 202 104 122
7.313618 16.594185 76.915138 202 104 122
7.313618 16.759989 76.915138 202 104 123
7.351710 17.013947 77.315735 202 103 123
7.370905 17.225471 77.517601 202 102 123
7.370905 17.392572 77.517601 202 101 122
7.351710 17.513947 77.315735 201 100 121
7.351710 17.680613 77.315735 200 98 119
7.332614 17.800922 77.114914 199 95 117
7.351710 18.013947 77.315735 197 92 114
7.429096 18.371988 78.129585 195 89 111
7.468404 18.638506 78.542969 194 86 109
7.468404 18.807819 78.542969 193 83 107
7.468404 18.977131 78.542969 192 81 104
7.468404 19.146442 78.542969 190 80 101
7.468404 19.315756 78.542969 189 80 99
7.508130 19.588711 78.960747 188 79 98
7.568516 19.917843 79.595825 187 79 97
7.588862 20.143429 79.809792 187 78 96
7.588862 20.315472 79.809792 186 78 96
7.548280 20.377956 79.383003 186 78 96
7.508130 20.439775 78.960747 186 79 97
7.488214 20.555319 78.751305 186 78 98
7.468404 20.670252 78.542969 185 78 99
7.468404 20.839565 78.542969 182 77 99
7.468404 21.008877 78.542969 175 70 94
7.468404 21.178188 78.542969 172 68 91
7.409597 21.179411 77.924522 185 81 103
7.409597 21.347389 77.924522 209 107 127
7.409597 21.515369 77.924522 229 129 148
7.409597 21.683348 77.924522 223 123 141
7.409597 21.851326 77.924522 193 92 110
7.429096 22.077251 78.129585 167 67 84
7.409597 22.187284 77.924522 165 67 84
7.409597 22.355263 77.924522 173 76 93
7.409597 22.523243 77.924522 173 78 95
7.409597 22.691221 77.924522 173 78 95
7.429096 22.919357 78.129585 174 79 95
7.609317 23.647858 80.024910 174 79 95
7.629883 23.884745 80.241196 173 80 95
7.629883 24.057718 80.241196 172 81 94
7.588862 24.100418 79.809792 170 81 94
7.508130 24.014244 78.960747 167 81 93
7.448698 23.993023 78.335732 163 78 90
7.429096 24.098305 78.129585 153 70 83
7.429096 24.266726 78.129585 143 62 74
7.429096 24.435146 78.129585 134 54 67
7.845263 0.188466 80.677292 154 70 90
7.824002 0.361397 80.458649 152 66 86
7.802856 0.533393 80.241196 150 61 81
7.781824 0.704462 80.024910 147 57 76
7.760905 0.874611 79.809792 144 54 73
7.760905 1.046654 79.809792 145 53 72
7.740098 1.215430 79.595825 147 55 74
7.740098 1.387012 79.595825 154 63 81
7.719403 1.554426 79.383003 163 74 92
7.698818 1.720948 79.171310 168 81 100
7.637716 1.876602 78.542969 170 85 104
7.637716 2.045914 78.542969 171 89 108
7.617564 2.209381 78.335732 172 94 112
7.577577 2.365762 77.924522 175 99 118
7.518377 2.513947 77.315735 178 105 124
7.518377 2.680613 77.315735 182 111 129
7.518377 2.847280 77.315735 185 117 134
7.518377 3.013947 77.315735 189 123 138
7.479421 3.164133 76.915138 193 128 142
7.479421 3.329937 76.915138 196 133 146
7.479421 3.495739 76.915138 198 137 150
7.518377 3.680613 77.315735 202 141 154
7.518377 3.847280 77.315735 206 145 160
7.518377 4.013947 77.315735 211 150 166
7.518377 4.180613 77.315735 216 155 172
7.518377 4.347280 77.315735 211 150 169
7.518377 4.513947 77.315735 200 138 157
7.518377 4.680613 77.315735 202 140 158
7.518377 4.847280 77.315735 221 159 176
7.518377 5.013947 77.315735 235 172 189
7.518377 5.180613 77.315735 235 170 187
7.518377 5.347280 77.315735 229 163 177
7.538007 5.528343 77.517601 226 158 173
7.538007 5.695445 77.517601 223 155 169
7.538007 5.862547 77.517601 217 149 164
7.538007 6.029649 77.517601 215 144 163
7.538007 6.196751 77.517601 216 145 164
7.538007 6.363853 77.517601 217 145 166
7.538007 6.530954 77.517601 216 143 165
7.538007 6.698056 77.517601 214 140 163
7.538007 6.865158 77.517601 212 137 161
7.518377 7.013947 77.315735 210 136 161
7.518377 7.180613 77.315735 208 132 159
7.518377 7.347280 77.315735 206 128 156
7.518377 7.513947 77.315735 207 130 156
7.518377 7.680613 77.315735 210 132 158
7.518377 7.847280 77.315735 209 131 155
7.518377 8.013947 77.315735 205 126 148
7.518377 8.180614 77.315735 205 125 145
7.518377 8.347280 77.315735 205 124 143
7.518377 8.513947 77.315735 207 125 143
7.518377 8.680614 77.315735 214 131 151
7.518377 8.847280 77.315735 223 138 159
7.518377 9.013947 77.315735 223 135 157
7.518377 9.180614 77.315735 217 129 151
7.518377 9.347280 77.315735 216 127 148
7.518377 9.513947 77.315735 220 132 151
7.518377 9.680614 77.315735 223 137 152
7.518377 9.847280 77.315735 220 137 149
7.518377 10.013947 77.315735 215 134 144
7.518377 10.180614 77.315735 214 136 143
7.518377 10.347280 77.315735 215 139 146
7.518377 10.513947 77.315735 215 142 147
7.498848 10.652871 77.114914 214 144 149
7.498848 10.819105 77.114914 215 148 154
7.498848 10.985339 77.114914 216 151 158
7.518377 11.180614 77.315735 216 153 161
7.518377 11.347280 77.315735 221 158 169
7.518377 11.513947 77.315735 231 170 183
7.518377 11.680614 77.315735 237 177 191
7.498848 11.816507 77.114914 232 171 186
7.498848 11.982741 77.114914 220 160 175
7.498848 12.148975 77.114914 212 153 168
7.518377 12.347280 77.315735 217 161 174
7.518377 12.513947 77.315735 229 174 187
7.498848 12.647676 77.114914 234 179 191
7.498848 12.813910 77.114914 232 177 189
7.479421 12.946517 76.915138 230 175 188
7.479421 13.112320 76.915138 230 173 186
7.479421 13.278123 76.915138 231 171 185
7.479421 13.443926 76.915138 234 172 187
7.479421 13.609729 76.915138 241 177 193
7.479421 13.775533 76.915138 246 178 197
7.479421 13.941336 76.915138 244 171 193
7.479421 14.107139 76.915138 242 162 189
7.498848 14.310014 77.114914 241 156 188
7.518377 14.513947 77.315735 235 145 181
7.518377 14.680614 77.315735 230 135 174
7.538007 14.886045 77.517601 230 130 169
7.538007 15.053147 77.517601 219 117 154
7.538007 15.220249 77.517601 204 102 136
7.538007 15.387351 77.517601 200 98 127
7.538007 15.554453 77.517601 196 95 120
7.538007 15.721555 77.517601 193 94 115
7.538007 15.888657 77.517601 199 101 120
7.518377 16.013947 77.315735 205 107 124
7.518377 16.180613 77.315735 206 107 125
7.518377 16.347281 77.315735 204 106 124
7.498848 16.471054 77.114914 203 105 123
7.479421 16.594185 76.915138 203 104 122
7.479421 16.759989 76.915138 202 103 123
7.518377 17.013947 77.315735 202 102 123
7.518377 17.180613 77.315735 202 101 123
7.518377 17.347281 77.315735 201 101 121
7.518377 17.513947 77.315735 201 100 121
7.479421 17.589005 76.915138 200 98 119
7.440867 17.663288 76.518669 199 96 117
7.440867 17.828236 76.518669 199 93 115
7.597517 18.371988 78.129585 197 91 113
7.617564 18.589329 78.335732 196 88 110
7.637716 18.807819 78.542969 195 85 107
7.637716 18.977131 78.542969 194 83 105
7.637716 19.146442 78.542969 192 82 102
7.678342 19.418499 78.960747 190 82 100
7.740098 19.746262 79.595825 189 81 98
7.781824 20.025217 80.024910 187 80 96
7.781824 20.197723 80.024910 186 80 94
7.760905 20.315472 79.809792 185 80 94
7.698818 20.323614 79.171310 186 80 95
7.657975 20.385559 78.751305 186 81 96
7.657975 20.555319 78.751305 187 81 98
7.637716 20.670252 78.542969 188 82 100
7.637716 20.839565 78.542969 187 81 100
7.637716 21.008877 78.542969 181 75 95
7.637716 21.178188 78.542969 175 69 88
7.577577 21.179411 77.924522 182 77 94
7.577577 21.347389 77.924522 202 99 113
7.577577 21.515369 77.924522 221 119 132
7.577577 21.683348 77.924522 218 117 130
7.577577 21.851326 77.924522 192 92 105
7.597517 22.077251 78.129585 168 69 84
7.597517 22.245672 78.129585 166 68 84
7.597517 22.414093 78.129585 173 76 94
7.597517 22.582514 78.129585 173 78 96
7.597517 22.750935 78.129585 173 78 97
7.597517 22.919357 78.129585 174 79 97
7.781824 23.647858 80.024910 173 79 96
7.802856 23.884745 80.241196 172 80 95
7.802856 24.057718 80.241196 170 80 94
7.760905 24.100418 79.809792 168 80 93
7.637716 23.887184 78.542969 165 79 92
7.597517 23.929882 78.129585 160 77 89
7.577577 24.035053 77.924522 152 70 82
7.577577 24.203033 77.924522 142 61 73
7.577577 24.371012 77.924522 132 53 65
7.997444 0.187955 80.458649 154 71 90
7.975829 0.360420 80.241196 152 67 86
7.975829 0.533393 80.241196 149 62 81
7.932948 0.702568 79.809792 146 57 77
7.932948 0.874611 79.809792 144 54 73
7.932948 1.046654 79.809792 144 53 71
7.911680 1.215430 79.595825 147 55 73
7.890526 1.383303 79.383003 153 60 78
7.869484 1.550281 79.171310 160 68 86
7.848555 1.716371 78.960747 165 76 94
7.807028 1.876602 78.542969 167 81 99
7.807028 2.045914 78.542969 168 86 105
7.807028 2.215226 78.542969 170 91 110
7.765939 2.371988 78.129585 173 97 117
7.705109 2.520510 77.517601 176 103 123
7.685043 2.680613 77.315735 179 109 128
7.685043 2.847280 77.315735 182 115 132
7.685043 3.013947 77.315735 187 122 138
7.645225 3.164133 76.915138 192 129 145
7.645225 3.329937 76.915138 196 135 149
7.645225 3.495739 76.915138 198 139 153
7.665082 3.671053 77.114914 201 143 157
7.665082 3.837287 77.114914 206 148 162
7.665082 4.003520 77.114914 211 152 168
7.685043 4.180613 77.315735 215 155 172
7.685043 4.347280 77.315735 210 151 169
7.685043 4.513947 77.315735 199 139 157
7.685043 4.680613 77.315735 199 138 156
7.685043 4.847280 77.315735 216 155 172
7.685043 5.013947 77.315735 232 170 186
7.685043 5.180613 77.315735 236 172 187
7.685043 5.347280 77.315735 233 168 182
7.705109 5.528343 77.517601 230 163 177
7.705109 5.695445 77.517601 225 157 172
7.705109 5.862547 77.517601 219 150 166
7.705109 6.029649 77.517601 216 145 163
7.705109 6.196751 77.517601 215 143 163
7.705109 6.363853 77.517601 214 142 162
7.705109 6.530954 77.517601 212 140 161
7.705109 6.698056 77.517601 212 139 162
7.705109 6.865158 77.517601 215 142 165
7.685043 7.013947 77.315735 216 143 169
7.685043 7.180613 77.315735 212 137 164
7.685043 7.347280 77.315735 209 134 162
7.685043 7.513947 77.315735 216 143 171
7.685043 7.680613 77.315735 226 154 181
7.685043 7.847280 77.315735 222 147 173
7.685043 8.013947 77.315735 210 130 154
7.685043 8.180614 77.315735 206 124 146
7.685043 8.347280 77.315735 207 125 145
7.685043 8.513947 77.315735 208 125 145
7.685043 8.680614 77.315735 214 128 150
7.685043 8.847280 77.315735 219 132 155
7.685043 9.013947 77.315735 219 129 152
7.685043 9.180614 77.315735 215 125 148
7.685043 9.347280 77.315735 214 125 146
7.685043 9.513947 77.315735 216 128 147
7.685043 9.680614 77.315735 219 132 149
7.685043 9.847280 77.315735 218 135 149
7.685043 10.013947 77.315735 215 135 146
7.685043 10.180614 77.315735 215 138 148
7.685043 10.347280 77.315735 216 142 151
7.685043 10.513947 77.315735 215 144 151
7.665082 10.652871 77.114914 211 144 151
7.665082 10.819105 77.114914 211 146 153
7.665082 10.985339 77.114914 213 150 158
7.685043 11.180614 77.315735 215 154 164
7.685043 11.347280 77.315735 224 164 176
7.685043 11.513947 77.315735 237 179 192
7.685043 11.680614 77.315735 242 184 198
7.665082 11.816507 77.114914 236 178 192
7.665082 11.982741 77.114914 224 167 180
7.665082 12.148975 77.114914 217 161 173
7.665082 12.315209 77.114914 220 166 177
7.665082 12.481442 77.114914 230 177 187
7.645225 12.614910 76.915138 235 182 192
7.645225 12.780714 76.915138 237 183 193
7.645225 12.946517 76.915138 236 181 192
7.645225 13.112320 76.915138 234 177 190
7.645225 13.278123 76.915138 233 174 187
7.625469 13.409187 76.716385 235 173 187
7.625469 13.574562 76.716385 241 176 191
7.625469 13.739937 76.716385 246 177 196
7.625469 13.905312 76.716385 246 172 195
7.645225 14.107139 76.915138 242 162 190
7.645225 14.272942 76.915138 238 152 185
7.665082 14.476248 77.114914 232 140 178
7.685043 14.680614 77.315735 227 131 171
7.685043 14.847280 77.315735 224 123 164
7.705109 15.053147 77.517601 214 112 150
7.685043 15.180614 77.315735 203 101 135
7.685043 15.347280 77.315735 198 96 125
7.685043 15.513947 77.315735 194 94 118
7.685043 15.680614 77.315735 193 95 115
7.685043 15.847280 77.315735 200 102 120
7.685043 16.013947 77.315735 206 108 125
7.685043 16.180613 77.315735 208 109 127
7.665082 16.304819 77.114914 206 107 125
7.645225 16.428383 76.915138 205 105 124
7.625469 16.551306 76.716385 204 103 123
7.625469 16.716681 76.716385 203 102 123
7.645225 16.925791 76.915138 202 101 123
7.685043 17.180613 77.315735 201 100 122
7.665082 17.302221 77.114914 200 99 121
7.665082 17.468456 77.114914 200 99 120
7.625469 17.543554 76.716385 200 98 119
7.566812 17.572706 76.126259 199 96 117
7.566812 17.736809 76.126259 199 94 115
7.705109 18.228083 77.517601 197 91 113
7.765939 18.540409 78.129585 196 89 110
7.765939 18.708830 78.129585 196 87 107
7.807028 18.977131 78.542969 194 85 104
7.807028 19.146442 78.542969 192 84 102
7.848555 19.418499 78.960747 190 83 99
7.911680 19.746262 79.595825 189 83 97
7.954330 20.025217 80.024910 186 82 95
7.954330 20.197723 80.024910 185 82 94
7.932948 20.315472 79.809792 184 81 93
7.869484 20.323614 79.171310 185 81 94
7.827736 20.385559 78.751305 185 82 96
7.827736 20.555319 78.751305 187 83 98
7.807028 20.670252 78.542969 188 84 100
7.807028 20.839565 78.542969 189 85 101
7.786429 20.953445 78.335732 186 80 97
7.786429 21.122311 78.335732 179 74 89
7.745555 21.179411 77.924522 181 76 89
7.745555 21.347389 77.924522 195 92 103
7.745555 21.515369 77.924522 212 109 119
7.745555 21.683348 77.924522 211 110 119
7.745555 21.851326 77.924522 191 91 102
7.765939 22.077251 78.129585 171 73 87
7.765939 22.245672 78.129585 168 71 87
7.765939 22.414093 78.129585 174 76 95
7.765939 22.582514 78.129585 174 78 98
7.765939 22.750935 78.129585 174 78 99
7.765939 22.919357 78.129585 174 79 99
7.932948 23.584290 79.809792 173 79 98
7.975829 23.884745 80.241196 171 79 96
7.954330 23.992872 80.024910 169 78 94
7.911680 24.035805 79.595825 166 78 92
7.786429 23.824158 78.335732 161 77 89
7.745555 23.867075 77.924522 156 74 86
7.725279 23.972136 77.720528 149 68 80
7.725279 24.139673 77.720528 140 60 72
7.725279 24.307213 77.720528 131 52 63
8.170885 0.187955 80.458649 155 73 90
8.148802 0.360420 80.241196 154 70 87
8.126838 0.531955 80.024910 149 63 82
8.104991 0.702568 79.809792 145 57 76
8.104991 0.874611 79.809792 143 53 72
8.083261 1.043848 79.595825 143 51 69
8.083261 1.215430 79.595825 146 52 70
8.040151 1.379615 79.171310 151 56 74
8.018767 1.546158 78.960747 156 63 81
7.976340 1.707290 78.542969 160 70 88
7.976340 1.876602 78.542969 163 75 95
7.976340 2.045914 78.542969 165 81 101
7.976340 2.215226 78.542969 168 88 108
7.934360 2.371988 78.129585 171 95 115
7.872211 2.520510 77.517601 174 101 121
7.872211 2.687612 77.517601 178 107 127
7.851710 2.847280 77.315735 181 113 132
7.851710 3.013947 77.315735 186 120 138
7.811028 3.164133 76.915138 192 129 145
7.811028 3.329937 76.915138 197 135 151
7.811028 3.495739 76.915138 198 139 154
7.831316 3.671053 77.114914 201 143 158
7.831316 3.837287 77.114914 206 148 163
7.831316 4.003520 77.114914 211 154 170
7.831316 4.169755 77.114914 215 157 173
7.831316 4.335988 77.114914 209 151 168
7.851710 4.513947 77.315735 196 138 155
7.851710 4.680613 77.315735 196 136 152
7.851710 4.847280 77.315735 212 152 167
7.851710 5.013947 77.315735 227 166 180
7.851710 5.180613 77.315735 234 170 183
7.851710 5.347280 77.315735 238 173 187
7.872211 5.528343 77.517601 238 171 185
7.872211 5.695445 77.517601 230 162 177
7.872211 5.862547 77.517601 221 152 168
7.851710 6.013947 77.315735 214 144 162
7.872211 6.196751 77.517601 212 141 160
7.872211 6.363853 77.517601 212 142 161
7.872211 6.530954 77.517601 214 144 164
7.851710 6.680613 77.315735 219 150 172
7.851710 6.847280 77.315735 228 157 180
7.851710 7.013947 77.315735 229 158 182
7.851710 7.180613 77.315735 220 148 174
7.851710 7.347280 77.315735 220 149 176
7.851710 7.513947 77.315735 234 168 195
7.851710 7.680613 77.315735 244 180 208
7.851710 7.847280 77.315735 235 163 190
7.851710 8.013947 77.315735 215 135 159
7.851710 8.180614 77.315735 205 123 146
7.851710 8.347280 77.315735 208 124 146
7.851710 8.513947 77.315735 211 126 148
7.851710 8.680614 77.315735 214 128 150
7.851710 8.847280 77.315735 216 129 152
7.851710 9.013947 77.315735 217 127 151
7.851710 9.180614 77.315735 216 126 150
7.851710 9.347280 77.315735 214 125 147
7.851710 9.513947 77.315735 215 127 147
7.851710 9.680614 77.315735 216 130 148
7.851710 9.847280 77.315735 216 133 148
7.851710 10.013947 77.315735 216 136 148
7.851710 10.180614 77.315735 217 142 152
7.851710 10.347280 77.315735 220 148 158
7.851710 10.513947 77.315735 218 149 158
7.851710 10.680614 77.315735 211 145 154
7.851710 10.847280 77.315735 208 145 154
7.851710 11.013947 77.315735 210 149 159
7.851710 11.180614 77.315735 217 157 168
7.851710 11.347280 77.315735 230 171 184
7.851710 11.513947 77.315735 241 184 198
7.851710 11.680614 77.315735 241 184 199
7.831316 11.816507 77.114914 234 178 191
7.831316 11.982741 77.114914 227 171 184
7.831316 12.148975 77.114914 224 169 180
7.831316 12.315209 77.114914 224 172 180
7.831316 12.481442 77.114914 227 176 184
7.811028 12.614910 76.915138 232 180 189
7.811028 12.780714 76.915138 237 184 194
7.811028 12.946517 76.915138 240 186 197
7.811028 13.112320 76.915138 239 183 195
7.811028 13.278123 76.915138 237 179 192
7.790844 13.409187 76.716385 238 177 191
7.790844 13.574562 76.716385 240 177 193
7.790844 13.739937 76.716385 243 176 195
7.790844 13.905312 76.716385 244 170 193
7.790844 14.070686 76.716385 240 160 188
7.811028 14.272942 76.915138 233 147 179
7.831316 14.476248 77.114914 224 132 169
7.851710 14.680614 77.315735 218 122 161
7.851710 14.847280 77.315735 215 115 154
7.851710 15.013947 77.315735 210 109 146
7.851710 15.180614 77.315735 204 102 135
7.851710 15.347280 77.315735 199 98 127
7.851710 15.513947 77.315735 195 95 119
7.851710 15.680614 77.315735 195 96 117
7.851710 15.847280 77.315735 201 104 121
7.851710 16.013947 77.315735 206 110 126
7.831316 16.138586 77.114914 209 111 129
7.831316 16.304819 77.114914 208 109 127
7.811028 16.428383 76.915138 207 106 125
7.770764 16.508648 76.518669 205 103 124
7.770764 16.673597 76.518669 203 102 123
7.811028 16.925791 76.915138 202 100 123
7.811028 17.091595 76.915138 200 98 121
7.811028 17.257397 76.915138 198 97 119
7.811028 17.423201 76.915138 198 97 118
7.770764 17.498339 76.518669 199 97 117
7.652428 17.394302 75.353409 199 96 116
7.652428 17.556740 75.353409 198 94 114
7.750788 17.946930 76.321960 197 92 111
7.851710 18.347281 77.315735 196 90 108
7.872211 18.562286 77.517601 195 88 106
7.872211 18.729387 77.517601 193 87 103
7.892818 18.945957 77.720528 191 86 101
7.976340 19.315756 78.542969 190 85 98
8.040151 19.640947 79.171310 188 85 96
8.104991 19.971386 79.809792 186 84 95
8.104991 20.143429 79.809792 184 83 94
8.083261 20.261007 79.595825 183 82 94
8.040151 20.323614 79.171310 183 82 95
7.997498 20.385559 78.751305 184 83 97
7.997498 20.555319 78.751305 186 84 99
7.997498 20.725080 78.751305 188 86 102
7.955295 20.784578 78.335732 191 88 104
7.955295 20.953445 78.335732 190 86 103
7.955295 21.122311 78.335732 184 80 95
7.913535 21.179411 77.924522 181 78 91
7.913535 21.347389 77.924522 190 88 99
7.892818 21.459045 77.720528 201 99 109
7.913535 21.683348 77.924522 201 99 110
7.913535 21.851326 77.924522 189 89 101
7.913535 22.019306 77.924522 177 78 92
7.913535 22.187284 77.924522 173 74 92
7.934360 22.414093 78.129585 174 77 95
7.934360 22.582514 78.129585 174 77 98
7.934360 22.750935 78.129585 174 78 99
7.934360 22.919357 78.129585 174 78 99
8.018767 23.333393 78.960747 172 78 97
8.126838 23.820366 80.024910 170 77 96
8.126838 23.992872 80.024910 167 77 93
8.061648 23.971539 79.383003 163 75 90
7.934360 23.761461 78.129585 158 73 86
7.892818 23.804596 77.720528 152 70 82
7.872211 23.909544 77.517601 145 65 76
7.872211 24.076647 77.517601 138 59 70
7.851710 24.180613 77.315735 130 52 63
7.851710 24.347281 77.315735 123 46 57
8.321774 0.187447 80.241196 155 74 88
8.299344 0.359449 80.024910 155 71 86
8.277034 0.530525 79.809792 149 63 80
8.254844 0.700685 79.595825 145 57 74
8.254844 0.872267 79.595825 143 52 70
8.232772 1.041057 79.383003 142 49 67
8.232772 1.212180 79.383003 143 48 66
8.188980 1.375945 78.960747 147 51 69
8.145653 1.537977 78.542969 152 57 75
8.145653 1.707290 78.542969 157 64 82
8.145653 1.876602 78.542969 161 71 91
8.145653 2.045914 78.542969 165 79 99
8.124160 2.209381 78.335732 168 86 106
8.102780 2.371988 78.129585 171 93 114
8.060358 2.527109 77.720528 174 100 121
8.039312 2.687612 77.517601 179 106 127
8.039312 2.854714 77.517601 182 112 133
8.018376 3.013947 77.315735 186 118 138
7.956219 3.155957 76.716385 190 125 143
7.956219 3.321332 76.716385 194 131 148
7.956219 3.486707 76.716385 197 136 153
7.976830 3.661543 76.915138 199 139 155
7.997550 3.837287 77.114914 203 144 159
7.997550 4.003520 77.114914 211 152 168
7.997550 4.169755 77.114914 216 157 173
7.997550 4.335988 77.114914 210 151 167
8.018376 4.513947 77.315735 197 138 154
8.018376 4.680613 77.315735 195 136 150
8.018376 4.847280 77.315735 208 148 162
8.018376 5.013947 77.315735 220 159 172
8.018376 5.180613 77.315735 227 166 178
8.018376 5.347280 77.315735 238 175 187
8.018376 5.513947 77.315735 242 178 191
8.018376 5.680613 77.315735 233 167 181
8.018376 5.847280 77.315735 219 153 168
8.018376 6.013947 77.315735 210 143 159
8.018376 6.180613 77.315735 207 140 157
8.018376 6.347280 77.315735 211 144 162
8.018376 6.513947 77.315735 222 154 173
8.018376 6.680613 77.315735 233 166 186
8.018376 6.847280 77.315735 240 172 193
8.018376 7.013947 77.315735 237 167 190
8.018376 7.180613 77.315735 227 155 181
8.018376 7.347280 77.315735 229 158 185
8.018376 7.513947 77.315735 241 176 202
8.018376 7.680613 77.315735 247 182 209
8.018376 7.847280 77.315735 236 163 189
8.018376 8.013947 77.315735 214 133 157
8.018376 8.180614 77.315735 202 120 143
8.018376 8.347280 77.315735 206 122 145
8.018376 8.513947 77.315735 211 125 149
8.018376 8.680614 77.315735 214 127 150
8.018376 8.847280 77.315735 215 127 151
8.018376 9.013947 77.315735 218 129 153
8.018376 9.180614 77.315735 219 129 153
8.018376 9.347280 77.315735 215 127 149
8.018376 9.513947 77.315735 214 127 147
8.018376 9.680614 77.315735 213 129 147
8.018376 9.847280 77.315735 214 133 148
8.039312 10.040092 77.517601 215 137 150
8.039312 10.207194 77.517601 217 143 154
8.039312 10.374296 77.517601 219 149 158
8.018376 10.513947 77.315735 217 149 158
8.018376 10.680614 77.315735 210 146 155
8.018376 10.847280 77.315735 207 145 155
8.018376 11.013947 77.315735 208 148 160
8.018376 11.180614 77.315735 219 159 173
8.018376 11.347280 77.315735 235 175 190
8.018376 11.513947 77.315735 242 183 199
7.997550 11.650274 77.114914 235 178 193
7.997550 11.816507 77.114914 227 170 184
7.997550 11.982741 77.114914 225 170 182
7.997550 12.148975 77.114914 226 172 182
7.997550 12.315209 77.114914 224 173 181
7.997550 12.481442 77.114914 223 173 181
7.976830 12.614910 76.915138 224 174 182
7.976830 12.780714 76.915138 229 178 186
7.976830 12.946517 76.915138 235 183 193
7.976830 13.112320 76.915138 238 184 195
7.976830 13.278123 76.915138 238 181 194
7.956219 13.409187 76.716385 239 179 194
7.956219 13.574562 76.716385 241 180 197
7.956219 13.739937 76.716385 243 179 198
7.956219 13.905312 76.716385 240 169 191
7.976830 14.107139 76.915138 232 153 179
7.976830 14.272942 76.915138 222 137 167
7.997550 14.476248 77.114914 212 120 153
7.997550 14.642482 77.114914 206 109 144
8.018376 14.847280 77.315735 206 106 142
8.018376 15.013947 77.315735 206 106 139
8.018376 15.180614 77.315735 203 103 133
7.997550 15.307417 77.114914 200 100 127
7.997550 15.473651 77.114914 196 96 120
8.018376 15.680614 77.315735 194 96 116
8.018376 15.847280 77.315735 201 104 122
7.997550 15.972352 77.114914 209 113 129
7.997550 16.138586 77.114914 210 113 130
7.976830 16.262579 76.915138 209 110 128
7.976830 16.428383 76.915138 207 107 126
7.915313 16.466209 76.321960 205 104 124
7.915313 16.630733 76.321960 203 102 123
7.956219 16.882055 76.716385 202 101 123
7.976830 17.091595 76.915138 200 98 120
7.976830 17.257397 76.915138 197 96 117
7.935713 17.333391 76.518669 196 95 115
7.915313 17.453356 76.321960 198 96 115
7.814865 17.394302 75.353409 198 96 114
7.795080 17.512293 75.162636 198 95 112
7.814865 17.719177 75.353409 196 93 110
7.956219 18.205053 76.716385 195 90 106
7.997550 18.465858 77.114914 194 89 104
8.018376 18.680613 77.315735 192 88 101
8.039312 18.896490 77.517601 190 87 99
8.060358 19.113497 77.720528 189 87 98
8.145653 19.485067 78.542969 188 86 96
8.210817 19.811615 79.171310 186 85 95
8.232772 20.035709 79.383003 184 85 95
8.232772 20.206833 79.383003 183 84 95
8.210817 20.323614 79.171310 183 84 97
8.188980 20.439775 78.960747 183 85 99
8.167259 20.555319 78.751305 185 86 102
8.167259 20.725080 78.751305 188 88 105
8.124160 20.784578 78.335732 192 91 108
8.124160 20.953445 78.335732 195 93 109
8.124160 21.122311 78.335732 190 88 103
8.081513 21.179411 77.924522 184 82 96
8.081513 21.347389 77.924522 186 85 98
8.060358 21.459045 77.720528 193 92 104
8.081513 21.683348 77.924522 193 92 104
8.081513 21.851326 77.924522 186 87 99
8.081513 22.019306 77.924522 179 80 94
8.081513 22.187284 77.924522 176 77 94
8.102780 22.414093 78.129585 175 77 95
8.102780 22.582514 78.129585 175 78 97
8.102780 22.750935 78.129585 175 78 98
8.102780 22.919357 78.129585 174 78 97
8.145653 23.209934 78.542969 172 78 96
8.299344 23.820366 80.024910 169 77 94
8.299344 23.992872 80.024910 164 75 90
8.232772 23.971539 79.383003 159 73 86
8.102780 23.761461 78.129585 153 69 81
8.039312 23.742443 77.517601 147 66 77
8.018376 23.847281 77.315735 141 63 73
8.018376 24.013947 77.315735 136 58 69
8.018376 24.180613 77.315735 129 52 63
8.018376 24.347281 77.315735 123 45 57
8.471850 0.186942 80.024910 152 71 83
8.449077 0.358482 79.809792 153 69 82
8.426425 0.529103 79.595825 149 64 78
8.403894 0.698811 79.383003 146 58 73
8.403894 0.869934 79.383003 143 52 68
8.403894 1.041057 79.383003 142 48 65
8.381484 1.208948 79.171310 142 46 64
8.314964 1.368665 78.542969 144 48 66
8.314964 1.537977 78.542969 150 54 71
8.293025 1.702785 78.335732 155 61 78
8.293025 1.871650 78.335732 160 69 87
8.293025 2.040516 78.335732 164 77 96
8.293025 2.209381 78.335732 167 84 104
8.271202 2.371988 78.129585 170 90 112
8.227897 2.527109 77.720528 174 98 120
8.206414 2.687612 77.517601 179 105 128
8.206414 2.854714 77.517601 183 111 133
8.206414 3.021816 77.517601 185 116 136
8.121593 3.155957 76.716385 189 122 140
8.121593 3.321332 76.716385 193 128 145
8.121593 3.486707 76.716385 197 134 150
8.142633 3.661543 76.915138 200 137 154
8.163783 3.837287 77.114914 201 140 156
8.163783 4.003520 77.114914 207 146 162
8.163783 4.169755 77.114914 213 153 169
8.185043 4.347280 77.315735 210 150 166
8.185043 4.513947 77.315735 200 141 156
8.185043 4.680613 77.315735 196 137 151
8.185043 4.847280 77.315735 204 144 158
8.185043 5.013947 77.315735 213 153 165
8.185043 5.180613 77.315735 222 160 172
8.185043 5.347280 77.315735 233 171 183
8.185043 5.513947 77.315735 239 176 188
8.185043 5.680613 77.315735 231 167 180
8.185043 5.847280 77.315735 219 154 169
8.185043 6.013947 77.315735 211 146 162
8.185043 6.180613 77.315735 209 144 161
8.185043 6.347280 77.315735 216 150 167
8.185043 6.513947 77.315735 229 163 182
8.185043 6.680613 77.315735 240 174 193
8.185043 6.847280 77.315735 244 176 197
8.185043 7.013947 77.315735 241 171 194
8.185043 7.180613 77.315735 234 162 187
8.185043 7.347280 77.315735 231 158 183
8.185043 7.513947 77.315735 234 163 188
8.185043 7.680613 77.315735 237 165 190
8.185043 7.847280 77.315735 229 151 176
8.185043 8.013947 77.315735 210 129 153
8.185043 8.180614 77.315735 201 118 142
8.185043 8.347280 77.315735 205 121 145
8.185043 8.513947 77.315735 211 126 150
8.185043 8.680614 77.315735 214 128 152
8.185043 8.847280 77.315735 215 128 152
8.185043 9.013947 77.315735 216 129 153
8.185043 9.180614 77.315735 217 130 153
8.185043 9.347280 77.315735 215 129 150
8.185043 9.513947 77.315735 212 129 148
8.185043 9.680614 77.315735 212 131 148
8.206414 9.872991 77.517601 213 133 149
8.227897 10.066376 77.720528 213 137 151
8.227897 10.233914 77.720528 214 141 153
8.206414 10.374296 77.517601 213 144 153
8.185043 10.513947 77.315735 210 144 153
8.185043 10.680614 77.315735 208 144 153
8.185043 10.847280 77.315735 207 145 156
8.185043 11.013947 77.315735 209 149 162
8.185043 11.180614 77.315735 221 162 177
8.185043 11.347280 77.315735 237 177 194
8.185043 11.513947 77.315735 240 181 198
8.163783 11.650274 77.114914 230 172 187
8.163783 11.816507 77.114914 221 164 178
8.163783 11.982741 77.114914 221 166 178
8.163783 12.148975 77.114914 222 170 180
8.163783 12.315209 77.114914 221 171 179
8.163783 12.481442 77.114914 219 170 178
8.142633 12.614910 76.915138 219 170 179
8.142633 12.780714 76.915138 222 172 182
8.142633 12.946517 76.915138 226 176 187
8.142633 13.112320 76.915138 230 178 190
8.142633 13.278123 76.915138 231 177 191
8.142633 13.443926 76.915138 233 177 193
8.142633 13.609729 76.915138 238 182 199
8.121593 13.739937 76.716385 242 182 202
8.121593 13.905312 76.716385 237 168 190
8.142633 14.107139 76.915138 227 149 174
8.142633 14.272942 76.915138 217 133 161
8.163783 14.476248 77.114914 207 116 147
8.163783 14.642482 77.114914 201 105 137
8.185043 14.847280 77.315735 202 104 136
8.185043 15.013947 77.315735 204 104 134
8.163783 15.141183 77.114914 202 103 131
8.163783 15.307417 77.114914 200 101 127
8.163783 15.473651 77.114914 195 97 119
8.163783 15.639884 77.114914 193 96 116
8.163783 15.806118 77.114914 201 106 123
8.163783 15.972352 77.114914 211 115 132
8.163783 16.138586 77.114914 213 116 134
8.142633 16.262579 76.915138 210 112 130
8.142633 16.428383 76.915138 207 108 127
8.079837 16.466209 76.321960 205 104 124
8.079837 16.630733 76.321960 203 102 123
8.121593 16.882055 76.716385 202 101 122
8.121593 17.047430 76.716385 200 99 120
8.121593 17.212805 76.716385 198 97 116
8.100661 17.333391 76.518669 197 96 114
8.079837 17.453356 76.321960 197 96 113
7.977301 17.394302 75.353409 197 96 112
7.937012 17.468069 74.972832 197 95 111
7.937012 17.629686 74.972832 195 93 108
8.100661 18.158133 76.518669 193 90 105
8.121593 18.370428 76.716385 192 89 102
8.163783 18.632092 77.114914 190 88 100
8.185043 18.847281 77.315735 189 88 98
8.227897 19.113497 77.720528 188 87 97
8.314964 19.485067 78.542969 187 87 96
8.359193 19.758924 78.960747 185 87 96
8.381484 19.982281 79.171310 184 86 95
8.403894 20.206833 79.383003 183 86 96
8.381484 20.323614 79.171310 183 86 98
8.381484 20.494282 79.171310 184 87 101
8.359193 20.609987 78.960747 185 89 105
8.359193 20.780201 78.960747 188 91 108
8.314964 20.839565 78.542969 193 95 112
8.293025 20.953445 78.335732 197 98 116
8.293025 21.122311 78.335732 193 93 110
8.271202 21.235146 78.129585 184 84 101
8.249493 21.347389 77.924522 184 83 99
8.249493 21.515369 77.924522 190 90 105
8.249493 21.683348 77.924522 192 92 107
8.249493 21.851326 77.924522 184 85 100
8.249493 22.019306 77.924522 176 77 92
8.271202 22.245672 78.129585 174 75 91
8.271202 22.414093 78.129585 176 78 94
8.271202 22.582514 78.129585 177 78 96
8.271202 22.750935 78.129585 176 78 96
8.293025 22.979830 78.335732 175 78 95
8.314964 23.209934 78.542969 173 78 94
8.471850 23.820366 80.024910 170 78 92
8.471850 23.992872 80.024910 164 75 88
8.403894 23.971539 79.383003 156 70 82
8.271202 23.761461 78.129585 149 66 76
8.185043 23.680613 77.315735 143 63 73
8.185043 23.847281 77.315735 139 60 70
8.185043 24.013947 77.315735 133 55 66
8.185043 24.180613 77.315735 128 50 61
8.185043 24.347281 77.315735 122 45 56
8.644358 0.186942 80.024910 150 68 78
8.621120 0.358482 79.809792 151 67 78
8.598007 0.529103 79.595825 149 64 76
8.575018 0.698811 79.383003 145 57 71
8.575018 0.869934 79.383003 141 51 65
8.575018 1.041057 79.383003 140 47 63
8.552151 1.208948 79.171310 141 46 62
8.484277 1.368665 78.542969 144 48 64
8.461891 1.533919 78.335732 149 52 69
8.461891 1.702785 78.335732 154 59 76
8.461891 1.871650 78.335732 159 66 85
8.484277 2.045914 78.542969 163 73 92
8.484277 2.215226 78.542969 163 78 99
8.439623 2.371988 78.129585 166 85 107
8.417472 2.533741 77.924522 174 96 118
8.395436 2.694648 77.720528 180 105 127
8.373516 2.854714 77.517601 183 110 131
8.351710 3.013947 77.315735 185 114 134
8.286968 3.155957 76.716385 188 119 138
8.286968 3.321332 76.716385 193 125 144
8.286968 3.486707 76.716385 198 131 149
8.308437 3.661543 76.915138 200 135 153
8.330017 3.837287 77.114914 201 137 155
8.330017 4.003520 77.114914 204 140 158
8.351710 4.180613 77.315735 207 144 162
8.351710 4.347280 77.315735 207 144 161
8.351710 4.513947 77.315735 202 141 157
8.351710 4.680613 77.315735 200 139 154
8.351710 4.847280 77.315735 205 143 156
8.351710 5.013947 77.315735 210 149 161
8.351710 5.180613 77.315735 217 156 167
8.351710 5.347280 77.315735 226 165 176
8.351710 5.513947 77.315735 230 169 180
8.351710 5.680613 77.315735 226 164 175
8.351710 5.847280 77.315735 220 158 170
8.351710 6.013947 77.315735 216 155 168
8.351710 6.180613 77.315735 216 154 169
8.351710 6.347280 77.315735 222 159 174
8.351710 6.513947 77.315735 230 166 182
8.351710 6.680613 77.315735 234 169 187
8.351710 6.847280 77.315735 238 169 191
8.373516 7.032260 77.517601 243 172 195
8.373516 7.199361 77.517601 238 166 190
8.351710 7.347280 77.315735 227 153 176
8.351710 7.513947 77.315735 225 149 173
8.351710 7.680613 77.315735 230 153 176
8.351710 7.847280 77.315735 224 145 168
8.351710 8.013947 77.315735 209 128 150
8.351710 8.180614 77.315735 202 119 142
8.351710 8.347280 77.315735 206 122 145
8.351710 8.513947 77.315735 213 128 152
8.351710 8.680614 77.315735 216 132 155
8.351710 8.847280 77.315735 214 130 153
8.351710 9.013947 77.315735 211 127 150
8.373516 9.204583 77.517601 211 128 149
8.373516 9.371685 77.517601 211 129 148
8.351710 9.513947 77.315735 211 131 148
8.373516 9.705889 77.517601 212 133 149
8.395436 9.898836 77.720528 212 135 150
8.395436 10.066376 77.720528 212 137 150
8.395436 10.233914 77.720528 211 138 151
8.395436 10.401454 77.720528 209 140 151
8.351710 10.513947 77.315735 207 140 151
8.351710 10.680614 77.315735 206 143 154
8.351710 10.847280 77.315735 208 146 158
8.351710 11.013947 77.315735 212 152 166
8.351710 11.180614 77.315735 223 163 180
8.351710 11.347280 77.315735 238 177 196
8.330017 11.484040 77.114914 240 180 199
8.330017 11.650274 77.114914 230 171 188
8.330017 11.816507 77.114914 220 163 178
8.330017 11.982741 77.114914 218 163 176
8.330017 12.148975 77.114914 219 166 178
8.330017 12.315209 77.114914 217 167 177
8.330017 12.481442 77.114914 216 167 178
8.308437 12.614910 76.915138 219 171 182
8.308437 12.780714 76.915138 222 173 186
8.308437 12.946517 76.915138 222 173 187
8.308437 13.112320 76.915138 222 171 187
8.308437 13.278123 76.915138 225 172 189
8.308437 13.443926 76.915138 230 175 194
8.308437 13.609729 76.915138 236 179 201
8.286968 13.739937 76.716385 237 176 200
8.286968 13.905312 76.716385 232 164 189
8.308437 14.107139 76.915138 228 154 181
8.308437 14.272942 76.915138 228 147 176
8.330017 14.476248 77.114914 221 130 161
8.330017 14.642482 77.114914 211 114 145
8.351710 14.847280 77.315735 207 108 139
8.351710 15.013947 77.315735 205 105 134
8.330017 15.141183 77.114914 202 103 129
8.330017 15.307417 77.114914 201 102 126
8.330017 15.473651 77.114914 197 99 121
8.330017 15.639884 77.114914 194 98 118
8.330017 15.806118 77.114914 201 107 124
8.330017 15.972352 77.114914 211 117 133
8.330017 16.138586 77.114914 215 120 137
8.308437 16.262579 76.915138 212 116 133
8.308437 16.428383 76.915138 209 111 129
8.244362 16.466209 76.321960 205 106 126
8.244362 16.630733 76.321960 203 103 123
8.265610 16.838545 76.518669 201 101 121
8.286968 17.047430 76.716385 199 100 119
8.286968 17.212805 76.716385 198 98 116
8.265610 17.333391 76.518669 197 96 113
8.244362 17.453356 76.321960 197 96 112
8.139738 17.394302 75.353409 196 95 110
8.098628 17.468069 74.972832 195 94 109
8.098628 17.629686 74.972832 193 92 107
8.265610 18.158133 76.518669 192 90 104
8.286968 18.370428 76.716385 191 89 102
8.330017 18.632092 77.114914 190 88 100
8.351710 18.847281 77.315735 188 87 98
8.395436 19.113497 77.720528 187 88 97
8.484277 19.485067 78.542969 186 88 96
8.506782 19.706512 78.751305 185 88 96
8.552151 19.982281 79.171310 184 87 95
8.575018 20.206833 79.383003 182 87 96
8.575018 20.377956 79.383003 183 87 99
8.552151 20.494282 79.171310 184 89 103
8.552151 20.664948 79.171310 187 91 107
8.529406 20.780201 78.960747 190 94 111
8.484277 20.839565 78.542969 194 98 117
8.461891 20.953445 78.335732 199 101 120
8.461891 21.122311 78.335732 195 96 115
8.439623 21.235146 78.129585 185 86 105
8.417472 21.347389 77.924522 183 84 102
8.417472 21.515369 77.924522 189 90 108
8.417472 21.683348 77.924522 192 93 111
8.417472 21.851326 77.924522 185 87 104
8.439623 22.077251 78.129585 176 77 94
8.439623 22.245672 78.129585 174 75 92
8.439623 22.414093 78.129585 176 78 94
8.439623 22.582514 78.129585 177 78 95
8.461891 22.810965 78.335732 177 78 93
8.461891 22.979830 78.335732 174 77 91
8.484277 23.209934 78.542969 172 77 90
8.644358 23.820366 80.024910 169 77 89
8.644358 23.992872 80.024910 163 74 85
8.598007 24.035805 79.595825 154 68 78
8.461891 23.824158 78.335732 145 63 72
8.351710 23.680613 77.315735 140 60 69
8.351710 23.847281 77.315735 136 56 67
8.351710 24.013947 77.315735 130 52 63
8.351710 24.180613 77.315735 126 48 59
8.351710 24.347281 77.315735 123 45 56
8.816864 0.186942 80.024910 149 65 76
8.793163 0.358482 79.809792 149 64 74
8.793163 0.530525 79.809792 147 62 72
8.769588 0.700685 79.595825 143 56 67
8.769588 0.872267 79.595825 139 49 62
8.746140 1.041057 79.383003 137 45 59
8.746140 1.212180 79.383003 139 45 60
8.653589 1.368665 78.542969 143 47 62
8.653589 1.537977 78.542969 147 51 66
8.630756 1.702785 78.335732 152 57 73
8.653589 1.876602 78.542969 158 64 81
8.653589 2.045914 78.542969 160 69 88
8.653589 2.215226 78.542969 159 73 93
8.608044 2.371988 78.129585 163 81 102
8.585450 2.533741 77.924522 172 94 115
8.562976 2.694648 77.720528 180 104 125
8.540618 2.854714 77.517601 184 110 130
8.518376 3.013947 77.315735 186 115 134
8.474240 3.164133 76.915138 188 119 137
8.474240 3.329937 76.915138 192 123 141
8.474240 3.495739 76.915138 196 128 146
8.474240 3.661543 76.915138 199 132 150
8.496251 3.837287 77.114914 202 135 153
8.518376 4.013947 77.315735 203 137 156
8.518376 4.180613 77.315735 203 137 156
8.518376 4.347280 77.315735 202 137 156
8.518376 4.513947 77.315735 201 137 155
8.518376 4.680613 77.315735 203 139 155
8.518376 4.847280 77.315735 206 143 157
8.518376 5.013947 77.315735 209 147 160
8.518376 5.180613 77.315735 213 152 163
8.518376 5.347280 77.315735 218 157 167
8.518376 5.513947 77.315735 219 159 168
8.518376 5.680613 77.315735 219 159 168
8.518376 5.847280 77.315735 219 159 170
8.518376 6.013947 77.315735 221 161 172
8.518376 6.180613 77.315735 224 163 176
8.518376 6.347280 77.315735 229 167 181
8.518376 6.513947 77.315735 229 165 180
8.518376 6.680613 77.315735 222 156 173
8.518376 6.847280 77.315735 225 156 175
8.540618 7.032260 77.517601 237 165 185
8.540618 7.199361 77.517601 235 160 182
8.518376 7.347280 77.315735 221 145 167
8.518376 7.513947 77.315735 220 142 164
8.540618 7.700667 77.517601 227 148 169
8.540618 7.867769 77.517601 222 142 164
8.540618 8.034871 77.517601 208 127 149
8.540618 8.201973 77.517601 202 119 142
8.540618 8.369074 77.517601 206 122 145
8.540618 8.536176 77.517601 212 129 151
8.518376 8.680614 77.315735 215 132 155
8.518376 8.847280 77.315735 212 130 152
8.540618 9.037481 77.517601 209 127 148
8.540618 9.204583 77.517601 207 126 146
8.540618 9.371685 77.517601 207 127 145
8.540618 9.538787 77.517601 210 131 148
8.562976 9.731297 77.720528 212 134 151
8.562976 9.898836 77.720528 212 135 151
8.562976 10.066376 77.720528 210 136 151
8.562976 10.233914 77.720528 209 137 150
8.562976 10.401454 77.720528 207 138 150
8.540618 10.541398 77.517601 206 140 152
8.518376 10.680614 77.315735 207 144 155
8.518376 10.847280 77.315735 210 148 160
8.518376 11.013947 77.315735 214 154 168
8.518376 11.180614 77.315735 224 164 181
8.518376 11.347280 77.315735 238 177 195
8.518376 11.513947 77.315735 242 182 200
8.496251 11.650274 77.114914 233 173 191
8.496251 11.816507 77.114914 220 162 178
8.496251 11.982741 77.114914 215 158 173
8.496251 12.148975 77.114914 215 161 175
8.496251 12.315209 77.114914 214 162 175
8.496251 12.481442 77.114914 213 163 177
8.474240 12.614910 76.915138 218 168 183
8.474240 12.780714 76.915138 223 173 189
8.496251 12.980145 77.114914 224 173 191
8.496251 13.146378 77.114914 225 173 192
8.474240 13.278123 76.915138 227 173 195
8.474240 13.443926 76.915138 230 174 197
8.474240 13.609729 76.915138 232 174 199
8.452343 13.739937 76.716385 230 167 194
8.452343 13.905312 76.716385 226 158 187
8.474240 14.107139 76.915138 233 163 193
8.474240 14.272942 76.915138 240 167 198
8.496251 14.476248 77.114914 232 145 177
8.496251 14.642482 77.114914 217 119 152
8.496251 14.808716 77.114914 210 110 142
8.496251 14.974949 77.114914 204 103 134
8.496251 15.141183 77.114914 201 102 128
8.474240 15.267760 76.915138 200 102 126
8.474240 15.433563 76.915138 198 100 122
8.496251 15.639884 77.114914 196 101 119
8.496251 15.806118 77.114914 201 108 124
8.496251 15.972352 77.114914 210 118 133
8.496251 16.138586 77.114914 215 122 137
8.474240 16.262579 76.915138 214 119 135
8.474240 16.428383 76.915138 210 114 131
8.408886 16.466209 76.321960 206 109 127
8.408886 16.630733 76.321960 203 105 123
8.430558 16.838545 76.518669 200 101 120
8.452343 17.047430 76.716385 198 99 117
8.518376 17.347281 77.315735 197 97 115
8.452343 17.378180 76.716385 197 96 113
8.430558 17.498339 76.518669 196 95 111
8.302175 17.394302 75.353409 194 93 109
8.302175 17.556740 75.353409 193 92 108
8.302175 17.719177 75.353409 191 90 107
8.430558 18.158133 76.518669 191 89 105
8.474240 18.418020 76.915138 190 88 103
8.496251 18.632092 77.114914 189 88 101
8.540618 18.896490 77.517601 188 87 100
8.630756 19.264790 78.335732 187 88 99
8.653589 19.485067 78.542969 186 88 97
8.676543 19.706512 78.751305 185 88 96
8.722817 19.982281 79.171310 184 88 95
8.746140 20.206833 79.383003 183 88 96
8.746140 20.377956 79.383003 183 89 98
8.722817 20.494282 79.171310 185 91 103
8.722817 20.664948 79.171310 188 94 108
8.722817 20.835615 79.171310 191 97 113
8.676543 20.894842 78.751305 195 101 118
8.653589 21.008877 78.542969 198 103 122
8.630756 21.122311 78.335732 195 99 119
8.608044 21.235146 78.129585 185 88 108
8.585450 21.347389 77.924522 181 84 104
8.585450 21.515369 77.924522 188 89 109
8.585450 21.683348 77.924522 193 94 113
8.585450 21.851326 77.924522 188 90 107
8.585450 22.019306 77.924522 179 81 98
8.608044 22.245672 78.129585 176 77 93
8.608044 22.414093 78.129585 177 78 93
8.608044 22.582514 78.129585 177 78 93
8.630756 22.810965 78.335732 177 78 91
8.630756 22.979830 78.335732 174 77 89
8.653589 23.209934 78.542969 171 76 87
8.816864 23.820366 80.024910 167 75 85
8.816864 23.992872 80.024910 160 71 81
8.769588 24.035805 79.595825 151 66 75
8.630756 23.824158 78.335732 142 61 69
8.518376 23.680613 77.315735 137 57 66
8.518376 23.847281 77.315735 132 54 64
8.518376 24.013947 77.315735 128 50 60
8.518376 24.180613 77.315735 125 46 57
8.518376 24.347281 77.315735 123 44 56
9.013666 0.187447 80.241196 147 63 73
8.989371 0.359449 80.024910 146 62 71
8.965206 0.530525 79.809792 143 59 68
8.941171 0.700685 79.595825 141 55 65
8.941171 0.872267 79.595825 138 49 61
8.941171 1.043848 79.595825 136 46 58
8.917264 1.212180 79.383003 139 45 60
8.846304 1.372296 78.751305 142 46 61
8.822901 1.537977 78.542969 145 49 65
8.822901 1.707290 78.542969 150 55 71
8.822901 1.876602 78.542969 155 62 79
8.822901 2.045914 78.542969 158 67 85
8.822901 2.215226 78.542969 159 73 91
8.799622 2.378247 78.335732 164 82 101
8.776464 2.540409 78.129585 171 93 113
8.753429 2.701720 77.924522 178 103 123
8.707720 2.854714 77.517601 183 110 130
8.685043 3.013947 77.315735 186 114 133
8.640043 3.164133 76.915138 189 119 137
8.640043 3.329937 76.915138 193 124 141
8.640043 3.495739 76.915138 196 126 144
8.662485 3.671053 77.114914 198 129 148
8.662485 3.837287 77.114914 202 134 153
8.685043 4.013947 77.315735 204 136 156
8.685043 4.180613 77.315735 203 135 156
8.685043 4.347280 77.315735 202 135 156
8.685043 4.513947 77.315735 202 136 155
8.685043 4.680613 77.315735 202 138 155
8.685043 4.847280 77.315735 204 141 156
8.685043 5.013947 77.315735 208 146 158
8.685043 5.180613 77.315735 211 150 161
8.685043 5.347280 77.315735 211 152 161
8.685043 5.513947 77.315735 212 153 161
8.685043 5.680613 77.315735 214 155 164
8.662485 5.832092 77.114914 220 161 170
8.662485 5.998326 77.114914 225 165 175
8.662485 6.164560 77.114914 230 168 179
8.685043 6.347280 77.315735 234 171 183
8.685043 6.513947 77.315735 228 163 177
8.685043 6.680613 77.315735 217 149 165
8.685043 6.847280 77.315735 217 147 165
8.707720 7.032260 77.517601 227 155 173
8.707720 7.199361 77.517601 226 151 170
8.685043 7.347280 77.315735 217 140 159
8.685043 7.513947 77.315735 217 138 157
8.707720 7.700667 77.517601 224 145 163
8.707720 7.867769 77.517601 221 141 160
8.707720 8.034871 77.517601 208 128 148
8.707720 8.201973 77.517601 201 120 141
8.707720 8.369074 77.517601 203 122 143
8.707720 8.536176 77.517601 209 127 148
8.685043 8.680614 77.315735 211 130 151
8.685043 8.847280 77.315735 211 130 152
8.707720 9.037481 77.517601 209 129 149
8.707720 9.204583 77.517601 207 128 147
8.707720 9.371685 77.517601 208 128 146
8.685043 9.513947 77.315735 209 131 147
8.707720 9.705889 77.517601 211 134 150
8.730515 9.898836 77.720528 211 135 151
8.753429 10.092796 77.924522 208 135 150
8.753429 10.260776 77.924522 206 134 149
8.753429 10.428755 77.924522 205 136 150
8.730515 10.568994 77.720528 205 139 152
8.707720 10.708500 77.517601 207 143 156
8.707720 10.875602 77.517601 209 147 161
8.685043 11.013947 77.315735 215 153 169
8.685043 11.180614 77.315735 224 163 180
8.685043 11.347280 77.315735 234 174 192
8.685043 11.513947 77.315735 240 179 197
8.685043 11.680614 77.315735 233 173 191
8.662485 11.816507 77.114914 221 161 178
8.662485 11.982741 77.114914 213 155 171
8.662485 12.148975 77.114914 213 156 171
8.662485 12.315209 77.114914 212 157 172
8.662485 12.481442 77.114914 210 157 174
8.640043 12.614910 76.915138 213 160 178
8.640043 12.780714 76.915138 218 165 184
8.662485 12.980145 77.114914 224 170 191
8.662485 13.146378 77.114914 229 175 197
8.662485 13.312612 77.114914 230 175 198
8.640043 13.443926 76.915138 224 167 193
8.640043 13.609729 76.915138 221 161 190
8.640043 13.775533 76.915138 221 156 187
8.640043 13.941336 76.915138 224 156 187
8.640043 14.107139 76.915138 238 174 205
8.640043 14.272942 76.915138 247 183 212
8.640043 14.438745 76.915138 234 150 183
8.662485 14.642482 77.114914 215 116 150
8.662485 14.808716 77.114914 207 105 139
8.662485 14.974949 77.114914 203 100 131
8.662485 15.141183 77.114914 200 99 127
8.640043 15.267760 76.915138 199 100 124
8.640043 15.433563 76.915138 196 99 119
8.662485 15.639884 77.114914 195 100 117
8.662485 15.806118 77.114914 200 107 122
8.662485 15.972352 77.114914 209 119 132
8.662485 16.138586 77.114914 216 124 137
8.640043 16.262579 76.915138 215 122 136
8.640043 16.428383 76.915138 212 118 133
8.617718 16.551306 76.716385 207 111 128
8.595507 16.673597 76.518669 202 104 122
8.640043 16.925791 76.915138 198 99 117
8.685043 17.180613 77.315735 196 97 115
8.685043 17.347281 77.315735 197 96 114
8.685043 17.513947 77.315735 195 94 112
8.662485 17.634689 77.114914 194 92 110
8.617718 17.708929 76.716385 193 91 109
8.464611 17.556740 75.353409 192 90 109
8.595507 17.993185 76.518669 190 89 108
8.640043 18.252216 76.915138 190 88 107
8.640043 18.418020 76.915138 189 88 106
8.662485 18.632092 77.114914 188 87 104
8.707720 18.896490 77.517601 187 87 102
8.776464 19.214094 78.129585 186 88 101
8.822901 19.485067 78.542969 185 89 99
8.846304 19.706512 78.751305 184 89 98
8.869831 19.929136 78.960747 184 90 98
8.893484 20.152948 79.171310 184 91 98
8.893484 20.323614 79.171310 185 92 100
8.893484 20.494282 79.171310 187 94 104
8.893484 20.664948 79.171310 191 98 109
8.893484 20.835615 79.171310 195 102 115
8.846304 20.894842 78.751305 197 104 120
8.822901 21.008877 78.542969 198 105 123
8.799622 21.122311 78.335732 195 100 120
8.776464 21.235146 78.129585 186 90 111
