ply
format ascii 1.0
element vertex 1190
property float x
property float y
property float z
property uchar red
property uchar green
property uchar blue
end_header
12.528964 16.855528 74.409126 83 57 68
12.592082 17.101650 74.783989 83 57 66
12.752695 19.442234 75.737862 74 57 64
12.818094 19.706039 76.126259 74 57 65
12.851046 19.921223 76.321960 74 57 64
12.818094 20.034245 76.126259 75 56 64
12.687961 19.993288 75.353409 76 56 63
12.752695 20.258560 75.737862 76 56 63
12.818094 20.526552 76.126259 76 56 63
12.818094 20.690655 76.126259 76 55 62
12.785311 20.801420 75.931564 76 55 61
12.655840 20.752798 75.162636 75 54 60
12.623880 20.862009 74.972832 75 53 59
12.592082 20.970669 74.783989 74 53 58
12.497642 20.973389 74.223106 74 52 58
12.163155 20.567776 72.236603 73 53 58
12.104254 20.623137 71.886787 72 53 58
12.163155 20.879210 72.236603 71 52 58
12.435464 21.505859 73.853836 70 52 58
12.435464 21.665064 73.853836 69 52 57
12.192822 21.398428 72.412788 68 52 56
12.192822 21.554525 72.412788 67 52 55
12.497642 22.253389 74.223106 66 52 55
12.560444 22.526018 74.596085 65 51 54
12.560444 22.686823 74.596085 65 52 54
12.528964 22.790365 74.409126 64 51 54
12.528964 22.950766 74.409126 64 51 54
12.528964 23.111166 74.409126 62 51 54
12.528964 23.271568 74.409126 60 49 52
12.563416 -3.321699 73.670578 211 180 193
12.563416 -3.162890 73.670578 207 176 188
12.626077 -3.019064 74.038010 208 179 190
12.626077 -2.859463 74.038010 213 185 194
12.626077 -2.699862 74.038010 218 190 198
12.594668 -2.533942 73.853836 220 192 199
12.626077 -2.380660 74.038010 224 196 202
12.626077 -2.221059 74.038010 229 200 205
12.626077 -2.061458 74.038010 233 201 208
12.626077 -1.901857 74.038010 238 206 215
12.626077 -1.742256 74.038010 244 212 222
12.626077 -1.582655 74.038010 234 204 215
12.626077 -1.423054 74.038010 213 184 196
12.626077 -1.263453 74.038010 204 176 188
12.594668 -1.101106 73.853836 206 179 191
12.594668 -0.941902 73.853836 218 191 204
12.594668 -0.782698 73.853836 232 208 221
12.594668 -0.623494 73.853836 232 210 222
12.563416 -0.463138 73.670578 221 199 208
12.563416 -0.304329 73.670578 215 194 201
12.563416 -0.145520 73.670578 217 197 202
12.563416 0.013289 73.670578 219 199 202
12.594668 0.172526 73.853836 221 202 204
12.594668 0.331730 73.853836 224 206 207
12.594668 0.490934 73.853836 222 205 205
12.626077 0.651759 74.038010 214 196 198
12.626077 0.811360 74.038010 208 190 192
12.626077 0.970961 74.038010 206 188 190
12.626077 1.130562 74.038010 205 187 190
12.626077 1.290163 74.038010 202 184 187
12.594668 1.446158 73.853836 199 181 184
12.594668 1.605362 73.853836 200 181 186
12.532318 1.755830 73.488220 206 187 192
12.501374 1.909520 73.306770 213 194 198
12.501374 2.067544 73.306770 215 196 199
12.501374 2.225569 73.306770 215 196 199
12.501374 2.383594 73.306770 219 201 202
12.439942 2.529129 72.946541 227 209 208
12.439942 2.686377 72.946541 232 215 212
12.439942 2.843625 72.946541 226 212 206
12.470583 3.008265 73.126213 217 203 197
12.501374 3.173717 73.306770 207 193 188
12.501374 3.331742 73.306770 208 193 190
12.532318 3.498405 73.488220 224 209 210
12.563416 3.665895 73.670578 227 213 217
12.563416 3.824703 73.670578 209 195 201
12.594668 3.993422 73.853836 194 180 188
12.594668 4.152626 73.853836 187 175 184
12.626077 4.322582 74.038010 187 176 185
12.657641 4.493389 74.223106 200 190 199
12.657641 4.653389 74.223106 220 211 218
12.657641 4.813389 74.223106 230 220 227
12.689365 4.985853 74.409126 221 209 216
12.689365 5.146255 74.409126 204 191 197
12.721248 5.319989 74.596085 191 178 182
12.721248 5.480793 74.596085 183 169 174
12.753291 5.655807 74.783989 179 164 169
12.721248 5.802401 74.596085 178 161 168
12.721248 5.963205 74.596085 179 162 170
12.721248 6.124009 74.596085 181 163 171
12.785497 6.316554 74.972832 182 163 171
12.785497 6.478170 74.972832 181 160 169
12.785497 6.639787 74.972832 173 152 161
12.753291 6.784271 74.783989 161 140 149
12.689365 6.910666 74.409126 155 135 143
12.689365 7.071066 74.409126 153 133 142
12.689365 7.231467 74.409126 148 127 137
12.721248 7.410441 74.596085 141 118 130
12.785497 7.609484 74.972832 136 112 125
12.817865 7.790773 75.162636 134 108 123
12.817865 7.952799 75.162636 132 106 121
12.753291 8.073943 74.783989 131 105 118
12.753291 8.235152 74.783989 128 101 114
12.785497 8.417564 74.972832 125 98 109
12.817865 8.600900 75.162636 125 98 107
12.850397 8.785166 75.353409 125 97 105
12.817865 8.924951 75.162636 123 95 104
12.753291 9.041198 74.783989 120 91 101
12.753291 9.202407 74.783989 115 87 99
12.721248 9.340089 74.596085 111 83 97
12.721248 9.500894 74.596085 108 79 96
12.753291 9.686034 74.783989 105 76 96
12.753291 9.847243 74.783989 104 74 96
12.753291 10.008452 74.783989 104 73 96
12.721248 10.144109 74.596085 105 71 94
12.689365 10.279086 74.409126 103 70 90
12.721248 10.465717 74.596085 102 70 87
12.753291 10.653288 74.783989 102 71 86
12.753291 10.814497 74.783989 101 72 84
12.785497 11.003423 74.972832 101 72 83
12.785497 11.165039 74.972832 101 73 83
12.785497 11.326655 74.972832 102 73 84
12.785497 11.488272 74.972832 102 73 85
12.753291 11.620543 74.783989 102 72 86
12.753291 11.781752 74.783989 103 71 87
12.785497 11.973120 74.972832 102 70 86
12.785497 12.134736 74.972832 101 70 85
12.785497 12.296352 74.972832 100 69 84
12.785497 12.457969 74.972832 98 69 84
12.785497 12.619584 74.972832 97 69 84
12.785497 12.781200 74.972832 97 70 86
12.785497 12.942817 74.972832 97 71 87
12.785497 13.104433 74.972832 100 73 90
12.785497 13.266049 74.972832 102 74 91
12.785497 13.427666 74.972832 103 73 90
12.785497 13.589281 74.972832 102 72 88
12.817865 13.785710 75.162636 101 70 85
12.817865 13.947736 75.162636 100 69 83
12.817865 14.109760 75.162636 97 68 80
12.850397 14.308009 75.353409 94 66 77
12.850397 14.470446 75.353409 92 65 75
12.817865 14.595837 75.162636 90 65 74
12.817865 14.757862 75.162636 89 65 73
13.116727 15.267760 76.915138 87 65 72
13.185043 15.513947 77.315735 86 65 71
13.219469 15.721555 77.517601 86 65 70
13.185043 15.847280 77.315735 85 65 70
13.116727 15.930973 76.915138 84 65 71
13.082833 16.055182 76.716385 84 65 72
13.015570 16.137161 76.321960 84 64 72
12.883096 16.135765 75.545143 82 61 71
12.817865 16.216089 75.162636 81 60 71
12.817865 16.378115 75.162636 81 61 72
12.785497 16.498373 74.972832 82 60 70
12.753291 16.618023 74.783989 81 58 69
12.689365 16.695126 74.409126 81 58 68
12.689365 16.855528 74.409126 83 58 68
12.753291 17.101650 74.783989 84 58 68
12.785497 17.306454 74.972832 85 58 67
13.185043 18.680613 77.315735 77 59 62
13.150797 18.798326 77.114914 76 59 63
13.150797 18.964560 77.114914 75 60 63
12.948994 19.328276 75.931564 75 59 65
12.948994 19.491959 75.931564 75 58 65
13.049115 19.807617 76.518669 76 58 64
13.049115 19.972565 76.518669 76 57 64
12.915961 19.932030 75.737862 77 57 64
12.817865 19.942673 75.162636 77 57 63
12.850397 20.155725 75.353409 76 57 63
12.948994 20.474054 75.931564 76 56 63
12.982197 20.690655 76.126259 76 56 62
12.948994 20.801420 75.931564 76 55 61
12.785497 20.700392 74.972832 75 55 60
12.753291 20.809460 74.783989 75 54 59
12.657641 20.813389 74.223106 74 54 59
12.501374 20.714458 73.306770 73 53 59
12.259217 20.468174 71.886787 73 54 59
12.229606 20.573322 71.713142 72 54 59
12.229606 20.727911 71.713142 71 53 58
12.348919 21.086233 72.412788 71 53 58
12.348919 21.242331 72.412788 70 53 58
12.348919 21.398428 72.412788 69 53 57
12.348919 21.554525 72.412788 67 53 56
12.594668 22.142675 73.853836 66 52 55
12.626077 22.357494 74.038010 65 51 55
12.657641 22.573389 74.223106 64 52 54
12.657641 22.733389 74.223106 63 52 55
12.657641 22.893389 74.223106 63 52 55
12.657641 23.053389 74.223106 62 51 55
12.657641 23.213388 74.223106 59 49 52
12.722225 -3.321699 73.670578 208 177 189
12.722225 -3.162890 73.670578 204 175 186
12.753872 -3.011554 73.853836 207 180 190
12.753872 -2.852350 73.853836 215 188 197
12.753872 -2.693146 73.853836 218 191 198
12.785677 -2.540261 74.038010 216 189 195
12.785677 -2.380660 74.038010 219 192 196
12.785677 -2.221059 74.038010 227 198 202
12.785677 -2.061458 74.038010 234 204 209
12.785677 -1.901857 74.038010 241 210 216
12.785677 -1.742256 74.038010 246 216 224
12.785677 -1.582655 74.038010 238 210 219
12.785677 -1.423054 74.038010 219 190 201
12.785677 -1.263453 74.038010 204 176 188
12.753872 -1.101106 73.853836 203 176 188
12.753872 -0.941902 73.853836 215 189 202
12.753872 -0.782698 73.853836 232 208 221
12.753872 -0.623494 73.853836 236 213 225
12.753872 -0.464290 73.853836 226 203 213
12.753872 -0.305086 73.853836 219 194 203
12.722225 -0.145520 73.670578 218 195 200
12.722225 0.013289 73.670578 219 197 201
12.753872 0.172526 73.853836 220 199 201
12.753872 0.331730 73.853836 219 200 201
12.753872 0.490934 73.853836 215 197 197
12.785677 0.651759 74.038010 209 191 192
12.785677 0.811360 74.038010 204 187 189
12.785677 0.970961 74.038010 203 186 189
12.785677 1.130562 74.038010 202 186 190
12.753872 1.286954 73.853836 202 186 190
12.753872 1.446158 73.853836 200 184 188
12.690734 1.597414 73.488220 202 185 190
12.659399 1.751495 73.306770 211 194 199
12.628219 1.904816 73.126213 219 201 205
12.597191 2.057384 72.946541 218 199 203
12.597191 2.214633 72.946541 217 198 202
12.597191 2.371881 72.946541 223 205 207
12.597191 2.529129 72.946541 232 214 214
12.597191 2.686377 72.946541 230 213 211
12.597191 2.843625 72.946541 218 202 199
12.628219 3.008265 73.126213 209 194 191
12.628219 3.165900 73.126213 207 192 189
12.690734 3.339989 73.488220 213 198 196
12.722225 3.507086 73.670578 226 210 212
12.722225 3.665895 73.670578 223 208 211
12.753872 3.834218 73.853836 204 189 195
12.753872 3.993422 73.853836 191 177 185
12.785677 4.162981 74.038010 189 177 186
12.817641 4.333389 74.223106 198 187 196
12.817641 4.493389 74.223106 215 206 214
12.817641 4.653389 74.223106 227 217 225
12.817641 4.813389 74.223106 221 211 218
12.849766 4.985853 74.409126 205 195 200
12.849766 5.146255 74.409126 190 179 183
12.849766 5.306655 74.409126 181 168 171
12.882051 5.480793 74.596085 176 162 165
12.914500 5.655807 74.783989 177 161 165
12.882051 5.802401 74.596085 184 166 171
12.882051 5.963205 74.596085 190 172 178
12.882051 6.124009 74.596085 191 172 180
12.947113 6.316554 74.972832 190 171 179
12.947113 6.478170 74.972832 187 167 175
12.947113 6.639787 74.972832 173 153 162
12.914500 6.784271 74.783989 157 138 146
12.849766 6.910666 74.409126 152 134 141
12.849766 7.071066 74.409126 154 135 143
12.882051 7.249637 74.596085 149 130 139
12.914500 7.429107 74.783989 141 120 131
12.979890 7.628748 75.162636 136 113 125
12.979890 7.790773 75.162636 135 110 123
12.979890 7.952799 75.162636 133 107 120
12.914500 8.073943 74.783989 130 104 116
12.914500 8.235152 74.783989 129 102 113
12.882051 8.375265 74.596085 127 100 110
12.947113 8.579181 74.972832 126 99 107
12.947113 8.740797 74.972832 125 97 105
12.914500 8.879989 74.783989 122 94 103
12.882051 9.018481 74.596085 118 90 100
12.882051 9.179285 74.596085 114 86 98
12.849766 9.316680 74.409126 110 82 96
12.882051 9.500894 74.596085 106 78 94
12.882051 9.661697 74.596085 104 75 94
12.914500 9.847243 74.783989 103 72 94
12.914500 10.008452 74.783989 104 71 93
12.882051 10.144109 74.596085 104 70 92
12.882051 10.304914 74.596085 104 70 90
12.882051 10.465717 74.596085 103 71 88
12.914500 10.653288 74.783989 103 72 86
12.979890 10.869254 75.162636 102 73 85
12.979890 11.031280 75.162636 102 74 84
13.012835 11.221714 75.353409 102 74 83
13.012835 11.384151 75.353409 102 74 84
12.979890 11.517356 75.162636 103 74 85
12.979890 11.679381 75.162636 102 73 86
12.979890 11.841406 75.162636 102 72 86
12.979890 12.003431 75.162636 102 71 86
12.979890 12.165457 75.162636 101 70 85
12.979890 12.327482 75.162636 99 69 84
12.947113 12.457969 74.972832 98 69 84
12.947113 12.619584 74.972832 97 68 85
12.979890 12.813559 75.162636 96 70 89
12.979890 12.975583 75.162636 98 72 91
12.947113 13.104433 74.972832 102 75 95
12.947113 13.266049 74.972832 105 78 98
12.947113 13.427666 74.972832 104 76 95
12.947113 13.589281 74.972832 102 72 91
12.979890 13.785710 75.162636 100 70 88
12.979890 13.947736 75.162636 99 69 85
13.012835 14.145573 75.353409 97 68 81
13.012835 14.308009 75.353409 94 66 77
13.045946 14.507266 75.545143 92 66 75
13.045946 14.670115 75.545143 91 66 73
13.112677 14.908837 75.931564 90 65 72
13.351710 15.347280 77.315735 87 64 70
13.386571 15.554453 77.517601 86 64 69
13.386571 15.721555 77.517601 86 64 69
13.351710 15.847280 77.315735 86 65 70
13.282530 15.930973 76.915138 85 65 71
13.214064 16.013803 76.518669 85 65 73
13.112677 16.054617 75.931564 85 64 73
13.012835 16.094810 75.353409 83 61 71
12.914500 16.134398 74.783989 82 60 72
12.914500 16.295607 74.783989 83 61 73
12.882051 16.415466 74.596085 83 60 72
12.882051 16.576269 74.596085 82 58 69
12.849766 16.695126 74.409126 82 57 69
12.849766 16.855528 74.409126 84 59 70
12.914500 17.101650 74.783989 85 60 71
12.979890 17.350267 75.162636 86 61 70
13.012835 17.556740 75.353409 84 60 68
13.386571 18.562286 77.517601 80 60 66
13.351710 18.680613 77.315735 79 61 66
13.317030 18.798326 77.114914 78 61 66
13.282530 18.915428 76.915138 77 62 67
13.282530 19.081232 76.915138 76 61 66
13.248208 19.197302 76.716385 76 61 66
13.079226 19.115704 75.737862 76 61 66
13.012835 19.181105 75.353409 77 61 66
13.112677 19.491959 75.931564 78 61 65
13.214064 19.807617 76.518669 78 60 65
13.214064 19.972565 76.518669 78 59 64
13.012835 19.830851 75.353409 78 58 64
12.947113 19.892311 74.972832 77 57 63
12.947113 20.053928 74.972832 76 57 62
13.112677 20.474054 75.931564 76 57 62
13.146299 20.690655 76.126259 76 57 62
13.146299 20.854757 76.126259 75 56 61
12.947113 20.700392 74.972832 74 55 59
12.849766 20.705151 74.409126 74 55 59
12.817641 20.813389 74.223106 73 55 59
12.597191 20.612667 72.946541 73 54 60
12.384194 20.418734 71.713142 72 54 60
12.384194 20.573322 71.713142 72 54 59
12.414181 20.778101 71.886787 71 54 59
12.505016 21.086233 72.412788 71 54 59
12.505016 21.242331 72.412788 70 53 58
12.474590 21.346363 72.236603 69 53 57
12.474590 21.502081 72.236603 67 53 56
12.628219 21.924520 73.126213 66 52 55
12.722225 22.246540 73.670578 65 51 55
12.722225 22.405348 73.670578 64 52 55
12.722225 22.564157 73.670578 63 52 55
12.722225 22.722967 73.670578 63 52 55
12.722225 22.881775 73.670578 61 51 54
12.817641 23.213388 74.223106 58 48 51
12.881034 -3.162890 73.670578 204 176 185
12.881034 -3.004081 73.670578 207 181 189
12.913076 -2.852350 73.853836 213 186 194
12.913076 -2.693146 73.853836 215 188 195
12.913076 -2.533942 73.853836 215 188 194
12.945278 -2.380660 74.038010 219 192 197
12.945278 -2.221059 74.038010 227 199 203
12.945278 -2.061458 74.038010 234 204 209
12.945278 -1.901857 74.038010 240 209 215
12.945278 -1.742256 74.038010 245 217 224
12.945278 -1.582655 74.038010 241 216 223
12.945278 -1.423054 74.038010 225 198 208
12.945278 -1.263453 74.038010 207 179 190
12.913076 -1.101106 73.853836 201 174 185
12.913076 -0.941902 73.853836 213 186 199
12.913076 -0.782698 73.853836 227 200 213
12.913076 -0.623494 73.853836 228 202 214
12.913076 -0.464290 73.853836 222 196 207
12.913076 -0.305086 73.853836 218 192 202
12.913076 -0.145882 73.853836 218 193 200
12.913076 0.013322 73.853836 218 194 199
12.945278 0.172956 74.038010 218 195 199
12.977642 0.333389 74.223106 216 195 197
12.977642 0.493389 74.223106 210 191 193
12.977642 0.653389 74.223106 204 186 189
12.977642 0.813389 74.223106 201 184 187
12.977642 0.973389 74.223106 200 185 188
12.945278 1.130562 74.038010 201 187 191
12.913076 1.286954 73.853836 206 191 196
12.881034 1.442569 73.670578 208 193 197
12.849150 1.597414 73.488220 209 193 198
12.785853 1.747181 73.126213 215 199 204
12.754439 1.900136 72.946541 220 203 208
12.754439 2.057384 72.946541 219 200 206
12.754439 2.214633 72.946541 218 199 205
12.754439 2.371881 72.946541 224 205 210
12.723178 2.522930 72.767754 229 212 215
12.692070 2.673241 72.589836 224 208 209
12.692070 2.829720 72.589836 215 199 199
12.754439 3.000873 72.946541 213 197 197
12.785853 3.165900 73.126213 216 200 199
12.849150 3.339989 73.488220 220 204 204
12.881034 3.507086 73.670578 222 206 208
12.913076 3.675014 73.853836 215 199 203
12.913076 3.834218 73.853836 201 186 192
12.913076 3.993422 73.853836 196 182 190
12.945278 4.162981 74.038010 201 188 197
12.977642 4.333389 74.223106 211 200 209
12.977642 4.493389 74.223106 220 209 216
12.977642 4.653389 74.223106 216 205 211
12.977642 4.813389 74.223106 202 191 196
12.977642 4.973389 74.223106 188 177 181
13.010167 5.146255 74.409126 181 169 171
13.010167 5.306655 74.409126 181 167 169
13.075709 5.494598 74.783989 186 171 173
13.075709 5.655807 74.783989 193 176 179
13.075709 5.817016 74.783989 201 182 187
13.075709 5.978225 74.783989 204 184 190
13.075709 6.139434 74.783989 199 178 185
13.141915 6.332545 75.162636 195 174 182
13.141915 6.494571 75.162636 191 171 179
13.141915 6.656596 75.162636 173 154 163
13.108729 6.801403 74.972832 154 136 144
13.075709 6.945480 74.783989 151 134 142
13.042856 7.088833 74.596085 154 138 146
13.075709 7.267898 74.783989 150 133 141
13.141915 7.466722 75.162636 141 122 131
13.175271 7.648110 75.353409 136 115 125
13.175271 7.810547 75.353409 137 113 124
13.141915 7.952799 75.162636 135 109 121
13.075709 8.073943 74.783989 131 104 115
13.010167 8.193873 74.409126 128 101 112
13.010167 8.354275 74.409126 129 101 110
13.042856 8.536069 74.596085 128 100 109
13.042856 8.696873 74.596085 127 98 107
13.010167 8.835478 74.409126 124 96 105
13.010167 8.995878 74.409126 121 93 104
13.010167 9.156280 74.409126 118 89 103
13.010167 9.316680 74.409126 112 83 99
13.010167 9.477081 74.409126 106 77 95
13.042856 9.661697 74.596085 103 73 93
13.075709 9.847243 74.783989 103 71 94
13.075709 10.008452 74.783989 104 70 94
13.042856 10.144109 74.596085 105 71 94
13.042856 10.304914 74.596085 105 71 92
13.075709 10.492080 74.783989 105 73 91
13.141915 10.707229 75.162636 105 74 89
13.141915 10.869254 75.162636 104 75 87
13.175271 11.059278 75.353409 103 76 86
13.175271 11.221714 75.353409 103 77 86
13.276360 11.471498 75.931564 103 77 86
13.276360 11.635180 75.931564 103 76 87
13.242492 11.768764 75.737862 103 75 87
13.276360 11.962546 75.931564 103 74 87
13.276360 12.126229 75.931564 102 72 87
13.276360 12.289911 75.931564 101 71 86
13.208796 12.390218 75.545143 100 71 87
13.141915 12.489508 75.162636 98 70 87
13.141915 12.651533 75.162636 97 69 88
13.141915 12.813559 75.162636 97 70 90
13.141915 12.975583 75.162636 98 72 93
13.108729 13.104433 74.972832 104 77 98
13.075709 13.232634 74.783989 108 81 102
13.075709 13.393843 74.783989 105 78 98
13.108729 13.589281 74.972832 100 72 91
13.108729 13.750897 74.972832 98 69 87
13.141915 13.947736 75.162636 97 68 84
13.175271 14.145573 75.353409 96 68 81
13.208796 14.344416 75.545143 93 66 77
13.310402 14.618860 76.126259 92 66 75
13.310402 14.782963 76.126259 91 66 74
13.310402 14.947065 76.126259 89 65 72
13.553673 15.387351 77.517601 86 63 70
13.553673 15.554453 77.517601 85 62 68
13.553673 15.721555 77.517601 85 62 69
13.518376 15.847280 77.315735 85 63 70
13.413583 15.889808 76.716385 85 63 71
13.344619 15.972636 76.321960 85 63 72
13.208796 15.972915 75.545143 85 63 73
13.075709 15.973187 74.783989 84 62 73
13.042856 16.093859 74.596085 85 61 74
13.042856 16.254662 74.596085 85 62 76
13.042856 16.415466 74.596085 85 62 76
13.042856 16.576269 74.596085 84 60 73
13.042856 16.737074 74.596085 84 60 72
13.042856 16.897879 74.596085 85 61 73
13.108729 17.144836 74.972832 87 63 73
13.175271 17.394302 75.353409 88 63 73
13.175271 17.556740 75.353409 86 62 71
13.276360 17.855129 75.931564 84 61 69
13.483264 18.299625 77.114914 83 61 69
13.518376 18.513947 77.315735 82 62 69
13.518376 18.680613 77.315735 81 63 70
13.518376 18.847281 77.315735 80 63 70
13.448334 18.915428 76.915138 79 63 70
13.344619 18.934076 76.321960 79 63 69
13.276360 19.000910 75.931564 78 62 68
13.208796 19.067062 75.545143 78 62 67
13.208796 19.229912 75.545143 79 62 67
13.379012 19.642670 76.518669 80 62 66
13.413583 19.858799 76.716385 81 61 65
13.413583 20.024174 76.716385 80 61 65
13.175271 19.830851 75.353409 79 59 64
13.141915 19.942673 75.162636 77 57 62
13.175271 20.155725 75.353409 75 57 61
13.310402 20.526552 76.126259 75 57 61
13.310402 20.690655 76.126259 75 57 61
13.310402 20.854757 76.126259 75 56 60
13.141915 20.752798 75.162636 74 56 59
13.010167 20.705151 74.409126 73 55 58
12.977642 20.813389 74.223106 73 55 59
12.754439 20.612667 72.946541 72 55 60
12.538784 20.418734 71.713142 72 55 60
12.538784 20.573322 71.713142 72 55 60
12.661114 20.930136 72.412788 71 54 60
12.661114 21.086233 72.412788 71 54 59
12.630308 21.190645 72.236603 70 54 58
12.599652 21.294552 72.061264 68 53 56
12.599652 21.449892 72.061264 67 53 55
12.630308 21.657799 72.236603 66 52 55
12.785853 22.082157 73.126213 65 51 55
12.785853 22.239792 73.126213 63 51 55
12.785853 22.397427 73.126213 62 51 54
12.754439 22.499645 72.946541 61 50 54
12.785853 22.712698 73.126213 60 49 52
12.881034 23.040585 73.670578 57 47 50
13.039843 -3.162890 73.670578 204 177 185
13.039843 -3.004081 73.670578 209 182 189
13.039843 -2.845272 73.670578 213 186 192
13.072280 -2.693146 73.853836 217 190 195
13.072280 -2.533942 73.853836 220 192 198
13.104879 -2.380660 74.038010 221 193 198
13.104879 -2.221059 74.038010 225 197 202
13.104879 -2.061458 74.038010 231 201 207
13.104879 -1.901857 74.038010 236 207 213
13.104879 -1.742256 74.038010 244 221 226
13.104879 -1.582655 74.038010 245 225 231
13.104879 -1.423054 74.038010 230 205 213
13.104879 -1.263453 74.038010 208 179 188
13.072280 -1.101106 73.853836 200 172 183
13.072280 -0.941902 73.853836 212 183 195
13.072280 -0.782698 73.853836 222 194 207
13.072280 -0.623494 73.853836 222 194 206
13.072280 -0.464290 73.853836 219 191 202
13.072280 -0.305086 73.853836 217 190 200
13.072280 -0.145882 73.853836 217 191 199
13.072280 0.013322 73.853836 217 191 198
13.104879 0.172956 74.038010 217 192 197
13.137642 0.333389 74.223106 214 192 196
13.137642 0.493389 74.223106 208 188 191
13.137642 0.653389 74.223106 202 183 186
13.137642 0.813389 74.223106 200 182 187
13.104879 0.970961 74.038010 201 185 190
13.072280 1.127750 73.853836 205 191 196
13.072280 1.286954 73.853836 213 199 203
13.007565 1.438999 73.488220 217 203 207
13.007565 1.597414 73.488220 216 201 205
12.943489 1.747181 73.126213 216 199 204
12.911687 1.900136 72.946541 218 200 206
12.911687 2.057384 72.946541 218 200 206
12.911687 2.214633 72.946541 218 199 206
12.911687 2.371881 72.946541 221 201 208
12.911687 2.529129 72.946541 222 204 210
12.848549 2.673241 72.589836 218 201 206
12.911687 2.843625 72.946541 214 197 201
12.911687 3.000873 72.946541 216 199 203
12.975449 3.173717 73.306770 219 202 206
13.007565 3.339989 73.488220 216 199 202
13.072280 3.515810 73.853836 210 193 197
13.072280 3.675014 73.853836 204 187 193
13.072280 3.834218 73.853836 202 186 192
13.104879 4.003380 74.038010 206 191 198
13.104879 4.162981 74.038010 211 197 203
13.137642 4.333389 74.223106 210 198 203
13.137642 4.493389 74.223106 206 194 199
13.137642 4.653389 74.223106 195 183 187
13.137642 4.813389 74.223106 182 171 174
13.137642 4.973389 74.223106 178 166 168
13.170568 5.146255 74.409126 181 168 170
13.170568 5.306655 74.409126 190 176 177
13.236918 5.494598 74.783989 204 189 189
13.270345 5.670090 74.972832 216 199 200
13.270345 5.831706 74.972832 220 201 204
13.270345 5.993322 74.972832 213 194 198
13.303941 6.170520 75.162636 200 180 187
13.337708 6.348618 75.353409 194 173 182
13.371645 6.527622 75.545143 189 169 179
13.371645 6.690472 75.545143 172 153 164
13.303941 6.818622 75.162636 154 137 146
13.303941 6.980647 75.162636 151 135 144
13.303941 7.142672 75.162636 154 138 146
13.303941 7.304698 75.162636 149 132 141
13.337708 7.485674 75.353409 140 121 130
13.371645 7.667571 75.545143 135 113 123
13.337708 7.810547 75.353409 135 111 121
13.270345 7.932716 74.972832 135 109 119
13.203660 8.053657 74.596085 130 103 113
13.137642 8.173388 74.223106 127 100 110
13.137642 8.333388 74.223106 128 101 109
13.170568 8.514675 74.409126 128 100 109
13.170568 8.675076 74.409126 127 99 108
13.137642 8.813389 74.223106 126 98 109
13.137642 8.973389 74.223106 127 98 112
13.137642 9.133389 74.223106 125 96 112
13.137642 9.293388 74.223106 117 88 106
13.170568 9.477081 74.409126 108 79 98
13.170568 9.637483 74.409126 104 73 95
13.203660 9.822501 74.596085 103 71 94
13.203660 9.983305 74.596085 103 70 94
13.203660 10.144109 74.596085 105 71 95
13.203660 10.304914 74.596085 107 74 95
13.203660 10.465717 74.596085 108 75 94
13.270345 10.680191 74.972832 108 77 93
13.303941 10.869254 75.162636 107 78 92
13.337708 11.059278 75.353409 105 78 90
13.371645 11.250268 75.545143 104 78 89
13.440042 11.471498 75.931564 104 79 90
13.509143 11.695002 76.321960 105 78 91
13.509143 11.859526 76.321960 104 77 91
13.543961 12.055039 76.518669 104 76 91
13.543961 12.219988 76.518669 103 74 90
13.543961 12.384936 76.518669 102 73 89
13.474504 12.485527 76.126259 102 73 90
13.337708 12.521207 75.353409 101 73 90
13.337708 12.683643 75.353409 98 71 89
13.337708 12.846080 75.353409 97 70 90
13.303941 12.975583 75.162636 98 72 92
13.236918 13.071424 74.783989 101 75 96
13.236918 13.232634 74.783989 104 78 99
13.236918 13.393843 74.783989 102 75 95
13.236918 13.555052 74.783989 97 71 88
13.270345 13.750897 74.972832 95 68 84
13.270345 13.912514 74.972832 94 67 82
13.337708 14.145573 75.353409 93 66 79
13.474504 14.454758 76.126259 92 66 77
13.474504 14.618860 76.126259 90 65 75
13.474504 14.782963 76.126259 89 65 73
13.649498 15.141183 77.114914 88 63 71
13.756693 15.427632 77.720528 86 62 70
13.756693 15.595171 77.720528 85 61 69
13.685043 15.680614 77.315735 85 62 69
13.649498 15.806118 77.114914 86 62 71
13.509143 15.808112 76.321960 86 62 72
13.474504 15.931681 76.126259 86 62 72
13.337708 15.932374 75.353409 86 62 73
13.203660 15.933054 74.596085 86 62 74
13.170568 16.053522 74.409126 86 63 76
13.137642 16.173389 74.223106 87 64 77
13.170568 16.374325 74.409126 87 64 77
13.203660 16.576269 74.596085 87 64 76
13.203660 16.737074 74.596085 86 63 75
13.270345 16.983221 74.972832 87 64 76
13.337708 17.231867 75.353409 89 65 76
13.440042 17.527763 75.931564 89 66 75
13.440042 17.691446 75.931564 88 65 74
13.474504 17.900911 76.126259 86 63 72
13.578958 18.205053 76.716385 84 63 72
13.649498 18.465858 77.114914 85 65 73
13.685043 18.680613 77.315735 85 66 74
13.685043 18.847281 77.315735 83 65 73
13.614137 18.915428 76.915138 82 64 72
13.509143 18.934076 76.321960 81 63 71
13.440042 19.000910 75.931564 80 62 69
13.371645 19.067062 75.545143 80 62 68
13.371645 19.229912 75.545143 80 61 67
13.614137 19.744444 76.915138 81 61 65
13.614137 19.910248 76.915138 81 62 65
13.614137 20.076050 76.915138 81 62 65
13.474504 20.034245 76.126259 80 60 64
13.337708 19.993288 75.353409 77 58 62
13.474504 20.362450 76.126259 76 57 61
13.578958 20.685673 76.716385 76 57 61
13.578958 20.851048 76.716385 75 57 61
13.474504 20.854757 76.126259 75 56 60
13.337708 20.805471 75.353409 74 56 59
13.203660 20.757175 74.596085 73 56 58
13.137642 20.813389 74.223106 73 56 59
12.880041 20.562145 72.767754 73 56 60
12.693374 20.418734 71.713142 73 56 61
12.693374 20.573322 71.713142 73 56 60
12.817211 20.930136 72.412788 72 55 60
12.817211 21.086233 72.412788 71 55 60
12.817211 21.242331 72.412788 70 54 58
12.786026 21.346363 72.236603 68 53 56
12.754992 21.449892 72.061264 67 53 55
12.817211 21.710623 72.412788 66 52 55
12.817211 21.866720 72.412788 64 51 54
12.848549 22.076664 72.589836 63 50 54
12.848549 22.233143 72.589836 62 50 53
12.817211 22.335012 72.412788 60 48 52
12.848549 22.546101 72.589836 59 47 51
12.943489 22.870333 73.126213 57 47 49
13.198651 -3.162890 73.670578 205 178 183
13.231484 -3.011554 73.853836 213 185 190
13.198651 -2.845272 73.670578 218 191 196
13.231484 -2.693146 73.853836 222 194 199
13.231484 -2.533942 73.853836 224 196 201
13.264481 -2.380660 74.038010 221 193 198
13.264481 -2.221059 74.038010 223 194 200
13.264481 -2.061458 74.038010 231 201 207
13.264481 -1.901857 74.038010 238 208 215
13.264481 -1.742256 74.038010 244 220 225
13.231484 -1.578718 73.853836 244 222 227
13.231484 -1.419514 73.853836 227 200 207
13.231484 -1.260310 73.853836 205 175 184
13.231484 -1.101106 73.853836 201 172 181
13.231484 -0.941902 73.853836 212 183 193
13.198651 -0.780756 73.670578 219 191 202
13.198651 -0.621947 73.670578 220 192 201
13.231484 -0.464290 73.853836 218 190 199
13.231484 -0.305086 73.853836 217 189 197
13.198651 -0.145520 73.670578 216 189 196
13.198651 0.013289 73.670578 215 188 195
13.231484 0.172526 73.853836 213 188 193
13.264481 0.332557 74.038010 209 185 191
13.231484 0.490934 73.853836 203 182 186
13.231484 0.650138 73.853836 200 180 184
13.231484 0.809342 73.853836 200 182 187
13.231484 0.968546 73.853836 205 189 193
13.231484 1.127750 73.853836 211 196 201
13.165982 1.280583 73.488220 215 201 205
13.165982 1.438999 73.488220 218 203 206
13.101125 1.589545 73.126213 219 203 206
13.101125 1.747181 73.126213 218 201 205
13.036903 1.895479 72.767754 217 198 205
13.036903 2.052342 72.767754 218 198 206
13.068935 2.214633 72.946541 219 199 208
13.068935 2.371881 72.946541 221 200 209
13.101125 2.535358 73.126213 219 199 208
13.068935 2.686377 72.946541 215 196 204
13.068935 2.843625 72.946541 212 194 202
13.101125 3.008265 73.126213 213 195 203
13.165982 3.181573 73.488220 213 195 201
13.198651 3.348277 73.670578 208 190 196
13.264481 3.524577 74.038010 203 185 191
13.264481 3.684178 74.038010 200 183 189
13.264481 3.843779 74.038010 202 186 192
13.297642 4.013389 74.223106 207 192 197
13.297642 4.173388 74.223106 206 192 197
13.297642 4.333389 74.223106 198 185 189
13.297642 4.493389 74.223106 190 177 180
13.297642 4.653389 74.223106 183 170 172
13.330969 4.825452 74.409126 177 165 166
13.330969 4.985853 74.409126 180 168 168
13.330969 5.146255 74.409126 191 178 177
13.330969 5.306655 74.409126 204 189 189
13.398128 5.494598 74.783989 217 201 200
13.465966 5.684444 75.162636 227 210 210
13.465966 5.846469 75.162636 229 210 212
13.465966 6.008495 75.162636 218 198 202
13.500144 6.186182 75.353409 202 182 189
13.534495 6.364772 75.545143 193 172 182
13.638607 6.577835 76.126259 187 166 178
13.569022 6.707540 75.737862 173 153 166
13.534495 6.853322 75.545143 158 140 151
13.465966 6.980647 75.162636 155 137 148
13.465966 7.142672 75.162636 156 138 148
13.534495 7.341871 75.545143 149 131 140
13.569022 7.523866 75.737862 139 119 127
13.569022 7.687131 75.737862 132 110 118
13.500144 7.810547 75.353409 131 107 115
13.431961 7.932716 74.972832 131 105 114
13.364464 8.053657 74.596085 129 102 111
13.297642 8.173388 74.223106 127 99 108
13.297642 8.333388 74.223106 127 99 108
13.297642 8.493389 74.223106 126 99 108
13.297642 8.653389 74.223106 125 97 108
13.297642 8.813389 74.223106 126 98 112
13.297642 8.973389 74.223106 129 101 117
13.297642 9.133389 74.223106 128 100 118
13.297642 9.293388 74.223106 120 91 112
13.297642 9.453388 74.223106 111 82 104
13.297642 9.613389 74.223106 106 76 99
13.330969 9.797883 74.409126 103 72 96
13.297642 9.933389 74.223106 103 71 95
13.297642 10.093389 74.223106 106 74 97
13.297642 10.253388 74.223106 109 77 98
13.330969 10.439487 74.409126 110 78 98
13.398128 10.653288 74.783989 111 80 98
13.398128 10.814497 74.783989 111 82 98
13.431961 11.003423 74.972832 109 81 96
13.500144 11.221714 75.353409 106 81 94
13.500144 11.384151 75.353409 107 82 96
13.603725 11.635180 75.931564 109 82 97
13.708909 11.890091 76.518669 108 80 96
13.779940 12.117501 76.915138 108 79 95
13.779940 12.283304 76.915138 107 78 95
13.779940 12.449107 76.915138 106 77 94
13.708909 12.549885 76.518669 104 76 93
13.603725 12.617277 75.931564 103 75 92
13.500144 12.683643 75.353409 101 72 91
13.500144 12.846080 75.353409 99 71 90
13.431961 12.942817 74.972832 98 71 90
13.398128 13.071424 74.783989 97 72 91
13.364464 13.199386 74.596085 97 73 90
13.364464 13.360189 74.596085 96 71 88
13.364464 13.520993 74.596085 93 69 84
13.364464 13.681798 74.596085 92 67 82
13.431961 13.912514 74.972832 91 66 80
13.465966 14.109760 75.162636 90 65 77
13.534495 14.344416 75.545143 90 65 76
13.638607 14.618860 76.126259 89 65 74
13.708909 14.859163 76.518669 87 64 73
13.924232 15.260093 77.720528 86 62 72
13.924232 15.427632 77.720528 85 61 71
13.924232 15.595171 77.720528 85 61 71
13.851710 15.680614 77.315735 85 61 71
13.815732 15.806118 77.114914 86 61 72
13.673668 15.808112 76.321960 86 61 73
13.638607 15.931681 76.126259 87 62 73
13.500144 15.932374 75.353409 87 62 75
13.364464 15.933054 74.596085 87 63 75
13.297642 16.013390 74.223106 87 63 76
13.297642 16.173389 74.223106 88 65 78
13.297642 16.333389 74.223106 88 65 79
13.330969 16.534725 74.409126 88 65 79
13.364464 16.737074 74.596085 87 66 78
13.431961 16.983221 74.972832 88 67 78
13.603725 17.364080 75.931564 89 68 78
13.603725 17.527763 75.931564 89 68 77
13.603725 17.691446 75.931564 88 68 75
13.638607 17.900911 76.126259 87 66 75
13.744332 18.205053 76.716385 86 66 74
13.815732 18.465858 77.114914 86 67 74
13.815732 18.632092 77.114914 86 67 75
13.815732 18.798326 77.114914 85 66 75
13.779940 18.915428 76.915138 83 65 73
13.708909 18.982876 76.518669 83 64 71
13.673668 19.098600 76.321960 82 63 70
13.603725 19.164593 75.931564 82 62 68
13.708909 19.477720 76.518669 81 62 67
13.815732 19.795729 77.114914 81 62 65
13.815732 19.961962 77.114914 81 61 64
13.815732 20.128197 77.114914 80 61 64
13.708909 20.137514 76.518669 79 60 63
13.673668 20.250271 76.321960 78 59 63
13.744332 20.520298 76.716385 77 58 62
13.779940 20.739264 76.915138 76 57 61
13.779940 20.905066 76.915138 75 57 61
13.708909 20.962255 76.518669 75 57 60
13.603725 20.965103 75.931564 74 57 60
13.398128 20.809460 74.783989 74 57 59
13.297642 20.813389 74.223106 74 57 60
12.973309 20.461843 72.412788 74 57 60
12.879072 20.468174 71.886787 74 57 61
12.879072 20.623137 71.886787 74 56 60
13.068935 21.084412 72.946541 73 56 60
13.068935 21.241659 72.946541 71 55 59
12.973309 21.242331 72.412788 69 54 58
12.973309 21.398428 72.412788 68 53 56
12.973309 21.554525 72.412788 67 52 55
12.973309 21.710623 72.412788 65 51 55
13.005029 21.920185 72.589836 64 50 54
13.005029 22.076664 72.589836 63 49 54
12.973309 22.178915 72.412788 61 48 52
12.973309 22.335012 72.412788 60 47 51
12.973309 22.491112 72.412788 58 46 50
13.390688 -3.170758 73.853836 207 180 183
13.390688 -3.011554 73.853836 216 187 192
13.390688 -2.852350 73.853836 222 194 199
13.390688 -2.693146 73.853836 224 196 202
13.390688 -2.533942 73.853836 224 196 202
13.424082 -2.380660 74.038010 221 192 198
13.424082 -2.221059 74.038010 224 194 200
13.424082 -2.061458 74.038010 234 203 210
13.390688 -1.897126 73.853836 239 209 215
13.390688 -1.737922 73.853836 239 209 215
13.390688 -1.578718 73.853836 232 204 210
13.357461 -1.415991 73.670578 218 188 195
13.390688 -1.260310 73.853836 205 174 182
13.357461 -1.098374 73.670578 205 175 183
13.357461 -0.939565 73.670578 211 182 191
13.357461 -0.780756 73.670578 216 187 197
13.357461 -0.621947 73.670578 216 188 197
13.357461 -0.463138 73.670578 215 187 195
13.357461 -0.304329 73.670578 214 186 193
13.357461 -0.145520 73.670578 213 186 192
13.357461 0.013289 73.670578 211 185 191
13.390688 0.172526 73.853836 209 184 190
13.390688 0.331730 73.853836 204 181 186
13.390688 0.490934 73.853836 199 176 182
13.357461 0.648525 73.670578 196 176 182
13.357461 0.807334 73.670578 199 181 187
13.357461 0.966143 73.670578 206 189 195
13.324398 1.122167 73.488220 212 197 202
13.324398 1.280583 73.488220 213 198 202
13.291498 1.435446 73.306770 215 199 204
13.291498 1.593470 73.306770 221 204 209
13.258760 1.747181 73.126213 220 202 209
13.258760 1.904816 73.126213 215 195 204
13.226183 2.057384 72.946541 215 194 203
13.258760 2.220087 73.126213 219 198 208
13.258760 2.377723 73.126213 221 199 211
13.258760 2.535358 73.126213 218 197 208
13.258760 2.692994 73.126213 214 193 204
13.291498 2.857668 73.306770 211 191 201
13.324398 3.023157 73.488220 210 191 200
13.390688 3.197402 73.853836 208 189 198
13.424082 3.364976 74.038010 209 190 198
13.457642 3.533389 74.223106 208 190 196
13.457642 3.693389 74.223106 203 186 191
13.457642 3.853389 74.223106 201 184 188
13.457642 4.013389 74.223106 199 184 187
13.457642 4.173388 74.223106 194 180 182
13.457642 4.333389 74.223106 189 175 175
13.457642 4.493389 74.223106 188 174 174
13.457642 4.653389 74.223106 188 176 175
13.491370 4.825452 74.409126 189 177 175
13.491370 4.985853 74.409126 195 182 179
13.491370 5.146255 74.409126 206 193 190
13.491370 5.306655 74.409126 216 203 199
13.559337 5.494598 74.783989 219 204 202
13.627992 5.684444 75.162636 222 205 204
13.627992 5.846469 75.162636 224 206 207
13.627992 6.008495 75.162636 218 199 203
13.662580 6.186182 75.353409 206 186 193
13.802710 6.413732 76.126259 196 175 185
13.802710 6.577835 76.126259 188 166 179
13.802710 6.741937 76.126259 176 154 168
13.697345 6.853322 75.545143 164 143 157
13.697345 7.016171 75.545143 160 139 152
13.697345 7.179021 75.545143 158 138 149
13.767408 7.379426 75.931564 149 128 139
13.802710 7.562450 76.126259 138 115 125
13.767408 7.706791 75.931564 131 108 116
13.732287 7.850397 75.737862 129 105 113
13.627992 7.952799 75.162636 129 103 112
13.525268 8.053657 74.596085 128 101 110
13.457642 8.173388 74.223106 126 99 108
13.457642 8.333388 74.223106 125 98 107
13.457642 8.493389 74.223106 123 96 106
13.457642 8.653389 74.223106 122 96 108
13.457642 8.813389 74.223106 123 96 112
13.457642 8.973389 74.223106 126 98 117
13.424082 9.110612 74.038010 125 97 118
13.457642 9.293388 74.223106 119 92 113
13.457642 9.453388 74.223106 114 86 109
13.457642 9.613389 74.223106 111 83 106
13.457642 9.773389 74.223106 108 79 103
13.457642 9.933389 74.223106 108 78 101
13.457642 10.093389 74.223106 110 79 102
13.457642 10.253388 74.223106 111 81 103
13.457642 10.413388 74.223106 111 82 102
13.525268 10.626521 74.596085 112 83 102
13.525268 10.787325 74.596085 114 85 104
13.559337 10.975706 74.783989 114 87 105
13.593577 11.165039 74.972832 112 85 103
13.593577 11.326655 74.972832 112 85 102
13.627992 11.517356 75.162636 113 85 102
13.802710 11.829117 76.126259 112 84 101
13.873857 12.055039 76.518669 112 82 100
13.945743 12.283304 76.915138 112 82 100
13.945743 12.449107 76.915138 110 82 99
13.873857 12.549885 76.518669 107 79 96
13.767408 12.617277 75.931564 105 77 94
13.697345 12.715918 75.545143 102 74 91
13.662580 12.846080 75.353409 99 73 89
13.593577 12.942817 74.972832 97 72 88
13.525268 13.038582 74.596085 95 71 86
13.525268 13.199386 74.596085 94 70 84
13.525268 13.360189 74.596085 92 69 82
13.525268 13.520993 74.596085 90 68 81
13.525268 13.681798 74.596085 89 67 79
13.525268 13.842602 74.596085 88 65 77
13.593577 14.074130 74.972832 87 65 76
13.627992 14.271786 75.162636 87 64 74
13.732287 14.544274 75.737862 86 63 74
13.945743 14.936154 76.915138 86 63 73
14.128757 15.300145 77.924522 85 62 72
14.128757 15.468124 77.924522 85 61 72
14.091771 15.595171 77.720528 85 60 72
14.018376 15.680614 77.315735 85 60 72
14.018376 15.847280 77.315735 85 60 73
13.873857 15.848854 76.518669 87 61 73
13.802710 15.931681 76.126259 87 61 74
13.662580 15.932374 75.353409 87 62 75
13.491370 15.893122 74.409126 87 63 76
13.457642 16.013390 74.223106 88 64 77
13.424082 16.133057 74.038010 88 66 79
13.390688 16.252129 73.853836 88 67 80
13.457642 16.493389 74.223106 88 68 80
13.491370 16.695126 74.409126 87 69 80
13.559337 16.940441 74.783989 88 70 79
13.662580 17.231867 75.353409 88 70 78
13.767408 17.527763 75.931564 89 71 78
13.767408 17.691446 75.931564 89 71 78
13.802710 17.900911 76.126259 89 71 77
13.873857 18.158133 76.518669 89 69 76
13.909707 18.370428 76.716385 87 68 76
13.981965 18.632092 77.114914 87 67 75
13.945743 18.749626 76.915138 86 65 74
13.909707 18.866552 76.716385 84 64 72
13.838192 18.934076 76.321960 84 63 71
13.802710 19.049629 76.126259 84 62 69
13.838192 19.263124 76.321960 83 62 68
13.873857 19.477720 76.518669 83 62 67
13.981965 19.795729 77.114914 83 62 66
13.981965 19.961962 77.114914 82 61 65
13.981965 20.128197 77.114914 80 61 64
13.909707 20.189548 76.716385 79 60 64
13.873857 20.302462 76.518669 78 59 64
13.945743 20.573460 76.915138 78 59 64
14.018376 20.847281 77.315735 77 58 63
14.018376 21.013947 77.315735 76 58 63
13.945743 21.070869 76.915138 75 58 62
13.838192 21.072893 76.321960 75 58 61
13.559337 20.809460 74.783989 75 58 60
13.424082 20.761484 74.038010 75 58 60
13.129406 20.461843 72.412788 75 57 61
13.065672 20.517853 72.061264 75 57 61
13.065672 20.673193 72.061264 74 56 60
13.324398 21.240978 73.488220 73 56 60
13.324398 21.399395 73.488220 71 55 58
13.226183 21.398909 72.946541 69 54 57
13.226183 21.556156 72.946541 68 52 55
13.291498 21.820631 73.306770 66 51 54
13.291498 21.978655 73.306770 65 50 54
13.291498 22.136681 73.306770 63 49 54
13.226183 22.185148 72.946541 62 48 53
13.193767 22.287636 72.767754 60 47 51
13.129406 22.335012 72.412788 59 46 50
13.129406 22.491112 72.412788 57 44 49
13.549892 -3.011554 73.853836 216 187 192
13.549892 -2.852350 73.853836 220 191 196
13.516270 -2.686463 73.670578 223 194 200
13.549892 -2.533942 73.853836 224 194 201
13.583682 -2.380660 74.038010 222 191 198
13.583682 -2.221059 74.038010 225 194 201
13.583682 -2.061458 74.038010 234 202 208
13.549892 -1.897126 73.853836 234 203 209
13.549892 -1.737922 73.853836 227 194 201
13.516270 -1.574800 73.670578 218 186 193
13.482814 -1.412486 73.488220 212 179 186
13.516270 -1.257182 73.670578 208 176 183
13.482814 -1.095655 73.488220 208 177 184
13.482814 -0.937239 73.488220 211 181 188
13.482814 -0.778823 73.488220 212 182 191
13.482814 -0.620407 73.488220 212 184 191
13.482814 -0.461991 73.488220 211 184 189
13.482814 -0.303576 73.488220 210 183 187
13.482814 -0.145160 73.488220 208 182 186
13.482814 0.013256 73.488220 207 181 185
13.549892 0.172526 73.853836 205 180 185
13.549892 0.331730 73.853836 203 180 185
13.549892 0.490934 73.853836 202 180 186
13.516270 0.648525 73.670578 202 182 187
13.516270 0.807334 73.670578 201 183 188
13.516270 0.966143 73.670578 203 187 192
13.482814 1.122167 73.488220 208 193 198
13.482814 1.280583 73.488220 210 194 199
13.449523 1.435446 73.306770 213 197 203
13.449523 1.593470 73.306770 220 203 210
13.416396 1.747181 73.126213 220 200 210
13.416396 1.904816 73.126213 213 192 202
13.383431 2.057384 72.946541 211 189 200
13.416396 2.220087 73.126213 216 194 206
13.449523 2.383594 73.306770 218 196 209
13.482814 2.547909 73.488220 215 194 206
13.482814 2.706326 73.488220 211 190 202
13.482814 2.864741 73.488220 209 188 199
13.516270 3.030659 73.670578 208 187 198
13.583682 3.205375 74.038010 208 188 197
13.617641 3.373389 74.223106 210 191 199
13.617641 3.533389 74.223106 208 190 196
13.617641 3.693389 74.223106 201 184 188
13.617641 3.853389 74.223106 197 180 183
13.617641 4.013389 74.223106 195 179 181
13.617641 4.173388 74.223106 193 178 179
13.617641 4.333389 74.223106 193 179 179
13.617641 4.493389 74.223106 200 186 185
13.617641 4.653389 74.223106 208 195 192
13.617641 4.813389 74.223106 209 196 192
13.617641 4.973389 74.223106 209 196 192
13.651771 5.146255 74.409126 218 205 201
13.651771 5.306655 74.409126 223 210 207
13.686072 5.480793 74.596085 217 203 200
13.755194 5.670090 74.972832 212 196 195
13.755194 5.831706 74.972832 213 196 197
13.790017 6.008495 75.162636 212 194 197
13.790017 6.170520 75.162636 206 186 193
13.931091 6.397328 75.931564 198 176 186
13.966812 6.577835 76.126259 187 165 178
13.966812 6.741937 76.126259 176 155 168
13.931091 6.888377 75.931564 166 144 158
13.931091 7.052060 75.931564 161 138 151
13.931091 7.215743 75.931564 157 134 146
13.966812 7.398347 76.126259 147 124 134
13.966812 7.562450 76.126259 136 112 121
13.966812 7.726552 76.126259 131 107 116
13.895553 7.850397 75.737862 130 104 114
13.790017 7.952799 75.162636 129 102 112
13.686072 8.053657 74.596085 127 99 110
13.617641 8.173388 74.223106 124 97 108
13.617641 8.333388 74.223106 122 95 107
13.617641 8.493389 74.223106 120 93 106
13.617641 8.653389 74.223106 119 93 107
13.583682 8.791410 74.038010 120 94 111
13.583682 8.951011 74.038010 122 96 116
13.583682 9.110612 74.038010 122 96 118
13.583682 9.270213 74.038010 119 93 115
13.617641 9.453388 74.223106 117 90 113
13.617641 9.613389 74.223106 117 90 112
13.617641 9.773389 74.223106 116 90 112
13.617641 9.933389 74.223106 116 89 110
13.617641 10.093389 74.223106 116 88 109
13.617641 10.253388 74.223106 115 88 107
13.617641 10.413388 74.223106 114 87 105
13.686072 10.626521 74.596085 113 87 104
13.686072 10.787325 74.596085 116 89 106
13.720546 10.975706 74.783989 118 91 108
13.755194 11.165039 74.972832 117 90 106
13.755194 11.326655 74.972832 115 88 105
13.755194 11.488272 74.972832 117 89 106
13.966812 11.829117 76.126259 117 88 106
14.002716 12.024050 76.321960 116 86 104
14.111546 12.283304 76.915138 115 85 104
14.111546 12.449107 76.915138 113 84 102
14.075082 12.582314 76.716385 110 81 99
14.002716 12.682148 76.321960 107 78 95
13.931091 12.780960 75.931564 103 76 91
13.825017 12.846080 75.353409 99 74 88
13.755194 12.942817 74.972832 96 73 84
13.686072 13.038582 74.596085 94 71 82
13.686072 13.199386 74.596085 92 70 80
13.686072 13.360189 74.596085 89 69 79
13.686072 13.520993 74.596085 88 68 77
13.686072 13.681798 74.596085 87 66 76
13.686072 13.842602 74.596085 86 65 74
13.720546 14.038679 74.783989 85 64 73
13.755194 14.235746 74.972832 85 63 73
13.825017 14.470446 75.353409 85 62 72
14.148199 14.974949 77.114914 85 62 72
14.296737 15.300145 77.924522 85 62 72
14.296737 15.468124 77.924522 84 61 72
14.222080 15.554453 77.517601 84 61 72
14.185043 15.680614 77.315735 85 60 73
14.185043 15.847280 77.315735 85 61 74
14.038806 15.848854 76.518669 87 61 75
14.002716 15.972636 76.321960 87 62 76
13.825017 15.932374 75.353409 87 62 76
13.651771 15.893122 74.409126 88 64 77
13.583682 15.973455 74.038010 88 65 78
13.549892 16.092924 73.853836 88 68 80
13.549892 16.252129 73.853836 88 69 80
13.549892 16.411331 73.853836 88 70 81
13.651771 16.695126 74.409126 88 71 81
13.720546 16.940441 74.783989 87 71 80
13.790017 17.188242 75.162636 88 72 80
13.825017 17.394302 75.353409 90 74 80
13.860195 17.601414 75.545143 91 75 81
13.931091 17.855129 75.931564 90 73 80
14.002716 18.111454 76.321960 89 71 79
14.038806 18.323082 76.518669 87 68 76
14.038806 18.488029 76.518669 86 66 74
14.038806 18.652979 76.518669 85 64 73
14.038806 18.817926 76.518669 84 63 71
13.966812 18.885527 76.126259 84 63 70
13.931091 19.000910 75.931564 85 62 69
13.931091 19.164593 75.931564 85 62 68
14.002716 19.427649 76.321960 85 63 68
14.075082 19.693424 76.716385 85 63 67
14.111546 19.910248 76.915138 83 63 66
14.111546 20.076050 76.915138 81 62 65
14.111546 20.241854 76.915138 79 60 65
14.075082 20.354923 76.716385 78 60 65
14.148199 20.626898 77.114914 78 59 65
14.222080 20.901711 77.517601 77 59 65
14.222080 21.068813 77.517601 76 59 64
14.148199 21.125599 77.114914 75 59 63
14.002716 21.072893 76.321960 75 59 63
13.720546 20.809460 74.783989 75 59 62
13.549892 20.709839 73.853836 75 59 61
13.317986 20.511871 72.589836 75 58 61
13.253180 20.567776 72.236603 75 57 60
13.253180 20.723494 72.236603 74 57 60
13.482814 21.240978 73.488220 72 55 59
13.482814 21.399395 73.488220 70 54 57
13.449523 21.504581 73.306770 69 53 56
13.449523 21.662605 73.306770 67 51 55
13.516270 21.928923 73.670578 66 50 54
13.482814 22.033058 73.488220 65 49 53
13.482814 22.191473 73.488220 63 48 52
13.449523 22.294704 73.306770 62 46 52
13.383431 22.342396 72.946541 60 46 51
13.285504 22.335012 72.412788 59 45 50
13.285504 22.491112 72.412788 57 43 48
13.709096 -3.011554 73.853836 214 186 190
13.675078 -2.845272 73.670578 216 187 193
13.675078 -2.686463 73.670578 220 190 197
13.675078 -2.527654 73.670578 222 192 199
13.743283 -2.380660 74.038010 222 191 197
13.743283 -2.221059 74.038010 226 193 200
13.743283 -2.061458 74.038010 231 198 205
13.709096 -1.897126 73.853836 226 194 200
13.709096 -1.737922 73.853836 215 182 188
13.641230 -1.570902 73.488220 209 176 182
