ply
format ascii 1.0
element vertex 1214
property float x
property float y
property float z
property uchar red
property uchar green
property uchar blue
end_header
-18.688269 4.805206 71.713142 62 36 40
-18.643236 4.947845 71.540344 62 35 39
-18.598421 5.089797 71.368370 63 36 39
-18.509434 5.218554 71.026894 64 36 39
-18.509434 5.371664 71.026894 64 37 40
-18.509434 5.524774 71.026894 64 38 41
-18.509434 5.677884 71.026894 64 38 42
-18.247507 5.748480 70.021797 65 39 42
-18.119305 5.857975 69.529839 65 39 43
-17.909592 5.938323 68.725098 64 38 43
-18.119305 6.157741 69.529839 64 39 44
-18.333988 6.382359 70.353653 64 40 44
-15.659068 -1.425805 60.590290 91 49 54
-15.532274 -1.284706 60.099682 91 49 53
-15.595413 -1.159847 60.343987 89 48 53
-15.853189 -1.046786 61.341408 88 48 53
-16.395178 -0.945822 63.438553 87 48 53
-16.430286 -0.810802 63.574394 87 48 52
-16.680311 -0.684010 64.541832 87 48 51
-16.644129 -0.543697 64.401825 86 48 51
-16.536516 -0.402251 63.985435 87 49 52
-16.536516 -0.264320 63.985435 87 49 52
-16.608103 -0.126936 64.262428 88 50 53
-16.608103 0.011592 64.262428 89 51 53
-16.608103 0.150120 64.262428 89 51 53
-16.644129 0.289274 64.401825 89 51 53
-16.644129 0.428103 64.401825 88 51 53
-16.716652 0.569402 64.682442 87 50 52
-16.716652 0.708835 64.682442 86 50 52
-16.716652 0.848269 64.682442 85 49 51
-17.050985 1.007457 65.976097 84 49 51
-17.088961 1.152239 66.123032 84 49 52
-17.127106 1.297668 66.270630 83 49 52
-17.127106 1.440526 66.270630 82 47 52
-17.088961 1.579856 66.123032 80 46 52
-17.013178 1.714757 65.829803 78 45 51
-17.013178 1.856664 65.829803 77 45 50
-17.013178 1.998571 65.829803 76 44 48
-17.127106 2.154811 66.270630 74 43 47
-17.203909 2.307972 66.567810 73 43 47
-17.242569 2.456979 66.717400 72 43 47
-17.320414 2.612540 67.018608 72 44 47
-17.281404 2.750801 66.867661 71 44 47
-17.558224 2.941317 67.938766 70 44 46
-17.844055 3.138036 69.044746 69 44 45
-18.225519 3.357139 70.520767 67 44 44
-18.225519 3.509158 70.520767 66 42 43
-18.225519 3.661177 70.520767 65 42 43
-18.268913 3.822275 70.688675 65 41 43
-18.268913 3.974656 70.688675 64 41 44
-18.400343 4.156728 71.197220 64 41 44
-18.444576 4.320566 71.368370 64 40 44
-18.668962 4.528845 72.236603 63 39 44
-18.668962 4.684563 72.236603 62 38 42
-18.533680 4.805206 71.713142 62 37 41
-18.489019 4.947845 71.540344 62 36 40
-18.444576 5.089797 71.368370 63 36 39
-18.356323 5.218554 71.026894 63 37 40
-18.356323 5.371664 71.026894 64 37 40
-18.312513 5.511588 70.857384 64 38 41
-18.312513 5.664333 70.857384 65 39 42
-18.011604 5.721492 69.693054 65 39 43
-17.679592 5.763492 68.408394 65 39 43
-17.558224 5.870378 67.938766 65 38 44
-17.558224 6.016832 67.938766 65 39 44
-18.268913 6.412751 70.688675 65 40 45
-18.444576 6.628258 71.368370 64 42 45
-18.444576 6.782104 71.368370 64 43 45
-15.656262 -1.964289 61.088974 95 52 55
-15.528456 -1.817642 60.590290 94 51 54
-15.656262 -1.700915 61.088974 93 50 53
-15.371603 -1.411403 59.978268 92 50 53
-15.371603 -1.282110 59.978268 91 49 53
-15.433962 -1.157494 60.221588 90 49 53
-15.528456 -1.033968 60.590290 89 48 53
-15.851965 -0.922176 61.852589 88 48 53
-15.985175 -0.795472 62.372356 87 48 52
-16.293242 -0.673757 63.574394 87 48 51
-16.363319 -0.539020 63.847832 86 49 51
-16.363319 -0.401386 63.847832 87 49 51
-16.363319 -0.263752 63.847832 87 50 52
-16.398584 -0.126389 63.985435 88 51 52
-16.398584 0.011542 63.985435 88 52 52
-16.469574 0.150120 64.262428 88 52 52
-16.505301 0.289274 64.401825 88 52 53
-16.505301 0.428103 64.401825 87 52 53
-16.613413 0.570645 64.823669 87 51 52
-16.613413 0.710383 64.823669 86 50 52
-16.613413 0.850121 64.823669 86 50 52
-16.946423 1.009700 66.123032 85 50 52
-16.984249 1.154811 66.270630 84 50 52
-16.984249 1.297668 66.270630 83 49 52
-16.946423 1.437317 66.123032 82 48 52
-16.946423 1.579856 66.123032 81 47 52
-16.871271 1.714757 65.829803 79 46 51
-16.871271 1.856664 65.829803 77 45 50
-16.871271 1.998571 65.829803 75 44 48
-16.946423 2.150012 66.123032 74 44 47
-16.984249 2.297668 66.270630 73 43 47
-17.060411 2.451470 66.567810 71 43 47
-17.098749 2.600799 66.717400 71 43 47
-17.022245 2.732339 66.418884 71 44 46
-17.060411 2.881963 66.567810 70 44 46
-17.253839 3.059763 67.322548 68 44 45
-17.613295 3.271656 68.725098 67 44 44
-17.613295 3.419804 68.725098 67 44 43
-17.654161 3.576231 68.884552 66 44 43
-17.945621 3.786216 70.021797 66 43 44
-17.945621 3.937159 70.021797 66 42 45
-18.203215 4.146783 71.026894 66 42 45
-18.290730 4.320566 71.368370 66 41 45
-18.468309 4.517853 72.061264 65 40 44
-18.468309 4.673193 72.061264 64 38 43
-18.379089 4.805206 71.713142 63 37 42
-18.334803 4.947845 71.540344 63 36 41
-18.290730 5.089797 71.368370 63 37 40
-18.246866 5.231068 71.197220 63 37 40
-18.203215 5.371664 71.026894 63 38 41
-18.159769 5.511588 70.857384 64 38 42
-18.159769 5.664333 70.857384 65 38 43
-17.861370 5.721492 69.693054 65 38 44
-17.532127 5.763492 68.408394 65 38 44
-17.293053 5.830353 67.475548 65 38 44
-17.293053 5.975808 67.475548 65 39 44
-18.290730 6.474412 71.368370 65 39 45
-18.379089 6.660279 71.713142 64 41 45
-18.334803 6.798447 71.540344 64 42 45
-18.290730 6.935951 71.368370 64 43 45
-18.290730 7.089797 71.368370 64 44 45
-18.290730 7.243643 71.368370 64 43 44
-15.751448 -2.260218 61.981716 97 53 58
-15.588726 -2.104637 61.341408 96 52 56
-15.366484 -1.944286 60.466888 95 51 54
-15.366484 -1.813940 60.466888 93 51 53
-15.366484 -1.683594 60.466888 93 50 52
-15.304145 -1.546946 60.221588 92 50 52
-15.242310 -1.411403 59.978268 92 50 53
-15.242310 -1.282110 59.978268 92 50 53
-15.304145 -1.157494 60.221588 91 50 53
-15.397843 -1.033968 60.590290 90 50 53
-15.588726 -0.914555 61.341408 89 50 53
-15.718632 -0.788843 61.852589 88 49 53
-15.850721 -0.661018 62.372356 87 49 52
-16.156195 -0.536712 63.574394 86 49 51
-16.156195 -0.399667 63.574394 87 49 51
-16.156195 -0.262622 63.574394 87 50 51
-16.190866 -0.125847 63.710819 88 51 52
-16.225685 0.011517 63.847832 88 52 52
-16.260654 0.149473 63.985435 88 53 52
-16.295774 0.288025 64.123634 88 53 52
-16.366472 0.428103 64.401825 86 52 52
-16.473675 0.570645 64.823669 85 51 51
-16.473675 0.710383 64.823669 85 51 52
-16.509724 0.851981 64.965523 86 51 52
-16.841391 1.011954 66.270630 85 51 52
-16.841391 1.154811 66.270630 84 50 52
-16.803883 1.294778 66.123032 83 50 52
-16.803883 1.437317 66.123032 82 49 52
-16.803883 1.579856 66.123032 80 48 52
-16.692352 1.710963 65.684166 78 47 51
-16.692352 1.852556 65.684166 76 45 49
-16.729364 1.998571 65.829803 75 44 48
-16.729364 2.140478 65.829803 73 44 47
-16.841391 2.297668 66.270630 72 43 47
-16.841391 2.440526 66.270630 71 43 46
-16.841391 2.583383 66.270630 70 43 46
-16.766541 2.714123 65.976097 70 44 46
-16.766541 2.856345 65.976097 70 45 46
-16.879068 3.018692 66.418884 69 45 45
-16.916914 3.168958 66.567810 68 45 44
-16.954929 3.319900 66.717400 68 45 44
-17.031475 3.479358 67.018608 68 45 44
-17.031475 3.623827 67.018608 68 44 45
-17.108715 3.785387 67.322548 68 43 45
-17.964151 4.127037 70.688675 67 43 45
-18.136883 4.320566 71.368370 67 42 45
-18.224501 4.496027 71.713142 66 40 44
-18.224501 4.650617 71.713142 64 39 44
-18.180586 4.793628 71.540344 63 37 43
-18.136883 4.935951 71.368370 63 36 41
-18.136883 5.089797 71.368370 63 37 41
-18.093390 5.231068 71.197220 63 37 41
-18.093390 5.384545 71.197220 64 37 42
-18.007025 5.817078 70.857384 65 38 45
-17.424812 5.776803 68.566376 65 38 45
-17.384663 5.910957 68.408394 65 38 45
-17.424812 6.072414 68.566376 65 38 45
-18.224501 6.505690 71.713142 65 39 45
-18.224501 6.660279 71.713142 64 40 44
-18.180586 6.798447 71.540344 64 42 44
-18.136883 6.935951 71.368370 64 42 44
-14.155616 5.533500 55.702145 64 43 44
-14.129107 5.642988 55.597832 64 43 44
-14.155616 5.773650 55.702145 64 43 44
-18.136883 7.551335 71.368370 64 43 44
-15.716268 -2.543371 62.372356 97 52 57
-15.650509 -2.398838 62.111385 97 52 57
-15.585299 -2.255509 61.852589 97 52 57
-15.456494 -2.104637 61.341408 96 52 55
-15.267231 -1.948254 60.590290 95 51 54
-15.236137 -1.813940 60.466888 93 51 52
-15.236137 -1.683594 60.466888 93 50 52
-15.205170 -1.550091 60.343987 92 51 53
-15.143610 -1.414260 60.099682 92 51 54
-15.143610 -1.284706 60.099682 92 51 54
-15.236137 -1.162209 60.466888 91 51 53
-15.361280 -1.040338 60.963535 90 51 53
-15.456494 -0.914555 61.341408 89 50 53
-15.585299 -0.788843 61.852589 88 50 53
-15.650509 -0.658252 62.111385 87 49 52
-15.883107 -0.532154 63.034485 87 49 52
-15.916901 -0.397116 63.168602 86 50 51
-15.916901 -0.260946 63.168602 87 51 51
-15.950839 -0.125042 63.303288 87 52 52
-15.984921 0.011443 63.438553 87 53 52
-16.019150 0.148513 63.574394 87 53 52
-16.122723 0.287404 63.985435 87 53 52
-16.157545 0.426254 64.123634 85 52 51
-16.298351 0.569402 64.682442 85 51 51
-16.298351 0.708835 64.682442 85 52 51
-16.369678 0.851981 64.965523 85 52 52
-16.698534 1.011954 66.270630 84 51 52
-16.698534 1.154811 66.270630 84 50 51
-16.661345 1.294778 66.123032 83 51 51
-16.661345 1.437317 66.123032 81 50 51
-16.661345 1.579856 66.123032 80 48 50
-16.550760 1.710963 65.684166 78 47 49
-16.550760 1.852556 65.684166 76 45 48
-16.587458 1.998571 65.829803 74 44 48
-16.587458 2.140478 65.829803 73 44 47
-16.624319 2.287457 65.976097 72 43 47
-16.624319 2.429679 65.976097 71 43 46
-16.624319 2.571901 65.976097 70 43 46
-16.550760 2.702114 65.684166 70 44 46
-16.441633 2.824957 65.251083 70 45 46
-16.514223 2.978710 65.539169 69 45 46
-16.514223 3.119990 65.539169 69 46 46
-16.514223 3.261270 65.539169 69 45 46
-16.514223 3.402551 65.539169 69 45 46
-16.514223 3.543831 65.539169 69 45 46
-16.298351 3.636940 64.682442 69 44 46
-16.624319 3.851901 65.976097 68 43 45
-17.939913 4.310205 71.197220 67 41 45
-18.026369 4.485194 71.540344 66 40 44
-18.026369 4.639411 71.540344 64 38 44
-17.983036 4.782104 71.368370 63 37 42
-17.983036 4.935951 71.368370 63 36 41
-17.939913 5.077591 71.197220 62 36 41
-17.896994 5.218554 71.026894 63 37 42
-17.896994 5.371664 71.026894 64 37 43
-17.854280 5.511588 70.857384 64 37 43
-18.335646 6.758224 72.767754 65 40 45
-18.026369 6.798447 71.540344 64 41 44
-14.009257 5.403287 55.597832 63 41 44
-14.009257 5.523138 55.597832 64 42 44
-14.009257 5.642988 55.597832 65 43 45
-14.035541 5.773650 55.702145 65 43 45
-14.061924 5.904803 55.806847 65 44 44
-17.896994 7.668314 71.026894 65 45 45
-17.896994 7.821424 71.026894 65 46 47
-17.854280 7.955503 70.857384 65 46 49
-15.780730 -2.848180 63.168602 97 53 57
-15.647560 -2.689123 62.635532 97 52 57
-15.516618 -2.532729 62.111385 97 53 58
-15.451965 -2.388843 61.852589 97 52 57
-15.419841 -2.250820 61.723995 96 52 56
-15.324264 -2.104637 61.341408 96 52 55
-15.167573 -1.952238 60.714195 95 52 53
-15.136620 -1.817642 60.590290 93 51 52
-15.167573 -1.690480 60.714195 92 51 51
-15.167573 -1.559600 60.714195 92 51 53
-15.075089 -1.420009 60.343987 92 51 54
-15.105791 -1.292555 60.466888 92 51 54
-15.198654 -1.169354 60.838612 91 51 53
-15.324264 -1.046786 61.341408 90 51 54
-15.387849 -0.918350 61.595940 89 51 54
-15.451965 -0.788843 61.852589 89 50 53
-15.516618 -0.658252 62.111385 88 49 53
-15.614617 -0.527673 62.503666 87 49 52
-15.713863 -0.395433 62.900936 87 50 52
-15.647560 -0.258744 62.635532 87 51 52
-15.713863 -0.124247 62.900936 88 52 52
-15.747226 0.011370 63.034485 88 53 53
-15.747226 0.147252 63.034485 88 53 54
-15.848169 0.284948 63.438553 87 53 53
-15.950416 0.424420 63.847832 86 52 53
-15.984792 0.563266 63.985435 85 52 52
-16.158918 0.708835 64.682442 85 52 52
-16.194199 0.850121 64.823669 85 52 52
-16.555677 1.011954 66.270630 84 51 52
-16.555677 1.154811 66.270630 84 51 51
-16.518805 1.294778 66.123032 83 50 51
-16.518805 1.437317 66.123032 81 49 50
-16.518805 1.579856 66.123032 79 48 49
-16.445551 1.714757 65.829803 77 46 48
-16.409166 1.852556 65.684166 75 45 47
-16.445551 1.998571 65.829803 73 44 47
-16.445551 2.140478 65.829803 73 44 47
-16.445551 2.282385 65.829803 72 43 46
-16.409166 2.418928 65.684166 71 43 46
-16.372944 2.554869 65.539169 71 43 46
-16.194199 2.666715 64.823669 71 44 46
-16.158918 2.800339 64.682442 71 45 46
-16.123791 2.933382 64.541832 70 45 47
-16.123791 3.072512 64.541832 70 45 47
-16.123791 3.211642 64.541832 70 45 47
-16.123791 3.350773 64.541832 70 45 47
-16.123791 3.489903 64.541832 70 45 47
-16.019316 3.605519 64.123634 69 44 46
-16.019316 3.743748 64.123634 69 42 46
-17.701536 4.289631 70.857384 67 41 45
-17.829191 4.474412 71.368370 66 39 44
-17.829191 4.628258 71.368370 64 38 44
-17.786434 4.770637 71.197220 63 37 42
-17.786434 4.924114 71.197220 62 36 41
-17.743883 5.065444 71.026894 62 36 41
-17.743883 5.218554 71.026894 63 36 42
-17.701536 5.358844 70.857384 64 36 42
-17.701536 5.511588 70.857384 64 37 43
-17.872152 6.798447 71.540344 62 40 44
-13.889407 5.403287 55.597832 61 39 42
-13.915466 5.533500 55.702145 63 41 44
-13.915466 5.653575 55.702145 66 44 46
-13.941623 5.784503 55.806847 66 44 45
-13.941623 5.904803 55.806847 66 45 45
-14.020687 6.059273 56.123333 66 46 46
-17.786434 7.840181 71.197220 66 46 47
-17.786434 7.993658 71.197220 65 46 48
-17.743883 8.127645 71.026894 63 46 49
-17.786434 8.300612 71.197220 61 46 49
-15.711417 -3.133856 63.438553 99 55 58
-15.711417 -2.997104 63.438553 98 54 58
-15.611344 -2.842133 63.034485 97 53 57
-15.479880 -2.683462 62.503666 96 52 57
-15.350613 -2.527442 61.981716 96 52 56
-15.286784 -2.383876 61.723995 95 52 56
-15.286784 -2.250820 61.723995 95 52 56
-15.223485 -2.108995 61.468410 95 52 54
-15.098446 -1.960256 60.963535 93 52 52
-15.098446 -1.828839 60.963535 92 51 51
-15.129513 -1.700915 61.088974 92 51 51
-15.160708 -1.572463 61.214931 92 51 52
-15.067507 -1.431649 60.838612 92 51 53
-15.067507 -1.300501 60.838612 92 52 53
-15.129513 -1.174166 61.088974 91 52 54
-15.223485 -1.048954 61.468410 90 52 54
-15.318632 -0.922176 61.852589 90 51 54
-15.350613 -0.790490 61.981716 89 50 54
-15.382727 -0.658252 62.111385 88 50 53
-15.447360 -0.526564 62.372356 87 50 53
-15.447360 -0.392110 62.372356 87 51 52
-15.447360 -0.257657 62.372356 88 51 52
-15.479880 -0.123462 62.503666 89 52 53
-15.479880 0.011275 62.503666 89 53 54
-15.447360 0.145705 62.372356 89 53 54
-15.479880 0.280748 62.503666 88 53 54
-15.644561 0.419905 63.168602 86 53 54
-15.745061 0.559648 63.574394 85 52 54
-15.846861 0.701197 63.985435 85 52 53
-16.019484 0.848269 64.682442 85 52 53
-16.376266 1.009700 66.123032 85 51 52
-16.376266 1.152239 66.123032 84 51 51
-16.376266 1.294778 66.123032 83 50 51
-16.376266 1.437317 66.123032 81 50 50
-16.376266 1.579856 66.123032 79 48 49
-16.339874 1.718568 65.976097 77 47 48
-16.303644 1.856664 65.829803 75 45 47
-16.303644 1.998571 65.829803 73 45 47
-16.303644 2.140478 65.829803 73 44 46
-16.267574 2.277335 65.684166 72 44 46
-16.231663 2.413588 65.539169 72 44 46
-16.160315 2.543638 65.251083 72 43 46
-15.984659 2.655121 64.541832 72 44 46
-15.915462 2.782155 64.262428 71 44 47
-15.915462 2.920683 64.262428 71 45 47
-15.915462 3.059211 64.262428 71 45 48
-15.881087 3.190833 64.123634 71 46 48
-15.881087 3.329062 64.123634 71 46 48
-15.881087 3.467290 64.123634 70 45 48
-15.846861 3.597749 63.985435 69 44 47
-15.846861 3.735680 63.985435 68 42 47
-17.465424 4.269253 70.520767 67 40 46
-17.675344 4.474412 71.368370 65 39 45
-17.675344 4.628258 71.368370 64 38 44
-17.590775 4.759223 71.026894 63 36 42
-17.590775 4.912333 71.026894 62 35 41
-17.590775 5.065444 71.026894 63 36 41
-17.548790 5.206099 70.857384 63 36 42
-17.548790 5.358844 70.857384 64 36 43
-17.507008 5.498466 70.688675 64 37 44
-17.507008 5.650846 70.688675 64 38 45
-13.847351 5.433815 55.911945 59 36 40
-13.821322 5.543901 55.806847 63 41 43
-13.821322 5.664202 55.806847 66 45 46
-13.821322 5.784503 55.806847 66 45 46
-13.821322 5.904803 55.806847 66 45 45
-13.899704 6.059273 56.123333 66 46 46
-17.675344 7.859027 71.368370 65 46 47
-17.675344 8.012874 71.368370 64 46 48
-17.675344 8.166719 71.368370 63 46 48
-17.675344 8.320566 71.368370 61 45 48
-17.846951 8.556688 72.061264 59 45 48
-18.155416 8.862606 73.306770 57 44 49
-15.574665 -3.407360 63.438553 100 55 57
-15.608016 -3.277611 63.574394 99 55 58
-15.608016 -3.140566 63.574394 99 55 58
-15.608016 -3.003521 63.574394 97 54 58
-15.475464 -2.842133 63.034485 96 53 56
-15.345144 -2.683462 62.503666 95 52 56
-15.217001 -2.527442 61.981716 94 52 55
-15.153728 -2.383876 61.723995 93 52 54
-15.153728 -2.250820 61.723995 93 52 53
-15.090980 -2.108995 61.468410 92 52 52
-14.967030 -1.960256 60.963535 92 52 51
-14.967030 -1.828839 60.963535 91 51 50
-15.059800 -1.707943 61.341408 91 51 51
-15.059800 -1.575712 61.341408 91 51 52
-15.059800 -1.443480 61.341408 92 51 53
-14.997826 -1.305853 61.088974 92 52 54
-15.090980 -1.181459 61.468410 92 52 54
-15.153728 -1.053315 61.723995 91 52 54
-15.185299 -0.922176 61.852589 90 52 54
-15.248836 -0.792143 62.111385 90 51 54
-15.248836 -0.658252 62.111385 89 51 54
-15.280804 -0.525460 62.241596 89 50 53
-15.280804 -0.391288 62.241596 89 51 53
-15.280804 -0.257116 62.241596 89 52 53
-15.312906 -0.123203 62.372356 90 53 53
-15.312906 0.011251 62.372356 90 53 54
-15.280804 0.145399 62.241596 89 53 54
-15.280804 0.279571 62.241596 88 54 55
-15.345144 0.415485 62.503666 87 53 55
-15.508390 0.556075 63.168602 86 52 55
-15.608016 0.696693 63.574394 86 52 55
-15.708930 0.839128 63.985435 85 51 54
-16.161737 1.005223 65.829803 85 51 52
-16.197653 1.149679 65.976097 84 50 52
-16.197653 1.291901 65.976097 83 50 52
-16.233727 1.437317 66.123032 81 49 51
-16.233727 1.579856 66.123032 79 48 50
-16.197653 1.718568 65.976097 77 47 49
-16.161737 1.856664 65.829803 75 46 48
-16.161737 1.998571 65.829803 74 45 47
-16.125980 2.135742 65.684166 73 45 46
-16.019655 2.262320 65.251083 73 44 46
-16.019655 2.402979 65.251083 73 44 46
-15.845529 2.515990 64.541832 73 44 46
-15.776934 2.643626 64.262428 73 43 46
-15.708930 2.770163 63.985435 72 44 47
-15.742858 2.914375 64.123634 72 44 48
-15.742858 3.052604 64.123634 72 45 48
-15.708930 3.183956 63.985435 72 46 49
-15.708930 3.321887 63.985435 71 46 49
-15.708930 3.459818 63.985435 70 45 49
-15.675147 3.590012 63.847832 69 44 48
-15.675147 3.727646 63.847832 68 42 47
-17.231544 4.249067 70.187332 66 41 46
-17.479481 4.463682 71.197220 64 39 45
-17.479481 4.617159 71.197220 63 38 43
-17.396046 4.747865 70.857384 62 36 42
-17.396046 4.900609 70.857384 62 35 42
-17.396046 5.053354 70.857384 63 36 42
-17.396046 5.206099 70.857384 64 37 43
-17.354628 5.346085 70.688675 64 37 44
-17.354628 5.498466 70.688675 64 37 44
-17.354628 5.650846 70.688675 64 38 45
-18.785936 6.776690 76.518669 65 40 46
-18.785936 6.941638 76.518669 65 41 46
-18.360060 6.945480 74.783989 64 42 45
-18.176916 7.035799 74.038010 61 39 42
-17.908951 7.089325 72.946541 59 36 40
-13.726824 5.554342 55.911945 62 40 42
-13.726824 5.674869 55.911945 66 45 46
-13.701021 5.784503 55.806847 66 45 46
-13.778721 5.938290 56.123333 65 45 45
-17.521498 7.705182 71.368370 65 46 46
-17.521498 7.859027 71.368370 64 46 48
-17.521498 8.012874 71.368370 64 46 48
-17.521498 8.166719 71.368370 63 46 49
-17.521498 8.320566 71.368370 62 45 50
-17.606144 8.515351 71.713142 59 45 51
-17.908951 8.819056 72.946541 58 44 51
-17.953062 8.998412 73.126213 57 45 52
-17.997391 9.178656 73.306770 58 45 54
-18.041939 9.359791 73.488220 59 47 55
-15.570998 -3.574665 63.985435 101 56 57
-15.537513 -3.429343 63.847832 100 56 58
-15.537513 -3.291709 63.847832 99 56 59
-15.504170 -3.147306 63.710819 99 56 59
-15.470971 -3.003521 63.574394 95 54 57
-15.372220 -2.848180 63.168602 93 53 56
-15.178452 -2.677825 62.372356 93 52 55
-15.083389 -2.527442 61.981716 93 51 54
-15.020672 -2.383876 61.723995 92 51 53
-15.020672 -2.250820 61.723995 91 50 52
-14.958475 -2.108995 61.468410 90 50 50
-14.835612 -1.960256 60.963535 89 50 49
-14.835612 -1.828839 60.963535 89 50 48
-14.896791 -1.704422 61.214931 90 50 49
-14.927569 -1.575712 61.341408 91 50 51
-14.927569 -1.443480 61.341408 92 51 53
-14.927569 -1.311249 61.341408 92 52 54
-14.958475 -1.181459 61.468410 92 52 54
-15.020672 -1.053315 61.723995 92 52 54
-15.051966 -0.922176 61.852589 91 52 55
-15.114944 -0.792143 62.111385 91 52 55
-15.146632 -0.659632 62.241596 90 51 55
-15.146632 -0.525460 62.241596 90 51 54
-15.146632 -0.391288 62.241596 90 51 54
-15.146632 -0.257116 62.241596 91 52 54
-15.178452 -0.123203 62.372356 91 53 54
-15.178452 0.011251 62.372356 91 53 54
-15.114944 0.145095 62.111385 91 53 55
-15.114944 0.278986 62.111385 90 53 55
-15.178452 0.414612 62.372356 88 53 55
-15.210407 0.550222 62.503666 87 52 56
-15.404997 0.693722 63.303288 86 51 56
-15.570998 0.839128 63.985435 86 51 55
-15.774985 0.989859 64.823669 86 50 54
-15.949102 1.142065 65.539169 84 49 53
-15.984388 1.286185 65.684166 83 49 52
-15.984388 1.427778 65.684166 81 48 52
-16.091188 1.579856 66.123032 79 48 51
-16.091188 1.722395 66.123032 78 47 49
-16.055429 1.860790 65.976097 76 46 48
-16.055429 2.003012 65.976097 74 45 47
-15.984388 2.135742 65.684166 74 45 46
-15.774985 2.247501 64.823669 74 45 46
-15.774985 2.387239 64.823669 73 45 46
-15.706399 2.515990 64.541832 74 44 46
-15.570998 2.632232 63.985435 74 44 46
-15.570998 2.770163 63.985435 73 43 47
-15.604630 2.914375 64.123634 73 44 48
-15.604630 3.052604 64.123634 73 45 49
-15.604630 3.190833 64.123634 73 46 50
-15.604630 3.329062 64.123634 72 46 49
-15.537513 3.452377 63.847832 71 45 49
-15.537513 3.590012 63.847832 69 44 48
-15.537513 3.727646 63.847832 67 42 47
-17.039961 4.239046 70.021797 65 41 46
-17.284554 4.453003 71.026894 63 39 44
-17.284554 4.606113 71.026894 62 38 43
-17.202246 4.736561 70.688675 62 36 43
-17.202246 4.888942 70.688675 62 36 42
-17.202246 5.041323 70.688675 63 36 43
-17.202246 5.193704 70.688675 64 37 44
-17.202246 5.346085 70.688675 64 38 45
-17.202246 5.498466 70.688675 64 38 44
-17.202246 5.650846 70.688675 63 38 44
-17.409502 5.873146 71.540344 63 38 45
-18.620989 6.611741 76.518669 63 40 45
-18.573120 6.759269 76.321960 64 41 45
-18.525496 6.906040 76.126259 64 42 45
-18.153124 6.928029 74.596085 64 42 45
-18.017315 7.035799 74.038010 62 40 42
-17.839367 7.124334 73.306770 60 38 41
-17.751703 7.246573 72.946541 63 41 44
-13.683605 5.707113 56.229626 66 45 47
-17.367653 7.397489 71.368370 66 45 46
-17.367653 7.551335 71.368370 65 45 47
-17.367653 7.705182 71.368370 64 45 48
-17.367653 7.859027 71.368370 64 46 49
-17.367653 8.012874 71.368370 63 46 50
-17.326004 8.147136 71.197220 63 46 51
-17.367653 8.320566 71.368370 62 45 53
-17.367653 8.474412 71.368370 60 45 53
-17.621813 8.754525 72.412788 59 44 53
-17.751703 8.976303 72.946541 58 45 54
-17.751703 9.133552 72.946541 59 46 54
-17.839367 9.336680 73.306770 60 48 55
-17.883524 9.518207 73.488220 63 49 57
-17.883524 9.676622 73.488220 67 49 59
-15.533500 -3.875585 64.401825 103 57 59
-15.567268 -3.744879 64.541832 103 57 57
-15.533500 -3.597927 64.401825 102 56 57
-15.466400 -3.444157 64.123634 102 56 58
-15.466400 -3.305928 64.123634 100 56 59
-15.433067 -3.160872 63.985435 99 55 59
-15.366831 -3.009967 63.710819 96 54 57
-15.236050 -2.848180 63.168602 94 52 56
-15.043999 -2.677825 62.372356 93 52 56
-14.949778 -2.527442 61.981716 93 52 55
-14.887616 -2.383876 61.723995 91 50 53
-14.856729 -2.246150 61.595940 89 48 50
-14.764832 -2.100298 61.214931 87 47 47
-14.704196 -1.960256 60.963535 87 48 47
-14.704196 -1.828839 60.963535 88 48 47
-14.764832 -1.704422 61.214931 89 48 48
-14.795338 -1.575712 61.341408 90 49 50
-14.764832 -1.440504 61.214931 92 50 52
-14.795338 -1.311249 61.341408 93 51 53
-14.825970 -1.181459 61.468410 93 52 54
-14.856729 -1.051130 61.595940 93 52 54
-14.918632 -0.922176 61.852589 92 52 55
-14.981053 -0.792143 62.111385 91 52 55
-15.012460 -0.659632 62.241596 91 51 55
-15.012460 -0.525460 62.241596 90 51 54
-15.012460 -0.391288 62.241596 91 51 54
-15.012460 -0.257116 62.241596 92 52 54
-15.043999 -0.123203 62.372356 92 53 55
-15.043999 0.011251 62.372356 92 54 55
-15.012460 0.145399 62.241596 92 54 55
-15.012460 0.279571 62.241596 91 54 56
-15.043999 0.414612 62.372356 89 53 56
-15.043999 0.549066 62.372356 88 52 56
-15.139415 0.687855 62.767956 87 51 56
-15.333926 0.833738 63.574394 86 50 56
-15.466400 0.979169 64.123634 85 49 55
-15.635247 1.129597 64.823669 85 49 54
-15.807822 1.283345 65.539169 83 48 53
-15.984248 1.440526 66.270630 81 48 52
-15.984248 1.583383 66.270630 80 47 51
-15.984248 1.726240 66.270630 78 47 49
-15.948648 1.864934 66.123032 76 46 48
-15.913207 2.003012 65.976097 75 45 47
-15.877923 2.140478 65.829803 75 45 47
-15.877923 2.282385 65.829803 75 45 47
-15.738338 2.402979 65.251083 74 45 47
-15.738338 2.543638 65.251083 75 44 47
-15.499877 2.643626 64.262428 75 44 47
-15.499877 2.782155 64.262428 74 44 47
-15.601184 2.939772 64.682442 74 44 48
-15.601184 3.079206 64.682442 74 45 49
-15.466400 3.190833 64.123634 73 45 49
-15.466400 3.329062 64.123634 72 45 49
-15.466400 3.467290 64.123634 70 45 48
-15.433067 3.597749 63.985435 68 44 47
-15.433067 3.735680 63.985435 66 42 46
-16.731176 4.199429 69.367386 64 41 45
-17.049866 4.431799 70.688675 63 39 44
-17.049866 4.584180 70.688675 61 38 43
-17.009367 4.725310 70.520767 61 36 43
-16.969061 4.865771 70.353653 62 36 43
-17.009367 5.029348 70.520767 63 37 44
-17.009367 5.181367 70.520767 64 38 45
-17.009367 5.333386 70.520767 64 39 46
-17.049866 5.498466 70.688675 64 39 45
-17.049866 5.650846 70.688675 64 39 44
-17.296965 5.887332 71.713142 63 39 44
-18.745926 6.548051 77.720528 63 39 44
-18.408594 6.594744 76.321960 63 40 45
-18.361393 6.741937 76.126259 64 41 45
-18.037642 6.784271 74.783989 64 42 45
-17.992319 6.928029 74.596085 64 43 45
-17.902359 7.053389 74.223106 63 41 43
-17.681341 7.124334 73.306770 62 40 43
-17.681341 7.282359 73.306770 64 43 45
-17.380930 7.313970 72.061264 66 45 47
-17.338846 7.451224 71.886787 65 45 47
-17.213806 7.551335 71.368370 64 45 48
-17.213806 7.705182 71.368370 63 45 49
-17.172525 7.840181 71.197220 62 45 50
-17.172525 7.993658 71.197220 62 45 52
-17.172525 8.147136 71.197220 62 45 54
-17.172525 8.300612 71.197220 61 45 55
-17.213806 8.474412 71.368370 60 45 55
-17.380930 8.712028 72.061264 59 44 56
-17.465715 8.910624 72.412788 59 45 55
-17.594456 9.133552 72.946541 60 46 56
-17.637791 9.313684 73.126213 62 48 56
-17.637791 9.471319 73.126213 65 49 57
-17.681341 9.652730 73.306770 68 50 58
-17.769091 9.859443 73.670578 70 50 59
-17.769091 10.018251 73.670578 71 50 59
-17.769091 10.177061 73.670578 70 50 58
-15.529416 -4.049551 64.965523 104 58 61
-15.597678 -3.926691 65.251083 104 57 59
-15.597678 -3.786032 65.251083 103 57 57
-15.461750 -3.613605 64.682442 102 56 58
-15.428138 -3.466619 64.541832 102 57 58
-15.394671 -3.320270 64.401825 100 56 59
-15.328172 -3.167699 64.123634 99 55 59
-15.262244 -3.016440 63.847832 97 55 59
-15.099879 -2.848180 63.168602 96 54 58
-14.909545 -2.677825 62.372356 95 54 58
-14.816166 -2.527442 61.981716 95 53 56
-14.785298 -2.388843 61.852589 92 49 52
-14.723948 -2.246150 61.595940 88 45 48
-14.632873 -2.100298 61.214931 86 45 45
-14.602764 -1.964289 61.088974 86 45 46
-14.602764 -1.832602 61.088974 87 46 47
-14.632873 -1.704422 61.214931 89 47 48
-14.632873 -1.572463 61.214931 91 49 51
-14.632873 -1.440504 61.214931 93 50 52
-14.663106 -1.311249 61.341408 94 52 54
-14.693464 -1.181459 61.468410 94 52 54
-14.723948 -1.051130 61.595940 94 52 54
-14.785298 -0.922176 61.852589 93 52 55
-14.878288 -0.793804 62.241596 92 52 55
-14.878288 -0.659632 62.241596 91 51 55
-14.878288 -0.525460 62.241596 91 51 54
-14.878288 -0.391288 62.241596 92 51 54
-14.878288 -0.257116 62.241596 93 52 54
-14.909545 -0.123203 62.372356 93 53 55
-14.909545 0.011251 62.372356 93 54 56
-14.878288 0.145399 62.241596 92 54 56
-14.878288 0.279571 62.241596 91 54 56
-14.878288 0.413743 62.241596 90 53 56
-14.909545 0.549066 62.372356 88 51 55
-14.909545 0.683520 62.372356 86 50 55
-15.067821 0.826657 63.034485 85 49 56
-15.229492 0.972866 63.710819 85 48 55
-15.461750 1.127136 64.682442 84 48 54
-17.876432 1.464371 74.783989 83 48 52
-17.876432 1.625581 74.783989 82 48 52
-17.523317 1.751495 73.306770 81 48 52
-15.912429 1.733981 66.567810 79 47 50
-15.912429 1.877479 66.567810 78 46 49
-15.912429 2.020976 66.567810 77 46 48
-15.948187 2.169338 66.717400 77 46 48
-16.240145 2.355505 67.938766 76 45 48
-16.240145 2.501958 67.938766 76 45 48
-16.240145 2.648411 67.938766 76 45 47
-15.841392 2.726240 66.270630 75 44 47
-15.841392 2.869097 66.270630 75 44 48
-15.841392 3.011954 66.270630 75 44 48
-15.770986 3.140790 65.976097 75 45 49
-15.701202 3.268486 65.684166 74 45 49
-15.666542 3.402551 65.539169 73 45 48
-15.428138 3.489903 64.541832 71 45 48
-15.428138 3.629034 64.541832 68 44 47
-16.352404 3.993906 68.408394 66 42 46
-16.466227 4.170198 68.884552 64 41 46
-16.817402 4.410795 70.353653 63 39 45
-16.817402 4.562454 70.353653 61 38 44
-16.777643 4.702968 70.187332 60 37 43
-16.777643 4.854268 70.187332 61 37 44
-16.817402 5.017430 70.353653 63 37 45
-16.857347 5.181367 70.520767 64 39 46
-16.857347 5.333386 70.520767 64 40 46
-16.857347 5.485405 70.520767 64 40 45
-16.897484 5.650846 70.688675 64 40 45
-17.142376 5.887332 71.713142 64 40 44
-18.481623 6.513947 77.315735 64 41 44
-18.150751 6.561011 75.931564 64 42 44
-18.150751 6.724694 75.931564 65 42 45
-17.876432 6.784271 74.783989 65 43 45
-17.831516 6.928029 74.596085 65 44 44
-17.742359 7.053389 74.223106 65 43 44
-17.523317 7.124334 73.306770 65 43 44
-17.523317 7.282359 73.306770 66 44 46
-17.183882 7.296260 71.886787 66 45 48
-17.183882 7.451224 71.886787 65 45 48
-16.978333 7.515204 71.026894 63 44 49
-16.978333 7.668314 71.026894 62 44 49
-17.019049 7.840181 71.197220 61 44 51
-17.019049 7.993658 71.197220 61 45 53
-17.019049 8.147136 71.197220 61 45 56
-17.059959 8.320566 71.368370 61 45 57
-17.059959 8.474412 71.368370 60 45 58
-17.225590 8.712028 72.061264 60 44 58
-17.267502 8.888943 72.236603 61 44 57
-17.437208 9.133552 72.946541 62 46 57
-17.480156 9.313684 73.126213 65 48 57
-17.480156 9.471319 73.126213 67 49 57
-17.523317 9.652730 73.306770 69 50 57
-17.610281 9.859443 73.670578 70 49 56
-17.610281 10.018251 73.670578 70 49 56
-17.610281 10.177061 73.670578 70 50 56
-17.610281 10.335870 73.670578 69 49 55
-17.610281 10.494678 73.670578 68 48 54
-15.491065 -4.217278 65.394806 105 58 61
-15.491065 -4.076310 65.394806 104 58 59
-15.525261 -3.944028 65.539169 104 57 58
-15.525261 -3.802747 65.539169 103 56 57
-15.491065 -3.653402 65.394806 102 56 57
-15.355771 -3.481757 64.823669 102 56 58
-15.289007 -3.327488 64.541832 101 56 59
-15.255842 -3.181442 64.401825 100 55 59
-15.124609 -3.016440 63.847832 99 55 59
-14.963709 -2.848180 63.168602 97 54 58
-14.806196 -2.683462 62.503666 96 54 58
-14.744116 -2.538039 62.241596 95 52 55
-14.651965 -2.388843 61.852589 92 49 51
-14.591168 -2.246150 61.595940 87 44 47
-14.530874 -2.104637 61.341408 85 43 45
-14.500915 -1.968339 61.214931 86 43 46
-14.500915 -1.836380 61.214931 87 44 47
-14.500915 -1.704422 61.214931 89 46 49
-14.530874 -1.575712 61.341408 91 48 51
-14.530874 -1.443480 61.341408 93 50 53
-14.530874 -1.311249 61.341408 95 52 54
-14.560959 -1.181459 61.468410 95 51 54
-14.591168 -1.051130 61.595940 93 50 54
-14.651965 -0.922176 61.852589 93 51 55
-14.744116 -0.793804 62.241596 92 51 55
-14.744116 -0.659632 62.241596 91 50 54
-14.744116 -0.525460 62.241596 91 50 53
-14.744116 -0.391288 62.241596 92 51 54
-14.744116 -0.257116 62.241596 94 52 55
-14.775091 -0.123203 62.372356 95 53 56
-14.775091 0.011251 62.372356 94 54 57
-14.744116 0.145399 62.241596 93 55 57
-14.744116 0.279571 62.241596 92 55 57
-14.744116 0.413743 62.241596 90 53 55
-14.744116 0.547915 62.241596 88 51 54
-14.775091 0.683520 62.372356 86 49 54
-14.837433 0.821425 62.635532 84 48 54
-14.995615 0.966643 63.303288 84 48 54
-17.715223 1.786790 74.783989 81 48 51
-17.408276 1.914246 73.488220 80 48 51
-16.906115 2.012874 71.368370 79 47 50
-16.317734 2.091312 68.884552 79 46 49
-16.865572 2.315001 71.197220 78 46 48
-16.317734 2.388296 68.884552 77 46 48
-16.279961 2.530915 68.725098 77 45 48
-16.242363 2.672876 68.566376 76 45 47
-15.875719 2.757010 67.018608 75 44 47
-15.875719 2.901480 67.018608 75 44 47
-15.875719 3.045949 67.018608 75 44 48
-15.733654 3.161869 66.418884 75 45 48
-15.733654 3.305046 66.418884 75 45 48
-15.698534 3.440526 66.270630 73 45 48
-15.698534 3.583383 66.270630 71 45 48
-15.875719 3.768297 67.018608 69 44 47
-16.242363 4.003130 68.566376 66 43 47
-16.317734 4.170198 68.884552 64 41 46
-16.587132 4.389989 70.021797 63 40 45
-16.587132 4.540933 70.021797 62 39 44
-16.470592 4.658912 69.529839 60 37 43
-16.470592 4.808795 69.529839 61 37 43
-16.626343 5.005569 70.187332 62 38 45
-16.665743 5.169089 70.353653 64 39 46
-16.705328 5.333386 70.520767 65 40 46
-16.705328 5.485405 70.520767 65 41 46
-17.804920 6.494571 75.162636 65 43 44
-17.804920 6.656596 75.162636 66 44 45
-17.670712 6.767225 74.596085 66 44 45
-17.582359 6.893389 74.223106 67 44 45
-17.582359 7.053389 74.223106 67 44 45
-17.365292 7.124334 73.306770 67 44 45
-17.322521 7.264422 73.126213 67 45 46
-17.028919 7.296260 71.886787 66 45 47
-16.987785 7.433226 71.713142 64 45 48
-16.825224 7.515204 71.026894 63 44 49
-16.825224 7.668314 71.026894 61 44 50
-16.865572 7.840181 71.197220 60 45 52
-16.906115 8.012874 71.368370 60 45 54
-16.906115 8.166719 71.368370 61 45 56
-16.906115 8.320566 71.368370 61 45 57
-16.946852 8.494832 71.540344 60 45 58
-17.070251 8.712028 72.061264 61 44 58
-17.153521 8.910624 72.412788 62 44 58
-17.322521 9.156048 73.126213 64 46 57
-17.322521 9.313684 73.126213 67 48 58
-17.322521 9.471319 73.126213 69 49 57
-17.365292 9.652730 73.306770 70 49 56
-17.451473 9.859443 73.670578 70 48 54
-17.451473 10.018251 73.670578 69 48 53
-17.451473 10.177061 73.670578 70 49 54
-17.451473 10.335870 73.670578 70 49 55
-17.451473 10.494678 73.670578 68 49 54
-17.322521 10.574767 73.126213 66 48 52
-16.946852 10.499652 71.540344 65 48 51
-15.452203 -4.387239 65.829803 106 58 61
-15.383981 -4.226588 65.539169 105 58 60
-15.383981 -4.085308 65.539169 105 57 59
-15.383981 -3.944028 65.539169 105 57 58
-15.383981 -3.802747 65.539169 104 56 57
-15.350096 -3.653402 65.394806 103 55 57
-15.216034 -3.481757 64.823669 103 56 58
-15.182883 -3.334738 64.682442 102 56 59
-15.117014 -3.181442 64.401825 101 55 59
-14.986975 -3.016440 63.847832 99 55 59
-14.827539 -2.848180 63.168602 97 53 58
-14.671460 -2.683462 62.503666 96 52 56
-14.640637 -2.543371 62.372356 94 50 54
-14.548943 -2.393830 61.981716 91 48 51
-14.488448 -2.250820 61.723995 88 44 46
-14.428454 -2.108995 61.468410 86 42 45
-14.428454 -1.976490 61.468410 86 42 46
-14.428454 -1.843984 61.468410 87 44 48
-14.428454 -1.711479 61.468410 89 46 50
-14.428454 -1.578974 61.468410 91 47 52
-14.398643 -1.443480 61.341408 93 49 53
-14.428454 -1.313964 61.468410 95 51 54
-14.428454 -1.181459 61.468410 94 50 53
-14.458388 -1.051130 61.595940 93 49 53
-14.548943 -0.924101 61.981716 92 49 53
-14.609944 -0.793804 62.241596 92 49 53
-14.640637 -0.661018 62.372356 90 48 52
-14.609944 -0.525460 62.241596 90 48 51
-14.609944 -0.391288 62.241596 92 50 53
-14.609944 -0.257116 62.241596 95 52 55
-14.671460 -0.123462 62.503666 96 53 57
-14.640637 0.011251 62.372356 96 54 58
-14.609944 0.145399 62.241596 95 55 58
-14.609944 0.279571 62.241596 92 55 57
-14.609944 0.413743 62.241596 90 53 55
-14.609944 0.547915 62.241596 87 51 53
-14.609944 0.682087 62.241596 85 49 51
-14.640637 0.817974 62.372356 83 47 51
-14.859155 0.966643 63.303288 83 47 51
-17.598341 1.629686 74.972832 82 48 51
-17.554014 1.786790 74.783989 81 48 51
-17.378912 1.928567 74.038010 80 47 51
-17.207268 2.067544 73.306770 80 47 50
-16.997423 2.198428 72.412788 79 46 49
-16.956066 2.348797 72.236603 78 46 49
-17.164885 2.535358 73.126213 78 46 49
-16.792635 2.634592 71.540344 77 45 48
-16.131813 2.679064 68.725098 76 45 47
-15.766840 2.763248 67.170235 75 44 47
-15.766840 2.908044 67.170235 75 44 46
-15.874586 3.073703 67.629250 74 44 47
-15.874586 3.219489 67.629250 74 45 47
-15.874586 3.365274 67.629250 74 46 48
-15.731249 3.479358 67.018608 73 45 48
-15.731249 3.623827 67.018608 71 44 48
-16.094557 3.855325 68.566376 70 44 48
-16.169243 4.021707 68.884552 68 43 47
-16.206844 4.179896 69.044746 66 42 47
-16.320711 4.359146 69.529839 65 41 47
-16.320711 4.509029 69.529839 63 40 46
-16.244623 4.637192 69.205696 61 39 44
-16.244623 4.786376 69.205696 61 38 44
-16.397514 4.982013 69.857040 63 39 45
-16.514084 5.169089 70.353653 64 40 46
-16.514084 5.320747 70.353653 65 41 46
-16.514084 5.472406 70.353653 66 42 47
-16.752268 5.705182 71.368370 66 43 46
-16.833197 5.887332 71.713142 66 43 45
-16.833197 6.041922 71.713142 66 43 45
-17.422358 6.413389 74.223106 66 43 45
-17.466024 6.589863 74.409126 67 44 45
-17.422358 6.733389 74.223106 67 44 46
-17.422358 6.893389 74.223106 68 44 46
-17.378912 7.035799 74.038010 69 45 46
-17.207268 7.124334 73.306770 68 45 46
-17.164885 7.264422 73.126213 68 45 46
-16.833197 7.278636 71.713142 67 45 47
-16.792635 7.415314 71.540344 65 45 48
-16.632322 7.497268 70.857384 62 44 48
-16.632322 7.650013 70.857384 61 44 49
-16.752268 7.859027 71.368370 60 44 50
-16.752268 8.012874 71.368370 60 44 52
-16.792635 8.186399 71.540344 60 45 55
-16.792635 8.340615 71.540344 60 45 56
-16.833197 8.515351 71.713142 61 45 57
-16.914911 8.712028 72.061264 62 45 57
-17.038980 8.932409 72.589836 63 44 57
-17.164885 9.156048 73.126213 66 46 57
-17.164885 9.313684 73.126213 68 48 57
-17.164885 9.471319 73.126213 71 49 57
-17.207268 9.652730 73.306770 72 50 56
-17.292664 9.859443 73.670578 71 49 54
-17.292664 10.018251 73.670578 70 48 53
-17.292664 10.177061 73.670578 70 48 53
-17.378912 10.387420 74.038010 70 49 54
-17.378912 10.547021 74.038010 69 49 53
-17.249859 10.627117 73.488220 68 48 52
-16.752268 10.474412 71.368370 67 48 50
-16.320711 10.354463 69.529839 66 47 50
-16.094557 10.358788 68.566376 65 46 49
-16.094557 10.506595 68.566376 65 45 48
-15.447301 -4.712852 66.418884 106 58 60
-15.276423 -4.519125 65.684166 106 58 60
-15.276423 -4.377532 65.684166 106 58 60
-15.242701 -4.226588 65.539169 106 58 59
-15.209126 -4.076310 65.394806 106 57 59
-15.209126 -3.935340 65.394806 105 57 58
-15.209126 -3.794371 65.394806 105 56 58
-15.175699 -3.645373 65.251083 104 56 59
-15.076296 -3.481757 64.823669 103 56 59
-14.978185 -3.320270 64.401825 102 55 60
-14.881344 -3.160872 63.985435 100 55 59
-14.785746 -3.003521 63.574394 98 54 58
-14.691369 -2.848180 63.168602 97 52 57
-14.536723 -2.683462 62.503666 95 51 55
-14.536723 -2.548725 62.503666 93 49 53
-14.415331 -2.393830 61.981716 91 47 50
-14.355392 -2.250820 61.723995 88 45 47
-14.325608 -2.113370 61.595940 87 42 46
-14.325608 -1.980590 61.595940 87 42 46
-14.325608 -1.847810 61.595940 88 44 49
-14.325608 -1.715030 61.595940 90 46 51
-14.355392 -1.585540 61.723995 92 47 53
-14.325608 -1.449470 61.595940 93 48 53
-14.325608 -1.316690 61.595940 93 49 53
-14.325608 -1.183910 61.595940 93 48 52
-14.355392 -1.053315 61.723995 93 48 52
-14.475772 -0.927976 62.241596 92 48 52
-14.567391 -0.798828 62.635532 92 48 52
-14.567391 -0.663807 62.635532 90 47 51
-14.475772 -0.525460 62.241596 89 47 50
-14.475772 -0.391288 62.241596 92 48 52
-14.536723 -0.258199 62.503666 95 51 55
-14.536723 -0.123462 62.503666 96 52 57
-14.536723 0.011275 62.503666 97 54 58
-14.506184 0.145705 62.372356 97 55 58
-14.475772 0.279571 62.241596 94 55 57
-14.475772 0.413743 62.241596 90 53 54
-14.475772 0.547915 62.241596 87 50 51
-14.506184 0.683520 62.372356 84 48 49
-14.506184 0.817974 62.372356 83 47 49
-14.722693 0.966643 63.303288 82 46 49
-17.614651 1.646315 75.737862 81 48 51
-17.392805 1.786790 74.783989 81 48 51
-17.305622 1.938234 74.409126 80 47 52
-17.133854 2.077805 73.670578 80 46 51
-17.007250 2.220087 73.126213 80 46 50
-16.965464 2.371881 72.946541 79 47 50
-14.506184 2.431419 62.372356 76 45 48
-14.506184 2.565873 62.372356 76 45 47
-15.764710 2.934602 67.783661 75 45 47
-15.983665 3.123508 68.725098 74 45 46
-15.946752 3.264100 68.566376 75 45 47
-15.946752 3.411906 68.566376 75 46 48
-15.946752 3.559712 68.566376 74 45 49
-15.946752 3.707518 68.566376 72 45 49
-16.095440 3.891272 69.205696 70 44 48
-16.095440 4.040456 69.205696 69 44 48
-16.095440 4.189640 69.205696 68 43 47
-16.095440 4.338824 69.205696 67 42 46
-16.095440 4.488008 69.205696 66 42 46
-16.058008 4.626408 69.044746 64 41 45
-16.058008 4.775245 69.044746 63 40 45
-16.208788 4.970318 69.693054 63 40 45
-16.362425 5.169089 70.353653 64 41 45
-16.362425 5.320747 70.353653 65 42 46
-16.323744 5.459469 70.187332 66 43 46
-16.323744 5.610769 70.187332 66 43 46
-16.598421 5.859027 71.368370 66 43 46
-16.598421 6.012874 71.368370 67 43 45
-16.638418 6.181580 71.540344 67 44 45
-17.176476 6.540685 73.853836 68 45 46
-17.219311 6.716597 74.038010 68 45 46
-17.176476 6.859093 73.853836 69 45 46
-17.091444 6.983553 73.488220 69 45 46
-17.007250 7.106787 73.126213 69 45 46
-17.007250 7.264422 73.126213 69 45 46
-16.638418 7.261097 71.540344 67 45 47
-16.638418 7.415314 71.540344 65 45 47
-16.519003 7.515204 71.026894 63 44 47
-16.519003 7.668314 71.026894 61 44 47
-16.598421 7.859027 71.368370 59 43 48
-16.638418 8.032182 71.540344 58 43 49
-16.678608 8.206173 71.713142 59 45 52
-16.678608 8.360762 71.713142 60 45 55
-16.718990 8.535970 71.886787 62 45 57
-16.759571 8.712028 72.061264 63 45 57
-16.923882 8.954303 72.767754 65 45 57
-17.007250 9.156048 73.126213 68 47 57
-17.007250 9.313684 73.126213 70 48 57
-17.049242 9.494705 73.306770 73 49 57
-17.133854 9.700634 73.670578 74 50 57
-17.133854 9.859443 73.670578 74 49 55
-17.091444 9.993454 73.488220 72 48 54
-17.091444 10.151870 73.488220 71 48 53
-17.262358 10.413388 74.223106 70 49 53
-17.262358 10.573389 74.223106 69 49 52
-17.091444 10.627117 73.488220 68 48 51
-16.519003 10.424295 71.026894 67 47 50
-16.058008 10.282222 69.044746 66 47 49
-15.910007 10.334921 68.408394 65 47 48
-15.910007 10.482386 68.408394 65 46 48
-16.095440 10.753742 69.205696 65 45 47
-16.133045 10.928401 69.367386 65 44 47
-15.101420 -4.509149 65.539169 107 59 60
-15.068157 -4.358248 65.394806 107 58 59
-14.904016 -4.171339 64.682442 107 58 59
-14.904016 -4.031905 64.682442 106 58 58
-14.904016 -3.892472 64.682442 105 57 58
-14.936558 -3.761233 64.823669 105 57 59
-14.904016 -3.613605 64.682442 104 56 60
-14.839356 -3.459099 64.401825 103 56 60
-14.743412 -3.298803 63.985435 102 56 61
-14.711706 -3.154074 63.847832 100 55 60
-14.617400 -2.997104 63.438553 97 53 58
-14.524296 -2.842133 63.034485 96 52 56
-14.432370 -2.689123 62.635532 94 50 54
-14.401986 -2.548725 62.503666 92 48 52
-14.311597 -2.398838 62.111385 90 47 49
-14.251966 -2.255509 61.852589 89 46 48
-14.222336 -2.117764 61.723995 88 45 47
-14.222336 -1.984708 61.723995 87 44 47
-14.222336 -1.851652 61.723995 88 45 50
-14.222336 -1.718596 61.723995 90 47 52
-14.251966 -1.588843 61.852589 92 48 54
-14.222336 -1.452483 61.723995 92 48 53
-14.222336 -1.319427 61.723995 92 48 52
-14.222336 -1.186371 61.723995 92 48 52
-14.251966 -1.055509 61.852589 92 48 52
-14.432370 -0.933849 62.635532 92 49 52
-14.432370 -0.798828 62.635532 92 49 52
-14.432370 -0.663807 62.635532 91 48 52
-14.401986 -0.527673 62.503666 91 47 51
-14.401986 -0.392936 62.503666 93 48 53
-14.401986 -0.258199 62.503666 95 49 55
-14.432370 -0.123723 62.635532 96 51 56
-14.432370 0.011298 62.635532 97 53 57
-14.401986 0.146012 62.503666 98 55 58
-14.371730 0.280159 62.372356 96 55 58
-14.371730 0.414612 62.372356 91 53 54
-14.371730 0.549066 62.372356 87 49 50
-14.371730 0.683520 62.372356 84 48 48
-14.401986 0.819696 62.503666 83 47 47
-14.648701 0.970783 63.574394 82 47 48
-17.275110 1.629686 74.972832 81 48 51
-17.145222 1.777833 74.409126 80 48 52
-17.102358 1.933389 74.223106 80 47 52
-16.975046 2.077805 73.670578 80 46 52
-16.849615 2.220087 73.126213 80 46 52
-16.933027 2.389494 73.488220 80 46 51
-14.311597 2.421246 62.111385 77 46 49
-14.311597 2.555137 62.111385 76 45 48
-15.983513 3.302233 69.367386 76 46 48
-15.946255 3.443719 69.205696 76 47 49
-15.983513 3.601298 69.367386 75 46 49
-16.058552 3.768440 69.693054 73 45 49
-16.058552 3.918675 69.693054 71 44 48
-16.020945 4.059381 69.529839 70 44 48
-15.983513 4.199429 69.367386 69 44 47
-15.946255 4.338824 69.205696 68 44 47
-15.946255 4.488008 69.205696 67 43 47
-15.872258 4.615674 68.884552 66 42 46
-15.872258 4.764166 68.884552 64 42 45
-15.983513 4.947092 69.367386 64 42 45
-16.058552 5.120553 69.693054 65 42 45
-16.134300 5.295650 70.021797 66 42 46
-16.058552 5.421022 69.693054 66 43 46
-16.020945 5.558209 69.529839 67 43 46
-16.210766 5.775724 70.353653 67 43 46
-16.210766 5.927382 70.353653 67 43 45
-16.365892 6.137214 71.026894 67 44 45
-16.808214 6.460333 72.946541 68 45 46
-17.017273 6.699889 73.853836 69 45 47
-16.975046 6.842073 73.670578 69 45 47
-16.933027 6.983553 73.488220 69 45 47
-16.849615 7.106787 73.126213 69 45 47
-16.849615 7.264422 73.126213 69 45 46
-16.524017 7.278636 71.713142 67 45 46
-16.484201 7.415314 71.540344 66 45 46
-16.444576 7.551335 71.368370 63 44 46
-16.444576 7.705182 71.368370 61 44 46
-16.564028 7.916115 71.886787 59 43 46
-16.564028 8.071078 71.886787 58 43 47
-16.564028 8.226043 71.886787 59 45 50
-16.564028 8.381006 71.886787 61 46 54
-16.604231 8.556688 72.061264 63 46 56
-16.644630 8.733225 72.236603 65 46 57
-16.849615 8.998412 73.126213 67 47 57
-16.891218 9.178656 73.306770 70 48 58
-16.891218 9.336680 73.306770 72 49 58
-16.933027 9.518207 73.488220 74 49 58
-16.975046 9.700634 73.670578 75 50 57
-16.975046 9.859443 73.670578 75 50 56
-16.933027 9.993454 73.488220 74 49 55
-16.933027 10.151870 73.488220 72 49 54
-17.102358 10.413388 74.223106 71 49 53
-17.102358 10.573389 74.223106 69 48 52
-16.849615 10.574767 73.126213 68 48 51
-16.210766 10.325487 70.353653 67 47 50
-15.872258 10.258366 68.884552 66 47 48
-15.762543 10.334921 68.408394 65 47 47
-15.762543 10.482386 68.408394 65 46 47
-15.946255 10.753742 69.205696 65 45 47
-15.983513 10.928401 69.367386 66 45 47
-16.020945 11.103877 69.529839 66 44 46
-16.365892 11.496066 71.026894 65 43 45
-16.444576 11.705181 71.368370 64 42 44
-13.473048 -4.442633 59.024338 108 61 63
-14.089279 -4.512774 61.723995 108 60 61
-14.927188 -4.640186 65.394806 109 60 60
-14.605481 -4.402251 63.985435 109 59 60
-14.605481 -4.264320 63.985435 108 58 60
-14.700528 -4.153242 64.401825 107 58 59
-14.700528 -4.014413 64.401825 106 58 59
-14.700528 -3.875585 64.401825 105 57 59
-14.700528 -3.736756 64.401825 105 57 59
-14.668709 -3.590140 64.262428 104 56 61
-14.605481 -3.436734 63.985435 103 56 62
-14.574072 -3.291709 63.847832 102 56 62
-14.511656 -3.140566 63.574394 100 55 61
-14.449773 -2.990713 63.303288 97 54 59
-14.388414 -2.842133 63.034485 96 52 56
-14.327576 -2.694809 62.767956 94 50 53
-14.267249 -2.548725 62.503666 93 49 51
-14.207428 -2.403867 62.241596 91 48 50
-14.118632 -2.255509 61.852589 90 47 49
-14.118632 -2.122176 61.852589 89 47 49
-14.118632 -1.988843 61.852589 89 47 49
-14.118632 -1.855509 61.852589 90 48 52
-14.118632 -1.722176 61.852589 91 49 54
-14.118632 -1.588843 61.852589 93 50 56
-14.118632 -1.455509 61.852589 92 49 55
-14.089279 -1.319427 61.723995 91 48 53
-14.089279 -1.186371 61.723995 92 48 53
-14.118632 -1.055509 61.852589 92 48 53
-14.297349 -0.933849 62.635532 92 49 52
-14.327576 -0.800517 62.767956 92 49 52
-14.357931 -0.666620 62.900936 92 48 52
-14.297349 -0.528786 62.635532 93 47 53
-14.327576 -0.394597 62.767956 94 47 54
-14.357931 -0.259840 62.900936 95 48 55
-14.388414 -0.124511 63.034485 96 49 56
-14.388414 0.011370 63.034485 97 51 56
-14.327576 0.146629 62.767956 98 54 57
-14.297349 0.281341 62.635532 97 54 57
-14.297349 0.416362 62.635532 92 53 54
-14.297349 0.551383 62.635532 88 49 50
-14.388414 0.690776 63.034485 86 49 48
-14.419028 0.828416 63.168602 84 48 48
-14.764583 0.987703 64.682442 83 48 48
-17.070387 1.303162 74.783989 82 48 49
-17.070387 1.464371 74.783989 82 48 50
-16.984821 1.617432 74.409126 81 48 51
-16.816236 1.760187 73.670578 81 47 52
-16.774612 1.914246 73.488220 80 47 53
-16.691978 2.062452 73.126213 80 46 53
-16.529131 2.198428 72.412788 80 46 53
-16.448893 2.343096 72.061264 80 46 52
-18.516239 2.812447 81.118149 79 46 51
-14.764583 2.382038 64.682442 78 46 50
