ply
format ascii 1.0
element vertex 1230
property float x
property float y
property float z
property uchar red
property uchar green
property uchar blue
end_header
-0.589347 7.000669 55.911945 88 59 67
-0.590459 7.134633 56.017437 89 59 68
-0.590459 7.255388 56.017437 90 60 68
-0.590459 7.376143 56.017437 91 61 68
-0.589347 7.482779 55.911945 92 62 69
-0.589347 7.603306 55.911945 90 60 66
-0.589347 7.723833 55.911945 87 57 63
-0.590459 7.859161 56.017437 86 56 62
-0.592696 8.010143 56.229626 87 57 62
-0.592696 8.131355 56.229626 88 58 61
-0.592696 8.252567 56.229626 89 58 62
-0.593820 8.389668 56.336323 90 59 62
-0.594949 8.527291 56.443428 92 60 63
-0.594949 8.648965 56.443428 95 63 67
-0.597220 8.804113 56.658859 102 70 74
-0.599508 8.960451 56.875942 105 73 78
-0.599508 9.083056 56.875942 99 68 75
-0.600659 9.223331 56.985111 94 62 72
-0.599508 9.328267 56.875942 93 60 73
-0.600659 9.469012 56.985111 94 61 75
-0.599508 9.573478 56.875942 96 62 77
-0.600659 9.714694 56.985111 97 63 79
-0.719410 11.782427 68.251129 98 64 80
-0.719410 11.929553 68.251129 98 64 80
-0.717760 12.048981 68.094589 97 64 78
-0.716118 12.167862 67.938766 98 64 78
-0.716118 12.314315 67.938766 100 67 80
-0.724406 12.604989 68.725098 103 69 82
-0.724406 12.753138 68.725098 105 70 83
-0.724406 12.901286 68.725098 107 70 84
-0.722733 13.019297 68.566376 107 70 84
-0.721068 13.136764 68.408394 107 71 84
-0.721068 13.284229 68.408394 107 72 86
-0.574208 11.518084 54.475674 117 99 117
-0.574208 11.635514 54.475674 127 114 131
-0.575264 11.774550 54.575813 129 121 139
-0.576323 11.914099 54.676319 122 121 139
-0.576323 12.031962 54.676319 114 119 139
-0.576323 12.149826 54.676319 111 122 144
-0.575264 13.892198 54.575813 171 188 190
-0.574208 14.453863 54.475674 206 215 229
-0.573156 14.544607 54.375900 189 201 221
-0.566926 14.502456 53.784859 164 181 206
-0.562848 14.513229 53.397919 156 173 198
-0.560830 14.575906 53.206528 184 197 215
-0.549023 14.381326 52.086391 220 229 239
-0.548062 14.468224 51.995171 242 248 251
-0.548062 14.580307 51.995171 249 252 254
-0.575264 15.421609 54.575813 246 251 255
-0.575264 15.539256 54.575813 242 250 254
-0.575264 15.656903 54.575813 243 251 254
-0.575264 15.774550 54.575813 247 251 254
-0.574208 15.863037 54.475674 247 249 254
-0.573156 15.951200 54.375900 233 233 240
-0.570024 15.980611 54.078766 183 185 197
-0.570024 16.097187 54.078766 135 138 159
-0.566926 16.125645 53.784859 120 125 151
-0.763276 21.866720 72.412788 126 134 158
-0.770796 22.239792 73.126213 132 141 163
-0.770796 22.397427 73.126213 133 142 164
-0.759571 22.226591 72.061264 135 143 168
-0.755902 22.273806 71.713142 134 139 166
-0.755902 22.428394 71.713142 141 140 171
-0.748668 23.285540 71.026894 102 78 81
-0.748668 23.438650 71.026894 106 83 82
-0.741572 23.368141 70.353653 151 130 129
-0.556839 17.660774 52.827831 186 167 168
-0.552903 17.649038 52.454491 175 155 161
-0.502916 0.915870 59.978268 98 63 80
-0.501902 1.043055 59.857342 97 63 80
-0.502916 1.174456 59.978268 98 63 80
-0.502916 1.303748 59.978268 99 63 79
-0.502916 1.433041 59.978268 99 63 77
-0.501902 1.559184 59.857342 99 62 75
-0.501902 1.688217 59.857342 99 63 74
-0.501902 1.817249 59.857342 100 63 73
-0.500892 1.942365 59.736904 100 64 71
-0.499886 2.066979 59.616951 100 64 71
-0.498884 2.191093 59.497478 98 64 70
-0.498884 2.319350 59.497478 97 64 68
-0.498884 2.447606 59.497478 94 64 66
-0.496893 2.565580 59.259964 92 62 65
-0.494917 2.682615 59.024338 90 60 64
-0.492957 2.798724 58.790577 89 58 64
-0.492957 2.925456 58.790577 90 55 64
-0.491983 3.046157 58.674393 93 52 63
-0.491013 3.166382 58.558662 97 49 59
-0.491013 3.292614 58.558662 102 47 55
-0.491013 3.418847 58.558662 108 48 50
-0.491013 3.545080 58.558662 109 48 44
-0.489083 3.656887 58.328571 109 51 41
-0.488124 3.775207 58.214199 125 76 61
-0.488124 3.900697 58.214199 141 101 84
-0.488124 4.026187 58.214199 124 87 72
-0.488124 4.151678 58.214199 97 60 50
-0.488124 4.277168 58.214199 87 52 48
-0.487169 4.394042 58.100277 88 55 57
-0.486217 4.510460 57.986801 89 56 63
-0.486217 4.635460 57.986801 90 56 67
-0.485270 4.751180 57.873768 91 56 69
-0.483385 4.857001 57.649014 91 56 69
-0.481515 4.962003 57.425999 90 56 67
-0.479660 5.066195 57.204704 89 56 66
-0.479660 5.189509 57.204704 88 56 65
-0.482448 5.343712 57.537292 88 56 64
-0.483385 5.478360 57.649014 88 56 63
-0.482448 5.591774 57.537292 88 56 63
-0.482448 5.715805 57.537292 89 55 62
-0.481515 5.828540 57.425999 90 54 61
-0.479660 5.929394 57.204704 90 54 62
-0.476903 6.017922 56.875942 90 54 63
-0.480586 6.187945 57.315140 91 55 64
-0.482448 6.335960 57.537292 92 57 67
-0.480586 6.435049 57.315140 91 58 68
-0.478737 6.533376 57.094696 89 58 68
-0.475991 6.618270 56.767193 88 58 69
-0.471484 6.676810 56.229626 87 58 68
-0.469704 6.772369 56.017437 85 57 68
-0.469704 6.893124 56.017437 86 57 68
-0.468820 7.000669 55.911945 87 58 69
-0.469704 7.134633 56.017437 90 59 70
-0.468820 7.241724 55.911945 92 61 70
-0.468820 7.362251 55.911945 93 62 71
-0.468820 7.482779 55.911945 95 64 72
-0.467939 7.589014 55.806847 93 63 70
-0.468820 7.723833 55.911945 89 59 66
-0.469704 7.859161 56.017437 87 57 63
-0.470592 7.995001 56.123333 86 57 62
-0.471484 8.131355 56.229626 87 57 62
-0.471484 8.252567 56.229626 88 58 62
-0.472378 8.389668 56.336323 90 60 63
-0.473276 8.527291 56.443428 92 61 64
-0.473276 8.648965 56.443428 96 63 67
-0.476903 8.837846 56.875942 99 67 71
-0.477818 8.977650 56.985111 100 68 73
-0.479660 9.135560 57.204704 97 65 72
-0.480586 9.276748 57.315140 95 62 71
-0.481515 9.418483 57.425999 95 61 72
-0.481515 9.542274 57.425999 95 61 73
-0.481515 9.666064 57.425999 96 61 75
-0.482448 9.808828 57.537292 97 62 77
-0.570971 11.755403 68.094589 98 64 79
-0.570971 11.902191 68.094589 98 64 79
-0.569664 12.021408 67.938766 96 62 77
-0.568364 12.140081 67.783661 96 62 76
-0.568364 12.286200 67.783661 99 65 78
-0.574927 12.575879 68.566376 101 67 80
-0.574927 12.723684 68.566376 103 69 82
-0.574927 12.871490 68.566376 104 69 83
-0.573602 12.989298 68.408394 104 69 82
-0.573602 13.136764 68.408394 104 69 82
-0.573602 13.284229 68.408394 104 71 84
-0.456777 11.518084 54.475674 117 104 121
-0.456777 11.635514 54.475674 137 128 145
-0.457616 11.774550 54.575813 143 139 156
-0.457616 11.892198 54.575813 131 133 151
-0.457616 12.009845 54.575813 118 125 145
-0.455940 12.083069 54.375900 112 125 147
-0.455107 12.177980 54.276493 107 125 151
-0.457616 12.362785 54.575813 99 121 150
-0.457616 12.480433 54.575813 107 131 160
-0.457616 13.774550 54.575813 202 213 215
-0.456777 13.866707 54.475674 173 187 191
-0.456777 13.984138 54.475674 187 198 202
-0.455940 14.310175 54.375900 193 207 220
-0.454276 14.374736 54.177448 167 183 204
-0.454276 14.491525 54.177448 150 168 194
-0.449356 14.450100 53.590691 132 151 179
-0.446135 14.461210 53.206528 128 147 176
-0.443749 14.497960 52.922001 157 176 200
-0.436743 14.381326 52.086391 197 213 230
-0.434456 14.417724 51.813686 224 234 246
-0.434456 14.529416 51.813686 233 240 249
-0.451803 15.225691 53.882473 234 241 251
-0.455940 15.482336 54.375900 238 245 253
-0.455940 15.599552 54.375900 245 250 254
-0.455940 15.716768 54.375900 249 251 253
-0.456777 15.863037 54.475674 244 244 249
-0.456777 15.980469 54.475674 208 208 219
-0.455107 16.039042 54.276493 145 144 166
-0.453449 16.097187 54.078766 109 109 137
-0.444542 17.266706 53.016502 120 90 104
-0.444542 17.380991 53.016502 105 77 82
-0.444542 17.495277 53.016502 112 85 86
-0.444542 17.609564 53.016502 145 119 120
-0.442960 17.660774 52.827831 166 140 144
-0.441389 17.711622 52.640499 151 126 133
-0.372870 0.914023 59.857342 96 63 76
-0.372870 1.043055 59.857342 96 63 77
-0.372870 1.172088 59.857342 99 64 78
-0.372870 1.301120 59.857342 99 64 78
-0.372870 1.430152 59.857342 99 63 76
-0.372119 1.556047 59.736904 99 62 74
-0.372119 1.684820 59.736904 100 63 74
-0.372119 1.813592 59.736904 101 64 73
-0.371372 1.938465 59.616951 101 65 72
-0.370628 2.062837 59.497478 101 65 71
-0.369887 2.186711 59.378483 99 64 70
-0.369887 2.314711 59.378483 97 64 68
-0.369887 2.442711 59.378483 95 63 67
-0.369148 2.565580 59.259964 92 62 66
-0.368413 2.687959 59.141918 90 60 66
-0.367681 2.809852 59.024338 89 57 66
-0.367681 2.937088 59.024338 90 54 65
-0.365501 3.046157 58.674393 93 51 62
-0.365501 3.172639 58.674393 97 47 57
-0.364780 3.292614 58.558662 102 45 50
-0.364780 3.418847 58.558662 108 46 44
-0.364780 3.545080 58.558662 107 44 35
-0.364062 3.664086 58.443390 113 56 41
-0.363346 3.782624 58.328571 153 112 92
-0.363346 3.908360 58.328571 181 156 133
-0.363346 4.034097 58.328571 147 120 99
-0.363346 4.159834 58.328571 99 66 50
-0.362634 4.277168 58.214199 85 51 42
-0.361924 4.394042 58.100277 86 54 53
-0.361924 4.519287 58.100277 88 55 61
-0.361217 4.635460 57.986801 89 55 65
-0.359812 4.741937 57.761173 90 55 67
-0.358417 4.847588 57.537292 90 55 68
-0.357034 4.952424 57.315140 90 55 66
-0.353620 5.027448 56.767193 89 55 65
-0.353620 5.149819 56.767193 88 55 64
-0.358417 5.343712 57.537292 88 56 63
-0.358417 5.467743 57.537292 88 55 63
-0.357724 5.580958 57.425999 87 55 62
-0.357724 5.704750 57.425999 88 55 62
-0.357724 5.828540 57.425999 89 54 62
-0.357724 5.952332 57.425999 89 54 63
-0.357034 6.064393 57.315140 89 55 65
-0.358417 6.211929 57.537292 90 56 67
-0.358417 6.335960 57.537292 90 57 69
-0.358417 6.459991 57.537292 89 58 70
-0.357034 6.558601 57.315140 87 57 70
-0.353620 6.618270 56.767193 86 57 70
-0.350936 6.689479 56.336323 86 58 71
-0.349609 6.785171 56.123333 85 58 70
-0.348950 6.893124 56.017437 85 58 69
-0.348293 7.000669 55.911945 87 58 70
-0.348950 7.134633 56.017437 90 60 71
-0.348293 7.241724 55.911945 92 61 71
-0.348293 7.362251 55.911945 95 63 73
-0.347638 7.468713 55.806847 97 65 74
-0.347638 7.589014 55.806847 96 64 72
-0.347638 7.709315 55.806847 91 60 68
-0.348293 7.844360 55.911945 88 58 65
-0.348950 7.979916 56.017437 87 57 63
-0.349609 8.115984 56.123333 88 57 63
-0.350272 8.252567 56.229626 89 58 63
-0.350272 8.373779 56.229626 90 59 64
-0.350936 8.511111 56.336323 92 61 65
-0.351603 8.648965 56.443428 94 62 67
-0.354298 8.837846 56.875942 96 64 69
-0.357034 9.029644 57.315140 96 64 69
-0.357724 9.170900 57.425999 95 63 69
-0.357724 9.294691 57.425999 95 62 69
-0.359113 9.455059 57.649014 95 61 70
-0.359812 9.597968 57.761173 95 61 71
-0.359812 9.722482 57.761173 96 61 72
-0.361217 9.885460 57.986801 97 62 74
-0.421283 11.675070 67.629250 99 64 77
-0.422245 11.847843 67.783661 99 63 77
-0.422245 11.993962 67.783661 96 62 75
-0.421283 12.112427 67.629250 96 62 75
-0.422245 12.286200 67.783661 98 63 76
-0.427121 12.575879 68.566376 100 65 78
-0.427121 12.723684 68.566376 102 67 80
-0.426137 12.841833 68.408394 103 68 81
-0.426137 12.989298 68.408394 103 67 80
-0.425157 13.106565 68.251129 101 68 80
-0.425157 13.253691 68.251129 102 70 81
-0.339346 11.518084 54.475674 113 103 118
-0.339346 11.635514 54.475674 137 129 146
-0.339969 11.774550 54.575813 146 143 160
-0.339969 11.892198 54.575813 136 138 155
-0.339346 11.987808 54.475674 122 129 147
-0.337488 12.038970 54.177448 114 127 147
-0.337488 12.155758 54.177448 107 125 148
-0.338105 12.294983 54.276493 99 121 148
-0.339969 12.480433 54.575813 102 127 156
-0.339969 12.598080 54.575813 126 151 180
-0.339346 13.749276 54.475674 226 232 235
-0.338724 13.841311 54.375900 200 210 216
-0.337488 13.907583 54.177448 195 205 213
-0.336873 13.998826 54.078766 203 211 219
-0.336261 14.089737 53.980442 195 205 216
-0.336261 14.206100 53.980442 174 188 205
-0.336261 14.322465 53.980442 157 174 196
-0.336261 14.438828 53.980442 143 159 185
-0.332632 14.398121 53.397919 129 147 174
-0.330847 14.435341 53.111347 137 155 183
-0.329667 14.497960 52.922001 164 182 209
-0.324462 14.381326 52.086391 186 202 228
-0.323328 14.442929 51.904270 195 207 232
-0.323328 14.554817 51.904270 200 209 233
-0.331440 15.034687 53.206528 211 217 240
-0.335650 15.341843 53.882473 227 230 247
-0.335650 15.457995 53.882473 239 239 249
-0.338724 15.716768 54.375900 236 234 243
-0.339346 15.863037 54.475674 216 214 229
-0.330256 17.152420 53.016502 125 94 118
-0.330256 17.266706 53.016502 118 87 103
-0.330256 17.380991 53.016502 109 78 88
-0.330256 17.495277 53.016502 113 82 89
-0.329081 17.546896 52.827831 130 100 105
-0.329081 17.660774 52.827831 137 108 114
-0.243837 0.914023 59.857342 94 62 72
-0.243347 1.040957 59.736904 96 62 74
-0.243347 1.169729 59.736904 98 63 75
-0.243347 1.298502 59.736904 99 63 76
-0.242858 1.424409 59.616951 98 63 74
-0.242371 1.549811 59.497478 98 62 73
-0.242371 1.678067 59.497478 99 63 72
-0.242371 1.806324 59.497478 99 63 72
-0.242371 1.934580 59.497478 100 64 72
-0.241404 2.054602 59.259964 99 64 71
-0.241404 2.182346 59.259964 98 63 70
-0.241404 2.310091 59.259964 95 63 68
-0.241404 2.437835 59.259964 94 62 67
-0.241404 2.565580 59.259964 92 61 67
-0.240923 2.687959 59.141918 89 58 66
-0.240444 2.809852 59.024338 88 55 66
-0.240444 2.937088 59.024338 90 54 65
-0.239018 3.046157 58.674393 92 51 62
-0.239018 3.172639 58.674393 95 48 56
-0.238547 3.292614 58.558662 98 46 47
-0.238547 3.418847 58.558662 101 47 39
-0.238547 3.545080 58.558662 99 44 30
-0.238077 3.664086 58.443390 110 60 41
-0.237610 3.782624 58.328571 162 125 102
-0.237610 3.908360 58.328571 196 170 145
-0.237610 4.034097 58.328571 153 126 103
-0.237610 4.159834 58.328571 98 67 48
-0.237144 4.277168 58.214199 84 52 40
-0.237144 4.402658 58.214199 85 55 50
-0.236680 4.519287 58.100277 87 55 58
-0.236217 4.635460 57.986801 88 55 63
-0.235298 4.741937 57.761173 89 55 65
-0.234386 4.847588 57.537292 88 55 65
-0.233481 4.952424 57.315140 88 54 64
-0.230808 5.017854 56.658859 87 54 63
-0.230808 5.139991 56.658859 86 54 62
-0.233481 5.323080 57.315140 87 55 62
-0.234386 5.467743 57.537292 87 55 62
-0.233032 5.559452 57.204704 87 55 62
-0.233032 5.682766 57.204704 87 55 63
-0.233481 5.817288 57.315140 88 55 64
-0.232583 5.917991 57.094696 88 55 65
-0.233032 6.052708 57.204704 89 55 67
-0.233933 6.199914 57.425999 89 56 69
-0.234386 6.335960 57.537292 89 57 70
-0.233933 6.447496 57.425999 88 57 70
-0.233481 6.558601 57.315140 87 57 71
-0.231249 6.618270 56.767193 86 57 71
-0.229494 6.689479 56.336323 85 57 71
-0.228626 6.785171 56.123333 85 58 71
-0.228195 6.893124 56.017437 86 58 70
-0.228195 7.013878 56.017437 88 58 70
-0.227765 7.121197 55.911945 90 60 71
-0.227765 7.241724 55.911945 92 61 71
-0.227337 7.348413 55.806847 95 63 72
-0.226911 7.454700 55.702145 97 64 73
-0.226911 7.574776 55.702145 95 63 71
-0.226911 7.694851 55.702145 92 60 68
-0.227337 7.829616 55.806847 89 58 66
-0.227765 7.964888 55.911945 88 57 64
-0.228195 8.100671 56.017437 88 57 64
-0.228626 8.236967 56.123333 89 58 65
-0.229059 8.373779 56.229626 90 59 65
-0.229059 8.494991 56.229626 92 60 66
-0.229930 8.648965 56.443428 92 61 67
-0.231692 8.837846 56.875942 93 62 68
-0.233933 9.047110 57.425999 93 61 68
-0.234841 9.206515 57.649014 94 61 68
-0.235298 9.348941 57.761173 94 61 68
-0.235757 9.491921 57.873768 95 61 68
-0.236217 9.635460 57.986801 96 61 69
-0.236217 9.760460 57.986801 97 61 70
-0.239967 10.042372 58.907227 98 62 72
-0.274871 11.648535 67.475548 100 63 74
-0.275497 11.820855 67.629250 99 63 75
-0.274871 11.939445 67.475548 97 62 74
-0.275497 12.112427 67.629250 97 61 74
-0.275497 12.258213 67.629250 98 62 75
-0.279315 12.575879 68.566376 99 63 77
-0.279315 12.723684 68.566376 100 65 78
-0.278671 12.841833 68.408394 102 66 79
-0.278031 12.959438 68.251129 101 65 79
-0.277393 13.076504 68.094589 100 66 79
-0.276126 13.162912 67.783661 100 68 80
-0.275497 13.278714 67.629250 101 70 81
-0.222322 11.539256 54.575813 110 98 113
-0.222322 11.656903 54.575813 131 122 137
-0.222322 11.774550 54.575813 141 135 151
-0.222322 11.892198 54.575813 137 135 151
-0.221914 11.987808 54.475674 126 129 146
-0.220700 12.038970 54.177448 119 127 146
-0.220298 12.133616 54.078766 118 132 153
-0.220298 12.250192 54.078766 116 134 159
-0.222322 12.480433 54.575813 113 133 162
-0.222322 12.598080 54.575813 116 136 168
-0.221508 13.841311 54.375900 217 224 233
-0.220298 13.882251 54.078766 201 210 222
-0.219498 13.948013 53.882473 189 199 212
-0.218309 13.988007 53.590691 179 191 204
-0.218309 14.103530 53.590691 173 186 201
-0.219498 14.296471 53.882473 166 179 198
-0.218704 14.360498 53.687599 151 165 186
-0.217524 14.398121 53.397919 144 157 180
-0.216357 14.435341 53.111347 162 175 201
-0.215202 14.472163 52.827831 178 191 219
-0.212928 14.431964 52.269794 175 186 217
-0.212181 14.493606 52.086391 168 176 210
-0.212181 14.605886 52.086391 172 178 212
-0.216744 15.034687 53.206528 188 190 224
-0.219498 15.341843 53.882473 205 203 232
-0.219498 15.457995 53.882473 212 207 232
-0.217524 16.009632 53.397919 117 113 145
-0.217134 16.095791 53.302052 113 111 143
-0.216357 16.152693 53.111347 115 113 147
-0.215970 17.038136 53.016502 121 95 126
-0.215585 17.121845 52.922001 122 94 119
-0.215585 17.235928 52.922001 117 87 106
-0.215585 17.350010 52.922001 110 79 95
-0.215202 17.433018 52.827831 112 81 93
-0.215202 17.546896 52.827831 116 85 96
-0.214819 17.629406 52.734001 116 87 97
-0.114574 0.912184 59.736904 93 61 69
-0.114344 1.038866 59.616951 95 61 70
-0.114115 1.165041 59.497478 96 62 71
-0.114115 1.293298 59.497478 97 62 72
-0.114115 1.421554 59.497478 97 62 71
-0.113887 1.546711 59.378483 96 62 69
-0.113887 1.674711 59.378483 96 62 69
-0.113887 1.802711 59.378483 96 62 69
-0.113887 1.930711 59.378483 97 63 69
-0.113659 2.054602 59.259964 97 63 69
-0.113433 2.177999 59.141918 96 62 69
-0.113659 2.310091 59.259964 95 62 68
-0.113659 2.437835 59.259964 93 61 68
-0.113433 2.560469 59.141918 90 59 68
-0.113207 2.682615 59.024338 87 55 66
-0.112759 2.798724 58.790577 86 53 65
-0.112759 2.925456 58.790577 88 53 65
-0.112536 3.046157 58.674393 90 51 62
-0.112314 3.166382 58.558662 91 48 56
-0.112314 3.292614 58.558662 94 47 49
-0.112314 3.418847 58.558662 96 47 40
-0.112093 3.538101 58.443390 94 46 31
-0.111873 3.656887 58.328571 104 58 38
-0.111873 3.782624 58.328571 143 102 78
-0.111873 3.908360 58.328571 165 128 104
-0.111873 4.034097 58.328571 132 98 77
-0.111873 4.159834 58.328571 95 62 45
-0.111654 4.277168 58.214199 85 53 43
-0.111435 4.394042 58.100277 85 55 52
-0.111435 4.519287 58.100277 86 55 57
-0.111217 4.635460 57.986801 87 55 61
-0.110785 4.741937 57.761173 87 55 63
-0.110355 4.847588 57.537292 87 54 63
-0.109929 4.952424 57.315140 87 54 62
-0.108464 5.008296 56.550938 85 52 61
-0.108464 5.130201 56.550938 84 52 59
-0.109506 5.302607 57.094696 85 53 60
-0.109717 5.436138 57.204704 87 55 62
-0.109087 5.527501 56.875942 87 55 63
-0.109087 5.650106 56.875942 87 55 63
-0.109296 5.783792 56.985111 88 55 64
-0.109296 5.906632 56.985111 88 55 66
-0.109296 6.029473 56.985111 88 55 67
-0.109506 6.164145 57.094696 88 56 68
-0.109929 6.311497 57.315140 88 56 70
-0.109929 6.435049 57.315140 88 56 70
-0.109087 6.508344 56.875942 87 56 71
-0.108464 6.593058 56.550938 86 56 71
-0.108052 6.689479 56.336323 85 56 71
-0.107643 6.785171 56.123333 85 57 71
-0.107440 6.893124 56.017437 86 57 70
-0.107238 7.000669 55.911945 87 58 70
-0.107238 7.121197 55.911945 89 59 70
-0.107036 7.228112 55.806847 91 60 70
-0.106836 7.334626 55.702145 94 62 70
-0.106436 7.426833 55.493912 95 62 70
-0.106436 7.546459 55.493912 94 61 69
-0.106636 7.680441 55.597832 92 59 67
-0.106836 7.814926 55.702145 91 58 66
-0.107036 7.949916 55.806847 89 57 66
-0.107036 8.070217 55.806847 89 57 66
-0.107238 8.205942 55.911945 89 58 67
-0.107440 8.342180 56.017437 90 59 67
-0.107847 8.494991 56.229626 90 59 68
-0.108257 8.648965 56.443428 90 59 68
-0.109087 8.837846 56.875942 91 59 68
-0.110785 9.099914 57.761173 91 59 68
-0.111217 9.260460 57.986801 92 60 67
-0.111217 9.385460 57.986801 93 60 67
-0.111435 9.529072 58.100277 95 60 67
-0.112759 9.769021 58.790577 96 60 67
-0.112983 9.915388 58.907227 98 61 68
-0.114574 10.183814 59.736904 99 61 70
-0.127963 11.517653 66.717400 100 61 72
-0.128251 11.687737 66.867661 99 61 72
-0.129123 11.912371 67.322548 97 60 71
-0.129417 12.084899 67.475548 97 61 72
-0.130604 12.342559 68.094589 98 62 74
-0.131509 12.575879 68.566376 99 63 76
-0.131206 12.694367 68.408394 100 64 77
-0.130904 12.812311 68.251129 100 65 77
-0.130604 12.929714 68.094589 99 65 78
-0.129712 12.987143 67.629250 99 65 79
-0.129123 13.073368 67.322548 99 67 80
-0.128540 13.158816 67.018608 100 69 81
-0.128540 13.303286 67.018608 101 72 83
-0.104675 11.656903 54.575813 125 112 127
-0.104675 11.774550 54.575813 136 126 141
-0.104675 11.892198 54.575813 136 128 143
-0.104292 11.965853 54.375900 126 122 137
-0.103722 12.017041 54.078766 127 128 143
-0.103533 12.111555 53.980442 142 148 166
-0.103722 12.250192 54.078766 148 158 180
-0.104292 12.434717 54.375900 133 145 171
-0.104675 12.598080 54.575813 117 130 159
-0.104675 12.715727 54.575813 119 131 162
-0.103533 13.857010 53.980442 191 200 215
-0.102786 13.872483 53.590691 186 196 210
-0.102601 13.962803 53.494129 186 197 210
-0.102601 14.078118 53.494129 186 196 209
-0.102786 14.219053 53.590691 176 185 200
-0.102601 14.308748 53.494129 156 165 182
-0.102232 14.372272 53.302052 151 159 178
-0.101685 14.409563 53.016502 169 176 199
-0.101323 14.472163 52.827831 174 181 207
-0.100429 14.457417 52.361980 162 166 197
-0.099901 14.493606 52.086391 154 156 190
-0.099901 14.605886 52.086391 160 160 197
-0.101503 14.954288 52.922001 171 169 207
-0.102786 15.951905 53.590691 126 115 147
-0.102416 16.009632 53.397919 120 111 143
-0.101866 16.038202 53.111347 117 109 142
-0.101685 16.123850 53.016502 125 118 152
-0.101685 16.238134 53.016502 140 132 169
-0.101685 16.352421 53.016502 143 134 174
-0.101503 17.007763 52.922001 122 100 131
-0.101323 17.091379 52.827831 118 94 120
-0.101143 17.174700 52.734001 113 86 109
-0.101143 17.288376 52.734001 110 82 102
-0.101143 17.402052 52.734001 110 81 99
-0.101143 17.515730 52.734001 110 81 96
-0.100785 17.567001 52.547333 108 79 95
0.014142 1.036785 59.497478 94 60 67
0.014142 1.165041 59.497478 95 60 68
0.014142 1.293298 59.497478 95 61 68
0.014113 1.418711 59.378483 94 61 68
0.014057 1.540549 59.141918 93 61 67
0.014057 1.668039 59.141918 93 61 67
0.014085 1.799113 59.259964 93 61 67
0.014085 1.926857 59.259964 93 61 67
0.014057 2.050509 59.141918 94 61 68
0.014029 2.173669 59.024338 96 62 70
0.014029 2.300905 59.024338 95 62 70
0.014029 2.428142 59.024338 93 61 70
0.014029 2.555379 59.024338 90 59 69
0.013946 2.666710 58.674393 87 56 66
0.013891 2.782196 58.443390 85 54 65
0.013946 2.919675 58.674393 86 53 63
0.013918 3.040149 58.558662 86 51 60
0.013918 3.166382 58.558662 87 49 56
0.013891 3.286133 58.443390 88 49 50
0.013891 3.412117 58.443390 89 49 43
0.013891 3.538101 58.443390 89 49 35
0.013864 3.656887 58.328571 96 57 36
0.013837 3.775207 58.214199 116 77 54
0.013837 3.900697 58.214199 125 88 66
0.013864 4.034097 58.328571 109 74 56
0.013864 4.159834 58.328571 92 59 47
0.013837 4.277168 58.214199 88 56 49
0.013809 4.394042 58.100277 87 56 54
0.013783 4.510460 57.986801 86 55 57
0.013783 4.635460 57.986801 86 55 60
0.013729 4.741937 57.761173 86 54 61
0.013676 4.847588 57.537292 86 54 61
0.013623 4.952424 57.315140 86 53 60
0.013441 5.008296 56.550938 84 51 58
0.013441 5.130201 56.550938 82 50 57
0.013570 5.302607 57.094696 83 51 58
0.013570 5.425683 57.094696 85 54 61
0.013493 5.516932 56.767193 87 55 63
0.013493 5.639303 56.767193 87 55 64
0.013544 5.783792 56.985111 87 56 66
0.013493 5.884045 56.767193 87 56 67
0.013493 6.006416 56.767193 87 56 68
0.013493 6.128787 56.767193 88 56 68
0.013518 6.263133 56.875942 88 56 69
0.013518 6.385738 56.875942 88 56 70
0.013493 6.495900 56.767193 87 55 70
0.013390 6.568037 56.336323 86 55 71
0.013365 6.676810 56.229626 86 55 71
0.013340 6.785171 56.123333 86 56 70
0.013314 6.893124 56.017437 86 57 70
0.013289 7.000669 55.911945 87 57 70
0.013264 7.107811 55.806847 88 57 69
0.013239 7.214550 55.702145 91 58 69
0.013190 7.307207 55.493912 92 60 69
0.013165 7.412977 55.390377 94 60 68
0.013165 7.532380 55.390377 93 59 68
0.013190 7.666085 55.493912 92 58 67
0.013215 7.800291 55.597832 91 58 68
0.013215 7.920141 55.597832 90 57 68
0.013215 8.039991 55.597832 90 58 68
0.013215 8.159842 55.597832 89 58 69
0.013289 8.326469 55.911945 89 58 69
0.013390 8.511111 56.336323 89 58 70
0.013467 8.681976 56.658859 90 59 69
0.013518 8.837846 56.875942 90 58 69
0.013783 9.135460 57.986801 90 58 68
0.013891 9.333377 58.443390 91 58 67
0.013891 9.459361 58.443390 92 58 67
0.014982 10.338334 63.034485 94 59 67
0.014701 10.277823 61.852589 97 59 68
0.014490 10.261510 60.963535 98 60 69
0.014701 10.544491 61.852589 99 60 70
0.015751 11.440526 66.270630 100 60 71
0.015787 11.609297 66.418884 99 60 71
0.015893 11.831882 66.867661 98 60 71
0.016074 12.112427 67.629250 98 61 71
0.016297 12.575879 68.566376 99 63 74
0.016222 12.665185 68.251129 99 64 75
0.016185 12.782926 68.094589 99 64 76
0.016111 12.870674 67.783661 98 64 78
0.016001 12.928244 67.322548 98 64 79
0.015929 13.014346 67.018608 99 66 80
0.015858 13.099675 66.717400 100 68 82
0.015787 13.184240 66.418884 100 70 84
0.015751 13.297668 66.270630 99 72 85
0.015681 13.380790 65.976097 98 73 86
0.015681 13.523012 65.976097 97 74 87
0.015681 13.665235 65.976097 97 76 90
0.012972 11.892198 54.575813 132 118 132
0.012901 11.943977 54.276493 124 113 126
0.012830 11.995192 53.980442 131 124 138
0.012830 12.111555 53.980442 158 155 171
0.012830 12.227919 53.980442 168 169 189
0.012924 12.434717 54.375900 147 151 174
0.012948 12.574965 54.475674 123 128 154
0.012972 12.715727 54.575813 118 123 150
0.012972 12.833374 54.575813 123 126 155
0.012738 13.756959 53.590691 174 182 199
0.012715 13.847487 53.494129 185 193 209
0.012692 13.937690 53.397919 201 208 221
0.012692 14.052797 53.397919 208 214 226
0.012715 14.193433 53.494129 195 199 212
0.012715 14.308748 53.494129 169 171 187
0.012669 14.372272 53.302052 156 157 175
0.012601 14.409563 53.016502 163 162 184
0.012556 14.472163 52.827831 162 161 186
0.012446 14.457417 52.361980 155 153 181
0.012446 14.570292 52.361980 153 150 182
0.012512 14.761269 52.640499 157 153 187
0.012715 15.923163 53.494129 131 116 147
0.012669 15.980889 53.302052 131 117 147
0.012624 16.038202 53.111347 138 124 155
0.012601 16.123850 53.016502 150 137 170
0.012601 16.238134 53.016502 155 142 177
0.012601 16.352421 53.016502 141 128 165
0.012579 16.437353 52.922001 119 105 144
0.012601 16.580992 53.016502 114 100 138
0.012534 16.947346 52.734001 122 104 133
0.012534 17.061022 52.734001 114 94 120
0.012512 17.144247 52.640499 113 91 114
0.012512 17.257723 52.640499 116 91 114
0.012512 17.371197 52.640499 111 83 105
0.012490 17.453726 52.547333 106 78 98
0.012490 17.567001 52.547333 104 76 95
0.142398 1.036785 59.497478 90 58 63
0.142398 1.165041 59.497478 92 59 64
0.142398 1.293298 59.497478 93 59 64
0.142113 1.418711 59.378483 91 58 64
0.141266 1.537486 59.024338 90 58 64
0.141266 1.664723 59.024338 90 58 65
0.141830 1.799113 59.259964 90 58 66
0.141830 1.926857 59.259964 91 59 67
0.141547 2.050509 59.141918 92 59 68
0.140706 2.165060 58.790577 94 61 70
0.140428 2.287264 58.674393 95 62 71
0.140428 2.413746 58.674393 93 60 71
0.140428 2.540228 58.674393 90 59 69
0.139327 2.645795 58.214199 87 57 67
0.139327 2.771285 58.214199 85 55 65
0.139600 2.902467 58.328571 83 53 62
0.139600 3.028203 58.328571 82 51 59
0.139600 3.153940 58.328571 82 51 56
0.139600 3.279677 58.328571 83 51 53
0.139600 3.405413 58.328571 84 51 48
0.139600 3.531150 58.328571 85 52 44
0.139600 3.656887 58.328571 89 57 44
0.139327 3.775207 58.214199 97 65 50
0.139327 3.900697 58.214199 101 69 55
0.139327 4.026187 58.214199 96 65 54
0.139327 4.151678 58.214199 90 59 53
0.139327 4.277168 58.214199 88 57 54
0.139054 4.394042 58.100277 86 56 56
0.138783 4.510460 57.986801 85 55 58
0.138783 4.635460 57.986801 85 55 59
0.138242 4.741937 57.761173 85 54 60
0.137974 4.857001 57.649014 85 53 60
0.137707 4.971619 57.537292 85 52 59
0.137440 5.333376 57.425999 82 49 56
0.137440 5.457167 57.425999 84 52 59
0.135864 5.516932 56.767193 85 54 63
0.135864 5.884045 56.767193 88 58 69
0.135346 5.983534 56.550938 88 57 69
0.135346 6.105439 56.550938 88 57 68
0.135864 6.251158 56.767193 88 56 68
0.135864 6.373528 56.767193 88 55 69
0.135346 6.471153 56.550938 88 54 69
0.134577 6.555597 56.229626 87 54 70
0.134323 6.664188 56.123333 87 54 70
0.134069 6.772369 56.017437 86 55 70
0.133817 6.880142 55.911945 87 56 70
0.133565 6.987510 55.806847 88 56 70
0.133315 7.094476 55.702145 89 57 69
0.133315 7.214550 55.702145 91 58 69
0.132568 7.293574 55.390377 92 59 69
0.132321 7.399172 55.287228 93 59 68
0.132568 7.532380 55.390377 92 58 67
0.132568 7.651783 55.390377 91 57 67
0.133065 7.800291 55.597832 91 57 68
0.133065 7.920141 55.597832 90 57 68
0.133065 8.039991 55.597832 90 58 69
0.132816 8.144589 55.493912 89 59 69
0.132816 8.264215 55.493912 89 59 70
0.151830 10.404606 63.438553 94 58 68
0.150863 10.474216 63.034485 97 58 69
0.150863 10.610097 63.034485 98 59 70
0.154471 11.002947 64.541832 100 60 71
0.157904 11.389679 65.976097 100 61 72
0.158609 11.583383 66.270630 100 61 72
0.158963 11.752473 66.418884 99 61 71
0.162974 12.636136 68.094589 99 64 73
0.162230 12.724556 67.783661 99 64 75
0.161860 12.841356 67.629250 99 64 78
0.161126 12.928244 67.322548 98 64 80
0.159678 12.955855 66.717400 99 65 81
0.159320 13.070304 66.567810 99 66 83
0.158609 13.154811 66.270630 100 68 84
0.158255 13.268052 66.123032 99 70 85
0.157904 13.380790 65.976097 99 71 86
0.157554 13.493028 65.829803 100 73 88
0.157554 13.634934 65.829803 101 76 91
0.157904 13.807457 65.976097 103 80 95
0.129902 11.943977 54.276493 123 105 117
0.129194 11.995192 53.980442 129 116 127
0.129194 12.111555 53.980442 151 141 154
0.129194 12.227919 53.980442 162 155 171
0.130140 12.434717 54.375900 150 146 166
0.130140 12.551933 54.375900 133 131 152
0.130140 12.669149 54.375900 124 122 145
0.130140 12.786366 54.375900 120 116 141
0.128030 13.732172 53.494129 163 170 190
0.127800 13.822582 53.397919 179 187 204
0.127800 13.937690 53.397919 205 210 224
0.127800 14.052797 53.397919 224 227 238
0.128030 14.193433 53.494129 222 223 233
0.128030 14.308748 53.494129 202 200 213
0.127570 14.372272 53.302052 180 176 192
0.126887 14.409563 53.016502 166 160 180
0.126661 14.497960 52.922001 157 150 172
0.125987 14.534318 52.640499 157 150 175
0.125542 14.596034 52.454491 164 156 183
0.127800 15.894525 53.397919 143 124 153
0.127570 15.980889 53.302052 152 133 162
0.127114 16.038202 53.111347 171 151 181
0.127114 16.152693 53.111347 182 163 193
0.126887 16.238134 53.016502 172 154 185
0.126661 16.323273 52.922001 144 126 159
0.126661 16.437353 52.922001 121 104 138
0.126661 16.551435 52.922001 115 99 133
0.126661 16.665518 52.922001 115 100 132
0.126661 16.779600 52.922001 123 107 138
0.126211 16.833668 52.734001 125 109 137
0.125987 16.917297 52.640499 119 102 127
0.125987 17.030771 52.640499 115 97 120
0.125987 17.144247 52.640499 121 100 123
0.125987 17.257723 52.640499 123 100 122
0.125987 17.371197 52.640499 108 82 105
0.125764 17.453726 52.547333 100 73 95
0.125764 17.567001 52.547333 99 73 95
0.271198 1.038866 59.616951 87 55 59
0.270655 1.165041 59.497478 90 57 61
0.270655 1.293298 59.497478 91 58 62
0.270113 1.418711 59.378483 89 56 62
0.268502 1.537486 59.024338 88 55 62
0.268502 1.664723 59.024338 90 56 64
0.269037 1.795529 59.141918 90 57 65
0.269037 1.923019 59.141918 89 57 66
0.268502 2.046432 59.024338 90 58 67
0.266384 2.156520 58.558662 92 58 68
0.266384 2.282753 58.558662 92 58 68
0.265860 2.404243 58.443390 91 58 68
0.265860 2.530227 58.443390 89 57 67
0.264817 2.645795 58.214199 87 55 65
0.264817 2.771285 58.214199 85 54 63
0.264817 2.896775 58.214199 83 52 61
0.264817 3.022266 58.214199 82 51 59
0.264817 3.147756 58.214199 82 51 58
0.264817 3.273246 58.214199 83 51 56
0.265337 3.405413 58.328571 83 51 53
0.265337 3.531150 58.328571 84 53 52
0.264817 3.649717 58.214199 86 55 51
0.264817 3.775207 58.214199 88 57 52
0.264817 3.900697 58.214199 89 59 54
0.264817 4.026187 58.214199 89 58 56
0.264817 4.151678 58.214199 87 56 57
0.264817 4.277168 58.214199 86 56 57
0.264817 4.402658 58.214199 85 56 58
0.264299 4.519287 58.100277 84 55 58
0.263783 4.635460 57.986801 84 55 59
0.262756 4.741937 57.761173 84 54 59
0.262756 4.866450 57.761173 84 53 59
0.262246 5.478360 57.649014 84 52 60
0.260225 5.559452 57.204704 85 54 64
0.258235 6.128787 56.767193 87 55 66
0.258235 6.251158 56.767193 87 55 66
0.258235 6.373528 56.767193 89 55 67
0.257251 6.471153 56.550938 89 53 67
0.255789 6.555597 56.229626 89 53 68
0.254824 6.651614 56.017437 88 53 69
0.254344 6.759615 55.911945 88 53 69
0.254344 6.880142 55.911945 89 55 70
0.253866 6.987510 55.806847 89 56 70
0.253390 7.094476 55.702145 91 58 70
0.253390 7.214550 55.702145 92 60 70
0.251971 7.293574 55.390377 92 60 70
0.251502 7.399172 55.287228 92 58 68
0.251971 7.532380 55.390377 91 57 68
0.252915 7.680441 55.597832 90 57 67
0.252915 7.800291 55.597832 90 57 68
0.252915 7.920141 55.597832 90 57 69
0.252442 8.024963 55.493912 90 58 70
0.252442 8.144589 55.493912 90 59 71
0.252442 8.264215 55.493912 90 59 71
0.254824 8.462934 56.017437 90 59 71
0.256762 8.648965 56.443428 90 59 71
0.256762 8.770638 56.443428 89 59 71
0.257251 8.909248 56.550938 90 58 70
0.288583 10.404606 63.438553 95 58 71
0.286744 10.474216 63.034485 97 59 71
0.286744 10.610097 63.034485 99 59 72
0.296177 11.099463 65.107986 100 60 72
0.300126 11.389679 65.976097 100 61 73
0.301466 11.583383 66.270630 99 62 72
0.302140 11.752473 66.418884 98 61 71
0.309763 12.636136 68.094589 99 65 73
0.308349 12.724556 67.783661 99 65 75
0.307646 12.841356 67.629250 99 65 77
0.306251 12.928244 67.322548 98 64 80
0.303498 12.955855 66.717400 98 64 81
0.302818 13.070304 66.567810 98 64 83
0.301466 13.154811 66.270630 99 66 84
0.300126 13.238567 65.976097 100 67 85
0.300126 13.380790 65.976097 101 69 87
0.298798 13.463176 65.684166 103 72 88
0.298138 13.574737 65.539169 104 75 91
0.295529 13.595963 64.965523 107 78 93
0.300126 13.949678 65.976097 109 83 97
0.247356 11.965853 54.375900 118 98 109
0.246454 12.038970 54.177448 123 106 116
0.246454 12.155758 54.177448 136 122 133
0.246454 12.272547 54.177448 150 139 152
0.247356 12.434717 54.375900 154 146 161
0.247356 12.551933 54.375900 147 140 157
0.246904 12.645988 54.276493 135 128 146
0.246454 12.739699 54.177448 124 116 135
0.246454 12.856488 54.177448 124 114 135
0.242908 13.707474 53.397919 170 175 196
0.242908 13.822582 53.397919 180 185 204
0.242908 13.937690 53.397919 199 202 218
0.242908 14.052797 53.397919 220 220 232
0.242908 14.167906 53.397919 234 233 242
0.242472 14.257371 53.302052 233 230 239
0.242037 14.346515 53.206528 214 208 220
0.241173 14.409563 53.016502 183 174 191
0.240743 14.497960 52.922001 164 152 172
0.240743 14.612041 52.922001 170 159 180
0.243345 15.807848 53.494129 158 136 163
0.242908 15.894525 53.397919 157 135 161
0.242908 16.009632 53.397919 169 146 172
0.242472 16.095791 53.302052 191 168 194
0.241604 16.152693 53.111347 200 177 203
0.241173 16.238134 53.016502 180 158 185
0.240743 16.323273 52.922001 146 124 153
0.240314 16.408106 52.827831 129 107 137
0.240314 16.521984 52.827831 126 105 135
0.240314 16.635864 52.827831 122 101 130
0.240314 16.749743 52.827831 122 101 128
0.239887 16.833668 52.734001 124 103 128
0.239462 16.917297 52.640499 125 105 127
0.239462 17.030771 52.640499 129 107 128
0.239462 17.144247 52.640499 131 107 128
0.239462 17.257723 52.640499 121 95 116
0.239462 17.371197 52.640499 101 74 95
0.239038 17.453726 52.547333 95 68 89
0.239038 17.567001 52.547333 97 71 93
0.399712 1.038866 59.616951 87 55 59
0.398911 1.165041 59.497478 89 55 60
0.398113 1.290711 59.378483 89 56 61
0.396527 1.413059 59.141918 88 55 61
0.394172 1.531397 58.790577 88 54 62
0.394172 1.658130 58.790577 89 55 64
0.394172 1.784862 58.790577 89 55 65
0.395739 1.919196 59.024338 88 55 65
0.393393 2.034299 58.674393 88 55 65
0.391074 2.148046 58.328571 88 54 64
0.391074 2.273783 58.328571 88 55 64
0.391074 2.399520 58.328571 88 55 63
0.389543 2.515373 58.100277 88 55 63
0.388783 2.635460 57.986801 87 55 62
0.388783 2.760460 57.986801 86 54 62
0.389543 2.891107 58.100277 84 53 61
0.389543 3.016351 58.100277 82 53 60
0.389543 3.141596 58.100277 82 53 59
0.390307 3.273246 58.214199 81 53 57
0.390307 3.398736 58.214199 81 53 55
0.390307 3.524226 58.214199 81 53 54
0.390307 3.649717 58.214199 81 54 53
0.389543 3.767819 58.100277 82 54 54
0.389543 3.893064 58.100277 83 54 55
0.390307 4.026187 58.214199 83 55 56
0.390307 4.151678 58.214199 84 55 57
0.390307 4.277168 58.214199 84 55 58
0.390307 4.402658 58.214199 83 55 58
0.390307 4.528148 58.214199 83 55 58
0.388783 4.635460 57.986801 82 54 58
0.388783 4.760460 57.986801 82 53 59
0.383539 5.559452 57.204704 85 54 65
0.383539 5.682766 57.204704 86 56 68
0.381335 6.263133 56.875942 88 55 65
0.380605 6.373528 56.767193 90 55 66
0.378435 6.458851 56.443428 90 53 66
0.375579 6.530859 56.017437 89 52 66
0.374871 6.639088 55.911945 89 52 67
0.374871 6.759615 55.911945 89 54 68
0.374871 6.880142 55.911945 90 55 70
0.374167 6.987510 55.806847 90 57 71
0.373465 7.094476 55.702145 91 58 71
0.373465 7.214550 55.702145 92 59 71
0.372068 7.307207 55.493912 92 59 70
0.371374 7.412977 55.390377 90 57 68
0.371374 7.532380 55.390377 90 57 67
0.373465 7.694851 55.702145 90 57 67
0.373465 7.814926 55.702145 89 57 67
0.372765 7.920141 55.597832 89 58 68
0.372765 8.039991 55.597832 90 59 69
0.372068 8.144589 55.493912 91 60 70
0.367263 8.157482 54.777199 91 60 71
0.367263 8.275563 54.777199 91 60 71
0.376289 8.599916 56.123333 91 59 71
0.377001 8.737415 56.229626 92 59 71
0.377717 8.875438 56.336323 92 59 71
0.379156 9.031154 56.550938 93 59 72
0.423525 10.224160 63.168602 95 59 73
0.423525 10.360331 63.168602 97 59 73
0.422626 10.474216 63.034485 99 60 74
0.422626 10.610097 63.034485 100 61 75
0.442348 11.247457 65.976097 100 62 75
0.444323 11.440526 66.270630 100 62 74
0.444323 11.583383 66.270630 98 62 73
0.445317 11.752473 66.418884 97 62 71
0.456552 12.782926 68.094589 99 66 75
0.453432 12.841356 67.629250 99 65 77
0.447318 12.812035 66.717400 98 64 79
0.446315 12.926806 66.567810 97 63 81
0.444323 13.011954 66.270630 97 64 83
0.379879 11.246861 56.658859 98 64 84
0.378435 11.325770 56.443428 100 66 85
0.439419 13.292175 65.539169 103 68 87
0.438451 13.403867 65.394806 106 71 89
0.435573 13.455920 64.965523 107 74 90
0.431793 13.477995 64.401825 108 76 91
0.372068 11.733375 55.493912 109 79 93
0.372068 11.853001 55.493912 111 83 94
0.368623 11.980288 54.980080 111 87 96
0.365913 12.009845 54.575813 111 89 99
0.364573 12.083069 54.375900 114 95 105
0.364573 12.200285 54.375900 126 110 121
0.364573 12.317501 54.375900 146 133 144
0.364573 12.434717 54.375900 161 151 163
0.363906 12.528986 54.276493 161 151 165
0.363242 12.622911 54.177448 147 136 151
0.363242 12.739699 54.177448 132 120 135
0.361264 13.715709 53.882473 180 179 199
0.359308 13.756959 53.590691 186 188 207
0.358016 13.822582 53.397919 188 190 209
0.358016 13.937690 53.397919 189 190 208
0.358016 14.052797 53.397919 200 198 212
0.357373 14.142469 53.302052 223 220 229
0.356732 14.231820 53.206528 242 239 245
0.356732 14.346515 53.206528 237 231 238
0.355458 14.409563 53.016502 210 200 212
0.354825 14.497960 52.922001 190 178 193
0.354825 14.612041 52.922001 194 182 198
0.358016 15.779416 53.397919 168 144 167
0.357373 15.865989 53.302052 164 139 161
0.358016 16.009632 53.397919 168 142 165
0.357373 16.095791 53.302052 186 159 182
0.356094 16.152693 53.111347 193 166 190
0.355458 16.238134 53.016502 174 147 171
0.354825 16.323273 52.922001 141 115 140
0.354193 16.408106 52.827831 127 100 126
0.354193 16.521984 52.827831 127 100 127
0.354193 16.635864 52.827831 124 96 122
0.354193 16.749743 52.827831 122 94 118
0.353564 16.833668 52.734001 130 102 123
0.352937 16.917297 52.640499 147 119 138
0.352937 17.030771 52.640499 157 129 146
0.352937 17.144247 52.640499 145 116 133
0.352313 17.227179 52.547333 113 84 100
0.352313 17.340452 52.547333 93 64 80
0.352313 17.453726 52.547333 92 64 83
0.528226 1.038866 59.616951 86 54 60
0.528226 1.167380 59.616951 87 53 60
0.525063 1.288135 59.259964 87 53 60
0.522975 1.410249 59.024338 88 53 61
0.517828 1.522353 58.443390 88 53 62
0.516811 1.645099 58.328571 88 53 63
0.516811 1.770836 58.328571 88 54 63
0.519875 1.907817 58.674393 88 54 63
0.516811 2.022309 58.328571 88 53 62
0.515797 2.143834 58.214199 87 52 61
0.514788 2.264884 58.100277 87 53 61
0.514788 2.390128 58.100277 88 54 61
0.513783 2.510460 57.986801 88 54 61
0.513783 2.635460 57.986801 87 54 61
0.513783 2.760460 57.986801 86 54 62
0.513783 2.885460 57.986801 85 54 62
0.513783 3.010460 57.986801 84 54 62
0.513783 3.135460 57.986801 83 54 61
0.514788 3.266840 58.100277 82 54 59
0.514788 3.392085 58.100277 81 53 58
0.515797 3.524226 58.214199 80 52 57
0.514788 3.642574 58.100277 79 52 56
0.513783 3.760460 57.986801 80 52 56
0.513783 3.885460 57.986801 81 53 57
0.515797 4.026187 58.214199 81 53 58
0.517828 4.419991 58.443390 82 54 58
0.515797 4.528148 58.214199 82 54 59
0.513783 4.635460 57.986801 81 53 58
0.513783 4.760460 57.986801 81 52 59
0.506853 5.682766 57.204704 85 56 67
0.503940 6.385738 56.875942 91 56 66
0.500108 6.458851 56.443428 90 53 65
0.365865 4.814125 41.292408 88 51 64
0.365865 4.903137 41.292408 88 52 65
0.494467 6.746909 55.806847 89 54 67
0.495399 6.880142 55.911945 90 55 68
0.495399 7.000669 55.911945 90 57 69
0.494467 7.107811 55.806847 91 58 70
0.493540 7.214550 55.702145 91 59 69
0.493540 7.334626 55.702145 91 58 68
0.491695 7.426833 55.493912 90 57 67
0.491695 7.546459 55.493912 90 57 67
0.494467 7.709315 55.806847 90 58 66
0.494467 7.829616 55.806847 90 59 67
0.494467 7.949916 55.806847 90 59 68
0.492615 8.039991 55.597832 91 60 69
0.492615 8.159842 55.597832 91 60 70
0.488046 8.202886 55.082081 92 61 71
0.488046 8.321624 55.082081 92 60 71
0.495399 8.567524 55.911945 92 59 72
0.497272 8.720899 56.123333 93 59 72
0.498213 8.858627 56.229626 94 59 72
0.498213 8.979840 56.229626 95 60 73
0.500108 9.135656 56.443428 97 60 74
0.502016 9.292664 56.658859 98 60 75
0.502976 9.432802 56.767193 100 61 76
0.504907 9.591853 56.985111 101 63 77
0.587180 11.297668 66.270630 101 63 77
0.588494 11.466120 66.418884 99 63 75
0.588494 11.609297 66.418884 97 62 73
0.588494 11.752473 66.418884 96 63 72
0.504907 10.206057 56.985111 96 63 71
0.599218 12.841356 67.629250 97 65 77
0.507831 11.006477 57.315140 97 64 78
0.502016 11.002586 56.658859 97 63 80
0.500108 11.082425 56.443428 97 63 82
0.500108 11.204098 56.443428 99 64 84
0.499159 11.304280 56.336323 101 66 86
0.499159 11.425722 56.336323 104 68 88
0.570622 13.200337 64.401825 108 71 89
0.498213 11.646506 56.229626 110 73 90
0.494467 11.679239 55.806847 110 74 89
0.488953 11.667947 55.184464 109 75 88
0.488046 11.765038 55.082081 110 78 88
0.487142 11.861770 54.980080 109 80 89
0.486241 11.958143 54.878452 106 81 90
0.484451 12.031962 54.676319 105 83 91
0.483560 12.127492 54.575813 106 87 96
0.482673 12.222671 54.475674 118 101 111
0.482673 12.340102 54.475674 139 126 136
0.481789 12.434717 54.375900 160 148 159
0.480030 12.506124 54.177448 167 156 167
0.480030 12.622911 54.177448 157 145 156
0.480030 12.739699 54.177448 139 127 139
0.479156 13.765675 54.078766 180 179 190
0.476552 13.806804 53.784859 194 194 206
0.473976 13.847487 53.494129 188 187 201
0.473976 13.962803 53.494129 177 173 189
0.473123 14.052797 53.397919 179 173 188
0.472274 14.142469 53.302052 202 194 206
0.471428 14.231820 53.206528 230 223 231
0.470584 14.320850 53.111347 241 235 240
0.469744 14.409563 53.016502 233 226 233
0.469744 14.523849 53.016502 217 207 217
0.468907 14.612041 52.922001 204 193 206
0.470584 15.580242 53.111347 158 135 156
0.471428 15.722859 53.206528 164 140 159
0.472274 15.865989 53.302052 158 131 150
0.472274 15.980889 53.302052 156 128 147
0.471428 16.066946 53.206528 166 137 157
0.469744 16.123850 53.016502 172 142 163
0.469744 16.238134 53.016502 158 127 148
0.468907 16.323273 52.922001 133 102 124
0.468072 16.408106 52.827831 121 89 112
0.468072 16.521984 52.827831 123 90 114
0.468072 16.635864 52.827831 123 89 112
0.468072 16.749743 52.827831 123 88 109
0.467241 16.833668 52.734001 135 100 119
0.466412 16.917297 52.640499 160 125 141
0.465587 17.000629 52.547333 175 140 153
0.465587 17.113903 52.547333 154 120 132
0.465587 17.227179 52.547333 108 76 87
0.465587 17.340452 52.547333 88 57 69
0.464764 17.422890 52.454491 91 62 77
0.656740 1.167380 59.616951 85 52 59
0.651507 1.285569 59.141918 86 52 60
0.646357 1.401888 58.674393 87 52 61
0.642547 1.519362 58.328571 88 53 62
0.640033 1.638660 58.100277 88 53 63
0.640033 1.763905 58.100277 89 53 63
0.642547 1.896573 58.328571 89 53 62
0.641288 2.018344 58.214199 88 53 61
0.638783 2.135460 57.986801 87 52 60
0.638783 2.260460 57.986801 87 52 59
0.638783 2.385460 57.986801 88 54 60
0.638783 2.510460 57.986801 89 55 61
0.637537 2.630322 57.873768 88 54 61
0.637537 2.755079 57.873768 87 53 61
0.637537 2.879835 57.873768 85 53 61
0.638783 3.010460 57.986801 84 54 61
0.638783 3.135460 57.986801 84 55 61
0.638783 3.260460 57.986801 83 54 60
0.638783 3.385460 57.986801 81 53 58
0.640033 3.517330 58.100277 80 52 56
0.638783 3.635460 57.986801 79 51 55
0.638783 3.760460 57.986801 80 52 55
0.638783 3.885460 57.986801 80 53 56
0.647637 4.572981 58.790577 80 52 57
0.641288 4.653638 58.214199 80 51 57
0.626545 6.385738 56.875942 91 57 66
0.625347 6.495900 56.767193 90 54 64
0.454877 4.814125 41.292408 88 52 62
0.454245 4.896327 41.235058 89 53 63
0.454877 4.992149 41.292408 89 54 64
0.615926 6.880142 55.911945 89 55 65
0.615926 7.000669 55.911945 89 57 66
0.615926 7.121197 55.911945 90 58 68
0.615926 7.241724 55.911945 90 58 68
0.617088 7.376143 56.017437 90 58 67
0.613615 7.454700 55.702145 90 57 66
0.614768 7.589014 55.806847 91 58 66
0.615926 7.723833 55.911945 91 59 66
0.617088 7.859161 56.017437 91 60 67
0.617088 7.979916 56.017437 91 61 67
0.614768 8.070217 55.806847 91 61 68
0.612466 8.159842 55.597832 91 60 69
0.611321 8.264215 55.493912 92 60 70
0.611321 8.383842 55.493912 93 59 71
0.615926 8.567524 55.911945 93 59 72
0.617088 8.704444 56.017437 94 59 72
0.618255 8.841882 56.123333 95 60 72
0.619425 8.979840 56.229626 96 60 74
0.619425 9.101052 56.229626 97 60 75
0.621781 9.257330 56.443428 98 61 75
0.624154 9.414801 56.658859 100 62 77
0.731670 11.179766 66.418884 102 64 79
0.734959 11.373833 66.717400 101 65 78
0.734959 11.517653 66.717400 99 63 75
0.625347 9.922286 56.767193 97 62 73
0.625347 10.044657 56.767193 95 63 72
0.626545 10.186504 56.875942 94 63 72
0.823820 13.555052 74.783989 95 64 73
0.631383 10.882926 57.315140 96 64 76
0.622965 10.859725 56.550938 96 63 77
0.621781 10.960752 56.443428 95 63 78
0.620601 11.061396 56.336323 96 63 80
0.621781 11.204098 56.443428 98 64 82
0.620601 11.304280 56.336323 101 65 84
0.619425 11.404082 56.229626 104 66 86
0.619425 11.525294 56.229626 108 69 87
0.618255 11.624491 56.123333 111 72 87
0.614768 11.679239 55.806847 109 72 85
0.612466 11.755347 55.597832 109 73 84
0.607912 11.786906 55.184464 109 76 84
0.605660 11.861770 54.980080 108 78 86
0.603426 11.936080 54.777199 107 80 88
0.603426 12.054161 54.777199 104 80 89
0.601207 12.127492 54.575813 105 84 93
0.601207 12.245139 54.575813 113 95 105
0.600104 12.340102 54.475674 129 113 124
0.599005 12.434717 54.375900 148 134 145
0.596819 12.506124 54.177448 159 147 157
0.595732 12.599919 54.078766 157 145 155
0.594648 12.693374 53.980442 143 132 141
0.594648 12.809737 53.980442 140 128 137
0.595732 13.765675 54.078766 182 179 180
0.592494 13.806804 53.784859 199 196 200
0.590355 13.872483 53.590691 177 173 180
0.589291 13.962803 53.494129 156 149 160
0.588231 14.052797 53.397919 164 154 167
0.586123 14.117125 53.206528 185 173 185
0.586123 14.231820 53.206528 202 190 200
0.585074 14.320850 53.111347 219 209 216
0.584030 14.409563 53.016502 230 222 228
0.584030 14.523849 53.016502 214 204 212
0.582989 14.612041 52.922001 184 172 185
0.580918 14.673811 52.734001 166 153 169
0.580918 14.787488 52.734001 149 136 155
0.580918 14.901164 52.734001 128 114 134
0.581951 15.041557 52.827831 117 103 122
0.584030 15.438135 53.016502 148 127 145
