ply
format ascii 1.0
element vertex 1208
property float x
property float y
property float z
property uchar red
property uchar green
property uchar blue
end_header
-5.633697 9.574522 44.378540 116 56 69
-5.633697 9.670188 44.378540 116 56 69
-5.625288 9.751277 44.312302 116 56 69
-6.835689 -0.934768 54.777199 129 76 102
-6.810558 -0.813685 54.575813 129 76 102
-6.785611 -0.693488 54.375900 128 76 102
-6.760846 -0.574169 54.177448 126 76 102
-6.760846 -0.457381 54.177448 125 76 104
-6.760846 -0.340592 54.177448 125 77 105
-6.748531 -0.223396 54.078766 126 78 107
-6.736261 -0.106626 53.980442 126 79 110
-6.736261 0.009737 53.980442 126 78 111
-6.748531 0.126331 54.078766 126 77 112
-6.748531 0.242906 54.078766 127 76 112
-6.748531 0.359482 54.078766 127 76 113
-6.748531 0.476057 54.078766 128 76 113
-6.724035 0.590482 53.882473 130 77 113
-6.724035 0.706634 53.882473 131 77 113
-6.663567 0.815388 53.397919 131 77 112
-6.663567 0.930495 53.397919 131 78 111
-6.663567 1.045603 53.397919 130 79 110
-6.663567 1.160711 53.397919 130 80 108
-6.651604 1.273529 53.302052 129 82 107
-6.615970 1.380992 53.016502 128 84 105
-6.615970 1.495278 53.016502 129 86 103
-6.663567 1.621143 53.397919 129 86 101
-6.675574 1.739379 53.494129 129 87 100
-6.663567 1.851359 53.397919 130 89 102
-6.639683 1.959418 53.206528 130 91 104
-6.615970 2.066706 53.016502 130 92 106
-6.615970 2.180992 53.016502 130 92 107
-6.592426 2.287109 52.827831 130 93 110
-6.580717 2.396724 52.734001 133 96 115
-6.580717 2.510401 52.734001 136 100 120
-6.580717 2.624077 52.734001 139 103 124
-6.580717 2.737754 52.734001 141 105 128
-6.569048 2.846375 52.640499 144 107 131
-6.545836 2.949391 52.454491 146 109 134
-6.545836 3.062465 52.454491 147 109 133
-6.569048 3.186800 52.640499 147 108 132
-6.580717 3.306138 52.734001 148 109 132
-6.592426 3.425900 52.827831 152 112 135
-6.592426 3.539778 52.827831 160 119 142
-6.604177 3.660170 52.922001 169 126 149
-6.604177 3.774252 52.922001 166 122 146
-6.604177 3.888334 52.922001 152 108 132
-6.604177 4.002416 52.922001 139 94 117
-6.615970 4.123849 53.016502 132 86 111
-6.651604 4.260962 53.302052 128 84 108
-6.760846 4.447729 54.177448 126 81 106
-6.798061 4.589643 54.475674 124 80 104
-6.798061 4.707074 54.475674 122 79 102
-6.798061 4.824505 54.475674 119 78 100
-6.798061 4.941936 54.475674 116 78 97
-6.760846 5.031671 54.177448 112 76 93
-6.736261 5.129737 53.980442 107 73 89
-6.724035 5.236580 53.882473 102 70 84
-6.724035 5.352732 53.882473 97 64 78
-6.699717 5.449106 53.687599 92 59 71
-6.663567 5.534812 53.397919 88 54 66
-6.627806 5.619598 53.111347 86 50 61
-6.604177 5.713646 52.922001 88 49 60
-6.569048 5.796730 52.640499 92 49 60
-6.534292 5.878934 52.361980 96 50 61
-6.534292 5.991808 52.361980 100 51 62
-6.534292 6.104683 52.361980 104 53 64
-6.569048 6.250630 52.640499 108 55 67
-6.043953 6.064201 48.432693 116 59 75
-5.966093 6.089139 47.808765 118 61 79
-5.927909 6.152569 47.502789 120 62 82
-5.890212 6.215191 47.200703 121 64 84
-5.880863 6.306913 47.125782 122 65 86
-5.880863 6.408501 47.125782 124 65 88
-5.880863 6.510088 47.125782 125 65 89
-5.880863 6.611675 47.125782 128 66 90
-5.880863 6.713263 47.125782 132 69 93
-5.880863 6.814850 47.125782 133 69 92
-5.880863 6.916437 47.125782 129 64 85
-5.880863 7.018024 47.125782 124 59 78
-5.871542 7.108329 47.051098 124 59 76
-5.852991 7.186975 46.902435 126 61 76
-5.843759 7.276586 46.828457 127 62 77
-5.834557 7.365914 46.754711 127 63 77
-5.825383 7.454961 46.681198 127 63 77
-5.825383 7.555590 46.681198 127 63 77
-5.816237 7.644200 46.607914 127 63 75
-5.807121 7.732532 46.534863 127 62 74
-5.788974 7.808368 46.389442 126 61 73
-5.788974 7.908368 46.389442 127 62 73
-5.770940 7.983420 46.244926 126 61 72
-5.735207 8.033058 45.958580 125 60 72
-5.691157 8.069671 45.605595 123 58 72
-5.673727 8.142964 45.465916 121 56 71
-5.656402 8.215810 45.327087 119 55 70
-5.647779 8.300847 45.257992 118 54 69
-5.622069 8.360175 45.051960 115 53 67
-5.579734 8.393608 44.712715 113 52 65
-5.562978 8.464498 44.578442 114 53 66
-5.554638 8.547759 44.511608 115 54 67
-5.554638 8.643711 44.511608 116 56 69
-5.546322 8.726580 44.444973 117 57 70
-5.538032 8.809201 44.378540 118 58 70
-5.538032 8.904866 44.378540 117 58 68
-5.546322 9.014006 44.444973 115 56 66
-5.546322 9.109814 44.444973 113 54 64
-5.546322 9.205622 44.444973 112 54 64
-5.538032 9.287527 44.378540 113 54 64
-5.529766 9.369187 44.312302 114 55 65
-5.529766 9.464709 44.312302 116 56 67
-5.529766 9.560232 44.312302 116 56 69
-5.529766 9.655754 44.312302 116 56 69
-5.521525 9.736744 44.246262 116 55 68
-6.717607 -0.934768 54.777199 130 76 103
-6.692911 -0.813685 54.575813 129 76 103
-6.668395 -0.693488 54.375900 127 76 102
-6.656204 -0.575218 54.276493 126 76 102
-6.644057 -0.457381 54.177448 125 76 103
-6.644057 -0.340592 54.177448 125 77 104
-6.631955 -0.223396 54.078766 127 79 108
-6.619897 -0.106626 53.980442 128 80 110
-6.619897 0.009737 53.980442 127 78 110
-6.631955 0.126331 54.078766 126 76 110
-6.631955 0.242906 54.078766 126 75 111
-6.631955 0.359482 54.078766 127 74 112
-6.631955 0.476057 54.078766 128 75 112
-6.607882 0.590482 53.882473 129 75 112
-6.607882 0.706634 53.882473 130 76 112
-6.560258 0.816857 53.494129 129 77 111
-6.548459 0.930495 53.397919 130 78 109
-6.560258 1.047487 53.494129 131 80 109
-6.548459 1.160711 53.397919 130 82 107
-6.536703 1.273529 53.302052 129 83 106
-6.501685 1.380992 53.016502 129 84 104
-6.501685 1.495278 53.016502 130 86 103
-6.560258 1.624064 53.494129 129 86 102
-6.560258 1.739379 53.494129 129 86 100
-6.560258 1.854694 53.494129 129 88 102
-6.536703 1.962936 53.302052 130 90 105
-6.524988 2.074114 53.206528 131 92 108
-6.513316 2.184894 53.111347 131 93 110
-6.501685 2.295278 53.016502 132 94 112
-6.478547 2.400988 52.827831 133 97 116
-6.478547 2.514867 52.827831 135 99 120
-6.478547 2.628746 52.827831 138 102 123
-6.478547 2.742625 52.827831 141 104 127
-6.467040 2.851431 52.734001 147 109 134
-6.455574 2.959850 52.640499 154 116 141
-6.444148 3.067886 52.547333 154 115 140
-6.455574 3.186800 52.640499 151 111 136
-6.467040 3.306138 52.734001 150 110 133
-6.478547 3.425900 52.827831 152 111 135
-6.490095 3.546088 52.922001 158 117 140
-6.501685 3.666706 53.016502 167 124 147
-6.501685 3.780992 53.016502 168 124 147
-6.501685 3.895278 53.016502 157 112 135
-6.501685 4.009563 53.016502 142 96 119
-6.501685 4.123849 53.016502 133 86 109
-6.536703 4.260962 53.302052 129 83 105
-6.644057 4.447729 54.177448 126 81 104
-6.680630 4.589643 54.475674 124 80 102
-6.680630 4.707074 54.475674 122 79 100
-6.692911 4.833374 54.575813 120 78 99
-6.692911 4.951021 54.575813 117 78 96
-6.668395 5.050102 54.375900 113 77 93
-6.631955 5.139081 54.078766 108 74 89
-6.619897 5.246101 53.980442 103 70 85
-6.607882 5.352732 53.882473 98 66 80
-6.607882 5.468884 53.882473 93 62 74
-6.548459 5.534812 53.397919 89 56 69
-6.513316 5.619598 53.111347 86 51 64
-6.490095 5.713646 52.922001 87 49 62
-6.467040 5.807026 52.734001 91 49 62
-6.432762 5.889321 52.454491 96 50 62
-6.421417 5.991808 52.361980 100 51 63
-6.421417 6.104683 52.361980 104 52 65
-6.432762 6.228543 52.454491 108 54 68
-6.008157 6.134250 48.992149 116 58 75
-5.891494 6.118698 48.040844 118 60 77
-5.834845 6.162429 47.578915 119 61 80
-5.797680 6.225088 47.275864 120 63 81
-5.788463 6.316940 47.200703 122 63 83
-5.779275 6.408501 47.125782 123 64 85
-5.779275 6.510088 47.125782 123 63 85
-5.788463 6.622187 47.200703 126 63 86
-5.788463 6.723936 47.200703 128 65 88
-5.788463 6.825685 47.200703 130 65 87
-5.788463 6.927433 47.200703 128 63 83
-5.779275 7.018024 47.125782 126 61 80
-5.770116 7.108329 47.051098 126 60 77
-5.742813 7.175640 46.828457 127 61 77
-5.742813 7.276586 46.828457 128 63 78
-5.724754 7.354332 46.681198 129 63 78
-5.724754 7.454961 46.681198 128 63 78
-5.715766 7.543729 46.607914 128 63 77
-5.706808 7.632219 46.534863 128 63 76
-5.697877 7.720431 46.462036 128 62 75
-5.688974 7.808368 46.389442 128 62 74
-5.671251 7.883731 46.244926 128 62 74
-5.653639 7.958626 46.101307 126 61 73
-5.618740 8.008265 45.816730 124 59 72
-5.575717 8.044954 45.465916 122 57 71
-5.558692 8.118100 45.327087 120 56 70
-5.550219 8.203286 45.257992 118 54 68
-5.541771 8.288212 45.189106 117 54 67
-5.524952 8.360175 45.051960 114 53 66
-5.483348 8.393608 44.712715 113 52 64
-5.458686 8.451807 44.511608 113 53 65
-5.458686 8.547759 44.511608 114 54 66
-5.458686 8.643711 44.511608 115 55 67
-5.450514 8.726580 44.444973 116 56 68
-5.450514 8.822389 44.444973 116 57 68
-5.450514 8.918197 44.444973 117 57 67
-5.450514 9.014006 44.444973 116 56 66
-5.450514 9.109814 44.444973 114 55 64
-5.450514 9.205622 44.444973 113 54 63
-5.442367 9.287527 44.378540 114 54 64
-5.434244 9.369187 44.312302 115 55 66
-5.434244 9.464709 44.312302 116 55 68
-5.434244 9.560232 44.312302 116 55 68
-5.426145 9.641364 44.246262 116 55 68
-5.418070 9.722255 44.180420 115 55 68
-5.401993 9.788362 44.049320 114 54 67
-6.599526 -0.934768 54.777199 129 76 102
-6.575264 -0.813685 54.575813 128 75 101
-6.551178 -0.693488 54.375900 126 76 101
-6.539202 -0.575218 54.276493 125 76 101
-6.539202 -0.458217 54.276493 124 76 102
-6.527269 -0.340592 54.177448 125 77 104
-6.515379 -0.223396 54.078766 129 80 109
-6.515379 -0.106821 54.078766 131 82 112
-6.515379 0.009755 54.078766 129 79 111
-6.515379 0.126331 54.078766 126 75 109
-6.527269 0.243349 54.177448 125 74 109
-6.527269 0.360138 54.177448 126 74 110
-6.527269 0.476926 54.177448 127 74 111
-6.503533 0.591555 53.980442 127 75 111
-6.491730 0.706634 53.882473 128 76 111
-6.456576 0.818331 53.590691 128 77 109
-6.444943 0.932172 53.494129 129 79 108
-6.444943 1.047487 53.494129 131 82 108
-6.433352 1.160711 53.397919 131 84 108
-6.421802 1.273529 53.302052 131 85 106
-6.387399 1.380992 53.016502 131 86 105
-6.387399 1.495278 53.016502 131 86 104
-6.433352 1.621143 53.397919 130 87 104
-6.444943 1.739379 53.494129 130 87 103
-6.444943 1.854694 53.494129 130 88 105
-6.421802 1.962936 53.302052 131 90 108
-6.421802 2.077837 53.302052 132 91 110
-6.410293 2.188809 53.206528 133 93 112
-6.387399 2.295278 53.016502 134 94 115
-6.387399 2.409563 53.016502 135 96 117
-6.376013 2.519350 52.922001 136 98 119
-6.387399 2.638135 53.016502 138 99 122
-6.387399 2.752420 53.016502 141 103 126
-6.364668 2.856504 52.827831 152 112 137
-6.353363 2.965107 52.734001 164 124 149
-6.342098 3.073325 52.640499 166 126 151
-6.353363 3.192461 52.734001 159 118 143
-6.364668 3.312020 52.827831 152 112 136
-6.376013 3.432006 52.922001 151 110 133
-6.387399 3.552420 53.016502 156 114 137
-6.387399 3.666706 53.016502 165 122 144
-6.387399 3.780992 53.016502 169 124 146
-6.387399 3.895278 53.016502 162 117 137
-6.387399 4.009563 53.016502 147 102 122
-6.387399 4.123849 53.016502 134 88 109
-6.433352 4.268625 53.397919 127 82 102
-6.527269 4.447729 54.177448 125 80 102
-6.551178 4.581237 54.375900 123 79 100
-6.563199 4.707074 54.475674 122 78 98
-6.575264 4.833374 54.575813 120 78 97
-6.575264 4.951021 54.575813 118 77 96
-6.563199 5.059368 54.475674 113 76 93
-6.539202 5.157871 54.276493 109 74 90
-6.515379 5.255657 54.078766 104 71 87
-6.503533 5.362464 53.980442 99 68 82
-6.491730 5.468884 53.882473 95 64 77
-6.433352 5.534812 53.397919 91 59 72
-6.398825 5.619598 53.111347 87 53 66
-6.387399 5.723849 53.016502 86 49 62
-6.364668 5.817358 52.827831 90 49 62
-6.330873 5.899744 52.547333 95 51 62
-6.308542 5.991808 52.361980 99 51 63
-6.297435 6.093935 52.269794 104 53 65
-6.297435 6.206612 52.269794 109 55 69
-5.951653 6.185284 49.399738 117 59 76
-5.844679 6.178685 48.511833 119 60 77
-5.750713 6.182243 47.731899 120 61 79
-5.704854 6.235017 47.351265 121 62 80
-5.695770 6.326999 47.275864 122 62 81
-5.686714 6.418689 47.200703 122 62 81
-5.686714 6.520438 47.200703 122 61 81
-5.695770 6.632731 47.275864 124 61 82
-5.695770 6.734643 47.275864 127 62 83
-5.695770 6.836553 47.275864 128 63 83
-5.686714 6.927433 47.200703 128 62 82
-5.686714 7.029182 47.200703 127 61 79
-5.677688 7.119612 47.125782 126 60 77
-5.641867 7.175640 46.828457 127 61 77
-5.641867 7.276586 46.828457 130 63 78
-5.624125 7.354332 46.681198 130 64 79
-5.624125 7.454961 46.681198 129 62 77
-5.615296 7.543729 46.607914 128 62 75
-5.597721 7.620275 46.462036 128 61 75
-5.588974 7.708368 46.389442 128 61 75
-5.588974 7.808368 46.389442 128 62 74
-5.571563 7.883731 46.244926 127 62 74
-5.554260 7.958626 46.101307 126 60 72
-5.511469 7.995925 45.746136 124 59 71
-5.477708 8.044954 45.465916 122 58 70
-5.460982 8.118100 45.327087 119 56 69
-5.452658 8.203286 45.257992 117 55 67
-5.444358 8.288212 45.189106 116 55 66
-5.427835 8.360175 45.051960 115 55 65
-5.395088 8.406268 44.780155 114 55 64
-5.370786 8.464498 44.578442 114 55 64
-5.362734 8.547759 44.511608 113 55 64
-5.362734 8.643711 44.511608 113 55 64
-5.362734 8.739663 44.511608 114 56 64
-5.354706 8.822389 44.444973 115 56 65
-5.354706 8.918197 44.444973 115 57 65
-5.362734 9.027519 44.511608 116 57 66
-5.362734 9.123471 44.511608 114 55 64
-5.354706 9.205622 44.444973 113 54 64
-5.354706 9.301431 44.444973 114 55 66
-5.338721 9.369187 44.312302 115 55 67
-5.338721 9.464709 44.312302 115 55 68
-5.330765 9.545984 44.246262 115 55 68
-5.322833 9.627017 44.180420 114 54 67
-5.322833 9.722255 44.180420 113 53 67
-5.299175 9.773860 43.984062 112 53 66
-6.481445 -0.934768 54.777199 129 76 101
-6.457616 -0.813685 54.575813 127 75 100
-6.445767 -0.694761 54.475674 126 76 101
-6.433962 -0.576272 54.375900 125 76 102
-6.422200 -0.458217 54.276493 124 75 102
-6.422200 -0.341215 54.276493 126 77 104
-6.410480 -0.223804 54.177448 131 82 110
-6.410480 -0.107016 54.177448 134 84 114
-6.410480 0.009773 54.177448 131 80 111
-6.410480 0.126561 54.177448 127 75 108
-6.410480 0.243349 54.177448 126 73 107
-6.422200 0.360796 54.276493 126 73 108
-6.422200 0.477798 54.276493 125 73 109
-6.387170 0.591555 53.980442 126 74 109
-6.375578 0.706634 53.882473 127 75 109
-6.352520 0.819811 53.687599 127 77 108
-6.329628 0.932172 53.494129 128 80 108
-6.329628 1.047487 53.494129 130 83 108
-6.306900 1.158627 53.302052 132 85 108
-6.295598 1.271246 53.206528 132 86 108
-6.273113 1.380992 53.016502 133 87 107
-6.273113 1.495278 53.016502 132 87 107
-6.295598 1.615332 53.206528 132 87 106
-6.318244 1.736251 53.397919 131 87 106
-6.318244 1.851359 53.397919 132 89 107
-6.306900 1.962936 53.302052 133 90 109
-6.295598 2.074114 53.206528 134 92 111
-6.295598 2.188809 53.206528 135 93 113
-6.273113 2.295278 53.016502 135 94 114
-6.273113 2.409563 53.016502 135 96 116
-6.273113 2.523849 53.016502 136 97 117
-6.273113 2.638135 53.016502 137 97 119
-6.273113 2.752420 53.016502 140 100 123
-6.273113 2.866706 53.016502 152 111 135
-6.250789 2.970383 52.827831 167 126 150
-6.250789 3.084262 52.827831 171 130 154
-6.250789 3.198141 52.827831 163 122 146
-6.261931 3.317924 52.922001 154 113 137
-6.273113 3.438135 53.016502 151 109 132
-6.273113 3.552420 53.016502 156 114 136
-6.284335 3.673266 53.111347 164 121 141
-6.284335 3.787756 53.111347 167 123 142
-6.284335 3.902246 53.111347 163 118 137
-6.273113 4.009563 53.016502 152 108 126
-6.284335 4.131226 53.111347 137 92 111
-6.318244 4.268625 53.397919 126 81 101
-6.398804 4.439628 54.078766 123 80 98
-6.422200 4.572862 54.276493 122 79 97
-6.433962 4.698453 54.375900 120 78 96
-6.445767 4.824505 54.475674 119 77 96
-6.445767 4.941936 54.475674 117 77 95
-6.445767 5.059368 54.475674 114 76 94
-6.433962 5.167318 54.375900 110 74 91
-6.410480 5.265247 54.177448 106 72 88
-6.398804 5.372232 54.078766 102 69 84
-6.387170 5.478828 53.980442 98 66 79
-6.318244 5.534812 53.397919 94 62 74
-6.284335 5.619598 53.111347 89 55 67
-6.273113 5.723849 53.016502 85 48 60
-6.261931 5.827728 52.922001 87 48 59
-6.239686 5.920702 52.734001 93 50 61
-6.206614 6.002395 52.454491 98 51 63
-6.184760 6.093935 52.269794 103 53 66
-6.184760 6.206612 52.269794 108 56 70
-6.206614 6.341618 52.454491 113 57 73
-5.777867 6.219335 48.830990 120 61 78
-5.675191 6.212206 47.963234 122 62 79
-5.620709 6.254969 47.502789 122 62 79
-5.602780 6.337090 47.351265 123 62 79
-5.593859 6.428910 47.275864 123 62 78
-5.593859 6.530821 47.275864 122 61 78
-5.602780 6.643310 47.351265 124 60 79
-5.602780 6.745384 47.351265 125 61 80
-5.602780 6.847457 47.351265 126 61 80
-5.593859 6.938464 47.275864 127 61 80
-5.584966 7.029182 47.200703 127 60 78
-5.576100 7.119612 47.125782 126 59 76
-5.540920 7.175640 46.828457 128 60 77
-5.540920 7.276586 46.828457 130 63 79
-5.523496 7.354332 46.681198 131 63 79
-5.514825 7.443258 46.607914 130 61 77
-5.514825 7.543729 46.607914 129 60 75
-5.497564 7.620275 46.462036 128 60 74
-5.488974 7.708368 46.389442 128 60 73
-5.480411 7.796186 46.317070 127 61 73
-5.454881 7.859248 46.101307 127 61 73
-5.437993 7.933987 45.958580 125 60 72
-5.404528 7.983624 45.675758 123 59 71
-5.379699 8.044954 45.465916 121 59 69
-5.371473 8.130513 45.396397 120 58 68
-5.363272 8.215810 45.327087 118 57 67
-5.346946 8.288212 45.189106 117 57 66
-5.330719 8.360175 45.051960 116 57 65
-5.298557 8.406268 44.780155 115 56 64
-5.282621 8.477226 44.645477 113 56 63
-5.274690 8.560594 44.578442 112 55 61
-5.266782 8.643711 44.511608 112 55 61
-5.266782 8.739663 44.511608 112 55 61
-5.266782 8.835615 44.511608 113 55 62
-5.266782 8.931567 44.511608 115 57 65
-5.266782 9.027519 44.511608 115 57 65
-5.266782 9.123471 44.511608 114 55 64
-5.258897 9.205622 44.444973 114 54 64
-5.258897 9.301431 44.444973 115 55 66
-5.243199 9.369187 44.312302 115 54 67
-5.235385 9.450604 44.246262 115 54 67
-5.235385 9.545984 44.246262 114 54 67
-5.227594 9.627017 44.180420 113 53 66
-5.219827 9.707809 44.114773 111 52 65
-5.196662 9.759401 43.918999 110 52 65
-5.188986 9.839520 43.854126 109 51 65
-6.375126 -1.054796 54.878452 130 76 102
-6.363364 -0.934768 54.777199 128 76 100
-6.339970 -0.813685 54.575813 126 76 100
-6.328336 -0.694761 54.475674 126 76 102
-6.316746 -0.576272 54.375900 125 76 103
-6.305198 -0.458217 54.276493 125 75 103
-6.305198 -0.341215 54.276493 128 78 106
-6.305198 -0.224213 54.276493 134 84 112
-6.293692 -0.107016 54.177448 136 85 114
-6.305198 0.009791 54.276493 132 81 111
-6.305198 0.126792 54.276493 128 75 107
-6.305198 0.243794 54.276493 127 74 106
-6.305198 0.360796 54.276493 126 74 107
-6.305198 0.477798 54.276493 125 74 107
-6.282228 0.592633 54.078766 125 75 108
-6.259425 0.706634 53.882473 125 76 108
-6.248086 0.821296 53.784859 126 78 107
-6.225530 0.933855 53.590691 128 81 107
-6.214313 1.047487 53.494129 130 84 108
-6.180902 1.156551 53.206528 132 86 108
-6.180902 1.271246 53.206528 134 87 109
-6.158827 1.380992 53.016502 135 88 109
-6.158827 1.495278 53.016502 134 88 109
-6.180902 1.615332 53.206528 133 87 108
-6.191999 1.733134 53.302052 133 88 108
-6.191999 1.848035 53.302052 134 89 109
-6.191999 1.962936 53.302052 135 91 110
-6.180902 2.074114 53.206528 136 92 111
-6.180902 2.188809 53.206528 137 94 112
-6.158827 2.295278 53.016502 137 95 113
-6.158827 2.409563 53.016502 136 95 114
-6.158827 2.523849 53.016502 135 94 114
-6.158827 2.638135 53.016502 136 93 115
-6.158827 2.752420 53.016502 139 97 118
-6.158827 2.866706 53.016502 148 106 128
-6.147849 2.975678 52.922001 159 117 140
-6.147849 3.089760 52.922001 163 121 144
-6.147849 3.203842 52.922001 160 118 140
-6.158827 3.323849 53.016502 154 112 135
-6.158827 3.438135 53.016502 154 111 133
-6.169845 3.558775 53.111347 157 114 135
-6.169845 3.673266 53.111347 162 119 139
-6.169845 3.787756 53.111347 163 120 139
-6.169845 3.902246 53.111347 161 118 136
-6.169845 4.016736 53.111347 155 111 129
-6.180902 4.138630 53.206528 140 97 114
-6.203135 4.268625 53.397919 128 84 102
-6.270806 4.431555 53.980442 123 80 98
-6.293692 4.564517 54.177448 121 79 97
-6.305198 4.689864 54.276493 119 78 96
-6.305198 4.806866 54.276493 119 77 95
-6.316746 4.932886 54.375900 117 76 95
-6.328336 5.059368 54.475674 114 76 93
-6.316746 5.167318 54.375900 111 74 91
-6.293692 5.265247 54.177448 107 73 89
-6.282228 5.372232 54.078766 103 71 85
-6.270806 5.478828 53.980442 100 68 81
-6.203135 5.534812 53.397919 97 64 76
-6.180902 5.629669 53.206528 91 57 68
-6.169845 5.734088 53.111347 85 50 60
-6.158827 5.838135 53.016502 85 47 57
-6.136910 5.931238 52.827831 90 49 59
-6.093540 6.002395 52.454491 95 51 61
-6.050778 6.072554 52.086391 102 53 65
-6.050778 6.184834 52.086391 107 55 69
-6.093540 6.341618 52.454491 112 57 74
-5.691326 6.239861 48.992149 121 61 78
-5.589859 6.232343 48.118706 122 62 78
-5.527153 6.264993 47.578915 123 62 78
-5.509494 6.347213 47.426903 123 62 77
-5.500707 6.439163 47.351265 123 62 76
-5.500707 6.541237 47.351265 123 61 76
-5.500707 6.643310 47.351265 124 61 77
-5.500707 6.745384 47.351265 125 61 78
-5.500707 6.847457 47.351265 126 61 79
-5.500707 6.949530 47.351265 126 61 78
-5.491948 7.040375 47.275864 126 60 77
-5.474513 7.119612 47.125782 126 59 76
-5.439974 7.175640 46.828457 128 60 77
-5.439974 7.276586 46.828457 130 62 78
-5.431407 7.365914 46.754711 131 62 78
-5.414354 7.443258 46.607914 130 60 76
-5.405867 7.531905 46.534863 128 59 73
-5.388974 7.608368 46.389442 127 59 72
-5.388974 7.708368 46.389442 126 59 71
-5.380567 7.796186 46.317070 126 60 71
-5.347199 7.847063 46.029835 125 60 70
-5.330670 7.921724 45.887547 124 60 70
-5.297916 7.971360 45.605595 122 59 69
-5.281690 8.044954 45.465916 121 59 68
-5.273614 8.130513 45.396397 120 59 67
-5.265563 8.215810 45.327087 119 60 67
-5.249533 8.288212 45.189106 118 60 67
-5.225672 8.347508 44.983700 116 59 65
-5.209884 8.418966 44.847797 115 58 64
-5.194192 8.489993 44.712715 113 56 62
-5.178594 8.560594 44.578442 111 55 59
-5.178594 8.656690 44.578442 111 55 60
-5.170830 8.739663 44.511608 111 56 61
-5.170830 8.835615 44.511608 112 57 63
-5.170830 8.931567 44.511608 115 59 66
-5.170830 9.027519 44.511608 115 59 66
-5.170830 9.123471 44.511608 115 56 65
-5.163089 9.205622 44.444973 114 55 66
-5.163089 9.301431 44.444973 114 55 66
-5.147676 9.369187 44.312302 114 54 67
-5.140005 9.450604 44.246262 113 54 67
-5.132356 9.531779 44.180420 112 53 67
-5.132356 9.627017 44.180420 111 52 65
-5.124730 9.707809 44.114773 109 51 64
-5.101987 9.759401 43.918999 107 49 63
-5.094451 9.839520 43.854126 106 49 63
-5.094451 9.934055 43.854126 107 52 65
-6.256827 -1.054796 54.878452 129 77 101
-6.245283 -0.934768 54.777199 127 76 100
-6.222322 -0.813685 54.575813 125 76 100
-6.210905 -0.694761 54.475674 125 76 102
-6.199530 -0.576272 54.375900 125 76 103
-6.199530 -0.459056 54.375900 125 76 104
-6.199530 -0.341840 54.375900 129 79 107
-6.188196 -0.224213 54.276493 134 84 112
-6.188196 -0.107211 54.276493 135 84 112
-6.188196 0.009791 54.276493 131 79 108
-6.188196 0.126792 54.276493 128 75 105
-6.188196 0.243794 54.276493 127 74 105
-6.199530 0.361457 54.375900 126 75 105
-6.188196 0.477798 54.276493 125 75 106
-6.165653 0.592633 54.078766 124 76 106
-6.154442 0.707919 53.980442 125 78 107
-6.143273 0.822787 53.882473 127 80 107
-6.121055 0.935543 53.687599 129 82 107
-6.098997 1.047487 53.494129 131 84 108
-6.077097 1.158627 53.302052 133 86 109
-6.066207 1.271246 53.206528 135 88 110
-6.055355 1.383462 53.111347 136 89 111
-6.055355 1.497953 53.111347 136 88 110
-6.066207 1.615332 53.206528 135 87 110
-6.066207 1.730028 53.206528 135 88 109
-6.077097 1.848035 53.302052 136 89 109
-6.077097 1.962936 53.302052 137 91 110
-6.066207 2.074114 53.206528 139 93 111
-6.066207 2.188809 53.206528 140 95 112
-6.044542 2.295278 53.016502 140 96 113
-6.044542 2.409563 53.016502 138 94 113
-6.044542 2.523849 53.016502 135 92 111
-6.044542 2.638135 53.016502 135 90 111
-6.044542 2.752420 53.016502 138 93 114
-6.044542 2.866706 53.016502 144 100 121
-6.033767 2.975678 52.922001 151 107 128
-6.033767 3.089760 52.922001 154 111 132
-6.033767 3.203842 52.922001 155 112 132
-6.044542 3.323849 53.016502 155 112 132
-6.044542 3.438135 53.016502 155 112 132
-6.055355 3.558775 53.111347 155 112 132
-6.055355 3.673266 53.111347 156 114 132
-6.066207 3.794544 53.206528 159 116 134
-6.066207 3.909239 53.206528 159 117 134
-6.066207 4.023934 53.206528 155 113 130
-6.077097 4.146060 53.302052 145 102 119
-6.088027 4.268625 53.397919 132 90 107
-6.154442 4.431555 53.980442 124 82 100
-6.176904 4.564517 54.177448 120 78 97
-6.176904 4.681305 54.177448 119 78 96
-6.188196 4.806866 54.276493 119 78 96
-6.188196 4.923867 54.276493 117 76 95
-6.199530 5.050102 54.375900 114 76 93
-6.188196 5.157871 54.276493 111 75 91
-6.176904 5.265247 54.177448 108 73 89
-6.165653 5.372232 54.078766 105 72 86
-6.154442 5.478828 53.980442 102 70 82
-6.088027 5.534812 53.397919 98 67 77
-6.077097 5.639776 53.302052 92 60 69
-6.066207 5.744365 53.206528 86 52 61
-6.055355 5.848578 53.111347 84 48 56
-6.033767 5.941810 52.922001 86 48 56
-5.980465 6.002395 52.454491 92 50 59
-5.928097 6.061919 51.995171 99 52 64
-5.928097 6.174003 51.995171 104 54 68
-5.980465 6.341618 52.454491 110 56 72
-5.980465 6.454691 52.454491 115 59 75
-5.866453 6.442557 51.454491 118 60 76
-5.604211 6.260522 49.154373 120 61 76
-5.503973 6.252611 48.275192 122 61 76
-5.433296 6.275049 47.655285 123 62 75
-5.407258 6.347213 47.426903 124 62 74
-5.407258 6.449450 47.426903 124 62 75
-5.407258 6.551686 47.426903 124 62 75
-5.398634 6.643310 47.351265 124 62 76
-5.398634 6.745384 47.351265 125 62 77
-5.398634 6.847457 47.351265 126 62 78
-5.398634 6.949530 47.351265 126 61 77
-5.390037 7.040375 47.275864 125 59 76
-5.372926 7.119612 47.125782 125 59 75
-5.339027 7.175640 46.828457 127 60 76
-5.339027 7.276586 46.828457 129 61 77
-5.330619 7.365914 46.754711 129 60 76
-5.313883 7.443258 46.607914 127 59 73
-5.305554 7.531905 46.534863 126 58 71
-5.288974 7.608368 46.389442 125 58 70
-5.280723 7.696342 46.317070 124 58 69
-5.272498 7.784043 46.244926 124 59 69
-5.231752 7.822806 45.887547 124 59 69
-5.215629 7.897312 45.746136 123 60 69
-5.199606 7.971360 45.605595 122 59 68
-5.183681 8.044954 45.465916 121 59 67
-5.175755 8.130513 45.396397 119 60 68
-5.167852 8.215810 45.327087 119 61 68
-5.152121 8.288212 45.189106 119 62 68
-5.120943 8.334880 44.915646 117 60 66
-5.113207 8.418966 44.847797 114 59 63
-5.097806 8.489993 44.712715 112 57 61
-5.097806 8.586379 44.712715 111 55 59
-5.082498 8.656690 44.578442 111 56 59
-5.082498 8.752786 44.578442 112 57 61
-5.074878 8.835615 44.511608 114 59 64
-5.074878 8.931567 44.511608 116 60 66
-5.074878 9.027519 44.511608 116 59 67
-5.074878 9.123471 44.511608 115 57 67
-5.067280 9.205622 44.444973 114 55 67
-5.067280 9.301431 44.444973 114 54 67
-5.052154 9.369187 44.312302 113 53 67
-5.044625 9.450604 44.246262 112 52 66
-5.037118 9.531779 44.180420 112 52 66
-5.037118 9.627017 44.180420 110 51 64
-5.029634 9.707809 44.114773 107 48 61
-5.014731 9.773860 43.984062 104 46 60
-5.007313 9.854076 43.918999 103 46 60
-4.999917 9.934055 43.854126 105 50 63
-6.138527 -1.054796 54.878452 128 77 100
-6.127202 -0.934768 54.777199 126 76 100
-6.104675 -0.813685 54.575813 124 76 101
-6.104675 -0.696038 54.575813 125 77 103
-6.093474 -0.577329 54.475674 125 77 105
-6.082314 -0.459056 54.375900 126 77 106
-6.082314 -0.341840 54.375900 130 80 109
-6.082314 -0.224624 54.375900 134 83 112
-6.082314 -0.107408 54.375900 132 81 110
-6.082314 0.009809 54.375900 129 77 105
-6.082314 0.127025 54.375900 127 74 103
-6.082314 0.244241 54.375900 126 74 103
-6.082314 0.361457 54.375900 125 75 103
-6.082314 0.478673 54.375900 124 75 103
-6.071195 0.594800 54.276493 123 75 102
-6.049077 0.709208 54.078766 125 78 104
-6.038079 0.824283 53.980442 127 81 105
-6.016202 0.937238 53.784859 129 84 106
-5.994483 1.049378 53.590691 131 86 106
-5.962196 1.158627 53.302052 134 87 108
-5.962196 1.273529 53.302052 136 89 111
-5.951511 1.385942 53.206528 137 89 111
-5.951511 1.500637 53.206528 137 88 111
-5.951511 1.615332 53.206528 137 87 110
-5.962196 1.733134 53.302052 138 87 109
-5.962196 1.848035 53.302052 139 88 109
-5.962196 1.962936 53.302052 141 91 110
-5.962196 2.077837 53.302052 144 94 112
-5.951511 2.188809 53.206528 144 96 113
-5.951511 2.303504 53.206528 144 96 113
-5.930256 2.409563 53.016502 141 95 113
-5.930256 2.523849 53.016502 138 93 111
-5.930256 2.638135 53.016502 137 90 110
-5.930256 2.752420 53.016502 138 92 112
-5.930256 2.866706 53.016502 144 98 118
-5.919685 2.975678 52.922001 149 104 123
-5.919685 3.089760 52.922001 152 106 125
-5.930256 3.209563 53.016502 154 108 127
-5.930256 3.323849 53.016502 156 111 129
-5.930256 3.438135 53.016502 156 111 130
-5.940865 3.558775 53.111347 151 107 126
-5.951511 3.679848 53.206528 149 106 125
-5.951511 3.794544 53.206528 154 111 129
-5.951511 3.909239 53.206528 158 115 133
-5.951511 4.023934 53.206528 155 112 130
-5.972920 4.153517 53.397919 148 105 122
-5.983682 4.276316 53.494129 137 95 113
-6.038079 4.431555 53.980442 127 85 104
-6.060116 4.564517 54.177448 121 79 98
-6.060116 4.681305 54.177448 120 78 98
-6.071195 4.806866 54.276493 120 78 97
-6.071195 4.923867 54.276493 118 77 96
-6.071195 5.040869 54.276493 115 76 94
-6.071195 5.157871 54.276493 112 74 92
-6.071195 5.274873 54.276493 110 73 89
-6.060116 5.382036 54.177448 107 72 86
-6.038079 5.478828 53.980442 104 70 82
-5.972920 5.534812 53.397919 99 67 77
-5.962196 5.639776 53.302052 93 61 70
-5.951511 5.744365 53.206528 86 54 61
-5.951511 5.859060 53.206528 82 48 54
-5.930256 5.952421 53.016502 83 47 53
-5.888197 6.023680 52.640499 89 49 57
-5.816013 6.061919 51.995171 96 52 62
-5.816013 6.174003 51.995171 102 53 66
-5.867391 6.341618 52.454491 107 55 70
-5.867391 6.454691 52.454491 112 57 71
-5.755535 6.442557 51.454491 115 59 72
-5.516517 6.281322 49.317677 118 60 72
-5.417526 6.273011 48.432693 121 60 71
-5.339137 6.285137 47.731899 123 61 71
-5.322025 6.367557 47.578915 124 62 71
-5.305021 6.449450 47.426903 124 62 72
-5.305021 6.551686 47.426903 124 63 73
-5.305021 6.653923 47.426903 125 63 75
-5.296560 6.745384 47.351265 125 63 77
-5.296560 6.847457 47.351265 126 63 77
-5.296560 6.949530 47.351265 126 61 77
-5.288126 7.040375 47.275864 124 59 75
-5.271338 7.119612 47.125782 125 59 75
-5.238081 7.175640 46.828457 126 60 76
-5.229832 7.265127 46.754711 127 60 75
-5.229832 7.365914 46.754711 127 59 74
-5.205240 7.431592 46.534863 126 59 72
-5.197094 7.520118 46.462036 124 58 70
-5.188974 7.608368 46.389442 123 58 69
-5.180879 7.696342 46.317070 123 58 69
-5.172809 7.784043 46.244926 123 59 69
-5.117016 7.798699 45.746136 123 60 69
-5.109144 7.885162 45.675758 123 60 68
-5.101295 7.971360 45.605595 123 61 68
-5.077895 8.032654 45.396397 121 61 67
-5.070143 8.118100 45.327087 119 61 67
-5.062414 8.203286 45.257992 119 62 68
-5.047026 8.275617 45.120430 119 62 67
-5.016531 8.322289 44.847797 116 60 64
-5.008965 8.406268 44.780155 114 58 61
-5.008965 8.502799 44.780155 112 57 59
-5.001420 8.586379 44.712715 111 56 58
-4.993900 8.669707 44.645477 111 57 60
-4.986402 8.752786 44.578442 112 57 61
-4.986402 8.848882 44.578442 114 59 63
-4.986402 8.944978 44.578442 115 59 66
-4.978926 9.027519 44.511608 115 58 67
-4.978926 9.123471 44.511608 114 56 67
-4.971472 9.205622 44.444973 113 54 67
-4.971472 9.301431 44.444973 113 53 67
-4.964041 9.383192 44.378540 113 53 66
-4.956632 9.464709 44.312302 112 52 66
-4.941880 9.531779 44.180420 111 52 66
-4.941880 9.627017 44.180420 110 51 65
-4.934537 9.707809 44.114773 107 48 63
-4.919916 9.773860 43.984062 103 46 60
-4.912638 9.854076 43.918999 101 45 59
-4.905382 9.934055 43.854126 102 48 62
-4.905382 10.028590 43.854126 105 52 66
-6.020228 -1.054796 54.878452 127 76 100
-6.020228 -0.936496 54.878452 125 76 100
-5.998054 -0.815183 54.676319 125 76 102
-5.987028 -0.696038 54.575813 125 77 105
-5.987028 -0.578391 54.575813 126 78 107
-5.987028 -0.460744 54.575813 128 79 109
-5.976043 -0.342467 54.475674 131 81 111
-5.976043 -0.225036 54.475674 133 81 111
-5.976043 -0.107605 54.475674 131 79 108
-5.976043 0.009827 54.475674 128 75 103
-5.976043 0.127258 54.475674 126 74 101
-5.976043 0.244689 54.475674 125 74 101
-5.976043 0.362120 54.475674 125 75 101
-5.976043 0.479551 54.475674 124 76 101
-5.965098 0.595889 54.375900 124 77 101
-5.943327 0.710503 54.177448 125 80 102
-5.932502 0.825784 54.078766 128 83 104
-5.910968 0.938939 53.882473 130 86 104
-5.900259 1.053180 53.784859 131 87 105
-5.857812 1.160711 53.397919 134 88 107
-5.857812 1.275819 53.397919 137 90 110
-5.847295 1.388430 53.302052 138 89 111
-5.847295 1.503331 53.302052 139 88 110
-5.847295 1.618232 53.302052 139 86 109
-5.857812 1.736251 53.397919 140 85 108
-5.857812 1.851359 53.397919 141 86 108
-5.857812 1.966467 53.397919 146 92 111
-5.857812 2.081575 53.397919 150 97 115
-5.847295 2.192739 53.302052 149 98 114
-5.836816 2.303504 53.206528 147 96 113
-5.826375 2.413874 53.111347 145 95 112
-5.826375 2.528364 53.111347 142 93 111
-5.815970 2.638135 53.016502 140 91 111
-5.815970 2.752420 53.016502 143 94 114
-5.815970 2.866706 53.016502 149 100 120
-5.805603 2.975678 52.922001 152 104 123
-5.805603 3.089760 52.922001 152 104 123
-5.815970 3.209563 53.016502 153 105 124
-5.815970 3.323849 53.016502 156 109 127
-5.815970 3.438135 53.016502 156 110 128
-5.826375 3.558775 53.111347 149 104 123
-5.836816 3.679848 53.206528 145 102 120
-5.836816 3.794544 53.206528 151 108 126
-5.836816 3.909239 53.206528 156 113 131
-5.847295 4.031159 53.302052 153 110 129
-5.857812 4.153517 53.397919 149 106 124
-5.900259 4.299557 53.784859 143 100 119
-5.932502 4.439628 54.078766 133 90 109
-5.943327 4.564517 54.177448 123 81 101
-5.943327 4.681305 54.177448 121 79 99
-5.943327 4.798094 54.177448 119 78 98
-5.954193 4.923867 54.276493 117 76 96
-5.954193 5.040869 54.276493 115 75 95
-5.954193 5.157871 54.276493 113 74 92
-5.954193 5.274873 54.276493 110 73 90
-5.943327 5.382036 54.177448 107 71 86
-5.921715 5.478828 53.980442 104 69 82
-5.857812 5.534812 53.397919 99 67 77
-5.847295 5.639776 53.302052 93 62 69
-5.847295 5.754678 53.302052 86 55 61
-5.836816 5.859060 53.206528 81 49 54
-5.815970 5.952421 53.016502 81 46 51
-5.774722 6.023680 52.640499 86 48 55
-5.713936 6.072554 52.086391 93 52 61
-5.713936 6.184834 52.086391 99 53 64
-5.744168 6.330433 52.361980 104 54 66
-5.744168 6.443308 52.361980 109 56 67
-5.644616 6.442557 51.454491 112 57 67
-5.410205 6.281322 49.317677 116 58 67
-5.330513 6.293544 48.591232 120 60 67
-5.253134 6.305412 47.885876 123 62 68
-5.219460 6.367557 47.578915 125 64 69
-5.219460 6.470121 47.578915 125 64 70
-5.211109 6.562169 47.502789 125 64 72
-5.202785 6.653923 47.426903 126 64 74
-5.202785 6.756159 47.426903 126 64 76
-5.194487 6.847457 47.351265 126 63 77
-5.194487 6.949530 47.351265 126 62 77
-5.186215 7.040375 47.275864 125 60 76
-5.169751 7.119612 47.125782 125 60 75
-5.137135 7.175640 46.828457 126 60 75
-5.129045 7.265127 46.754711 126 60 74
-5.120980 7.354332 46.681198 126 59 72
-5.104927 7.431592 46.534863 124 58 70
-5.096938 7.520118 46.462036 124 58 70
-5.088974 7.608368 46.389442 123 58 69
-5.081035 7.696342 46.317070 123 59 70
-5.065231 7.771937 46.173004 124 60 70
-5.010682 7.786701 45.675758 124 61 70
-5.002985 7.873050 45.605595 124 62 70
-4.995312 7.959134 45.535648 123 62 69
-4.980036 8.032654 45.396397 121 61 68
-4.964853 8.105724 45.257992 120 61 67
-4.964853 8.203286 45.257992 120 62 68
-4.949762 8.275617 45.120430 119 62 67
-4.919854 8.322289 44.847797 116 60 65
-4.912434 8.406268 44.780155 114 58 62
-4.912434 8.502799 44.780155 112 56 59
-4.905035 8.586379 44.712715 110 55 58
-4.905035 8.682764 44.712715 111 56 60
-4.905035 8.779150 44.712715 111 56 61
-4.912434 8.888923 44.780155 113 57 63
-4.912434 8.985454 44.780155 114 58 66
-4.890306 9.041075 44.578442 114 57 67
-4.882974 9.123471 44.511608 113 55 67
-4.882974 9.219423 44.511608 113 53 66
-4.875664 9.301431 44.444973 112 52 66
-4.868376 9.383192 44.378540 112 52 66
-4.861109 9.464709 44.312302 111 51 66
-4.846642 9.531779 44.180420 111 52 66
-4.839440 9.612713 44.114773 111 52 67
-4.839440 9.707809 44.114773 109 51 66
-4.825101 9.773860 43.984062 105 49 64
-4.817964 9.854076 43.918999 103 47 63
-4.810847 9.934055 43.854126 103 49 65
-4.803751 10.013799 43.789444 105 52 67
-5.923828 -1.177448 55.082081 126 76 100
-5.901928 -1.054796 54.878452 126 76 101
-5.901928 -0.936496 54.878452 125 76 101
-5.891039 -0.816687 54.777199 125 77 103
-5.880190 -0.697320 54.676319 126 79 106
-5.869381 -0.578391 54.575813 128 80 109
-5.869381 -0.460744 54.575813 129 80 111
-5.869381 -0.343097 54.575813 131 80 112
-5.869381 -0.225450 54.575813 132 79 111
-5.880190 -0.108001 54.676319 131 78 108
-5.880190 0.009863 54.676319 128 76 104
-5.869381 0.127492 54.575813 126 74 101
-5.869381 0.245139 54.575813 125 74 100
-5.869381 0.362786 54.575813 124 75 100
-5.869381 0.480433 54.575813 125 77 101
-5.858612 0.596983 54.475674 127 80 102
-5.837191 0.711802 54.276493 129 83 103
-5.826539 0.827291 54.177448 130 86 104
-5.794816 0.938939 53.882473 131 88 104
-5.784317 1.053180 53.784859 132 88 104
-5.753051 1.162803 53.494129 133 88 105
-5.742704 1.275819 53.397919 136 89 107
-5.742704 1.390927 53.397919 138 89 109
-5.742704 1.506035 53.397919 139 87 109
-5.732394 1.618232 53.302052 140 86 108
-5.742704 1.736251 53.397919 141 84 107
-5.742704 1.851359 53.397919 141 84 106
-5.753051 1.970010 53.494129 149 91 112
-5.753051 2.085325 53.494129 156 99 118
-5.742704 2.196682 53.397919 154 98 116
-5.732394 2.307640 53.302052 150 95 113
-5.722121 2.418200 53.206528 146 94 112
-5.722121 2.532895 53.206528 142 91 110
-5.711884 2.642854 53.111347 140 89 109
-5.711884 2.757344 53.111347 147 95 117
-5.701684 2.866706 53.016502 157 107 127
-5.701684 2.980992 53.016502 157 107 127
-5.701684 3.095278 53.016502 151 101 120
-5.701684 3.209563 53.016502 151 101 120
-5.701684 3.323849 53.016502 154 106 124
-5.701684 3.438135 53.016502 155 108 126
-5.711884 3.558775 53.111347 150 104 123
-5.711884 3.673266 53.111347 148 103 122
-5.722121 3.794544 53.206528 152 108 126
-5.732394 3.916258 53.302052 155 111 129
-5.742704 4.038409 53.397919 152 108 127
-5.753051 4.161001 53.494129 150 107 125
-5.794816 4.307360 53.882473 148 104 123
-5.815926 4.439628 54.078766 138 94 114
-5.826539 4.564517 54.177448 126 83 103
-5.826539 4.681305 54.177448 120 78 98
-5.826539 4.798094 54.177448 117 76 97
-5.826539 4.914882 54.177448 116 75 95
-5.837191 5.040869 54.276493 115 74 95
-5.837191 5.157871 54.276493 113 73 93
-5.826539 5.265247 54.177448 111 73 91
-5.815926 5.372232 54.078766 108 71 87
-5.794816 5.468884 53.882473 104 69 82
-5.742704 5.534812 53.397919 99 67 77
-5.732394 5.639776 53.302052 94 63 70
-5.732394 5.754678 53.302052 89 58 63
-5.722121 5.859060 53.206528 83 51 55
-5.701684 5.952421 53.016502 80 46 51
-5.671303 6.034379 52.734001 85 48 54
-5.621379 6.093935 52.269794 91 52 59
-5.611500 6.195704 52.177929 96 53 61
-5.631293 6.330433 52.361980 101 53 62
-5.631293 6.443308 52.361980 106 54 62
-5.533697 6.442557 51.454491 110 55 62
-5.303893 6.281322 49.317677 114 57 62
-5.242929 6.314213 48.750809 120 61 64
-5.158228 6.315598 47.963234 125 65 67
-5.125110 6.377778 47.655285 128 68 70
-5.116897 6.470121 47.578915 128 67 70
-5.116897 6.572685 47.578915 128 66 71
-5.108709 6.664569 47.502789 126 65 74
-5.100548 6.756159 47.426903 126 64 76
-5.100548 6.858395 47.426903 126 64 77
-5.100548 6.960632 47.426903 126 62 77
-5.092413 7.051604 47.351265 124 61 76
-5.076221 7.130931 47.200703 124 60 75
-5.044144 7.186975 46.902435 124 59 74
-5.028257 7.265127 46.754711 124 59 72
-5.020351 7.354332 46.681198 124 58 71
-5.004613 7.431592 46.534863 124 58 70
-4.996781 7.520118 46.462036 123 58 70
-4.988974 7.608368 46.389442 123 59 70
-4.981191 7.696342 46.317070 124 60 71
-4.965697 7.771937 46.173004 125 61 71
-4.912220 7.786701 45.675758 125 61 71
-4.897152 7.860975 45.535648 125 62 71
-4.889653 7.946946 45.465916 124 62 70
-4.874722 8.020390 45.327087 122 61 68
-4.867292 8.105724 45.257992 121 61 68
-4.867292 8.203286 45.257992 121 62 68
-4.852498 8.275617 45.120430 120 61 67
-4.823177 8.322289 44.847797 117 60 65
-4.815903 8.406268 44.780155 115 57 63
-4.815903 8.502799 44.780155 113 55 60
-4.815903 8.599330 44.780155 111 54 59
-4.815903 8.695861 44.780155 111 54 60
-4.823177 8.805673 44.847797 111 54 62
-4.830474 8.915817 44.915646 112 55 63
-4.830474 9.012641 44.915646 113 56 65
-4.815903 9.081985 44.780155 113 55 67
-4.794209 9.137171 44.578442 112 54 67
-4.794209 9.233267 44.578442 111 52 66
-4.787022 9.315375 44.511608 111 51 65
-4.779855 9.397239 44.444973 110 50 64
-4.765587 9.464709 44.312302 109 50 64
-4.751404 9.531779 44.180420 109 51 65
-4.744344 9.612713 44.114773 110 52 67
-4.744344 9.707809 44.114773 110 52 67
-4.730287 9.773860 43.984062 107 51 66
-4.723289 9.854076 43.918999 106 50 66
-4.716312 9.934055 43.854126 106 51 67
-4.702420 9.999051 43.724953 105 53 68
-4.702420 10.093307 43.724953 104 55 68
-5.794340 -1.175268 54.980080 126 76 101
-5.783629 -1.054796 54.878452 125 76 102
-5.783629 -0.936496 54.878452 126 77 103
-5.783629 -0.818197 54.878452 126 78 105
-5.772958 -0.698606 54.777199 128 80 108
-5.762327 -0.579456 54.676319 129 81 111
-5.772958 -0.462444 54.777199 130 81 113
-5.772958 -0.344363 54.777199 131 80 112
-5.772958 -0.226281 54.777199 131 79 111
-5.783629 -0.108400 54.878452 131 77 109
-5.783629 0.009899 54.878452 129 76 105
-5.783629 0.128199 54.878452 127 74 102
-5.772958 0.246043 54.777199 126 73 101
-5.762327 0.363454 54.676319 125 74 100
-5.751734 0.480433 54.575813 126 78 101
-5.751734 0.598080 54.575813 130 83 104
-5.741180 0.714414 54.475674 132 86 104
-5.709751 0.827291 54.177448 132 87 104
-5.688988 0.940646 53.980442 133 89 104
-5.668375 1.053180 53.784859 133 89 103
-5.647912 1.164902 53.590691 132 87 102
-5.637736 1.278118 53.494129 134 87 104
-5.627596 1.390927 53.397919 137 88 106
-5.627596 1.506035 53.397919 139 87 107
-5.627596 1.621143 53.397919 140 86 108
-5.627596 1.736251 53.397919 141 85 107
-5.637736 1.854694 53.494129 142 84 106
-5.647912 1.973566 53.590691 148 90 110
-5.637736 2.085325 53.494129 154 97 116
-5.637736 2.200640 53.494129 153 96 115
-5.627596 2.311790 53.397919 150 93 112
-5.617493 2.422541 53.302052 147 91 111
-5.607425 2.532895 53.206528 143 88 109
-5.597394 2.642854 53.111347 141 87 109
-5.597394 2.757344 53.111347 149 96 118
-5.587399 2.866706 53.016502 163 110 132
-5.587399 2.980992 53.016502 160 109 130
-5.587399 3.095278 53.016502 150 100 119
-5.587399 3.209563 53.016502 148 99 118
-5.587399 3.323849 53.016502 152 104 122
-5.587399 3.438135 53.016502 153 106 124
-5.587399 3.552420 53.016502 151 106 124
-5.597394 3.673266 53.111347 152 106 125
-5.617493 3.801356 53.302052 153 109 127
-5.617493 3.916258 53.302052 154 109 127
-5.637736 4.045685 53.494129 152 108 125
-5.637736 4.161001 53.494129 151 107 124
-5.688988 4.315192 53.980442 150 105 123
-5.699350 4.439628 54.078766 143 98 117
-5.709751 4.564517 54.177448 131 87 107
-5.709751 4.681305 54.177448 120 77 98
-5.709751 4.798094 54.177448 116 74 95
-5.709751 4.914882 54.177448 115 74 94
-5.709751 5.031671 54.177448 115 73 94
-5.709751 5.148459 54.177448 113 72 93
-5.699350 5.255657 54.078766 111 72 91
-5.699350 5.372232 54.078766 108 71 87
-5.678663 5.468884 53.882473 104 70 83
-5.627596 5.534812 53.397919 100 67 78
-5.617493 5.639776 53.302052 95 64 72
-5.617493 5.754678 53.302052 91 60 65
-5.607425 5.859060 53.206528 85 53 58
-5.587399 5.952421 53.016502 81 48 52
-5.557626 6.034379 52.734001 83 47 53
-5.518419 6.104683 52.361980 88 49 56
-5.499022 6.195704 52.177929 93 51 57
-5.489374 6.297115 52.086391 98 52 58
-5.479761 6.398170 51.995171 103 53 58
-5.422779 6.442557 51.454491 107 54 58
-5.188961 6.270905 49.235889 112 56 58
-5.137838 6.314213 48.750809 118 61 60
-5.063015 6.325818 48.040844 127 68 67
-5.030456 6.388031 47.731899 132 72 72
-5.014332 6.470121 47.578915 131 70 72
-5.014332 6.572685 47.578915 129 67 72
-5.014332 6.675249 47.578915 126 64 73
-5.006310 6.766969 47.502789 125 64 75
-5.006310 6.869369 47.502789 127 64 77
-4.998312 6.960632 47.426903 126 63 78
-4.998312 7.062868 47.426903 124 60 75
-4.982394 7.142286 47.275864 123 59 73
-4.966577 7.221199 47.125782 123 58 72
-4.943038 7.288081 46.902435 123 58 72
-4.927470 7.365914 46.754711 123 58 71
-4.911999 7.443258 46.607914 124 58 70
-4.896625 7.520118 46.462036 124 59 71
-4.888974 7.608368 46.389442 124 59 71
-4.881347 7.696342 46.317070 125 60 71
-4.866164 7.771937 46.173004 126 60 71
-4.813759 7.786701 45.675758 126 61 71
-4.798993 7.860975 45.535648 125 62 71
-4.791644 7.946946 45.465916 124 62 70
-4.777013 8.020390 45.327087 123 61 69
-4.769731 8.105724 45.257992 123 62 68
-4.769731 8.203286 45.257992 122 61 68
-4.755233 8.275617 45.120430 121 61 68
-4.740823 8.347508 44.983700 118 59 66
-4.726501 8.418966 44.847797 116 57 64
-4.726501 8.515643 44.847797 114 55 62
-4.726501 8.612319 44.847797 112 54 60
-4.726501 8.708996 44.847797 110 53 60
-4.733651 8.818995 44.915646 111 53 62
-4.740823 8.929326 44.983700 111 53 63
-4.740823 9.026297 44.983700 111 53 65
-4.733651 9.109464 44.915646 111 53 66
-4.719372 9.178515 44.780155 111 52 66
-4.705178 9.247151 44.645477 110 51 65
-4.705178 9.343391 44.645477 109 49 64
-4.691070 9.411327 44.511608 108 49 62
-4.677045 9.478857 44.378540 107 48 61
-4.656166 9.531779 44.180420 107 49 63
-4.656166 9.627017 44.180420 109 51 66
-4.649247 9.707809 44.114773 109 51 66
-4.635472 9.773860 43.984062 108 51 66
-4.628614 9.854076 43.918999 108 52 67
-4.621778 9.934055 43.854126 107 53 67
-4.614961 10.013799 43.789444 106 54 67
-4.608164 10.093307 43.724953 104 54 67
-5.675821 -1.175268 54.980080 125 76 101
-5.675821 -1.056749 54.980080 126 77 102
-5.665329 -0.936496 54.878452 127 78 103
-5.665329 -0.818197 54.878452 128 79 106
-5.665329 -0.699897 54.878452 129 80 108
-5.665329 -0.581598 54.878452 131 81 111
-5.675821 -0.464157 54.980080 132 81 113
-5.675821 -0.345638 54.980080 132 79 112
-5.675821 -0.227120 54.980080 131 78 111
-5.686351 -0.108802 55.082081 131 76 109
-5.686351 0.009936 55.082081 130 75 106
-5.686351 0.128674 55.082081 128 74 104
-5.675821 0.246955 54.980080 127 74 102
-5.654877 0.364124 54.777199 126 75 101
-5.644463 0.481318 54.676319 128 78 102
-5.634087 0.598080 54.575813 130 82 104
-5.623749 0.714414 54.475674 131 85 104
-5.603187 0.828803 54.276493 133 87 103
-5.582775 0.942360 54.078766 135 89 103
-5.562510 1.055092 53.882473 133 88 101
-5.552433 1.169122 53.784859 131 85 99
-5.532389 1.280425 53.590691 132 86 101
-5.522420 1.393433 53.494129 136 87 104
-5.512488 1.506035 53.397919 138 87 106
-5.512488 1.621143 53.397919 140 87 108
-5.512488 1.736251 53.397919 141 87 108
-5.522420 1.854694 53.494129 142 86 107
-5.532389 1.973566 53.590691 146 89 110
-5.532389 2.089089 53.590691 149 93 113
-5.532389 2.204613 53.590691 150 93 114
-5.522420 2.315956 53.494129 149 92 112
-5.512488 2.426898 53.397919 147 89 111
-5.502591 2.537442 53.302052 144 86 108
-5.492730 2.647590 53.206528 143 86 109
-5.492730 2.762286 53.206528 150 94 118
-5.482904 2.871835 53.111347 159 106 128
-5.473113 2.980992 53.016502 156 104 126
-5.473113 3.095278 53.016502 147 97 117
-5.473113 3.209563 53.016502 147 98 118
-5.473113 3.323849 53.016502 152 104 123
-5.473113 3.438135 53.016502 152 105 123
-5.473113 3.552420 53.016502 150 106 123
-5.482904 3.673266 53.111347 152 109 126
-5.502591 3.801356 53.302052 154 111 127
-5.502591 3.916258 53.302052 153 110 125
-5.522420 4.045685 53.494129 152 109 124
-5.532389 4.168512 53.590691 151 107 123
-5.572624 4.315192 53.980442 150 106 122
-5.582775 4.439628 54.078766 147 102 120
-5.592962 4.564517 54.177448 136 92 112
-5.592962 4.681305 54.177448 122 78 99
-5.592962 4.798094 54.177448 114 71 92
-5.592962 4.914882 54.177448 115 72 93
-5.592962 5.031671 54.177448 115 73 95
-5.592962 5.148459 54.177448 114 73 94
-5.582775 5.255657 54.078766 112 73 92
-5.582775 5.372232 54.078766 108 72 88
-5.562510 5.468884 53.882473 105 70 84
-5.522420 5.544785 53.494129 101 68 79
-5.512488 5.649920 53.397919 96 65 74
-5.502591 5.754678 53.302052 92 60 67
-5.492730 5.859060 53.206528 86 55 60
-5.473113 5.952421 53.016502 81 48 53
-5.443949 6.034379 52.734001 81 46 51
-5.405544 6.104683 52.361980 85 47 52
-5.377094 6.184834 52.086391 90 49 53
-5.367677 6.286087 51.995171 96 51 54
-5.330336 6.353662 51.633465 101 52 55
-5.302670 6.431411 51.365471 105 53 55
