ply
format ascii 1.0
element vertex 1209
property float x
property float y
property float z
property uchar red
property uchar green
property uchar blue
end_header
-21.499834 -3.914165 86.810646 16 14 12
-21.129148 -3.662772 85.313911 17 14 12
-21.129148 -3.478863 85.313911 17 14 12
-21.129148 -3.294955 85.313911 17 14 13
-21.008410 -3.093270 84.826408 18 14 13
-20.829868 -2.885679 84.105499 18 14 13
-20.829868 -2.704376 84.105499 18 14 13
-19.819254 -1.365619 80.024910 19 16 13
-19.765976 -1.189905 79.809792 19 17 14
-19.765976 -1.017862 79.809792 18 17 14
-14.794655 -0.633088 59.736904 18 17 14
-14.794655 -0.504315 59.736904 17 16 14
-18.853701 0.506040 76.126259 20 17 17
-18.853701 0.670142 76.126259 21 17 18
-13.417780 0.710503 54.177448 20 16 16
-13.320550 0.821296 53.784859 18 15 15
-13.224718 0.930495 53.397919 18 14 15
-24.509811 2.577852 98.964142 19 16 16
-24.347494 2.772700 98.308746 19 16 16
-15.217001 -14.552494 61.981716 25 19 19
-15.280804 -14.479339 62.241596 26 20 20
-14.236217 -12.739540 57.986801 22 18 14
-14.180823 -12.565456 57.761173 22 18 14
-14.017199 -12.297394 57.094696 22 17 14
-13.883701 -12.058371 56.550938 22 17 14
-13.804817 -11.868645 56.229626 23 18 15
-13.804817 -11.747433 56.229626 24 18 15
-13.804817 -11.626221 56.229626 25 18 15
-15.574665 -12.980010 63.438553 25 19 16
-15.312906 -12.627404 62.372356 25 19 15
-15.312906 -12.492950 62.372356 25 19 15
-15.248836 -12.306787 62.111385 25 18 15
-15.248836 -12.172896 62.111385 25 18 15
-15.280804 -12.064244 62.241596 24 17 15
-15.248836 -11.905114 62.111385 24 17 15
-15.217001 -11.746648 61.981716 23 16 15
-15.090980 -11.516862 61.468410 23 16 16
-7.974774 -6.016023 32.482761 23 16 17
-7.931386 -5.913650 32.306030 23 16 18
-7.931386 -5.844009 32.306030 24 16 19
-14.665882 -10.162263 59.736904 26 18 20
-14.665882 -10.033490 59.736904 26 18 20
-14.725138 -9.944736 59.978268 25 17 19
-15.641509 -9.739580 63.710819 23 17 16
-15.641509 -9.602242 63.710819 23 16 16
-15.641509 -9.464903 63.710819 23 16 16
-15.845529 -9.449227 64.541832 22 16 16
-15.708930 -9.229837 63.985435 22 15 16
-15.845529 -9.170966 64.541832 21 15 15
-15.641509 -8.915546 63.710819 20 14 15
-10.368340 -5.818840 42.232208 19 14 15
-10.353613 -5.719666 42.172218 19 14 14
-10.353613 -5.628757 42.172218 19 13 14
-5.766569 -2.932472 23.488325 19 13 14
-5.766569 -2.881839 23.488325 19 13 14
-8.555098 -4.200287 34.846527 18 13 13
-8.555098 -4.125170 34.846527 16 13 13
-8.545069 -4.045304 34.805676 15 12 12
-8.545069 -3.970275 34.805676 15 12 11
-8.585328 -3.913598 34.969662 15 13 11
-8.585328 -3.838215 34.969662 16 13 11
-8.585328 -3.762832 34.969662 17 13 11
-8.575228 -3.683111 34.928520 18 13 12
-8.565151 -3.603578 34.887478 18 13 12
-8.565151 -3.528372 34.887478 17 13 12
-6.793051 -2.738718 27.669378 16 13 11
-6.377028 -2.515000 25.974840 16 14 12
-6.382612 -2.461160 25.997585 17 15 12
-6.742778 -2.540837 27.464609 17 15 13
-6.294425 -2.150816 25.638378 18 15 13
-6.089343 -2.027272 24.803043 19 15 14
-6.089343 -1.973805 24.803043 19 16 15
-7.223928 -2.278141 29.424423 20 16 16
-7.231095 -2.216909 29.453613 20 16 16
-7.223928 -2.151283 29.424423 20 16 16
-7.216775 -2.085787 29.395288 19 16 15
-7.216775 -2.022420 29.395288 18 15 13
-18.932320 -4.806869 77.114914 15 12 11
-18.932320 -4.640635 77.114914 15 12 11
-21.312700 -4.101300 86.810646 17 13 12
-21.188789 -3.891408 86.305939 17 14 12
-21.005600 -3.673327 85.559776 18 15 13
-21.005600 -3.488889 85.559776 18 15 13
-21.005600 -3.304451 85.559776 18 15 13
-21.312700 -3.165627 86.810646 18 15 13
-20.766220 -2.902121 84.584732 19 15 14
-21.375200 -2.799544 87.065224 19 15 14
-19.646748 -1.365619 80.024910 20 18 15
-19.593933 -1.189905 79.809792 19 18 15
-19.593933 -1.017862 79.809792 19 18 15
-19.593933 -0.845819 79.809792 18 18 15
-19.646748 -0.675592 80.024910 18 17 15
-19.806911 -0.507186 80.677292 18 17 15
-19.541403 0.185940 79.595825 21 18 18
-18.785936 0.343700 76.518669 21 18 18
-18.360060 0.497117 74.783989 21 18 18
-18.268028 0.655026 74.409126 21 18 19
-18.222359 0.813389 74.223106 21 18 19
-13.204608 0.705354 53.784859 20 17 17
-13.300991 0.827291 54.177448 19 15 15
-13.325308 0.945805 54.276493 19 15 16
-25.134287 2.666743 102.376694 20 16 17
-24.296478 2.791185 98.964142 20 16 16
-24.135574 2.984621 98.308746 19 16 15
-15.083389 -14.552494 61.981716 25 19 19
-15.146632 -14.479339 62.241596 25 20 19
-14.166555 -12.914989 58.214199 23 19 15
-14.111217 -12.739540 57.986801 23 18 14
-14.056310 -12.565456 57.761173 22 18 13
-13.947767 -12.344873 57.315140 21 17 14
-13.788060 -12.081383 56.658859 22 17 15
-13.735634 -11.913773 56.443428 22 18 15
-13.735634 -11.792100 56.443428 23 18 16
-13.840888 -11.759855 56.875942 25 18 15
-15.114944 -12.440679 62.111385 25 19 16
-15.051966 -12.255509 61.852589 25 18 15
-7.777119 -6.263342 31.958281 25 17 15
-7.785499 -6.201126 31.992718 25 17 15
-7.802315 -6.145404 32.061817 24 16 15
-7.802315 -6.076290 32.061817 23 16 15
-7.896113 -6.079393 32.447258 23 16 15
-7.878891 -5.996341 32.376492 23 16 16
-7.870309 -5.920092 32.341221 23 16 17
-7.870309 -5.850375 32.341221 23 16 18
-7.896113 -5.799612 32.447258 24 17 19
-7.896113 -5.659721 32.447258 25 18 19
-7.913410 -5.602020 32.518337 25 18 20
-14.537109 -10.162263 59.736904 25 18 20
-9.180360 -5.848341 37.724579 24 17 16
-9.145498 -5.745120 37.581318 23 16 15
-9.157089 -5.671286 37.628952 22 16 15
-9.157089 -5.590170 37.628952 22 15 15
-15.470971 -9.307590 63.574394 21 15 15
-15.504170 -9.190225 63.710819 21 16 15
-15.504170 -9.052885 63.710819 20 15 14
-15.504170 -8.915546 63.710819 20 15 14
-10.277302 -5.818840 42.232208 19 15 13
-10.277302 -5.727802 42.232208 18 15 13
-10.277302 -5.636763 42.232208 18 14 13
-10.262704 -5.537848 42.172218 19 14 13
-10.034643 -5.148118 41.235058 19 14 13
-8.530040 -4.300643 35.052235 19 13 14
-8.499933 -4.210170 34.928520 18 13 13
-8.489945 -4.130017 34.887478 17 13 13
-8.470039 -4.045304 34.805676 16 13 12
-8.470039 -3.970275 34.805676 15 13 11
-8.509945 -3.913598 34.969662 16 13 11
-8.509945 -3.838215 34.969662 16 13 11
-8.509945 -3.762832 34.969662 17 13 11
-8.499933 -3.683111 34.928520 17 13 11
-8.499933 -3.607817 34.928520 17 13 11
-8.499933 -3.532523 34.928520 17 13 11
-6.733405 -2.738718 27.669378 17 13 11
-6.708397 -2.669122 27.566612 16 14 11
-6.708397 -2.609698 27.566612 17 14 11
-6.733405 -2.559781 27.669378 17 15 12
-7.486988 -2.647300 30.766054 18 15 13
-6.293505 -2.169551 25.861710 19 15 13
-6.239157 -2.095548 25.638378 19 15 14
-6.332115 -2.070679 26.020370 19 16 15
-18.814957 -4.819387 77.315735 15 12 11
-18.814957 -4.652720 77.315735 15 12 11
-19.526875 -4.655796 80.241196 14 11 12
-21.249834 -4.313661 87.321304 17 14 13
-20.881340 -4.053886 85.807060 17 14 13
-20.761332 -3.846680 85.313911 18 14 13
-20.821163 -3.673327 85.559776 18 15 14
-20.821163 -3.488889 85.559776 18 15 14
-20.881340 -3.314002 85.807060 18 15 14
-21.187517 -3.174911 87.065224 19 15 14
-19.474241 -1.365619 80.024910 20 18 16
-19.421890 -1.189905 79.809792 20 18 16
-19.421890 -1.017862 79.809792 20 18 16
-19.421890 -0.845819 79.809792 19 17 15
-19.632998 -0.681099 80.677292 19 17 15
-19.632998 -0.507186 80.677292 19 17 15
-19.632998 -0.333273 80.677292 20 18 15
-19.474241 -0.158072 80.024910 21 18 16
-19.474241 0.014435 80.024910 22 18 17
-18.913464 0.181559 77.720528 23 18 18
-18.717470 0.345481 76.915138 22 18 19
-18.620989 0.508648 76.518669 22 18 19
-18.198851 0.658326 74.783989 22 18 19
-10.783498 0.485605 44.312302 21 18 19
-10.783498 0.581128 44.312302 20 17 17
-13.208306 0.828803 54.276493 19 16 16
-15.043999 -14.644211 62.372356 25 19 19
-14.096345 -13.091820 58.443390 24 19 15
-14.041065 -12.914989 58.214199 23 19 15
-13.986217 -12.739540 57.986801 23 18 14
-13.986217 -12.614540 57.986801 21 18 13
-13.850954 -12.368752 57.425999 21 18 14
-13.718283 -12.127671 56.875942 21 17 15
-13.639893 -11.936466 56.550938 21 17 16
-13.613961 -11.792100 56.443428 23 18 16
-13.718283 -11.759855 56.875942 24 18 16
-14.981053 -12.440679 62.111385 26 18 16
-7.675180 -6.305085 31.821266 26 17 16
-7.675180 -6.236489 31.821266 26 17 15
-7.708228 -6.194450 31.958281 25 16 15
-7.716534 -6.132160 31.992718 24 16 14
-7.716534 -6.063195 31.992718 23 16 14
-7.733200 -6.007175 32.061817 22 16 15
-7.809099 -5.996341 32.376492 22 16 15
-7.817624 -5.933018 32.411835 22 16 16
-7.851912 -5.748514 32.553993 24 18 18
-7.826168 -5.659721 32.447258 24 18 19
-7.826168 -5.589776 32.447258 25 18 19
-7.809099 -5.507791 32.376492 25 18 20
-9.099038 -5.929663 37.724579 24 18 16
-9.007476 -5.789490 37.344959 23 17 16
-9.007476 -5.708987 37.344959 23 16 15
-9.053026 -5.656946 37.533810 22 15 14
-9.064486 -5.583094 37.581318 21 16 14
-9.041595 -5.488187 37.486416 21 16 14
-9.007476 -5.386974 37.344959 20 16 14
-8.984873 -5.293155 37.251244 20 16 14
-15.366831 -8.915546 63.710819 20 15 13
-10.186264 -5.818840 42.232208 19 15 13
-10.186264 -5.727802 42.232208 18 15 13
-10.171795 -5.628757 42.172218 18 14 13
-10.128633 -5.514349 41.993271 18 14 12
-10.114326 -5.416164 41.933956 19 14 12
-10.043399 -5.288422 41.639893 19 14 12
-8.797228 -4.553617 36.473270 19 14 13
-8.638050 -4.394022 35.813320 19 14 13
-8.474489 -4.235082 35.135197 18 14 13
-8.454478 -4.149521 35.052235 17 14 13
-8.404863 -4.050052 34.846527 16 14 12
-8.414740 -3.979606 34.887478 16 14 12
-8.434563 -3.913598 34.969662 16 14 11
-8.434563 -3.838215 34.969662 17 14 11
-8.424640 -3.758405 34.928520 17 14 11
-8.414740 -3.678783 34.887478 17 14 11
-8.414740 -3.603578 34.887478 17 13 11
-7.382416 -3.029531 30.607466 17 13 11
-6.673759 -2.679072 27.669378 17 14 11
-6.667545 -2.616987 27.643614 17 14 11
-6.679985 -2.562168 27.695189 18 15 12
-6.276024 -2.182861 26.020370 19 15 13
-6.276024 -2.126770 26.020370 19 15 14
-18.648291 -4.819387 77.315735 15 13 11
-19.146908 -4.777124 79.383003 14 12 11
-19.459085 -4.681099 80.677292 14 12 12
-20.401548 -4.178474 84.584732 18 15 13
-20.401548 -3.996138 84.584732 18 16 14
-20.518463 -3.835658 85.069466 19 16 14
-20.518463 -3.652277 85.069466 19 16 15
-20.636724 -3.488889 85.559776 19 16 15
-20.938431 -3.352762 86.810646 19 17 15
-19.249847 -1.189905 79.809792 20 18 16
-19.198240 -1.015133 79.595825 20 18 16
-19.249847 -0.845819 79.809792 20 18 16
-19.512108 -0.682955 80.897118 20 17 15
-19.512108 -0.508568 80.897118 21 17 15
-19.301735 -0.330578 80.024910 21 18 15
-19.301735 -0.158072 80.024910 22 18 16
-19.198240 0.014358 79.595825 22 18 17
-18.696980 0.181085 77.517601 23 18 18
-18.551666 0.345481 76.915138 23 18 19
-18.551666 0.511284 76.915138 23 18 19
-18.456039 0.673597 76.518669 22 18 19
-18.037642 0.819535 74.783989 21 17 19
-13.091304 0.711802 54.276493 20 17 17
-18.083191 1.144837 74.972832 20 16 16
-13.997916 -13.243875 58.558662 25 19 16
-13.915575 -13.040480 58.214199 24 19 15
-13.915575 -12.914989 58.214199 23 19 15
-13.915575 -12.789499 58.214199 22 18 14
-13.861217 -12.614540 57.986801 21 18 13
-13.780473 -12.416785 57.649014 20 17 14
-13.647968 -12.174316 57.094696 21 17 15
-13.543785 -11.959246 56.658859 21 17 15
-13.543785 -11.837108 56.658859 22 18 16
-13.700663 -11.850665 57.315140 23 18 16
-7.606585 -6.305085 31.821266 26 17 16
-7.606585 -6.236489 31.821266 26 17 15
-7.639336 -6.194450 31.958281 26 17 15
-7.647568 -6.132160 31.992718 25 16 14
-7.647568 -6.063195 31.992718 24 16 14
-7.747755 -6.072756 32.411835 23 16 14
-7.756222 -6.009448 32.447258 23 17 15
-7.781736 -5.678339 32.553993 23 18 18
-7.773213 -5.602020 32.518337 24 18 19
-7.739306 -5.507791 32.376492 25 18 19
-8.860104 -6.225524 37.065220 25 18 18
-9.017717 -6.010984 37.724579 25 18 16
-8.960787 -5.892228 37.486416 24 17 16
-8.926972 -5.789490 37.344959 23 17 15
-8.926972 -5.708987 37.344959 22 16 15
-8.972116 -5.656946 37.533810 21 16 14
-8.972116 -5.576036 37.533810 21 16 14
-8.904572 -5.453757 37.251244 20 16 14
-8.904572 -5.373456 37.251244 20 16 14
-8.893413 -5.286522 37.204563 19 16 13
-8.882282 -5.199805 37.158001 19 15 12
-8.871180 -5.113306 37.111553 18 15 12
-8.871180 -5.033306 37.111553 18 15 12
-10.023932 -5.596956 41.933956 18 15 12
-9.953637 -5.467945 41.639893 18 14 11
-9.856866 -5.325895 41.235058 18 14 12
-8.805140 -4.678219 36.835289 18 14 12
-8.718604 -4.553617 36.473270 18 14 12
-8.633751 -4.431441 36.118301 18 15 12
-8.602356 -4.337751 35.986961 18 15 12
-8.489166 -4.204120 35.513447 17 15 13
-8.388822 -4.078776 35.093666 17 15 13
-8.388822 -4.003126 35.093666 17 15 13
-8.654809 -4.052005 36.206394 17 15 12
-8.349345 -3.683111 34.928520 17 14 11
-7.400358 -3.197752 30.958542 17 14 11
-7.354345 -3.111549 30.766054 18 14 12
-7.316436 -3.029531 30.607466 17 13 11
-7.264016 -2.942318 30.388170 17 14 11
-6.620283 -2.621870 27.695189 18 15 12
-7.256588 -2.546671 30.357098 19 14 13
-6.302792 -1.814072 26.367001 18 15 13
-6.297199 -1.755674 26.343605 17 14 13
-7.647568 -2.063195 31.992718 17 14 12
-18.481623 -4.819387 77.315735 16 13 12
-19.337721 -4.868241 80.897118 15 13 12
-19.390556 -4.706679 81.118149 15 12 12
-19.390556 -4.531816 81.118149 15 13 12
-19.497097 -4.380892 81.563850 16 14 12
-19.768644 -4.263634 82.699837 17 15 12
-19.823864 -4.096773 82.930847 18 16 13
-19.991390 -3.951111 83.631668 19 16 14
-20.047863 -3.781482 83.867912 19 17 15
-20.104656 -3.610891 84.105499 19 17 15
-20.276981 -3.458984 84.826408 19 17 16
-20.751297 -3.352762 86.810646 19 18 16
-19.077805 -1.189905 79.809792 21 18 16
-14.308353 -0.763396 59.857342 21 18 16
-14.279564 -0.633088 59.736904 21 18 16
-19.337721 -0.682955 80.897118 21 17 16
-19.337721 -0.508568 80.897118 22 17 15
-19.129227 -0.330578 80.024910 22 17 15
-19.077805 -0.157647 79.809792 23 17 16
-19.077805 0.014396 79.809792 23 17 17
-18.578386 0.181559 77.720528 23 17 18
-18.529879 0.348187 77.517601 23 18 18
-18.433619 0.512612 77.114914 23 18 19
-18.291092 0.838545 76.518669 22 17 19
-18.012547 0.988212 75.353409 21 17 17
-18.197290 1.162450 76.126259 20 16 17
-14.775091 -14.509757 62.372356 25 19 18
-14.651965 -14.255509 61.852589 25 19 17
-7.884466 -7.599377 33.283905 25 19 17
-13.817178 -12.940363 58.328571 23 18 15
-13.790085 -12.789499 58.214199 22 18 14
-13.763099 -12.639226 58.100277 21 18 14
-13.682769 -12.440943 57.761173 21 17 14
-13.577110 -12.221321 57.315140 21 17 15
-13.421648 -11.959246 56.658859 21 17 15
-13.421648 -11.837108 56.658859 22 17 15
-13.603372 -11.873587 57.425999 23 18 16
-14.236728 -11.778633 60.099682 27 17 15
-14.621504 -11.963918 61.723995 26 16 14
-14.963709 -12.107755 63.168602 25 17 14
-7.694686 -5.525869 32.482761 24 18 18
-8.780204 -6.225524 37.065220 25 17 17
-8.791180 -6.153306 37.111553 26 17 17
-8.791180 -6.073306 37.111553 26 17 17
-8.813212 -6.008327 37.204563 25 17 16
-8.846470 -5.950496 37.344959 24 17 16
-8.824270 -5.855263 37.251244 24 17 15
-8.824270 -5.774962 37.251244 23 17 15
-8.824270 -5.694661 37.251244 22 17 14
-8.891205 -5.656946 37.533810 21 17 14
-8.891205 -5.576036 37.533810 21 17 14
-8.824270 -5.453757 37.251244 20 16 13
-8.813212 -5.366723 37.204563 19 16 13
-8.802182 -5.279905 37.158001 18 16 12
-8.802182 -5.199805 37.158001 18 15 10
-8.791180 -5.113306 37.111553 18 15 11
-8.791180 -5.033306 37.111553 17 15 11
-8.780204 -4.947122 37.065220 17 15 11
-8.769256 -4.861153 37.019005 18 14 11
-8.736575 -4.763534 36.881046 18 14 11
-8.725737 -4.678219 36.835289 17 14 10
-8.661261 -4.564833 36.563107 17 15 11
-8.597731 -4.453111 36.294918 17 14 12
-8.566314 -4.358885 36.162292 17 15 12
-8.566314 -4.280931 36.162292 17 15 13
-8.566314 -4.202978 36.162292 17 15 13
-8.587233 -4.135097 36.250603 18 15 13
-7.333622 -3.197752 30.958542 17 14 12
-7.288024 -3.111549 30.766054 17 13 11
-7.191149 -2.546671 30.357098 20 14 12
-6.240411 -1.869250 26.343605 18 15 14
-6.218341 -1.806052 26.250435 18 15 14
-6.218341 -1.749465 26.250435 18 14 13
-6.240411 -1.698886 26.343605 17 14 13
-7.578603 -1.994229 31.992718 17 14 12
-19.163334 -4.868241 80.897118 16 13 12
-19.268337 -4.719574 81.340393 16 12 11
-19.268337 -4.544231 81.340393 16 13 11
-19.268337 -4.368889 81.340393 16 14 11
-19.321274 -4.205067 81.563850 17 15 12
-19.481838 -4.062727 82.241669 19 16 13
-19.645094 -3.918001 82.930847 20 16 14
-19.755459 -3.760237 83.396751 20 17 15
-19.867071 -3.600691 83.867912 20 17 16
-19.923353 -3.429588 84.105499 20 18 16
-20.036875 -3.266793 84.584732 20 18 17
-14.179321 -0.763396 59.857342 22 18 17
-14.065886 -0.629289 59.378483 22 18 17
-14.065886 -0.501289 59.378483 23 18 16
-19.163334 -0.508568 80.897118 23 17 16
-19.059467 -0.332370 80.458649 23 17 16
-18.905762 -0.157647 79.809792 24 17 16
-18.905762 0.014396 79.809792 23 17 17
-18.905762 0.186439 79.809792 23 17 17
-18.220060 1.008693 76.915138 21 17 18
-18.220060 1.174496 76.915138 21 17 17
-8.160356 -8.087406 34.764919 25 20 18
-7.812717 -7.671126 33.283905 25 19 17
-7.777839 -7.565452 33.135315 25 18 17
-13.691441 -12.814626 58.328571 23 19 15
-13.637854 -12.639226 58.100277 23 18 15
-13.558255 -12.440943 57.761173 22 17 15
-13.479581 -12.244961 57.425999 21 17 15
-13.324940 -11.982112 56.767193 22 17 15
-13.324940 -11.859741 56.767193 23 17 15
-13.531929 -11.919698 57.649014 24 18 16
-8.711179 -6.233305 37.111553 24 17 16
-8.711179 -6.153306 37.111553 25 17 16
-8.711179 -6.073306 37.111553 25 17 16
-8.711179 -5.993306 37.111553 25 17 16
-8.733012 -5.928126 37.204563 24 17 16
-8.733012 -5.847926 37.204563 24 17 15
-8.733012 -5.767725 37.204563 23 17 15
-8.733012 -5.687524 37.204563 22 18 14
-8.788074 -5.642679 37.439144 21 18 14
-8.788074 -5.561973 37.439144 21 17 14
-8.743969 -5.453757 37.251244 20 17 13
-8.722082 -5.360006 37.158001 19 17 12
-8.722082 -5.279905 37.158001 18 16 11
-8.722082 -5.199805 37.158001 17 15 11
-8.711179 -5.113306 37.111553 17 15 11
-8.711179 -5.033306 37.111553 17 15 11
-8.700304 -4.947122 37.065220 17 15 11
-8.667840 -4.849061 36.926918 17 15 11
-8.646332 -4.757624 36.835289 17 15 10
-8.646332 -4.678219 36.835289 17 15 10
-8.582442 -4.564833 36.563107 17 14 10
-8.529919 -4.458561 36.339340 17 15 11
-8.519490 -4.374871 36.294918 17 14 12
-8.509089 -4.291385 36.250603 17 15 13
-8.509089 -4.213241 36.250603 17 15 13
-6.183623 -1.926038 26.343605 18 14 13
-6.134633 -1.854441 26.134897 18 15 14
-6.134633 -1.798103 26.134897 18 15 14
-6.150877 -1.746377 26.204098 18 14 14
-6.167206 -1.694376 26.273666 18 14 13
-7.509637 -1.994229 31.992718 18 14 13
-7.509637 -1.925264 31.992718 17 14 12
-19.092995 -4.719574 81.340393 16 13 11
-19.092995 -4.544231 81.340393 16 13 11
-19.092995 -4.368889 81.340393 17 14 11
-19.145449 -4.205067 81.563850 18 15 12
-19.251225 -4.051504 82.014481 19 16 13
-19.412098 -3.907088 82.699837 20 17 14
-19.520849 -3.749705 83.163147 21 17 15
-19.575684 -3.580462 83.396751 21 18 16
-19.686281 -3.419900 83.867912 21 18 17
-19.686281 -3.239109 83.867912 21 19 17
-19.968319 -3.102133 85.069466 22 19 17
-14.050289 -0.634364 59.857342 24 18 18
-19.040829 -0.684821 81.118149 25 18 17
-19.040829 -0.335094 81.118149 25 17 16
-18.784214 -0.158072 80.024910 25 18 17
-18.784214 0.014435 80.024910 24 18 16
-14.385299 -14.388843 61.852589 25 20 18
-7.891364 -7.820165 33.930561 24 19 17
-13.565704 -12.688890 58.328571 24 18 15
-13.433742 -12.440943 57.761173 23 17 15
-13.381673 -12.268691 57.537292 22 17 15
-13.227860 -12.005066 56.875942 22 17 15
-13.227860 -11.882461 56.875942 23 17 15
-13.407657 -11.919698 57.649014 25 18 16
-8.631179 -6.153306 37.111553 24 17 16
-8.631179 -6.073306 37.111553 24 17 16
-8.631179 -5.993306 37.111553 24 17 16
-8.652811 -5.928126 37.204563 24 17 16
-8.652811 -5.847926 37.204563 24 17 15
-8.652811 -5.767725 37.204563 23 18 15
-8.652811 -5.687524 37.204563 22 18 14
-8.685463 -5.628484 37.344959 21 18 14
-8.685463 -5.547980 37.344959 21 18 14
-8.663668 -5.453757 37.251244 20 18 14
-8.641982 -5.360006 37.158001 19 17 13
-8.641982 -5.279905 37.158001 18 16 12
-8.631179 -5.193305 37.111553 18 15 11
-8.631179 -5.113306 37.111553 17 15 11
-8.631179 -5.033306 37.111553 18 15 11
-8.620403 -4.947122 37.065220 18 16 11
-8.598933 -4.855099 36.972904 18 16 11
-8.577569 -4.763534 36.881046 18 16 10
-8.566927 -4.678219 36.835289 18 15 10
-8.514111 -4.570462 36.608189 17 15 9
-8.461941 -4.464025 36.383877 17 14 11
-8.451583 -4.380226 36.339340 17 14 12
-8.461941 -4.307162 36.383877 17 15 13
-11.173047 -5.583567 48.040844 17 15 14
-7.031510 -2.601471 30.233444 21 14 13
-7.038678 -2.538883 30.264263 21 14 13
-7.053058 -2.478697 30.326090 20 13 12
-6.132277 -1.984587 26.367001 18 13 12
-6.110569 -1.920924 26.273666 17 14 13
-6.078295 -1.854441 26.134897 18 14 14
-6.078295 -1.798103 26.134897 18 14 14
-6.099773 -1.747919 26.227245 18 14 14
-7.440672 -2.063195 31.992718 18 14 14
-7.440672 -1.994229 31.992718 18 14 13
-7.456742 -1.929422 32.061817 17 14 12
-18.917652 -4.719574 81.340393 16 13 11
-18.917652 -4.544231 81.340393 17 14 11
-18.917652 -4.368889 81.340393 17 14 11
-18.969625 -4.205067 81.563850 18 15 12
-19.021883 -4.040343 81.788544 19 16 13
-19.127268 -3.885442 82.241669 21 17 15
-19.233826 -3.728815 82.699837 22 18 16
-19.341578 -3.570433 83.163147 22 18 17
-19.395908 -3.400687 83.396751 22 18 17
-19.395908 -3.220912 83.396751 22 19 17
-19.505489 -3.058318 83.867912 23 19 17
-13.387364 -12.513982 58.100277 24 18 16
-13.257642 -12.268691 57.537292 24 18 16
-13.206454 -12.097770 57.315140 24 18 16
-13.206454 -11.974217 57.315140 24 18 16
-13.283385 -11.919698 57.649014 26 19 16
-8.594150 -6.264629 37.298042 23 16 15
-8.551179 -6.153306 37.111553 23 16 15
-8.551179 -6.073306 37.111553 24 17 15
-8.540504 -5.985823 37.065220 24 17 15
-8.551179 -5.913306 37.111553 24 17 15
-8.561882 -5.840606 37.158001 24 17 15
-8.572611 -5.767725 37.204563 23 18 15
-8.572611 -5.687524 37.204563 22 18 14
-8.594150 -5.621413 37.298042 21 18 14
-8.594150 -5.541011 37.298042 21 18 15
-8.572611 -5.446923 37.204563 21 18 15
-8.551179 -5.353306 37.111553 20 17 14
-8.551179 -5.273306 37.111553 19 16 13
-8.551179 -5.193305 37.111553 18 15 12
-8.551179 -5.113306 37.111553 18 15 11
-8.551179 -5.033306 37.111553 18 15 11
-8.540504 -4.947122 37.065220 19 15 11
-8.519232 -4.855099 36.972904 19 16 11
-8.498066 -4.763534 36.881046 19 16 11
-8.487523 -4.678219 36.835289 18 16 10
-8.435195 -4.570462 36.608189 18 15 10
-8.435195 -4.491547 36.608189 17 15 10
-8.393796 -4.390975 36.428516 17 15 11
-11.159777 -5.733515 48.432693 17 14 13
-11.196306 -5.647536 48.591232 17 15 14
-7.009163 -2.945333 30.419306 19 13 13
-7.009163 -2.879759 30.419306 19 13 13
-6.910044 -2.645096 29.989134 21 14 13
-6.924032 -2.585673 30.049841 21 14 13
-6.966337 -2.536298 30.233444 21 14 13
-6.987685 -2.478697 30.326090 21 14 12
-8.692431 -3.002090 37.724579 20 13 12
-8.692431 -2.920768 37.724579 19 13 11
-6.959250 -2.273290 30.202688 18 13 12
-6.075438 -1.927748 26.367001 17 13 13
-6.043236 -1.860993 26.227245 18 14 14
-6.043236 -1.804456 26.227245 19 15 14
-6.053932 -1.751013 26.273666 19 15 14
-7.387628 -2.067651 32.061817 18 15 14
-7.387628 -1.998536 32.061817 18 15 13
-17.955233 -4.689356 77.924522 17 14 12
-18.691103 -4.706679 81.118149 16 13 11
-18.742311 -4.544231 81.340393 17 14 11
-18.742311 -4.368889 81.340393 17 14 11
-18.742311 -4.193547 81.340393 18 15 12
-18.793800 -4.029243 81.563850 20 16 13
-18.845573 -3.864034 81.788544 22 17 15
-18.949982 -3.708157 82.241669 23 18 17
-19.055553 -3.550542 82.699837 23 19 18
-19.055553 -3.372269 82.699837 23 19 18
-19.055553 -3.193996 82.699837 23 19 17
-19.055553 -3.015723 82.699837 23 19 18
-12.907440 0.855388 56.017437 24 19 16
-12.907440 0.976142 56.017437 24 19 16
-13.236217 -12.364540 57.986801 25 19 17
-13.133611 -12.144660 57.537292 25 19 17
-13.159113 -12.043970 57.649014 25 19 17
-13.419690 -12.155732 58.790577 27 20 18
-8.744443 -6.516961 38.308701 21 15 15
-8.471179 -6.233305 37.111553 22 15 15
-8.460604 -6.145624 37.065220 23 16 15
-8.460604 -6.065723 37.065220 23 16 15
-8.460604 -5.985823 37.065220 23 16 15
-8.471179 -5.913306 37.111553 24 16 15
-8.471179 -5.833306 37.111553 23 17 15
-8.481781 -5.760506 37.158001 23 17 14
-8.481781 -5.680406 37.158001 21 17 14
-8.492411 -5.607324 37.204563 21 17 14
-8.492411 -5.527123 37.204563 22 18 15
-8.471179 -5.433306 37.111553 22 17 16
-8.471179 -5.353306 37.111553 21 17 16
-8.450054 -5.260155 37.019005 20 16 15
-8.471179 -5.193305 37.111553 20 15 15
-8.471179 -5.113306 37.111553 19 15 14
-8.460604 -5.027022 37.065220 20 16 13
-8.450054 -4.940953 37.019005 20 16 13
-8.439531 -4.855099 36.972904 20 16 12
-8.418563 -4.763534 36.881046 20 16 11
-8.408118 -4.678219 36.835289 19 16 11
-8.408118 -4.598814 36.835289 18 15 11
-11.055372 -5.942324 48.432693 18 15 11
-11.055372 -5.837919 48.432693 17 15 12
-11.091560 -5.752282 48.591232 17 15 13
-11.127986 -5.666083 48.750809 17 14 14
-11.127986 -5.560993 48.750809 18 15 14
-11.127986 -5.455903 48.750809 18 15 14
-11.146289 -5.359613 48.830990 18 15 14
-11.146289 -5.254350 48.830990 18 14 14
-11.146289 -5.043823 48.830990 17 13 12
-11.109743 -4.922368 48.670887 18 13 13
-6.957848 -3.017089 30.481768 18 14 13
-6.943590 -2.945333 30.419306 18 13 13
-6.929390 -2.873870 30.357098 18 13 13
-6.915248 -2.802699 30.295145 18 14 13
-6.852319 -2.712482 30.019457 19 13 12
-6.845397 -2.645096 29.989134 20 14 13
-6.852319 -2.583058 30.019457 21 14 13
-6.887137 -2.531143 30.171993 21 14 13
-8.611110 -3.083411 37.724579 21 14 12
-8.611110 -3.002090 37.724579 20 14 12
-8.611110 -2.920768 37.724579 19 13 12
-17.787252 -4.857335 77.924522 18 15 13
-18.465786 -4.868241 80.897118 17 14 12
-18.516239 -4.706679 81.118149 16 13 11
-18.566969 -4.544231 81.340393 17 13 11
-18.566969 -4.368889 81.340393 17 14 11
-18.566969 -4.193547 81.340393 19 15 12
-18.566969 -4.018204 81.340393 21 16 14
-18.617977 -3.853419 81.563850 23 18 16
-18.617977 -3.677595 81.563850 24 19 17
-18.669266 -3.511417 81.788544 24 20 18
-18.617977 -3.325947 81.563850 24 20 18
-18.566969 -3.141492 81.340393 24 20 18
-18.415607 -2.941969 80.677292 24 20 18
-18.617977 -2.798474 81.563850 25 19 19
-16.942358 -1.586611 74.223106 27 19 19
-16.900108 -1.423054 74.038010 26 19 19
-16.816236 -1.257182 73.670578 26 19 19
-12.957827 0.744466 56.767193 27 20 17
-12.786686 0.855388 56.017437 26 19 17
-12.786686 0.976142 56.017437 26 19 16
-12.738615 1.092773 55.806847 25 19 16
-12.738615 1.213074 55.806847 25 19 17
-12.738615 1.333375 55.806847 24 19 17
-6.835991 -6.707377 30.233444 27 19 16
-6.849942 -6.655760 30.295145 28 19 16
-13.292957 -12.535930 58.790577 26 19 17
-13.162634 -12.287539 58.214199 26 19 17
-13.292957 -12.282464 58.790577 27 20 18
-13.506928 -12.351398 59.736904 28 21 18
-13.671983 -12.371984 60.466888 28 21 19
-8.422765 -6.337070 37.251244 21 15 14
-7.368763 -5.473814 32.589729 21 15 14
-7.368763 -5.403562 32.589729 22 15 14
-8.380703 -6.065723 37.065220 22 16 14
-8.380703 -5.985823 37.065220 22 16 14
-8.380703 -5.905923 37.065220 23 16 15
-8.391179 -5.833306 37.111553 23 15 14
-8.391179 -5.753305 37.111553 22 16 14
-8.391179 -5.673306 37.111553 22 16 14
-8.412210 -5.607324 37.204563 21 17 14
-8.412210 -5.527123 37.204563 22 17 16
-8.391179 -5.433306 37.111553 22 17 16
-8.370254 -5.339956 37.019005 22 17 16
-8.359830 -5.253604 36.972904 22 16 16
-8.359830 -5.173903 36.972904 22 16 16
-8.359830 -5.094203 36.972904 21 16 15
-8.370254 -5.020754 37.019005 21 16 15
-8.359830 -4.934800 36.972904 21 16 14
-8.339060 -4.843037 36.881046 20 16 12
-8.328713 -4.757624 36.835289 20 16 12
-8.328713 -4.678219 36.835289 19 16 12
-11.022896 -6.086444 48.750809 19 15 12
-11.004826 -5.971549 48.670887 18 15 12
-11.004826 -5.866631 48.670887 17 15 12
-11.004826 -5.761713 48.670887 17 15 13
-11.041025 -5.675402 48.830990 17 14 13
-11.022896 -5.560993 48.750809 17 15 13
-11.022896 -5.455903 48.750809 17 15 14
-11.041025 -5.359613 48.830990 18 15 14
-11.059215 -5.263006 48.911438 18 14 14
-11.095774 -5.174619 49.073128 17 14 13
-11.041025 -5.043823 48.830990 17 14 13
-10.986814 -4.914312 48.591232 18 14 13
-6.899222 -3.020190 30.513096 18 14 13
-6.885070 -2.948353 30.450504 18 13 13
-6.878016 -2.879759 30.419306 17 13 13
-6.842959 -2.799841 30.264263 17 13 13
-6.794477 -2.715227 30.049841 18 14 13
-6.787607 -2.647770 30.019457 19 14 12
-6.794477 -2.585673 30.049841 20 14 12
-17.712252 -4.882967 78.335732 18 15 13
-18.291399 -4.868241 80.897118 17 14 12
-18.341375 -4.706679 81.118149 17 13 11
-18.391626 -4.544231 81.340393 17 13 11
-18.391626 -4.368889 81.340393 18 14 11
-18.391626 -4.193547 81.340393 20 15 13
-18.391626 -4.018204 81.340393 22 17 15
-18.391626 -3.842862 81.340393 24 18 17
-18.391626 -3.667519 81.340393 25 19 18
-18.391626 -3.492177 81.340393 25 20 19
-18.341375 -3.307772 81.118149 25 21 19
-18.241693 -3.115882 80.677292 25 21 19
-18.143089 -2.926066 80.241196 26 21 19
-18.143089 -2.753093 80.241196 26 20 19
-16.824419 -1.750989 74.409126 29 19 19
-16.740507 -1.582655 74.038010 29 19 19
-16.740507 -1.423054 74.038010 28 19 19
-16.616196 -1.254071 73.488220 28 19 18
-16.616196 -1.095655 73.488220 28 19 18
-23.308830 0.463040 103.087646 29 21 20
-13.085660 0.758978 57.873768 28 20 17
-12.835456 0.866836 56.767193 28 19 17
-12.738033 0.981699 56.336323 27 19 16
-12.689874 1.098971 56.123333 26 19 16
-12.618315 1.213074 55.806847 26 19 17
-9.672829 1.022126 42.779888 26 19 17
-9.672829 1.114345 42.779888 25 19 17
-9.828614 1.225996 43.468876 24 20 18
-9.828614 1.319701 43.468876 24 20 18
-9.828614 1.413405 43.468876 24 19 19
-16.782358 3.533389 74.223106 29 20 22
-6.784636 -6.655760 30.295145 29 19 16
-13.351292 -12.712137 59.616951 28 19 16
-13.166224 -12.409197 58.790577 27 19 17
-13.244907 -12.355865 59.141918 27 20 17
-13.378156 -12.351398 59.736904 28 21 18
-13.541636 -12.371984 60.466888 29 21 19
-13.541636 -12.241638 60.466888 30 21 19
-13.569272 -12.136009 60.590290 30 21 19
-13.541636 -11.980947 60.466888 31 21 19
-7.298511 -5.544066 32.589729 21 16 13
-7.290508 -5.467812 32.553993 21 16 14
-7.282523 -5.391725 32.518337 21 16 15
-7.274555 -5.315804 32.482761 22 16 15
-7.211435 -5.200265 32.200912 22 16 15
-7.180285 -5.108687 32.061817 23 16 15
-7.172539 -5.034136 32.027229 23 15 15
-8.311179 -5.753305 37.111553 23 15 15
-8.311179 -5.673306 37.111553 22 16 15
-8.332009 -5.607324 37.204563 22 16 15
-8.332009 -5.527123 37.204563 22 17 16
-8.311179 -5.433306 37.111553 22 17 16
-8.280128 -5.333306 36.972904 22 17 16
-8.269830 -5.247070 36.926918 22 16 16
-8.269830 -5.167469 36.926918 22 16 16
-8.269830 -5.087866 36.926918 22 16 16
-8.269830 -5.008265 36.926918 22 16 16
-8.259557 -4.922540 36.881046 21 16 14
-8.239087 -4.831034 36.789642 21 16 13
-8.239087 -4.751728 36.789642 20 15 13
-10.882068 -6.171268 48.591232 20 15 13
-10.917805 -6.086444 48.750809 19 15 13
-10.899907 -5.971549 48.670887 18 14 13
-10.899907 -5.866631 48.670887 18 15 13
-10.935762 -5.780665 48.830990 17 14 13
-10.935762 -5.675402 48.830990 17 15 13
-10.935762 -5.570139 48.830990 17 15 13
-10.935762 -5.464876 48.830990 17 15 13
-10.953778 -5.368443 48.911438 17 15 13
-11.008184 -5.289146 49.154373 17 15 13
-11.008184 -5.183187 49.154373 17 15 13
-10.989989 -5.068834 49.073128 17 15 13
-10.935762 -4.938560 48.830990 17 14 13
-6.847521 -3.026410 30.575945 17 14 13
-6.833447 -2.954414 30.513096 17 14 13
-6.819429 -2.882712 30.450504 17 13 13
-6.784636 -2.802699 30.295145 17 13 13
-6.777720 -2.734602 30.264263 18 14 13
-6.736518 -2.653135 30.080286 19 14 12
-18.067781 -4.855012 80.677292 17 14 12
-18.166512 -4.706679 81.118149 17 13 11
-18.216284 -4.544231 81.340393 18 13 11
-18.216284 -4.368889 81.340393 19 14 12
-18.216284 -4.193547 81.340393 21 15 13
-18.166512 -4.007226 81.118149 23 17 15
-18.166512 -3.832362 81.118149 24 18 17
-18.117012 -3.647533 80.897118 26 19 18
-18.117012 -3.473146 80.897118 26 21 20
-18.067781 -3.289795 80.677292 27 22 20
-17.970118 -3.099039 80.241196 27 22 20
-17.825586 -2.902532 79.595825 27 21 20
-17.730516 -2.716385 79.171310 28 21 21
-17.048573 -1.955499 76.126259 30 20 19
-16.664019 -1.750989 74.409126 30 19 18
-16.622358 -1.586611 74.223106 30 19 18
-16.580906 -1.423054 74.038010 29 18 18
-16.498619 -1.257182 73.670578 29 19 18
-16.498619 -1.098374 73.670578 29 19 18
-23.248055 0.242502 103.808540 28 21 19
-22.311890 0.447502 99.628326 29 21 20
-22.311890 0.662267 99.628326 29 21 20
-22.163145 0.871185 98.964142 30 20 20
-13.652861 0.668081 60.963535 30 20 19
-12.986217 0.760460 57.986801 30 20 18
-12.860625 0.876896 57.425999 29 19 17
-12.713085 0.989207 56.767193 28 20 17
-12.616590 1.103141 56.336323 27 20 17
-12.568891 1.219954 56.123333 27 20 17
-9.553080 1.019189 42.656956 27 20 18
-9.553080 1.111143 42.656956 26 20 18
-9.650135 1.215320 43.090336 26 20 18
-9.678229 1.312017 43.215782 26 20 19
-9.706487 1.409278 43.341961 26 19 19
-9.706487 1.502709 43.341961 25 19 19
-16.875490 3.587197 75.353409 29 21 22
-16.664019 3.702645 74.409126 31 21 23
-13.249383 -12.608943 59.736904 28 19 16
-13.276095 -12.505332 59.857342 27 20 17
-13.411290 -12.502331 60.466888 28 21 18
-13.521444 -12.473602 60.963535 28 21 18
-13.521444 -12.342186 60.963535 29 21 19
-13.438660 -12.136009 60.590290 30 21 19
-13.356883 -11.932342 60.221588 30 21 19
-13.438660 -11.874784 60.590290 30 20 19
-14.191689 -12.402251 63.985435 30 20 18
-7.220333 -5.537987 32.553993 22 17 13
-7.220333 -5.467812 32.553993 21 16 14
-7.204533 -5.385826 32.482761 21 16 15
-7.142021 -5.269680 32.200912 22 16 16
-7.111170 -5.177802 32.061817 22 16 17
-7.095844 -5.097677 31.992718 23 16 16
-7.088206 -5.023299 31.958281 23 16 16
-7.065390 -4.938460 31.855410 23 15 16
-8.231179 -5.673306 37.111553 23 15 16
-8.251809 -5.607324 37.204563 22 16 16
-8.262162 -5.534059 37.251244 22 16 16
-8.231179 -5.433306 37.111553 22 16 16
-8.200428 -5.333306 36.972904 22 16 16
-8.190228 -5.247070 36.926918 22 16 16
-8.180054 -5.161049 36.881046 22 16 16
-8.169905 -5.075242 36.835289 22 16 16
-8.159781 -4.989646 36.789642 22 16 16
-8.129560 -4.892154 36.653385 21 16 15
-8.119535 -4.807207 36.608189 21 15 14
-8.119535 -4.728292 36.608189 21 14 13
-10.794990 -6.181385 48.670887 20 14 13
-10.794990 -6.076467 48.670887 20 14 13
-10.777322 -5.961775 48.591232 19 14 13
-10.777322 -5.857028 48.591232 18 14 13
-10.866243 -5.799744 48.992149 17 14 13
-10.866243 -5.694133 48.992149 17 14 13
-10.848342 -5.579316 48.911438 17 15 13
-10.848342 -5.473879 48.911438 17 15 13
-10.902225 -5.395107 49.154373 17 15 13
-10.974906 -5.324408 49.482071 17 15 13
-10.974906 -5.217741 49.482071 17 15 13
-10.974906 -5.111074 49.482071 17 15 13
-10.884204 -4.963049 49.073128 17 15 13
-6.788601 -3.029531 30.607466 17 14 13
-6.781610 -2.960499 30.575945 17 14 13
-6.753788 -2.882712 30.450504 17 14 13
-6.719330 -2.802699 30.295145 18 14 13
-6.719330 -2.737392 30.295145 18 14 13
-9.902170 -3.264127 44.645477 18 13 13
-17.845375 -4.841855 80.458649 17 14 12
-17.893867 -4.681099 80.677292 17 13 11
-17.942625 -4.519467 80.897118 18 13 11
-17.942625 -4.345080 80.897118 19 14 12
-17.942625 -4.170693 80.897118 22 15 13
-17.942625 -3.996307 80.897118 23 16 15
-17.893867 -3.811534 80.677292 25 18 17
-17.893867 -3.637621 80.677292 26 20 19
-17.893867 -3.463708 80.677292 27 21 20
-17.797144 -3.272012 80.241196 28 22 21
-17.654003 -3.074114 79.595825 29 22 21
-17.466694 -2.871736 78.751305 29 22 21
-17.374521 -2.687716 78.335732 29 22 22
-17.374521 -2.518851 78.335732 30 22 22
-16.884470 -1.955499 76.126259 30 20 19
-16.586760 -1.759810 74.783989 31 20 19
-16.462358 -1.586611 74.223106 31 19 18
-16.462358 -1.426611 74.223106 31 19 18
-16.339809 -1.257182 73.670578 31 19 18
-16.299364 -1.095655 73.488220 31 19 18
-23.268351 0.245072 104.908981 28 21 19
-22.864388 0.463040 103.087646 29 20 20
-23.268351 0.697369 104.908981 30 20 20
-13.521444 0.668081 60.963535 31 20 19
-12.937020 0.764942 58.328571 30 20 18
-12.861217 0.885460 57.986801 29 19 18
-12.712246 0.998756 57.315140 29 20 18
-12.518904 1.105239 56.443428 28 20 17
-12.447908 1.219954 56.123333 28 20 17
-9.461125 1.019189 42.656956 27 21 18
-9.543396 1.120805 43.027885 27 21 19
-9.641206 1.225996 43.468876 27 20 19
-9.641206 1.319701 43.468876 27 20 19
-9.641206 1.413405 43.468876 26 20 20
-9.641206 1.507109 43.468876 26 20 20
-16.971504 3.477720 76.518669 28 20 21
-16.884470 3.623988 76.126259 30 21 22
-17.015358 3.817456 76.716385 31 21 23
-17.148291 4.013947 77.315735 32 21 23
-13.173623 -12.659888 59.978268 28 19 16
-13.173623 -12.530595 59.978268 27 20 16
-13.445244 -12.656999 61.214931 27 20 17
-13.585299 -12.655509 61.852589 28 20 17
-13.557055 -12.496142 61.723995 29 20 18
-13.528928 -12.337437 61.595940 29 20 18
-13.445244 -12.129164 61.214931 30 20 18
-13.585299 -12.122176 61.852589 30 20 19
-14.023534 -12.375580 63.847832 30 20 18
-7.150157 -5.608163 32.553993 23 18 14
-7.150157 -5.537987 32.553993 22 17 14
-7.150157 -5.467812 32.553993 22 17 14
-7.134511 -5.385826 32.482761 22 17 15
-7.072607 -5.269680 32.200912 21 17 16
-7.034459 -5.172216 32.027229 22 17 17
-7.026879 -5.097677 31.992718 23 17 17
-7.004236 -5.012507 31.889626 23 16 17
-6.951965 -4.906870 31.651644 23 16 17
-6.951965 -4.838640 31.651644 23 15 16
-8.171608 -5.446923 37.204563 23 16 16
-8.120727 -5.333306 36.972904 22 16 16
-8.090501 -5.234050 36.835289 22 16 16
-8.080475 -5.148258 36.789642 22 16 16
-8.080475 -5.068953 36.789642 22 15 16
-8.070475 -4.983471 36.744110 21 15 16
-8.040621 -4.886121 36.608189 21 15 15
-7.991352 -4.777750 36.383877 21 14 14
-7.991352 -4.699319 36.383877 21 14 13
-7.991352 -4.620888 36.383877 21 13 13
-10.672575 -6.066521 48.591232 20 13 13
-10.655136 -5.952034 48.511833 19 14 13
-10.672575 -5.857028 48.591232 18 14 13
-10.778419 -5.809330 49.073128 18 14 13
-10.778419 -5.703545 49.073128 17 14 13
-10.742905 -5.579316 48.911438 16 14 12
-10.725236 -5.464876 48.830990 17 14 12
-10.814168 -5.404054 49.235889 17 15 13
-10.868239 -5.324408 49.482071 17 15 13
-10.886383 -5.226452 49.564678 17 15 13
-10.922853 -5.136758 49.730724 17 15 12
-10.959569 -5.046462 49.897884 17 15 13
-6.757454 -3.045228 30.766054 17 14 13
-6.722622 -2.963551 30.607466 17 14 13
-6.695014 -2.885672 30.481768 17 14 13
-6.660820 -2.805561 30.326090 18 14 13
-6.660820 -2.740189 30.326090 18 14 13
-8.050548 -2.995857 36.653385 18 14 11
-8.120727 -2.942272 36.972904 18 14 12
-9.776526 -3.254340 44.511608 18 14 13
-17.115337 -4.857335 77.924522 17 13 13
-17.624170 -4.828769 80.241196 17 13 13
-17.671934 -4.668413 80.458649 18 13 12
-17.719955 -4.507186 80.677292 18 13 11
-17.719955 -4.333273 80.677292 19 13 12
-17.719955 -4.159360 80.677292 21 14 13
-17.719955 -3.985447 80.677292 23 16 15
-17.719955 -3.811534 80.677292 25 18 17
-17.671934 -3.627763 80.458649 27 20 19
-17.624170 -3.444985 80.241196 28 21 20
-17.529417 -3.254421 79.809792 29 23 22
-17.342934 -3.049587 78.960747 30 23 22
-17.205656 -2.856582 78.335732 30 23 23
-17.070532 -2.666609 77.720528 30 23 23
-17.070532 -2.499069 77.720528 30 23 23
-16.806555 -1.965579 76.518669 30 19 19
-16.508717 -1.768720 75.162636 31 19 19
-16.384279 -1.594584 74.596085 32 19 19
-16.302359 -1.426611 74.223106 32 19 19
-16.221252 -1.260310 73.853836 33 20 19
-16.140949 -1.095655 73.488220 33 20 19
-16.101095 -0.934925 73.306770 32 20 18
-23.289083 0.476270 106.033005 30 21 20
-12.912759 0.644268 58.790577 32 19 20
-12.811284 0.764942 58.328571 31 19 19
-12.736217 0.885460 57.986801 31 19 19
-12.588694 0.998756 57.315140 30 20 18
-12.350271 1.101052 56.229626 29 20 17
-9.289093 0.919310 42.292366 28 21 17
-12.350271 1.343476 56.229626 27 21 18
-15.129799 1.794328 68.884552 27 21 19
-15.129799 1.942820 68.884552 27 21 19
-9.703785 1.341303 44.180420 27 20 19
-15.563110 2.303951 70.857384 27 20 20
-16.981623 3.513947 77.315735 28 20 21
-16.849983 3.652081 76.716385 30 20 22
-16.981623 3.847280 77.315735 32 21 22
-17.115337 4.045552 77.924522 33 21 22
-17.389183 4.280948 79.171310 34 22 23
-13.018031 -12.634364 59.857342 28 19 15
-13.018031 -12.505332 59.857342 27 19 16
-13.044330 -12.401302 59.978268 27 19 16
-13.480049 -12.681931 61.981716 28 19 17
-13.451965 -12.522176 61.852589 29 19 18
-13.423999 -12.363087 61.723995 29 19 18
-13.313285 -12.129164 61.214931 30 20 18
-13.451965 -12.122176 61.852589 30 19 18
-13.796887 -12.296249 63.438553 30 19 18
-13.885900 -12.237946 63.847832 30 19 18
-7.079982 -5.537987 32.553993 23 18 16
-7.079982 -5.467812 32.553993 23 18 16
-7.079982 -5.397636 32.553993 22 18 16
-7.056769 -5.309994 32.447258 22 17 17
-6.988034 -5.189009 32.131214 22 17 18
-6.965419 -5.103177 32.027229 23 17 19
-6.935493 -5.012507 31.889626 24 17 19
-6.876404 -4.901645 31.617937 23 16 18
-6.876404 -4.833487 31.617937 23 16 17
-8.051051 -5.419756 37.019005 23 15 16
-6.495919 -4.308496 29.868452 23 15 15
-7.942120 -5.188985 36.518131 22 15 15
-8.001169 -5.148258 36.789642 22 15 15
-8.001169 -5.068953 36.789642 22 15 15
-7.991267 -4.983471 36.744110 21 14 15
-7.971535 -4.892154 36.653385 21 14 15
-7.942120 -4.795381 36.518131 22 14 14
-7.874321 -4.676396 36.206394 22 14 14
-7.751432 -4.526584 35.641346 21 13 13
-10.448129 -5.997807 48.040844 21 13 13
-10.533350 -5.942324 48.432693 20 14 13
-10.567829 -5.857028 48.591232 19 15 14
-10.672634 -5.809330 49.073128 18 14 13
-10.655022 -5.694133 48.992149 17 14 12
-10.619972 -5.570139 48.830990 17 14 12
-10.602534 -5.455903 48.750809 17 14 12
-10.708032 -5.404054 49.235889 16 14 12
-10.815651 -5.351163 49.730724 17 14 13
-10.852006 -5.261588 49.897884 16 14 13
-10.943972 -5.197702 50.320751 17 15 12
-10.906999 -5.072035 50.150745 17 15 12
-10.888606 -4.955556 50.066177 17 14 13
-6.691133 -2.978906 30.766054 17 14 13
-6.684206 -2.909570 30.734205 18 15 14
-6.595448 -2.805561 30.326090 18 15 14
-6.595448 -2.740189 30.326090 18 15 13
-7.971535 -3.074870 36.653385 18 15 11
-7.845618 -2.948535 36.074413 18 15 11
-7.971535 -2.916845 36.653385 19 15 12
-9.608546 -3.420602 44.180420 19 15 13
-9.622867 -3.330320 44.246262 19 15 13
-9.622867 -3.234940 44.246262 19 14 13
-9.680574 -3.158388 44.511608 18 14 14
-16.947357 -4.857335 77.924522 18 13 14
-16.991957 -4.701696 78.129585 18 13 14
-17.451199 -4.655796 80.241196 18 13 13
-17.498491 -4.494972 80.458649 19 13 12
-17.498491 -4.321530 80.458649 19 13 12
-17.498491 -4.148088 80.458649 21 14 13
-17.498491 -3.974646 80.458649 23 16 15
-17.498491 -3.801205 80.458649 25 18 17
-17.451199 -3.617958 80.241196 28 20 19
-17.451199 -3.444985 80.241196 29 22 20
-17.357374 -3.254421 79.809792 29 23 22
-17.127171 -3.041497 78.751305 30 24 23
-17.036789 -2.856582 78.335732 30 25 24
-16.947357 -2.673608 77.924522 30 25 25
-16.947357 -2.505629 77.924522 31 23 24
-16.684608 -1.970658 76.716385 30 19 20
-16.388182 -1.773209 75.353409 31 19 19
-16.264341 -1.598601 74.783989 32 20 20
-16.142359 -1.426611 74.223106 33 20 19
-16.102102 -1.263453 74.038010 34 20 19
-15.982533 -1.095655 73.488220 34 20 19
-15.864726 -0.930331 72.946541 34 20 19
-15.596481 -0.760011 71.713142 34 21 20
-12.760757 0.642995 58.674393 32 19 20
-12.660673 0.763442 58.214199 32 19 20
-12.611217 0.885460 57.986801 32 19 19
-12.586635 1.008490 57.873768 31 20 18
-12.441124 1.120145 57.204704 30 20 18
-14.981307 1.497344 68.884552 28 21 17
-15.051150 1.653509 69.205696 28 21 18
-15.051150 1.802693 69.205696 27 21 18
-15.051150 1.951878 69.205696 27 21 19
-15.051150 2.101062 69.205696 27 21 19
-15.672193 2.343096 72.061264 27 21 19
-16.814957 3.513947 77.315735 28 20 21
-16.814957 3.680613 77.315735 30 20 21
-16.947357 3.877573 77.924522 32 21 22
-17.172722 4.099349 78.960747 34 21 22
-17.264555 4.292394 79.383003 35 22 23
-5.340805 -5.235292 24.803043 27 19 15
-5.340805 -5.181825 24.803043 26 18 15
-5.340805 -5.128358 24.803043 26 18 16
-5.331896 -5.066426 24.761669 27 18 17
-5.327453 -5.008871 24.741035 28 18 17
-5.314167 -4.943179 24.679337 29 19 18
-5.309753 -4.885917 24.658838 30 19 18
-5.309753 -4.832761 24.658838 30 19 18
-13.631009 -12.270031 63.303288 30 19 18
-13.660135 -12.159497 63.438553 30 19 18
-13.660135 -12.022745 63.438553 30 18 18
-12.609356 -10.845452 58.558662 29 19 18
-12.535183 -10.656166 58.214199 28 19 17
-12.461878 -10.469092 57.873768 27 19 17
-12.461878 -10.344337 57.873768 27 19 17
-12.559810 -10.299891 58.328571 26 19 17
-6.866749 -5.012507 31.889626 24 17 19
-6.329647 -4.557074 29.395288 24 17 18
-6.329647 -4.493708 29.395288 24 16 18
-6.342206 -4.439131 29.453613 24 16 17
-6.348504 -4.379985 29.482862 24 16 16
-6.418618 -4.364101 29.808475 23 15 16
-6.418618 -4.299844 29.808475 23 15 15
-6.425069 -4.239844 29.838434 22 15 15
-7.912059 -5.141887 36.744110 22 15 15
-8.001181 -5.119705 37.158001 22 14 15
-7.951422 -5.008265 36.926918 22 14 15
-7.892523 -4.892154 36.653385 22 14 15
-7.796272 -4.754445 36.206394 23 14 14
-7.503455 -4.500756 34.846527 23 13 14
-7.407814 -4.369229 34.402367 22 13 13
-7.494658 -4.345421 34.805676 21 13 12
-10.428946 -5.942324 48.432693 20 14 13
-10.708447 -5.887177 49.730724 19 14 13
-10.549412 -5.694133 48.992149 18 14 12
-10.463082 -5.542790 48.591232 17 14 12
-10.463082 -5.438044 48.591232 17 14 12
-10.327857 -5.264369 47.963234 17 14 12
-10.532032 -5.263006 48.911438 17 14 12
-11.098860 -5.435147 51.543823 16 14 13
-11.098860 -5.324036 51.543823 16 14 13
-11.041353 -5.185915 51.276756 16 14 13
-10.835497 -4.980753 50.320751 16 14 13
-10.672693 -4.799073 49.564678 17 14 13
-9.042353 -3.975452 41.993271 18 15 14
-9.016846 -3.873970 41.874813 18 15 13
-6.530075 -2.740189 30.326090 18 15 12
-9.016846 -3.693434 41.874813 18 15 11
-7.767853 -2.948535 36.074413 19 16 11
-9.278583 -3.429092 43.090336 19 16 12
-9.346409 -3.360591 43.405323 19 16 13
-9.360093 -3.271807 43.468876 19 16 13
-9.429120 -3.201541 43.789444 19 15 13
-9.429120 -3.107145 43.789444 18 14 14
-7.199261 -2.156131 33.433830 17 13 14
-7.199261 -2.084059 33.433830 18 13 14
-16.823536 -4.701696 78.129585 18 13 14
-17.139257 -4.618350 79.595825 18 13 14
-17.231653 -4.470740 80.024910 19 14 13
-17.278225 -4.309850 80.241196 20 14 13
-17.325050 -4.148088 80.458649 21 15 14
-17.325050 -3.974646 80.458649 23 16 15
-17.325050 -3.801205 80.458649 25 18 17
-17.278225 -3.617958 80.241196 27 20 19
-17.231653 -3.435699 80.024910 29 22 20
-17.139257 -3.245696 79.595825 29 23 22
-16.957409 -3.041497 78.751305 30 25 23
-16.867924 -2.856582 78.335732 31 26 25
-16.823536 -2.680644 78.129585 31 25 25
-16.779379 -2.505629 77.924522 31 24 24
-16.779379 -2.337650 77.924522 31 22 23
-16.735455 -2.163991 77.720528 31 21 21
-16.605047 -1.980895 77.114914 31 20 20
-16.392162 -1.791396 76.126259 32 20 19
-16.143797 -1.602638 74.972832 34 20 20
-16.022415 -1.430187 74.409126 34 21 20
-15.982358 -1.266611 74.223106 35 21 20
-15.942502 -1.103852 74.038010 35 21 20
-15.707478 -0.930331 72.946541 35 21 20
-15.554606 -0.765558 72.236603 35 22 21
-15.592545 -0.611328 72.412788 34 23 21
-12.609356 0.641727 58.558662 32 20 20
-12.535183 0.763442 58.214199 32 20 20
-12.535183 0.888932 58.214199 32 19 20
-12.486217 1.010460 57.986801 31 19 19
-15.785046 1.435446 73.306770 30 20 18
-15.294123 1.543913 71.026894 29 21 18
-14.971765 1.661254 69.529839 28 21 18
-14.936784 1.806905 69.367386 28 21 19
-14.936784 1.956438 69.367386 28 21 19
-15.404683 2.171941 71.540344 28 21 19
-16.735455 3.532344 77.720528 28 20 21
-16.735455 3.699883 77.720528 30 20 21
-16.779379 3.877573 77.924522 32 21 21
-17.093431 4.121271 79.383003 34 21 21
-17.139257 4.303902 79.595825 35 22 23
-5.282924 -5.284344 24.782339 27 19 16
-5.282924 -5.230922 24.782339 26 19 16
-5.278518 -5.173182 24.761669 25 19 16
-5.282924 -5.124077 24.782339 25 18 16
-5.278518 -5.066426 24.761669 26 17 16
-5.269728 -5.004700 24.720434 27 18 17
-5.252235 -4.934975 24.638374 28 18 17
-5.252235 -4.881863 24.638374 29 19 18
-5.247880 -4.824747 24.617945 30 19 19
-5.256598 -4.779605 24.658838 30 19 19
-12.863706 -11.566351 60.343987 30 19 18
-12.863706 -11.436270 60.343987 30 19 18
-12.532561 -11.015138 58.790577 30 19 18
-12.409693 -10.781656 58.214199 29 19 17
-12.361217 -10.614540 57.986801 28 19 17
-12.313119 -10.448725 57.761173 27 19 17
-12.313119 -10.324211 57.761173 27 19 17
-12.434073 -10.299891 58.328571 26 19 17
-12.458549 -10.194182 58.443390 26 19 17
-6.260082 -4.552567 29.366215 25 17 19
-6.266281 -4.493708 29.395288 25 17 18
-6.272491 -4.434732 29.424423 25 17 17
-6.278714 -4.375639 29.453613 24 16 17
-6.278714 -4.312147 29.453613 24 16 16
-6.354361 -4.299844 29.808475 23 16 16
-6.367146 -4.244109 29.868452 23 16 16
-7.921081 -5.199805 37.158001 23 15 15
