ply
format ascii 1.0
element vertex 1200
property float x
property float y
property float z
property uchar red
property uchar green
property uchar blue
end_header
10.658969 7.380289 63.303288 152 130 127
10.658969 7.516749 63.303288 150 126 124
10.658969 7.653210 63.303288 149 124 124
10.727590 7.839818 63.710819 121 96 99
10.750659 7.994313 63.847832 87 60 66
10.773829 8.149473 63.985435 72 45 53
10.750659 8.269582 63.847832 71 43 52
10.750659 8.407216 63.847832 70 42 50
10.750659 8.544850 63.847832 75 47 52
10.750659 8.682485 63.847832 94 66 68
10.750659 8.820119 63.847832 120 92 90
10.750659 8.957754 63.847832 129 103 98
10.750659 9.095388 63.847832 119 94 86
10.727590 9.213209 63.710819 106 83 74
10.750659 9.370657 63.847832 99 78 68
10.750659 9.508291 63.847832 89 68 60
10.773829 9.666715 63.985435 76 56 49
10.773829 9.804646 63.985435 68 48 44
10.773829 9.942576 63.985435 68 47 46
10.773829 10.080507 63.985435 67 47 47
10.773829 10.218438 63.985435 62 42 42
10.797098 10.378737 64.123634 56 37 38
10.797098 10.516967 64.123634 54 35 37
10.797098 10.655195 64.123634 58 40 42
10.750659 10.747001 63.847832 71 53 56
10.727590 10.861278 63.710819 88 71 74
10.704618 10.975065 63.574394 89 73 75
10.704618 11.112110 63.574394 69 53 55
10.658969 11.201184 63.303288 48 33 34
10.636291 11.313522 63.168602 42 27 27
10.636291 11.449693 63.168602 43 28 28
10.636291 11.585863 63.168602 44 29 30
10.591222 11.672363 62.900936 45 30 31
10.524330 11.733380 62.503666 45 31 32
10.591222 11.943550 62.900936 45 32 33
10.750659 12.260980 63.847832 45 33 33
10.773829 12.425335 63.985435 44 33 33
10.773829 12.563266 63.985435 43 32 31
11.158608 13.154811 66.270630 41 31 30
11.158608 13.297668 66.270630 39 29 28
11.133757 13.410591 66.123032 36 28 26
11.084383 13.493028 65.829803 33 26 24
11.084383 13.634934 65.829803 32 24 24
11.084383 13.776841 65.829803 30 23 24
11.084383 13.918748 65.829803 30 22 24
11.084383 14.060656 65.829803 30 23 25
11.084383 14.202562 65.829803 31 24 25
11.084383 14.344469 65.829803 32 25 26
11.059860 14.454327 65.684166 32 25 26
11.035445 14.563699 65.539169 32 25 26
11.035445 14.704979 65.539169 32 25 26
11.035445 14.846259 65.539169 31 23 23
11.059860 15.020698 65.684166 29 20 20
11.035445 15.128820 65.539169 28 19 18
10.986938 15.202979 65.251083 28 19 17
10.962844 15.309990 65.107986 28 19 17
11.301466 -10.559474 66.270630 25 18 17
11.226290 -10.347327 65.829803 26 18 17
11.176725 -10.160363 65.539169 27 19 18
11.054708 -9.909704 64.823669 27 20 18
11.030624 -9.748681 64.682442 27 21 18
11.030624 -9.609247 64.682442 27 21 18
11.030624 -9.469813 64.682442 26 21 17
11.054708 -9.350752 64.823669 24 20 17
11.054708 -9.211014 64.823669 23 19 16
11.030624 -9.051513 64.682442 23 19 16
11.006645 -8.892706 64.541832 23 20 17
10.958997 -8.715681 64.262428 24 20 18
10.935328 -8.558627 64.123634 25 21 19
10.935328 -8.420399 64.123634 26 22 21
10.911760 -7.850527 63.985435 28 24 26
10.888294 -7.696010 63.847832 28 24 25
10.841663 -7.526005 63.574394 28 24 25
10.818497 -7.373172 63.438553 28 24 25
10.772461 -7.205626 63.168602 29 24 25
10.841663 -7.114871 63.574394 30 25 26
10.864928 -6.992799 63.710819 32 25 26
10.864928 -6.855460 63.710819 34 26 27
10.818497 -6.689411 63.438553 36 26 28
10.795430 -6.538688 63.303288 39 27 29
10.772461 -6.388606 63.168602 42 28 29
10.726815 -6.225942 62.900936 47 31 31
10.681554 -6.064651 62.635532 52 35 32
10.681554 -5.929630 62.635532 60 41 35
10.659066 -5.782410 62.503666 73 52 45
10.659066 -5.647673 62.503666 90 69 60
10.659066 -5.512936 62.503666 95 75 66
10.659066 -5.378199 62.503666 82 61 54
10.636674 -5.232447 62.372356 65 45 41
10.636674 -5.097993 62.372356 58 39 38
10.636674 -4.963539 62.372356 54 36 37
10.659066 -4.839252 62.503666 50 31 34
10.659066 -4.704515 62.503666 48 29 33
10.681554 -4.579419 62.635532 51 29 37
10.681554 -4.444398 62.635532 54 29 42
10.704137 -4.318487 62.767956 57 30 44
10.681554 -4.174356 62.635532 66 36 52
10.681554 -4.039334 62.635532 96 67 81
10.659066 -3.896094 62.503666 155 131 141
10.659066 -3.761357 62.503666 187 170 176
10.659066 -3.626620 62.503666 134 122 125
10.659066 -3.491883 62.503666 60 53 56
10.659066 -3.357146 62.503666 40 39 42
10.659066 -3.222409 62.503666 47 51 55
10.636674 -3.081186 62.372356 49 54 59
10.614374 -2.940555 62.241596 55 60 64
10.614374 -2.806383 62.241596 108 111 113
10.614374 -2.672211 62.241596 197 199 199
10.636674 -2.543371 62.372356 247 247 247
10.659066 -2.413989 62.503666 254 253 251
10.659066 -2.279252 62.503666 251 248 244
10.659066 -2.144515 62.503666 241 237 233
10.659066 -2.009778 62.503666 219 219 216
10.659066 -1.875041 62.503666 191 193 192
10.681554 -1.743976 62.635532 182 183 186
10.749590 -1.619203 63.034485 190 192 195
10.818497 -1.492830 63.438553 183 184 192
10.864928 -1.361898 63.710819 174 173 183
10.864928 -1.224559 63.710819 180 177 186
10.864928 -1.087220 63.710819 195 191 197
10.841663 -0.947847 63.574394 215 211 215
10.818497 -0.809070 63.438553 233 231 232
10.818497 -0.672317 63.438553 232 230 229
10.795430 -0.534423 63.303288 209 207 203
10.772461 -0.397116 63.168602 205 203 198
10.749590 -0.260392 63.034485 232 230 227
10.681554 -0.123723 62.635532 251 250 249
10.659066 0.011275 62.503666 251 251 250
10.659066 0.146012 62.503666 241 241 242
10.681554 0.281341 62.635532 229 230 233
10.749590 0.419014 63.034485 230 229 234
10.772461 0.556075 63.168602 236 234 238
10.818497 0.695204 63.438553 239 236 239
10.841663 0.833738 63.574394 242 238 242
10.864928 0.972866 63.710819 237 230 236
10.888294 1.112592 63.847832 212 200 208
10.888294 1.250227 63.847832 176 162 170
10.864928 1.384883 63.710819 150 136 145
10.864928 1.522222 63.710819 141 128 137
10.818497 1.652469 63.438553 136 124 134
10.772461 1.781607 63.168602 132 120 128
10.704137 1.905614 62.767956 142 131 137
10.614374 2.023806 62.241596 175 163 168
10.614374 2.157978 62.241596 207 196 198
10.614374 2.292150 62.241596 224 215 213
10.614374 2.426322 62.241596 234 226 222
10.614374 2.560494 62.241596 231 224 216
10.592169 2.689028 62.111385 214 207 196
10.592169 2.822919 62.111385 211 206 193
10.614374 2.963009 62.241596 228 224 213
10.636674 3.103688 62.372356 231 230 220
10.659066 3.244959 62.503666 210 211 203
10.704137 3.393986 62.767956 176 179 175
10.749590 3.544279 63.034485 146 150 148
10.749590 3.680160 63.034485 136 139 141
10.749590 3.816041 63.034485 146 147 152
10.749590 3.951922 63.034485 162 160 166
10.772461 4.096501 63.168602 177 174 179
10.818497 4.250760 63.438553 192 186 191
10.818497 4.387512 63.438553 199 189 195
10.795430 4.514617 63.303288 183 171 177
10.772461 4.641182 63.168602 158 145 150
10.772461 4.777352 63.168602 149 134 138
10.772461 4.913522 63.168602 144 129 132
10.818497 5.071272 63.438553 128 113 116
10.818497 5.208025 63.438553 115 100 102
10.818497 5.344777 63.438553 117 103 103
10.818497 5.481529 63.438553 123 109 108
10.818497 5.618281 63.438553 123 110 108
10.818497 5.755033 63.438553 117 105 102
10.818497 5.891785 63.438553 93 85 82
10.841663 6.041446 63.574394 83 76 76
10.864928 6.191750 63.710819 134 128 130
10.864928 6.329089 63.710819 197 193 196
10.818497 6.438794 63.438553 186 178 187
10.795430 6.561525 63.303288 114 101 116
10.772461 6.683735 63.168602 62 46 63
10.795430 6.834446 63.303288 61 43 58
10.795430 6.970907 63.303288 88 70 79
10.795430 7.107368 63.303288 123 104 107
10.795430 7.243828 63.303288 147 127 126
10.795430 7.380289 63.303288 147 125 121
10.772461 7.500756 63.168602 144 120 117
10.795430 7.653210 63.303288 145 121 121
10.864928 7.839818 63.710819 126 100 104
10.911760 8.011542 63.985435 90 63 71
10.911760 8.149473 63.985435 68 42 52
10.911760 8.287404 63.985435 66 39 50
10.888294 8.407216 63.847832 68 41 50
10.864928 8.526514 63.710819 72 45 53
10.864928 8.663853 63.710819 88 61 66
10.888294 8.820119 63.847832 111 85 86
10.888294 8.957754 63.847832 118 93 91
10.888294 9.095388 63.847832 105 81 76
10.864928 9.213209 63.710819 99 77 69
10.888294 9.370657 63.847832 112 91 82
10.888294 9.508291 63.847832 115 95 86
10.911760 9.666715 63.985435 95 75 68
10.911760 9.804646 63.985435 73 53 48
10.911760 9.942576 63.985435 66 46 43
10.911760 10.080507 63.985435 66 46 45
10.911760 10.218438 63.985435 63 43 43
10.935328 10.378737 64.123634 57 38 38
10.935328 10.516967 64.123634 52 33 35
10.935328 10.655195 64.123634 53 35 37
10.888294 10.747001 63.847832 65 47 50
10.841663 10.838020 63.574394 85 69 72
10.841663 10.975065 63.574394 92 75 79
10.818497 11.088367 63.438553 72 56 58
10.772461 11.177352 63.168602 49 34 35
10.772461 11.313522 63.168602 42 28 29
10.772461 11.449693 63.168602 43 29 30
10.749590 11.561264 63.034485 44 30 30
10.681554 11.623113 62.635532 45 31 31
10.659066 11.733380 62.503666 45 31 31
10.659066 11.868116 62.503666 45 31 32
10.864928 12.234669 63.710819 44 31 32
10.888294 12.398614 63.847832 43 31 32
10.911760 12.563266 63.985435 42 31 30
11.326749 13.184240 66.418884 41 30 29
11.326749 13.327417 66.418884 39 29 28
11.276296 13.410591 66.123032 36 27 26
11.251237 13.523012 65.976097 34 25 24
11.226290 13.634934 65.829803 32 24 23
11.226290 13.776841 65.829803 31 23 23
11.226290 13.918748 65.829803 30 23 24
11.226290 14.060656 65.829803 31 23 25
11.226290 14.202562 65.829803 31 24 25
11.226290 14.344469 65.829803 32 24 26
11.226290 14.486376 65.829803 32 25 26
11.201453 14.595920 65.684166 32 25 26
11.201453 14.737512 65.684166 32 25 26
11.201453 14.879105 65.684166 32 24 24
11.226290 15.054004 65.829803 30 22 21
11.201453 15.162291 65.684166 29 20 18
11.152107 15.236465 65.394806 29 20 18
11.418835 -10.535956 66.123032 24 18 16
11.393459 -10.370321 65.976097 25 18 16
11.318006 -10.160363 65.539169 26 19 17
11.194447 -9.909704 64.823669 27 19 17
11.170058 -9.748681 64.682442 26 20 17
11.170058 -9.609247 64.682442 26 20 17
11.170058 -9.469813 64.682442 25 20 16
11.194447 -9.350752 64.823669 23 19 15
11.194447 -9.211014 64.823669 22 18 15
11.194447 -9.071277 64.823669 22 18 15
11.145775 -8.892706 64.541832 23 19 16
11.097526 -8.715681 64.262428 24 20 17
11.073557 -8.558627 64.123634 25 21 18
11.073557 -8.420399 64.123634 26 22 20
11.025928 -7.833644 63.847832 28 25 26
10.978708 -7.663050 63.574394 28 25 26
10.931890 -7.493912 63.303288 28 25 25
10.816575 -7.279841 62.635532 28 24 25
10.681368 -7.055510 61.852589 29 24 25
10.593092 -6.864968 61.341408 30 25 25
10.771128 -6.845892 62.372356 32 25 26
10.839443 -6.754005 62.767956 34 25 27
10.908631 -6.660946 63.168602 37 26 27
10.908631 -6.524776 63.168602 40 27 28
10.816575 -6.334693 62.635532 43 29 29
10.816575 -6.199672 62.635532 47 31 29
10.793803 -6.051883 62.503666 52 35 29
10.793803 -5.917146 62.503666 61 42 33
10.793803 -5.782410 62.503666 83 64 51
10.793803 -5.647673 62.503666 119 100 88
10.793803 -5.512936 62.503666 137 118 108
10.793803 -5.378199 62.503666 108 89 80
10.793803 -5.243462 62.503666 66 48 41
10.793803 -5.108726 62.503666 49 33 29
10.793803 -4.973989 62.503666 46 30 30
10.793803 -4.839252 62.503666 46 29 31
10.816575 -4.714440 62.635532 46 28 32
10.839443 -4.589100 62.767956 49 28 36
10.885470 -4.472706 63.034485 53 29 41
10.885470 -4.336825 63.034485 57 31 45
10.839443 -4.183181 62.767956 67 39 52
10.839443 -4.047874 62.767956 87 59 71
10.816575 -3.904313 62.635532 126 102 109
10.793803 -3.761357 62.503666 149 132 136
10.793803 -3.626620 62.503666 114 102 104
10.793803 -3.491883 62.503666 64 57 60
10.793803 -3.357146 62.503666 52 50 54
10.793803 -3.222409 62.503666 58 60 66
10.793803 -3.087673 62.503666 62 65 72
10.771128 -2.946732 62.372356 66 69 74
10.748547 -2.806383 62.241596 103 104 107
10.771128 -2.677825 62.372356 179 180 180
10.793803 -2.548725 62.503666 237 237 236
10.793803 -2.413989 62.503666 253 252 249
10.793803 -2.279252 62.503666 249 245 240
10.816575 -2.149039 62.635532 242 238 231
10.793803 -2.009778 62.503666 240 237 234
10.816575 -1.878997 62.635532 221 221 221
10.816575 -1.743976 62.635532 194 193 195
10.839443 -1.612356 62.767956 180 178 183
10.931890 -1.489647 63.303288 164 162 171
10.955249 -1.356078 63.438553 151 148 159
10.978708 -1.221937 63.574394 162 158 169
10.955249 -1.082574 63.438553 177 173 182
10.931890 -0.943805 63.303288 188 184 191
10.931890 -0.807344 63.303288 210 208 212
10.931890 -0.670884 63.303288 234 233 235
10.908631 -0.533286 63.168602 234 234 233
10.908631 -0.397116 63.168602 226 226 224
10.885470 -0.260392 63.034485 233 233 232
10.862408 -0.124247 62.900936 246 247 247
10.816575 0.011298 62.635532 252 252 253
10.816575 0.146320 62.635532 248 250 250
10.839443 0.281935 62.767956 242 244 245
10.885470 0.419014 63.034485 236 236 239
10.908631 0.556075 63.168602 227 224 229
10.955249 0.695204 63.438553 220 214 221
10.955249 0.831956 63.438553 225 217 223
11.002268 0.972866 63.710819 229 219 224
11.002268 1.110205 63.710819 219 206 211
11.002268 1.247544 63.710819 197 183 187
11.002268 1.384883 63.710819 175 161 165
10.978708 1.518963 63.574394 159 145 151
10.955249 1.652469 63.438553 151 138 145
10.931890 1.785406 63.303288 146 133 139
10.862408 1.909651 62.900936 144 131 136
10.771128 2.028058 62.372356 163 150 153
10.748547 2.157978 62.241596 202 190 191
10.748547 2.292150 62.241596 235 227 226
10.748547 2.426322 62.241596 248 244 242
10.726060 2.555137 62.111385 245 242 239
10.703668 2.683414 61.981716 229 225 219
10.703668 2.817026 61.981716 219 215 206
10.703668 2.950638 61.981716 226 223 213
10.726060 3.090702 62.111385 222 221 213
10.771128 3.238142 62.372356 195 196 190
10.816575 3.386826 62.635532 165 167 163
10.885470 3.544279 63.034485 143 146 144
10.885470 3.680160 63.034485 132 133 134
10.885470 3.816041 63.034485 125 124 127
10.885470 3.951922 63.034485 118 114 118
10.955249 4.114007 63.438553 120 113 117
10.978708 4.259862 63.574394 143 133 137
11.002268 4.406342 63.710819 179 167 171
10.955249 4.524264 63.438553 197 183 186
10.931890 4.651078 63.303288 188 173 175
10.931890 4.787539 63.303288 171 154 156
10.931890 4.923999 63.303288 149 132 133
10.955249 5.071272 63.438553 125 107 109
10.978708 5.219177 63.574394 112 94 96
10.978708 5.356222 63.574394 113 95 98
10.978708 5.493267 63.574394 113 96 100
10.955249 5.618281 63.438553 109 94 98
10.955249 5.755033 63.438553 103 91 94
10.955249 5.891785 63.438553 85 76 80
10.978708 6.041446 63.574394 70 63 68
11.002268 6.191750 63.710819 106 100 108
11.002268 6.329089 63.710819 180 174 183
10.955249 6.438794 63.438553 204 196 207
10.931890 6.561525 63.303288 148 136 150
10.931890 6.697986 63.303288 79 63 80
10.931890 6.834446 63.303288 61 42 57
10.931890 6.970907 63.303288 83 62 72
10.931890 7.107368 63.303288 115 95 98
10.931890 7.243828 63.303288 140 119 118
10.908631 7.364586 63.168602 146 124 121
10.908631 7.500756 63.168602 141 119 116
10.908631 7.636927 63.168602 135 110 111
11.002268 7.839818 63.710819 116 90 95
11.049691 8.011542 63.985435 88 62 70
11.049691 8.149473 63.985435 71 44 55
11.049691 8.287404 63.985435 67 40 52
11.025928 8.407216 63.847832 67 40 52
11.002268 8.526514 63.710819 70 43 53
11.002268 8.663853 63.710819 80 54 61
11.002268 8.801192 63.710819 98 73 76
11.002268 8.938531 63.710819 105 81 81
11.002268 9.075871 63.710819 94 71 68
11.002268 9.213209 63.710819 92 70 63
11.002268 9.350548 63.710819 117 97 88
11.025928 9.508291 63.847832 138 119 109
11.049691 9.666715 63.985435 122 102 95
11.049691 9.804646 63.985435 87 66 61
11.049691 9.942576 63.985435 67 47 43
11.049691 10.080507 63.985435 64 44 42
11.049691 10.218438 63.985435 63 43 42
11.073557 10.378737 64.123634 58 38 39
11.073557 10.516967 64.123634 52 34 34
11.049691 10.632232 63.985435 51 33 35
11.025928 10.747001 63.847832 59 41 44
10.978708 10.838020 63.574394 74 57 60
10.955249 10.951614 63.438553 82 65 68
10.955249 11.088367 63.438553 69 52 55
10.908631 11.177352 63.168602 51 35 36
10.885470 11.289502 63.034485 44 29 30
10.885470 11.425384 63.034485 45 30 31
10.885470 11.561264 63.034485 45 31 31
10.816575 11.623113 62.635532 46 31 31
10.793803 11.733380 62.503666 45 31 31
10.816575 11.893155 62.635532 44 31 31
11.002268 12.234669 63.710819 43 30 31
11.049691 12.425335 63.985435 43 30 31
11.097526 12.617653 64.262428 42 30 30
11.469925 13.184240 66.418884 41 29 29
11.469925 13.327417 66.418884 39 28 28
11.418835 13.410591 66.123032 37 27 26
11.368196 13.493028 65.829803 35 26 24
11.368196 13.634934 65.829803 33 24 23
11.343045 13.746362 65.684166 32 23 23
11.343045 13.887955 65.684166 31 23 24
11.318006 13.998577 65.539169 31 24 24
11.318006 14.139857 65.539169 31 24 25
11.368196 14.344469 65.829803 31 24 25
11.368196 14.486376 65.829803 31 24 25
11.368196 14.628283 65.829803 32 24 25
11.368196 14.770189 65.829803 32 24 24
11.368196 14.912096 65.829803 32 23 22
11.368196 15.054004 65.829803 31 22 21
11.368196 15.195910 65.829803 31 21 19
11.343045 15.303884 65.684166 31 20 18
11.561374 -10.535956 66.123032 23 17 15
11.535682 -10.370321 65.976097 24 18 16
11.459286 -10.160363 65.539169 26 18 16
11.383896 -9.953168 65.107986 26 19 17
11.334185 -9.769966 64.823669 26 19 17
11.309491 -9.609247 64.682442 25 19 17
11.334185 -9.490490 64.823669 24 19 16
11.334185 -9.350752 64.823669 23 19 15
11.358986 -9.231170 64.965523 22 18 15
11.334185 -9.071277 64.823669 22 18 15
11.284905 -8.892706 64.541832 23 19 16
11.260427 -8.734587 64.401825 24 20 17
11.236053 -8.577152 64.262428 25 21 18
11.236053 -8.438624 64.262428 25 21 20
11.115753 -7.800096 63.574394 28 25 26
11.068351 -7.630372 63.303288 28 25 26
11.021352 -7.462090 63.034485 28 25 25
10.814701 -7.188843 61.852589 29 24 25
10.659254 -6.954095 60.963535 29 24 26
10.615658 -6.794774 60.714195 30 24 26
10.637411 -6.677550 60.838612 32 25 26
10.837279 -6.669404 61.981716 34 25 27
10.905581 -6.576984 62.372356 37 25 27
10.951596 -6.469714 62.635532 40 27 28
10.928540 -6.321357 62.503666 43 29 29
10.928540 -6.186620 62.503666 46 31 28
10.928540 -6.051883 62.503666 49 34 27
10.928540 -5.917146 62.503666 58 41 30
10.928540 -5.782410 62.503666 84 68 53
10.928540 -5.647673 62.503666 141 126 112
10.951596 -5.524567 62.635532 183 169 159
10.951596 -5.389545 62.635532 151 136 126
10.951596 -5.254524 62.635532 79 64 56
10.951596 -5.119503 62.635532 42 27 24
10.951596 -4.984482 62.635532 38 24 24
10.951596 -4.849461 62.635532 41 27 28
10.974750 -4.724407 62.767956 44 27 31
11.021352 -4.608587 63.034485 47 27 34
11.044802 -4.482223 63.168602 51 28 38
11.044802 -4.346052 63.168602 56 32 43
11.021352 -4.200944 63.034485 66 40 51
11.021352 -4.065063 63.034485 80 55 64
10.974750 -3.912568 62.767956 104 83 88
10.951596 -3.769292 62.635532 119 103 104
10.951596 -3.634271 62.635532 100 89 90
10.951596 -3.499250 62.635532 75 69 71
10.951596 -3.364229 62.635532 69 66 72
10.951596 -3.229208 62.635532 75 74 82
10.928540 -3.087673 62.503666 84 84 93
10.928540 -2.952936 62.503666 86 87 94
10.905581 -2.812279 62.372356 98 96 100
10.905581 -2.677825 62.372356 147 145 145
10.928540 -2.548725 62.503666 213 211 209
10.951596 -2.419081 62.635532 248 247 244
10.951596 -2.284060 62.635532 250 248 242
10.951596 -2.149039 62.635532 246 242 236
10.951596 -2.014018 62.635532 248 246 244
10.951596 -1.878997 62.635532 243 241 242
10.951596 -1.743976 62.635532 225 223 225
10.974750 -1.612356 62.767956 208 205 208
11.068351 -1.489647 63.303288 180 176 181
11.068351 -1.353187 63.303288 143 139 146
11.092001 -1.219326 63.438553 134 130 139
11.068351 -1.080266 63.303288 146 143 152
11.044802 -0.941797 63.168602 155 152 161
11.021352 -0.803916 63.034485 180 178 186
11.021352 -0.668035 63.034485 218 218 224
11.021352 -0.532154 63.034485 234 235 238
11.021352 -0.396273 63.034485 221 223 226
11.021352 -0.260392 63.034485 215 217 220
11.021352 -0.124511 63.034485 231 233 235
10.951596 0.011298 62.635532 245 247 248
10.951596 0.146320 62.635532 242 245 245
10.998001 0.282533 62.900936 231 235 236
11.021352 0.419014 63.034485 228 229 233
11.044802 0.556075 63.168602 224 221 227
11.092001 0.695204 63.438553 216 209 215
11.092001 0.831956 63.438553 216 206 211
11.115753 0.970783 63.574394 224 212 215
11.115753 1.107828 63.574394 226 213 214
11.115753 1.244873 63.574394 218 204 204
11.115753 1.381917 63.574394 201 186 188
11.092001 1.515717 63.438553 180 165 168
11.092001 1.652469 63.438553 167 152 157
11.068351 1.785406 63.303288 160 146 151
10.998001 1.909651 62.900936 147 132 137
10.905581 2.028058 62.372356 143 128 131
10.882718 2.157978 62.241596 174 161 162
10.882718 2.292150 62.241596 221 214 213
10.859951 2.421246 62.111385 245 242 241
10.837279 2.549803 61.981716 239 235 235
10.837279 2.683414 61.981716 216 211 208
10.814701 2.811157 61.852589 200 195 189
10.837279 2.950638 61.981716 208 205 198
10.837279 3.084249 61.981716 211 210 204
10.882718 3.231353 62.241596 184 184 179
10.928540 3.379696 62.503666 155 156 151
10.998001 3.536770 62.900936 144 144 142
11.021352 3.680160 63.034485 138 137 136
11.021352 3.816041 63.034485 125 122 122
11.044802 3.960331 63.168602 109 104 104
11.115753 4.122817 63.574394 107 100 100
11.139606 4.269003 63.710819 131 121 121
11.139606 4.406342 63.710819 172 160 161
11.139606 4.543681 63.710819 203 189 189
11.068351 4.651078 63.303288 210 194 193
11.068351 4.787539 63.303288 202 185 185
11.068351 4.923999 63.303288 178 161 162
11.092001 5.071272 63.438553 137 120 123
11.115753 5.219177 63.574394 110 90 95
11.115753 5.356222 63.574394 111 90 97
11.115753 5.493267 63.574394 114 95 103
11.092001 5.618281 63.438553 106 89 98
11.092001 5.755033 63.438553 95 82 91
11.092001 5.891785 63.438553 83 71 81
11.115753 6.041446 63.574394 68 59 71
11.139606 6.191750 63.710819 82 75 90
11.139606 6.329089 63.710819 142 135 150
11.092001 6.438794 63.438553 187 180 194
11.068351 6.561525 63.303288 164 154 170
11.068351 6.697986 63.303288 106 91 108
11.068351 6.834446 63.303288 73 55 70
11.068351 6.970907 63.303288 80 60 69
11.068351 7.107368 63.303288 106 85 89
11.068351 7.243828 63.303288 133 112 111
11.044802 7.364586 63.168602 149 127 125
11.044802 7.500756 63.168602 147 124 122
11.044802 7.636927 63.168602 130 105 106
11.139606 7.839818 63.710819 104 77 83
11.187622 8.011542 63.985435 82 55 64
11.187622 8.149473 63.985435 72 45 56
11.187622 8.287404 63.985435 70 43 55
11.163563 8.407216 63.847832 69 42 54
11.139606 8.526514 63.710819 68 41 52
11.139606 8.663853 63.710819 75 48 58
11.139606 8.801192 63.710819 88 63 69
11.139606 8.938531 63.710819 96 72 75
11.139606 9.075871 63.710819 89 66 64
11.139606 9.213209 63.710819 85 63 57
11.139606 9.350548 63.710819 109 88 80
11.139606 9.487887 63.710819 141 121 112
11.187622 9.666715 63.985435 138 118 109
11.187622 9.804646 63.985435 102 81 75
11.187622 9.942576 63.985435 73 52 48
11.187622 10.080507 63.985435 64 44 41
11.187622 10.218438 63.985435 62 42 41
11.211785 10.378737 64.123634 59 39 38
11.211785 10.516967 64.123634 54 35 35
11.187622 10.632232 63.985435 52 34 35
11.139606 10.723939 63.710819 56 38 39
11.115753 10.838020 63.574394 62 45 47
11.092001 10.951614 63.438553 67 50 52
11.092001 11.088367 63.438553 60 44 46
11.068351 11.201184 63.303288 51 35 36
11.044802 11.313522 63.168602 46 30 31
11.044802 11.449693 63.168602 46 30 31
11.044802 11.585863 63.168602 46 31 32
10.974750 11.647686 62.767956 46 32 32
10.951596 11.758134 62.635532 45 32 32
10.974750 11.918299 62.767956 43 31 31
11.187622 12.287404 63.985435 43 30 30
11.236053 12.479124 64.262428 42 29 30
11.744473 13.188587 67.170235 41 29 29
11.744473 13.333384 67.170235 40 28 28
11.613102 13.327417 66.418884 39 28 27
11.561374 13.410591 66.123032 37 27 25
11.510103 13.493028 65.829803 35 26 24
11.484638 13.604769 65.684166 34 24 23
11.434046 13.685805 65.394806 33 23 23
11.434046 13.826775 65.394806 32 23 23
11.408916 13.937045 65.251083 31 24 24
11.408916 14.077704 65.251083 31 24 24
11.459286 14.281137 65.539169 31 24 24
11.484638 14.454327 65.684166 31 24 24
11.510103 14.628283 65.829803 31 24 23
11.510103 14.770189 65.829803 31 23 22
11.535682 14.945234 65.976097 31 22 21
11.535682 15.087457 65.976097 32 21 19
11.535682 15.229679 65.976097 32 20 18
11.484638 15.303884 65.684166 33 20 16
11.970516 -10.921741 67.629250 22 18 15
11.730037 -10.559474 66.270630 23 18 16
11.703913 -10.393417 66.123032 24 18 16
11.626231 -10.182842 65.684166 25 18 17
11.575015 -9.997014 65.394806 26 19 17
11.524247 -9.812817 65.107986 26 19 18
11.473923 -9.630228 64.823669 25 19 18
11.473923 -9.490490 64.823669 24 19 17
11.499030 -9.371213 64.965523 23 18 16
11.524247 -9.251413 65.107986 22 18 16
11.499030 -9.091125 64.965523 22 18 16
11.448925 -8.912080 64.682442 23 18 16
11.399255 -8.734587 64.401825 23 19 17
11.399255 -8.595758 64.401825 24 20 18
11.424036 -8.475314 64.541832 25 21 20
11.204812 -7.766833 63.303288 28 25 25
11.157233 -7.597971 63.034485 28 25 25
11.133595 -7.446281 62.900936 29 25 25
10.948034 -7.188843 61.852589 29 25 25
10.880034 -7.011686 61.468410 30 24 25
10.768559 -6.808698 60.838612 32 25 26
10.880034 -6.746676 61.468410 34 25 27
10.948034 -6.655509 61.852589 35 24 27
11.016891 -6.563196 62.241596 38 25 28
11.063277 -6.456094 62.503666 41 27 29
11.063277 -6.321357 62.503666 44 30 30
11.063277 -6.186620 62.503666 45 31 28
11.063277 -6.051883 62.503666 47 33 26
11.063277 -5.917146 62.503666 53 39 28
11.086617 -5.794609 62.635532 78 64 50
11.086617 -5.659587 62.635532 145 134 120
11.086617 -5.524567 62.635532 210 200 190
11.086617 -5.389545 62.635532 188 175 166
11.110056 -5.265633 62.767956 103 89 81
11.110056 -5.130327 62.767956 46 32 28
11.110056 -4.995020 62.767956 35 22 21
11.157233 -4.880349 63.034485 38 25 26
11.157233 -4.744468 63.034485 42 26 29
11.204812 -4.628240 63.303288 45 27 33
11.204812 -4.491779 63.303288 49 28 36
11.204812 -4.355319 63.303288 55 32 41
11.204812 -4.218858 63.303288 64 40 50
11.180971 -4.073712 63.168602 77 55 62
11.157233 -3.929182 63.034485 93 74 79
11.157233 -3.793300 63.034485 102 88 91
11.133595 -3.649671 62.900936 95 86 88
11.133595 -3.514077 62.900936 88 81 85
11.133595 -3.378484 62.900936 86 82 90
11.133595 -3.242891 62.900936 94 90 101
11.086617 -3.094187 62.635532 109 105 117
11.063277 -2.952936 62.503666 112 107 117
11.063277 -2.818199 62.503666 99 93 99
11.063277 -2.683462 62.503666 115 109 111
11.086617 -2.554102 62.635532 182 178 176
11.086617 -2.419081 62.635532 239 237 235
11.110056 -2.288889 62.767956 253 252 247
11.110056 -2.153583 62.767956 251 248 244
11.110056 -2.018276 62.767956 250 248 247
11.086617 -1.878997 62.635532 251 249 249
11.086617 -1.743976 62.635532 248 246 246
11.110056 -1.612356 62.767956 240 237 237
11.157233 -1.483322 63.034485 214 212 211
11.204812 -1.353187 63.303288 164 159 161
11.204812 -1.216726 63.303288 125 120 124
11.180971 -1.077967 63.168602 117 114 120
11.157233 -0.939797 63.034485 120 119 126
11.133595 -0.802213 62.900936 143 143 152
11.086617 -0.663807 62.635532 184 185 194
11.086617 -0.528786 62.635532 210 212 220
11.110056 -0.394597 62.767956 206 210 217
11.133595 -0.259840 62.900936 199 205 211
11.110056 -0.123984 62.767956 210 217 220
11.110056 0.011322 62.767956 222 228 230
11.086617 0.146320 62.635532 216 222 224
11.110056 0.281935 62.767956 205 211 214
11.157233 0.419014 63.034485 213 216 220
11.180971 0.556075 63.168602 229 228 232
11.204812 0.693722 63.303288 231 225 228
11.228753 0.831956 63.438553 228 219 220
11.228753 0.968708 63.438553 234 224 222
11.252798 1.107828 63.574394 239 229 225
11.228753 1.242213 63.438553 237 225 221
11.228753 1.378965 63.438553 224 212 209
11.204812 1.512485 63.303288 202 188 187
11.204812 1.648946 63.303288 182 167 169
11.157233 1.777825 63.034485 170 155 159
11.110056 1.905614 62.767956 150 134 139
11.040035 2.028058 62.372356 127 111 115
11.016891 2.157978 62.241596 141 127 129
10.993842 2.287354 62.111385 190 181 181
10.970891 2.416191 61.981716 217 212 211
10.970891 2.549803 61.981716 201 197 195
10.948034 2.677824 61.852589 170 165 162
10.948034 2.811157 61.852589 156 152 149
10.948034 2.944491 61.852589 182 179 176
10.970891 3.084249 61.981716 209 207 204
10.993842 3.224593 62.111385 194 193 190
11.040035 3.372596 62.372356 164 164 160
11.110056 3.529293 62.767956 157 156 153
11.133595 3.672363 62.900936 161 159 156
11.157233 3.816041 63.034485 153 149 146
11.204812 3.968775 63.303288 138 133 129
11.252798 4.122817 63.574394 138 130 127
11.301197 4.278184 63.847832 159 149 146
11.301197 4.415818 63.847832 192 183 180
11.276945 4.543681 63.710819 216 207 204
11.228753 4.661016 63.438553 221 207 205
11.204812 4.787539 63.303288 219 203 202
11.204812 4.923999 63.303288 209 195 194
11.228753 5.071272 63.438553 167 151 154
11.252798 5.219177 63.574394 119 99 105
11.252798 5.356222 63.574394 113 91 100
11.252798 5.493267 63.574394 125 104 115
11.228753 5.618281 63.438553 118 99 111
11.204812 5.742762 63.303288 101 85 98
11.204812 5.879223 63.303288 91 78 92
11.252798 6.041446 63.574394 80 70 86
11.252798 6.178492 63.574394 78 69 87
11.252798 6.315536 63.574394 106 96 116
11.228753 6.438794 63.438553 148 138 157
11.204812 6.561525 63.303288 159 148 167
11.180971 6.683735 63.168602 130 115 134
11.180971 6.819905 63.168602 95 77 94
11.180971 6.956076 63.168602 85 65 77
11.180971 7.092246 63.168602 98 77 84
11.180971 7.228416 63.168602 124 102 106
11.180971 7.364586 63.168602 149 125 127
11.157233 7.484831 63.034485 153 127 129
11.157233 7.620712 63.034485 130 104 108
11.252798 7.823031 63.574394 98 71 78
11.301197 7.994313 63.847832 79 52 60
11.325553 8.149473 63.985435 74 47 57
11.301197 8.269582 63.847832 74 47 58
11.301197 8.407216 63.847832 72 45 57
11.276945 8.526514 63.710819 71 43 55
11.276945 8.663853 63.710819 73 46 57
11.276945 8.801192 63.710819 82 57 65
11.276945 8.938531 63.710819 90 66 71
11.276945 9.075871 63.710819 87 65 66
11.276945 9.213209 63.710819 81 60 57
11.276945 9.350548 63.710819 93 72 66
11.276945 9.487887 63.710819 118 97 90
11.301197 9.645926 63.847832 124 104 97
11.325553 9.804646 63.985435 104 83 77
11.325553 9.942576 63.985435 80 58 54
11.325553 10.080507 63.985435 68 47 44
11.325553 10.218438 63.985435 64 43 41
11.325553 10.356370 63.985435 59 39 38
11.325553 10.494301 63.985435 55 36 36
11.325553 10.632232 63.985435 54 35 36
11.276945 10.723939 63.710819 55 36 37
11.228753 10.814862 63.438553 56 39 39
11.228753 10.951614 63.438553 56 40 41
11.228753 11.088367 63.438553 54 38 38
11.204812 11.201184 63.303288 49 33 33
11.204812 11.337645 63.303288 47 31 31
11.204812 11.474106 63.303288 47 31 31
11.180971 11.585863 63.168602 47 32 32
11.180971 11.722033 63.168602 47 33 33
11.110056 11.782992 62.767956 46 33 32
11.180971 11.994373 63.168602 44 32 31
11.374581 12.340596 64.262428 43 30 30
11.424036 12.533381 64.541832 42 29 29
11.970516 13.278714 67.629250 40 29 28
11.970516 13.424500 67.629250 39 28 27
11.782639 13.357299 66.567810 38 27 26
11.703913 13.410591 66.123032 36 27 25
11.652010 13.493028 65.829803 35 26 24
11.575015 13.544836 65.394806 34 25 23
11.524247 13.625779 65.107986 33 24 23
11.473923 13.706017 64.823669 32 23 23
11.448925 13.815589 64.682442 31 24 22
11.448925 13.955023 64.682442 31 24 23
11.549575 14.218364 65.251083 31 24 23
11.575015 14.390651 65.394806 32 24 23
11.600567 14.563699 65.539169 32 25 23
11.652010 14.770189 65.829803 31 23 22
11.677903 14.945234 65.976097 31 21 20
11.677903 15.087457 65.976097 32 20 18
11.652010 15.195910 65.829803 34 19 16
11.626231 15.303884 65.684166 36 18 15
12.199671 -11.143681 68.094589 22 19 16
11.926136 -10.750324 66.567810 22 19 16
11.899456 -10.583097 66.418884 23 19 17
11.872894 -10.416617 66.270630 24 19 17
11.793917 -10.205420 65.829803 25 19 18
11.741847 -10.019083 65.539169 26 19 18
11.715983 -9.856045 65.394806 25 19 19
11.664598 -9.672466 65.107986 25 19 18
11.664598 -9.532115 65.107986 25 19 18
11.664598 -9.391765 65.107986 24 18 17
11.690234 -9.271747 65.251083 23 17 17
11.690234 -9.131087 65.251083 22 17 17
11.639073 -8.951082 64.965523 22 18 18
11.563167 -8.753575 64.541832 23 18 18
11.563167 -8.614445 64.541832 23 19 19
11.414285 -7.954173 63.710819 27 23 22
11.317142 -7.750308 63.168602 28 24 23
11.317142 -7.614137 63.168602 28 25 23
11.269188 -7.446281 62.900936 29 25 24
11.174489 -7.249253 62.372356 30 25 24
11.081368 -7.055510 61.852589 31 24 24
11.035387 -6.893454 61.595940 32 24 25
11.081368 -6.788843 61.852589 34 25 27
11.104503 -6.669404 61.981716 35 24 27
11.151062 -6.563196 62.241596 37 24 28
11.174489 -6.442531 62.372356 41 26 30
11.198014 -6.321357 62.503666 44 29 32
11.221639 -6.199672 62.635532 45 30 29
11.198014 -6.051883 62.503666 46 31 27
11.221639 -5.929630 62.635532 52 38 30
11.221639 -5.794609 62.635532 75 60 50
11.221639 -5.659587 62.635532 138 126 114
11.269188 -5.547976 62.900936 207 197 186
11.269188 -5.412383 62.900936 197 184 175
11.293114 -5.287992 63.034485 117 103 97
11.293114 -5.152112 63.034485 54 40 36
11.293114 -5.016231 63.034485 36 23 22
11.293114 -4.880349 63.034485 39 25 26
11.341272 -4.764700 63.303288 42 26 29
11.365505 -4.638129 63.438553 44 27 32
11.365505 -4.501377 63.438553 48 28 35
11.365505 -4.364625 63.438553 53 32 40
11.341272 -4.218858 63.303288 62 41 49
11.341272 -4.082398 63.303288 76 56 63
11.317142 -3.937541 63.168602 89 72 78
11.317142 -3.801371 63.168602 92 79 85
11.317142 -3.665201 63.168602 90 80 86
11.317142 -3.529031 63.168602 93 86 94
11.317142 -3.392861 63.168602 101 93 105
11.293114 -3.249776 63.034485 112 104 118
11.221639 -3.094187 62.635532 130 122 137
11.198014 -2.952936 62.503666 132 124 136
11.198014 -2.818199 62.503666 105 96 105
11.198014 -2.683462 62.503666 100 92 96
11.221639 -2.554102 62.635532 161 156 156
11.245363 -2.424196 62.767956 231 229 228
11.293114 -2.298608 63.034485 254 253 251
11.293114 -2.162727 63.034485 250 248 245
11.269188 -2.022552 62.900936 246 243 240
11.245363 -1.882969 62.767956 249 246 244
11.245363 -1.747663 62.767956 252 249 247
11.269188 -1.615772 62.900936 250 247 244
11.293114 -1.483322 63.034485 238 236 233
11.341272 -1.353187 63.303288 199 196 194
11.341272 -1.216726 63.303288 147 143 142
11.317142 -1.077967 63.168602 109 106 108
11.269188 -0.937806 62.900936 90 89 95
11.221639 -0.798828 62.635532 105 105 115
11.221639 -0.663807 62.635532 143 144 156
11.221639 -0.528786 62.635532 178 181 192
11.221639 -0.393765 62.635532 198 203 213
11.245363 -0.259291 62.767956 202 209 217
11.245363 -0.123984 62.767956 197 206 212
11.245363 0.011322 62.767956 183 192 196
11.245363 0.146629 62.767956 167 175 179
11.245363 0.281935 62.767956 165 172 175
11.269188 0.418126 62.900936 191 196 197
11.293114 0.554895 63.034485 228 229 230
11.317142 0.692246 63.168602 245 242 243
11.341272 0.830182 63.303288 246 240 238
11.365505 0.968708 63.438553 248 242 237
11.365505 1.105460 63.438553 250 245 238
11.341272 1.239564 63.303288 249 243 234
11.317142 1.373097 63.168602 240 233 226
11.317142 1.509267 63.168602 219 209 205
11.293114 1.641944 63.034485 193 181 180
11.269188 1.774058 62.900936 175 159 162
11.221639 1.901594 62.635532 154 137 142
11.151062 2.023806 62.241596 127 110 115
11.151062 2.157978 62.241596 121 106 110
11.127733 2.287354 62.111385 149 137 140
11.104503 2.416191 61.981716 168 159 160
11.081368 2.544491 61.852589 151 144 143
11.081368 2.677824 61.852589 124 118 117
11.081368 2.811157 61.852589 118 115 113
11.081368 2.944491 61.852589 158 156 155
11.081368 3.077824 61.852589 210 209 209
11.104503 3.217861 61.981716 218 217 217
11.151062 3.365525 62.241596 195 193 191
11.221639 3.521847 62.635532 186 184 181
11.245363 3.664599 62.767956 197 194 191
11.245363 3.799906 62.767956 197 193 190
11.365505 3.977255 63.438553 184 178 174
11.438831 4.140549 63.847832 182 173 170
11.463484 4.287404 63.985435 198 189 186
11.463484 4.425335 63.985435 222 217 215
11.438831 4.553452 63.847832 238 234 233
11.365505 4.661016 63.438553 232 223 224
11.317142 4.777352 63.168602 217 202 204
11.317142 4.913522 63.168602 209 195 198
11.341272 5.060460 63.303288 189 175 180
11.365505 5.208025 63.438553 146 128 136
11.365505 5.344777 63.438553 129 108 117
11.365505 5.481529 63.438553 143 122 133
11.341272 5.606302 63.303288 141 122 135
11.341272 5.742762 63.303288 121 105 118
11.341272 5.879223 63.303288 109 95 109
11.365505 6.028537 63.438553 100 88 104
11.389843 6.178492 63.574394 86 75 93
11.365505 6.302042 63.438553 94 83 102
11.341272 6.425065 63.303288 135 123 143
11.317142 6.547565 63.168602 166 152 173
11.317142 6.683735 63.168602 148 134 154
11.293114 6.805426 63.034485 112 95 113
11.293114 6.941307 63.034485 96 76 91
11.317142 7.092246 63.168602 103 81 93
11.293114 7.213069 63.034485 122 99 108
11.293114 7.348950 63.034485 141 117 124
11.293114 7.484831 63.034485 145 119 126
11.293114 7.620712 63.034485 126 99 106
11.389843 7.823031 63.574394 99 72 79
11.414285 7.977158 63.710819 82 55 64
11.438831 8.131948 63.847832 78 51 61
11.414285 8.251836 63.710819 79 52 64
11.414285 8.389174 63.710819 79 51 64
11.414285 8.526514 63.710819 77 49 62
11.414285 8.663853 63.710819 75 47 60
11.414285 8.801192 63.710819 79 52 64
11.414285 8.938531 63.710819 86 61 70
11.414285 9.075871 63.710819 89 65 70
11.389843 9.193480 63.574394 83 61 62
11.389843 9.330525 63.574394 81 59 58
11.414285 9.487887 63.710819 91 69 66
11.414285 9.625226 63.710819 101 79 74
11.438831 9.783560 63.847832 96 75 70
11.463484 9.942576 63.985435 83 61 57
11.463484 10.080507 63.985435 72 51 48
11.463484 10.218438 63.985435 66 45 43
11.463484 10.356370 63.985435 61 40 39
11.463484 10.494301 63.985435 57 38 37
11.438831 10.609366 63.847832 56 37 37
11.389843 10.700975 63.574394 55 36 36
11.341272 10.791802 63.303288 54 36 36
11.341272 10.928264 63.303288 52 36 36
11.365505 11.088367 63.438553 50 34 33
11.365505 11.225119 63.438553 48 32 31
11.341272 11.337645 63.303288 47 31 30
11.341272 11.474106 63.303288 48 31 31
11.341272 11.610566 63.303288 49 33 33
11.341272 11.747026 63.303288 50 34 34
11.317142 11.858203 63.168602 48 34 33
11.365505 12.045631 63.438553 46 33 32
11.538084 12.367366 64.401825 44 32 31
11.563167 12.533381 64.541832 42 31 30
12.116302 13.278714 67.629250 40 30 29
12.116302 13.424500 67.629250 39 29 28
11.926136 13.357299 66.567810 38 28 26
11.820126 13.380790 65.976097 36 27 25
11.741847 13.433455 65.539169 35 26 24
11.664598 13.485429 65.107986 34 25 23
11.613661 13.566278 64.823669 33 24 22
11.563167 13.646425 64.541832 32 23 21
11.538084 13.755651 64.401825 31 23 20
11.538084 13.894481 64.401825 31 24 21
11.588359 14.094457 64.682442 31 24 22
11.613661 14.264968 64.823669 33 25 23
11.690234 14.499682 65.251083 33 25 23
11.741847 14.704979 65.539169 32 23 22
11.767824 14.879105 65.684166 32 21 19
11.793917 15.054004 65.829803 33 19 17
11.767824 15.162291 65.684166 36 17 15
11.767824 15.303884 65.684166 40 16 13
12.346460 -11.143681 68.094589 22 20 17
12.262088 -10.921741 67.629250 23 20 17
12.069633 -10.606826 66.567810 23 20 17
12.042632 -10.439920 66.418884 24 19 18
11.988990 -10.250878 66.123032 25 19 18
11.909417 -10.041249 65.684166 25 19 19
11.883127 -9.877803 65.539169 25 20 20
11.856953 -9.715076 65.394806 25 19 19
11.883127 -9.595242 65.539169 24 19 19
11.883127 -9.453961 65.539169 23 18 19
11.883127 -9.312681 65.539169 23 17 18
11.883127 -9.171401 65.539169 22 17 18
11.830894 -8.990428 65.251083 22 17 18
11.727792 -8.772646 64.682442 22 17 18
11.727792 -8.633212 64.682442 22 18 18
11.551623 -7.954173 63.710819 26 22 20
11.477733 -7.766833 63.303288 27 23 21
11.477733 -7.630372 63.303288 27 24 22
11.453312 -7.477967 63.168602 28 24 23
11.404781 -7.310688 62.900936 29 23 23
11.261624 -7.085031 62.111385 30 23 23
11.238114 -6.936627 61.981716 32 23 24
11.261624 -6.817248 62.111385 33 23 26
11.261624 -6.683357 62.111385 35 23 27
11.285234 -6.563196 62.241596 37 24 28
11.308943 -6.442531 62.372356 41 26 30
11.332751 -6.321357 62.503666 44 29 33
11.332751 -6.186620 62.503666 45 30 32
11.332751 -6.051883 62.503666 47 31 31
11.356660 -5.929630 62.635532 55 39 36
11.356660 -5.794609 62.635532 74 59 53
11.356660 -5.659587 62.635532 121 106 99
11.404781 -5.547976 62.900936 174 160 153
11.428995 -5.423874 63.034485 171 156 150
11.428995 -5.287992 63.034485 111 96 92
11.428995 -5.152112 63.034485 58 43 40
11.428995 -5.016231 63.034485 40 26 25
11.428995 -4.880349 63.034485 41 27 27
11.502257 -4.774881 63.438553 43 27 30
11.526888 -4.648061 63.574394 44 28 32
11.526888 -4.511016 63.574394 47 28 34
11.526888 -4.373971 63.574394 51 31 38
11.502257 -4.227873 63.438553 60 40 48
11.477733 -4.082398 63.303288 75 57 65
11.477733 -3.945937 63.303288 88 73 81
11.453312 -3.801371 63.168602 87 74 83
11.453312 -3.665201 63.168602 84 74 84
11.453312 -3.529031 63.168602 95 85 97
11.453312 -3.392861 63.168602 110 99 114
11.428995 -3.249776 63.034485 126 115 131
11.356660 -3.094187 62.635532 145 134 150
11.332751 -2.952936 62.503666 145 134 149
11.332751 -2.818199 62.503666 115 105 116
11.332751 -2.683462 62.503666 102 92 100
11.356660 -2.554102 62.635532 148 142 145
11.380670 -2.424196 62.767956 217 214 215
11.428995 -2.298608 63.034485 250 248 248
11.428995 -2.162727 63.034485 249 247 244
11.428995 -2.026846 63.034485 243 241 235
11.404781 -1.886959 62.900936 246 244 239
11.404781 -1.751366 62.900936 250 247 243
11.428995 -1.619203 63.034485 250 247 242
11.428995 -1.483322 63.034485 248 247 242
11.477733 -1.353187 63.303288 230 228 225
11.477733 -1.216726 63.303288 187 183 179
11.453312 -1.077967 63.168602 125 122 121
11.404781 -0.937806 62.900936 76 74 78
11.380670 -0.800517 62.767956 76 75 84
11.356660 -0.663807 62.635532 107 108 120
11.356660 -0.528786 62.635532 146 149 162
11.356660 -0.393765 62.635532 187 191 203
11.380670 -0.259291 62.767956 211 217 227
11.380670 -0.123984 62.767956 204 210 218
11.380670 0.011322 62.767956 167 175 181
11.380670 0.146629 62.767956 133 141 146
11.356660 0.281341 62.635532 134 140 143
11.356660 0.416362 62.635532 174 178 178
11.380670 0.552549 62.767956 224 226 226
11.428995 0.690776 63.034485 249 249 249
11.453312 0.828416 63.168602 253 252 248
11.477733 0.966643 63.303288 254 252 246
11.477733 1.103103 63.303288 254 252 244
11.453312 1.236927 63.168602 253 250 240
11.428995 1.370181 63.034485 248 245 235
11.428995 1.506063 63.034485 231 225 218
11.404781 1.638465 62.900936 206 196 193
11.356660 1.766573 62.635532 186 172 173
11.332751 1.897591 62.503666 166 150 156
11.285234 2.023806 62.241596 140 124 131
11.261624 2.153463 62.111385 119 103 110
11.261624 2.287354 62.111385 117 104 109
11.238114 2.416191 61.981716 122 111 114
11.214702 2.544491 61.852589 119 111 112
11.214702 2.677824 61.852589 111 105 106
11.214702 2.811157 61.852589 113 109 109
11.214702 2.944491 61.852589 153 150 150
11.214702 3.077824 61.852589 212 210 210
11.238114 3.217861 61.981716 235 233 234
11.285234 3.365525 62.241596 220 218 216
11.332751 3.514433 62.503666 212 210 207
11.356660 3.656868 62.635532 226 223 220
11.380670 3.799906 62.767956 231 227 224
11.551623 3.994325 63.710819 222 216 213
11.601416 4.149473 63.985435 220 214 211
11.601416 4.287404 63.985435 230 225 224
11.601416 4.425335 63.985435 243 240 239
11.576466 4.553452 63.847832 251 249 249
11.502257 4.661016 63.438553 244 239 241
11.453312 4.777352 63.168602 220 209 213
11.453312 4.913522 63.168602 205 189 196
11.453312 5.049693 63.168602 202 186 195
11.477733 5.196920 63.303288 178 161 170
11.502257 5.344777 63.438553 155 135 145
11.477733 5.469841 63.303288 166 146 156
11.453312 5.594373 63.168602 173 154 165
11.453312 5.730544 63.168602 152 134 146
11.428995 5.854258 63.034485 128 113 126
11.477733 6.015683 63.303288 111 98 113
11.502257 6.165289 63.438553 90 78 94
11.477733 6.288604 63.303288 90 78 95
11.453312 6.411395 63.168602 135 124 142
11.453312 6.547565 63.168602 182 171 188
11.428995 6.669545 63.034485 168 156 173
11.428995 6.805426 63.034485 122 106 124
11.428995 6.941307 63.034485 109 91 108
11.428995 7.077188 63.034485 127 106 122
11.428995 7.213069 63.034485 137 113 127
11.428995 7.348950 63.034485 132 107 118
11.404781 7.468974 62.900936 126 100 110
11.428995 7.620712 63.034485 117 90 99
11.502257 7.806315 63.438553 102 75 84
11.526888 7.960076 63.574394 90 64 72
11.551623 8.114497 63.710819 85 58 67
11.526888 8.234166 63.574394 84 57 68
11.526888 8.371211 63.574394 86 58 72
11.526888 8.508256 63.574394 85 57 72
11.526888 8.645301 63.574394 80 52 67
11.526888 8.782346 63.574394 77 50 65
11.526888 8.919391 63.574394 85 59 72
11.526888 9.056436 63.574394 93 69 79
11.526888 9.193480 63.574394 89 66 71
11.526888 9.330525 63.574394 76 54 56
11.526888 9.467570 63.574394 75 52 52
11.551623 9.625226 63.710819 84 62 60
11.551623 9.762566 63.710819 87 66 62
11.551623 9.899904 63.710819 81 60 56
11.551623 10.037244 63.710819 74 53 50
11.601416 10.218438 63.985435 68 47 45
11.601416 10.356370 63.985435 63 43 42
11.576466 10.471732 63.847832 60 40 39
11.551623 10.586599 63.710819 58 38 38
11.526888 10.700975 63.574394 56 37 37
11.477733 10.791802 63.303288 54 36 36
11.477733 10.928264 63.303288 51 34 34
11.502257 11.088367 63.438553 49 32 32
11.502257 11.225119 63.438553 47 31 30
11.502257 11.361871 63.438553 48 31 31
11.502257 11.498623 63.438553 49 33 33
11.502257 11.635375 63.438553 51 35 35
11.502257 11.772127 63.438553 51 36 36
11.502257 11.908879 63.438553 49 35 34
11.576466 12.123345 63.847832 47 34 33
11.676912 12.367366 64.401825 45 33 32
11.702297 12.533381 64.541832 42 32 31
12.262088 13.278714 67.629250 41 30 29
12.262088 13.424500 67.629250 39 29 28
12.069633 13.357299 66.567810 37 28 26
11.962348 13.380790 65.976097 35 26 24
11.856953 13.403867 65.394806 35 25 23
11.753399 13.426540 64.823669 34 24 23
11.702297 13.507295 64.541832 33 23 21
11.651638 13.587350 64.262428 31 22 20
11.651638 13.725878 64.262428 31 23 19
11.651638 13.864406 64.262428 31 23 19
11.676912 14.033309 64.401825 31 24 21
11.702297 14.202947 64.541832 33 25 23
11.727792 14.373323 64.682442 33 25 23
11.830894 14.640342 65.251083 33 23 22
11.883127 14.846259 65.539169 33 20 20
11.909417 15.020698 65.684166 35 18 18
11.909417 15.162291 65.684166 38 16 16
11.909417 15.303884 65.684166 42 15 13
12.493249 -11.143681 68.094589 23 20 18
12.268146 -10.798749 66.867661 23 20 18
12.213132 -10.606826 66.567810 23 20 18
12.158608 -10.416617 66.270630 24 19 19
12.104570 -10.228099 65.976097 24 20 19
12.051010 -10.041249 65.684166 24 20 20
12.024407 -9.877803 65.539169 25 20 20
11.997922 -9.715076 65.394806 24 20 21
12.024407 -9.595242 65.539169 24 19 20
12.024407 -9.453961 65.539169 23 18 19
12.051010 -9.333284 65.684166 22 18 19
12.024407 -9.171401 65.539169 22 17 19
11.971553 -8.990428 65.251083 22 17 18
11.867226 -8.772646 64.682442 22 17 18
11.867226 -8.633212 64.682442 21 18 17
11.688963 -7.954173 63.710819 25 22 20
11.639009 -7.783429 63.438553 26 22 21
11.614193 -7.630372 63.303288 27 23 21
11.614193 -7.493912 63.303288 28 23 23
11.614193 -7.357451 63.303288 29 23 23
11.419406 -7.099884 62.241596 30 23 24
11.395516 -6.951139 62.111385 32 23 24
11.395516 -6.817248 62.111385 33 23 26
11.395516 -6.683357 62.111385 35 23 27
11.395516 -6.549466 62.111385 38 24 29
11.419406 -6.429024 62.241596 42 26 32
11.419406 -6.294852 62.241596 45 29 34
11.443397 -6.173623 62.372356 47 30 34
11.443397 -6.039169 62.372356 48 32 35
11.443397 -5.904716 62.372356 56 39 41
11.443397 -5.770262 62.372356 71 54 54
11.491681 -5.659587 62.635532 96 79 77
11.491681 -5.524567 62.635532 123 106 104
11.540374 -5.412383 62.900936 123 106 104
11.564877 -5.287992 63.034485 89 73 72
11.540374 -5.141196 62.900936 57 42 41
11.540374 -5.005603 62.900936 45 30 30
11.540374 -4.870009 62.900936 44 29 29
11.639009 -4.774881 63.438553 45 29 30
11.688963 -4.658035 63.710819 46 29 33
11.688963 -4.520697 63.710819 47 30 34
11.663933 -4.373971 63.574394 50 32 39
11.639009 -4.227873 63.438553 58 40 49
11.614193 -4.082398 63.303288 74 58 67
11.589482 -3.937541 63.168602 89 74 84
11.564877 -3.793300 63.034485 90 77 88
11.564877 -3.657419 63.034485 86 75 88
11.564877 -3.521538 63.034485 94 83 97
11.564877 -3.385657 63.034485 110 99 115
11.515976 -3.236035 62.767956 129 117 134
11.491681 -3.094187 62.635532 150 138 154
11.467487 -2.952936 62.503666 153 141 157
11.467487 -2.818199 62.503666 131 120 133
11.467487 -2.683462 62.503666 112 103 112
11.491681 -2.554102 62.635532 130 124 130
11.491681 -2.419081 62.635532 186 181 185
11.564877 -2.298608 63.034485 231 230 232
11.564877 -2.162727 63.034485 244 244 242
11.564877 -2.026846 63.034485 240 240 235
