ply
format ascii 1.0
element vertex 1221
property float x
property float y
property float z
property uchar red
property uchar green
property uchar blue
end_header
-4.518844 14.595837 75.162636 33 29 26
-4.518844 14.757862 75.162636 34 30 26
-4.518844 14.919888 75.162636 34 30 26
-4.507433 15.043827 74.972832 33 29 25
-4.507433 15.205443 74.972832 32 29 24
-4.496079 15.328351 74.783989 31 27 24
-4.484782 15.450642 74.596085 30 26 23
-4.484782 15.611445 74.596085 29 25 23
-4.484782 15.772250 74.596085 27 25 22
-4.484782 15.933054 74.596085 25 24 22
-4.462358 16.013390 74.223106 24 23 22
-4.651198 -13.996337 80.241196 33 30 29
-4.651198 -13.823363 80.241196 32 29 28
-4.651198 -13.650391 80.241196 30 27 26
-4.651198 -13.477418 80.241196 29 25 25
-4.638661 -13.268583 80.024910 28 24 24
-4.651198 -13.131472 80.241196 27 24 23
-4.676476 -13.028925 80.677292 27 24 22
-4.702031 -12.925259 81.118149 27 25 22
-4.780398 -12.962901 82.470116 27 25 23
-4.767156 -12.749708 82.241669 27 25 23
-4.740891 -12.503153 81.788544 28 26 24
-4.727866 -12.292979 81.563850 29 26 24
-4.727866 -12.117155 81.563850 30 27 26
-4.740891 -11.974227 81.788544 30 28 27
-4.740891 -11.797919 81.788544 30 28 27
-4.780398 -11.718457 82.470116 30 28 27
-4.767156 -11.508711 82.241669 30 27 26
-4.727866 -11.238034 81.563850 29 26 25
-4.702031 -11.001761 81.118149 28 26 25
-4.676476 -10.768056 80.677292 28 25 25
-4.589182 -10.396385 79.171310 28 25 25
-4.589182 -10.225718 79.171310 28 25 24
-4.564837 -10.001710 78.751305 27 24 24
-4.613789 -9.937385 79.595825 28 24 24
-4.663803 -9.871665 80.458649 29 25 24
-4.663803 -9.698224 80.458649 29 26 25
-4.663803 -9.524782 80.458649 30 27 26
-4.663803 -9.351340 80.458649 31 28 27
-4.702031 -9.253127 81.118149 32 28 27
-4.676476 -9.028925 80.677292 34 28 28
-4.676476 -8.855012 80.677292 34 28 29
-4.676476 -8.681099 80.677292 34 28 29
-4.676476 -8.507186 80.677292 34 28 29
-4.676476 -8.333273 80.677292 33 28 28
-4.676476 -8.159360 80.677292 33 28 28
-4.689219 -8.007206 80.897118 33 28 27
-4.714913 -7.875739 81.340393 34 28 27
-4.807105 -7.850962 82.930847 34 29 28
-4.820570 -7.693682 83.163147 34 30 28
-4.875194 -7.599560 84.105499 33 30 28
-4.916981 -7.116127 84.826408 33 30 31
-4.889044 -6.893877 84.344437 33 30 31
-4.889044 -6.712059 84.344437 34 30 31
-4.875194 -6.511741 84.105499 35 30 31
-4.861422 -6.312555 83.867912 35 31 32
-4.834111 -6.097316 83.396751 36 31 32
-4.834111 -5.917541 83.396751 36 32 32
-4.834111 -5.737765 83.396751 37 32 32
-4.847728 -5.573647 83.631668 37 32 32
-6.190444 -6.887210 106.795837 37 32 32
-6.190444 -6.656995 106.795837 38 33 33
-6.146226 -6.380873 106.033005 38 34 34
-5.975498 -5.981405 103.087646 39 35 34
-5.774978 -5.565921 99.628326 40 35 35
-5.679681 -5.262853 97.984299 40 34 35
-5.660998 -5.035015 97.661980 41 34 34
-5.623998 -4.792956 97.023666 41 33 33
-5.605679 -4.568875 96.707626 42 33 33
-5.463312 -4.249665 94.251564 43 33 32
-5.394807 -3.995751 93.069725 43 33 32
-5.377948 -3.783264 92.778885 43 33 33
-4.807105 -2.845376 82.930847 42 35 35
-4.753987 -2.637140 82.014481 42 35 36
-4.740891 -2.453566 81.788544 42 36 38
-4.702031 -2.258592 81.118149 42 37 39
-4.702031 -2.083728 81.118149 43 37 39
-4.753987 -1.929957 82.014481 43 37 38
-4.753987 -1.753162 82.014481 42 37 38
-4.727866 -1.567705 81.563850 41 37 37
-4.727866 -1.391881 81.563850 40 37 37
-4.714913 -1.212725 81.340393 40 36 37
-4.727866 -1.040232 81.563850 39 35 37
-4.714913 -0.862040 81.340393 39 35 38
-4.727866 -0.688584 81.563850 39 36 38
-4.727866 -0.512760 81.563850 39 37 38
-4.740891 -0.337864 81.788544 39 38 37
-4.753987 -0.162001 82.014481 37 36 36
-4.740891 0.014753 81.788544 35 34 34
-4.714913 0.190015 81.340393 33 32 32
-4.727866 0.366361 81.563850 31 30 30
-4.740891 0.543679 81.788544 29 28 27
-4.740891 0.719988 81.788544 28 26 25
-4.740891 0.896296 81.788544 27 24 23
-4.702031 1.063813 81.118149 26 23 22
-4.676476 1.231944 80.677292 26 22 21
-4.626192 1.390741 79.809792 25 22 22
-4.589182 1.550281 79.171310 25 22 24
-4.552760 1.707290 78.542969 25 23 26
-4.528798 1.866725 78.129585 26 24 29
-4.528798 2.035146 78.129585 32 29 34
-4.528798 2.203567 78.129585 42 39 42
-4.528798 2.371988 78.129585 50 45 49
-4.516912 2.533741 77.924522 55 51 52
-4.516912 2.701720 77.924522 59 53 54
-4.505087 2.862187 77.720528 59 53 53
-4.505087 3.029726 77.720528 58 53 52
-4.481623 3.180613 77.315735 61 55 54
-4.481623 3.347280 77.315735 65 58 57
-4.481623 3.513947 77.315735 70 61 61
-4.469983 3.671053 77.114914 73 62 62
-4.446882 3.817456 76.716385 74 62 62
-4.435421 3.972566 76.518669 82 71 70
-4.435421 4.137514 76.518669 91 83 82
-4.435421 4.302463 76.518669 91 86 85
-4.446882 4.478955 76.716385 81 81 80
-4.446882 4.644330 76.716385 73 77 76
-4.446882 4.809704 76.716385 66 74 74
-4.458403 4.987967 76.915138 66 77 78
-4.458403 5.153770 76.915138 83 94 97
-4.458403 5.319574 76.915138 115 124 129
-4.446882 5.471203 76.716385 136 143 148
-4.435421 5.622050 76.518669 134 140 145
-4.435421 5.786999 76.518669 121 125 130
-4.424019 5.936646 76.321960 110 114 118
-4.412675 6.085527 76.126259 111 115 120
-4.412675 6.249629 76.126259 117 121 126
-4.401390 6.397328 75.931564 107 112 118
-4.390162 6.544274 75.737862 92 97 104
-4.390162 6.707540 75.737862 93 97 105
-4.378991 6.853322 75.545143 109 113 121
-4.367877 6.998364 75.353409 129 133 139
-4.367877 7.160800 75.353409 143 147 151
-4.378991 7.341871 75.545143 154 157 159
-4.401390 7.543108 75.931564 168 171 172
-4.401390 7.706791 75.931564 162 164 164
-4.390162 7.850397 75.737862 118 121 120
-4.367877 7.972983 75.353409 83 86 85
-4.356819 8.114824 75.162636 90 94 92
-4.356819 8.276850 75.162636 117 122 118
-4.356819 8.438874 75.162636 134 139 135
-4.356819 8.600900 75.162636 134 139 135
-4.356819 8.762925 75.162636 119 124 120
-4.356819 8.924951 75.162636 109 113 109
-4.356819 9.086976 75.162636 112 115 112
-4.356819 9.249002 75.162636 110 112 110
-4.345817 9.387261 74.972832 103 104 103
-4.345817 9.548878 74.972832 108 107 108
-4.345817 9.710494 74.972832 119 116 119
-4.345817 9.872109 74.972832 118 113 118
-4.345817 10.033726 74.972832 109 102 110
-4.345817 10.195342 74.972832 100 93 101
-4.345817 10.356958 74.972832 93 86 95
-4.345817 10.518575 74.972832 86 78 88
-4.345817 10.680191 74.972832 81 73 82
-4.334870 10.814497 74.783989 78 72 79
-4.334870 10.975706 74.783989 75 70 76
-4.345817 11.165039 74.972832 71 66 69
-4.345817 11.326655 74.972832 64 60 62
-4.345817 11.488272 74.972832 59 54 56
-4.345817 11.649887 74.972832 61 55 57
-4.345817 11.811503 74.972832 66 59 63
-4.334870 11.942961 74.783989 68 60 65
-4.334870 12.104170 74.783989 65 57 62
-4.345817 12.296352 74.972832 63 54 60
-4.345817 12.457969 74.972832 62 54 59
-4.356819 12.651533 75.162636 60 52 58
-4.356819 12.813559 75.162636 57 49 55
-4.334870 12.910215 74.783989 54 47 51
-4.334870 13.071424 74.783989 50 45 48
-4.334870 13.232634 74.783989 46 41 43
-4.356819 13.461659 75.162636 42 37 37
-4.378991 13.693016 75.545143 38 34 33
-4.424019 13.998343 76.321960 36 31 31
-4.412675 14.126553 76.126259 34 30 29
-4.401390 14.254107 75.931564 33 29 28
-4.367877 14.308009 75.353409 32 28 27
-4.356819 14.433811 75.162636 31 27 25
-4.356819 14.595837 75.162636 31 27 24
-4.356819 14.757862 75.162636 31 27 24
-4.356819 14.919888 75.162636 31 27 23
-4.345817 15.043827 74.972832 31 27 23
-4.345817 15.205443 74.972832 30 26 22
-4.334870 15.328351 74.783989 30 26 22
-4.313141 15.411919 74.409126 29 25 22
-4.313141 15.572319 74.409126 28 24 22
-4.323978 15.772250 74.596085 26 24 22
-4.323978 15.933054 74.596085 24 23 21
-4.280953 15.933720 73.853836 23 22 21
-4.466155 -14.131117 80.024910 33 32 30
-4.478225 -13.996337 80.241196 33 31 29
-4.478225 -13.823363 80.241196 32 29 28
-4.478225 -13.650391 80.241196 30 27 26
-4.478225 -13.477418 80.241196 29 26 25
-4.490361 -13.340500 80.458649 28 25 23
-4.502563 -13.202838 80.677292 27 24 23
-4.527168 -13.100121 81.118149 27 25 23
-4.654335 -13.288327 83.396751 27 25 23
-4.628334 -13.035320 82.930847 27 26 23
-4.615441 -12.820737 82.699837 27 26 23
-4.577192 -12.537692 82.014481 28 26 24
-4.564582 -12.326844 81.788544 28 27 25
-4.564582 -12.150536 81.788544 29 28 26
-4.564582 -11.974227 81.788544 30 28 27
-4.615441 -11.929372 82.699837 30 29 28
-4.615441 -11.751099 82.699837 30 29 28
-4.615441 -11.572826 82.699837 30 28 27
-4.577192 -11.300123 82.014481 29 27 26
-4.552042 -11.062210 81.563850 29 26 25
-4.527168 -10.826898 81.118149 28 25 25
-4.502563 -10.594143 80.677292 28 25 24
-4.466155 -10.335969 80.024910 28 25 24
-4.552042 -10.358913 81.563850 27 24 23
-4.615441 -10.324915 82.699837 28 24 23
-4.615441 -10.146642 82.699837 28 25 24
-4.577192 -9.885758 82.014481 29 25 25
-4.539571 -9.629163 81.340393 30 26 26
-4.539571 -9.453820 81.340393 31 27 27
-4.539571 -9.278479 81.340393 32 29 27
-4.539571 -9.103136 81.340393 34 29 29
-4.514832 -8.879141 80.897118 35 29 30
-4.502563 -8.681099 80.677292 35 29 31
-4.527168 -8.553674 81.118149 35 29 30
-4.527168 -8.378810 81.118149 34 28 29
-4.539571 -8.226423 81.340393 34 29 28
-4.527168 -8.029083 81.118149 34 29 27
-4.539571 -7.875739 81.340393 35 29 27
-4.641298 -7.872954 83.163147 35 29 28
-4.747689 -6.953136 85.069466 33 30 30
-4.707225 -6.712059 84.344437 33 30 30
-4.680631 -6.493346 83.867912 34 30 30
-4.680631 -6.312555 83.867912 34 30 30
-4.654335 -6.097316 83.396751 35 31 31
-4.641298 -5.900965 83.163147 35 31 31
-4.667446 -5.753928 83.631668 36 31 31
-4.680631 -5.589391 83.867912 36 31 31
-5.960228 -6.887210 106.795837 36 32 31
-5.960228 -6.656995 106.795837 36 33 31
-5.917655 -6.380873 106.033005 37 34 32
-5.753275 -5.981405 103.087646 38 35 33
-5.560213 -5.565921 99.628326 39 35 33
-5.450471 -5.245541 97.661980 39 34 33
-5.344979 -4.937563 95.771751 40 34 32
-5.344979 -4.731112 95.771751 41 33 32
-5.260138 -4.452840 94.251564 42 33 33
-5.210514 -4.209574 93.362396 43 33 33
-5.145787 -3.958523 92.202614 43 33 33
-5.114023 -3.736557 91.633461 44 34 33
-5.114023 -3.539026 91.633461 43 34 34
-4.680631 -3.058318 83.867912 42 35 35
-4.654335 -2.861361 83.396751 42 35 35
-4.628334 -2.666605 82.930847 42 35 36
-4.564582 -2.453566 81.788544 42 35 37
-4.539571 -2.264780 81.340393 41 36 38
-4.539571 -2.089437 81.340393 41 36 38
-4.577192 -1.929957 82.014481 41 36 38
-4.577192 -1.753162 82.014481 40 36 37
-4.552042 -1.567705 81.563850 40 35 36
-4.539571 -1.388067 81.340393 39 35 36
-4.527168 -1.209411 81.118149 39 35 37
-4.514832 -1.031729 80.897118 39 35 37
-4.514832 -0.857342 80.897118 39 35 38
-4.502563 -0.681099 80.677292 40 36 38
-4.502563 -0.507186 80.677292 41 38 39
-4.552042 -0.336936 81.563850 41 38 39
-4.552042 -0.161111 81.563850 40 38 39
-4.539571 0.014673 81.340393 38 37 37
-4.514832 0.188979 80.897118 37 35 36
-4.539571 0.365357 81.340393 34 33 33
-4.552042 0.542185 81.563850 31 30 30
-4.564582 0.719988 81.788544 29 28 27
-4.564582 0.896296 81.788544 27 25 24
-4.552042 1.069658 81.563850 26 24 23
-4.514832 1.235301 80.897118 26 23 22
-4.502563 1.405857 80.677292 25 22 22
-4.454149 1.562783 79.809792 25 22 22
-4.418516 1.720948 79.171310 25 22 23
-4.383448 1.876602 78.542969 26 24 25
-4.383448 2.045914 78.542969 30 26 27
-4.383448 2.215226 78.542969 34 30 30
-4.383448 2.384538 78.542969 40 34 33
-4.371882 2.547112 78.335732 47 40 40
-4.371882 2.715977 78.335732 53 46 45
-4.371882 2.884843 78.335732 56 49 48
-4.360377 3.045672 78.129585 59 52 51
-4.337548 3.197266 77.720528 63 55 55
-4.314957 3.347280 77.315735 65 56 57
-4.314957 3.513947 77.315735 69 59 60
-4.314957 3.680613 77.315735 73 61 62
-4.292599 3.827346 76.915138 75 62 63
-4.281507 3.982831 76.716385 82 69 70
-4.270473 4.137514 76.518669 92 81 82
-4.270473 4.302463 76.518669 94 86 88
-4.281507 4.478955 76.716385 86 83 85
-4.281507 4.644330 76.716385 77 79 80
-4.281507 4.809704 76.716385 70 77 77
-4.281507 4.975079 76.716385 68 78 78
-4.292599 5.153770 76.915138 80 91 91
-4.292599 5.319574 76.915138 105 115 117
-4.281507 5.471203 76.716385 126 135 136
-4.270473 5.622050 76.518669 130 136 138
-4.259494 5.772122 76.321960 126 130 132
-4.259494 5.936646 76.321960 121 125 127
-4.248573 6.085527 76.126259 119 123 125
-4.248573 6.249629 76.126259 115 119 122
-4.237707 6.397328 75.931564 103 108 112
-4.237707 6.561011 75.931564 89 94 100
-4.226896 6.707540 75.737862 89 93 101
-4.226896 6.870805 75.737862 103 108 115
-4.216141 7.016171 75.545143 123 128 133
-4.216141 7.179021 75.545143 136 141 144
-4.226896 7.360600 75.737862 149 153 154
-4.237707 7.543108 75.931564 172 176 176
-4.237707 7.706791 75.931564 179 183 182
-4.237707 7.870474 75.931564 141 145 143
-4.226896 8.013662 75.737862 96 99 98
-4.205440 8.135420 75.353409 89 93 91
-4.194793 8.276850 75.162636 108 112 110
-4.194793 8.438874 75.162636 126 129 127
-4.194793 8.600900 75.162636 132 136 133
-4.194793 8.762925 75.162636 124 129 124
-4.194793 8.924951 75.162636 111 116 111
-4.194793 9.086976 75.162636 107 112 108
-4.194793 9.249002 75.162636 107 110 108
-4.194793 9.411027 75.162636 108 110 109
-4.184200 9.548878 74.972832 117 117 118
-4.184200 9.710494 74.972832 124 121 124
-4.184200 9.872109 74.972832 116 111 117
-4.194793 10.059128 75.162636 102 96 105
-4.194793 10.221153 75.162636 95 87 98
-4.194793 10.383179 75.162636 91 83 94
-4.194793 10.545204 75.162636 83 76 87
-4.184200 10.680191 74.972832 76 69 79
-4.184200 10.841806 74.972832 72 66 74
-4.184200 11.003423 74.972832 69 63 70
-4.184200 11.165039 74.972832 62 58 62
-4.194793 11.355330 75.162636 56 52 55
-4.194793 11.517356 75.162636 55 50 52
-4.194793 11.679381 75.162636 57 52 54
-4.184200 11.811503 74.972832 60 55 57
-4.184200 11.973120 74.972832 62 56 59
-4.184200 12.134736 74.972832 62 55 59
-4.184200 12.296352 74.972832 61 53 57
-4.194793 12.489508 75.162636 59 51 55
-4.205440 12.683643 75.353409 56 49 53
-4.205440 12.846080 75.353409 54 47 51
-4.194793 12.975583 75.162636 52 45 49
-4.194793 13.137609 75.162636 48 43 46
-4.194793 13.299634 75.162636 45 40 42
-4.216141 13.530167 75.545143 41 36 37
-4.259494 13.833818 76.321960 37 33 33
-4.281507 14.070686 76.716385 35 31 31
-4.281507 14.236061 76.716385 34 30 29
-4.248573 14.290655 76.126259 32 29 27
-4.237707 14.417789 75.931564 32 28 26
-4.205440 14.470446 75.353409 31 27 24
-4.194793 14.595837 75.162636 30 27 23
-4.194793 14.757862 75.162636 30 26 22
-4.184200 14.882211 74.972832 29 25 21
-4.184200 15.043827 74.972832 29 25 21
-4.184200 15.205443 74.972832 29 25 21
-4.163174 15.289838 74.596085 29 25 21
-4.152740 15.411919 74.409126 28 24 21
-4.142358 15.533389 74.223106 27 24 21
-4.152740 15.732720 74.409126 25 23 21
-4.152740 15.893122 74.409126 23 22 20
-4.111522 15.894182 73.670578 22 21 20
-4.305253 -14.169310 80.241196 32 31 30
-4.305253 -13.996337 80.241196 32 30 30
-4.305253 -13.823363 80.241196 32 29 28
-4.305253 -13.650391 80.241196 31 27 27
-4.328650 -13.550665 80.677292 29 26 25
-4.474560 -13.108552 83.396751 27 26 23
-4.449563 -12.856549 82.930847 27 26 23
-4.400396 -12.537692 82.014481 28 26 24
-4.388274 -12.326844 81.788544 28 27 25
-4.388274 -12.150536 81.788544 28 28 26
-4.388274 -11.974227 81.788544 29 29 27
-4.437168 -11.929372 82.699837 29 29 27
-4.437168 -11.751099 82.699837 29 29 27
-4.449563 -11.605152 82.930847 30 29 27
-4.437168 -11.394553 82.699837 29 28 26
-4.437168 -11.216280 82.699837 29 27 25
-4.437168 -11.038007 82.699837 28 26 25
-4.474560 -10.411922 83.396751 27 24 23
-4.462026 -10.203486 83.163147 28 25 24
-4.449563 -9.996214 82.930847 29 25 25
-4.449563 -9.817443 82.930847 30 26 26
-4.449563 -9.638672 82.930847 31 28 27
-4.437168 -9.433550 82.699837 33 29 28
-4.388274 -9.153291 81.788544 34 30 30
-4.364228 -8.927794 81.340393 35 30 31
-4.364228 -8.752451 81.340393 35 30 32
-4.364228 -8.577108 81.340393 35 29 31
-4.364228 -8.051081 81.340393 35 29 28
-4.388274 -7.919131 81.788544 35 29 28
-4.512588 -6.693044 84.105499 33 30 29
-4.499840 -6.493346 83.867912 33 30 29
-4.487164 -6.294773 83.631668 34 30 29
-4.462026 -6.080237 83.163147 34 30 30
-4.449563 -5.884482 82.930847 34 30 30
-4.474560 -5.737765 83.396751 34 30 30
-4.499840 -5.589391 83.867912 34 30 29
-5.709475 -6.862525 106.413055 35 32 30
-5.689084 -6.609445 106.033005 36 33 30
-5.569732 -6.247009 103.808540 36 34 31
-5.511915 -5.960708 102.730942 37 35 31
-5.381566 -5.603529 100.301491 38 34 32
-5.239945 -5.245541 97.661980 38 34 32
-5.009256 -4.813348 93.362396 39 33 32
-4.977948 -4.583264 92.778885 41 33 33
-4.977948 -4.383264 92.778885 42 33 33
-4.962440 -4.170232 92.489853 43 33 33
-4.886329 -3.909953 91.071297 44 34 34
-4.783614 -3.635569 89.156883 43 34 34
-4.657729 -3.352762 86.810646 43 34 35
-4.474560 -3.041136 83.396751 42 35 35
-4.474560 -2.861361 83.396751 42 35 36
-4.474560 -2.681586 83.396751 42 35 37
-4.474560 -2.501811 83.396751 42 35 38
-4.388274 -2.277258 81.788544 41 36 38
-4.388274 -2.100949 81.788544 41 36 38
-4.412585 -1.935303 82.241669 41 36 37
-4.412585 -1.758018 82.241669 40 35 37
-4.376218 -1.567705 81.563850 40 35 36
-4.352304 -1.384275 81.118149 39 35 36
-4.340445 -1.206116 80.897118 39 35 37
-4.328650 -1.028925 80.677292 40 34 37
-4.328650 -0.855012 80.677292 40 35 37
-4.328650 -0.681099 80.677292 40 36 38
-4.316920 -0.505812 80.458649 41 37 39
-4.328650 -0.333273 80.677292 41 38 39
-4.328650 -0.159360 80.677292 41 39 39
-4.328650 0.014553 80.677292 40 39 39
-4.328650 0.188466 80.677292 40 38 39
-4.328650 0.362379 80.677292 37 36 36
-4.364228 0.540700 81.340393 34 33 32
-4.388274 0.719988 81.788544 31 30 29
-4.388274 0.896296 81.788544 29 27 25
-4.388274 1.072605 81.788544 27 25 23
-4.376218 1.245482 81.563850 26 24 22
-4.340445 1.409688 80.897118 25 23 21
-4.328650 1.579770 80.677292 25 22 21
-4.305253 1.744204 80.241196 25 22 21
-4.282106 1.906870 79.809792 26 23 22
-4.282106 2.078912 79.809792 28 24 23
-4.282106 2.250956 79.809792 32 26 25
-4.282106 2.422999 79.809792 36 29 28
-4.259207 2.581164 79.383003 40 32 31
-4.259207 2.752287 79.383003 45 36 36
-4.259207 2.923410 79.383003 50 41 43
-4.225314 3.069908 78.751305 57 48 50
-4.191956 3.214093 78.129585 63 54 56
-4.159121 3.356019 77.517601 65 55 57
-4.148290 3.513947 77.315735 69 57 58
-4.148290 3.680613 77.315735 74 60 62
-4.137515 3.837287 77.114914 78 63 65
-4.116133 3.982831 76.716385 84 69 71
-4.105524 4.137514 76.518669 91 79 81
-4.105524 4.302463 76.518669 96 87 89
-4.105524 4.467411 76.518669 92 86 88
-4.116133 4.644330 76.716385 82 81 83
-4.116133 4.809704 76.716385 74 78 79
-4.116133 4.975079 76.716385 72 80 81
-4.116133 5.140453 76.716385 77 87 88
-4.116133 5.305828 76.716385 90 100 101
-4.105524 5.457102 76.518669 106 115 117
-4.105524 5.622050 76.518669 119 127 127
-4.094970 5.772122 76.321960 128 134 134
-4.094970 5.936646 76.321960 132 138 137
-4.094970 6.101171 76.321960 128 133 133
-4.084470 6.249629 76.126259 116 121 122
-4.084470 6.413732 76.126259 101 106 110
-4.074024 6.561011 75.931564 89 93 100
-4.074024 6.724694 75.931564 86 90 97
-4.074024 6.888377 75.931564 93 97 104
-4.074024 7.052060 75.931564 108 113 118
-4.074024 7.215743 75.931564 123 128 131
-4.084470 7.398347 76.126259 137 142 144
-4.084470 7.562450 76.126259 156 161 161
-4.084470 7.726552 76.126259 165 170 169
-4.084470 7.890655 76.126259 144 148 148
-4.074024 8.034157 75.931564 110 113 113
-4.053291 8.156121 75.545143 98 100 100
-4.053291 8.318971 75.545143 105 107 108
-4.043004 8.460293 75.353409 112 114 115
-4.043004 8.622729 75.353409 113 116 115
-4.043004 8.785166 75.353409 107 110 109
-4.043004 8.947602 75.353409 99 103 100
-4.043004 9.110040 75.353409 98 102 100
-4.043004 9.272476 75.353409 105 109 108
-4.043004 9.434913 75.353409 115 118 117
-4.032768 9.573051 75.162636 124 124 125
-4.032768 9.735077 75.162636 124 122 125
-4.032768 9.897102 75.162636 112 107 114
-4.043004 10.084659 75.353409 96 89 99
-4.043004 10.247095 75.353409 87 80 91
-4.043004 10.409532 75.353409 82 74 86
-4.043004 10.571968 75.353409 75 68 79
-4.032768 10.707229 75.162636 69 63 73
-4.032768 10.869254 75.162636 69 64 72
-4.022584 11.003423 74.972832 68 64 69
-4.032768 11.193305 75.162636 61 57 62
-4.043004 11.384151 75.353409 54 51 54
-4.043004 11.546588 75.353409 55 51 52
-4.043004 11.709024 75.353409 58 54 55
-4.032768 11.841406 75.162636 60 55 56
-4.022584 11.973120 74.972832 60 55 55
-4.022584 12.134736 74.972832 58 52 53
-4.032768 12.327482 75.162636 55 49 51
-4.043004 12.521207 75.353409 53 47 49
-4.053291 12.715918 75.545143 52 46 48
-4.053291 12.878767 75.545143 51 45 48
-4.043004 13.008516 75.353409 50 44 47
-4.032768 13.137609 75.162636 48 42 45
-4.043004 13.333389 75.353409 44 39 41
-4.094970 13.669294 76.321960 40 35 36
-4.094970 13.833818 76.321960 36 32 32
-4.116133 14.070686 76.716385 35 31 31
-4.116133 14.236061 76.716385 34 30 29
-4.084470 14.290655 76.126259 33 29 28
-4.074024 14.417789 75.931564 32 28 26
-4.043004 14.470446 75.353409 31 27 24
-4.022584 14.558978 74.972832 30 26 23
-4.022584 14.720594 74.972832 29 26 22
-4.022584 14.882211 74.972832 29 25 22
-3.992339 14.930716 74.409126 29 25 22
-3.992339 15.091117 74.409126 28 25 22
-3.972427 15.175450 74.038010 28 25 22
-3.972427 15.335051 74.038010 27 25 22
-3.972427 15.494652 74.038010 26 24 22
-3.972427 15.654253 74.038010 24 22 21
-3.972427 15.813854 74.038010 23 21 20
-3.952713 15.894182 73.670578 23 21 19
-4.143478 -14.381150 80.458649 31 30 29
-4.143478 -14.207708 80.458649 32 30 29
-4.143478 -14.034267 80.458649 32 30 29
-4.143478 -13.860826 80.458649 32 29 28
-4.154737 -13.724578 80.677292 31 27 27
-4.294785 -13.108552 83.396751 27 26 23
-4.270792 -12.856549 82.930847 27 26 23
-4.235300 -12.572423 82.241669 28 26 23
-4.211965 -12.326844 81.788544 28 27 24
-4.211965 -12.150536 81.788544 29 28 25
-4.211965 -11.974227 81.788544 29 29 27
-4.223600 -11.830510 82.014481 29 29 27
-4.270792 -11.783923 82.930847 29 29 27
-4.270792 -11.605152 82.930847 29 29 27
-4.258895 -11.394553 82.699837 29 29 26
-4.258895 -11.216280 82.699837 29 27 25
-4.258895 -11.038007 82.699837 28 26 25
-4.306883 -10.441252 83.631668 27 24 24
-4.306883 -10.260970 83.631668 28 25 25
-4.306883 -10.080688 83.631668 29 26 26
-4.294785 -9.872597 83.396751 30 27 27
-4.294785 -9.692822 83.396751 31 28 28
-4.282754 -9.486400 83.163147 33 29 29
-4.223600 -9.178576 82.014481 35 30 31
-4.211965 -8.976982 81.788544 36 31 32
-4.188886 -8.752451 81.340393 35 30 32
-4.223600 -8.648190 82.014481 35 29 31
-4.211965 -8.095440 81.788544 35 29 28
-4.211965 -7.919131 81.788544 35 29 27
-4.380927 -6.953136 85.069466 32 28 28
-4.319049 -6.674137 83.867912 32 28 28
-4.319049 -6.493346 83.867912 32 29 28
-4.306883 -6.294773 83.631668 33 29 28
-4.282754 -6.080237 83.163147 34 29 28
-4.258895 -5.868091 82.699837 34 29 29
-4.258895 -5.689817 82.699837 34 29 29
-4.406177 -5.702146 85.559776 33 30 28
-5.345956 -6.694561 103.808540 34 31 28
-5.345956 -6.470785 103.808540 35 33 29
-5.290462 -6.182161 102.730942 36 34 30
-5.254101 -5.919741 102.024887 36 34 30
-5.165349 -5.603529 100.301491 37 34 31
-5.029419 -5.245541 97.661980 38 33 31
-4.690010 -4.695229 91.071297 39 33 32
-4.690010 -4.498909 91.071297 40 33 33
-4.690010 -4.302590 91.071297 41 33 33
-4.690010 -4.106272 91.071297 43 33 34
-4.619164 -3.850890 89.695595 43 34 34
-4.470594 -3.539896 86.810646 43 34 35
-4.270792 -3.202918 82.930847 43 35 35
-4.270792 -3.024147 82.930847 42 35 36
-4.294785 -2.861361 83.396751 42 35 37
-4.319049 -2.696736 83.867912 42 36 38
-4.306883 -2.508858 83.631668 42 35 38
-4.258895 -2.302631 82.699837 41 35 38
-4.258895 -2.124358 82.699837 41 35 38
-4.258895 -1.946085 82.699837 40 35 37
-4.258895 -1.767812 82.699837 40 35 37
-4.200394 -1.567705 81.563850 40 35 36
-4.166058 -1.380503 80.897118 40 35 36
-4.154737 -1.202838 80.677292 40 35 37
-4.154737 -1.028925 80.677292 41 35 38
-4.154737 -0.855012 80.677292 41 35 37
-4.132279 -0.677418 80.241196 41 36 37
-4.132279 -0.504445 80.241196 42 37 38
-4.143478 -0.332370 80.458649 42 38 39
-4.143478 -0.158928 80.458649 42 39 40
-4.143478 0.014513 80.458649 42 40 41
-4.143478 0.187955 80.458649 42 40 41
-4.143478 0.361397 80.458649 40 38 39
-4.177441 0.539223 81.118149 37 36 36
-4.211965 0.719988 81.788544 34 33 32
-4.223600 0.898772 82.014481 32 30 29
-4.247065 1.081543 82.470116 29 27 26
-4.258895 1.262829 82.699837 28 25 24
-4.211965 1.425222 81.788544 26 24 23
-4.200394 1.597130 81.563850 26 23 22
-4.200394 1.772955 81.563850 26 23 22
-4.177441 1.938130 81.118149 27 23 22
-4.154737 2.101509 80.677292 28 23 23
-4.154737 2.275423 80.677292 31 24 24
-4.154737 2.449336 80.677292 33 25 25
-4.154737 2.623249 80.677292 37 28 28
-4.143478 2.789581 80.458649 41 31 32
-4.143478 2.963023 80.458649 46 35 37
-4.110063 3.111171 79.809792 52 42 44
-4.055552 3.239670 78.751305 59 48 51
-4.012975 3.373636 77.924522 63 52 54
-3.992019 3.523121 77.517601 69 56 57
-3.981623 3.680613 77.315735 75 61 62
-3.971282 3.837287 77.114914 81 66 67
-3.950758 3.982831 76.716385 88 73 75
-3.950758 4.148205 76.716385 97 83 86
-3.940576 4.302463 76.518669 101 90 94
-3.940576 4.467411 76.518669 97 89 93
-3.950758 4.644330 76.716385 87 83 87
-3.950758 4.809704 76.716385 78 78 83
-3.950758 4.975079 76.716385 75 80 83
-3.950758 5.140453 76.716385 76 84 87
-3.950758 5.305828 76.716385 80 89 91
-3.940576 5.457102 76.518669 91 100 101
-3.940576 5.622050 76.518669 108 116 116
-3.930446 5.772122 76.321960 125 132 131
-3.930446 5.936646 76.321960 137 144 142
-3.930446 6.101171 76.321960 137 144 142
-3.930446 6.265695 76.321960 128 134 134
-3.920367 6.413732 76.126259 114 119 121
-3.920367 6.577835 76.126259 96 100 105
-3.920367 6.741937 76.126259 83 88 95
-3.920367 6.906040 76.126259 82 88 94
-3.920367 7.070142 76.126259 94 101 105
-3.920367 7.234245 76.126259 114 121 123
-3.920367 7.398347 76.126259 130 137 138
-3.930446 7.581891 76.321960 141 147 147
-3.930446 7.746415 76.321960 144 150 150
-3.930446 7.910940 76.321960 133 137 138
-3.920367 8.054758 76.126259 112 115 116
-3.910341 8.197840 75.931564 101 103 104
-3.890441 8.318971 75.545143 102 103 105
-3.880567 8.460293 75.353409 100 101 103
-3.880567 8.622729 75.353409 93 95 97
-3.880567 8.785166 75.353409 86 88 90
-3.880567 8.947602 75.353409 81 84 85
-3.880567 9.110040 75.353409 84 87 88
-3.880567 9.272476 75.353409 99 101 101
-3.880567 9.434913 75.353409 114 116 116
-3.880567 9.597349 75.353409 118 118 119
-3.880567 9.759786 75.353409 112 110 114
-3.880567 9.922222 75.353409 104 99 106
-3.910341 10.162034 75.931564 95 88 98
-3.920367 10.352194 76.126259 85 77 88
-3.920367 10.516296 76.126259 74 66 77
-3.910341 10.653083 75.931564 65 59 69
-3.910341 10.816766 75.931564 64 59 67
-3.880567 10.896841 75.353409 68 63 69
-3.880567 11.059278 75.353409 68 65 69
-3.880567 11.221714 75.353409 62 60 63
-3.890441 11.413118 75.545143 56 54 56
-3.900366 11.605498 75.737862 57 55 54
-3.900366 11.768764 75.737862 60 58 57
-3.880567 11.871461 75.353409 62 59 58
-3.870743 12.003431 75.162636 60 55 55
-3.870743 12.165457 75.162636 55 50 50
-3.870743 12.327482 75.162636 51 45 46
-3.880567 12.521207 75.353409 49 42 43
-3.900366 12.748356 75.737862 48 41 43
-3.900366 12.911621 75.737862 49 42 44
-3.880567 13.008516 75.353409 49 43 45
-3.880567 13.170953 75.353409 48 43 45
-3.880567 13.333389 75.353409 44 39 41
-3.920367 13.634245 76.126259 40 36 37
-3.930446 13.833818 76.321960 36 33 33
-3.940576 14.034421 76.518669 35 31 31
-3.940576 14.199369 76.518669 34 30 29
-3.910341 14.254107 75.931564 33 29 28
-3.880567 14.308009 75.353409 32 28 26
-3.860968 14.397363 74.972832 31 27 24
-3.851243 14.522306 74.783989 30 26 23
-3.831938 14.609914 74.409126 29 25 23
-3.831938 14.770314 74.409126 29 25 22
-3.812826 14.856248 74.038010 29 25 22
-3.793904 14.941329 73.670578 28 25 22
-3.738248 14.878620 72.589836 27 25 22
-3.738248 15.035099 72.589836 27 25 22
-3.738248 15.191578 72.589836 26 24 22
-3.784513 15.538009 73.488220 25 23 21
-3.812826 15.813854 74.038010 24 21 20
-3.803342 15.933720 73.853836 23 21 19
-3.793904 16.052992 73.670578 22 20 18
-3.980824 -14.594143 80.677292 30 29 28
-3.980824 -14.420230 80.677292 31 30 28
-3.980824 -14.246317 80.677292 31 30 28
-3.980824 -14.072404 80.677292 32 30 28
-3.980824 -13.898491 80.677292 32 29 27
-3.991671 -13.761974 80.897118 31 27 26
-4.115009 -13.108552 83.396751 28 25 23
-4.092021 -12.856549 82.930847 28 25 22
-4.058015 -12.572423 82.241669 28 26 23
-4.035656 -12.326844 81.788544 29 27 24
-4.035656 -12.150536 81.788544 29 27 25
-4.035656 -11.974227 81.788544 30 28 27
-4.069287 -11.896235 82.470116 30 29 27
-4.103483 -11.816932 83.163147 30 29 27
-4.103483 -11.637660 83.163147 30 29 27
-4.092021 -11.426381 82.930847 30 28 26
-4.092021 -11.247610 82.930847 29 28 25
-4.080622 -11.038007 82.699837 29 27 25
-4.126601 -10.621534 83.631668 28 25 23
-4.126601 -10.441252 83.631668 28 25 24
-4.138258 -10.289956 83.867912 28 25 25
-4.138258 -10.109165 83.867912 29 26 26
-4.138258 -9.928374 83.867912 30 27 27
-4.115009 -9.692822 83.396751 32 29 28
-4.115009 -9.513046 83.396751 34 31 30
-4.069287 -9.229568 82.470116 35 31 31
-4.046805 -9.001781 82.014481 35 30 32
-4.035656 -8.800673 81.788544 35 30 32
-4.080622 -8.720458 82.699837 35 29 30
-4.092021 -8.566046 82.930847 35 28 29
-4.092021 -8.387276 82.930847 34 28 28
-4.024570 -8.073199 81.563850 35 28 28
-4.024570 -7.897375 81.563850 34 29 27
-4.197546 -6.953136 85.069466 32 28 29
-4.161771 -6.712059 84.344437 31 28 28
-4.138258 -6.493346 83.867912 32 28 28
-4.138258 -6.312555 83.867912 32 28 28
-4.126601 -6.114491 83.631668 33 29 28
-4.046805 -5.819460 82.014481 33 29 28
-4.046805 -5.642664 82.014481 33 29 28
-4.621273 -6.241781 93.656914 33 29 27
-4.635897 -6.059001 93.953300 33 30 27
-4.621273 -5.837996 93.656914 34 32 28
-4.412480 -5.381459 89.425430 35 33 29
-4.850806 -5.704121 98.308746 36 33 29
-5.034170 -5.699810 102.024887 36 33 30
-4.439222 -4.638317 89.967400 38 33 32
-4.493691 -4.498909 91.071297 39 34 33
-4.439222 -4.250438 89.967400 40 33 33
-4.439222 -4.056499 89.967400 42 33 34
-4.359951 -3.793585 88.360840 42 34 34
-4.221739 -3.488889 85.559776 42 35 35
-4.126601 -3.229985 83.631668 42 35 36
-4.092021 -3.024147 82.930847 42 35 36
-4.103483 -2.853346 83.163147 42 35 37
-4.138258 -2.696736 83.867912 42 35 37
-4.138258 -2.515945 83.867912 41 35 37
-4.103483 -2.315531 83.163147 40 34 37
-4.103483 -2.136259 83.163147 40 34 37
-4.092021 -1.951521 82.930847 40 34 36
-4.092021 -1.772750 82.930847 40 34 36
-4.035656 -1.572024 81.788544 40 34 36
-4.002577 -1.384275 81.118149 40 34 36
-3.991671 -1.206116 80.897118 41 35 37
-3.980824 -1.028925 80.677292 42 36 38
-3.980824 -0.855012 80.677292 43 37 38
-3.959306 -0.677418 80.241196 43 37 39
-3.959306 -0.504445 80.241196 43 38 39
-3.959306 -0.331472 80.241196 43 39 40
-3.970036 -0.158928 80.458649 43 40 41
-3.948634 0.014435 80.024910 43 40 42
-3.948634 0.186942 80.024910 43 40 42
-3.959306 0.360420 80.241196 42 40 41
-4.002577 0.539223 81.118149 40 38 38
-4.046805 0.721976 82.014481 38 36 36
-4.069287 0.903765 82.470116 36 33 33
-4.080622 1.084556 82.699837 33 31 31
-4.103483 1.269903 83.163147 31 29 28
-4.092021 1.445127 82.930847 29 27 26
-4.092021 1.623898 82.930847 28 25 24
-4.092021 1.802669 82.930847 28 25 24
-4.080622 1.975921 82.699837 29 24 24
-4.046805 2.136341 82.014481 29 24 24
-4.035656 2.306764 81.788544 30 24 24
-4.013544 2.469467 81.340393 32 25 25
-4.013544 2.644809 81.340393 34 26 27
-4.002577 2.812447 81.118149 37 28 29
-3.980824 2.971075 80.677292 40 31 33
-3.970036 3.136465 80.458649 44 35 37
-3.938020 3.283214 79.809792 50 42 44
-3.855114 3.382514 78.129585 58 49 51
-3.834930 3.532344 77.720528 65 55 57
-3.814957 3.680613 77.315735 71 59 61
-3.805048 3.837287 77.114914 78 65 67
-3.785383 3.982831 76.716385 92 78 82
-3.785383 4.148205 76.716385 110 96 101
-3.775627 4.302463 76.518669 114 102 108
-3.775627 4.467411 76.518669 104 94 101
-3.775627 4.632360 76.518669 92 86 93
-3.775627 4.797308 76.518669 82 82 88
-3.785383 4.975079 76.716385 77 80 86
-3.785383 5.140453 76.716385 75 81 86
-3.785383 5.305828 76.716385 73 81 86
-3.775627 5.457102 76.518669 79 88 91
-3.775627 5.622050 76.518669 95 105 106
-3.775627 5.786999 76.518669 115 126 125
-3.775627 5.951947 76.518669 132 142 140
-3.775627 6.116896 76.518669 143 153 150
-3.775627 6.281844 76.518669 150 158 156
-3.775627 6.446793 76.518669 141 147 148
-3.775627 6.611741 76.518669 115 121 124
-3.775627 6.776690 76.518669 92 97 103
-3.775627 6.941638 76.518669 84 90 95
-3.775627 7.106586 76.518669 89 96 100
-3.775627 7.271535 76.518669 108 116 119
-3.775627 7.436483 76.518669 127 134 136
-3.775627 7.601432 76.518669 132 138 139
-3.775627 7.766380 76.518669 128 133 133
-3.775627 7.931328 76.518669 116 119 120
-3.765921 8.075464 76.321960 102 103 105
-3.746658 8.197840 75.931564 96 96 99
-3.727591 8.318971 75.545143 98 98 101
-3.718130 8.460293 75.353409 94 94 98
-3.718130 8.622729 75.353409 82 82 86
-3.718130 8.785166 75.353409 71 73 77
-3.718130 8.947602 75.353409 66 69 72
-3.718130 9.110040 75.353409 70 73 75
-3.727591 9.296070 75.545143 84 86 89
-3.727591 9.458920 75.545143 98 100 102
-3.718130 9.597349 75.353409 100 100 102
-3.718130 9.759786 75.353409 94 91 96
-3.746658 9.998352 75.931564 93 89 95
-3.756265 10.188091 76.126259 93 87 95
-3.765921 10.378806 76.321960 83 76 84
-3.775627 10.570504 76.518669 68 62 69
-3.765921 10.707854 76.321960 60 55 61
-3.756265 10.844501 76.126259 60 56 62
-3.746658 10.980449 75.931564 65 61 66
-3.746658 11.144132 75.931564 65 64 66
-3.746658 11.307815 75.931564 62 61 61
-3.746658 11.471498 75.931564 59 58 57
-3.756265 11.665014 76.126259 61 60 58
-3.746658 11.798863 75.931564 64 62 61
-3.737100 11.932030 75.737862 63 60 59
-3.718130 12.033897 75.353409 59 55 54
-3.708717 12.165457 75.162636 52 48 47
-3.708717 12.327482 75.162636 47 41 42
-3.718130 12.521207 75.353409 44 38 39
-3.727591 12.715918 75.545143 45 38 40
-3.727591 12.878767 75.545143 46 40 42
-3.718130 13.008516 75.353409 48 42 45
-3.718130 13.170953 75.353409 48 43 45
-3.727591 13.367316 75.545143 45 40 42
-3.746658 13.599375 75.931564 41 36 36
-3.756265 13.798347 76.126259 37 33 32
-3.756265 13.962450 76.126259 35 31 30
-3.756265 14.126553 76.126259 33 29 28
-3.737100 14.217744 75.737862 32 28 27
-3.708717 14.271786 75.162636 31 27 27
-3.690034 14.361097 74.783989 31 27 25
-3.671537 14.449512 74.409126 30 26 24
-3.662358 14.573389 74.223106 30 26 24
-3.662358 14.733389 74.223106 30 25 23
-3.644138 14.819292 73.853836 29 25 23
-3.564339 14.650500 72.236603 28 25 23
-3.564339 14.806218 72.236603 28 25 23
-3.564339 14.961935 72.236603 27 25 22
-3.573033 15.154526 72.412788 26 24 22
-3.573033 15.310623 72.412788 25 23 21
-3.653225 15.813854 74.038010 24 22 20
-3.653225 15.973455 74.038010 23 21 19
-3.644138 16.092924 73.853836 23 20 18
-3.806911 -14.594143 80.677292 29 28 27
-3.806911 -14.420230 80.677292 31 29 27
-3.806911 -14.246317 80.677292 31 29 27
-3.806911 -14.072404 80.677292 31 29 27
-3.817284 -13.936361 80.897118 31 28 26
-3.827714 -13.799575 81.118149 30 27 25
-3.946319 -13.325759 83.631668 28 24 23
-3.946319 -13.145477 83.631668 28 24 23
-3.924211 -12.892562 83.163147 28 24 22
-3.902349 -12.642464 82.699837 28 25 22
-3.880729 -12.395137 82.241669 29 26 23
-3.880729 -12.217852 82.241669 30 27 24
-3.880729 -12.040566 82.241669 31 28 26
-3.902349 -11.929372 82.699837 31 28 27
-3.924211 -11.816932 83.163147 31 28 26
-3.924211 -11.637660 83.163147 31 28 26
-3.913249 -11.426381 82.930847 31 28 26
-3.913249 -11.247610 82.930847 30 28 25
-3.902349 -11.038007 82.699837 30 27 25
-3.891509 -10.829568 82.470116 30 27 24
-3.924211 -10.741302 83.163147 30 27 23
-3.946319 -10.621534 83.631668 29 26 23
-3.946319 -10.441252 83.631668 28 26 24
-3.968678 -10.319106 84.105499 29 26 25
-3.968678 -10.137803 84.105499 30 27 27
-3.968678 -9.956500 84.105499 31 28 28
-3.957467 -9.747583 83.867912 32 29 29
-3.935234 -9.513046 83.396751 33 30 30
-3.902349 -9.255278 82.699837 34 31 30
-3.902349 -9.077004 82.699837 34 30 30
-3.870009 -8.824985 82.014481 35 30 30
-3.902349 -8.720458 82.699837 35 29 29
-3.913249 -8.566046 82.930847 34 28 29
-3.913249 -8.387276 82.930847 34 27 28
-3.848746 -8.073199 81.563850 34 28 28
-3.848746 -7.897375 81.563850 34 28 28
-4.025699 -6.973116 85.313911 32 27 28
-4.014164 -6.769755 85.069466 32 28 29
-3.979953 -6.530240 84.344437 31 27 28
-3.957467 -6.312555 83.867912 32 28 29
-3.946319 -6.114491 83.631668 33 28 29
-3.870009 -5.819460 82.014481 33 28 29
-3.870009 -5.642664 82.014481 33 28 29
-4.419380 -6.241781 93.656914 33 28 28
-4.419380 -6.039888 93.656914 33 29 27
-4.245283 -5.608014 89.967400 34 30 28
-4.169474 -5.317394 88.360840 34 31 28
-4.169474 -5.126918 88.360840 35 31 29
-4.245283 -4.638317 89.967400 37 33 32
-4.284230 -4.485151 90.792793 38 33 33
-4.245283 -4.250438 89.967400 40 33 34
-4.232457 -4.044243 89.695595 41 33 34
-4.169474 -3.793585 88.360840 41 33 34
-4.037301 -3.488889 85.559776 41 34 35
-3.957467 -3.239109 83.867912 42 35 36
-3.913249 -3.024147 82.930847 42 35 36
-3.913249 -2.845376 82.930847 42 35 37
-3.968678 -2.704376 84.105499 42 35 37
-3.968678 -2.523072 84.105499 41 35 37
-3.935234 -2.322035 83.396751 40 34 36
-3.935234 -2.142260 83.396751 40 33 36
-3.935234 -1.962485 83.396751 40 33 36
-3.913249 -1.772750 82.930847 40 33 35
-3.859348 -1.572024 81.788544 40 33 35
-3.827714 -1.384275 81.118149 41 34 34
-3.817284 -1.206116 80.897118 42 35 36
-3.806911 -1.028925 80.677292 43 36 38
-3.806911 -0.855012 80.677292 44 37 38
-3.786333 -0.677418 80.241196 44 37 39
-3.786333 -0.504445 80.241196 44 38 40
-3.776128 -0.330578 80.024910 44 39 40
-3.776128 -0.158072 80.024910 43 40 42
-3.765977 0.014396 79.809792 43 40 42
-3.765977 0.186439 79.809792 42 40 41
-3.776128 0.359449 80.024910 41 39 40
-3.827714 0.539223 81.118149 40 39 39
-3.880729 0.723976 82.241669 39 37 37
-3.891509 0.903765 82.470116 38 35 36
-3.935234 1.093695 83.396751 36 34 34
-3.935234 1.273470 83.396751 34 32 32
-3.946319 1.457339 83.631668 32 30 29
-3.946319 1.637621 83.631668 31 28 27
-3.946319 1.817903 83.631668 30 27 26
-3.946319 1.998184 83.631668 30 26 25
-3.924211 2.166262 83.163147 30 25 25
-3.902349 2.332467 82.699837 30 25 24
-3.859348 2.483073 81.788544 31 24 24
-3.859348 2.659381 81.788544 32 24 25
-3.848746 2.827900 81.563850 33 25 26
-3.838201 2.995494 81.340393 35 27 28
-3.806911 3.144988 80.677292 37 29 31
-3.765977 3.283214 79.809792 42 36 38
-3.686693 3.382514 78.129585 50 45 45
-3.667391 3.532344 77.720528 57 52 52
-3.648290 3.680613 77.315735 61 55 55
-3.638814 3.837287 77.114914 68 61 61
-3.629387 3.993149 76.915138 88 80 82
-3.620009 4.148205 76.716385 116 107 111
-3.610679 4.302463 76.518669 125 115 123
-3.610679 4.467411 76.518669 112 103 113
-3.610679 4.632360 76.518669 97 91 101
-3.610679 4.797308 76.518669 89 86 96
-3.610679 4.962256 76.518669 81 81 92
-3.620009 5.140453 76.716385 74 77 87
-3.620009 5.305828 76.716385 71 76 85
-3.620009 5.471203 76.716385 75 83 89
-3.610679 5.622050 76.518669 91 101 104
-3.620009 5.801952 76.716385 113 123 124
-3.620009 5.967327 76.716385 128 140 138
-3.620009 6.132701 76.716385 141 152 150
-3.620009 6.298076 76.716385 156 167 165
-3.610679 6.446793 76.518669 157 166 166
-3.620009 6.628826 76.716385 133 141 143
-3.620009 6.794200 76.716385 109 116 120
-3.620009 6.959575 76.716385 95 101 105
-3.610679 7.106586 76.518669 93 98 103
-3.610679 7.271535 76.518669 107 112 116
-3.610679 7.436483 76.518669 123 129 131
-3.610679 7.601432 76.518669 125 129 131
-3.610679 7.766380 76.518669 114 117 119
-3.610679 7.931328 76.518669 99 101 103
-3.610679 8.096277 76.518669 87 87 91
-3.601397 8.239988 76.321960 86 86 90
-3.582975 8.361523 75.931564 92 91 95
-3.555694 8.460293 75.353409 90 89 94
-3.555694 8.622729 75.353409 77 77 82
-3.555694 8.785166 75.353409 67 68 73
-3.555694 8.947602 75.353409 64 66 71
-3.573835 9.156519 75.737862 66 68 73
-3.582975 9.343620 75.931564 75 76 81
-3.582975 9.507303 75.931564 85 83 88
-3.564741 9.621770 75.545143 85 82 87
-3.564741 9.784619 75.545143 80 76 81
-3.592162 10.023989 76.126259 80 74 80
-3.601397 10.214281 76.321960 82 75 81
-3.620009 10.432443 76.716385 75 69 73
-3.620009 10.597817 76.716385 63 58 62
-3.620009 10.763192 76.716385 57 54 56
-3.601397 10.872379 76.321960 59 56 58
-3.592162 11.008604 76.126259 62 61 61
-3.592162 11.172707 76.126259 62 62 62
-3.592162 11.336809 76.126259 60 60 59
-3.592162 11.500912 76.126259 60 60 57
-3.592162 11.665014 76.126259 63 63 60
-3.592162 11.829117 76.126259 64 64 60
-3.582975 11.962546 75.931564 61 59 56
-3.555694 12.033897 75.353409 54 52 49
-3.546692 12.165457 75.162636 48 44 43
-3.537736 12.296352 74.972832 44 38 39
-3.546692 12.489508 75.162636 43 35 38
-3.555694 12.683643 75.353409 44 36 39
-3.555694 12.846080 75.353409 45 39 41
-3.546692 12.975583 75.162636 46 40 43
-3.555694 13.170953 75.353409 47 41 44
-3.564741 13.367316 75.545143 45 39 41
-3.582975 13.599375 75.931564 41 35 36
-3.582975 13.763058 75.931564 37 32 33
-3.582975 13.926741 75.931564 35 31 30
-3.573835 14.054479 75.737862 33 28 28
-3.555694 14.145573 75.353409 32 27 28
-3.546692 14.271786 75.162636 31 26 27
-3.528825 14.361097 74.783989 31 26 26
-3.511136 14.449512 74.409126 30 26 25
-3.502358 14.573389 74.223106 30 26 25
-3.502358 14.733389 74.223106 30 26 24
-3.484934 14.819292 73.853836 29 26 24
-3.408621 14.650500 72.236603 28 26 23
-3.408621 14.806218 72.236603 27 25 23
-3.408621 14.961935 72.236603 27 25 22
-3.416935 15.154526 72.412788 26 24 22
-3.442121 15.423478 72.946541 25 23 21
-3.493624 15.813854 74.038010 24 22 20
-3.502358 16.013390 74.223106 24 21 18
-3.502358 16.173389 74.223106 23 20 17
-3.632998 -14.768056 80.677292 26 25 24
-3.632998 -14.594143 80.677292 29 27 26
-3.652851 -14.499029 81.118149 30 28 27
-3.652851 -14.324165 81.118149 31 28 27
-3.652851 -14.149302 81.118149 31 28 26
-3.652851 -13.974439 81.118149 31 28 26
-3.683040 -13.913621 81.788544 30 27 26
-3.734479 -13.929174 82.930847 29 26 26
-3.766038 -13.506041 83.631668 29 25 24
-3.766038 -13.325759 83.631668 29 25 24
-3.755459 -13.108552 83.396751 29 25 23
-3.744939 -12.892562 83.163147 29 24 23
-3.734479 -12.677778 82.930847 29 25 23
-3.713732 -12.429568 82.470116 29 26 23
-3.713732 -12.251790 82.470116 30 27 25
-3.713732 -12.074013 82.470116 31 27 26
-3.734479 -11.962694 82.930847 32 27 26
-3.734479 -11.783923 82.930847 32 27 26
-3.744939 -11.637660 83.163147 31 27 26
-3.734479 -11.426381 82.930847 31 27 25
-3.724076 -11.216280 82.699837 31 27 24
-3.724076 -11.038007 82.699837 30 27 24
-3.713732 -10.829568 82.470116 30 27 24
-3.713732 -10.651791 82.470116 30 27 24
-3.744939 -10.562030 83.163147 29 26 24
-3.766038 -10.441252 83.631668 28 26 25
-3.787375 -10.319106 84.105499 29 27 26
-3.787375 -10.137803 84.105499 30 27 27
-3.787375 -9.956500 84.105499 31 28 28
-3.787375 -9.775197 84.105499 32 29 29
-3.766038 -9.539844 83.631668 32 30 29
-3.724076 -9.255278 82.699837 32 30 28
-3.724076 -9.077004 82.699837 32 29 28
-3.703444 -8.849431 82.241669 33 28 28
-3.724076 -8.720458 82.699837 33 27 27
-3.734479 -8.566046 82.930847 33 27 27
-3.744939 -8.410769 83.163147 33 27 28
-3.734479 -8.208505 82.930847 33 27 28
-3.897794 -7.074765 86.557556 33 28 29
-3.841791 -6.789208 85.313911 33 28 29
-3.808955 -6.548845 84.584732 32 27 30
-3.798135 -6.348422 84.344437 32 27 30
-3.776676 -6.131764 83.867912 33 27 30
-3.683040 -5.803429 81.788544 33 27 30
-3.683040 -5.627120 81.788544 33 28 30
-4.177948 -6.183264 92.778885 33 28 29
-4.177948 -5.983264 92.778885 33 29 28
-4.051343 -5.608014 89.967400 33 29 27
-3.978998 -5.317394 88.360840 34 30 28
-3.978998 -5.126918 88.360840 34 30 28
-4.113672 -4.709675 91.351517 37 32 32
-4.088512 -4.485151 90.792793 38 33 33
-4.063658 -4.263357 90.240860 39 33 34
-4.039104 -4.044243 89.695595 40 33 34
-3.967191 -3.782328 88.098640 40 33 34
-3.841791 -3.478863 85.313911 40 34 35
-3.776676 -3.239109 83.867912 41 34 35
-3.734479 -3.024147 82.930847 41 34 35
-3.734479 -2.845376 82.930847 41 34 36
-3.787375 -2.704376 84.105499 41 34 36
-3.787375 -2.523072 84.105499 41 34 36
-3.755459 -2.322035 83.396751 40 33 35
-3.744939 -2.136259 83.163147 40 32 35
-3.734479 -1.951521 82.930847 40 32 35
-3.724076 -1.767812 82.699837 39 31 34
-3.672921 -1.567705 81.563850 40 32 33
-3.652851 -1.384275 81.118149 40 33 33
-3.632998 -1.202838 80.677292 41 34 35
-3.632998 -1.028925 80.677292 42 36 36
-3.632998 -0.855012 80.677292 44 37 38
-3.613360 -0.677418 80.241196 45 38 39
-3.603621 -0.503085 80.024910 45 39 40
-3.593934 -0.329690 79.809792 44 39 41
-3.593934 -0.157647 79.809792 44 39 41
-3.593934 0.014396 79.809792 42 39 41
-3.574715 0.185442 79.383003 41 39 40
-3.593934 0.358482 79.809792 40 38 39
-3.632998 0.536292 80.677292 39 38 38
-3.703444 0.723976 82.241669 39 38 38
-3.713732 0.903765 82.470116 39 37 37
-3.755459 1.093695 83.396751 38 36 37
-3.776676 1.280665 83.867912 37 35 36
-3.776676 1.461456 83.867912 35 33 34
-3.776676 1.642247 83.867912 34 31 31
-3.776676 1.823038 83.867912 33 29 29
-3.766038 1.998184 83.631668 32 28 27
-3.755459 2.172347 83.396751 31 26 26
-3.734479 2.338982 82.930847 31 26 25
-3.713732 2.503765 82.470116 30 25 25
-3.683040 2.659381 81.788544 31 25 24
-3.672921 2.827900 81.563850 31 25 25
-3.662858 2.995494 81.340393 31 25 26
-3.632998 3.144988 80.677292 33 26 28
-3.593934 3.283214 79.809792 35 31 31
-3.527555 3.391439 78.335732 39 37 37
-3.499852 3.532344 77.720528 45 44 44
-3.481623 3.680613 77.315735 50 49 50
-3.481623 3.847280 77.315735 59 57 59
-3.472580 4.003520 77.114914 79 76 80
-3.454634 4.148205 76.716385 107 101 109
-3.454634 4.313580 76.716385 122 115 126
-3.445730 4.467411 76.518669 116 109 121
-3.445730 4.632360 76.518669 103 97 110
-3.445730 4.797308 76.518669 94 91 104
-3.445730 4.962256 76.518669 84 83 96
-3.454634 5.140453 76.716385 76 77 89
-3.454634 5.305828 76.716385 74 78 88
-3.454634 5.471203 76.716385 80 87 94
-3.454634 5.636578 76.716385 96 105 109
-3.454634 5.801952 76.716385 116 127 129
-3.454634 5.967327 76.716385 127 140 138
-3.454634 6.132701 76.716385 133 146 143
-3.454634 6.298076 76.716385 144 155 153
-3.454634 6.463451 76.716385 149 159 158
-3.454634 6.628826 76.716385 137 146 147
-3.454634 6.794200 76.716385 121 128 130
-3.454634 6.959575 76.716385 106 112 115
-3.454634 7.124949 76.716385 99 105 108
-3.454634 7.290324 76.716385 107 112 116
-3.454634 7.455699 76.716385 118 122 126
-3.454634 7.621074 76.716385 115 118 122
-3.454634 7.786448 76.716385 100 102 106
-3.454634 7.951823 76.716385 84 84 88
-3.445730 8.096277 76.518669 74 73 77
-3.445730 8.261226 76.518669 76 75 79
-3.428060 8.382963 76.126259 84 82 87
-3.419292 8.525206 75.931564 85 83 89
-3.401891 8.644670 75.545143 75 75 81
-3.401891 8.807520 75.545143 68 69 75
-3.410570 8.993254 75.737862 69 70 76
-3.419292 9.179937 75.931564 72 73 78
-3.428060 9.367579 76.126259 77 78 82
-3.428060 9.531681 76.126259 82 81 85
-3.419292 9.670986 75.931564 80 76 81
-3.428060 9.859886 76.126259 73 67 72
-3.436872 10.049757 76.321960 68 62 67
-3.436872 10.214281 76.321960 69 62 66
-3.454634 10.432443 76.716385 66 61 62
-3.454634 10.597817 76.716385 60 55 56
-3.454634 10.763192 76.716385 56 53 53
-3.445730 10.900401 76.518669 57 56 55
-3.436872 11.036903 76.321960 59 58 57
-3.428060 11.172707 76.126259 59 59 58
-3.428060 11.336809 76.126259 58 59 57
-3.428060 11.500912 76.126259 58 60 56
-3.428060 11.665014 76.126259 61 62 58
-3.419292 11.798863 75.931564 60 60 57
-3.401891 11.901668 75.545143 55 55 51
-3.384667 12.003431 75.162636 50 47 45
-3.376120 12.134736 74.972832 45 42 41
-3.376120 12.296352 74.972832 42 37 38
-3.376120 12.457969 74.972832 42 34 37
-3.384667 12.651533 75.162636 43 35 39
-3.384667 12.813559 75.162636 44 38 40
-3.384667 12.975583 75.162636 45 38 42
-3.384667 13.137609 75.162636 45 38 42
-3.393257 13.333389 75.353409 43 37 40
-3.410570 13.564682 75.737862 40 34 36
-3.410570 13.727947 75.737862 37 32 33
-3.410570 13.891212 75.737862 35 30 30
-3.393257 13.983136 75.353409 33 28 28
-3.384667 14.109760 75.162636 32 27 27
-3.376120 14.235746 74.972832 31 26 27
-3.367615 14.361097 74.783989 30 26 26
-3.350735 14.449512 74.409126 30 26 26
-3.342358 14.573389 74.223106 30 26 25
-3.342358 14.733389 74.223106 30 26 25
-3.325730 14.819292 73.853836 29 27 24
-3.260838 14.686233 72.412788 28 26 23
-3.252903 14.806218 72.236603 27 25 23
-3.260838 14.998428 72.412788 27 25 22
-3.292964 15.303831 73.126213 26 24 21
