ply
format ascii 1.0
element vertex 1158
property float x
property float y
property float z
property uchar red
property uchar green
property uchar blue
end_header
-5.314957 -3.152720 77.315735 168 117 120
-5.314957 -2.986053 77.315735 177 125 130
-5.314957 -2.819387 77.315735 183 132 138
-5.314957 -2.652720 77.315735 185 138 145
-5.314957 -2.486053 77.315735 185 142 150
-5.314957 -2.319387 77.315735 181 142 153
-5.328834 -2.158341 77.517601 176 139 153
-5.328834 -1.991239 77.517601 166 128 147
-5.328834 -1.824137 77.517601 162 124 146
-5.342783 -1.661373 77.720528 193 158 179
-5.342783 -1.493834 77.720528 231 202 219
-5.328834 -1.322832 77.517601 220 183 202
-5.328834 -1.155730 77.517601 179 123 147
-5.314957 -0.986053 77.315735 167 102 125
-5.314957 -0.819387 77.315735 185 117 136
-5.328834 -0.654424 77.517601 193 123 137
-5.328834 -0.487323 77.517601 191 120 130
-5.328834 -0.320221 77.517601 201 137 145
-5.328834 -0.153119 77.517601 224 172 179
-5.328834 0.013983 77.517601 222 165 175
-5.328834 0.181085 77.517601 190 124 138
-5.328834 0.348187 77.517601 183 115 131
-5.342783 0.516637 77.720528 195 130 146
-5.342783 0.684177 77.720528 197 133 148
-5.356807 0.853951 77.924522 195 130 144
-5.370903 1.024620 78.129585 199 134 146
-5.370903 1.193041 78.129585 202 137 148
-5.356807 1.357888 77.924522 202 137 148
-5.356807 1.525867 77.924522 201 138 148
-5.356807 1.693846 77.924522 204 141 152
-5.356807 1.861825 77.924522 202 139 151
-5.342783 2.024491 77.720528 197 136 150
-5.342783 2.192030 77.720528 197 137 152
-5.342783 2.359569 77.720528 196 138 154
-5.342783 2.527109 77.720528 194 139 156
-5.342783 2.694648 77.720528 194 141 158
-5.356807 2.869699 77.924522 195 142 159
-5.370903 3.045672 78.129585 196 143 160
-5.370903 3.214093 78.129585 197 144 160
-5.385075 3.391439 78.335732 195 143 157
-5.385075 3.560305 78.335732 194 142 154
-5.413643 3.748954 78.751305 192 141 151
-5.442516 3.939615 79.171310 191 139 147
-5.442516 4.110281 79.171310 189 139 145
-5.442516 4.280948 79.171310 188 139 145
-5.413643 4.427999 78.751305 187 139 145
-5.413643 4.597760 78.751305 186 139 146
-5.399321 4.754909 78.542969 187 141 149
-5.385075 4.911228 78.335732 188 142 152
-5.370903 5.066725 78.129585 187 142 152
-5.342783 5.207737 77.720528 186 142 152
-5.342783 5.375276 77.720528 185 142 152
-5.328834 5.528343 77.517601 184 141 149
-5.328834 5.695445 77.517601 182 140 145
-5.328834 5.862547 77.517601 178 140 140
-5.328834 6.029649 77.517601 173 138 135
-5.328834 6.196751 77.517601 172 140 137
-5.328834 6.363853 77.517601 185 158 156
-5.328834 6.530954 77.517601 189 168 168
-5.328834 6.698056 77.517601 162 144 148
-5.328834 6.865158 77.517601 143 128 136
-5.342783 7.050669 77.720528 148 138 149
-5.342783 7.218208 77.720528 137 132 144
-5.342783 7.385747 77.720528 111 109 121
-5.342783 7.553287 77.720528 96 97 107
-5.342783 7.720826 77.720528 113 115 123
-5.370903 7.929883 78.129585 174 175 179
-5.370903 8.098304 78.129585 232 232 234
-5.370903 8.266725 78.129585 249 249 250
-5.385075 8.457402 78.335732 248 248 249
-5.370903 8.603567 78.129585 252 252 252
-5.370903 8.771988 78.129585 248 247 247
-5.356807 8.916944 77.924522 212 204 207
-5.342783 9.061140 77.720528 139 120 126
-5.356807 9.252901 77.924522 84 56 65
-5.356807 9.420880 77.924522 92 56 68
-5.356807 9.588860 77.924522 121 80 93
-5.328834 9.705889 77.517601 131 86 100
-5.328834 9.872991 77.517601 130 83 95
-5.546042 11.492814 80.677292 120 68 76
-5.546042 11.666727 80.677292 120 67 76
-5.546042 11.840640 80.677292 120 66 75
-6.626440 17.264141 96.393646 105 52 60
-6.604995 17.415390 96.081688 104 52 59
-4.525373 13.067307 65.829803 102 48 53
-4.525373 13.209214 65.829803 103 48 54
-4.545531 13.410591 66.123032 104 49 56
-4.545531 13.553130 66.123032 105 49 57
-4.954745 -11.054247 74.409126 181 109 127
-4.954745 -10.893846 74.409126 178 107 125
-4.967195 -10.760413 74.596085 176 105 125
-4.979706 -10.626308 74.783989 173 104 124
-4.992281 -10.491527 74.972832 169 101 123
-4.992281 -10.329910 74.972832 165 100 123
-5.004920 -10.194036 75.162636 164 102 125
-4.992281 -10.006679 74.972832 164 105 128
-5.004920 -9.869987 75.162636 163 106 130
-5.004920 -9.707961 75.162636 163 108 132
-5.030390 -9.594516 75.545143 165 110 134
-5.043223 -9.455726 75.737862 171 117 141
-5.056121 -9.316226 75.931564 181 128 151
-5.069086 -9.176012 76.126259 182 130 153
-5.069086 -9.011909 76.126259 167 120 141
-5.069086 -8.847807 76.126259 152 111 130
-5.095215 -8.728465 76.518669 145 112 128
-5.108381 -8.585645 76.716385 142 118 134
-5.108381 -8.420270 76.716385 142 125 143
-5.108381 -8.254895 76.716385 139 129 148
-5.108381 -8.089520 76.716385 130 124 143
-5.095215 -7.903723 76.518669 125 120 138
-5.095215 -7.738775 76.518669 122 119 134
-5.095215 -7.573826 76.518669 101 99 109
-5.108381 -7.428022 76.716385 83 80 86
-5.108381 -7.262647 76.716385 105 101 103
-5.108381 -7.097273 76.716385 168 165 165
-5.095215 -6.914032 76.518669 221 220 219
-5.095215 -6.749084 76.518669 212 209 210
-5.095215 -6.584136 76.518669 167 160 163
-5.095215 -6.419187 76.518669 143 134 137
-5.095215 -6.254239 76.518669 146 134 139
-5.108381 -6.105025 76.716385 144 125 132
-5.095215 -5.924342 76.518669 137 112 119
-5.095215 -5.759393 76.518669 145 119 124
-5.095215 -5.594445 76.518669 152 126 129
-5.095215 -5.429496 76.518669 147 121 122
-5.095215 -5.264548 76.518669 147 124 123
-5.095215 -5.099599 76.518669 163 143 141
-5.095215 -4.934651 76.518669 182 164 161
-5.095215 -4.769702 76.518669 179 163 159
-5.095215 -4.604754 76.518669 155 140 135
-5.095215 -4.439806 76.518669 131 115 109
-5.108381 -4.285903 76.716385 120 102 93
-5.121615 -4.131204 76.915138 132 112 102
-5.121615 -3.965400 76.915138 181 163 152
-5.134918 -3.809466 77.114914 219 197 185
-5.134918 -3.643233 77.114914 191 156 145
-5.134918 -3.476999 77.114914 160 114 105
-5.134918 -3.310765 77.114914 172 120 116
-5.148290 -3.152720 77.315735 185 130 130
-5.148290 -2.986053 77.315735 184 127 131
-5.148290 -2.819387 77.315735 184 128 134
-5.148290 -2.652720 77.315735 188 135 142
-5.148290 -2.486053 77.315735 189 140 149
-5.161732 -2.325443 77.517601 185 140 151
-5.161732 -2.158341 77.517601 180 137 150
-5.161732 -1.991239 77.517601 173 130 147
-5.161732 -1.824137 77.517601 172 128 147
-5.161732 -1.657035 77.517601 194 152 171
-5.161732 -1.489933 77.517601 222 183 200
-5.161732 -1.322832 77.517601 216 170 188
-5.161732 -1.155730 77.517601 185 126 146
-5.148290 -0.986053 77.315735 176 109 127
-5.148290 -0.819387 77.315735 188 119 135
-5.161732 -0.654424 77.517601 196 125 138
-5.161732 -0.487323 77.517601 199 127 139
-5.175244 -0.321059 77.720528 208 137 148
-5.175244 -0.153520 77.720528 219 152 162
-5.175244 0.014020 77.720528 216 149 159
-5.175244 0.181559 77.720528 197 128 141
-5.175244 0.349098 77.720528 189 120 133
-5.175244 0.516637 77.720528 191 125 139
-5.175244 0.684177 77.720528 194 129 142
-5.202483 0.856199 78.129585 197 132 144
-5.202483 1.024620 78.129585 199 134 146
-5.202483 1.193041 78.129585 200 135 147
-5.188828 1.357888 77.924522 200 136 147
-5.188828 1.525867 77.924522 201 137 147
-5.188828 1.693846 77.924522 203 140 151
-5.175244 1.856951 77.720528 201 139 150
-5.175244 2.024491 77.720528 198 137 149
-5.175244 2.192030 77.720528 196 137 151
-5.175244 2.359569 77.720528 195 137 153
-5.175244 2.527109 77.720528 193 138 155
-5.175244 2.694648 77.720528 192 139 156
-5.175244 2.862187 77.720528 192 139 157
-5.188828 3.037678 77.924522 192 141 157
-5.202483 3.214093 78.129585 191 141 157
-5.216209 3.391439 78.335732 189 139 154
-5.216209 3.560305 78.335732 188 139 150
-5.230009 3.739036 78.542969 187 140 147
-5.257828 3.929137 78.960747 188 140 146
-5.243882 4.088476 78.751305 189 142 146
-5.243882 4.258237 78.751305 189 143 148
-5.243882 4.427999 78.751305 188 142 147
-5.230009 4.585597 78.542969 185 139 146
-5.230009 4.754909 78.542969 185 140 147
-5.216209 4.911228 78.335732 184 141 147
-5.202483 5.066725 78.129585 180 138 145
-5.175244 5.207737 77.720528 179 138 145
-5.161732 5.361241 77.517601 178 139 145
-5.148290 5.513947 77.315735 178 140 143
-5.148290 5.680613 77.315735 177 142 141
-5.161732 5.862547 77.517601 173 142 136
-5.161732 6.029649 77.517601 163 135 126
-5.175244 6.212973 77.720528 161 136 126
-5.175244 6.380512 77.720528 183 164 156
-5.161732 6.530954 77.517601 194 179 176
-5.148290 6.680613 77.315735 159 143 145
-5.161732 6.865158 77.517601 124 109 118
-5.161732 7.032260 77.517601 121 110 123
-5.175244 7.218208 77.720528 125 118 133
-5.175244 7.385747 77.720528 129 125 140
-5.175244 7.553287 77.720528 126 125 138
-5.175244 7.720826 77.720528 135 136 146
-5.202483 7.929883 78.129585 187 187 193
-5.202483 8.098304 78.129585 238 238 240
-5.202483 8.266725 78.129585 253 252 253
-5.216209 8.457402 78.335732 253 253 253
-5.216209 8.626267 78.335732 254 253 254
-5.188828 8.748964 77.924522 244 241 243
-5.188828 8.916944 77.924522 195 184 190
-5.175244 9.061140 77.720528 120 97 109
-5.188828 9.252901 77.924522 82 49 66
-5.188828 9.420880 77.924522 99 60 78
-5.188828 9.588860 77.924522 122 78 96
-5.161732 9.705889 77.517601 128 81 97
-5.161732 9.872991 77.517601 128 78 92
-4.316470 11.609946 64.823669 104 52 59
-4.316470 11.749684 64.823669 103 51 57
-4.307066 12.560687 64.682442 101 50 54
-4.307066 12.700121 64.682442 101 48 53
-4.316470 12.867588 64.823669 101 48 53
-4.335402 13.064376 65.107986 102 49 55
-4.364113 13.292175 65.539169 103 49 56
-4.782358 -11.026611 74.223106 177 108 128
-4.782358 -10.866611 74.223106 174 106 127
-4.794344 -10.733445 74.409126 172 105 127
-4.818497 -10.626308 74.783989 170 105 128
-4.830665 -10.491527 74.972832 166 104 129
-4.842895 -10.356062 75.162636 163 104 131
-4.842895 -10.194036 75.162636 161 105 132
-4.830665 -10.006679 74.972832 159 104 132
-4.830665 -9.845062 74.972832 156 103 132
-4.842895 -9.707961 75.162636 153 103 131
-4.855186 -9.570164 75.353409 154 104 133
-4.867540 -9.431665 75.545143 162 110 139
-4.879958 -9.292460 75.737862 176 123 152
-4.892438 -9.152544 75.931564 190 138 164
-4.904983 -9.011909 76.126259 193 145 167
-4.904983 -8.847807 76.126259 181 138 156
-4.904983 -8.683704 76.126259 162 120 138
-4.917592 -8.541503 76.321960 148 110 128
-4.930266 -8.398568 76.518669 149 117 136
-4.930266 -8.233620 76.518669 152 127 147
-4.930266 -8.068671 76.518669 148 127 148
-4.930266 -7.903723 76.518669 140 123 144
-4.930266 -7.738775 76.518669 131 117 134
-4.917592 -7.554356 76.321960 113 101 115
-4.930266 -7.408878 76.518669 88 77 86
-4.930266 -7.243929 76.518669 80 70 75
-4.930266 -7.078981 76.518669 134 126 128
-4.930266 -6.914032 76.518669 215 212 211
-4.930266 -6.749084 76.518669 241 239 239
-4.930266 -6.584136 76.518669 202 197 198
-4.930266 -6.419187 76.518669 141 130 134
-4.930266 -6.254239 76.518669 114 99 106
-4.930266 -6.089290 76.518669 129 111 119
-4.930266 -5.924342 76.518669 141 121 128
-4.930266 -5.759393 76.518669 140 119 124
-4.930266 -5.594445 76.518669 138 118 120
-4.930266 -5.429496 76.518669 137 120 120
-4.930266 -5.264548 76.518669 126 111 110
-4.930266 -5.099599 76.518669 121 108 105
-4.930266 -4.934651 76.518669 161 150 147
-4.930266 -4.769702 76.518669 200 192 188
-4.930266 -4.604754 76.518669 168 158 155
-4.943006 -4.451278 76.716385 106 92 88
-4.943006 -4.285903 76.716385 89 70 64
-4.955812 -4.131204 76.915138 123 102 93
-4.955812 -3.965400 76.915138 184 165 154
-4.968684 -3.809466 77.114914 218 195 183
-4.968684 -3.643233 77.114914 185 147 136
-4.968684 -3.476999 77.114914 157 109 100
-4.968684 -3.310765 77.114914 178 125 120
-4.981623 -3.152720 77.315735 193 136 136
-4.981623 -2.986053 77.315735 190 131 135
-4.981623 -2.819387 77.315735 189 130 136
-4.981623 -2.652720 77.315735 191 134 142
-4.981623 -2.486053 77.315735 191 137 148
-4.994630 -2.325443 77.517601 188 137 149
-4.981623 -2.152720 77.315735 184 135 148
-4.994630 -1.991239 77.517601 181 132 146
-4.994630 -1.824137 77.517601 181 131 147
-4.994630 -1.657035 77.517601 189 138 156
-4.994630 -1.489933 77.517601 200 149 166
-4.994630 -1.322832 77.517601 200 144 161
-4.981623 -1.152720 77.315735 191 129 145
-4.981623 -0.986053 77.315735 189 123 138
-4.981623 -0.819387 77.315735 193 125 139
-4.994630 -0.654424 77.517601 197 128 140
-4.994630 -0.487323 77.517601 200 131 143
-5.007705 -0.321059 77.720528 205 135 147
-5.007705 -0.153520 77.720528 210 139 151
-5.007705 0.014020 77.720528 209 139 151
-5.007705 0.181559 77.720528 202 134 146
-4.994630 0.348187 77.517601 198 131 144
-5.007705 0.516637 77.720528 196 130 144
-5.007705 0.684177 77.720528 195 130 143
-5.020849 0.853951 77.924522 196 131 144
-5.034061 1.024620 78.129585 198 134 146
-5.020849 1.189909 77.924522 199 135 147
-5.020849 1.357888 77.924522 200 136 148
-5.007705 1.521873 77.720528 201 139 149
-5.007705 1.689412 77.720528 201 139 149
-4.994630 1.852103 77.517601 199 138 149
-4.994630 2.019205 77.517601 197 137 149
-4.994630 2.186307 77.517601 195 137 150
-4.994630 2.353409 77.517601 193 136 151
-4.994630 2.520510 77.517601 191 136 153
-4.994630 2.687612 77.517601 190 137 154
-4.994630 2.854714 77.517601 189 137 155
-5.007705 3.029726 77.720528 188 138 155
-5.020849 3.205657 77.924522 188 138 154
-5.020849 3.373636 77.924522 186 138 152
-5.047344 3.560305 78.335732 185 139 149
-5.047344 3.729170 78.335732 185 140 147
-5.047344 3.898036 78.335732 186 141 146
-5.047344 4.066901 78.335732 189 144 148
-5.034061 4.224620 78.129585 190 146 151
-5.020849 4.381510 77.924522 189 144 150
-5.020849 4.549489 77.924522 184 139 145
-5.034061 4.729883 78.129585 181 137 144
-5.034061 4.898304 78.129585 180 137 144
-5.007705 5.040197 77.720528 177 136 142
-5.007705 5.207737 77.720528 173 134 139
-4.994630 5.361241 77.517601 170 133 137
-4.981623 5.513947 77.315735 169 135 136
-4.981623 5.680613 77.315735 170 139 136
-4.981623 5.847280 77.315735 164 138 129
-4.994630 6.029649 77.517601 149 126 115
-5.007705 6.212973 77.720528 142 121 109
-5.007705 6.380512 77.720528 158 141 131
-4.981623 6.513947 77.315735 170 155 150
-4.981623 6.680613 77.315735 146 130 131
-4.981623 6.847280 77.315735 116 99 107
-4.994630 7.032260 77.517601 110 96 108
-4.994630 7.199361 77.517601 130 119 135
-4.994630 7.366463 77.517601 160 152 168
-4.994630 7.533565 77.517601 171 166 180
-4.994630 7.700667 77.517601 180 179 190
-5.007705 7.888365 77.720528 211 212 219
-5.034061 8.098304 78.129585 239 242 244
-5.047344 8.288537 78.335732 251 252 252
-5.047344 8.457402 78.335732 252 251 252
-5.047344 8.626267 78.335732 247 244 246
-5.020849 8.748964 77.924522 228 220 224
-5.007705 8.893600 77.720528 174 157 167
-5.007705 9.061140 77.720528 110 81 97
-5.007705 9.228680 77.720528 90 51 71
-5.007705 9.396218 77.720528 109 64 85
-5.007705 9.563758 77.720528 123 75 94
-5.007705 9.731297 77.720528 126 74 92
-4.149552 11.395565 64.401825 103 51 60
-4.149552 11.534393 64.401825 103 51 58
-4.158573 11.698599 64.541832 102 51 57
-4.158573 12.394251 64.541832 102 52 56
-4.149552 12.506194 64.401825 102 51 55
-4.140570 12.617653 64.262428 101 50 54
-4.149552 12.783852 64.401825 101 49 54
-4.167633 12.978988 64.682442 102 49 55
-4.599361 -10.971752 73.853836 174 110 131
-4.599361 -10.812549 73.853836 170 108 130
-4.622358 -10.706612 74.223106 166 107 130
-4.645586 -10.599609 74.596085 163 107 131
-4.657288 -10.465099 74.783989 159 108 133
-4.669049 -10.329910 74.972832 157 109 136
-4.669049 -10.168294 74.972832 154 108 136
-4.669049 -10.006679 74.972832 147 103 131
-4.669049 -9.845062 74.972832 140 98 126
-4.669049 -9.683446 74.972832 136 93 122
-4.680869 -9.545936 75.162636 136 93 122
-4.692750 -9.407727 75.353409 143 98 128
-4.704690 -9.268816 75.545143 155 106 136
-4.704690 -9.105966 75.545143 178 129 157
-4.692750 -8.920418 75.353409 212 171 192
-4.692750 -8.757981 75.353409 222 185 201
-4.716692 -8.639400 75.737862 190 145 163
-4.740880 -8.519602 76.126259 152 101 122
-4.753068 -8.376978 76.321960 150 103 125
-4.765318 -8.233620 76.518669 163 121 143
-4.765318 -8.068671 76.518669 162 125 148
-4.765318 -7.903723 76.518669 156 123 146
-4.753068 -7.718881 76.321960 149 120 141
-4.753068 -7.554356 76.321960 138 113 129
-4.753068 -7.389832 76.321960 119 96 109
-4.765318 -7.243929 76.518669 101 81 91
-4.765318 -7.078981 76.518669 130 114 120
-4.765318 -6.914032 76.518669 197 187 191
-4.765318 -6.749084 76.518669 233 227 231
-4.765318 -6.584136 76.518669 213 206 210
-4.765318 -6.419187 76.518669 159 147 153
-4.765318 -6.254239 76.518669 121 106 114
-4.765318 -6.089290 76.518669 126 111 118
-4.765318 -5.924342 76.518669 131 117 122
-4.765318 -5.759393 76.518669 118 105 107
-4.765318 -5.594445 76.518669 122 111 110
-4.765318 -5.429496 76.518669 151 142 140
-4.765318 -5.264548 76.518669 143 136 133
-4.765318 -5.099599 76.518669 105 98 95
-4.765318 -4.934651 76.518669 133 127 123
-4.765318 -4.769702 76.518669 196 191 188
-4.765318 -4.604754 76.518669 172 165 164
-4.777631 -4.451278 76.716385 94 81 80
-4.777631 -4.285903 76.716385 77 58 56
-4.790009 -4.131204 76.915138 136 113 109
-4.790009 -3.965400 76.915138 205 182 176
-4.802450 -3.809466 77.114914 226 199 192
-4.802450 -3.643233 77.114914 192 151 144
-4.802450 -3.476999 77.114914 167 116 111
-4.802450 -3.310765 77.114914 181 126 125
-4.814957 -3.152720 77.315735 194 136 138
-4.814957 -2.986053 77.315735 194 133 140
-4.814957 -2.819387 77.315735 193 132 140
-4.814957 -2.652720 77.315735 193 133 143
-4.814957 -2.486053 77.315735 192 134 146
-4.827528 -2.325443 77.517601 189 133 146
-4.814957 -2.152720 77.315735 186 132 145
-4.814957 -1.986053 77.315735 184 132 145
-4.814957 -1.819387 77.315735 185 132 146
-4.814957 -1.652720 77.315735 187 133 147
-4.827528 -1.489933 77.517601 188 132 146
-4.814957 -1.319387 77.315735 189 130 144
-4.814957 -1.152720 77.315735 191 130 143
-4.814957 -0.986053 77.315735 194 130 142
-4.814957 -0.819387 77.315735 195 131 142
-4.814957 -0.652720 77.315735 197 132 142
-4.827528 -0.487323 77.517601 198 133 144
-4.827528 -0.320221 77.517601 201 136 148
-4.827528 -0.153119 77.517601 205 140 151
-4.840166 0.014020 77.720528 205 141 151
-4.827528 0.181085 77.517601 203 139 149
-4.827528 0.348187 77.517601 201 137 148
-4.827528 0.515288 77.517601 198 134 146
-4.840166 0.684177 77.720528 195 131 143
-4.852870 0.853951 77.924522 194 132 144
-4.852870 1.021930 77.924522 196 133 145
-4.852870 1.189909 77.924522 198 134 146
-4.827528 1.350798 77.517601 200 137 148
-4.827528 1.517899 77.517601 201 140 151
-4.814957 1.680613 77.315735 199 138 149
-4.814957 1.847280 77.315735 197 136 147
-4.814957 2.013947 77.315735 196 137 148
-4.814957 2.180613 77.315735 194 137 150
-4.814957 2.347280 77.315735 191 135 150
-4.814957 2.513947 77.315735 189 135 150
-4.814957 2.680613 77.315735 188 136 152
-4.827528 2.854714 77.517601 187 137 153
-4.840166 3.029726 77.720528 186 137 153
-4.840166 3.197266 77.720528 185 137 153
-4.852870 3.373636 77.924522 183 137 151
-4.852870 3.541615 77.924522 182 138 149
-4.852870 3.709594 77.924522 182 140 148
-4.852870 3.877573 77.924522 184 142 148
-4.840166 4.034962 77.720528 186 144 150
-4.840166 4.202501 77.720528 187 145 150
-4.827528 4.358631 77.517601 185 142 149
-4.827528 4.525733 77.517601 181 138 145
-4.840166 4.705119 77.720528 178 135 142
-4.840166 4.872658 77.720528 176 135 141
-4.840166 5.040197 77.720528 172 133 138
-4.840166 5.207737 77.720528 166 129 133
-4.827528 5.361241 77.517601 162 128 130
-4.814957 5.513947 77.315735 162 132 130
-4.814957 5.680613 77.315735 157 132 124
-4.814957 5.847280 77.315735 144 123 111
-4.827528 6.029649 77.517601 127 109 94
-4.827528 6.196751 77.517601 115 99 83
-4.827528 6.363853 77.517601 123 108 94
-4.814957 6.513947 77.315735 147 133 125
-4.814957 6.680613 77.315735 158 143 142
-4.814957 6.847280 77.315735 140 125 130
-4.814957 7.013947 77.315735 120 104 114
-4.814957 7.180613 77.315735 139 124 139
-4.814957 7.347280 77.315735 181 170 185
-4.814957 7.513947 77.315735 194 186 202
-4.814957 7.680613 77.315735 196 191 206
-4.814957 7.847280 77.315735 206 204 216
-4.840166 8.055904 77.720528 216 213 223
-4.865641 8.266725 78.129585 226 220 229
-4.878479 8.457402 78.335732 227 218 226
-4.852870 8.580985 77.924522 212 198 207
-4.840166 8.726062 77.720528 187 166 178
-4.840166 8.893600 77.720528 147 118 133
-4.840166 9.061140 77.720528 110 71 90
-4.840166 9.228680 77.720528 102 58 78
-4.840166 9.396218 77.720528 114 65 86
-4.840166 9.563758 77.720528 121 69 90
-4.840166 9.731297 77.720528 123 69 87
-4.010723 11.256737 64.401825 102 51 60
-4.002042 11.370899 64.262428 102 50 59
-3.993398 11.484569 64.123634 102 51 59
-4.036994 12.308637 64.823669 101 54 59
-4.019442 12.394251 64.541832 102 54 59
-3.993398 12.452171 64.123634 102 52 57
-3.993398 12.590401 64.123634 101 51 56
-4.396412 -10.863656 73.126213 171 113 134
-4.396412 -10.706021 73.126213 166 111 133
-4.429140 -10.626909 73.670578 160 109 132
-4.462358 -10.546612 74.223106 155 111 133
-4.484782 -10.438806 74.596085 152 114 138
-4.484782 -10.278002 74.596085 151 117 142
-4.484782 -10.117197 74.596085 143 113 138
-4.496079 -9.981472 74.783989 133 103 130
-4.496079 -9.820263 74.783989 135 108 133
-4.496079 -9.659054 74.783989 146 118 142
-4.507433 -9.521830 74.972832 144 110 137
-4.518844 -9.383910 75.162636 134 94 123
-4.518844 -9.221885 75.162636 134 90 119
-4.518844 -9.059859 75.162636 158 110 138
-4.518844 -8.897834 75.162636 204 163 186
-4.518844 -8.735809 75.162636 233 195 213
-4.530313 -8.595545 75.353409 205 155 175
-4.553427 -8.476134 75.737862 158 99 121
-4.576778 -8.355499 76.126259 152 96 118
-4.588543 -8.212454 76.321960 169 115 139
-4.600369 -8.068671 76.518669 171 121 145
-4.588543 -7.883405 76.321960 165 121 145
-4.588543 -7.718881 76.321960 161 120 142
-4.588543 -7.554356 76.321960 154 117 137
-4.588543 -7.389832 76.321960 143 110 128
-4.588543 -7.225307 76.321960 129 100 115
-4.600369 -7.078981 76.518669 133 107 121
-4.600369 -6.914032 76.518669 163 143 156
-4.600369 -6.749084 76.518669 191 176 187
-4.600369 -6.584136 76.518669 190 177 187
-4.600369 -6.419187 76.518669 164 152 161
-4.600369 -6.254239 76.518669 138 128 135
-4.600369 -6.089290 76.518669 129 119 125
-4.600369 -5.924342 76.518669 116 108 112
-4.600369 -5.759393 76.518669 95 89 89
-4.600369 -5.594445 76.518669 115 110 108
-4.600369 -5.429496 76.518669 173 170 167
-4.612257 -5.278151 76.716385 170 167 165
-4.612257 -5.112777 76.716385 105 103 100
-4.600369 -4.934651 76.518669 114 111 107
-4.612257 -4.782027 76.716385 187 183 180
-4.612257 -4.616652 76.716385 180 174 173
-4.612257 -4.451278 76.716385 105 91 92
-4.612257 -4.285903 76.716385 85 63 66
-4.624206 -4.131204 76.915138 145 119 120
-4.624206 -3.965400 76.915138 210 180 182
-4.636217 -3.809466 77.114914 223 188 189
-4.636217 -3.643233 77.114914 198 153 153
-4.636217 -3.476999 77.114914 181 128 129
-4.636217 -3.310765 77.114914 186 130 134
-4.636217 -3.144531 77.114914 194 135 142
-4.648290 -2.986053 77.315735 196 135 145
-4.648290 -2.819387 77.315735 195 134 145
-4.648290 -2.652720 77.315735 193 134 145
-4.648290 -2.486053 77.315735 191 133 145
-4.660427 -2.325443 77.517601 187 131 144
-4.648290 -2.152720 77.315735 185 130 143
-4.648290 -1.986053 77.315735 183 131 143
-4.648290 -1.819387 77.315735 185 132 145
-4.648290 -1.652720 77.315735 187 133 146
-4.648290 -1.486053 77.315735 187 132 145
-4.648290 -1.319387 77.315735 189 131 143
-4.648290 -1.152720 77.315735 191 131 142
-4.648290 -0.986053 77.315735 193 131 142
-4.648290 -0.819387 77.315735 194 132 143
-4.648290 -0.652720 77.315735 195 133 143
-4.660427 -0.487323 77.517601 196 133 145
-4.660427 -0.320221 77.517601 199 136 148
-4.660427 -0.153119 77.517601 203 140 152
-4.660427 0.013983 77.517601 204 141 152
-4.660427 0.181085 77.517601 202 140 150
-4.660427 0.348187 77.517601 199 138 148
-4.672626 0.516637 77.720528 197 135 146
-4.672626 0.684177 77.720528 194 132 144
-4.684891 0.853951 77.924522 193 133 144
-4.684891 1.021930 77.924522 195 135 147
-4.672626 1.186794 77.720528 195 135 147
-4.660427 1.350798 77.517601 197 138 149
-4.648290 1.513947 77.315735 200 141 152
-4.648290 1.680613 77.315735 196 137 148
-4.648290 1.847280 77.315735 192 134 144
-4.648290 2.013947 77.315735 193 136 147
-4.648290 2.180613 77.315735 193 137 149
-4.648290 2.347280 77.315735 190 135 149
-4.660427 2.520510 77.517601 187 135 150
-4.660427 2.687612 77.517601 187 136 151
-4.660427 2.854714 77.517601 186 136 152
-4.672626 3.029726 77.720528 184 135 151
-4.672626 3.197266 77.720528 182 134 150
-4.672626 3.364805 77.720528 181 135 150
-4.672626 3.532344 77.720528 179 135 148
-4.672626 3.699883 77.720528 179 137 148
-4.672626 3.867423 77.720528 180 138 149
-4.660427 4.024427 77.517601 182 140 150
-4.660427 4.191529 77.517601 180 139 149
-4.648290 4.347280 77.315735 178 137 146
-4.648290 4.513947 77.315735 176 133 142
-4.660427 4.692834 77.517601 172 130 138
-4.672626 4.872658 77.720528 168 128 135
-4.672626 5.040197 77.720528 163 125 129
-4.672626 5.207737 77.720528 155 121 123
-4.660427 5.361241 77.517601 151 121 120
-4.648290 5.513947 77.315735 150 124 118
-4.648290 5.680613 77.315735 137 117 106
-4.648290 5.847280 77.315735 118 102 87
-4.648290 6.013947 77.315735 104 92 74
-4.660427 6.196751 77.517601 97 86 68
-4.660427 6.363853 77.517601 114 104 89
-4.648290 6.513947 77.315735 165 155 146
-4.636217 6.663261 77.114914 203 194 191
-4.636217 6.829495 77.114914 185 173 176
-4.636217 6.995728 77.114914 133 118 125
-4.636217 7.161962 77.114914 131 114 125
-4.636217 7.328196 77.114914 173 158 171
-4.636217 7.494430 77.114914 185 171 186
-4.612257 7.621074 76.716385 177 165 181
-4.612257 7.786448 76.716385 175 164 181
-4.636217 7.993131 77.114914 171 158 175
-4.648290 8.180614 77.315735 174 158 175
-4.660427 8.369074 77.517601 174 153 171
-4.660427 8.536176 77.517601 160 133 152
-4.660427 8.703278 77.517601 144 112 131
-4.660427 8.870379 77.517601 129 90 110
-4.660427 9.037481 77.517601 116 72 92
-4.672626 9.228680 77.720528 113 65 85
-4.684891 9.420880 77.924522 117 65 85
-4.684891 9.588860 77.924522 119 65 84
-4.684891 9.756839 77.924522 119 65 82
-3.863514 11.232371 64.262428 101 51 60
-3.855169 11.346340 64.123634 101 51 59
-3.888766 12.281820 64.682442 101 54 60
-3.880312 12.394251 64.541832 102 54 59
-3.855169 12.452171 64.123634 102 53 58
-4.187210 -10.731495 72.236603 170 117 136
-4.187210 -10.575777 72.236603 164 115 136
-4.238777 -10.548386 73.126213 156 114 135
-4.270331 -10.468101 73.670578 151 117 137
-4.302359 -10.386611 74.223106 152 125 145
-4.313141 -10.252242 74.409126 154 133 152
-4.313141 -10.091841 74.409126 140 122 142
-4.323978 -9.956393 74.596085 125 108 127
-4.323978 -9.795589 74.596085 149 135 152
-4.323978 -9.634786 74.596085 194 179 194
-4.334870 -9.497845 74.783989 190 166 185
-4.345817 -9.360213 74.972832 146 111 135
-4.345817 -9.198597 74.972832 124 83 108
-4.345817 -9.036982 74.972832 144 95 122
-4.345817 -8.875365 74.972832 182 132 156
-4.345817 -8.713749 74.972832 210 157 180
-4.345817 -8.552133 74.972832 199 139 161
-4.356819 -8.411758 75.162636 169 105 127
-4.401390 -8.334129 75.931564 164 101 123
-4.412675 -8.191396 76.126259 174 113 136
-4.424019 -8.047930 76.321960 177 119 143
-4.424019 -7.883405 76.321960 175 120 144
-4.424019 -7.718881 76.321960 171 119 144
-4.424019 -7.554356 76.321960 166 119 141
-4.424019 -7.389832 76.321960 159 116 138
-4.424019 -7.225307 76.321960 149 111 131
-4.424019 -7.060783 76.321960 142 108 127
-4.435421 -6.914032 76.518669 143 115 133
-4.435421 -6.749084 76.518669 152 130 146
-4.435421 -6.584136 76.518669 157 140 153
-4.435421 -6.419187 76.518669 154 142 153
-4.435421 -6.254239 76.518669 143 137 145
-4.435421 -6.089290 76.518669 128 125 130
-4.435421 -5.924342 76.518669 105 102 105
-4.435421 -5.759393 76.518669 85 84 84
-4.435421 -5.594445 76.518669 122 122 120
-4.446882 -5.443526 76.716385 190 190 188
-4.446882 -5.278151 76.716385 181 181 179
-4.446882 -5.112777 76.716385 108 106 104
-4.446882 -4.947402 76.716385 111 108 105
-4.446882 -4.782027 76.716385 188 184 182
-4.446882 -4.616652 76.716385 198 190 190
-4.446882 -4.451278 76.716385 131 115 118
-4.458403 -4.297007 76.915138 101 76 82
-4.458403 -4.131204 76.915138 142 112 119
-4.458403 -3.965400 76.915138 190 155 162
-4.458403 -3.799597 76.915138 201 160 168
-4.469983 -3.643233 77.114914 192 145 152
-4.469983 -3.476999 77.114914 185 134 143
-4.469983 -3.310765 77.114914 188 133 144
-4.469983 -3.144531 77.114914 193 135 149
-4.469983 -2.978297 77.114914 196 136 151
-4.481623 -2.819387 77.315735 195 135 150
-4.481623 -2.652720 77.315735 192 135 148
-4.481623 -2.486053 77.315735 189 134 146
-4.493325 -2.325443 77.517601 185 132 145
-4.493325 -2.158341 77.517601 181 131 143
-4.493325 -1.991239 77.517601 180 131 143
-4.481623 -1.819387 77.315735 181 132 145
-4.481623 -1.652720 77.315735 186 135 148
-4.481623 -1.486053 77.315735 192 139 152
-4.481623 -1.319387 77.315735 194 139 151
-4.481623 -1.152720 77.315735 193 136 146
-4.481623 -0.986053 77.315735 192 134 144
-4.481623 -0.819387 77.315735 193 134 145
-4.481623 -0.652720 77.315735 193 134 145
-4.493325 -0.487323 77.517601 193 134 145
-4.493325 -0.320221 77.517601 195 135 146
-4.493325 -0.153119 77.517601 198 139 149
-4.505087 0.014020 77.720528 201 141 150
-4.505087 0.181559 77.720528 200 140 149
-4.505087 0.349098 77.720528 198 139 147
-4.505087 0.516637 77.720528 196 137 145
-4.505087 0.684177 77.720528 193 133 143
-4.516912 0.853951 77.924522 192 133 144
-4.516912 1.021930 77.924522 195 136 148
-4.505087 1.186794 77.720528 194 136 147
-4.493325 1.350798 77.517601 193 136 148
-4.481623 1.513947 77.315735 193 137 149
-4.481623 1.680613 77.315735 190 133 145
-4.481623 1.847280 77.315735 188 133 143
-4.481623 2.013947 77.315735 190 136 146
-4.481623 2.180613 77.315735 190 136 148
-4.493325 2.353409 77.517601 189 135 149
-4.493325 2.520510 77.517601 187 134 149
-4.493325 2.687612 77.517601 186 135 150
-4.505087 2.862187 77.720528 184 135 150
-4.505087 3.029726 77.720528 181 133 148
-4.505087 3.197266 77.720528 178 131 146
-4.505087 3.364805 77.720528 178 132 146
-4.505087 3.532344 77.720528 176 133 146
-4.505087 3.699883 77.720528 175 133 147
-4.493325 3.857325 77.517601 174 133 148
-4.493325 4.024427 77.517601 173 133 148
-4.493325 4.191529 77.517601 168 129 145
-4.481623 4.347280 77.315735 164 124 140
-4.481623 4.513947 77.315735 161 122 136
-4.493325 4.692834 77.517601 157 119 131
-4.493325 4.859936 77.517601 153 115 125
-4.505087 5.040197 77.720528 149 115 120
-4.505087 5.207737 77.720528 145 115 115
-4.493325 5.361241 77.517601 141 115 112
-4.481623 5.513947 77.315735 138 116 109
-4.481623 5.680613 77.315735 122 105 93
-4.481623 5.847280 77.315735 105 93 77
-4.481623 6.013947 77.315735 111 102 87
-4.493325 6.196751 77.517601 132 124 111
-4.493325 6.363853 77.517601 163 154 146
-4.481623 6.513947 77.315735 209 203 198
-4.469983 6.663261 77.114914 237 232 230
-4.458403 6.811802 76.915138 204 196 197
-4.458403 6.977605 76.915138 131 117 121
-4.458403 7.143408 76.915138 106 89 97
-4.458403 7.309211 76.915138 142 123 135
-4.446882 7.455699 76.716385 157 138 153
-4.446882 7.621074 76.716385 148 130 146
-4.412675 7.726552 76.126259 143 125 143
-4.401390 7.870474 75.931564 136 116 136
-4.378991 7.993271 75.545143 135 111 132
-4.469983 8.325599 77.114914 136 107 128
-4.481623 8.513947 77.315735 131 97 118
-4.481623 8.680614 77.315735 127 88 108
-4.481623 8.847280 77.315735 124 81 100
-4.493325 9.037481 77.517601 121 74 92
-4.505087 9.228680 77.720528 119 69 87
-4.516912 9.420880 77.924522 118 66 83
-4.516912 9.588860 77.924522 117 64 81
-4.528798 9.782515 78.129585 116 62 78
-3.716940 11.208111 64.123634 100 51 59
-3.716940 11.346340 64.123634 100 51 59
-3.716940 11.484569 64.123634 100 50 59
-3.749332 12.281820 64.682442 101 53 61
-3.741181 12.394251 64.541832 101 53 60
-4.011970 -10.679526 71.886787 169 119 135
-4.011970 -10.524563 71.886787 164 121 138
-4.031492 -10.420060 72.236603 157 121 139
-4.081141 -10.390750 73.126213 151 124 141
-4.111522 -10.309292 73.670578 152 134 149
-4.142358 -10.226611 74.223106 157 145 159
-4.152740 -10.091841 74.409126 147 138 152
-4.152740 -9.931440 74.409126 135 127 140
-4.163174 -9.795589 74.596085 168 162 172
-4.163174 -9.634786 74.596085 225 220 225
-4.173661 -9.497845 74.783989 231 219 227
-4.184200 -9.360213 74.972832 185 160 174
-4.184200 -9.198597 74.972832 144 106 127
-4.184200 -9.036982 74.972832 140 92 116
-4.184200 -8.875365 74.972832 159 104 129
-4.184200 -8.713749 74.972832 179 118 142
-4.184200 -8.552133 74.972832 180 116 140
-4.194793 -8.411758 75.162636 171 106 129
-4.205440 -8.270672 75.353409 171 107 129
-4.237707 -8.170446 75.931564 178 114 137
-4.248573 -8.027293 76.126259 181 120 142
-4.259494 -7.883405 76.321960 181 121 144
-4.259494 -7.718881 76.321960 178 121 144
-4.259494 -7.554356 76.321960 176 121 144
-4.259494 -7.389832 76.321960 171 120 143
-4.259494 -7.225307 76.321960 164 118 141
-4.259494 -7.060783 76.321960 156 116 137
-4.270473 -6.914032 76.518669 149 116 136
-4.270473 -6.749084 76.518669 146 121 139
-4.270473 -6.584136 76.518669 147 128 144
-4.270473 -6.419187 76.518669 146 136 148
-4.270473 -6.254239 76.518669 141 137 145
-4.270473 -6.089290 76.518669 126 126 131
-4.270473 -5.924342 76.518669 99 100 103
-4.270473 -5.759393 76.518669 89 91 91
-4.270473 -5.594445 76.518669 143 144 144
-4.281507 -5.443526 76.716385 208 209 207
-4.281507 -5.278151 76.716385 188 187 186
-4.281507 -5.112777 76.716385 111 108 107
-4.281507 -4.947402 76.716385 110 104 104
-4.281507 -4.782027 76.716385 186 179 179
-4.292599 -4.628613 76.915138 207 196 198
-4.292599 -4.462810 76.915138 154 136 139
-4.292599 -4.297007 76.915138 121 95 101
-4.292599 -4.131204 76.915138 144 113 121
-4.292599 -3.965400 76.915138 172 137 147
-4.292599 -3.799597 76.915138 178 139 149
-4.303749 -3.643233 77.114914 179 135 147
-4.303749 -3.476999 77.114914 182 136 150
-4.303749 -3.310765 77.114914 184 134 151
-4.303749 -3.144531 77.114914 187 133 151
-4.303749 -2.978297 77.114914 190 134 153
-4.314957 -2.819387 77.315735 191 135 152
-4.314957 -2.652720 77.315735 190 135 150
-4.314957 -2.486053 77.315735 187 135 148
-4.326223 -2.325443 77.517601 183 134 146
-4.326223 -2.158341 77.517601 179 132 144
-4.326223 -1.991239 77.517601 176 130 143
-4.326223 -1.824137 77.517601 176 130 144
-4.314957 -1.652720 77.315735 189 143 156
-4.314957 -1.486053 77.315735 205 159 171
-4.314957 -1.319387 77.315735 205 155 168
-4.314957 -1.152720 77.315735 195 141 153
-4.314957 -0.986053 77.315735 192 135 146
-4.314957 -0.819387 77.315735 193 135 147
-4.314957 -0.652720 77.315735 194 136 148
-4.314957 -0.486053 77.315735 193 135 147
-4.326223 -0.320221 77.517601 192 133 145
-4.337548 -0.153520 77.720528 194 136 146
-4.337548 0.014020 77.720528 198 139 147
-4.337548 0.181559 77.720528 198 140 148
-4.337548 0.349098 77.720528 199 141 148
-4.337548 0.516637 77.720528 198 141 148
-4.337548 0.684177 77.720528 193 136 144
-4.360377 0.856199 78.129585 189 133 142
-4.360377 1.024620 78.129585 191 135 146
-4.348933 1.189909 77.924522 190 135 146
-4.337548 1.354334 77.720528 188 134 145
-4.314957 1.513947 77.315735 187 134 145
-4.314957 1.680613 77.315735 185 132 143
-4.314957 1.847280 77.315735 184 132 142
-4.314957 2.013947 77.315735 187 135 146
-4.326223 2.186307 77.517601 187 135 146
-4.326223 2.353409 77.517601 184 134 146
-4.326223 2.520510 77.517601 182 132 146
-4.326223 2.687612 77.517601 180 131 146
-4.337548 2.862187 77.720528 178 131 147
-4.337548 3.029726 77.720528 176 130 145
-4.337548 3.197266 77.720528 174 129 144
-4.314957 3.347280 77.315735 172 128 143
-4.326223 3.523121 77.517601 169 127 142
-4.326223 3.690223 77.517601 166 126 143
-4.326223 3.857325 77.517601 163 124 145
-4.326223 4.024427 77.517601 158 120 143
-4.326223 4.191529 77.517601 150 113 138
-4.314957 4.347280 77.315735 143 107 133
-4.314957 4.513947 77.315735 141 105 129
-4.326223 4.692834 77.517601 138 102 122
-4.326223 4.859936 77.517601 136 102 115
-4.326223 5.027038 77.517601 142 112 118
-4.326223 5.194139 77.517601 148 122 121
-4.326223 5.361241 77.517601 146 125 118
-4.314957 5.513947 77.315735 146 130 118
-4.314957 5.680613 77.315735 129 116 101
-4.314957 5.847280 77.315735 108 99 81
-4.314957 6.013947 77.315735 140 133 119
-4.314957 6.180613 77.315735 198 193 183
-4.314957 6.347280 77.315735 229 223 218
-4.314957 6.513947 77.315735 244 239 236
-4.292599 6.645998 76.915138 245 241 240
-4.292599 6.811802 76.915138 204 194 195
-4.281507 6.959575 76.716385 127 110 113
-4.281507 7.124949 76.716385 89 69 76
-4.281507 7.290324 76.716385 114 89 102
-4.281507 7.455699 76.716385 133 106 123
-4.259494 7.581891 76.321960 133 106 123
-4.237707 7.706791 75.931564 131 104 123
-4.216141 7.830421 75.545143 129 100 119
-4.163174 7.892853 74.596085 129 96 116
-4.152740 8.033472 74.409126 129 92 113
-4.281507 8.447947 76.716385 128 86 106
-4.303749 8.658066 77.114914 126 81 100
-4.303749 8.824300 77.114914 124 76 93
-4.326223 9.037481 77.517601 122 72 88
-4.337548 9.228680 77.720528 119 69 83
-4.348933 9.420880 77.924522 117 65 80
-4.360377 9.614094 78.129585 115 63 77
-3.578711 11.208111 64.123634 99 51 59
-3.570999 11.321887 63.985435 99 50 59
-3.563319 11.435173 63.847832 99 50 59
-3.617780 12.168899 64.823669 102 53 61
-3.847689 -10.653730 71.713142 164 114 128
-3.838418 -10.473843 71.540344 164 121 136
-3.847689 -10.344552 71.713142 159 123 139
-3.894727 -10.314534 72.589836 153 126 141
-3.933193 -10.258382 73.306770 151 133 147
-3.982358 -10.226611 74.223106 154 142 154
-3.982358 -10.066611 74.223106 154 145 157
-3.992339 -9.931440 74.409126 156 149 160
-3.992339 -9.771039 74.409126 184 177 185
-4.002370 -9.634786 74.596085 225 220 223
-4.012452 -9.497845 74.783989 242 237 239
-4.022584 -9.360213 74.972832 225 208 216
-4.022584 -9.198597 74.972832 180 144 163
-4.022584 -9.036982 74.972832 142 91 116
-4.022584 -8.875365 74.972832 144 86 113
-4.022584 -8.713749 74.972832 165 101 129
-4.022584 -8.552133 74.972832 171 104 132
-4.032768 -8.411758 75.162636 171 104 130
-4.043004 -8.270672 75.353409 174 107 132
-4.074024 -8.170446 75.931564 177 112 136
-4.084470 -8.027293 76.126259 180 116 138
-4.094970 -7.883405 76.321960 180 119 139
-4.094970 -7.718881 76.321960 179 120 140
-4.094970 -7.554356 76.321960 178 121 142
-4.094970 -7.389832 76.321960 178 124 144
-4.094970 -7.225307 76.321960 175 125 145
-4.105524 -7.078981 76.518669 169 124 144
-4.105524 -6.914032 76.518669 162 124 143
-4.105524 -6.749084 76.518669 156 126 144
-4.105524 -6.584136 76.518669 151 130 146
-4.105524 -6.419187 76.518669 146 134 148
-4.116133 -6.270399 76.716385 140 134 145
-4.105524 -6.089290 76.518669 126 126 133
-4.116133 -5.939650 76.716385 100 101 107
-4.105524 -5.759393 76.518669 98 99 103
-4.116133 -5.608901 76.716385 161 161 163
-4.116133 -5.443526 76.716385 222 221 222
-4.116133 -5.278151 76.716385 195 192 193
-4.116133 -5.112777 76.716385 116 107 110
-4.116133 -4.947402 76.716385 101 88 92
-4.116133 -4.782027 76.716385 162 147 150
-4.126796 -4.628613 76.915138 191 174 178
-4.126796 -4.462810 76.915138 164 142 147
-4.126796 -4.297007 76.915138 143 117 123
-4.126796 -4.131204 76.915138 153 125 132
-4.137515 -3.975700 77.114914 163 133 142
-4.137515 -3.809466 77.114914 162 129 139
-4.137515 -3.643233 77.114914 177 142 154
-4.137515 -3.476999 77.114914 197 161 177
-4.137515 -3.310765 77.114914 193 153 171
-4.137515 -3.144531 77.114914 178 130 151
-4.137515 -2.978297 77.114914 177 125 146
-4.148290 -2.819387 77.315735 185 133 152
-4.148290 -2.652720 77.315735 188 136 153
-4.148290 -2.486053 77.315735 184 136 150
-4.159121 -2.325443 77.517601 181 136 148
-4.148290 -2.152720 77.315735 179 136 148
-4.148290 -1.986053 77.315735 174 132 145
-4.148290 -1.819387 77.315735 173 130 144
-4.148290 -1.652720 77.315735 192 151 165
-4.148290 -1.486053 77.315735 216 176 190
-4.148290 -1.319387 77.315735 212 168 181
-4.148290 -1.152720 77.315735 195 144 156
-4.148290 -0.986053 77.315735 189 134 147
-4.148290 -0.819387 77.315735 192 136 148
-4.148290 -0.652720 77.315735 195 139 151
-4.148290 -0.486053 77.315735 196 139 151
-4.159121 -0.320221 77.517601 192 135 146
-4.180954 -0.153923 77.924522 190 133 143
-4.180954 0.014056 77.924522 193 135 144
-4.180954 0.182035 77.924522 196 139 146
-4.170009 0.349098 77.720528 200 143 149
-4.180954 0.517993 77.924522 200 143 150
-4.180954 0.685972 77.924522 194 138 145
-4.191956 0.856199 78.129585 187 132 140
-4.191956 1.024620 78.129585 186 132 141
-4.191956 1.193041 78.129585 185 134 143
-4.170009 1.354334 77.720528 185 134 144
-4.170009 1.521873 77.720528 185 134 145
-4.148290 1.680613 77.315735 182 132 143
-4.148290 1.847280 77.315735 181 131 142
-4.148290 2.013947 77.315735 183 134 145
-4.148290 2.180613 77.315735 183 134 146
-4.148290 2.347280 77.315735 179 132 145
-4.148290 2.513947 77.315735 175 128 144
-4.148290 2.680613 77.315735 174 128 144
-4.159121 2.854714 77.517601 173 127 144
-4.148290 3.013947 77.315735 170 126 142
-4.148290 3.180613 77.315735 165 123 138
-4.148290 3.347280 77.315735 161 121 135
-4.148290 3.513947 77.315735 156 118 133
-4.148290 3.680613 77.315735 150 114 131
-4.148290 3.847280 77.315735 142 108 130
-4.148290 4.013947 77.315735 134 101 129
-4.148290 4.180613 77.315735 130 99 132
-4.148290 4.347280 77.315735 133 102 137
-4.148290 4.513947 77.315735 134 103 136
-4.148290 4.680613 77.315735 128 98 125
-4.159121 4.859936 77.517601 134 105 124
-4.159121 5.027038 77.517601 159 135 143
-4.159121 5.194139 77.517601 174 154 153
-4.148290 5.347280 77.315735 174 157 150
-4.148290 5.513947 77.315735 178 165 153
-4.148290 5.680613 77.315735 152 141 127
-4.148290 5.847280 77.315735 115 106 92
-4.148290 6.013947 77.315735 152 147 136
-4.148290 6.180613 77.315735 226 221 216
-4.148290 6.347280 77.315735 253 246 245
-4.148290 6.513947 77.315735 252 246 246
-4.126796 6.645998 76.915138 242 233 236
-4.116133 6.794200 76.716385 195 177 185
-4.105524 6.941638 76.518669 123 98 107
-4.105524 7.106586 76.518669 92 62 73
-4.116133 7.290324 76.716385 108 76 90
-4.116133 7.455699 76.716385 124 90 106
-4.094970 7.581891 76.321960 128 94 110
-4.084470 7.726552 76.126259 130 94 111
-4.053291 7.830421 75.545143 130 93 110
-4.002370 7.892853 74.596085 130 90 108
-3.962546 7.973521 73.853836 129 86 103
-3.962546 8.132725 73.853836 127 81 97
-4.137515 8.658066 77.114914 125 76 92
-4.148290 8.847280 77.315735 123 73 86
-4.159121 9.037481 77.517601 120 70 82
-4.191956 9.277251 78.129585 118 67 79
-4.214136 9.495649 78.542969 116 64 76
-3.433068 11.183956 63.985435 98 51 57
-3.425685 11.297539 63.847832 98 50 57
-3.418333 11.410634 63.710819 98 50 57
-3.418333 11.547973 63.710819 100 51 58
-3.433068 11.735680 63.985435 101 52 60
-3.684201 -10.628059 71.540344 157 106 117
-3.675345 -10.448665 71.368370 161 117 129
-3.684201 -10.319625 71.540344 160 122 136
-3.720057 -10.264342 72.236603 154 124 139
-3.775169 -10.258382 73.306770 149 126 140
-3.822358 -10.226611 74.223106 147 130 142
-3.822358 -10.066611 74.223106 147 134 145
-3.831938 -9.931440 74.409126 152 140 151
-3.841566 -9.795589 74.596085 165 152 162
-3.851243 -9.659054 74.783989 187 173 182
-3.860968 -9.521830 74.972832 208 194 203
-3.880567 -9.407727 75.353409 209 187 199
-3.880567 -9.245291 75.353409 175 135 154
-3.880567 -9.082854 75.353409 139 86 112
-3.880567 -8.920418 75.353409 145 86 115
-3.870743 -8.735809 75.162636 166 102 133
-3.870743 -8.573784 75.162636 172 106 136
-3.880567 -8.433108 75.353409 173 106 136
-3.890441 -8.291717 75.545143 174 107 135
-3.910341 -8.170446 75.931564 175 109 133
-3.920367 -8.027293 76.126259 175 110 133
-3.930446 -7.883405 76.321960 175 112 132
-3.930446 -7.718881 76.321960 175 113 132
-3.930446 -7.554356 76.321960 176 116 133
-3.930446 -7.389832 76.321960 179 122 138
-3.940576 -7.243929 76.518669 181 127 143
-3.940576 -7.078981 76.518669 177 127 144
-3.940576 -6.914032 76.518669 169 125 143
-3.940576 -6.749084 76.518669 161 125 142
-3.950758 -6.601149 76.716385 154 127 144
-3.950758 -6.435774 76.716385 149 131 146
-3.950758 -6.270399 76.716385 143 131 145
-3.940576 -6.089290 76.518669 132 126 138
-3.950758 -5.939650 76.716385 111 107 117
-3.950758 -5.774275 76.716385 105 102 109
-3.950758 -5.608901 76.716385 159 155 161
-3.950758 -5.443526 76.716385 220 217 220
-3.950758 -5.278151 76.716385 203 196 199
-3.950758 -5.112777 76.716385 127 113 119
-3.950758 -4.947402 76.716385 95 74 82
-3.950758 -4.782027 76.716385 132 109 115
-3.960993 -4.628613 76.915138 163 140 145
-3.960993 -4.462810 76.915138 162 138 143
-3.960993 -4.297007 76.915138 157 132 137
-3.960993 -4.131204 76.915138 158 135 139
-3.971282 -3.975700 77.114914 152 129 134
-3.971282 -3.809466 77.114914 144 120 127
-3.971282 -3.643233 77.114914 175 150 160
-3.971282 -3.476999 77.114914 218 195 207
-3.971282 -3.310765 77.114914 210 181 197
-3.971282 -3.144531 77.114914 170 130 151
-3.981623 -2.986053 77.315735 160 114 136
-3.981623 -2.819387 77.315735 178 130 150
-3.981623 -2.652720 77.315735 186 139 156
-3.981623 -2.486053 77.315735 184 138 152
-3.992019 -2.325443 77.517601 183 139 150
-3.981623 -2.152720 77.315735 182 140 151
-3.981623 -1.986053 77.315735 177 136 147
-3.981623 -1.819387 77.315735 173 132 144
-3.981623 -1.652720 77.315735 191 150 163
-3.981623 -1.486053 77.315735 213 172 186
-3.981623 -1.319387 77.315735 207 163 176
-3.981623 -1.152720 77.315735 192 142 155
-3.981623 -0.986053 77.315735 187 134 147
-3.981623 -0.819387 77.315735 190 135 147
-3.981623 -0.652720 77.315735 194 139 151
-3.981623 -0.486053 77.315735 198 142 153
-3.981623 -0.319387 77.315735 193 137 148
-4.012975 -0.153923 77.924522 187 131 141
-4.012975 0.014056 77.924522 187 131 140
-4.012975 0.182035 77.924522 192 135 143
-4.012975 0.350014 77.924522 198 141 148
-4.012975 0.517993 77.924522 198 142 149
-4.012975 0.685972 77.924522 192 137 144
-4.023535 0.856199 78.129585 184 131 139
-4.023535 1.024620 78.129585 181 129 138
-4.034152 1.196189 78.335732 181 130 139
-4.023535 1.361462 78.129585 182 132 142
-4.002470 1.521873 77.720528 182 132 143
-3.992019 1.685001 77.517601 178 131 142
-3.981623 1.847280 77.315735 176 129 141
-3.981623 2.013947 77.315735 177 131 143
-3.981623 2.180613 77.315735 176 130 144
-3.981623 2.347280 77.315735 171 127 141
-3.981623 2.513947 77.315735 165 122 139
-3.981623 2.680613 77.315735 164 122 139
-3.981623 2.847280 77.315735 162 121 137
-3.981623 3.013947 77.315735 157 119 133
-3.981623 3.180613 77.315735 150 114 126
-3.971282 3.338586 77.114914 145 112 122
-3.981623 3.513947 77.315735 138 108 118
-3.981623 3.680613 77.315735 128 100 114
-3.981623 3.847280 77.315735 118 93 114
-3.981623 4.013947 77.315735 117 95 122
-3.981623 4.180613 77.315735 132 111 144
-3.981623 4.347280 77.315735 155 136 168
-3.981623 4.513947 77.315735 154 134 165
-3.981623 4.680613 77.315735 136 114 144
-3.992019 4.859936 77.517601 151 129 152
-3.992019 5.027038 77.517601 193 175 186
-3.992019 5.194139 77.517601 207 193 192
-3.981623 5.347280 77.315735 205 191 184
-3.981623 5.513947 77.315735 208 197 185
-3.981623 5.680613 77.315735 167 158 145
-3.981623 5.847280 77.315735 115 105 94
-3.981623 6.013947 77.315735 147 138 132
-3.981623 6.180613 77.315735 218 208 208
-3.981623 6.347280 77.315735 240 228 231
-3.971282 6.497027 77.114914 235 220 227
-3.950758 6.628826 76.716385 219 199 210
-3.950758 6.794200 76.716385 170 140 157
-3.930446 6.923793 76.321960 115 79 97
-3.930446 7.088317 76.321960 101 61 79
-3.960993 7.309211 76.915138 113 73 90
-3.960993 7.475014 76.915138 122 82 97
-3.950758 7.621074 76.716385 126 85 99
-3.930446 7.746415 76.321960 127 86 99
-3.920367 7.890655 76.126259 127 85 98
-3.860968 7.932716 74.972832 128 83 96
-3.831938 8.033472 74.409126 127 80 92
-3.831938 8.193873 74.409126 125 76 87
-3.981623 8.680614 77.315735 123 72 82
-3.992019 8.870379 77.517601 121 69 79
-4.055552 9.181314 78.751305 119 66 76
-4.088084 9.426085 79.383003 117 64 74
-3.295136 11.183956 63.985435 98 51 57
-3.288050 11.297539 63.847832 98 51 56
-3.280994 11.410634 63.710819 99 51 57
-3.280994 11.547973 63.710819 100 52 58
-3.521498 -10.602510 71.368370 151 101 108
-3.521498 -10.448665 71.368370 155 110 120
-3.521498 -10.294819 71.368370 160 120 133
-3.547078 -10.214636 71.886787 156 122 137
-3.599370 -10.207972 72.946541 150 123 138
-3.644138 -10.175733 73.853836 145 124 138
