ply
format ascii 1.0
element vertex 1238
property float x
property float y
property float z
property uchar red
property uchar green
property uchar blue
end_header
-2.368411 -1.577594 61.414680 31 16 16
-2.368762 -1.445419 61.423786 31 16 15
-2.369179 -1.313241 61.434597 32 17 15
-2.369663 -1.181050 61.447159 32 17 15
-2.370216 -1.048835 61.461483 32 17 15
-2.370836 -0.916585 61.477573 32 18 15
-2.371524 -0.784287 61.495396 32 18 16
-2.372276 -0.651931 61.514889 32 18 17
-2.373089 -0.519503 61.535973 32 17 17
-2.373959 -0.386994 61.558540 31 17 17
-2.374882 -0.254394 61.582478 31 17 18
-2.375853 -0.121692 61.607658 32 18 18
-2.376867 0.011118 61.633942 32 18 19
-2.377918 0.144043 61.661198 32 18 19
-2.379001 0.277090 61.689289 32 18 19
-2.380112 0.410263 61.718082 31 19 18
-2.381245 0.543565 61.747467 30 19 18
-2.382396 0.676999 61.777325 31 19 17
-2.383562 0.810567 61.807552 31 19 17
-2.384737 0.944268 61.838036 32 19 18
-2.385920 1.078104 61.868687 33 20 18
-2.387104 1.212074 61.899395 33 20 18
-2.388286 1.346174 61.930046 33 19 17
-2.389461 1.480402 61.960506 33 19 17
-2.390622 1.614753 61.990635 32 19 17
-2.391765 1.749219 62.020256 32 18 17
-2.392880 1.883792 62.049175 31 18 17
-2.393959 2.018459 62.077160 31 19 17
-2.394993 2.153206 62.103966 31 19 18
-2.395970 2.288015 62.129311 32 19 19
-2.396880 2.422864 62.152897 33 19 19
-2.397710 2.557730 62.174412 33 19 19
-2.398447 2.692585 62.193535 34 19 19
-2.399080 2.827399 62.209957 34 19 18
-2.399598 2.962142 62.223370 34 19 19
-2.399988 3.096778 62.233501 33 19 19
-2.400244 3.231277 62.240120 33 19 20
-2.400356 3.365602 62.243027 32 20 20
-2.400320 3.499725 62.242100 33 20 21
-2.400134 3.633616 62.237270 34 20 21
-2.399798 3.767251 62.228554 35 20 20
-2.399315 3.900611 62.216042 36 19 19
-2.398693 4.033681 62.199913 36 18 18
-2.397941 4.166457 62.180408 37 18 19
-2.397072 4.298938 62.157875 38 19 20
-2.396101 4.431134 62.132702 40 20 23
-2.395046 4.563062 62.105354 43 21 25
-2.393927 4.694746 62.076340 46 23 28
-2.392765 4.826217 62.046204 50 25 30
-2.391581 4.957514 62.015499 54 27 32
-2.390397 5.088677 61.984787 57 29 33
-2.389233 5.219753 61.954620 59 31 34
-2.388110 5.350791 61.925495 60 33 34
-2.387045 5.481835 61.897881 60 33 34
-2.386054 5.612934 61.872169 61 34 35
-2.385148 5.744129 61.848690 61 34 35
-2.384338 5.875457 61.827682 61 34 36
-2.383629 6.006950 61.809296 61 34 36
-2.383024 6.138630 61.793594 61 35 37
-2.382521 6.270514 61.780563 62 35 38
-2.382117 6.402606 61.770092 63 36 38
-2.381806 6.534907 61.762009 64 36 39
-2.381577 6.667404 61.756073 65 36 39
-2.381420 6.800081 61.752003 65 35 38
-2.381322 6.932914 61.749481 64 36 38
-2.381272 7.065876 61.748180 64 36 39
-2.381257 7.198937 61.747772 64 37 40
-2.381263 7.332064 61.747932 65 37 40
-2.381280 7.465226 61.748386 65 37 40
-2.381299 7.598396 61.748886 65 37 40
-2.381313 7.731549 61.749229 64 36 39
-2.381315 7.864666 61.749275 63 35 38
-2.381301 7.997730 61.748920 63 34 38
-2.381270 8.130735 61.748131 65 34 39
-2.381223 8.263680 61.746906 67 35 40
-2.381161 8.396565 61.745289 69 36 40
-2.381086 8.529399 61.743340 69 37 40
-2.381001 8.662189 61.741150 69 37 40
-2.380910 8.794948 61.738800 70 37 40
-2.380817 8.927684 61.736370 71 38 40
-2.380723 9.060410 61.733932 71 38 39
-2.380630 9.193129 61.731525 71 38 38
-2.380539 9.325845 61.729164 71 38 39
-2.380449 9.458555 61.726841 71 38 39
-2.380359 9.591254 61.724503 71 37 39
-2.380266 9.723930 61.722084 70 37 39
-2.380167 9.856571 61.719509 69 37 39
-2.380058 9.989161 61.716682 68 37 39
-2.379935 10.121679 61.713505 68 36 39
-2.379796 10.254115 61.709904 68 35 39
-2.379639 10.386453 61.705818 67 34 38
-2.379461 10.518685 61.701221 67 34 37
-2.379265 10.650812 61.696117 67 34 37
-2.379050 10.782837 61.690563 68 34 36
-2.378822 10.914775 61.684650 68 34 36
-2.378586 11.046650 61.678532 69 34 36
-2.378349 11.178493 61.672379 70 34 36
-2.378119 11.310342 61.666405 71 35 37
-2.377905 11.442245 61.660854 73 35 38
-2.377717 11.574249 61.655979 74 36 39
-2.377564 11.706409 61.652027 74 36 39
-2.377457 11.838774 61.649239 75 37 39
-2.377402 11.971395 61.647827 74 37 40
-2.377408 12.104315 61.647972 75 38 41
-2.377478 12.237571 61.649803 75 40 43
-2.377617 12.371187 61.653393 76 41 44
-2.377824 12.505179 61.658760 77 43 45
-2.378097 12.639548 61.665848 77 43 45
-2.378433 12.774282 61.674553 77 43 45
-2.378824 12.909352 61.684689 76 43 44
-2.379261 13.044724 61.696037 74 42 43
-2.379735 13.180342 61.708317 73 41 41
-2.380232 13.316146 61.721207 73 41 42
-2.380740 13.452067 61.734383 74 42 43
-2.381246 13.588030 61.747490 75 43 45
-2.381735 13.723956 61.760178 76 44 46
-2.382195 13.859770 61.772121 77 44 46
-2.382615 13.995392 61.782990 77 44 46
-2.382982 14.130753 61.792515 78 44 46
-2.383288 14.265788 61.800449 76 43 45
-2.383525 14.400443 61.806602 74 42 44
-2.383688 14.534670 61.810825 72 41 43
-2.383773 14.668432 61.813015 71 40 42
-2.383776 14.801703 61.813107 69 40 41
-2.383698 14.934461 61.811077 67 39 41
-2.383538 15.066692 61.806923 65 38 40
-2.383296 15.198388 61.800663 63 37 39
-2.382975 15.329541 61.792328 60 36 37
-2.382574 15.460143 61.781933 59 34 36
-2.382094 15.590183 61.769489 57 33 35
-2.381535 15.719646 61.754986 55 32 34
-2.380895 15.848511 61.738400 53 30 32
-2.263463 -8.833714 62.168381 117 87 103
-2.262433 -8.695741 62.140083 117 87 102
-2.261376 -8.557789 62.111061 122 93 106
-2.260297 -8.419879 62.081425 141 111 122
-2.259200 -8.282030 62.051292 145 113 121
-2.258089 -8.144264 62.020790 123 91 96
-2.256970 -8.006597 61.990044 107 76 78
-2.255846 -7.869046 61.959171 98 69 69
-2.254722 -7.731629 61.928303 80 56 54
-2.253602 -7.594359 61.897545 65 45 42
-2.252491 -7.457248 61.867012 55 39 35
-2.251391 -7.320308 61.836807 43 31 26
-2.250307 -7.183548 61.807037 34 23 20
-2.249243 -7.046980 61.777813 30 21 18
-2.248202 -6.910609 61.749229 29 21 18
-2.247189 -6.774445 61.721409 29 21 18
-2.246208 -6.638494 61.694450 29 20 18
-2.245262 -6.502762 61.668476 29 20 19
-2.244356 -6.367255 61.643593 30 20 20
-2.243494 -6.231978 61.619919 29 19 19
-2.242680 -6.096934 61.597565 29 19 19
-2.241918 -5.962122 61.576622 29 18 19
-2.241210 -5.827543 61.557178 28 18 18
-2.240559 -5.693193 61.539303 28 17 17
-2.239967 -5.559066 61.523045 27 17 17
-2.239435 -5.425153 61.508419 26 17 17
-2.238962 -5.291444 61.495430 25 16 17
-2.238547 -5.157925 61.484039 24 16 17
-2.238188 -5.024581 61.474186 24 16 17
-2.237882 -4.891394 61.465782 24 15 16
-2.237625 -4.758348 61.458710 24 16 16
-2.237411 -4.625422 61.452847 26 17 17
-2.237236 -4.492599 61.448044 27 17 17
-2.237094 -4.359861 61.444141 28 17 16
-2.236980 -4.227191 61.440990 28 17 16
-2.236887 -4.094574 61.438431 28 17 16
-2.236809 -3.961998 61.436321 28 17 15
-2.236744 -3.829450 61.434532 28 17 16
-2.236687 -3.696923 61.432953 28 16 15
-2.236634 -3.564410 61.431499 28 15 15
-2.236584 -3.431907 61.430115 28 15 15
-2.236534 -3.299412 61.428761 29 16 15
-2.236486 -3.166924 61.427441 30 16 15
-2.236441 -3.034445 61.426186 30 16 16
-2.236399 -2.901977 61.425041 31 17 16
-2.236365 -2.769523 61.424099 31 17 16
-2.236341 -2.637085 61.423454 30 16 15
-2.236333 -2.504668 61.423237 29 17 16
-2.236346 -2.372274 61.423580 29 17 16
-2.236384 -2.239904 61.424641 30 17 17
-2.236454 -2.107559 61.426567 30 17 17
-2.236562 -1.975239 61.429516 30 17 17
-2.236712 -1.842942 61.433643 30 17 16
-2.236910 -1.710663 61.439091 31 17 16
-2.237162 -1.578398 61.445992 31 17 16
-2.237470 -1.446140 61.454449 32 17 15
-2.237838 -1.313881 61.464554 32 16 15
-2.238268 -1.181612 61.476376 32 17 15
-2.238762 -1.049321 61.489948 32 18 16
-2.239320 -0.916998 61.505280 32 18 16
-2.239942 -0.784631 61.522346 32 17 16
-2.240624 -0.652208 61.541100 32 17 17
-2.241366 -0.519718 61.561470 32 17 18
-2.242163 -0.387150 61.583363 32 17 18
-2.243012 -0.254494 61.606670 31 17 18
-2.243907 -0.121739 61.631264 32 18 19
-2.244845 0.011122 61.657021 32 18 18
-2.245820 0.144096 61.683807 32 18 18
-2.246828 0.277190 61.711487 31 18 18
-2.247864 0.410408 61.739944 30 19 17
-2.248924 0.543755 61.769051 30 19 17
-2.250003 0.677233 61.798702 30 19 17
-2.251099 0.810845 61.828789 30 19 17
-2.252207 0.944592 61.859219 31 19 18
-2.253323 1.078474 61.889885 32 19 18
-2.254445 1.212491 61.920692 32 19 18
-2.255567 1.346641 61.951523 32 18 17
-2.256686 1.480922 61.982262 32 18 17
-2.257797 1.615329 62.012760 32 18 17
-2.258893 1.749857 62.042850 32 19 17
-2.259967 1.884496 62.072350 32 19 18
-2.261011 2.019235 62.101028 32 19 18
-2.262016 2.154062 62.128643 32 19 18
-2.262973 2.288958 62.154919 32 20 19
-2.263870 2.423903 62.179558 32 19 19
-2.264696 2.558875 62.202251 32 19 19
-2.265440 2.693847 62.222683 32 19 19
-2.266090 2.828789 62.240536 32 19 18
-2.266635 2.963672 62.255512 32 19 19
-2.267065 3.098461 62.267323 32 19 19
-2.267371 3.233125 62.275730 32 20 20
-2.267547 3.367631 62.280544 32 20 21
-2.267586 3.501947 62.281620 33 20 21
-2.267487 3.636046 62.278893 33 20 20
-2.267249 3.769903 62.272362 34 19 20
-2.266876 3.903499 62.262108 35 18 19
-2.266372 4.036819 62.248291 35 18 18
-2.265749 4.169858 62.231163 36 17 19
-2.265016 4.302615 62.211033 37 18 20
-2.264188 4.435099 62.188290 38 19 21
-2.263281 4.567326 62.163383 40 20 23
-2.262313 4.699319 62.136810 43 21 25
-2.261304 4.831110 62.109097 47 23 27
-2.260274 4.962733 62.080791 50 25 29
-2.259242 5.094231 62.052441 54 28 31
-2.258227 5.225647 62.024570 57 30 32
-2.257248 5.357028 61.997688 59 32 33
-2.256322 5.488421 61.972244 59 33 34
-2.255462 5.619869 61.948624 60 34 35
-2.254680 5.751414 61.927139 60 34 36
-2.253984 5.883092 61.908028 61 35 36
-2.253380 6.014933 61.891438 61 34 37
-2.252870 6.146958 61.877426 62 34 37
-2.252452 6.279181 61.865967 62 35 38
-2.252124 6.411609 61.856949 64 35 39
-2.251878 6.544237 61.850193 65 36 39
-2.251706 6.677054 61.845459 65 36 39
-2.251596 6.810041 61.842453 65 36 39
-2.251538 6.943174 61.840858 65 36 38
-2.251520 7.076423 61.840343 64 36 38
-2.251528 7.209755 61.840565 65 36 39
-2.251551 7.343140 61.841209 65 37 39
-2.251579 7.476542 61.841980 66 37 39
-2.251603 7.609932 61.842632 66 36 40
-2.251615 7.743285 61.842960 65 35 39
-2.251610 7.876579 61.842812 64 34 38
-2.251583 8.009798 61.842094 64 33 37
-2.251535 8.142934 61.840767 65 34 38
-2.251464 8.275983 61.838833 67 34 38
-2.251373 8.408946 61.836327 69 35 39
-2.251264 8.541830 61.833328 69 36 40
-2.251140 8.674644 61.829929 69 37 40
-2.251005 8.807401 61.826221 70 37 40
-2.250863 8.940110 61.822300 71 38 39
-2.250715 9.072783 61.818241 71 38 39
-2.250564 9.205427 61.814110 72 38 39
-2.250412 9.338046 61.809929 72 38 39
-2.250258 9.470640 61.805710 71 37 39
-2.250103 9.603208 61.801426 71 37 39
-2.249943 9.735738 61.797028 70 37 40
-2.249776 9.868220 61.792454 69 38 40
-2.249600 10.000643 61.787624 68 38 39
-2.249412 10.132990 61.782467 68 37 39
-2.249210 10.265250 61.776920 67 35 39
-2.248993 10.397414 61.770939 67 34 38
-2.248759 10.529475 61.764507 66 34 37
-2.248509 10.661434 61.757648 66 33 36
-2.248245 10.793299 61.750420 67 33 35
-2.247972 10.925086 61.742920 67 33 35
-2.247695 11.056818 61.735306 69 34 36
-2.247420 11.188530 61.727753 70 34 36
-2.247155 11.320260 61.720478 72 35 37
-2.246910 11.452056 61.713726 74 36 39
-2.246691 11.583965 61.707737 75 37 39
-2.246511 11.716042 61.702763 75 37 40
-2.246375 11.848337 61.699036 75 38 40
-2.246292 11.980899 61.696770 74 38 40
-2.246269 12.113772 61.696136 74 39 41
-2.246310 12.246990 61.697258 74 39 42
-2.246417 12.380580 61.700203 75 41 43
-2.246591 12.514553 61.704979 76 42 44
-2.246830 12.648911 61.711529 77 42 44
-2.247129 12.783642 61.719742 77 42 44
-2.247481 12.918715 61.729427 76 42 43
-2.247879 13.054095 61.740364 75 42 42
-2.248313 13.189729 61.752266 74 41 41
-2.248769 13.325550 61.764797 74 41 42
-2.249236 13.461491 61.777630 75 43 43
-2.249702 13.597476 61.790421 76 44 45
-2.250152 13.733426 61.802795 78 45 46
-2.250576 13.869262 61.814426 78 45 46
-2.250961 14.004906 61.824989 79 45 47
-2.251296 14.140287 61.834209 79 44 47
-2.251574 14.275342 61.841835 78 43 46
-2.251786 14.410011 61.847668 76 43 46
-2.251928 14.544250 61.851562 74 42 44
-2.251995 14.678020 61.853413 73 41 43
-2.251986 14.811293 61.853153 71 41 42
-2.251899 14.944050 61.850761 69 40 41
-2.251734 15.076275 61.846233 67 39 40
-2.251492 15.207960 61.839584 64 38 39
-2.251174 15.339096 61.830845 62 36 38
-2.250780 15.469675 61.820023 60 35 38
-2.250310 15.599684 61.807129 58 34 36
-2.249765 15.729108 61.792156 56 33 35
-2.249143 15.857924 61.775066 55 31 33
-2.248441 15.986102 61.755795 53 29 31
-2.130642 -8.972755 62.203228 109 79 94
-2.129700 -8.834758 62.175720 111 81 97
-2.128730 -8.696764 62.147392 111 81 97
-2.127735 -8.558791 62.118332 120 91 106
-2.126717 -8.420857 62.088634 141 111 125
-2.125683 -8.282983 62.058426 142 111 123
-2.124634 -8.145187 62.027824 115 84 93
-2.123577 -8.007488 61.996952 97 68 73
-2.122515 -7.869906 61.965946 88 62 65
-2.121452 -7.732456 61.934925 73 51 51
-2.120394 -7.595153 61.904015 58 40 38
-2.119343 -7.458011 61.873344 49 34 31
-2.118304 -7.321043 61.843018 40 28 24
-2.117282 -7.184260 61.813164 34 23 20
-2.116279 -7.047673 61.783890 30 20 18
-2.115300 -6.911290 61.755318 29 20 18
-2.114349 -6.775120 61.727562 29 20 18
-2.113431 -6.639171 61.700748 29 20 18
-2.112549 -6.503449 61.674988 29 20 19
-2.111707 -6.367959 61.650410 29 19 19
-2.110909 -6.232708 61.627129 29 19 19
-2.110160 -6.097695 61.605251 29 19 19
-2.109462 -5.962923 61.584885 29 18 19
-2.108819 -5.828389 61.566105 28 18 19
-2.108233 -5.694089 61.548988 27 17 18
-2.107705 -5.560017 61.533573 27 17 17
-2.107235 -5.426163 61.519871 27 17 17
-2.106825 -5.292516 61.507885 26 17 18
-2.106471 -5.159060 61.497562 25 16 18
-2.106173 -5.025779 61.488846 25 16 17
-2.105926 -4.892655 61.481625 24 16 16
-2.105726 -4.759670 61.475792 25 16 16
-2.105568 -4.626803 61.471195 26 16 16
-2.105448 -4.494035 61.467682 27 16 16
-2.105359 -4.361346 61.465076 28 16 16
-2.105295 -4.228721 61.463219 28 16 16
-2.105251 -4.096141 61.461937 28 17 16
-2.105222 -3.963594 61.461071 28 16 15
-2.105201 -3.831068 61.460480 29 16 15
-2.105186 -3.698554 61.460045 29 16 15
-2.105173 -3.566044 61.459656 29 16 15
-2.105159 -3.433535 61.459251 28 15 14
-2.105143 -3.301024 61.458778 29 15 14
-2.105124 -3.168512 61.458233 29 15 15
-2.105103 -3.035999 61.457630 30 16 15
-2.105083 -2.903488 61.457020 30 17 15
-2.105064 -2.770983 61.456478 30 17 15
-2.105052 -2.638488 61.456108 30 16 15
-2.105049 -2.506006 61.456028 29 17 16
-2.105061 -2.373541 61.456383 28 17 16
-2.105093 -2.241096 61.457325 29 18 17
-2.105151 -2.108672 61.459015 30 17 16
-2.105240 -1.976271 61.461617 30 17 16
-2.105366 -1.843891 61.465294 30 17 16
-2.105534 -1.711529 61.470200 30 17 15
-2.105749 -1.579182 61.476482 31 16 15
-2.106016 -1.446842 61.484257 31 16 15
-2.106337 -1.314503 61.493629 31 16 15
-2.106715 -1.182156 61.504681 31 17 15
-2.107153 -1.049790 61.517456 31 17 16
-2.107650 -0.917396 61.531975 32 17 16
-2.108207 -0.784961 61.548233 32 17 17
-2.108822 -0.652474 61.566193 32 17 18
-2.109493 -0.519924 61.585793 32 17 18
-2.110218 -0.387299 61.606945 32 17 18
-2.110992 -0.254588 61.629555 32 17 19
-2.111813 -0.121783 61.653496 31 17 18
-2.112674 0.011126 61.678654 31 18 18
-2.113573 0.144146 61.704895 31 18 17
-2.114505 0.277283 61.732098 31 18 17
-2.115465 0.410543 61.760132 29 19 17
-2.116450 0.543930 61.788891 29 19 16
-2.117456 0.677448 61.818260 29 19 17
-2.118480 0.811099 61.848141 29 19 17
-2.119517 0.944885 61.878433 31 19 19
-2.120566 1.078808 61.909046 32 19 18
-2.121622 1.212867 61.939877 32 18 18
-2.122682 1.347061 61.970825 32 18 18
-2.123742 1.481388 62.001759 32 18 18
-2.124796 1.615845 62.032558 32 18 17
-2.125841 1.750426 62.063049 32 19 17
-2.126868 1.885124 62.093048 32 19 18
-2.127872 2.019928 62.122341 33 19 18
-2.128843 2.154826 62.150681 33 19 19
-2.129771 2.289800 62.177803 33 19 19
-2.130649 2.424833 62.203407 32 19 19
-2.131463 2.559901 62.227196 32 19 19
-2.132205 2.694979 62.248840 32 19 19
-2.132862 2.830039 62.268032 32 19 18
-2.133425 2.965050 62.284462 31 19 18
-2.133884 3.099981 62.297859 32 20 19
-2.134230 3.234799 62.307968 32 20 20
-2.134457 3.369472 62.314587 32 21 21
-2.134559 3.503969 62.317577 32 21 21
-2.134535 3.638263 62.316860 33 21 20
-2.134383 3.772329 62.312428 34 20 20
-2.134106 3.906147 62.304356 34 19 19
-2.133710 4.039705 62.292793 34 18 18
-2.133203 4.172994 62.277973 35 18 19
-2.132594 4.306015 62.260201 36 18 20
-2.131897 4.438776 62.239849 37 18 21
-2.131126 4.571291 62.217358 38 19 22
-2.130299 4.703584 62.193207 40 20 24
-2.129433 4.835684 62.167908 43 22 25
-2.128545 4.967626 62.142002 47 23 27
-2.127655 5.099451 62.116020 50 26 29
-2.126781 5.231200 62.090477 54 29 30
-2.125937 5.362919 62.065865 57 31 32
-2.125141 5.494654 62.042622 59 33 34
-2.124405 5.626447 62.021126 60 34 35
-2.123739 5.758337 62.001678 60 34 36
-2.123151 5.890360 61.984509 61 34 36
-2.122646 6.022545 61.969761 61 34 37
-2.122225 6.154911 61.957481 62 34 38
-2.121888 6.287471 61.947636 63 34 39
-2.121630 6.420229 61.940109 64 35 40
-2.121446 6.553182 61.934727 65 36 40
-2.121326 6.686314 61.931229 66 36 40
-2.121261 6.819608 61.929329 66 36 40
-2.121239 6.953036 61.928699 65 36 40
-2.121250 7.086569 61.929008 65 36 39
-2.121280 7.220171 61.929901 65 36 39
-2.121320 7.353809 61.931065 66 36 39
-2.121359 7.487449 61.932201 67 36 39
-2.121388 7.621058 61.933052 67 36 40
-2.121401 7.754611 61.933418 67 35 39
-2.121391 7.888083 61.933140 67 34 38
-2.121356 8.021459 61.932125 67 34 38
-2.121295 8.154727 61.930328 67 34 37
-2.121207 8.287884 61.927757 69 34 38
-2.121094 8.420930 61.924450 70 34 39
-2.120958 8.553871 61.920494 70 35 39
-2.120803 8.686717 61.915977 69 36 39
-2.120633 8.819480 61.911015 70 37 39
-2.120451 8.952171 61.905697 71 37 40
-2.120260 9.084802 61.900127 72 38 40
-2.120063 9.217380 61.894371 72 38 40
-2.119861 9.349914 61.888481 72 37 40
-2.119656 9.482404 61.882473 71 37 39
-2.119446 9.614849 61.876347 70 37 39
-2.119231 9.747243 61.870060 69 37 40
-2.119008 9.879579 61.863579 69 38 40
-2.118778 10.011846 61.856838 68 38 40
-2.118536 10.144032 61.849789 68 37 40
-2.118282 10.276127 61.842377 67 35 39
-2.118015 10.408125 61.834572 66 35 38
-2.117734 10.540022 61.826374 65 34 37
-2.117441 10.671821 61.817814 65 34 36
-2.117138 10.803532 61.808960 66 34 35
-2.116828 10.935172 61.799927 67 34 35
-2.116518 11.066768 61.790859 69 34 36
-2.116212 11.198354 61.781952 71 34 37
-2.115920 11.329968 61.773411 73 36 38
-2.115648 11.461659 61.765480 75 37 40
-2.115406 11.593477 61.758408 76 38 40
-2.115201 11.725473 61.752434 76 39 40
-2.115042 11.857699 61.747791 75 39 40
-2.114936 11.990204 61.744686 74 39 40
-2.114888 12.123030 61.743286 74 39 40
-2.114902 12.256210 61.743706 75 39 42
-2.114982 12.389773 61.746017 76 40 43
-2.115125 12.523727 61.750214 77 41 44
-2.115332 12.658077 61.756248 78 42 44
-2.115597 12.792805 61.763981 78 42 44
-2.115914 12.927884 61.773239 77 42 43
-2.116275 13.063276 61.783783 76 42 42
-2.116671 13.198926 61.795326 75 42 42
-2.117089 13.334769 61.807529 75 43 43
-2.117518 13.470737 61.820068 76 44 44
-2.117946 13.606753 61.832573 76 44 45
-2.118361 13.742735 61.844688 77 45 45
-2.118751 13.878605 61.856068 78 45 46
-2.119105 14.014285 61.866394 78 45 46
-2.119412 14.149701 61.875374 79 44 47
-2.119666 14.284789 61.882759 78 43 46
-2.119857 14.419493 61.888363 77 43 46
-2.119982 14.553762 61.892017 76 42 45
-2.120038 14.687561 61.893620 74 42 44
-2.120020 14.820860 61.893108 73 42 43
-2.119929 14.953638 61.890450 71 41 42
-2.119765 15.085883 61.885651 68 41 41
-2.119527 15.217583 61.878716 66 39 40
-2.119217 15.348727 61.869667 63 38 39
-2.118835 15.479310 61.858528 61 36 39
-2.118382 15.609315 61.845291 59 35 38
-2.117857 15.738727 61.829945 58 34 37
-2.117257 15.867518 61.812443 57 33 35
-2.116581 15.995660 61.792717 55 31 33
-1.996846 -8.974072 62.212353 108 78 93
-1.995963 -8.836053 62.184837 107 77 93
-1.995053 -8.698038 62.156498 108 79 95
-1.994120 -8.560041 62.127407 118 89 104
-1.993165 -8.422081 62.097660 131 102 116
-1.992193 -8.284176 62.067368 125 97 108
-1.991207 -8.146347 62.036655 103 75 84
-1.990211 -8.008612 62.005650 88 63 68
-1.989211 -7.870991 61.974483 79 56 59
-1.988210 -7.733500 61.943295 65 45 45
-1.987212 -7.596158 61.912209 52 35 34
-1.986222 -7.458977 61.881355 44 30 28
-1.985244 -7.321973 61.850868 38 26 24
-1.984281 -7.185157 61.820877 33 22 20
-1.983338 -7.048542 61.791504 30 20 18
-1.982419 -6.912136 61.762878 29 19 18
-1.981529 -6.775950 61.735126 29 19 18
-1.980670 -6.639993 61.708382 29 19 18
-1.979848 -6.504269 61.682766 30 18 19
-1.979066 -6.368786 61.658413 29 18 19
-1.978329 -6.233548 61.635433 29 18 19
-1.977639 -6.098556 61.613949 29 18 19
-1.977001 -5.963811 61.594059 29 18 19
-1.976416 -5.829311 61.575848 28 17 19
-1.975888 -5.695051 61.559387 27 17 18
-1.975417 -5.561024 61.544708 27 17 17
-1.975003 -5.427218 61.531834 27 17 17
-1.974647 -5.293622 61.520741 26 17 17
-1.974347 -5.160220 61.511395 26 17 18
-1.974101 -5.026994 61.503708 25 16 17
-1.973904 -4.893925 61.497581 25 16 16
-1.973753 -4.760993 61.492878 26 17 16
-1.973643 -4.628177 61.489452 26 17 16
-1.973569 -4.495457 61.487133 27 16 16
-1.973524 -4.362813 61.485741 27 16 16
-1.973503 -4.230226 61.485092 27 16 16
-1.973500 -4.097679 61.485004 27 16 16
-1.973510 -3.965158 61.485313 28 16 16
-1.973528 -3.832649 61.485855 29 16 16
-1.973548 -3.700145 61.486488 29 17 16
-1.973568 -3.567636 61.487106 29 16 15
-1.973584 -3.435120 61.487621 29 15 14
-1.973596 -3.302593 61.487980 29 15 14
-1.973602 -3.170055 61.488163 29 15 14
-1.973602 -3.037508 61.488174 30 16 15
-1.973598 -2.904954 61.488056 30 16 16
-1.973593 -2.772399 61.487885 30 16 15
-1.973589 -2.639846 61.487759 30 17 15
-1.973590 -2.507301 61.487793 29 17 16
-1.973601 -2.374767 61.488136 29 18 17
-1.973626 -2.242249 61.488937 29 17 16
-1.973673 -2.109748 61.490372 30 18 16
-1.973744 -1.977268 61.492611 30 18 16
-1.973847 -1.844807 61.495819 30 17 15
-1.973987 -1.712364 61.500168 31 17 15
-1.974168 -1.579935 61.505806 31 16 15
-1.974395 -1.447515 61.512875 31 16 15
-1.974671 -1.315098 61.521488 30 16 15
-1.975000 -1.182676 61.531734 31 16 15
-1.975384 -1.050238 61.543682 31 17 16
-1.975822 -0.917774 61.557354 32 17 17
-1.976317 -0.785274 61.572765 32 17 17
-1.976867 -0.652725 61.589886 32 17 18
-1.977470 -0.520117 61.608669 32 17 18
-1.978123 -0.387437 61.629036 32 17 18
-1.978825 -0.254676 61.650890 32 17 18
-1.979571 -0.121824 61.674126 31 17 18
-1.980357 0.011129 61.698627 31 17 17
-1.981180 0.144191 61.724270 31 18 17
-1.982036 0.277367 61.750935 30 18 16
-1.982921 0.410665 61.778500 29 18 16
-1.983831 0.544088 61.806850 28 18 16
-1.984763 0.677641 61.835884 28 18 16
-1.985713 0.811327 61.865501 28 18 17
-1.986679 0.945147 61.895607 30 18 18
-1.987659 1.079105 61.926109 31 18 18
-1.988647 1.213200 61.956917 32 18 18
-1.989642 1.347432 61.987915 32 17 18
-1.990640 1.481800 62.019005 32 17 18
-1.991637 1.616301 62.050045 32 18 17
-1.992626 1.750929 62.080879 32 18 17
-1.993603 1.885679 62.111320 33 18 17
-1.994561 2.020540 62.141163 33 19 18
-1.995492 2.155501 62.170166 34 19 19
-1.996387 2.290547 62.198063 34 19 19
-1.997238 2.425658 62.224564 33 19 19
-1.998034 2.560813 62.249359 32 19 19
-1.998765 2.695988 62.272137 31 19 18
-1.999421 2.831155 62.292580 31 20 17
-1.999993 2.966284 62.310383 31 20 18
-2.000470 3.101345 62.325264 32 20 19
-2.000846 3.236305 62.336971 32 21 20
-2.001114 3.371133 62.345306 32 21 21
-2.001268 3.505799 62.350113 32 21 21
-2.001307 3.640275 62.351315 32 21 20
-2.001229 3.774536 62.348892 33 21 20
-2.001037 3.908565 62.342915 33 20 19
-2.000736 4.042346 62.333527 34 19 18
-2.000332 4.175873 62.320942 34 19 18
-1.999835 4.309145 62.305466 35 19 19
-1.999256 4.442170 62.287449 36 19 20
-1.998611 4.574963 62.267330 37 19 21
-1.997912 4.707544 62.245564 38 20 22
-1.997177 4.839943 62.222660 41 20 23
-1.996422 4.972194 62.199142 44 21 25
-1.995664 5.104335 62.175522 48 24 27
-1.994919 5.236409 62.152309 52 27 28
-1.994202 5.368459 62.129974 54 29 31
-1.993527 5.500528 62.108952 56 31 33
-1.992906 5.632658 62.089600 58 33 34
-1.992348 5.764888 62.072216 59 33 35
-1.991861 5.897251 62.057022 60 33 36
-1.991447 6.029774 62.044144 61 33 37
-1.991109 6.162475 62.033627 62 33 38
-1.990846 6.295366 62.025425 63 33 39
-1.990654 6.428451 62.019432 64 34 39
-1.990526 6.561722 62.015446 65 35 40
-1.990454 6.695166 62.013218 66 35 40
-1.990430 6.828761 62.012451 66 35 40
-1.990442 6.962481 62.012817 66 36 40
-1.990479 7.096291 62.013973 66 36 40
-1.990530 7.230159 62.015572 66 36 39
-1.990585 7.364048 62.017288 66 35 39
-1.990634 7.497921 62.018822 68 36 39
-1.990669 7.631748 62.019917 70 36 40
-1.990684 7.765497 62.020363 70 36 40
-1.990672 7.899147 62.020004 69 35 39
-1.990632 8.032679 62.018749 69 34 38
-1.990561 8.166080 62.016544 70 34 38
-1.990461 8.299347 62.013409 70 35 38
-1.990331 8.432478 62.009377 71 35 39
-1.990176 8.565481 62.004539 70 34 39
-1.989998 8.698364 61.998989 70 35 39
-1.989801 8.831140 61.992859 70 35 39
-1.989589 8.963819 61.986240 71 36 40
-1.989364 9.096414 61.979252 72 38 41
-1.989131 9.228936 61.971973 72 38 41
-1.988890 9.361393 61.964466 70 36 40
-1.988642 9.493787 61.956764 69 35 39
-1.988390 9.626121 61.948887 68 36 39
-1.988130 9.758389 61.940807 68 37 40
-1.987864 9.890587 61.932510 69 39 41
-1.987589 10.022707 61.923946 68 39 41
-1.987304 10.154739 61.915077 68 38 41
-1.987009 10.286678 61.905876 67 37 40
-1.986702 10.418518 61.896317 66 36 39
-1.986385 10.550258 61.886417 66 36 38
-1.986057 10.681904 61.876221 66 35 38
-1.985723 10.813466 61.865799 67 35 38
-1.985385 10.944965 61.855274 68 35 38
-1.985049 11.076429 61.844803 71 36 39
-1.984720 11.207892 61.834576 73 36 40
-1.984407 11.339395 61.824806 76 37 41
-1.984116 11.470984 61.815731 77 38 41
-1.983855 11.602713 61.807602 78 39 41
-1.983632 11.734630 61.800655 78 40 41
-1.983454 11.866788 61.795120 77 40 41
-1.983328 11.999237 61.791203 75 40 41
-1.983260 12.132017 61.789062 75 40 41
-1.983252 12.265163 61.788811 76 39 41
-1.983306 12.398702 61.790512 77 40 42
-1.983423 12.532641 61.794163 78 41 43
-1.983601 12.666984 61.799702 79 42 43
-1.983835 12.801715 61.806999 80 42 44
-1.984120 12.936805 61.815865 79 43 44
-1.984447 13.072215 61.826057 79 43 43
-1.984808 13.207891 61.837296 78 44 44
-1.985191 13.343766 61.849228 78 45 45
-1.985585 13.479771 61.861523 78 46 46
-1.985980 13.615829 61.873814 77 45 45
-1.986363 13.751857 61.885738 77 45 45
-1.986722 13.887776 61.896946 77 45 45
-1.987049 14.023507 61.907108 77 44 45
-1.987332 14.158978 61.915939 78 43 45
-1.987565 14.294121 61.923187 78 43 46
-1.987740 14.428877 61.928642 78 43 46
-1.987852 14.563200 61.932156 78 44 45
-1.987899 14.697051 61.933613 76 44 44
-1.987878 14.830400 61.932949 74 43 43
-1.987788 14.963226 61.930130 72 43 43
-1.987628 15.095515 61.925159 70 42 42
-1.987400 15.227254 61.918041 67 41 41
-1.987103 15.358435 61.908794 65 39 40
-1.986738 15.489045 61.897430 62 38 40
-1.986305 15.619072 61.883945 61 36 38
-1.985804 15.748494 61.868317 59 35 37
-1.985232 15.877287 61.850494 58 34 36
-1.984587 16.005417 61.830410 56 33 34
-1.983866 16.132841 61.807957 54 31 33
-1.863065 -8.975650 62.223289 108 78 92
-1.862241 -8.837608 62.195782 104 74 89
-1.861392 -8.699568 62.167431 106 76 92
-1.860520 -8.561543 62.138309 116 85 101
-1.859628 -8.423552 62.108501 120 90 104
-1.858718 -8.285611 62.078117 107 79 90
-1.857795 -8.147742 62.047279 91 64 72
-1.856861 -8.009963 62.016109 81 57 61
-1.855923 -7.872295 61.984756 70 49 51
-1.854982 -7.734757 61.953358 57 39 39
-1.854045 -7.597365 61.922050 47 32 31
-1.853115 -7.460137 61.890980 40 27 26
-1.852196 -7.323087 61.860279 36 24 23
-1.851292 -7.186229 61.830097 32 21 20
-1.850408 -7.049575 61.800564 30 20 19
-1.849547 -6.913137 61.771824 29 19 18
-1.848714 -6.776925 61.744003 29 19 18
-1.847913 -6.640947 61.717251 29 19 18
-1.847148 -6.505211 61.691696 29 18 18
-1.846423 -6.369722 61.667477 29 17 18
-1.845741 -6.234486 61.644711 29 17 18
-1.845107 -6.099503 61.623520 29 17 18
-1.844523 -5.964775 61.604012 29 17 18
-1.843991 -5.830297 61.586266 28 17 18
-1.843515 -5.696065 61.570351 28 18 18
-1.843094 -5.562071 61.556305 27 17 17
-1.842730 -5.428304 61.544140 27 17 17
-1.842421 -5.294749 61.533836 27 17 17
-1.842167 -5.161390 61.525341 26 17 17
-1.841964 -5.028209 61.518574 25 16 16
-1.841810 -4.895186 61.513424 25 16 16
-1.841700 -4.762299 61.509750 26 17 16
-1.841630 -4.629527 61.507389 26 17 16
-1.841593 -4.496848 61.506165 26 17 16
-1.841584 -4.364242 61.505882 26 17 16
-1.841598 -4.231688 61.506348 26 17 16
-1.841629 -4.099169 61.507366 27 16 17
-1.841670 -3.966669 61.508755 28 16 17
-1.841718 -3.834176 61.510342 28 16 16
-1.841767 -3.701678 61.511971 29 16 16
-1.841813 -3.569169 61.513523 29 15 15
-1.841854 -3.436644 61.514900 29 15 14
-1.841888 -3.304099 61.516033 29 14 14
-1.841914 -3.171535 61.516888 29 15 14
-1.841931 -3.038954 61.517467 29 15 15
-1.841941 -2.906360 61.517803 29 16 15
-1.841946 -2.773756 61.517971 29 16 15
-1.841949 -2.641147 61.518055 29 16 15
-1.841953 -2.508540 61.518177 29 17 16
-1.841962 -2.375939 61.518486 29 18 17
-1.841981 -2.243350 61.519131 28 17 16
-1.842016 -2.110775 61.520294 29 18 16
-1.842072 -1.978218 61.522152 30 18 16
-1.842153 -1.845678 61.524879 30 17 16
-1.842266 -1.713157 61.528648 31 17 16
-1.842415 -1.580650 61.533634 31 17 16
-1.842605 -1.448153 61.539978 31 16 15
-1.842840 -1.315661 61.547813 30 16 15
-1.843122 -1.183166 61.557236 30 17 15
-1.843454 -1.050658 61.568325 30 17 16
-1.843837 -0.918129 61.581127 31 18 17
-1.844272 -0.785566 61.595661 31 18 18
-1.844759 -0.652959 61.611912 31 18 18
-1.845296 -0.520296 61.629841 31 17 18
-1.845881 -0.387565 61.649380 31 17 18
-1.846512 -0.254757 61.670441 31 17 18
-1.847185 -0.121861 61.692936 31 17 18
-1.847898 0.011133 61.716743 31 17 17
-1.848647 0.144232 61.741749 31 17 17
-1.849428 0.277443 61.767834 30 17 16
-1.850238 0.410774 61.794884 29 17 16
-1.851073 0.544228 61.822796 28 17 15
-1.851931 0.677812 61.851456 28 18 16
-1.852809 0.811527 61.880772 28 18 18
-1.853704 0.945377 61.910660 29 18 18
-1.854613 1.079365 61.941017 30 18 18
-1.855534 1.213491 61.971764 31 18 18
-1.856463 1.347756 62.002796 32 17 18
-1.857397 1.482158 62.033997 32 17 18
-1.858333 1.616696 62.065243 32 17 17
-1.859265 1.751366 62.096375 32 18 17
-1.860188 1.886162 62.127224 33 18 17
-1.861097 2.021074 62.157570 34 18 18
-1.861984 2.156091 62.187183 34 19 18
-1.862840 2.291200 62.215797 34 19 19
-1.863659 2.426381 62.243126 34 19 19
-1.864429 2.561615 62.268867 33 19 18
-1.865143 2.696878 62.292698 32 20 18
-1.865790 2.832142 62.314312 31 20 17
-1.866362 2.967380 62.333401 31 20 18
-1.866849 3.102560 62.349682 32 21 19
-1.867245 3.237651 62.362896 32 21 20
-1.867543 3.372622 62.372849 32 21 21
-1.867738 3.507444 62.379379 32 21 21
-1.867829 3.642089 62.382401 32 21 20
-1.867814 3.776535 62.381901 33 20 19
-1.867695 3.910760 62.377926 33 20 19
-1.867476 4.044752 62.370617 34 20 19
-1.867164 4.178503 62.360191 35 20 19
-1.866767 4.312014 62.346931 35 20 19
-1.866295 4.445290 62.331188 36 20 20
-1.865762 4.578346 62.313374 37 19 20
-1.865180 4.711204 62.293949 39 19 21
-1.864565 4.843890 62.273399 40 19 22
-1.863931 4.976438 62.252232 43 20 23
-1.863294 5.108886 62.230957 46 22 25
-1.862668 5.241274 62.210052 49 24 26
-1.862068 5.373645 62.189991 51 27 28
-1.861505 5.506040 62.171192 54 29 30
-1.860990 5.638500 62.153992 56 31 32
-1.860532 5.771062 62.138687 57 32 34
-1.860136 5.903757 62.125477 59 32 35
-1.859807 6.036610 62.114491 61 32 36
-1.859545 6.169640 62.105751 62 33 38
-1.859350 6.302857 62.099224 62 33 38
-1.859217 6.436260 62.094776 63 32 38
-1.859140 6.569845 62.092209 64 33 38
-1.859112 6.703593 62.091270 65 34 39
-1.859123 6.837483 62.091660 66 35 39
-1.859165 6.971487 62.093040 66 35 40
-1.859226 7.105571 62.095066 66 36 40
-1.859295 7.239698 62.097393 67 36 40
-1.859364 7.373831 62.099686 67 35 40
-1.859423 7.507935 62.101646 69 36 41
-1.859464 7.641973 62.103016 72 38 42
-1.859480 7.775917 62.103577 73 37 42
-1.859468 7.909740 62.103184 72 36 40
-1.859425 8.043426 62.101727 72 36 38
-1.859348 8.176959 62.099171 73 36 38
-1.859239 8.310336 62.095520 73 36 39
-1.859099 8.443555 62.090832 72 35 40
-1.858930 8.576622 62.085182 71 35 40
-1.858735 8.709545 62.078682 70 34 39
-1.858519 8.842337 62.071461 70 34 39
-1.858284 8.975009 62.063629 71 36 41
-1.858035 9.107576 62.055309 74 39 44
-1.857774 9.240048 62.046589 73 39 43
-1.857504 9.372436 62.037556 70 36 40
-1.857225 9.504743 62.028259 67 33 37
-1.856939 9.636971 62.018711 66 34 38
-1.856646 9.769121 62.008930 68 37 40
-1.856346 9.901189 61.998894 69 39 42
-1.856037 10.033170 61.988590 69 39 42
-1.855720 10.165055 61.977978 69 39 42
-1.855392 10.296844 61.967049 68 38 41
-1.855056 10.428532 61.955807 67 37 40
-1.854710 10.560120 61.944267 67 36 40
-1.854358 10.691617 61.932484 67 35 39
-1.854000 10.823036 61.920547 68 36 39
-1.853642 10.954398 61.908581 71 37 40
-1.853288 11.085733 61.896751 74 38 41
-1.852943 11.217076 61.885246 77 39 42
-1.852615 11.348470 61.874283 79 39 43
-1.852310 11.479960 61.864101 80 39 43
-1.852036 11.611600 61.854946 80 40 43
-1.851800 11.743442 61.847065 80 40 43
-1.851609 11.875536 61.840675 78 40 43
-1.851468 12.007932 61.835979 77 40 43
-1.851383 12.140670 61.833130 76 40 42
-1.851356 12.273786 61.832245 77 40 42
-1.851390 12.407303 61.833382 78 40 43
-1.851484 12.541233 61.836529 79 41 43
-1.851637 12.675576 61.841621 81 42 44
-1.851844 12.810318 61.848534 81 43 44
-1.852099 12.945428 61.857067 81 43 45
-1.852396 13.080867 61.866982 81 44 45
-1.852726 13.216579 61.877975 80 45 45
-1.853077 13.352500 61.889713 80 47 47
-1.853440 13.488558 61.901848 79 48 47
-1.853804 13.624674 61.914013 77 47 46
-1.854158 13.760766 61.925831 76 46 46
-1.854492 13.896754 61.936958 76 45 45
-1.854794 14.032558 61.947063 75 42 43
-1.855057 14.168104 61.955845 75 41 43
-1.855273 14.303324 61.963055 78 43 45
-1.855435 14.438159 61.968479 81 47 48
-1.855539 14.572559 61.971958 82 49 49
-1.855582 14.706488 61.973377 79 47 47
-1.855561 14.839912 61.972672 76 45 46
-1.855475 14.972812 61.969807 74 44 44
-1.855324 15.105169 61.964764 71 43 43
-1.855108 15.236974 61.957565 68 42 42
-1.854829 15.368215 61.948215 66 40 42
-1.854484 15.498878 61.936722 64 38 41
-1.854076 15.628950 61.923084 62 37 39
-1.853602 15.758408 61.907261 60 36 38
-1.853062 15.887224 61.889206 59 35 36
-1.852452 16.015362 61.868828 57 33 34
-1.851769 16.142778 61.846024 55 32 33
-1.730028 -9.115555 62.262718 117 87 99
-1.729288 -8.977497 62.236095 108 78 92
-1.728524 -8.839429 62.208591 101 71 86
-1.727736 -8.701359 62.180225 107 75 91
-1.726925 -8.563300 62.151062 116 84 100
-1.726095 -8.425270 62.121174 115 84 98
-1.725247 -8.287287 62.090672 101 73 83
-1.724386 -8.149369 62.059669 87 62 68
-1.723515 -8.011539 62.028313 76 53 56
-1.722637 -7.873816 61.996735 63 44 44
-1.721758 -7.736220 61.965080 51 35 33
-1.720881 -7.598771 61.933510 42 29 28
-1.720010 -7.461485 61.902164 37 25 25
-1.719149 -7.324379 61.871197 34 22 22
-1.718303 -7.187468 61.840763 31 20 20
-1.717476 -7.050766 61.811001 29 19 19
-1.716673 -6.914284 61.782070 28 18 18
-1.715896 -6.778034 61.754112 28 19 18
-1.715150 -6.642025 61.727272 28 18 18
-1.714439 -6.506264 61.701691 28 17 17
-1.713767 -6.370759 61.677513 28 17 18
-1.713138 -6.235513 61.654869 28 17 18
-1.712555 -6.100528 61.633873 28 17 18
-1.712020 -5.965803 61.614635 29 17 18
-1.711537 -5.831337 61.597248 28 17 18
-1.711107 -5.697122 61.581768 28 17 17
-1.710731 -5.563149 61.568237 27 17 17
-1.710410 -5.429409 61.556667 27 17 16
-1.710142 -5.295884 61.547028 27 17 16
-1.709926 -5.162559 61.539272 26 17 16
-1.709761 -5.029413 61.533310 26 16 16
-1.709641 -4.896427 61.529018 26 16 16
-1.709564 -4.763577 61.526249 26 17 17
-1.709525 -4.630840 61.524834 26 17 17
-1.709518 -4.498195 61.524586 26 17 17
-1.709538 -4.365620 61.525299 26 17 17
-1.709579 -4.233093 61.526768 26 17 17
-1.709635 -4.100597 61.528793 27 17 17
-1.709701 -3.968114 61.531162 27 16 18
-1.709772 -3.835632 61.533703 28 16 18
-1.709842 -3.703139 61.536247 28 15 17
-1.709909 -3.570627 61.538651 28 15 16
-1.709969 -3.438092 61.540810 28 15 15
-1.710020 -3.305529 61.542648 27 14 14
-1.710061 -3.172940 61.544121 27 15 15
-1.710091 -3.040325 61.545219 28 15 15
-1.710112 -2.907690 61.545967 28 16 16
-1.710125 -2.775038 61.546421 28 16 16
-1.710132 -2.642376 61.546688 28 16 16
-1.710137 -2.509710 61.546871 28 17 17
-1.710144 -2.377045 61.547115 28 17 17
-1.710157 -2.244387 61.547588 28 17 17
-1.710182 -2.111742 61.548462 29 17 17
-1.710222 -1.979111 61.549923 30 17 16
-1.710284 -1.846497 61.552155 30 17 16
-1.710373 -1.713900 61.555340 30 17 16
-1.710493 -1.581318 61.559658 30 17 16
-1.710648 -1.448748 61.565266 30 17 16
-1.710844 -1.316185 61.572304 30 16 15
-1.711083 -1.183621 61.580887 30 17 16
-1.711367 -1.051047 61.591106 30 17 16
-1.711697 -0.918455 61.603016 30 18 17
-1.712076 -0.785834 61.616653 30 18 17
-1.712503 -0.653172 61.632015 31 18 17
-1.712977 -0.520458 61.649063 31 17 17
-1.713496 -0.387681 61.667751 30 17 17
-1.714059 -0.254830 61.688000 30 17 18
-1.714662 -0.121894 61.709721 31 17 18
-1.715304 0.011136 61.732807 31 17 17
-1.715980 0.144268 61.757153 30 17 17
-1.716688 0.277510 61.782639 30 17 17
-1.717425 0.410868 61.809155 29 17 16
-1.718188 0.544350 61.836597 28 18 16
-1.718973 0.677958 61.864868 28 18 16
-1.719779 0.811699 61.893871 28 18 17
-1.720603 0.945574 61.923515 29 18 17
-1.721442 1.079586 61.953720 29 18 18
-1.722294 1.213738 61.984390 30 18 18
-1.723157 1.348030 62.015430 31 18 18
-1.724026 1.482462 62.046730 31 17 17
-1.724900 1.617033 62.078163 31 17 17
-1.725773 1.751739 62.109577 32 17 17
-1.726640 1.886574 62.140800 33 17 17
-1.727497 2.021531 62.171619 33 18 18
-1.728335 2.156598 62.201805 34 18 18
-1.729149 2.291763 62.231094 34 19 18
-1.729930 2.427008 62.259205 34 19 18
-1.730670 2.562313 62.285828 33 19 18
-1.731360 2.697655 62.310658 32 20 17
-1.731991 2.833008 62.333370 31 20 17
-1.732555 2.968344 62.353664 32 20 18
-1.733044 3.103633 62.371258 32 21 19
-1.733451 3.238845 62.385895 32 21 20
-1.733769 3.373948 62.397373 33 22 22
-1.733996 3.508914 62.405525 33 21 21
-1.734128 3.643717 62.410275 33 22 20
-1.734164 3.778332 62.411591 33 21 20
-1.734107 3.912741 62.409527 34 21 20
-1.733959 4.046930 62.404209 34 20 20
-1.733727 4.180892 62.395847 35 20 20
-1.733418 4.314627 62.384720 36 21 20
-1.733041 4.448141 62.371170 37 20 20
-1.732609 4.581448 62.355598 38 20 20
-1.732132 4.714569 62.338448 39 19 21
-1.731625 4.847529 62.320190 40 19 21
-1.731101 4.980363 62.301331 41 20 22
-1.730574 5.113106 62.282356 44 21 22
-1.730056 5.245797 62.263737 46 22 23
-1.729561 5.378478 62.245930 48 24 24
-1.729100 5.511189 62.229332 50 26 26
-1.728682 5.643970 62.214279 52 28 29
-1.728314 5.776853 62.201046 55 29 31
-1.728002 5.909872 62.189827 58 31 33
-1.727750 6.043048 62.180733 60 32 35
-1.727557 6.176399 62.173786 62 32 37
-1.727422 6.309931 62.168930 62 32 38
-1.727342 6.443647 62.166042 63 32 38
-1.727310 6.577537 62.164909 64 32 38
-1.727320 6.711582 62.165272 66 33 38
-1.727363 6.845761 62.166824 67 34 39
-1.727430 6.980042 62.169231 67 35 39
-1.727511 7.114391 62.172150 67 36 40
-1.727597 7.248771 62.175217 68 36 40
-1.727677 7.383143 62.178104 68 35 41
-1.727744 7.517469 62.180508 70 36 42
-1.727790 7.651714 62.182175 73 38 43
-1.727810 7.785846 62.182880 74 38 42
-1.727798 7.919840 62.182480 74 37 41
-1.727754 8.053676 62.180866 74 37 41
-1.727674 8.187340 62.178001 74 36 41
-1.727560 8.320825 62.173897 74 36 41
-1.727413 8.454130 62.168594 73 36 41
-1.727235 8.587261 62.162201 72 35 40
-1.727030 8.720226 62.154819 71 34 39
-1.726801 8.853037 62.146576 70 34 39
-1.726551 8.985706 62.137604 72 36 41
-1.726285 9.118249 62.128029 75 39 44
-1.726006 9.250677 62.117962 74 39 43
-1.725714 9.382998 62.107479 70 35 40
-1.725414 9.515224 62.096657 68 33 37
-1.725105 9.647354 62.085533 67 34 38
-1.724787 9.779391 62.074120 68 36 39
-1.724463 9.911335 62.062428 69 38 41
-1.724130 10.043181 62.050446 69 39 42
-1.723788 10.174927 62.038162 69 39 42
-1.723439 10.306569 62.025581 69 39 42
-1.723081 10.438108 62.012707 69 37 41
-1.722716 10.569550 61.999584 68 36 40
-1.722347 10.700903 61.986275 68 35 39
-1.721974 10.832182 61.972874 70 35 40
-1.721603 10.963409 61.959507 73 37 41
-1.721238 11.094618 61.946358 77 39 43
-1.720883 11.225843 61.933613 80 40 45
-1.720547 11.357130 61.921497 83 42 46
-1.720234 11.488523 61.910248 83 41 45
-1.719953 11.620079 61.900112 82 40 44
-1.719709 11.751847 61.891331 81 40 44
-1.719508 11.883880 61.884121 80 41 44
-1.719357 12.016226 61.878689 79 40 43
-1.719260 12.148928 61.875183 78 40 43
-1.719219 12.282018 61.873718 78 40 43
-1.719236 12.415522 61.874340 79 41 44
-1.719312 12.549451 61.877045 81 41 44
-1.719443 12.683805 61.881763 82 42 45
-1.719626 12.818567 61.888363 83 44 46
-1.719856 12.953710 61.896641 83 44 46
-1.720126 13.089191 61.906353 82 44 45
-1.720427 13.224957 61.917198 81 46 46
-1.720751 13.360941 61.928837 80 47 47
-1.721086 13.497069 61.940910 79 48 47
-1.721423 13.633265 61.953049 78 48 47
-1.721752 13.769444 61.964882 76 46 46
-1.722062 13.905524 61.976048 74 44 44
-1.722345 14.041426 61.986206 73 42 42
-1.722591 14.177071 61.995060 73 41 42
-1.722793 14.312394 62.002350 78 46 46
-1.722946 14.447333 62.007858 87 54 54
-1.723045 14.581840 62.011417 88 57 57
-1.723087 14.715872 62.012920 82 51 51
-1.723069 14.849398 62.012283 77 47 47
-1.722991 14.982396 62.009476 75 45 45
-1.722852 15.114850 62.004478 72 44 44
-1.722653 15.246744 61.997295 70 43 43
-1.722393 15.378069 61.987942 67 41 43
-1.722073 15.508810 61.976414 65 39 42
-1.721692 15.638949 61.962704 63 38 40
-1.721249 15.768464 61.946770 61 37 38
-1.720743 15.897325 61.928555 59 35 36
-1.720170 16.025490 61.907959 58 33 34
-1.719529 16.152916 61.884872 55 32 32
-1.596187 -9.117708 62.277428 125 97 107
-1.595505 -8.979620 62.250816 109 80 93
-1.594800 -8.841520 62.223309 102 72 87
-1.594073 -8.703414 62.194916 110 79 94
-1.593323 -8.565315 62.165684 117 85 100
-1.592555 -8.427239 62.135696 115 84 96
-1.591769 -8.289205 62.105042 107 79 87
-1.590970 -8.151232 62.073853 94 69 73
-1.590160 -8.013340 62.042255 74 54 54
-1.589344 -7.875553 62.010406 56 40 38
-1.588525 -7.737890 61.978455 45 32 30
-1.587707 -7.600372 61.946560 38 26 25
-1.586895 -7.463018 61.914886 34 23 23
-1.586093 -7.325846 61.883591 31 21 21
-1.585305 -7.188872 61.852840 29 19 20
-1.584535 -7.052110 61.822784 28 18 19
-1.583786 -6.915574 61.793591 27 18 18
-1.583064 -6.779274 61.765415 27 17 18
-1.582372 -6.643223 61.738403 27 17 18
-1.581714 -6.507427 61.712711 27 17 18
-1.581093 -6.371892 61.688484 27 16 17
-1.580513 -6.236625 61.665859 27 16 17
-1.579977 -6.101625 61.644958 27 17 18
-1.579488 -5.966893 61.625893 27 17 18
-1.579049 -5.832426 61.608749 27 17 17
-1.578660 -5.698215 61.593586 27 17 16
-1.578324 -5.564254 61.580456 27 17 16
-1.578039 -5.430528 61.569351 27 17 16
-1.577806 -5.297022 61.560261 27 17 16
-1.577623 -5.163720 61.553112 27 17 16
-1.577487 -5.030599 61.547821 26 17 16
-1.577396 -4.897639 61.544254 27 17 16
-1.577345 -4.764816 61.542263 27 17 17
-1.577330 -4.632107 61.541668 27 18 17
-1.577345 -4.499488 61.542274 27 18 17
-1.577386 -4.366937 61.543865 26 18 17
-1.577446 -4.234431 61.546219 26 18 17
-1.577521 -4.101952 61.549129 26 17 17
-1.577604 -3.969482 61.552376 26 16 18
-1.577691 -3.837008 61.555767 27 16 18
-1.577777 -3.704516 61.559120 27 15 17
-1.577858 -3.571999 61.562294 27 15 17
-1.577932 -3.439451 61.565151 27 15 16
-1.577995 -3.306870 61.567619 27 15 16
-1.578047 -3.174255 61.569637 26 15 16
-1.578086 -3.041608 61.571186 27 15 16
-1.578115 -2.908933 61.572285 27 16 17
-1.578133 -2.776236 61.572994 28 16 17
-1.578143 -2.643523 61.573395 27 16 17
-1.578148 -2.510800 61.573605 27 16 17
-1.578152 -2.378074 61.573765 28 16 17
-1.578159 -2.245352 61.574036 28 17 17
-1.578174 -2.112638 61.574604 28 17 17
-1.578201 -1.979938 61.575653 29 17 16
-1.578245 -1.847253 61.577377 30 17 16
-1.578311 -1.714585 61.579964 30 17 15
-1.578405 -1.581933 61.583607 30 16 15
-1.578529 -1.449294 61.588467 30 16 15
-1.578689 -1.316664 61.594704 29 16 15
-1.578887 -1.184035 61.602436 29 17 16
-1.579126 -1.051400 61.611771 29 17 16
-1.579409 -0.918750 61.622780 30 17 17
-1.579735 -0.786074 61.635506 30 17 17
-1.580105 -0.653362 61.649956 30 17 17
-1.580519 -0.520602 61.666119 30 17 17
-1.580976 -0.387783 61.683941 30 17 17
-1.581474 -0.254893 61.703362 30 17 17
-1.582011 -0.121923 61.724297 30 18 17
-1.582584 0.011138 61.746651 30 18 17
-1.583190 0.144298 61.770321 30 18 17
-1.583828 0.277566 61.795197 29 18 17
-1.584493 0.410948 61.821171 29 18 17
-1.585185 0.544451 61.848145 29 19 16
-1.585899 0.678081 61.876022 28 19 17
-1.586635 0.811841 61.904705 28 19 16
-1.587388 0.945735 61.934113 28 19 16
-1.588158 1.079768 61.964161 29 18 16
-1.588943 1.213941 61.994759 29 18 17
-1.589738 1.348256 62.025810 29 18 17
-1.590543 1.482713 62.057205 29 18 17
-1.591353 1.617311 62.088821 30 17 16
-1.592165 1.752047 62.120506 31 17 16
-1.592975 1.886917 62.152092 32 17 17
-1.593777 2.021913 62.183365 33 17 17
-1.594564 2.157025 62.214100 33 17 17
-1.595332 2.292240 62.244034 34 18 17
-1.596071 2.427541 62.272884 34 19 17
-1.596775 2.562911 62.300350 33 19 17
-1.597435 2.698324 62.326115 32 19 17
-1.598044 2.833758 62.349861 31 19 17
-1.598593 2.969183 62.371292 32 20 18
-1.599076 3.104572 62.390125 32 20 19
-1.599485 3.239893 62.406097 32 21 20
-1.599816 3.375118 62.419010 32 21 21
-1.600065 3.510217 62.428699 33 21 21
-1.600228 3.645165 62.435074 34 21 20
-1.600306 3.779938 62.438110 34 21 20
-1.600299 3.914517 62.437855 35 21 20
-1.600212 4.048890 62.434433 36 21 21
-1.600048 4.183050 62.428043 36 21 21
-1.599815 4.316995 62.418961 37 21 21
-1.599522 4.450733 62.407516 38 21 20
-1.599178 4.584277 62.394100 38 20 20
-1.598794 4.717647 62.379143 38 20 20
-1.598384 4.850869 62.363121 39 19 20
-1.597958 4.983974 62.346508 40 19 20
-1.597529 5.116999 62.329781 42 19 20
-1.597109 5.249981 62.313404 44 20 21
-1.596710 5.382961 62.297810 46 22 22
-1.596340 5.515976 62.283386 47 24 24
-1.596009 5.649065 62.270454 49 25 26
-1.595722 5.782261 62.259277 52 26 28
-1.595485 5.915593 62.250034 55 28 31
-1.595301 6.049082 62.242825 59 30 34
-1.595168 6.182745 62.237663 61 32 36
-1.595087 6.316585 62.234486 62 32 37
-1.595053 6.450604 62.233158 63 31 37
-1.595060 6.584790 62.233459 65 31 37
-1.595103 6.719124 62.235126 66 32 37
-1.595173 6.853582 62.237854 67 33 38
-1.595261 6.988132 62.241295 67 35 39
-1.595359 7.122740 62.245106 67 36 40
-1.595457 7.257364 62.248920 68 36 41
-1.595546 7.391967 62.252419 69 36 41
-1.595620 7.526509 62.255287 70 36 41
-1.595671 7.660954 62.257267 72 37 42
-1.595693 7.795270 62.258144 73 37 42
-1.595683 7.929429 62.257763 74 37 42
-1.595639 8.063411 62.256023 74 37 43
-1.595559 8.197201 62.252888 74 37 42
-1.595443 8.330791 62.248367 74 37 42
-1.595293 8.464182 62.242516 74 37 41
-1.595111 8.597377 62.235424 73 36 40
-1.594900 8.730383 62.227215 71 34 39
-1.594665 8.863214 62.218021 71 34 39
-1.594407 8.995884 62.207981 73 37 41
-1.594132 9.128405 62.197220 74 39 43
-1.593841 9.260790 62.185867 73 38 42
-1.593537 9.393051 62.174015 72 36 41
-1.593222 9.525197 62.161743 71 36 40
-1.592899 9.657233 62.149109 70 37 40
-1.592566 9.789163 62.136139 69 38 40
-1.592226 9.920985 62.122856 69 38 41
-1.591877 10.052702 62.109264 69 39 42
-1.591521 10.184310 62.095371 69 39 42
-1.591158 10.315811 62.081196 69 39 42
-1.590788 10.447206 62.066750 70 37 41
-1.590412 10.578502 62.052094 70 36 40
-1.590033 10.709712 62.037304 70 34 39
-1.589653 10.840853 62.022480 71 35 39
-1.589276 10.971949 62.007767 75 36 41
-1.588906 11.103032 61.993336 79 39 43
-1.588549 11.234141 61.979393 82 41 46
-1.588210 11.365322 61.966167 85 43 48
-1.587895 11.496622 61.953888 84 41 46
-1.587611 11.628095 61.942814 82 40 44
-1.587364 11.759792 61.933174 81 40 44
-1.587160 11.891768 61.925201 80 40 44
-1.587003 12.024069 61.919079 79 40 43
-1.586898 12.156739 61.914974 78 39 43
-1.586847 12.289812 61.912983 78 40 43
-1.586851 12.423312 61.913162 79 40 44
-1.586911 12.557251 61.915504 81 41 45
