ply
format ascii 1.0
element vertex 1246
property float x
property float y
property float z
property uchar red
property uchar green
property uchar blue
end_header
-6.344514 3.191448 64.136002 51 31 32
-6.345838 3.330398 64.149384 51 31 32
-6.346807 3.469213 64.159187 50 31 32
-6.347431 3.607873 64.165489 50 30 31
-6.347723 3.746365 64.168442 49 29 31
-6.347702 3.884677 64.168228 48 29 31
-6.347389 4.022804 64.165070 48 29 30
-6.346813 4.160745 64.159248 48 29 30
-6.346005 4.298503 64.151077 48 29 30
-6.344999 4.436088 64.140900 49 30 30
-6.343831 4.573512 64.129105 49 30 30
-6.342543 4.710796 64.116074 48 29 30
-6.341173 4.847961 64.102234 48 29 30
-6.339763 4.985035 64.087975 48 29 30
-6.338350 5.122046 64.073700 47 29 29
-6.336972 5.259024 64.059769 46 28 28
-6.335663 5.395999 64.046532 46 28 28
-6.334450 5.533002 64.034264 46 28 28
-6.333356 5.670060 64.023209 45 29 27
-6.332398 5.807194 64.013527 45 29 27
-6.331585 5.944422 64.005302 45 28 28
-6.330918 6.081756 63.998569 45 28 28
-6.330391 6.219197 63.993240 45 29 28
-6.329989 6.356741 63.989174 45 29 28
-6.329689 6.494372 63.986141 45 28 28
-6.329464 6.632069 63.983868 44 28 27
-6.329277 6.769797 63.981976 43 28 27
-6.329089 6.907516 63.980080 42 28 27
-6.328857 7.045177 63.977730 42 28 26
-6.328536 7.182725 63.974480 41 28 27
-6.328079 7.320105 63.969860 40 28 27
-6.327442 7.457252 63.963428 40 28 27
-6.326585 7.594107 63.954769 40 28 27
-6.325471 7.730610 63.943501 40 28 26
-6.324067 7.866704 63.929306 40 28 26
-6.322350 8.002340 63.911945 41 27 25
-6.320301 8.137475 63.891232 41 27 25
-6.317911 8.272075 63.867081 42 26 24
-6.315181 8.406116 63.839481 42 26 24
-6.312117 8.539587 63.808506 42 25 23
-6.308733 8.672485 63.774303 44 26 25
-6.305052 8.804820 63.737083 45 27 26
-6.301098 8.936609 63.697121 45 28 26
-6.296906 9.067882 63.654743 44 29 27
-6.292510 9.198673 63.610302 43 29 27
-6.287946 9.329024 63.564163 43 29 27
-6.283251 9.458980 63.516708 43 29 28
-6.278463 9.588587 63.468300 44 30 29
-6.273615 9.717894 63.419292 45 30 30
-6.268739 9.846945 63.370003 46 31 31
-6.263862 9.975782 63.320702 47 30 30
-6.259008 10.104445 63.271633 48 30 30
-6.254196 10.232963 63.222984 48 30 30
-6.249440 10.361365 63.174908 48 29 30
-6.244750 10.489672 63.127499 48 29 29
-6.240131 10.617894 63.080814 47 29 28
-6.235587 10.746044 63.034878 47 29 28
-6.231116 10.874124 62.989681 47 30 29
-6.226715 11.002131 62.945183 47 30 29
-6.222376 11.130058 62.901321 48 30 29
-6.218091 11.257896 62.858017 48 31 29
-6.213853 11.385631 62.815170 48 31 30
-6.209649 11.513244 62.772663 47 31 30
-6.205465 11.640713 62.730373 47 30 30
-6.201289 11.768013 62.688160 47 30 31
-6.197104 11.895116 62.645859 47 31 31
-6.192895 12.021987 62.603302 47 31 32
-6.188643 12.148591 62.560318 47 31 32
-6.184329 12.274887 62.516705 47 31 32
-6.179934 12.400833 62.472279 47 31 33
-6.175438 12.526383 62.426834 47 31 33
-6.170823 12.651494 62.380184 47 31 33
-6.166072 12.776120 62.332153 47 31 32
-6.161169 12.900221 62.282589 46 31 31
-6.156101 13.023760 62.231361 46 31 31
-6.150862 13.146711 62.178398 46 31 30
-6.145447 13.269056 62.123661 46 31 31
-6.139862 13.390791 62.067196 47 30 31
-6.134111 13.511920 62.009064 48 30 31
-6.128211 13.632467 61.949429 49 30 31
-6.122184 13.752469 61.888493 50 30 31
-6.114244 -0.124808 63.185123 46 26 27
-6.118064 0.011405 63.224594 46 26 26
-6.121997 0.147791 63.265244 46 26 26
-6.126050 0.284357 63.307117 46 27 27
-6.130222 0.421113 63.350239 46 27 28
-6.134509 0.558064 63.394543 47 28 29
-6.138901 0.695219 63.439926 48 29 29
-6.143382 0.832581 63.486229 49 29 30
-6.147932 0.970154 63.533253 51 30 30
-6.152527 1.107938 63.580738 52 30 31
-6.157140 1.245930 63.628407 53 31 32
-6.161739 1.384125 63.675941 53 31 33
-6.166294 1.522513 63.723011 53 31 34
-6.170770 1.661083 63.769264 53 31 34
-6.175133 1.799820 63.814350 53 31 33
-6.179349 1.938705 63.857922 52 32 33
-6.183386 2.077718 63.899643 52 32 33
-6.187213 2.216835 63.939186 51 31 32
-6.190801 2.356032 63.976269 50 31 32
-6.194124 2.495282 64.010605 50 31 32
-6.197159 2.634557 64.041977 50 31 32
-6.199889 2.773831 64.070175 50 31 32
-6.202296 2.913076 64.095055 51 31 32
-6.204370 3.052263 64.116486 51 31 32
-6.206104 3.191369 64.134415 51 31 32
-6.207498 3.330369 64.148811 52 31 32
-6.208552 3.469241 64.159706 51 31 32
-6.209275 3.607968 64.167175 51 30 31
-6.209678 3.746534 64.171341 50 29 31
-6.209780 3.884929 64.172401 50 29 31
-6.209601 4.023148 64.170547 49 29 30
-6.209168 4.161188 64.166077 49 30 30
-6.208510 4.299052 64.159271 49 30 31
-6.207661 4.436751 64.150497 50 30 31
-6.206657 4.574298 64.140129 50 30 31
-6.205536 4.711711 64.128540 49 30 31
-6.204336 4.849013 64.116142 48 29 30
-6.203099 4.986231 64.103355 47 29 30
-6.201860 5.123393 64.090553 47 28 29
-6.200657 5.260530 64.078125 47 28 29
-6.199522 5.397673 64.066391 47 29 30
-6.198483 5.534851 64.055656 47 29 29
-6.197563 5.672091 64.046150 47 29 29
-6.196777 5.809416 64.038017 47 28 28
-6.196134 5.946843 64.031372 46 28 28
-6.195634 6.084383 64.026215 46 28 29
-6.195271 6.222037 64.022469 46 28 29
-6.195031 6.359801 64.019974 46 28 28
-6.194889 6.497657 64.018509 46 28 28
-6.194817 6.635583 64.017769 45 28 27
-6.194779 6.773542 64.017380 44 28 27
-6.194735 6.911492 64.016914 42 28 27
-6.194640 7.049383 64.015938 41 27 26
-6.194448 7.187158 64.013954 41 27 27
-6.194113 7.324755 64.010498 41 27 27
-6.193590 7.462109 64.005089 41 27 27
-6.192836 7.599157 63.997292 41 27 27
-6.191813 7.735835 63.986721 41 27 26
-6.190488 7.872085 63.973030 41 27 26
-6.188836 8.007852 63.955963 41 27 25
-6.186839 8.143090 63.935326 41 27 25
-6.184487 8.277765 63.911015 42 26 24
-6.181777 8.411849 63.883018 43 26 24
-6.178718 8.545328 63.851398 43 26 24
-6.175323 8.678199 63.816311 44 26 25
-6.171612 8.810468 63.777969 45 27 25
-6.167614 8.942156 63.736652 45 28 26
-6.163360 9.073287 63.692688 45 29 26
-6.158885 9.203900 63.646446 44 29 27
-6.154228 9.334037 63.598316 44 29 27
-6.149424 9.463740 63.548676 44 29 28
-6.144513 9.593062 63.497921 45 30 29
-6.139528 9.722048 63.446404 46 30 30
-6.134502 9.850747 63.394466 47 30 31
-6.129464 9.979201 63.342403 48 30 31
-6.124438 10.107451 63.290462 48 30 30
-6.119443 10.235531 63.238853 48 30 30
-6.114496 10.363468 63.187729 48 29 29
-6.109607 10.491283 63.137203 48 29 29
-6.104782 10.618994 63.087341 48 30 29
-6.100026 10.746609 63.038185 48 30 29
-6.095336 10.874132 62.989727 48 30 29
-6.090713 11.001565 62.941944 48 30 29
-6.086148 11.128901 62.894775 48 30 30
-6.081637 11.256130 62.848156 47 31 30
-6.077170 11.383244 62.801998 47 31 30
-6.072738 11.510222 62.756191 47 31 30
-6.068328 11.637047 62.710621 48 31 31
-6.063929 11.763696 62.665157 47 30 31
-6.059525 11.890141 62.619656 47 31 31
-6.055104 12.016353 62.573963 47 31 32
-6.050647 12.142298 62.527908 47 31 32
-6.046139 12.267939 62.481316 47 31 33
-6.041560 12.393235 62.434002 47 31 33
-6.036894 12.518147 62.385780 47 31 33
-6.032123 12.642630 62.336475 47 31 33
-6.027231 12.766644 62.285923 47 31 32
-6.022204 12.890152 62.233978 47 31 31
-6.017032 13.013121 62.180523 47 31 30
-6.011707 13.135526 62.125492 47 31 30
-6.006226 13.257350 62.068851 47 31 31
-6.000595 13.378595 62.010662 48 31 31
-5.994821 13.499267 61.950993 48 30 31
-5.988919 13.619390 61.889999 49 30 31
-5.982910 13.739005 61.827900 50 30 31
-5.976822 13.858169 61.764988 51 30 31
-5.971970 -0.396817 63.120975 46 24 26
-5.975361 -0.260897 63.156822 46 25 26
-5.978840 -0.124825 63.193596 47 25 26
-5.982422 0.011406 63.231457 47 26 26
-5.986119 0.147803 63.270531 47 27 27
-5.989936 0.284374 63.310883 46 27 27
-5.993876 0.421128 63.352524 47 28 29
-5.997936 0.558072 63.395432 48 29 29
-6.002105 0.695214 63.439499 49 30 30
-6.006371 0.832560 63.484581 51 30 30
-6.010714 0.970112 63.530483 52 31 31
-6.015111 1.107872 63.576965 53 32 32
-6.019538 1.245839 63.623756 54 32 33
-6.023964 1.384007 63.670536 54 32 34
-6.028359 1.522370 63.716991 54 32 34
-6.032691 1.660914 63.762772 54 32 34
-6.036925 1.799628 63.807529 53 32 34
-6.041030 1.938493 63.850918 52 32 33
-6.044974 2.077489 63.892601 51 32 32
-6.048726 2.216595 63.932251 50 31 32
-6.052258 2.355786 63.969582 50 31 31
-6.055543 2.495036 64.004311 50 31 31
-6.058559 2.634320 64.036194 49 31 31
-6.061288 2.773609 64.065033 49 31 31
-6.063713 2.912876 64.090660 50 31 31
-6.065823 3.052096 64.112961 51 31 31
-6.067610 3.191242 64.131851 51 31 31
-6.069072 3.330290 64.147301 52 31 31
-6.070210 3.469221 64.159332 52 31 31
-6.071030 3.608014 64.167999 52 30 31
-6.071544 3.746656 64.173439 51 30 30
-6.071768 3.885136 64.175804 51 30 30
-6.071723 4.023447 64.175316 50 30 30
-6.071431 4.161587 64.172241 50 30 31
-6.070923 4.299561 64.166870 50 30 31
-6.070230 4.437377 64.159546 51 30 31
-6.069388 4.575048 64.150650 51 30 31
-6.068433 4.712594 64.140549 50 30 31
-6.067403 4.850036 64.129662 49 29 31
-6.066337 4.987401 64.118393 48 28 30
-6.065271 5.124718 64.107132 48 28 30
-6.064241 5.262018 64.096245 48 28 30
-6.063279 5.399331 64.086075 48 29 30
-6.062411 5.536687 64.076904 49 29 30
-6.061661 5.674113 64.068977 48 29 30
-6.061043 5.811631 64.062439 48 28 30
-6.060565 5.949259 64.057388 47 28 29
-6.060228 6.087007 64.053825 47 28 29
-6.060025 6.224876 64.051682 47 28 29
-6.059940 6.362861 64.050781 46 28 29
-6.059950 6.500944 64.050896 46 28 28
-6.060026 6.639100 64.051697 45 28 28
-6.060131 6.777290 64.052795 44 28 27
-6.060223 6.915472 64.053780 43 28 27
-6.060259 7.053593 64.054161 42 27 27
-6.060192 7.191592 64.053452 41 27 27
-6.059974 7.329406 64.051147 42 27 27
-6.059559 7.466968 64.046761 42 27 27
-6.058904 7.604208 64.039841 42 27 26
-6.057971 7.741064 64.029968 42 28 26
-6.056724 7.877469 64.016785 41 27 25
-6.055138 8.013370 64.000031 41 27 25
-6.053195 8.148715 63.979485 41 27 25
-6.050882 8.283468 63.955044 42 27 25
-6.048199 8.417599 63.926685 43 26 25
-6.045151 8.551092 63.894470 44 26 25
-6.041752 8.683942 63.858547 45 27 25
-6.038024 8.816155 63.819141 46 27 26
-6.033993 8.947751 63.776535 46 28 27
-6.029691 9.078753 63.731064 46 28 27
-6.025154 9.209202 63.683105 46 28 28
-6.020419 9.339136 63.633064 46 29 28
-6.015525 9.468605 63.581341 46 29 29
-6.010510 9.597656 63.528328 47 29 30
-6.005409 9.726340 63.474419 47 30 30
-6.000256 9.854706 63.419945 47 30 31
-5.995079 9.982798 63.365231 48 30 31
-5.989904 10.110657 63.310535 48 30 30
-5.984752 10.238319 63.256077 48 30 30
-5.979638 10.365813 63.202030 48 29 29
-5.974575 10.493163 63.148514 48 30 29
-5.969569 10.620384 63.095604 48 30 29
-5.964625 10.747489 63.043354 48 30 30
-5.959744 10.874483 62.991760 49 31 30
-5.954924 11.001367 62.940811 49 31 31
-5.950160 11.128136 62.890453 48 30 31
-5.945446 11.254784 62.840637 48 30 31
-5.940776 11.381300 62.791271 48 30 30
-5.936140 11.507669 62.742271 47 30 31
-5.931528 11.633876 62.693531 48 30 31
-5.926929 11.759896 62.644920 48 30 31
-5.922331 11.885710 62.596321 49 30 32
-5.917720 12.011287 62.547581 49 31 33
-5.913081 12.136597 62.498550 48 31 33
-5.908399 12.261606 62.449066 48 32 33
-5.903658 12.386278 62.398952 48 32 33
-5.898841 12.510573 62.348042 47 32 33
-5.893933 12.634455 62.296169 47 32 32
-5.888920 12.757883 62.243179 47 32 31
-5.883788 12.880823 62.188934 47 31 30
-5.878528 13.003247 62.133347 48 31 29
-5.873134 13.125132 62.076336 48 31 30
-5.867605 13.246465 62.017891 48 31 31
-5.861945 13.367249 61.958073 49 31 31
-5.856164 13.487493 61.896957 49 30 31
-5.850274 13.607224 61.834713 50 30 31
-5.844299 13.726485 61.771561 51 30 31
-5.838265 13.845334 61.707783 52 30 31
-5.832205 13.963845 61.643730 52 30 31
-5.826157 14.082110 61.579803 52 30 31
-5.833687 -0.532682 63.097023 44 25 25
-5.836792 -0.396877 63.130600 45 24 25
-5.839962 -0.260931 63.164898 46 24 25
-5.843220 -0.124838 63.200134 47 25 26
-5.846581 0.011407 63.236477 47 26 27
-5.850056 0.147811 63.274067 47 27 27
-5.853654 0.284384 63.312981 47 28 28
-5.857377 0.421133 63.353252 48 29 29
-5.861223 0.558067 63.394848 49 30 29
-5.865183 0.695194 63.437683 50 30 30
-5.869246 0.832521 63.481628 52 31 31
-5.873394 0.970051 63.526489 53 32 32
-5.877605 1.107787 63.572041 54 32 33
-5.881856 1.245727 63.618011 54 32 34
-5.886117 1.383868 63.664104 54 32 34
-5.890360 1.522202 63.709995 54 32 34
-5.894553 1.660721 63.755344 54 32 34
-5.898664 1.799410 63.799812 53 32 33
-5.902662 1.938254 63.843048 52 31 33
-5.906514 2.077233 63.884716 51 31 32
-5.910192 2.216326 63.924500 50 31 31
-5.913668 2.355510 63.962093 50 30 31
-5.916915 2.494760 63.997215 49 30 31
-5.919912 2.634050 64.029633 49 30 30
-5.922639 2.773353 64.059128 50 30 30
-5.925080 2.912643 64.085526 50 30 30
-5.927223 3.051893 64.108704 50 30 30
-5.929060 3.191078 64.128578 51 30 30
-5.930588 3.330176 64.145096 51 31 30
-5.931807 3.469164 64.158279 51 31 30
-5.932722 3.608024 64.168182 51 30 30
-5.933344 3.746742 64.174911 51 30 30
-5.933688 3.885307 64.178627 51 30 30
-5.933772 4.023711 64.179543 50 30 30
-5.933621 4.161954 64.177902 51 30 31
-5.933260 4.300039 64.174004 52 30 32
-5.932722 4.437974 64.168182 52 31 32
-5.932039 4.575772 64.160797 52 30 32
-5.931248 4.713453 64.152237 51 30 31
-5.930385 4.851037 64.142906 50 29 31
-5.929488 4.988553 64.133202 49 29 31
-5.928592 5.126028 64.123512 49 29 31
-5.927732 5.263493 64.114212 49 29 31
-5.926939 5.400979 64.105637 49 29 30
-5.926240 5.538516 64.098068 49 29 31
-5.925655 5.676129 64.091743 49 29 31
-5.925200 5.813843 64.086823 48 28 30
-5.924883 5.951674 64.083389 48 27 30
-5.924703 6.089631 64.081444 47 28 29
-5.924654 6.227717 64.080910 47 28 29
-5.924718 6.365923 64.081604 46 28 29
-5.924873 6.504232 64.083290 46 28 29
-5.925090 6.642617 64.085632 45 28 28
-5.925330 6.781039 64.088226 45 28 28
-5.925553 6.919452 64.090637 44 27 27
-5.925714 7.057801 64.092377 44 27 27
-5.925765 7.196024 64.092926 43 27 27
-5.925658 7.334055 64.091774 43 27 27
-5.925347 7.471823 64.088409 44 27 27
-5.924787 7.609258 64.082359 43 27 27
-5.923940 7.746289 64.073189 43 27 26
-5.922770 7.882852 64.060532 42 27 26
-5.921250 8.018888 64.044106 42 27 26
-5.919362 8.154344 64.023674 42 27 26
-5.917093 8.289179 63.999138 43 27 26
-5.914442 8.423363 63.970459 43 27 26
-5.911412 8.556877 63.937695 44 27 26
-5.908020 8.689714 63.900997 46 27 26
-5.904284 8.821881 63.860592 47 27 26
-5.900232 8.953396 63.816769 47 28 27
-5.895896 9.084282 63.769871 47 28 28
-5.891313 9.214580 63.720299 47 28 29
-5.886518 9.344329 63.668446 47 28 29
-5.881554 9.473579 63.614742 47 29 30
-5.876455 9.602380 63.559597 48 29 31
-5.871260 9.730783 63.503403 48 30 31
-5.866002 9.858837 63.446533 47 30 30
-5.860710 9.986589 63.389297 48 30 30
-5.855411 10.114082 63.331982 48 30 30
-5.850126 10.241353 63.274822 48 30 29
-5.844872 10.368432 63.217995 48 30 29
-5.839661 10.495343 63.161633 48 30 29
-5.834501 10.622105 63.105824 49 31 30
-5.829398 10.748730 63.050625 49 31 31
-5.824351 10.875223 62.996048 49 31 31
-5.819362 11.001589 62.942081 49 31 31
-5.814425 11.127823 62.888687 49 30 31
-5.809537 11.253921 62.835815 48 30 31
-5.804690 11.379871 62.783394 48 30 30
-5.799878 11.505665 62.731346 47 30 31
-5.795091 11.631284 62.679562 48 30 31
-5.790318 11.756710 62.627949 49 30 32
-5.785551 11.881923 62.576378 50 30 32
-5.780775 12.006897 62.524723 50 31 33
-5.775978 12.131603 62.472839 50 31 33
-5.771146 12.256014 62.420582 50 32 33
-5.766265 12.380092 62.367786 49 32 32
-5.761321 12.503804 62.314304 48 32 31
-5.756298 12.627114 62.259975 47 32 31
-5.751184 12.749989 62.204666 47 32 30
-5.745967 12.872396 62.148247 48 31 30
-5.740640 12.994308 62.090630 49 31 29
-5.735198 13.115706 62.031757 49 31 29
-5.729638 13.236583 61.971626 50 31 30
-5.723968 13.356941 61.910297 50 30 30
-5.718194 13.476793 61.847858 50 30 30
-5.712335 13.596169 61.784477 50 30 30
-5.706409 13.715114 61.720387 51 30 31
-5.700444 13.833685 61.655865 52 30 31
-5.694471 13.951962 61.591267 52 31 31
-5.688529 14.070033 61.526989 52 31 31
-5.682658 14.188006 61.463493 50 31 30
-5.692804 -0.804026 63.043121 43 25 24
-5.695642 -0.668460 63.074543 43 25 24
-5.698499 -0.532759 63.106186 43 25 24
-5.701399 -0.396926 63.138309 44 24 24
-5.704366 -0.260956 63.171154 45 24 25
-5.707417 -0.124847 63.204952 46 25 26
-5.710573 0.011407 63.239899 47 25 27
-5.713843 0.147816 63.276115 47 26 27
-5.717238 0.284387 63.313705 47 28 28
-5.720759 0.421129 63.352703 48 29 29
-5.724407 0.558052 63.393097 49 30 29
-5.728173 0.695163 63.434803 50 30 30
-5.732047 0.832470 63.477699 52 31 31
-5.736012 0.969977 63.521610 53 32 33
-5.740048 1.107687 63.566307 54 32 33
-5.744132 1.245600 63.611530 54 32 34
-5.748237 1.383713 63.656994 54 32 34
-5.752334 1.522020 63.702370 53 32 34
-5.756394 1.660512 63.747334 53 32 33
-5.760386 1.799177 63.791538 52 32 33
-5.764279 1.937999 63.834648 52 31 32
-5.768043 2.076960 63.876328 51 31 32
-5.771647 2.216040 63.916248 51 30 31
-5.775067 2.355216 63.954117 50 30 31
-5.778275 2.494465 63.989643 50 30 31
-5.781250 2.633760 64.022591 50 29 30
-5.783972 2.773076 64.052734 51 29 29
-5.786426 2.912387 64.079903 51 29 29
-5.788599 3.051667 64.103966 50 30 30
-5.790481 3.190892 64.124817 51 30 30
-5.792071 3.330037 64.142418 51 30 30
-5.793366 3.469082 64.156769 51 30 30
-5.794373 3.608009 64.167915 51 30 29
-5.795099 3.746803 64.175957 51 30 29
-5.795558 3.885453 64.181046 51 30 31
-5.795770 4.023952 64.183380 51 30 31
-5.795753 4.162298 64.183205 52 30 31
-5.795537 4.300495 64.180809 52 31 32
-5.795150 4.438550 64.176514 52 31 32
-5.794623 4.576478 64.170685 52 30 32
-5.793993 4.714295 64.163704 52 30 31
-5.793293 4.852025 64.155960 52 29 31
-5.792562 4.989693 64.147850 51 29 31
-5.791831 5.127328 64.139771 50 29 31
-5.791138 5.264960 64.132080 50 30 31
-5.790510 5.402622 64.125130 50 30 30
-5.789973 5.540340 64.119186 50 30 31
-5.789549 5.678144 64.114494 49 30 31
-5.789252 5.816055 64.111206 49 29 30
-5.789089 5.954089 64.109398 48 28 30
-5.789060 6.092257 64.109077 47 28 30
-5.789157 6.230559 64.110146 47 28 30
-5.789364 6.368987 64.112442 46 29 30
-5.789657 6.507521 64.115685 45 29 29
-5.790007 6.646134 64.119560 45 29 29
-5.790376 6.784786 64.123650 45 29 28
-5.790721 6.923429 64.127472 45 28 28
-5.790999 7.062005 64.130554 45 28 27
-5.791162 7.200451 64.132355 45 28 27
-5.791161 7.338697 64.132339 45 28 27
-5.790948 7.476670 64.129982 45 28 27
-5.790479 7.614297 64.124794 45 28 27
-5.789715 7.751505 64.116333 44 28 27
-5.788620 7.888227 64.104210 44 28 27
-5.787168 8.024399 64.088120 44 28 27
-5.785336 8.159967 64.067833 43 28 27
-5.783114 8.294890 64.043236 43 27 26
-5.780499 8.429132 64.014275 43 27 26
-5.777496 8.562675 63.981018 44 27 26
-5.774118 8.695510 63.943611 46 27 26
-5.770386 8.827641 63.902283 47 27 26
-5.766327 8.959086 63.857330 47 27 27
-5.761972 9.089871 63.809105 47 27 28
-5.757358 9.220033 63.758007 48 28 29
-5.752523 9.349615 63.704464 48 29 29
-5.747506 9.478666 63.648903 48 29 30
-5.742345 9.607238 63.591751 48 30 31
-5.737078 9.735382 63.533421 48 30 31
-5.731738 9.863150 63.474285 47 30 30
-5.726356 9.990588 63.414680 47 30 29
-5.720958 10.117743 63.354904 47 30 29
-5.715567 10.244651 63.295200 47 30 29
-5.710199 10.371345 63.235752 47 30 28
-5.704867 10.497849 63.176716 48 30 29
-5.699581 10.624184 63.118176 49 31 30
-5.694346 10.750361 63.060196 49 31 31
-5.689164 10.876390 63.002808 49 31 32
-5.684034 11.002274 62.945999 49 31 32
-5.678954 11.128010 62.889744 49 30 32
-5.673919 11.253593 62.833988 49 30 31
-5.668925 11.379018 62.778683 48 30 30
-5.663965 11.504272 62.723751 47 29 30
-5.659030 11.629342 62.669102 48 30 31
-5.654112 11.754212 62.614643 49 30 32
-5.649202 11.878863 62.560265 50 31 32
-5.644288 12.003272 62.505848 51 31 33
-5.639360 12.127416 62.451271 51 32 33
-5.634405 12.251265 62.396397 51 32 33
-5.629409 12.374789 62.341076 50 31 33
-5.624361 12.497957 62.285168 49 31 32
-5.619247 12.620737 62.228535 49 31 31
-5.614055 12.743097 62.171043 49 31 31
-5.608777 12.865010 62.112591 50 31 30
-5.603404 12.986452 62.053093 50 31 30
-5.597933 13.107407 61.992504 51 30 29
-5.592363 13.227867 61.930820 51 30 29
-5.586701 13.347842 61.868122 50 30 29
-5.580956 13.467344 61.804497 50 30 29
-5.575142 13.586407 61.740116 51 30 29
-5.569282 13.705075 61.675213 51 30 30
-5.563400 13.823411 61.610073 51 30 31
-5.557528 13.941492 61.545052 51 31 31
-5.551703 14.059412 61.480545 51 31 31
-5.545965 14.177275 61.417000 50 32 30
-5.540358 14.295200 61.354904 48 31 29
-5.534927 14.413320 61.294765 47 31 27
-5.555133 -0.939626 63.023026 42 25 24
-5.557790 -0.804155 63.053177 42 25 24
-5.560441 -0.668552 63.083252 42 25 23
-5.563112 -0.532821 63.113544 42 25 23
-5.565824 -0.396963 63.144318 42 25 23
-5.568602 -0.260976 63.175827 43 24 24
-5.571465 -0.124854 63.208317 44 24 25
-5.574432 0.011408 63.241974 45 25 26
-5.577515 0.147818 63.276947 46 26 26
-5.580722 0.284385 63.313332 46 27 27
-5.584058 0.421119 63.351181 47 28 28
-5.587523 0.558029 63.390488 48 29 29
-5.591109 0.695123 63.431171 50 30 30
-5.594807 0.832410 63.473125 51 31 31
-5.598601 0.969894 63.516174 52 31 32
-5.602473 1.107578 63.560097 52 31 33
-5.606400 1.245465 63.604649 52 32 33
-5.610357 1.383551 63.649536 52 32 33
-5.614316 1.521831 63.694458 52 32 33
-5.618248 1.660297 63.739071 52 31 32
-5.622125 1.798937 63.783051 52 31 32
-5.625916 1.937738 63.826054 52 31 32
-5.629591 2.076681 63.867752 52 30 31
-5.633122 2.215747 63.907818 52 30 31
-5.636484 2.354915 63.945953 52 29 31
-5.639651 2.494162 63.981880 51 29 31
-5.642601 2.633462 64.015343 51 29 30
-5.645314 2.772790 64.046135 52 29 30
-5.647776 2.912122 64.074066 51 29 30
-5.649973 3.051430 64.098991 51 29 30
-5.651897 3.190692 64.120819 51 30 30
-5.653543 3.329885 64.139488 51 30 30
-5.654911 3.468987 64.154999 51 30 30
-5.656002 3.607980 64.167389 51 30 30
-5.656827 3.746849 64.176743 51 29 30
-5.657397 3.885584 64.183212 52 30 30
-5.657730 4.024178 64.186981 52 30 30
-5.657845 4.162628 64.188286 52 30 31
-5.657768 4.300938 64.187416 53 31 31
-5.657526 4.439115 64.184677 53 31 31
-5.657152 4.577172 64.180428 53 30 31
-5.656677 4.715128 64.175041 52 30 31
-5.656136 4.853004 64.168907 52 29 31
-5.655565 4.990826 64.162422 51 30 31
-5.654996 5.128623 64.155975 50 30 31
-5.654463 5.266426 64.149925 50 30 31
-5.653995 5.404263 64.144615 50 30 30
-5.653616 5.542166 64.140312 50 30 30
-5.653347 5.680160 64.137260 49 30 30
-5.653201 5.818268 64.135605 49 30 30
-5.653185 5.956507 64.135429 48 29 30
-5.653300 6.094885 64.136726 47 29 30
-5.653536 6.233402 64.139404 47 29 30
-5.653877 6.372050 64.143280 46 29 30
-5.654300 6.510808 64.148079 46 30 29
-5.654775 6.649648 64.153465 46 30 29
-5.655263 6.788528 64.159004 46 29 29
-5.655725 6.927398 64.164238 46 29 28
-5.656112 7.066198 64.168633 46 28 28
-5.656379 7.204865 64.171669 46 28 28
-5.656476 7.343324 64.172768 47 28 28
-5.656357 7.481500 64.171410 47 29 28
-5.655975 7.619318 64.167084 47 29 28
-5.655292 7.756703 64.159325 46 29 28
-5.654270 7.893583 64.147736 46 29 28
-5.652884 8.029894 64.132004 45 29 28
-5.651111 8.165579 64.111893 44 29 28
-5.648940 8.300592 64.087265 44 28 27
-5.646367 8.434899 64.058067 44 27 27
-5.643397 8.568478 64.024376 45 27 26
-5.640043 8.701319 63.986328 46 27 26
-5.636326 8.833426 63.944157 46 26 25
-5.632272 8.964815 63.898163 46 26 26
-5.627913 9.095513 63.848713 47 27 27
-5.623285 9.225557 63.796211 48 28 28
-5.618427 9.354992 63.741096 48 29 28
-5.613378 9.483865 63.683811 48 29 29
-5.608176 9.612230 63.624794 47 30 29
-5.602858 9.740139 63.564468 47 30 29
-5.597460 9.867646 63.503223 47 30 29
-5.592012 9.994801 63.441418 46 30 28
-5.586541 10.121647 63.379349 46 30 28
-5.581069 10.248223 63.317272 46 30 28
-5.575614 10.374565 63.255390 47 30 28
-5.570190 10.500697 63.193851 48 30 29
-5.564806 10.626640 63.132771 48 30 29
-5.559468 10.752409 63.072208 49 31 31
-5.554178 10.878011 63.012196 49 31 32
-5.548938 11.003451 62.952740 49 31 32
-5.543743 11.128729 62.893806 49 31 32
-5.538592 11.253841 62.835373 49 30 31
-5.533481 11.378781 62.777378 48 30 30
-5.528402 11.503540 62.719757 48 30 31
-5.523349 11.628105 62.662434 49 31 31
-5.518315 11.752462 62.605320 50 31 32
-5.513291 11.876596 62.548325 51 31 32
-5.508268 12.000487 62.491344 52 32 33
-5.503237 12.124112 62.434261 52 32 34
-5.498185 12.247446 62.376949 52 32 34
-5.493102 12.370462 62.319279 52 32 33
-5.487976 12.493134 62.261127 52 32 32
-5.482796 12.615430 62.202362 51 32 32
-5.477552 12.737322 62.142868 52 31 31
-5.472235 12.858788 62.082550 52 31 31
-5.466840 12.979807 62.021339 52 31 30
-5.461362 13.100365 61.959194 52 31 30
-5.455803 13.220456 61.896122 51 30 29
-5.450170 13.340095 61.832214 50 29 28
-5.444470 13.459295 61.767555 49 29 28
-5.438721 13.578092 61.702328 50 30 28
-5.432941 13.696531 61.636761 50 30 29
-5.427158 13.814676 61.571144 50 30 29
-5.421400 13.932607 61.505825 50 31 30
-5.415705 14.050416 61.441208 50 31 30
-5.410109 14.168208 61.377728 49 31 29
-5.404656 14.286105 61.315865 48 32 29
-5.399391 14.404235 61.256126 46 31 27
-5.394359 14.522735 61.199039 44 30 25
-5.415010 -1.210386 62.973415 42 26 26
-5.417579 -1.075146 63.003288 41 25 25
-5.420095 -0.939768 63.032539 41 25 24
-5.422580 -0.804260 63.061443 41 25 23
-5.425060 -0.668626 63.090279 41 25 23
-5.427557 -0.532870 63.119324 41 25 23
-5.430098 -0.396992 63.148872 42 25 23
-5.432704 -0.260990 63.179180 42 25 23
-5.435396 -0.124858 63.210480 43 24 24
-5.438191 0.011408 63.242989 44 24 25
-5.441103 0.147818 63.276848 44 25 25
-5.444139 0.284380 63.312160 45 26 26
-5.447306 0.421104 63.348991 46 27 27
-5.450603 0.558001 63.387325 47 28 28
-5.454023 0.695079 63.427113 48 28 30
-5.457559 0.832345 63.468227 49 29 31
-5.461195 0.969807 63.510509 50 29 31
-5.464913 1.107468 63.553749 50 30 31
-5.468692 1.245329 63.597702 51 30 31
-5.472508 1.383389 63.642082 52 30 32
-5.476335 1.521643 63.686584 52 30 32
-5.480145 1.660084 63.730892 52 30 32
-5.483909 1.798701 63.774666 52 30 32
-5.487599 1.937480 63.817581 53 30 32
-5.491187 2.076406 63.859299 53 30 32
-5.494644 2.215459 63.899506 53 30 32
-5.497946 2.354619 63.937904 53 29 31
-5.501068 2.493863 63.974209 53 29 30
-5.503988 2.633167 64.008171 53 29 30
-5.506689 2.772507 64.039581 53 29 30
-5.509154 2.911857 64.068245 53 29 30
-5.511370 3.051194 64.094017 53 30 31
-5.513329 3.190492 64.116798 52 30 31
-5.515025 3.329731 64.136520 52 30 31
-5.516457 3.468888 64.153175 51 30 30
-5.517628 3.607946 64.166794 51 30 30
-5.518544 3.746891 64.177452 51 29 30
-5.519219 3.885710 64.185295 52 29 31
-5.519666 4.024398 64.190498 53 30 31
-5.519907 4.162953 64.193298 53 30 30
-5.519963 4.301375 64.193947 53 31 31
-5.519862 4.439675 64.192772 54 31 31
-5.519633 4.577864 64.190117 53 30 31
-5.519309 4.715958 64.186340 53 30 31
-5.518921 4.853982 64.181839 52 30 30
-5.518505 4.991960 64.176994 51 30 30
-5.518092 5.129920 64.172195 50 30 31
-5.517714 5.267892 64.167793 50 30 31
-5.517399 5.405907 64.164131 50 31 31
-5.517171 5.543995 64.161476 50 31 31
-5.517049 5.682180 64.160065 49 31 30
-5.517047 5.820486 64.160042 49 31 30
-5.517172 5.958928 64.161499 48 30 30
-5.517422 6.097515 64.164406 47 29 30
-5.517789 6.236246 64.168671 47 29 30
-5.518256 6.375112 64.174103 46 29 30
-5.518800 6.514092 64.180428 46 30 29
-5.519391 6.653155 64.187294 46 30 29
-5.519991 6.792260 64.194275 46 29 29
-5.520558 6.931353 64.200874 46 29 28
-5.521048 7.070375 64.206566 46 29 28
-5.521411 7.209258 64.210793 47 29 28
-5.521601 7.347927 64.212997 47 29 28
-5.521568 7.486304 64.212616 47 29 28
-5.521269 7.624311 64.209137 47 29 28
-5.520662 7.761871 64.202080 46 29 28
-5.519712 7.898911 64.191032 46 29 28
-5.518392 8.035361 64.175674 45 29 28
-5.516679 8.171165 64.155754 45 29 28
-5.514561 8.306274 64.131134 44 28 28
-5.512035 8.440652 64.101753 44 28 28
-5.509106 8.574274 64.067688 45 27 27
-5.505785 8.707131 64.029076 45 26 26
-5.502094 8.839226 63.986141 45 26 26
-5.498058 8.970573 63.939205 45 26 26
-5.493710 9.101201 63.888638 46 27 26
-5.489084 9.231145 63.834850 46 27 27
-5.484221 9.360451 63.778290 46 28 27
-5.479158 9.489167 63.719418 46 29 27
-5.473936 9.617350 63.658684 45 29 27
-5.468591 9.745051 63.596519 45 29 27
-5.463158 9.872326 63.533337 45 29 27
-5.457668 9.999225 63.469498 45 30 27
-5.452149 10.125793 63.405312 45 30 27
-5.446623 10.252071 63.341045 46 30 28
-5.441108 10.378096 63.276917 47 30 28
-5.435619 10.503892 63.213081 47 30 28
-5.430165 10.629482 63.149654 48 30 29
-5.424753 10.754881 63.086708 49 31 30
-5.419385 10.880097 63.024284 49 31 31
-5.414062 11.005137 62.962383 49 31 32
-5.408783 11.130001 62.900997 49 31 32
-5.403546 11.254686 62.840096 49 30 31
-5.398347 11.379188 62.779625 48 30 31
-5.393179 11.503498 62.719532 48 30 31
-5.388039 11.627606 62.659748 48 31 32
-5.382918 11.751502 62.600201 49 31 32
-5.377811 11.875169 62.540806 51 31 32
-5.372709 11.998590 62.481468 52 32 33
-5.367602 12.121747 62.422081 52 32 34
-5.362483 12.244618 62.362545 52 33 34
-5.357340 12.367180 62.302738 53 33 33
-5.352164 12.489405 62.242546 53 33 33
-5.346945 12.611269 62.181847 52 32 32
-5.341674 12.732748 62.120552 52 32 31
-5.336344 12.853821 62.058567 53 32 30
-5.330949 12.974468 61.995831 53 32 30
-5.325488 13.094682 61.932320 53 32 30
-5.319961 13.214459 61.868046 51 30 29
-5.314377 13.333814 61.803101 49 28 27
-5.308743 13.452765 61.737587 48 28 27
-5.303076 13.571346 61.671677 49 29 28
-5.297394 13.689609 61.605606 49 29 29
-5.291724 13.807613 61.539661 49 30 29
-5.286094 13.925441 61.474190 49 31 29
-5.280539 14.043184 61.409584 49 31 29
-5.275095 14.160951 61.346283 48 31 28
-5.269804 14.278856 61.284752 48 32 28
-5.264709 14.397032 61.225494 46 31 27
-5.259853 14.515612 61.169022 45 30 26
-5.255282 14.634743 61.115868 44 29 26
-5.251042 14.754575 61.066559 44 29 26
-5.277636 -1.345721 62.954029 42 26 27
-5.280116 -1.210582 62.983612 42 26 26
-5.282524 -1.075300 63.012337 41 26 25
-5.284880 -0.939886 63.040440 41 26 25
-5.287208 -0.804346 63.068203 41 25 24
-5.289529 -0.668686 63.095898 40 25 24
-5.291871 -0.532908 63.123825 41 25 23
-5.294255 -0.397013 63.152271 41 25 23
-5.296706 -0.260999 63.181503 41 25 23
-5.299242 -0.124861 63.211761 42 25 24
-5.301882 0.011408 63.243252 42 25 25
-5.304639 0.147816 63.276134 43 25 25
-5.307521 0.284372 63.310516 43 26 26
-5.310534 0.421088 63.346458 44 26 26
-5.313678 0.557971 63.383957 45 26 27
-5.316947 0.695033 63.422951 46 27 28
-5.320333 0.832281 63.463337 47 27 29
-5.323822 0.969722 63.504955 48 27 30
-5.327396 1.107360 63.547592 49 28 30
-5.331037 1.245198 63.591015 50 28 30
-5.334720 1.383234 63.634949 51 29 30
-5.338420 1.521464 63.679089 52 29 31
-5.342111 1.659881 63.723118 52 29 31
-5.345766 1.798476 63.766712 52 30 32
-5.349356 1.937236 63.809540 53 30 32
-5.352856 2.076145 63.851280 54 30 32
-5.356237 2.215186 63.891617 54 29 32
-5.359476 2.354337 63.930252 54 29 31
-5.362549 2.493579 63.966915 54 29 30
-5.365436 2.632886 64.001350 54 29 30
-5.368118 2.772237 64.033340 54 29 30
-5.370579 2.911605 64.062698 54 30 31
-5.372808 3.050968 64.089279 53 30 31
-5.374794 3.190302 64.112968 53 30 31
-5.376533 3.329585 64.133713 52 30 31
-5.378022 3.468796 64.151482 52 30 31
-5.379264 3.607918 64.166298 52 30 31
-5.380266 3.746937 64.178246 52 29 31
-5.381038 3.885841 64.187454 52 29 31
-5.381593 4.024623 64.194077 53 29 31
-5.381952 4.163280 64.198357 54 30 31
-5.382134 4.301816 64.200531 55 30 30
-5.382167 4.440238 64.200928 55 30 30
-5.382078 4.578558 64.199860 54 30 30
-5.381897 4.716793 64.197701 53 30 30
-5.381657 4.854965 64.194832 53 30 30
-5.381388 4.993098 64.191635 52 30 30
-5.381124 5.131222 64.188484 51 31 31
-5.380894 5.269365 64.185738 50 31 31
-5.380725 5.407558 64.183716 50 31 31
-5.380641 5.545829 64.182709 50 31 31
-5.380659 5.684206 64.182938 49 32 30
-5.380794 5.822708 64.184540 49 31 30
-5.381050 5.961352 64.187592 48 30 29
-5.381426 6.100145 64.192085 47 29 29
-5.381915 6.239089 64.197914 47 29 29
-5.382499 6.378170 64.204887 47 29 29
-5.383155 6.517368 64.212708 47 29 29
-5.383852 6.656651 64.221024 47 29 29
-5.384554 6.795976 64.229401 47 29 29
-5.385219 6.935288 64.237328 47 30 29
-5.385801 7.074528 64.244278 46 29 28
-5.386254 7.213623 64.249672 47 29 28
-5.386528 7.352497 64.252937 47 29 28
-5.386576 7.491072 64.253517 47 30 28
-5.386354 7.629266 64.250862 47 30 28
-5.385820 7.767000 64.244492 46 30 28
-5.384939 7.904197 64.233994 46 30 28
-5.383684 8.040789 64.219017 45 29 28
-5.382032 8.176714 64.199318 45 29 28
-5.379972 8.311922 64.174736 44 28 28
-5.377498 8.446376 64.145226 44 28 28
-5.374615 8.580050 64.110840 45 27 27
-5.371336 8.712933 64.071732 45 27 27
-5.367681 8.845026 64.028130 44 27 26
-5.363676 8.976346 63.980354 45 27 26
-5.359352 9.106918 63.928776 45 28 26
-5.354745 9.236781 63.873821 45 28 26
-5.349894 9.365978 63.815956 44 28 26
-5.344837 9.494561 63.755638 44 28 26
-5.339615 9.622585 63.693340 44 28 26
-5.334263 9.750105 63.629501 44 28 26
-5.328818 9.877175 63.564548 44 28 26
-5.323310 10.003849 63.498848 45 29 27
-5.317767 10.130172 63.432732 45 29 27
-5.312212 10.256187 63.366474 46 29 27
-5.306664 10.381930 63.300293 47 30 28
-5.301137 10.507428 63.234360 47 30 28
-5.295640 10.632705 63.168797 48 30 29
-5.290182 10.757774 63.103680 48 30 30
-5.284765 10.882649 63.039062 49 30 31
-5.279390 11.007334 62.974949 49 31 31
-5.274056 11.131829 62.911331 49 31 31
-5.268763 11.256136 62.848183 48 30 31
-5.263505 11.380248 62.785469 48 30 31
-5.258280 11.504160 62.723141 48 30 31
-5.253082 11.627864 62.661133 49 31 32
-5.247905 11.751348 62.599388 50 31 32
-5.242744 11.874602 62.537823 51 31 32
-5.237592 11.997610 62.476364 51 31 32
-5.232440 12.120357 62.414917 52 32 33
-5.227282 12.242820 62.353386 53 33 33
-5.222108 12.364983 62.291668 53 33 33
-5.216910 12.486820 62.229660 53 33 33
-5.211679 12.608311 62.167263 53 33 33
-5.206407 12.729433 62.104378 52 32 31
-5.201089 12.850169 62.040939 53 32 30
-5.195720 12.970506 61.976894 53 32 30
-5.190299 13.090434 61.912231 53 32 30
-5.184827 13.209955 61.846962 52 31 30
-5.179313 13.329085 61.781181 49 29 28
-5.173764 13.447843 61.714996 49 29 28
-5.168197 13.566266 61.648590 49 29 29
-5.162630 13.684403 61.582188 49 29 30
-5.157088 13.802320 61.516075 49 30 30
-5.151598 13.920096 61.450596 48 31 29
-5.146195 14.037824 61.386143 48 31 28
-5.140913 14.155607 61.323135 47 31 28
-5.135791 14.273564 61.262043 47 31 28
-5.130870 14.391823 61.203346 46 31 27
-5.126193 14.510516 61.147549 46 30 27
-5.121802 14.629788 61.095177 45 30 27
-5.117742 14.749785 61.046738 44 29 27
-5.114053 14.870657 61.002743 44 29 27
-5.140312 -1.480963 62.934238 41 26 26
-5.142727 -1.345930 62.963810 41 26 26
-5.145055 -1.210749 62.992313 41 26 25
-5.147314 -1.075431 63.019970 41 26 25
-5.149524 -0.939984 63.047020 41 26 25
-5.151706 -0.804417 63.073742 41 26 25
-5.153885 -0.668734 63.100418 40 25 24
-5.156085 -0.532938 63.127354 40 25 23
-5.158329 -0.397029 63.154835 40 25 23
-5.160640 -0.261006 63.183125 40 25 23
-5.163038 -0.124862 63.212479 40 25 24
-5.165539 0.011408 63.243099 40 25 24
-5.168157 0.147814 63.275146 41 25 24
-5.170900 0.284364 63.308735 41 25 24
-5.173773 0.421071 63.343918 41 25 25
-5.176777 0.557943 63.380699 42 25 25
-5.179908 0.694990 63.419029 44 26 26
-5.183156 0.832222 63.458790 45 26 27
-5.186508 0.969644 63.499836 47 26 28
-5.189949 1.107262 63.541962 48 27 29
-5.193459 1.245079 63.584927 49 27 29
-5.197014 1.383093 63.628464 50 28 29
-5.200593 1.521301 63.672279 52 28 30
-5.204169 1.659698 63.716061 53 28 30
-5.207716 1.798273 63.759487 53 29 31
-5.211207 1.937014 63.802235 53 29 31
-5.214618 2.075908 63.843987 54 29 31
-5.217921 2.214936 63.884430 55 29 31
-5.221094 2.354080 63.923279 55 28 31
-5.224114 2.493319 63.960255 54 29 30
-5.226962 2.632630 63.995117 54 29 30
-5.229619 2.771990 64.027641 54 30 30
-5.232069 2.911376 64.057655 54 30 31
-5.234303 3.050764 64.084999 54 30 31
-5.236309 3.190132 64.109558 53 30 31
-5.238082 3.329458 64.131271 53 30 32
-5.239621 3.468722 64.150108 53 30 32
-5.240927 3.607907 64.166100 53 30 32
-5.242005 3.746998 64.179298 53 30 31
-5.242866 3.885985 64.189835 53 30 31
-5.243521 4.024860 64.197861 54 29 31
-5.243989 4.163620 64.203590 55 29 31
-5.244291 4.302269 64.207283 56 29 30
-5.244450 4.440813 64.209229 56 29 30
-5.244493 4.579264 64.209747 55 29 29
-5.244448 4.717638 64.209206 54 30 30
-5.244347 4.855958 64.207962 53 30 30
-5.244219 4.994247 64.206406 52 30 30
-5.244096 5.132534 64.204895 51 31 31
-5.244006 5.270848 64.203796 50 31 31
-5.243976 5.409218 64.203423 50 31 31
-5.244027 5.547673 64.204048 50 31 31
-5.244177 5.686238 64.205887 49 31 30
-5.244439 5.824935 64.209091 48 31 30
-5.244818 5.963779 64.213730 48 30 30
-5.245312 6.102777 64.219780 48 30 30
-5.245913 6.241928 64.227135 48 30 30
-5.246603 6.381221 64.235596 48 30 29
-5.247361 6.520633 64.244873 48 30 29
-5.248155 6.660131 64.254593 48 29 29
-5.248949 6.799670 64.264313 48 29 29
-5.249701 6.939197 64.273529 47 29 29
-5.250368 7.078648 64.281685 47 29 29
-5.250901 7.217949 64.288208 47 29 28
-5.251252 7.357025 64.292503 47 29 28
-5.251374 7.495793 64.294006 47 30 28
-5.251223 7.634170 64.292160 46 30 28
-5.250759 7.772074 64.286469 46 30 27
-5.249945 7.909428 64.276505 46 30 27
-5.248753 8.046160 64.261917 45 29 28
-5.247163 8.182207 64.242447 45 29 28
-5.245162 8.317518 64.217941 45 28 28
-5.242744 8.452054 64.188347 44 28 28
-5.239915 8.585786 64.153709 44 28 27
-5.236686 8.718704 64.114174 44 28 27
-5.233077 8.850808 64.069984 44 28 26
-5.229114 8.982115 64.021469 44 28 26
-5.224828 9.112648 63.968994 44 28 26
-5.220254 9.242446 63.912998 44 28 26
-5.215432 9.371556 63.853958 43 28 26
-5.210400 9.500028 63.792343 43 28 25
-5.205196 9.627917 63.728634 43 28 25
-5.199859 9.755281 63.663288 43 28 25
-5.194423 9.882176 63.596733 44 28 25
-5.188920 10.008655 63.529354 44 28 26
-5.183377 10.134766 63.461494 45 28 27
-5.177818 10.260551 63.393436 47 29 28
-5.172262 10.386049 63.325409 47 29 28
-5.166722 10.511287 63.257584 47 29 29
-5.161210 10.636290 63.190098 47 29 29
-5.155732 10.761074 63.123035 48 29 30
-5.150293 10.885649 63.056442 48 30 30
-5.144894 11.010024 62.990341 48 30 30
-5.139535 11.134199 62.924725 48 30 30
-5.134214 11.258177 62.859581 48 30 31
-5.128928 11.381950 62.794865 48 30 31
-5.123675 11.505518 62.730545 48 30 31
-5.118449 11.628871 62.666561 49 31 32
-5.113246 11.752002 62.602863 50 31 32
-5.108061 11.874899 62.539387 51 31 31
-5.102889 11.997552 62.476059 51 31 32
-5.097723 12.119946 62.412804 52 32 32
-5.092554 12.242063 62.349529 53 32 33
-5.087378 12.363887 62.286148 53 33 33
-5.082185 12.485398 62.222576 53 33 33
-5.076969 12.606578 62.158718 53 32 32
-5.071723 12.727407 62.094494 52 31 31
-5.066443 12.847871 62.029839 52 31 31
-5.061124 12.967957 61.964722 52 31 31
-5.055766 13.087664 61.899124 52 31 31
-5.050372 13.206990 61.833076 52 31 30
-5.044948 13.325955 61.766678 51 30 30
-5.039505 13.444581 61.700031 51 30 30
-5.034056 13.562905 61.633320 50 30 31
-5.028620 13.680978 61.566769 49 29 31
-5.023221 13.798863 61.500668 49 30 30
-5.017886 13.916640 61.435341 48 31 29
-5.012645 14.034403 61.371181 48 31 29
-5.007534 14.152251 61.308598 47 31 29
-5.002588 14.270304 61.248047 47 31 28
-4.997846 14.388683 61.189995 46 31 28
-4.993350 14.507524 61.134937 46 30 28
-4.989139 14.626965 61.083382 45 30 28
-4.985254 14.747149 61.035824 45 29 28
-4.981737 14.868223 60.992760 45 29 28
-4.978626 14.990338 60.954678 45 29 28
-5.003038 -1.616108 62.914013 40 25 25
-5.005406 -1.481187 62.943787 40 25 25
-5.007677 -1.346112 62.972340 40 25 25
-5.009864 -1.210894 62.999847 40 25 25
-5.011986 -1.075543 63.026524 40 25 25
-5.014060 -0.940068 63.052620 40 25 25
-5.016112 -0.804476 63.078411 40 25 25
-5.018162 -0.668774 63.104191 40 25 24
-5.020234 -0.532963 63.130253 39 25 23
-5.022353 -0.397042 63.156898 39 25 23
-5.024539 -0.261011 63.184391 38 25 23
-5.026813 -0.124863 63.212978 39 25 23
-5.029190 0.011408 63.242867 39 25 23
-5.031683 0.147812 63.274220 40 25 23
-5.034301 0.284357 63.307148 40 24 23
-5.037049 0.421056 63.341705 40 24 24
-5.039927 0.557918 63.377899 41 24 24
-5.042931 0.694953 63.415672 42 25 25
-5.046052 0.832171 63.454918 44 25 26
-5.049278 0.969578 63.495483 46 25 27
-5.052593 1.107179 63.537170 48 26 28
-5.055979 1.244977 63.579746 50 27 29
-5.059414 1.382973 63.622944 51 28 29
-5.062875 1.521162 63.666470 52 28 30
-5.066339 1.659540 63.710022 53 28 30
-5.069779 1.798098 63.753288 54 28 31
-5.073172 1.936824 63.795952 54 28 31
-5.076492 2.075704 63.837696 54 28 31
-5.079714 2.214721 63.878223 55 29 30
-5.082817 2.353858 63.917244 55 28 30
-5.085780 2.493094 63.954494 54 28 30
-5.088582 2.632408 63.989735 54 29 30
-5.091207 2.771778 64.022743 55 30 31
-5.093640 2.911180 64.053345 55 31 32
-5.095870 3.050593 64.081390 54 31 32
-5.097888 3.189993 64.106766 54 31 32
-5.099688 3.329361 64.129402 54 31 33
-5.101267 3.468676 64.149254 54 31 33
-5.102628 3.607922 64.166359 53 31 32
-5.103774 3.747084 64.180771 53 31 32
-5.104714 3.886152 64.192596 54 30 32
-5.105461 4.025119 64.201988 55 30 32
-5.106030 4.163981 64.209152 56 29 32
-5.106442 4.302741 64.214325 56 29 32
-5.106718 4.441406 64.217796 56 29 31
-5.106884 4.579987 64.219887 56 30 31
-5.106968 4.718501 64.220940 55 30 31
-5.106997 4.856967 64.221313 55 30 31
-5.107003 4.995412 64.221382 54 30 32
-5.107013 5.133862 64.221504 52 31 32
-5.107054 5.272345 64.222031 52 31 32
-5.107153 5.410891 64.223274 51 31 32
-5.107331 5.549527 64.225502 51 31 31
-5.107604 5.688280 64.228935 50 31 30
-5.107984 5.827168 64.233711 49 30 31
-5.108475 5.966209 64.239891 49 30 31
-5.109076 6.105408 64.247459 49 30 31
-5.109779 6.244762 64.256294 49 31 30
-5.110567 6.384261 64.266197 49 31 30
-5.111416 6.523881 64.276878 49 30 30
-5.112296 6.663588 64.287949 49 30 30
-5.113172 6.803336 64.298958 48 29 30
-5.114003 6.943070 64.309402 48 29 30
-5.114743 7.082725 64.318718 47 29 29
-5.115347 7.222228 64.326317 47 29 29
-5.115767 7.361498 64.331596 46 29 28
-5.115956 7.500453 64.333977 45 29 27
-5.115871 7.639008 64.332901 45 29 27
-5.115471 7.777079 64.327866 44 29 27
-5.114720 7.914587 64.318428 45 29 27
-5.113592 8.051458 64.304237 45 29 28
-5.112063 8.187630 64.285019 45 29 28
-5.110123 8.323046 64.260620 45 28 28
-5.107766 8.457666 64.230972 44 29 28
-5.104995 8.591464 64.196136 45 29 27
-5.101823 8.724425 64.156242 45 29 27
-5.098269 8.856551 64.111557 44 29 27
-5.094359 8.987856 64.062393 43 29 27
-5.090124 9.118365 64.009125 43 29 27
-5.085598 9.248117 63.952217 43 29 26
-5.080820 9.377158 63.892128 43 29 26
-5.075829 9.505540 63.829357 43 29 26
-5.070662 9.633320 63.764393 44 28 26
-5.065359 9.760554 63.697697 45 28 27
-5.059952 9.887301 63.629715 45 28 27
-5.054475 10.013615 63.560837 46 27 27
-5.048955 10.139544 63.491417 46 28 27
-5.043415 10.265135 63.421753 47 28 28
-5.037874 10.390423 63.352074 48 29 29
-5.032347 10.515439 63.282570 48 29 29
-5.026845 10.640208 63.213379 48 29 30
-5.021374 10.764749 63.144592 48 29 30
-5.015940 10.889071 63.076256 48 29 30
-5.010544 11.013181 63.008400 48 30 30
-5.005187 11.137085 62.941029 48 30 30
-4.999866 11.260782 62.874126 48 30 31
-4.994582 11.384271 62.807667 48 30 31
-4.989328 11.507547 62.741608 48 30 31
-4.984104 11.630607 62.675915 49 31 31
-4.978905 11.753440 62.610527 50 31 32
-4.973726 11.876040 62.545399 50 31 31
-4.968562 11.998399 62.480469 51 31 31
-4.963409 12.120502 62.415668 51 31 31
-4.958260 12.242335 62.350918 51 32 32
-4.953109 12.363886 62.286144 52 32 32
-4.947950 12.485135 62.221268 52 32 32
-4.942777 12.606070 62.156212 52 31 31
-4.937583 12.726671 62.090904 52 30 31
-4.932366 12.846930 62.025295 51 30 31
-4.927122 12.966834 61.959351 51 31 31
-4.921851 13.086383 61.893066 51 31 31
-4.916556 13.205581 61.826481 51 31 31
-4.911244 13.324447 61.759686 51 31 31
-4.905925 13.443006 61.692799 51 31 31
-4.900613 13.561294 61.625996 50 30 32
-4.895325 13.679362 61.559498 49 30 32
-4.890084 13.797276 61.493587 49 30 31
-4.884915 13.915111 61.428589 48 31 30
-4.879848 14.032960 61.364872 48 32 30
-4.874916 14.150924 61.302845 47 32 29
-4.870152 14.269115 61.242943 47 31 29
-4.865594 14.387657 61.185631 46 31 29
-4.861280 14.506680 61.131382 46 30 28
-4.857248 14.626317 61.080681 45 30 29
-4.853538 14.746711 61.034012 46 29 30
-4.850186 14.868005 60.991863 46 29 29
-4.847231 14.990345 60.954704 46 29 29
-4.844709 15.113875 60.922993 46 29 29
-4.863391 -1.885790 62.861980 41 26 24
-4.865829 -1.751158 62.893478 40 25 24
-4.868158 -1.616354 62.923595 40 25 24
-4.870387 -1.481390 62.952393 39 24 24
-4.872522 -1.346276 62.980000 39 24 24
-4.874579 -1.211023 63.006588 39 25 24
-4.876575 -1.075642 63.032375 39 25 25
-4.878527 -0.940142 63.057617 38 25 25
-4.880459 -0.804530 63.082588 38 25 24
-4.882393 -0.668810 63.107582 38 25 24
-4.884352 -0.532985 63.132904 38 25 23
-4.886358 -0.397055 63.158840 37 25 23
-4.888434 -0.261016 63.185669 37 25 22
-4.890597 -0.124865 63.213627 37 25 23
-4.892864 0.011408 63.242924 38 25 23
-4.895246 0.147810 63.273716 39 25 23
-4.897752 0.284353 63.306114 39 24 23
-4.900387 0.421046 63.340172 40 25 24
-4.903151 0.557900 63.375896 41 25 24
-4.906039 0.694926 63.413223 42 25 25
-4.909043 0.832133 63.452053 44 25 26
-4.912151 0.969528 63.492229 46 25 27
-4.915349 1.107116 63.533554 48 26 28
-4.918617 1.244900 63.575798 50 27 29
-4.921936 1.382880 63.618694 52 27 30
-4.925283 1.521055 63.661968 53 27 30
-4.928637 1.659418 63.705311 54 28 30
-4.931972 1.797961 63.748417 54 28 30
-4.935265 1.936673 63.790977 54 28 30
-4.938492 2.075541 63.832691 54 28 30
-4.941631 2.214550 63.873264 54 28 29
-4.944660 2.353680 63.912415 54 28 29
-4.947559 2.492915 63.949890 54 28 29
-4.950310 2.632232 63.985443 54 29 30
-4.952896 2.771610 64.018875 55 30 31
-4.955304 2.911028 64.050003 55 31 33
-4.957523 3.050464 64.078682 55 31 33
-4.959544 3.189895 64.104797 55 31 33
-4.961361 3.329303 64.128288 54 31 33
-4.962972 3.468668 64.149109 54 31 33
-4.964377 3.607973 64.167274 53 31 32
-4.965581 3.747205 64.182831 53 31 32
-4.966592 3.886352 64.195900 53 30 32
-4.967421 4.025408 64.206612 54 30 32
-4.968082 4.164371 64.215164 56 30 33
-4.968595 4.303241 64.221786 57 30 33
-4.968979 4.442026 64.226761 57 30 33
-4.969260 4.580736 64.230392 57 30 33
-4.969463 4.719387 64.233009 57 31 33
-4.969615 4.858000 64.234970 57 31 33
-4.969743 4.996599 64.236633 56 30 33
-4.969877 5.135209 64.238358 54 31 33
-4.970041 5.273860 64.240479 54 31 33
-4.970260 5.412579 64.243317 53 30 32
-4.970554 5.551395 64.247124 52 30 31
-4.970940 5.690331 64.252106 51 30 31
-4.971427 5.829409 64.258408 51 30 31
-4.972022 5.968641 64.266083 51 30 32
-4.972720 6.108036 64.275116 51 30 32
-4.973514 6.247588 64.285378 51 31 31
-4.974387 6.387287 64.296661 51 31 31
-4.975317 6.527108 64.308670 50 31 31
-4.976273 6.667017 64.321030 50 30 31
-4.977220 6.806966 64.333267 49 30 31
-4.978117 6.946900 64.344872 49 29 31
-4.978922 7.086751 64.355278 48 29 30
-4.979589 7.226447 64.363892 47 29 29
-4.980069 7.365904 64.370094 46 29 29
-4.980318 7.505039 64.373314 45 28 28
-4.980291 7.643766 64.372971 44 28 27
-4.979950 7.781999 64.368568 44 28 27
-4.979259 7.919657 64.359634 44 28 27
-4.978191 8.056666 64.345825 45 28 28
-4.976724 8.192959 64.326866 45 28 28
-4.974846 8.328482 64.302589 45 29 28
-4.972551 8.463191 64.272934 45 29 27
-4.969844 8.597059 64.237938 45 29 27
-4.966736 8.730072 64.197769 45 29 28
-4.963246 8.862228 64.152657 45 29 28
-4.959399 8.993543 64.102928 44 29 28
-4.955225 9.124043 64.048981 43 29 27
-4.950760 9.253764 63.991264 43 29 26
-4.946041 9.382755 63.930264 44 29 27
-4.941105 9.511067 63.866478 44 28 27
-4.935993 9.638760 63.800396 45 28 28
-4.930741 9.765889 63.732510 45 28 28
-4.925384 9.892514 63.663261 46 28 28
-4.919953 10.018692 63.593067 46 28 28
-4.914476 10.144472 63.522274 47 28 28
-4.908976 10.269898 63.451187 47 28 29
-4.903473 10.395013 63.380062 48 29 29
-4.897983 10.519845 63.309090 48 29 29
-4.892514 10.644420 63.238400 48 29 30
-4.887075 10.768757 63.168102 48 29 31
-4.881671 10.892867 63.098255 48 29 31
-4.876304 11.016761 63.028885 48 29 31
-4.870975 11.140442 62.960003 48 29 30
-4.865683 11.263910 62.891594 49 29 30
-4.860425 11.387166 62.823639 49 29 30
-4.855200 11.510206 62.756107 49 29 30
-4.850006 11.633027 62.688957 49 29 31
-4.844837 11.755624 62.622158 50 30 31
-4.839693 11.877989 62.555656 50 30 31
