ply
format ascii 1.0
element vertex 1207
property float x
property float y
property float z
property uchar red
property uchar green
property uchar blue
end_header
14.584596 -3.129736 58.269722 32 22 22
14.566331 -3.000364 58.196747 31 21 23
14.548823 -2.871456 58.126801 31 21 23
14.532103 -2.742998 58.059994 30 21 22
14.516178 -2.614972 57.996372 29 21 21
14.501053 -2.487357 57.935940 29 21 21
14.486718 -2.360131 57.878670 28 21 20
14.473158 -2.233272 57.824493 27 21 20
14.460360 -2.106757 57.773361 27 20 19
14.448305 -1.980564 57.725197 26 20 19
14.436984 -1.854674 57.679966 26 19 19
14.426386 -1.729065 57.637627 26 19 19
14.416514 -1.603720 57.598186 26 19 19
14.407371 -1.478619 57.561653 26 19 19
14.398967 -1.353745 57.528076 25 19 19
14.391319 -1.229081 57.497524 24 18 18
14.384445 -1.104608 57.470058 24 17 18
14.378366 -0.980307 57.445770 23 18 18
14.373093 -0.856160 57.424706 23 18 17
14.368642 -0.732145 57.406921 23 18 17
14.365012 -0.608241 57.392422 23 19 16
14.362194 -0.484427 57.381161 24 19 16
14.360167 -0.360682 57.373062 24 19 17
14.358890 -0.236984 57.367958 25 19 17
14.358307 -0.113313 57.365631 26 18 18
14.358350 0.010348 57.365799 27 17 18
14.358924 0.134015 57.368095 28 17 18
14.359928 0.257699 57.372105 30 17 18
14.361242 0.381409 57.377357 32 17 18
14.362738 0.505148 57.383335 34 18 18
14.364282 0.628914 57.389503 36 19 18
14.365736 0.752703 57.395313 38 19 19
14.366968 0.876503 57.400238 40 19 19
14.367855 1.000300 57.403778 41 20 19
14.368286 1.124077 57.405499 42 20 19
14.368166 1.247814 57.405018 43 20 18
14.367423 1.371489 57.402050 44 20 18
14.366015 1.495082 57.396431 46 20 19
14.363926 1.618574 57.388081 48 20 20
14.361164 1.741948 57.377048 51 20 20
14.357769 1.865192 57.363480 55 20 22
14.353806 1.988300 57.347649 58 20 24
14.349367 2.111269 57.329914 62 20 26
14.344555 2.234103 57.310688 65 20 26
14.339494 2.356814 57.290466 69 20 26
14.334314 2.479417 57.269772 72 21 26
14.329144 2.601933 57.249115 77 22 27
14.324108 2.724385 57.228996 82 22 29
14.319324 2.846800 57.209885 87 21 30
14.314892 2.969206 57.192177 93 22 31
14.310889 3.091628 57.176182 99 22 32
14.307372 3.214091 57.162132 105 22 33
14.304374 3.336614 57.150150 112 22 35
14.301900 3.459212 57.140270 119 22 36
14.299933 3.581894 57.132412 125 22 36
14.298437 3.704665 57.126431 135 22 37
14.297356 3.827521 57.122112 146 26 41
14.296623 3.950454 57.119186 156 31 46
14.296167 4.073454 57.117363 164 36 50
14.295912 4.196505 57.116344 169 42 53
14.295789 4.319592 57.115856 175 51 58
14.295739 4.442698 57.115654 184 66 66
14.295715 4.565813 57.115559 190 80 72
14.295691 4.688927 57.115467 189 86 73
14.295662 4.812038 57.115345 191 96 79
14.295640 4.935153 57.115257 196 109 91
14.295656 5.058280 57.115326 201 120 103
14.295764 5.181440 57.115753 211 136 122
14.296029 5.304661 57.116814 220 149 140
14.296528 5.427975 57.118805 213 146 143
14.297340 5.551419 57.122051 200 135 139
14.298548 5.675034 57.126877 196 134 144
14.300227 5.798862 57.133587 200 139 153
14.302446 5.922941 57.142452 195 135 154
14.305256 6.047309 57.153679 179 121 142
14.308694 6.171996 57.167412 170 113 135
14.312774 6.297024 57.183712 179 123 145
14.317492 6.422410 57.202568 200 144 167
14.322827 6.548158 57.223877 214 157 180
14.328733 6.674265 57.247475 210 152 175
14.335158 6.800719 57.273144 195 136 158
14.342028 6.927499 57.300591 182 122 143
14.349267 7.054579 57.329514 175 114 134
14.356795 7.181928 57.359592 177 115 134
14.364531 7.309512 57.390499 188 125 141
14.372400 7.437299 57.421940 201 138 152
14.380337 7.565257 57.453648 212 149 161
14.388287 7.693358 57.485409 214 151 163
14.396212 7.821583 57.517071 203 141 153
14.404082 7.949914 57.548515 189 128 141
14.411888 8.078344 57.579700 180 121 135
14.419636 8.206877 57.610657 176 119 133
14.427340 8.335517 57.641438 174 120 134
14.435029 8.464281 57.672157 178 126 139
14.442735 8.593187 57.702942 188 138 148
14.450495 8.722260 57.733948 201 153 160
14.458347 8.851522 57.765320 215 168 173
14.466324 8.980996 57.797188 226 180 185
14.474453 9.110704 57.829670 228 182 190
14.482749 9.240659 57.862812 223 176 186
14.491215 9.370866 57.896637 211 160 172
14.499833 9.501320 57.931072 190 136 150
14.508578 9.632005 57.966007 166 113 128
14.517395 9.762890 58.001236 149 96 112
14.526217 9.893929 58.036480 148 96 110
14.534955 10.025064 58.071392 162 112 125
14.543508 10.156218 58.105560 189 142 155
15.264721 -7.809784 60.466251 205 77 100
15.251820 -7.672949 60.415146 201 73 96
15.239470 -7.536608 60.366234 205 76 99
15.227599 -7.400709 60.319210 221 101 124
15.216129 -7.265204 60.273773 240 137 160
15.204983 -7.130047 60.229622 236 137 160
15.194082 -6.995194 60.186443 212 106 130
15.183347 -6.860602 60.143917 191 86 107
15.172693 -6.726229 60.101715 162 68 85
15.162034 -6.592036 60.059494 123 41 54
15.151279 -6.457983 60.016891 98 26 36
15.140335 -6.324036 59.973537 88 26 33
15.129104 -6.190158 59.929050 83 27 34
15.117488 -6.056317 59.883038 78 28 33
15.105392 -5.922487 59.835121 75 28 33
15.092721 -5.788643 59.784931 73 28 33
15.079391 -5.654768 59.732132 72 29 33
15.065327 -5.520852 59.676418 70 28 32
15.050469 -5.386892 59.617565 66 27 30
15.034776 -5.252893 59.555397 62 26 28
15.018224 -5.118870 59.489834 59 25 27
15.000818 -4.984847 59.420887 56 24 26
14.982585 -4.850852 59.348663 53 24 26
14.963577 -4.716924 59.273369 51 24 26
14.943867 -4.583106 59.195293 50 24 27
14.923553 -4.449444 59.114826 49 25 27
14.902751 -4.315988 59.032425 48 25 28
14.881592 -4.182786 58.948608 46 25 27
14.860212 -4.049887 58.863926 44 25 27
14.838761 -3.917333 58.778954 41 25 25
14.817383 -3.785164 58.694267 39 24 23
14.796214 -3.653412 58.610413 37 23 22
14.775385 -3.522103 58.527908 35 23 22
14.755013 -3.391254 58.447212 34 23 22
14.735199 -3.260877 58.368725 32 22 22
14.716023 -3.130974 58.292767 31 22 22
14.697552 -3.001542 58.219597 30 21 22
14.679831 -2.872572 58.149399 30 21 22
14.662888 -2.744051 58.082287 29 21 22
14.646740 -2.615961 58.018322 29 22 22
14.631391 -2.488283 57.957520 28 21 21
14.616833 -2.360995 57.899853 27 21 21
14.603058 -2.234075 57.845287 27 21 20
14.590054 -2.107501 57.793777 27 21 20
14.577806 -1.981253 57.745262 26 20 19
14.566309 -1.855309 57.699718 25 20 19
14.555554 -1.729650 57.657120 25 19 19
14.545546 -1.604257 57.617474 25 19 19
14.536292 -1.479111 57.580818 25 19 19
14.527805 -1.354195 57.547203 24 18 18
14.520103 -1.229491 57.516689 24 18 19
14.513205 -1.104979 57.489365 24 17 19
14.507130 -0.980641 57.465302 24 18 18
14.501894 -0.856456 57.444561 23 18 18
14.497509 -0.732403 57.427193 23 18 17
14.493976 -0.608461 57.413197 24 19 16
14.491285 -0.484608 57.402538 24 19 16
14.489413 -0.360820 57.395123 24 19 16
14.488319 -0.237078 57.390789 25 18 17
14.487945 -0.113360 57.389305 26 18 17
14.488218 0.010352 57.390388 26 17 18
14.489047 0.134074 57.393673 27 17 18
14.490323 0.257818 57.398727 29 18 19
14.491927 0.381593 57.405079 31 18 18
14.493726 0.505402 57.412209 32 18 18
14.495584 0.629244 57.419567 34 19 18
14.497362 0.753113 57.426609 36 19 19
14.498925 0.877000 57.432800 38 19 20
14.500146 1.000890 57.437637 40 19 20
14.500910 1.124766 57.440662 41 20 19
14.501120 1.248607 57.441494 42 20 19
14.500706 1.372392 57.439854 43 20 19
14.499619 1.496101 57.435547 44 20 19
14.497838 1.619713 57.428493 46 20 20
14.495374 1.743214 57.418736 49 20 21
14.492262 1.866588 57.406406 52 19 22
14.488568 1.989830 57.391777 56 19 23
14.484377 2.112936 57.375172 60 20 25
14.479795 2.235910 57.357029 65 20 26
14.474945 2.358762 57.337814 70 20 27
14.469950 2.481506 57.318024 75 21 27
14.464942 2.604163 57.298187 79 21 28
14.460045 2.726755 57.278790 84 22 29
14.455371 2.849308 57.260273 89 22 29
14.451022 2.971847 57.243050 94 22 30
14.447073 3.094398 57.227406 99 23 31
14.443583 3.216984 57.213581 105 23 33
14.440581 3.339623 57.201691 112 23 34
14.438074 3.462329 57.191757 120 23 36
14.436046 3.585111 57.183723 127 23 37
14.434457 3.707972 57.177433 135 23 39
14.433258 3.830909 57.172680 145 25 42
14.432379 3.953913 57.169201 154 30 47
14.431749 4.076973 57.166706 163 36 52
14.431297 4.200073 57.164913 170 44 57
14.430956 4.323200 57.163563 176 53 61
14.430666 4.446336 57.162415 181 64 65
14.430387 4.569470 57.161312 183 73 66
14.430095 4.692595 57.160152 186 83 69
14.429783 4.815710 57.158916 192 96 79
14.429471 4.938818 57.157681 199 109 90
14.429193 5.061933 57.156578 205 121 103
14.429005 5.185076 57.155834 214 137 122
14.428972 5.308273 57.155704 224 151 141
14.429175 5.431558 57.156509 219 149 146
14.429700 5.554970 57.158585 205 138 141
14.430625 5.678549 57.162254 202 137 147
14.432030 5.802336 57.167816 210 148 162
14.433984 5.926373 57.175556 207 146 165
14.436540 6.050695 57.185680 187 128 148
14.439734 6.175334 57.198334 169 111 132
14.443581 6.300313 57.213573 172 115 136
14.448079 6.425646 57.231392 188 131 153
14.453203 6.551341 57.251686 203 146 168
14.458913 6.677392 57.274303 204 147 169
14.465148 6.803790 57.299004 192 133 156
14.471841 6.930512 57.325516 178 118 141
14.478911 7.057533 57.353523 174 113 137
14.486281 7.184824 57.382717 178 116 139
14.493872 7.312350 57.412785 184 121 143
14.501603 7.440080 57.443409 192 129 149
14.509413 7.567982 57.474346 203 139 157
14.517245 7.696029 57.505367 208 143 160
14.525058 7.824200 57.536320 201 137 154
14.532829 7.952482 57.567101 192 129 146
14.540544 8.080864 57.597660 184 124 141
14.548208 8.209350 57.628017 179 122 138
14.555837 8.337947 57.658237 176 122 136
14.563457 8.466668 57.688423 175 124 137
14.571100 8.595533 57.718697 176 127 136
14.578803 8.724566 57.749210 181 133 141
14.586603 8.853787 57.780109 196 148 155
14.594529 8.983221 57.811504 208 160 168
14.602610 9.112885 57.843513 205 156 166
14.610857 9.242794 57.876183 198 146 160
14.619272 9.372952 57.909519 200 147 163
14.627842 9.503352 57.943462 200 145 163
14.636532 9.633979 57.977886 184 128 147
14.645292 9.764800 58.012585 164 108 127
14.654052 9.895771 58.047287 155 100 118
14.662725 10.026833 58.081646 155 102 119
14.671208 10.157910 58.115246 167 116 131
15.397926 -7.811236 60.477489 211 87 110
15.385001 -7.674419 60.426723 202 77 101
15.372643 -7.538100 60.378185 195 71 95
15.360773 -7.402225 60.331566 208 94 119
15.349313 -7.266745 60.286552 234 140 165
15.338185 -7.131613 60.242847 239 152 177
15.327306 -6.996784 60.200119 222 124 148
15.316593 -6.862213 60.158043 206 101 122
15.305960 -6.727859 60.116276 180 83 99
15.295318 -6.593680 60.074478 139 53 65
15.284573 -6.459639 60.032276 105 31 39
15.273630 -6.325698 59.989300 91 27 33
15.262392 -6.191822 59.945160 84 29 33
15.250762 -6.057980 59.899479 78 29 33
15.238641 -5.924145 59.851875 73 28 32
15.225938 -5.790294 59.801983 70 28 32
15.212570 -5.656410 59.749474 67 28 32
15.198461 -5.522484 59.694061 64 27 31
15.183554 -5.388513 59.635509 61 26 29
15.167808 -5.254504 59.573666 58 25 28
15.151201 -5.120471 59.508442 55 24 27
15.133739 -4.986438 59.439857 53 24 26
15.115449 -4.852434 59.368019 51 24 26
15.096381 -4.718496 59.293129 50 24 27
15.076612 -4.584669 59.215481 49 24 28
15.056234 -4.450996 59.135445 49 24 28
15.035365 -4.317527 59.053482 48 25 28
15.014135 -4.184311 58.970097 46 25 27
14.992679 -4.051394 58.885822 44 25 26
14.971141 -3.918818 58.801231 41 25 25
14.949667 -3.786623 58.716888 39 24 24
14.928391 -3.654840 58.633324 37 23 22
14.907444 -3.523496 58.551052 35 23 22
14.886940 -3.392607 58.470520 33 23 22
14.866981 -3.262184 58.392128 32 23 22
14.847648 -3.132232 58.316193 31 22 23
14.829006 -3.002747 58.242977 30 22 23
14.811104 -2.873722 58.172661 29 22 23
14.793971 -2.745142 58.105373 28 21 22
14.777627 -2.616992 58.041180 28 21 22
14.762077 -2.489253 57.980103 28 21 21
14.747317 -2.361903 57.922131 27 22 21
14.733343 -2.234923 57.867245 27 22 20
14.720146 -2.108290 57.815414 27 21 20
14.707714 -1.981984 57.766582 26 20 19
14.696045 -1.855985 57.720753 26 20 19
14.685135 -1.730273 57.677902 25 19 19
14.674991 -1.604830 57.638058 25 19 18
14.665622 -1.479637 57.601261 24 18 18
14.657044 -1.354675 57.567574 24 18 18
14.649278 -1.229926 57.537067 24 18 19
14.642341 -1.105372 57.509823 24 17 19
14.636258 -0.980993 57.485931 24 17 19
14.631043 -0.856767 57.465450 24 18 18
14.626712 -0.732674 57.448437 23 18 17
14.623260 -0.608691 57.434875 24 18 16
14.620677 -0.484795 57.424732 24 18 16
14.618942 -0.360964 57.417919 25 18 16
14.618012 -0.237175 57.414268 25 18 17
14.617827 -0.113408 57.413544 25 17 17
14.618314 0.010357 57.415455 26 17 18
14.619375 0.134135 57.419621 27 18 18
14.620906 0.257939 57.425632 28 18 18
14.622779 0.381779 57.432991 29 18 18
14.624864 0.505657 57.441177 31 18 18
14.627017 0.629573 57.449638 33 18 18
14.629101 0.753523 57.457821 35 19 19
14.630976 0.877495 57.465187 37 19 20
14.632511 1.001475 57.471214 38 19 20
14.633590 1.125447 57.475452 39 20 20
14.634114 1.249389 57.477509 41 20 20
14.634008 1.373282 57.477097 42 21 21
14.633224 1.497103 57.474010 43 21 21
14.631737 1.620832 57.468174 45 21 22
14.629554 1.744454 57.459599 47 20 22
14.626710 1.867954 57.448429 51 19 21
14.623268 1.991325 57.434910 54 18 22
14.619313 2.114564 57.419376 59 18 24
14.614948 2.237672 57.402233 65 19 25
14.610293 2.360660 57.383949 70 20 27
14.605471 2.483540 57.365009 76 20 27
14.600614 2.606333 57.345932 82 21 28
14.595841 2.729059 57.327190 86 22 29
14.591269 2.851743 57.309231 92 23 30
14.586993 2.974411 57.292439 97 23 31
14.583093 3.097086 57.277115 101 23 31
14.579619 3.219789 57.263477 106 24 33
14.576608 3.342539 57.251648 113 24 34
14.574062 3.465349 57.241650 120 25 36
14.571967 3.588227 57.233418 128 25 38
14.570284 3.711174 57.226807 135 26 41
14.568962 3.834188 57.221615 142 27 45
14.567934 3.957259 57.217579 149 30 49
14.567132 4.080376 57.214428 159 37 55
14.566483 4.203524 57.211880 168 45 62
14.565924 4.326688 57.209682 175 55 66
14.565398 4.449852 57.207619 181 65 69
14.564867 4.573005 57.205532 184 75 70
14.564307 4.696141 57.203335 187 85 73
14.563720 4.819257 57.201027 192 95 80
14.563124 4.942361 57.198685 197 106 88
14.562556 5.065465 57.196461 203 117 100
14.562076 5.188590 57.194569 209 128 115
14.561752 5.311764 57.193298 215 139 131
14.561666 5.435022 57.192963 213 141 139
14.561904 5.558401 57.193897 204 134 138
14.562551 5.681945 57.196438 204 136 146
14.563684 5.805692 57.200886 212 147 162
14.565372 5.929686 57.207520 209 146 164
14.567672 6.053961 57.216549 191 129 150
14.570618 6.178550 57.228119 175 114 136
14.574227 6.303475 57.242294 170 111 133
14.578495 6.428753 57.259060 175 117 140
14.583400 6.554389 57.278324 187 130 152
14.588897 6.680378 57.299915 197 139 161
14.594928 6.806710 57.323601 189 130 153
14.601427 6.933367 57.349129 172 112 135
14.608312 7.060319 57.376167 171 109 134
14.615503 7.187540 57.404415 187 125 151
14.622923 7.314996 57.433556 196 135 160
14.630492 7.442654 57.463284 191 128 152
14.638147 7.570485 57.493351 191 126 148
14.645833 7.698461 57.523540 199 133 155
14.653510 7.826562 57.553692 200 135 156
14.661151 7.954775 57.583702 192 128 149
14.668747 8.083092 57.613537 185 123 143
14.676298 8.211512 57.643192 181 122 140
14.683824 8.340045 57.672752 181 126 142
14.691345 8.468704 57.702293 182 129 143
14.698898 8.597508 57.731960 176 126 137
14.706517 8.726480 57.761887 175 126 134
14.714237 8.855641 57.792206 191 143 151
14.722091 8.985015 57.823051 209 162 172
14.730100 9.114617 57.854507 202 153 165
14.738278 9.244463 57.886631 182 129 145
14.746629 9.374555 57.919426 183 128 147
14.755134 9.504889 57.952831 195 138 159
14.763758 9.635444 57.986706 190 131 154
14.772453 9.766192 58.020859 175 117 139
14.781148 9.897088 58.055008 168 112 132
14.789755 10.028070 58.088814 163 108 127
14.798170 10.159067 58.121861 161 108 124
15.518884 -7.676211 60.440834 211 92 114
15.506487 -7.539893 60.392551 197 80 102
15.494584 -7.404019 60.346191 198 87 110
15.483093 -7.268539 60.301441 219 122 146
15.471935 -7.133405 60.257984 235 148 171
15.461023 -6.998570 60.215488 235 141 163
15.450274 -6.863990 60.173622 222 122 140
15.439598 -6.729623 60.132042 196 99 111
15.428905 -6.595428 60.090401 159 70 78
15.418102 -6.461366 60.048325 128 50 54
15.407094 -6.327401 60.005451 108 41 44
15.395782 -6.193499 59.961395 92 34 37
15.384070 -6.059629 59.915779 79 29 32
15.371862 -5.925765 59.868237 73 28 32
15.359070 -5.791885 59.818413 70 29 33
15.345608 -5.657973 59.765984 68 29 33
15.331407 -5.524021 59.710670 64 28 32
15.316409 -5.390027 59.652264 61 27 30
15.300578 -5.255999 59.590607 58 26 29
15.283892 -5.121950 59.525620 55 25 28
15.266358 -4.987904 59.457333 53 25 27
15.248003 -4.853890 59.385841 51 24 27
15.228877 -4.719947 59.311352 50 24 28
15.209055 -4.586114 59.234154 49 24 28
15.188632 -4.452439 59.154613 49 24 28
15.167721 -4.318967 59.073170 48 25 28
15.146447 -4.185746 58.990318 46 25 27
15.124949 -4.052823 58.906593 44 25 26
15.103365 -3.920237 58.822529 42 25 25
15.081837 -3.788028 58.738682 39 24 24
15.060500 -3.656228 58.655582 37 24 23
15.039479 -3.524859 58.573715 35 23 23
15.018890 -3.393942 58.493526 33 23 23
14.998832 -3.263485 58.415409 32 23 23
14.979386 -3.133493 58.339672 31 23 23
14.960617 -3.003964 58.266571 30 22 23
14.942574 -2.874889 58.196301 29 22 23
14.925289 -2.746257 58.128983 28 21 22
14.908780 -2.618052 58.064686 28 21 22
14.893059 -2.490255 58.003456 28 21 21
14.878123 -2.362847 57.945286 27 22 21
14.863972 -2.235808 57.890171 27 22 21
14.850596 -2.109117 57.838081 27 21 20
14.837995 -1.982753 57.788998 26 20 20
14.826161 -1.856698 57.742912 26 19 19
14.815101 -1.730932 57.699837 25 19 18
14.804822 -1.605435 57.659805 25 18 18
14.795338 -1.480191 57.622864 25 18 18
14.786664 -1.355181 57.589081 24 18 18
14.778825 -1.230386 57.558552 24 18 18
14.771844 -1.105786 57.531364 24 18 18
14.765740 -0.981362 57.507591 24 18 18
14.760532 -0.857093 57.487312 24 18 17
14.756236 -0.732956 57.470577 24 17 17
14.752848 -0.608929 57.457378 24 17 16
14.750358 -0.484989 57.447681 24 17 16
14.748739 -0.361111 57.441380 25 17 16
14.747954 -0.237274 57.438320 25 17 17
14.747938 -0.113457 57.438259 25 17 17
14.748616 0.010361 57.440899 25 18 18
14.749890 0.134196 57.445866 26 18 18
14.751652 0.258061 57.452724 27 18 18
14.753775 0.381965 57.460991 28 18 18
14.756121 0.505912 57.470127 30 18 18
14.758550 0.629902 57.479588 31 18 18
14.760917 0.753929 57.488808 33 19 19
14.763081 0.877984 57.497234 34 19 19
14.764908 1.002053 57.504349 36 19 19
14.766281 1.126118 57.509701 38 20 20
14.767098 1.250158 57.512882 40 21 21
14.767282 1.374154 57.513596 41 22 22
14.766779 1.498083 57.511639 43 22 23
14.765566 1.621925 57.506912 44 21 23
14.763647 1.745664 57.499443 47 21 22
14.761054 1.869285 57.489342 49 19 22
14.757849 1.992780 57.476856 53 18 22
14.754114 2.116145 57.462315 58 18 23
14.749951 2.239382 57.446102 64 18 24
14.745480 2.362500 57.428684 71 19 26
14.740821 2.485512 57.410542 78 20 27
14.736102 2.608434 57.392162 83 21 28
14.731448 2.731289 57.374035 89 22 29
14.726968 2.854100 57.356586 96 25 32
14.722760 2.976891 57.340199 100 25 33
14.718898 3.099684 57.325157 103 25 33
14.715440 3.222500 57.311687 109 25 34
14.712415 3.345357 57.299908 114 25 35
14.709827 3.468266 57.289833 121 27 37
14.707663 3.591235 57.281399 128 29 42
14.705884 3.714265 57.274471 135 31 47
14.704438 3.837352 57.268841 140 31 51
14.703264 3.960489 57.264271 146 33 55
14.702291 4.083661 57.260475 155 40 62
14.701447 4.206853 57.257195 167 52 71
14.700674 4.330053 57.254181 176 61 76
14.699916 4.453244 57.251228 179 67 74
14.699138 4.576416 57.248196 180 73 72
14.698319 4.699562 57.245010 184 82 75
14.697459 4.822681 57.241661 189 90 80
14.696587 4.945781 57.238262 194 100 89
14.695735 5.068874 57.234947 200 112 100
14.694969 5.191982 57.231964 203 120 110
14.694359 5.315135 57.229588 205 126 122
14.693989 5.438365 57.228146 206 131 131
14.693946 5.561714 57.227978 203 131 137
14.694314 5.685220 57.229412 203 134 145
14.695175 5.808928 57.232765 208 140 156
14.696598 5.932877 57.238308 202 136 156
14.698639 6.057105 57.246258 191 125 147
14.701333 6.181641 57.256748 182 118 141
14.704698 6.306510 57.269852 174 112 135
14.708728 6.431727 57.285549 169 109 132
14.713399 6.557297 57.303741 175 115 139
14.718670 6.683218 57.324272 187 128 152
14.724485 6.809479 57.346916 186 127 151
14.730770 6.936059 57.371395 170 109 134
14.737450 7.062933 57.397411 166 105 130
14.744444 7.190074 57.424652 192 132 157
14.751670 7.317446 57.452793 212 156 179
14.759055 7.445021 57.481560 200 141 164
14.766533 7.572766 57.510677 184 121 142
14.774047 7.700656 57.539944 190 125 146
14.781562 7.828673 57.569214 198 133 154
14.789048 7.956801 57.598370 194 129 150
14.796496 8.085033 57.627377 184 120 141
14.803909 8.213371 57.656250 180 118 138
14.811304 8.341824 57.685051 184 126 145
14.818705 8.470403 57.713871 191 136 152
14.826143 8.599130 57.742844 187 135 147
14.833653 8.728023 57.772095 183 134 143
14.841273 8.857107 57.801769 200 152 162
14.849032 8.986403 57.831985 223 177 187
14.856953 9.115930 57.862835 218 169 182
14.865047 9.245697 57.894363 193 139 157
14.873317 9.375710 57.926567 186 130 150
14.881743 9.505963 57.959385 192 133 155
14.890295 9.636438 57.992691 185 125 149
14.898919 9.767105 58.026279 175 116 138
14.907543 9.897917 58.059868 175 116 138
14.916082 10.028815 58.093124 174 117 136
15.653320 -7.678245 60.456848 223 111 131
15.640859 -7.541912 60.408718 209 98 119
15.628887 -7.406018 60.362480 198 88 110
15.617325 -7.270514 60.317825 203 99 121
15.606087 -7.135351 60.274422 220 123 143
15.595090 -7.000483 60.231949 235 141 158
15.584245 -6.865866 60.190063 232 140 152
15.573464 -6.731457 60.148426 213 119 127
15.562657 -6.597216 60.106686 186 94 98
15.551731 -6.463105 60.064487 163 80 80
15.540588 -6.329088 60.021450 140 66 66
15.529137 -6.195133 59.977222 108 44 45
15.517279 -6.061211 59.931423 85 29 31
15.504923 -5.927296 59.883701 78 28 32
15.491982 -5.793367 59.833721 76 31 36
15.478376 -5.659411 59.781170 73 31 37
15.464037 -5.525419 59.725788 70 30 37
15.448912 -5.391392 59.667374 67 29 35
15.432963 -5.257337 59.605778 64 28 33
15.416177 -5.123268 59.540943 61 28 31
15.398555 -4.989208 59.472885 58 27 30
15.380129 -4.855188 59.401718 55 26 29
15.360949 -4.721243 59.327641 53 26 29
15.341087 -4.587413 59.250931 52 25 28
15.320637 -4.453743 59.171947 50 25 28
15.299709 -4.320279 59.091118 48 25 28
15.278427 -4.187066 59.008923 47 25 27
15.256924 -4.054149 58.925869 45 25 26
15.235335 -3.921568 58.842491 43 25 25
15.213800 -3.789359 58.759315 40 25 24
15.192451 -3.657554 58.676857 38 24 24
15.171407 -3.526175 58.595585 36 24 24
15.150784 -3.395241 58.515930 35 23 23
15.130677 -3.264763 58.438274 33 23 23
15.111167 -3.134742 58.362923 32 23 22
15.092318 -3.005178 58.290123 30 22 22
15.074178 -2.876063 58.220062 29 22 22
15.056782 -2.747386 58.152874 29 21 21
15.040149 -2.619132 58.088631 28 21 21
15.024289 -2.491282 58.027382 28 21 20
15.009208 -2.363820 57.969131 28 21 20
14.994905 -2.236724 57.913891 28 21 20
14.981375 -2.109976 57.861637 27 21 20
14.968617 -1.983555 57.812363 27 20 20
14.956636 -1.857443 57.766090 26 19 19
14.945434 -1.731621 57.722820 26 18 19
14.935025 -1.606071 57.682621 26 19 18
14.925425 -1.480774 57.645542 25 18 17
14.916656 -1.355713 57.611671 25 18 17
14.908739 -1.230868 57.581100 25 18 17
14.901705 -1.106220 57.553928 24 18 17
14.895570 -0.981749 57.530235 24 18 17
14.890358 -0.857433 57.510109 24 18 17
14.886082 -0.733250 57.493591 24 18 18
14.882739 -0.609176 57.480682 24 17 17
14.880322 -0.485188 57.471344 25 17 17
14.878803 -0.361263 57.465477 25 17 17
14.878140 -0.237376 57.462917 25 17 17
14.878272 -0.113506 57.463428 24 17 17
14.879117 0.010366 57.466694 24 18 18
14.880582 0.134258 57.472347 25 18 18
14.882549 0.258183 57.479950 26 18 18
14.884896 0.382151 57.489010 27 18 18
14.887479 0.506166 57.498985 29 18 18
14.890156 0.630227 57.509327 30 18 17
14.892781 0.754331 57.519466 32 18 18
14.895208 0.878467 57.528839 33 18 18
14.897305 1.002621 57.536938 35 18 18
14.898950 1.126775 57.543289 37 19 19
14.900037 1.250911 57.547489 39 20 20
14.900486 1.375005 57.549225 41 21 22
14.900245 1.499038 57.548290 43 22 23
14.899284 1.622988 57.544582 45 22 23
14.897610 1.746838 57.538116 47 21 23
14.895248 1.870574 57.528996 49 20 22
14.892263 1.994188 57.517467 52 18 22
14.888734 2.117674 57.503834 57 18 22
14.884761 2.241035 57.488487 63 17 23
14.880457 2.364276 57.471867 70 18 24
14.875951 2.487413 57.454460 79 19 26
14.871363 2.610460 57.436741 86 21 28
14.866817 2.733439 57.419189 93 24 30
14.862423 2.856370 57.402214 100 27 34
14.858276 2.979279 57.386200 105 28 35
14.854450 3.102185 57.371422 108 27 34
14.851004 3.225110 57.358109 111 27 35
14.847962 3.348069 57.346363 116 28 36
14.845333 3.471074 57.336212 122 30 40
14.843101 3.594131 57.327587 129 36 47
14.841229 3.717241 57.320358 137 40 56
14.839664 3.840399 57.314316 141 40 62
14.838345 3.963597 57.309216 143 40 65
14.837203 4.086822 57.304810 155 51 77
14.836172 4.210059 57.300827 177 72 96
14.835190 4.333294 57.297031 187 80 101
14.834208 4.456512 57.293240 179 73 87
14.833187 4.579701 57.289299 172 69 74
14.832114 4.702858 57.285156 174 73 72
14.830994 4.825981 57.280827 179 80 77
14.829846 4.949076 57.276394 186 91 86
14.828720 5.072159 57.272045 193 102 97
14.827672 5.195251 57.267998 195 110 107
14.826782 5.318383 57.264561 197 116 116
14.826131 5.441587 57.262047 201 124 128
14.825809 5.564903 57.260799 203 131 139
14.825901 5.688374 57.261158 203 133 145
14.826490 5.812041 57.263435 202 134 150
14.827646 5.935944 57.267899 197 129 149
14.829423 6.060121 57.274761 190 123 145
14.831860 6.184601 57.284172 186 120 143
14.834971 6.309410 57.296188 179 115 139
14.838754 6.434562 57.310799 170 107 133
14.843182 6.560061 57.327900 170 108 134
14.848216 6.685908 57.347343 180 118 145
14.853797 6.812089 57.368900 186 125 152
14.859856 6.938586 57.392300 177 115 141
14.866312 7.065373 57.417236 167 106 131
14.873087 7.192421 57.443401 183 123 148
14.880102 7.319701 57.470493 210 155 176
14.887280 7.447178 57.498219 211 159 177
14.894558 7.574827 57.526329 196 139 156
14.901881 7.702619 57.554611 193 130 147
14.909210 7.830537 57.582920 197 132 151
14.916519 7.958566 57.611149 196 130 150
14.923800 8.086701 57.639267 187 122 143
14.931053 8.214943 57.667282 180 117 138
14.938295 8.343299 57.695251 186 124 145
14.945553 8.471785 57.723282 194 136 154
14.952858 8.600418 57.751495 191 135 151
14.960241 8.729218 57.780014 185 132 146
14.967742 8.858212 57.808983 200 149 162
14.975389 8.987419 57.838520 222 173 185
14.983208 9.116856 57.868713 225 174 189
14.991204 9.246533 57.899601 212 157 175
14.999381 9.376457 57.931179 205 147 166
15.007721 9.506620 57.963390 199 139 160
15.016191 9.637006 57.996105 184 122 144
15.024737 9.767582 58.029114 172 111 133
15.033290 9.898304 58.062141 173 113 134
15.041758 10.029113 58.094849 179 120 139
15.788147 -7.680436 60.474094 234 126 145
15.775592 -7.544070 60.426003 222 116 136
15.763519 -7.408138 60.379757 207 101 120
15.751843 -7.272589 60.335037 198 94 112
15.740481 -7.137375 60.291515 205 102 118
15.729347 -7.002450 60.248867 224 128 139
15.718352 -6.867770 60.206753 237 148 154
15.707408 -6.733293 60.164837 231 142 143
15.696425 -6.598980 60.122768 212 120 118
15.685311 -6.464795 60.080196 193 105 101
15.673973 -6.330703 60.036766 167 87 83
15.662318 -6.196673 59.992126 126 54 54
15.650255 -6.062677 59.945919 97 32 35
15.637693 -5.928691 59.897804 90 31 37
15.624552 -5.794698 59.847466 88 35 44
15.610754 -5.660684 59.794617 85 36 45
15.596236 -5.526642 59.739006 82 35 44
15.580949 -5.392574 59.680454 78 33 41
15.564858 -5.258487 59.618820 74 32 38
15.547950 -5.124396 59.554054 70 30 35
15.530231 -4.990324 59.486187 65 29 33
15.511733 -4.856301 59.415333 61 29 31
15.492504 -4.722360 59.341679 58 27 30
15.472617 -4.588542 59.265503 55 26 29
15.452162 -4.454888 59.187153 52 26 28
15.431246 -4.321443 59.107037 50 25 27
15.409990 -4.188251 59.025620 47 25 27
15.388522 -4.055354 58.943394 46 25 26
15.366976 -3.922792 58.860863 44 25 25
15.345483 -3.790599 58.778534 42 25 24
15.324170 -3.658803 58.696899 40 25 25
15.303158 -3.527429 58.616417 38 24 24
15.282555 -3.396493 58.537498 36 23 24
15.262452 -3.266004 58.460499 34 23 23
15.242930 -3.135967 58.385723 33 23 23
15.224053 -3.006379 58.313416 32 23 23
15.205865 -2.877234 58.243752 31 22 22
15.188403 -2.748519 58.176865 30 22 21
15.171687 -2.620223 58.112839 29 21 19
15.155729 -2.492327 58.051712 28 21 19
15.140537 -2.364814 57.993523 29 20 20
15.126110 -2.237665 57.938259 28 20 20
15.112452 -2.110862 57.885944 28 20 20
15.099564 -1.984386 57.836582 27 19 20
15.087448 -1.858218 57.790173 27 19 19
15.076119 -1.732340 57.746777 26 18 19
15.065588 -1.606734 57.706440 26 18 18
15.055879 -1.481383 57.669250 26 19 18
15.047012 -1.356268 57.635292 25 19 17
15.039019 -1.231372 57.604671 25 18 17
15.031921 -1.106673 57.577488 24 18 16
15.025750 -0.982152 57.553848 24 18 16
15.020521 -0.857786 57.533821 23 18 17
15.016250 -0.733554 57.517460 23 18 17
15.012939 -0.609432 57.504776 24 17 17
15.010575 -0.485394 57.495724 24 17 17
15.009135 -0.361418 57.490208 24 17 17
15.008573 -0.237480 57.488052 24 17 17
15.008826 -0.113557 57.489025 24 17 17
15.009816 0.010371 57.492817 24 18 18
15.011443 0.134320 57.499046 24 18 18
15.013593 0.258306 57.507278 25 18 18
15.016132 0.382337 57.517010 26 18 18
15.018927 0.506419 57.527710 28 18 17
15.021824 0.630551 57.538807 29 17 17
15.024680 0.754728 57.549747 31 17 17
15.027343 0.878942 57.559948 32 17 17
15.029682 1.003178 57.568909 34 17 18
15.031568 1.127418 57.576130 37 18 19
15.032899 1.251644 57.581230 39 19 19
15.033589 1.375833 57.583874 41 21 21
15.033586 1.499964 57.583858 44 22 23
15.032856 1.624017 57.581066 45 22 23
15.031404 1.747973 57.575504 47 22 23
15.029259 1.871819 57.567287 49 21 23
15.026474 1.995545 57.556618 52 19 22
15.023133 2.119147 57.543827 57 18 22
15.019333 2.242624 57.529266 63 17 21
15.015190 2.365985 57.513397 70 16 22
15.010822 2.489240 57.496670 78 17 24
15.006357 2.612406 57.479568 87 20 27
15.001913 2.735503 57.462543 95 23 30
14.997600 2.858550 57.446022 102 27 34
14.993509 2.981571 57.430351 108 28 35
14.989720 3.104587 57.415840 111 27 35
14.986283 3.227616 57.402676 114 28 36
14.983228 3.350673 57.390972 117 30 38
14.980558 3.473770 57.380749 123 35 44
14.978260 3.596912 57.371944 130 42 53
14.976297 3.720099 57.364426 136 48 64
14.974616 3.843326 57.357986 138 50 71
14.973158 3.966584 57.352402 137 48 75
14.971855 4.089860 57.347412 157 68 98
14.970643 4.213141 57.342766 196 110 139
14.969459 4.336410 57.338230 211 122 147
14.968257 4.459653 57.333630 194 103 122
14.967003 4.582861 57.328823 180 89 101
14.965683 4.706028 57.323772 172 77 84
14.964304 4.829154 57.318489 166 70 73
14.962893 4.952246 57.313080 172 77 79
14.961494 5.075319 57.307724 179 89 90
14.960173 5.198396 57.302662 184 98 101
14.959005 5.321506 57.298195 187 107 111
14.958077 5.444684 57.294636 194 118 126
14.957477 5.567968 57.292336 202 130 140
14.957294 5.691401 57.291634 205 136 150
14.957610 5.815026 57.292847 204 136 153
14.958495 5.938881 57.296238 198 131 150
14.960007 6.063005 57.302029 191 125 146
14.962178 6.187428 57.310345 186 121 144
14.965029 6.312171 57.321266 181 117 141
14.968555 6.437253 57.334770 174 110 137
14.972731 6.562678 57.350765 172 108 137
14.977514 6.688443 57.369087 179 116 145
14.982849 6.814538 57.389523 190 127 156
14.988664 6.940943 57.411793 188 125 153
14.994881 7.067634 57.435608 173 110 137
15.001423 7.194583 57.460663 168 106 131
15.008209 7.321760 57.486660 190 132 152
15.015163 7.449131 57.513298 215 164 179
15.022223 7.576672 57.540340 217 164 177
15.029337 7.704356 57.567585 206 145 159
15.036462 7.832163 57.594879 197 132 148
15.043576 7.960083 57.622128 191 125 142
15.050671 8.088109 57.649300 185 120 139
15.057746 8.216243 57.676403 184 120 141
15.064819 8.344492 57.703499 190 128 149
15.071919 8.472872 57.730694 192 132 153
15.079075 8.601401 57.758099 181 124 143
15.086319 8.730101 57.785847 172 117 134
15.093688 8.858993 57.814075 183 130 146
15.101213 8.988098 57.842896 203 151 166
15.108914 9.117436 57.872395 218 164 180
15.116804 9.247016 57.902618 221 165 182
15.124883 9.376842 57.933559 216 157 175
15.133129 9.506908 57.965145 204 144 163
15.141512 9.637197 57.997253 188 127 146
15.149975 9.767676 58.029675 174 113 133
15.158450 9.898303 58.062134 171 111 130
15.910506 -7.546278 60.443691 228 126 144
15.898299 -7.410292 60.397316 216 114 131
15.886474 -7.274681 60.352394 206 104 120
15.874946 -7.139397 60.308598 202 101 113
15.863627 -7.004395 60.265598 214 115 123
15.852431 -6.869630 60.223068 234 142 145
15.841272 -6.735065 60.180672 241 153 151
15.830057 -6.600660 60.138069 230 139 133
15.818701 -6.466380 60.094925 211 119 113
15.807112 -6.332193 60.050896 184 97 93
15.795198 -6.198069 60.005638 143 63 63
15.782876 -6.063982 59.958828 113 39 44
15.770060 -5.929913 59.910141 105 37 47
15.756672 -5.795842 59.859276 104 42 54
15.742640 -5.661759 59.805973 101 42 56
15.727909 -5.527660 59.750008 96 39 53
15.712429 -5.393545 59.691200 90 36 49
15.696175 -5.259425 59.629448 86 34 45
15.679131 -5.125312 59.564701 81 33 41
15.661310 -4.991231 59.496998 75 32 37
15.642740 -4.857210 59.426453 70 31 35
15.623472 -4.723281 59.353256 65 30 32
15.603577 -4.589484 59.277672 60 29 30
15.583140 -4.455858 59.200035 56 28 28
15.562268 -4.322445 59.120743 53 27 27
15.541077 -4.189288 59.040234 50 26 26
15.519688 -4.056427 58.958981 47 26 26
15.498229 -3.923898 58.877457 46 26 26
15.476828 -3.791735 58.796158 44 25 26
15.455607 -3.659965 58.715542 42 25 25
15.434682 -3.528610 58.636044 40 24 25
15.414152 -3.397686 58.558052 38 24 24
15.394112 -3.267201 58.481918 36 23 24
15.374634 -3.137159 58.407925 34 23 23
15.355781 -3.007559 58.336300 34 23 23
15.337596 -2.878393 58.267220 33 23 22
15.320117 -2.749651 58.200813 31 22 21
15.303363 -2.621320 58.137165 29 21 19
15.287349 -2.493384 58.076328 29 21 19
15.272081 -2.365826 58.018330 28 20 19
15.257567 -2.238628 57.963192 28 19 20
15.243810 -2.111773 57.910923 28 19 20
15.230814 -1.985243 57.861553 28 19 20
15.218587 -1.859019 57.815105 28 18 19
15.207146 -1.733086 57.771641 27 18 19
15.196508 -1.607424 57.731228 27 19 18
15.186696 -1.482018 57.693951 26 19 18
15.177738 -1.356848 57.659920 26 19 17
15.169664 -1.231897 57.629250 25 19 16
15.162506 -1.107145 57.602055 24 19 16
15.156287 -0.982571 57.578426 23 18 17
15.151031 -0.858154 57.558456 23 18 17
15.146754 -0.733870 57.542213 23 18 17
15.143456 -0.609696 57.529682 23 17 17
15.141129 -0.485606 57.520847 23 17 17
15.139746 -0.361578 57.515587 23 17 17
15.139261 -0.237586 57.513744 23 17 17
15.139613 -0.113608 57.515087 23 17 16
15.140721 0.010376 57.519295 23 18 17
15.142484 0.134383 57.525990 24 18 17
15.144783 0.258429 57.534725 25 18 17
15.147491 0.382523 57.545010 26 18 17
15.150462 0.506670 57.556297 27 18 16
15.153550 0.630871 57.568027 28 17 16
15.156603 0.755120 57.579628 30 17 17
15.159473 0.879409 57.590534 32 17 17
15.162023 1.003723 57.600220 34 17 18
15.164124 1.128046 57.608200 37 17 19
15.165668 1.252358 57.614067 39 18 20
15.166572 1.376636 57.617500 41 19 21
15.166779 1.500861 57.618286 43 21 22
15.166258 1.625010 57.616306 45 21 22
15.165006 1.749067 57.611549 47 21 22
15.163052 1.873017 57.604126 50 21 22
15.160450 1.996850 57.594242 53 20 22
15.157281 2.120560 57.582203 58 18 21
15.153641 2.244149 57.568375 64 16 20
15.149643 2.367622 57.553188 70 15 20
15.145407 2.490990 57.537094 78 15 22
15.141054 2.614269 57.520561 88 18 25
15.136707 2.737478 57.504044 98 22 29
15.132469 2.860636 57.487946 105 25 33
15.128433 2.983765 57.472614 111 28 36
15.124678 3.106885 57.458344 115 29 37
15.121251 3.230014 57.445328 118 30 38
15.118182 3.353166 57.433670 121 33 42
15.115477 3.476351 57.423389 126 40 49
15.113118 3.599575 57.414429 131 47 60
15.111069 3.722836 57.406643 135 55 71
15.109281 3.846131 57.399849 133 56 78
15.107690 3.969448 57.393810 130 54 82
15.106232 4.092774 57.388271 157 85 116
15.104844 4.216096 57.382996 211 146 178
15.103465 4.339399 57.377758 234 166 195
15.102052 4.462668 57.372391 223 151 175
15.100572 4.585895 57.366768 211 139 157
15.099012 4.709072 57.360844 188 105 117
15.097383 4.832201 57.354652 164 71 80
15.095712 4.955289 57.348305 158 66 74
15.094048 5.078353 57.341984 162 74 80
15.092456 5.201415 57.335934 168 83 91
15.091013 5.324502 57.330452 174 95 104
15.089809 5.447653 57.325878 183 109 120
15.088932 5.570904 57.322548 196 125 138
15.088473 5.694299 57.320805 209 141 156
15.088514 5.817880 57.320961 215 148 166
15.089127 5.941685 57.323284 208 142 162
15.090365 6.065753 57.327995 195 131 151
15.092267 6.190113 57.335217 187 123 144
15.094851 6.314789 57.345032 182 119 141
15.098109 6.439795 57.357414 179 115 140
15.102022 6.565139 57.372276 177 113 141
15.106545 6.690818 57.389462 183 119 149
15.111622 6.816821 57.408745 192 129 160
15.117181 6.943128 57.429867 191 128 159
15.123146 7.069716 57.452526 176 113 141
15.129440 7.196558 57.476437 160 99 123
15.135983 7.323623 57.501289 168 110 129
15.142700 7.450882 57.526814 199 145 159
15.149529 7.578306 57.552750 222 166 177
15.156416 7.705873 57.578918 218 156 166
15.163326 7.833563 57.605171 198 133 144
15.170232 7.961365 57.631405 184 118 132
15.177127 8.089273 57.657597 180 115 132
15.184014 8.217291 57.683762 185 120 140
15.190908 8.345425 57.709953 192 128 149
15.197840 8.473693 57.736286 190 128 150
15.204835 8.602110 57.762859 175 115 137
15.211930 8.730700 57.789814 161 103 124
15.219161 8.859485 57.817284 167 111 129
15.226556 8.988484 57.845379 185 130 147
15.234138 9.117717 57.874180 203 148 164
15.241915 9.247193 57.903728 215 157 173
15.249888 9.376917 57.934017 211 152 168
15.258039 9.506881 57.964981 201 142 158
15.266330 9.637068 57.996475 190 131 148
15.274709 9.767447 58.028309 181 121 138
15.283104 9.897973 58.060204 175 115 132
16.045408 -7.548445 60.461044 225 127 144
16.033041 -7.412394 60.414448 217 118 134
16.021036 -7.276708 60.369209 212 114 127
16.009306 -7.141339 60.325005 206 107 117
15.997764 -7.006244 60.281513 209 110 116
15.986325 -6.871381 60.238415 225 129 131
15.974905 -6.736711 60.195381 241 149 146
15.963413 -6.602198 60.152081 239 149 143
15.951766 -6.467808 60.108192 226 135 130
15.939877 -6.333510 60.063393 200 111 109
15.927661 -6.199279 60.017361 158 73 76
15.915035 -6.065091 59.969784 127 47 56
15.901922 -5.930925 59.920376 125 49 64
15.888249 -5.796769 59.868855 133 62 81
15.873953 -5.662612 59.814983 135 68 89
15.858979 -5.528451 59.758560 125 60 81
15.843287 -5.394289 59.699432 111 47 66
15.826853 -5.260135 59.637501 101 40 55
15.809667 -5.126004 59.572742 93 37 48
15.791741 -4.991919 59.505199 86 36 42
15.773107 -4.857907 59.434982 78 34 38
15.753814 -4.724000 59.362282 72 32 34
15.733930 -4.590234 59.287357 66 31 31
15.713539 -4.456647 59.210526 60 29 28
15.692744 -4.323280 59.132168 56 28 27
15.671655 -4.190172 59.052696 53 27 27
15.650387 -4.057361 58.972557 50 26 27
15.629065 -3.924881 58.892216 48 26 27
15.607808 -3.792764 58.812115 46 26 27
15.586733 -3.661035 58.732700 44 26 26
15.565948 -3.529714 58.654381 42 25 25
15.545549 -3.398815 58.577515 40 25 25
15.525626 -3.268348 58.502445 38 24 24
15.506248 -3.138314 58.429424 36 23 23
15.487472 -3.008712 58.358677 35 23 23
15.469344 -2.879536 58.290367 33 23 22
15.451898 -2.750776 58.224628 31 22 20
15.435154 -2.622418 58.161533 30 21 19
15.419126 -2.494449 58.101139 29 20 18
15.403826 -2.366852 58.043484 29 19 19
15.389259 -2.239609 57.988598 29 19 19
15.375434 -2.112706 57.936501 29 19 19
15.362358 -1.986124 57.887230 28 19 19
15.350046 -1.859847 57.840836 28 18 19
15.338511 -1.733858 57.797375 28 18 18
15.327781 -1.608140 57.756939 28 19 18
15.317878 -1.482677 57.719624 27 19 18
15.308837 -1.357451 57.685555 26 19 17
15.300686 -1.232444 57.654842 25 19 16
15.293463 -1.107636 57.627625 24 19 17
15.287192 -0.983008 57.603996 23 18 17
15.281900 -0.858535 57.584057 23 18 17
15.277605 -0.734197 57.567871 23 18 17
15.274308 -0.609969 57.555447 23 18 17
15.271998 -0.485825 57.546745 23 17 17
15.270651 -0.361742 57.541668 22 17 17
15.270221 -0.237695 57.540047 22 17 17
15.270646 -0.113661 57.541649 23 18 17
15.271842 0.010380 57.546154 23 18 17
15.273710 0.134447 57.553192 24 18 18
15.276130 0.258553 57.562313 25 18 18
15.278971 0.382709 57.573017 26 18 17
15.282089 0.506921 57.584766 27 18 17
15.285334 0.631188 57.596992 28 18 16
15.288552 0.755507 57.609119 30 18 17
15.291595 0.879868 57.620586 32 17 17
15.294321 1.004257 57.630859 34 16 18
15.296603 1.128658 57.639458 36 16 19
15.298332 1.253051 57.645973 39 17 20
15.299420 1.377415 57.650074 41 18 21
15.299810 1.501727 57.651543 43 19 21
15.299467 1.625968 57.650249 45 20 21
15.298392 1.750119 57.646198 47 20 21
15.296608 1.874167 57.639477 50 20 21
15.294170 1.998099 57.630291 54 19 22
15.291156 2.121912 57.618935 59 18 21
15.287662 2.245606 57.605762 65 16 21
15.283795 2.369185 57.591194 72 14 20
15.279679 2.492661 57.575687 80 14 21
15.275433 2.616048 57.559685 90 17 24
15.271173 2.739363 57.543636 100 21 29
15.267007 2.862626 57.527935 109 26 35
15.263026 2.985859 57.512936 117 30 39
15.259302 3.109078 57.498905 121 32 40
15.255887 3.232303 57.486034 123 33 42
15.252809 3.355546 57.474434 125 38 46
15.250072 3.478817 57.464119 128 45 54
15.247656 3.602120 57.455017 132 54 65
15.245527 3.725453 57.446999 134 61 76
15.243637 3.848813 57.439873 131 64 84
15.241921 3.972187 57.433411 127 63 89
15.240316 4.095562 57.427364 151 90 121
15.238762 4.218926 57.421505 202 146 180
15.237197 4.342261 57.415607 231 174 205
15.235580 4.465556 57.409519 232 173 200
15.233880 4.588799 57.403107 229 171 191
15.232089 4.711987 57.396362 210 140 155
15.230215 4.835120 57.389297 183 101 112
15.228289 4.958205 57.382042 161 77 86
15.226363 5.081258 57.374786 149 64 72
15.224503 5.204303 57.367775 151 69 78
15.222791 5.327369 57.361320 159 82 93
15.221310 5.450490 57.355743 169 96 109
15.220158 5.573709 57.351402 184 115 130
15.219419 5.697062 57.348621 205 138 155
15.219183 5.820596 57.347729 222 157 174
15.219517 5.944349 57.348988 218 155 173
15.220478 6.068357 57.352612 203 140 159
15.222105 6.192652 57.358738 192 130 149
15.224413 6.317256 57.367439 185 123 144
15.227398 6.442183 57.378685 180 118 141
15.231038 6.567442 57.392399 179 116 143
15.235290 6.693028 57.408421 184 120 152
15.240097 6.818933 57.426537 192 128 161
15.245392 6.945138 57.446487 190 127 159
15.251095 7.071617 57.467976 177 115 145
15.257130 7.198346 57.490715 161 100 126
15.263420 7.325295 57.514420 156 95 117
15.269889 7.452434 57.538795 173 113 131
15.276477 7.579737 57.563622 204 143 157
15.283133 7.707181 57.588699 218 155 166
15.289816 7.834748 57.613884 206 141 151
15.296507 7.962427 57.639095 190 124 136
15.303196 8.090214 57.664303 183 117 131
15.309888 8.218110 57.689518 181 114 132
15.316598 8.346127 57.714802 183 118 136
15.323355 8.474277 57.740261 184 121 141
15.330189 8.602580 57.766014 174 113 134
15.337132 8.731056 57.792175 162 102 123
15.344222 8.859731 57.818893 162 104 124
15.351486 8.988622 57.846264 175 117 137
15.358946 9.117747 57.874371 191 133 151
15.366611 9.247118 57.903259 201 141 158
15.374479 9.376737 57.932907 199 139 156
15.382531 9.506597 57.963245 195 135 150
15.390730 9.636680 57.994141 191 131 147
15.399023 9.766955 58.025387 187 127 143
15.407336 9.897378 58.056713 181 121 137
16.167559 -7.414359 60.430462 209 114 129
16.155348 -7.278590 60.384823 207 112 125
16.143389 -7.143128 60.340118 204 109 119
16.131594 -7.007931 60.296028 204 108 114
16.119879 -6.872959 60.252243 215 119 121
16.108162 -6.738174 60.208450 233 139 137
16.096357 -6.603542 60.164326 241 153 149
16.084383 -6.469032 60.119572 240 158 155
16.072159 -6.334617 60.073879 218 137 139
16.059605 -6.200271 60.026955 170 88 96
16.046644 -6.065973 59.978508 138 55 69
16.033203 -5.931707 59.928276 146 67 88
16.019220 -5.797462 59.876007 174 104 128
16.004637 -5.663228 59.821495 188 127 149
15.989401 -5.529005 59.764549 175 115 135
15.973484 -5.394797 59.705055 151 85 105
15.956861 -5.260613 59.642925 129 62 79
15.939530 -5.126469 59.578148 112 49 60
15.921506 -4.992387 59.510773 97 41 46
15.902818 -4.858392 59.440922 86 36 38
15.883516 -4.724516 59.368778 78 34 34
15.863667 -4.590793 59.294582 71 32 31
15.843352 -4.457259 59.218655 64 31 30
15.822668 -4.323951 59.141342 59 29 29
15.801719 -4.190906 59.063038 55 28 28
15.780618 -4.058160 58.984169 53 27 28
15.759479 -3.925744 58.905155 51 27 28
15.738416 -3.793687 58.826427 48 27 28
15.717538 -3.662013 58.748390 46 27 27
15.696947 -3.530740 58.671425 44 26 26
15.676737 -3.399881 58.595882 41 25 25
15.656985 -3.269443 58.522060 39 24 24
15.637761 -3.139430 58.450203 38 24 24
15.619119 -3.009839 58.380520 37 24 24
15.601099 -2.880663 58.313168 35 23 22
15.583735 -2.751893 58.248268 33 22 21
15.567048 -2.623517 58.185894 31 21 19
15.551053 -2.495521 58.126110 29 20 18
15.535760 -2.367890 58.068951 29 19 19
15.521180 -2.240608 58.014450 29 20 19
15.507321 -2.113659 57.962650 29 20 19
15.494198 -1.987029 57.913601 29 19 19
15.481825 -1.860699 57.867352 28 19 19
15.470221 -1.734656 57.823978 28 19 19
15.459414 -1.608882 57.783581 28 19 19
15.449435 -1.483362 57.746284 28 19 18
15.440317 -1.358078 57.712208 27 19 17
15.432096 -1.233014 57.681480 25 19 17
15.424809 -1.108148 57.654240 24 19 17
15.418485 -0.983462 57.630600 24 19 17
15.413153 -0.858932 57.610668 24 18 18
15.408827 -0.734537 57.594501 24 18 17
15.405513 -0.610251 57.582115 23 18 17
15.403203 -0.486051 57.573479 22 18 17
15.401870 -0.361910 57.568501 23 18 17
15.401471 -0.237806 57.567005 23 18 18
15.401941 -0.113714 57.568764 23 19 18
15.403199 0.010385 57.573467 24 19 18
15.405141 0.134511 57.580723 24 19 18
15.407649 0.258678 57.590099 25 18 18
15.410590 0.382896 57.601089 26 18 18
15.413818 0.507171 57.613159 27 18 17
15.417184 0.631503 57.625740 28 18 17
15.420532 0.755889 57.638256 30 18 17
15.423711 0.880319 57.650135 32 17 18
15.426579 1.004780 57.660858 33 16 18
15.429008 1.129255 57.669933 35 16 19
15.430887 1.253725 57.676956 37 17 20
15.432128 1.378168 57.681595 39 17 21
15.432670 1.502563 57.683620 42 18 21
15.432481 1.626889 57.682915 44 19 21
15.431553 1.751129 57.679447 46 19 21
15.429917 1.875267 57.673332 50 20 21
15.427622 1.999294 57.664753 55 19 22
15.424742 2.123204 57.653988 61 18 22
15.421375 2.246995 57.641403 67 17 21
15.417629 2.370675 57.627403 74 14 21
15.413622 2.494252 57.612423 81 14 21
15.409472 2.617740 57.596909 90 16 23
15.405295 2.741156 57.581303 103 21 30
15.401197 2.864520 57.565987 114 27 37
15.397269 2.987850 57.551300 123 32 42
15.393577 3.111166 57.537502 128 35 44
15.390177 3.234482 57.524792 129 37 46
15.387093 3.357813 57.513264 131 41 49
15.384325 3.481166 57.502922 133 49 58
15.381862 3.604546 57.493713 135 58 68
15.379661 3.727949 57.485485 135 65 79
15.377674 3.851371 57.478062 132 70 88
15.375842 3.974801 57.471214 130 72 96
15.374099 4.098225 57.464695 142 86 116
15.372384 4.221629 57.458290 172 118 150
15.370642 4.344996 57.451775 201 145 177
15.368828 4.468316 57.444996 214 157 185
15.366916 4.591577 57.437847 215 158 179
15.364896 4.714774 57.430298 215 155 171
15.362782 4.837908 57.422401 211 148 158
15.360609 4.960989 57.414272 187 115 122
15.358424 5.084033 57.406109 155 75 82
15.356298 5.207060 57.398163 142 64 72
15.354313 5.330101 57.390743 146 72 83
15.352557 5.453193 57.384182 156 85 99
15.351127 5.576375 57.378834 169 101 118
15.350109 5.699686 57.375031 190 125 142
15.349591 5.823171 57.373093 212 148 166
15.349642 5.946867 57.373283 214 152 169
15.350321 6.070814 57.375820 207 146 162
15.351665 6.195039 57.380844 205 144 161
15.353691 6.319567 57.388420 197 137 155
15.356395 6.444411 57.398521 183 123 144
15.359755 6.569580 57.411083 177 116 140
15.363729 6.695071 57.425938 179 118 145
15.368261 6.820874 57.442879 185 124 153
15.373283 6.946970 57.461647 185 124 153
15.378717 7.073338 57.481960 176 116 144
15.384487 7.199950 57.503529 163 104 129
15.390517 7.326778 57.526062 150 91 113
15.396735 7.453795 57.549305 150 91 109
15.403079 7.580975 57.573017 176 115 130
15.409496 7.708293 57.597008 204 142 154
15.415953 7.835734 57.621140 212 148 159
