ply
format ascii 1.0
element vertex 1180
property float x
property float y
property float z
property uchar red
property uchar green
property uchar blue
end_header
2.859356 -7.042068 57.396126 254 141 172
2.856850 -6.912278 57.345818 254 137 168
2.854369 -6.782764 57.296013 254 135 166
2.851902 -6.653499 57.246506 254 139 171
2.849439 -6.524454 57.197056 254 145 178
2.846965 -6.395598 57.147392 254 147 181
2.844466 -6.266903 57.097237 254 145 181
2.841931 -6.138344 57.046345 254 145 181
2.839347 -6.009903 56.994484 254 146 184
2.836707 -5.881568 56.941490 254 146 186
2.834005 -5.753336 56.887249 254 142 184
2.831240 -5.625213 56.831745 254 135 178
2.828416 -5.497213 56.775051 254 136 181
2.825539 -5.369359 56.717312 254 151 196
2.822623 -5.241680 56.658768 254 158 203
2.819682 -5.114208 56.599735 254 145 189
2.816735 -4.986982 56.540592 254 132 174
2.813804 -4.860037 56.481762 254 126 163
2.810911 -4.733410 56.423687 254 121 154
2.808078 -4.607131 56.366810 254 120 150
2.805326 -4.481226 56.311565 254 129 157
2.802675 -4.355718 56.258350 254 146 173
2.800141 -4.230615 56.207481 254 165 193
2.797737 -4.105922 56.159229 255 178 206
2.795472 -3.981637 56.113773 254 173 203
2.793352 -3.857746 56.071213 254 153 185
2.791376 -3.734232 56.031555 254 133 169
2.789542 -3.611073 55.994732 252 123 162
2.787841 -3.488239 55.960598 252 122 165
2.786263 -3.365701 55.928928 253 133 177
2.784796 -3.243427 55.899460 254 156 197
2.783423 -3.121387 55.871902 253 159 196
2.782129 -2.999551 55.845928 246 123 155
2.780897 -2.877892 55.821213 236 90 116
2.779713 -2.756386 55.797443 237 97 119
2.778561 -2.635013 55.774323 247 138 157
2.777430 -2.513758 55.751610 254 174 191
2.776308 -2.392610 55.729080 254 187 201
2.775186 -2.271559 55.706570 254 189 201
2.774060 -2.150601 55.683964 254 189 198
2.772925 -2.029735 55.661190 254 195 202
2.771782 -1.908960 55.638233 254 209 216
2.770629 -1.788279 55.615097 254 225 229
2.769469 -1.667693 55.591820 254 235 237
2.768306 -1.547206 55.568462 253 238 238
2.767141 -1.426818 55.545086 251 239 237
2.765979 -1.306533 55.521763 251 242 240
2.764823 -1.186351 55.498547 253 247 246
2.763673 -1.066271 55.475475 253 249 247
2.762532 -0.946294 55.452568 251 248 246
2.761399 -0.826418 55.429825 251 248 247
2.760273 -0.706641 55.407230 252 251 250
2.759153 -0.586964 55.384731 253 253 251
2.758034 -0.467383 55.362274 253 254 251
2.756913 -0.347899 55.339783 251 253 251
2.755788 -0.228512 55.317188 248 250 248
2.754655 -0.109222 55.294445 246 248 245
2.753511 0.009970 55.271492 247 249 247
2.752357 0.129063 55.248329 250 252 250
2.751194 0.248055 55.224964 251 253 251
2.750023 0.366945 55.201462 253 254 253
2.748851 0.485733 55.177937 253 254 253
2.747686 0.604422 55.154549 253 254 254
2.746537 0.723014 55.131500 254 254 254
2.745419 0.841517 55.109058 254 254 254
2.744346 0.959938 55.087509 254 254 254
2.743334 1.078290 55.067192 254 254 254
2.742400 1.196589 55.048447 254 254 254
2.741563 1.314853 55.031651 251 251 251
2.740841 1.433105 55.017151 251 251 251
2.740250 1.551370 55.005302 252 252 252
2.739806 1.669672 54.996387 253 253 253
2.739522 1.788040 54.990681 254 254 254
2.739407 1.906502 54.988377 255 255 255
2.739468 2.025083 54.989594 254 254 254
2.739707 2.143809 54.994389 254 254 254
2.740121 2.262700 55.002708 254 254 254
2.740705 2.381775 55.014427 253 253 253
2.741447 2.501045 55.029335 250 250 250
2.742333 2.620516 55.047108 249 249 249
2.743343 2.740188 55.067383 250 251 251
2.744455 2.860053 55.089691 253 254 254
2.745642 2.980097 55.113537 254 254 254
2.746879 3.100298 55.138351 254 254 254
2.748134 3.220629 55.163551 254 254 254
2.749378 3.341055 55.188522 253 253 253
2.750581 3.461537 55.212669 253 253 253
2.751714 3.582031 55.235405 254 254 254
2.752748 3.702491 55.256161 254 254 254
2.753658 3.822868 55.274426 254 254 254
2.754421 3.943114 55.289749 254 254 254
2.755018 4.063180 55.301735 254 254 254
2.755434 4.183024 55.310085 254 254 254
2.755657 4.302602 55.314564 255 255 255
2.755681 4.421880 55.315048 254 254 254
2.755504 4.540829 55.311497 255 255 255
2.755129 4.659427 55.303955 254 254 254
2.754561 4.777660 55.292572 254 254 254
2.753815 4.895525 55.277592 254 254 254
2.752905 5.013028 55.259323 254 254 254
2.751851 5.130183 55.238163 254 254 254
2.750676 5.247016 55.214577 254 254 254
2.749406 5.363563 55.189079 254 254 254
2.748069 5.479865 55.162235 254 254 254
2.746694 5.595976 55.134651 254 254 254
2.745313 5.711954 55.106926 254 254 254
2.743957 5.827866 55.079700 254 254 254
2.742656 5.943779 55.053581 253 253 253
2.741440 6.059769 55.029179 254 254 254
2.740337 6.175909 55.007050 254 254 254
2.739375 6.292274 54.987728 249 249 249
2.738575 6.408938 54.971676 245 245 245
2.737959 6.525969 54.959301 250 250 250
2.737541 6.643430 54.950924 254 254 254
2.737335 6.761377 54.946789 254 254 254
2.737348 6.879856 54.947052 254 254 254
2.737584 6.998906 54.951782 254 254 254
2.738040 7.118549 54.960934 254 254 254
2.738710 7.238798 54.974388 254 254 254
2.739583 7.359650 54.991913 252 253 253
2.740644 7.481090 55.013206 252 252 252
2.741873 7.603086 55.037868 253 254 254
2.743246 7.725595 55.065426 254 254 254
2.744737 7.848562 55.095360 254 252 253
2.746317 7.971917 55.127083 254 246 248
2.747956 8.095580 55.159977 254 241 246
2.749621 8.219464 55.193405 254 240 248
2.751281 8.343476 55.226727 254 239 249
2.752904 8.467519 55.259304 254 237 248
2.754460 8.591494 55.290543 254 236 247
2.755921 8.715300 55.319855 254 232 242
2.757260 8.838844 55.346745 253 222 232
2.758456 8.962039 55.370750 250 214 222
2.759490 9.084803 55.391499 250 213 220
2.760347 9.207066 55.408699 252 216 222
2.761016 9.328770 55.422134 252 216 221
2.761492 9.449870 55.431690 252 217 222
2.761773 9.570335 55.437325 253 225 230
2.761860 9.690145 55.439075 254 235 240
2.761760 9.809297 55.437061 254 241 246
2.761481 9.927796 55.431458 254 239 245
2.761034 10.045663 55.422489 254 231 238
2.760433 10.162923 55.410431 254 229 236
2.759693 10.279612 55.395569 254 232 239
2.758829 10.395770 55.378227 254 236 244
2.757856 10.511438 55.358696 254 238 246
2.756788 10.626658 55.337269 254 232 241
2.755640 10.741472 55.314224 254 222 233
2.754424 10.855916 55.289806 254 218 231
2.753149 10.970023 55.264214 254 219 233
2.751824 11.083818 55.237625 254 217 232
2.750457 11.197327 55.210182 254 214 229
2.749053 11.310563 55.181992 254 207 223
2.747616 11.423544 55.153156 254 202 218
2.746151 11.536280 55.123741 254 198 217
2.744660 11.648781 55.093819 254 194 215
2.743148 11.761060 55.063457 254 188 211
2.741617 11.873132 55.032745 254 181 206
2.740075 11.985016 55.001774 254 177 204
2.738524 12.096731 54.970646 254 174 200
2.736972 12.208307 54.939499 252 169 195
2.735426 12.319777 54.908470 247 164 188
2.733895 12.431175 54.877720 240 160 183
2.732384 12.542540 54.847401 234 158 178
2.730903 12.653911 54.817677 223 155 172
2.729460 12.765326 54.788692 207 148 161
2.728059 12.876821 54.760574 191 142 152
2.726706 12.988424 54.733433 194 154 163
2.725406 13.100162 54.707333 220 190 196
2.724159 13.212043 54.682297 246 225 230
2.722965 13.324078 54.658333 254 242 245
2.721823 13.436262 54.635395 254 249 250
2.720727 13.548584 54.613411 253 251 252
2.719673 13.661018 54.592258 252 251 251
2.718655 13.773540 54.571808 253 252 252
2.987605 -7.300573 57.483139 254 138 168
2.984978 -7.170349 57.432598 255 141 171
2.982390 -7.040433 57.382793 254 143 173
2.979835 -6.910808 57.333622 254 140 171
2.977303 -6.781450 57.284912 254 139 170
2.974785 -6.652332 57.236469 254 142 175
2.972268 -6.523426 57.188042 254 146 179
2.969737 -6.394698 57.139343 254 145 179
2.967178 -6.266121 57.090115 254 144 178
2.964578 -6.137670 57.040077 254 144 179
2.961924 -6.009327 56.989021 254 145 181
2.959209 -5.881081 56.936771 254 145 182
2.956425 -5.752928 56.883213 254 143 182
2.953573 -5.624874 56.828327 254 140 181
2.950655 -5.496936 56.772190 254 143 186
2.947680 -5.369135 56.714947 254 160 204
2.944660 -5.241502 56.656853 254 169 212
2.941613 -5.114071 56.598221 254 157 199
2.938558 -4.986881 56.539448 254 140 179
2.935519 -4.859968 56.480961 254 134 170
2.932517 -4.733369 56.423210 254 135 168
2.929577 -4.607117 56.366646 254 131 162
2.926722 -4.481238 56.311718 254 125 154
2.923973 -4.355753 56.258812 254 133 163
2.921346 -4.230675 56.208282 254 152 182
2.918857 -4.106007 56.160381 254 163 193
2.916515 -3.981746 56.115314 254 159 192
2.914324 -3.857881 56.073174 254 143 180
2.912287 -3.734393 56.033962 254 124 165
2.910398 -3.611259 55.997620 254 116 162
2.908650 -3.488451 55.963997 254 119 169
2.907033 -3.365939 55.932877 254 123 174
2.905531 -3.243690 55.903988 254 125 172
2.904130 -3.121674 55.877029 254 119 162
2.902813 -2.999860 55.851681 253 108 145
2.901562 -2.878222 55.827610 253 105 134
2.900361 -2.756735 55.804504 254 114 137
2.899194 -2.635379 55.782059 254 141 159
2.898049 -2.514138 55.760025 254 170 187
2.896914 -2.393001 55.738186 254 189 204
2.895780 -2.271959 55.716377 254 197 209
2.894642 -2.151007 55.694477 254 194 203
2.893496 -2.030144 55.672428 254 194 202
2.892341 -1.909371 55.650200 254 207 214
2.891178 -1.788688 55.627815 254 221 226
2.890008 -1.668098 55.605320 254 230 234
2.888836 -1.547604 55.582764 254 236 237
2.887665 -1.427207 55.560226 254 237 237
2.886497 -1.306910 55.537769 254 238 238
2.885338 -1.186712 55.515457 254 241 241
2.884187 -1.066614 55.493320 254 244 243
2.883047 -0.946615 55.471386 253 246 244
2.881917 -0.826713 55.449642 253 248 247
2.880795 -0.706907 55.428059 253 250 248
2.879679 -0.587195 55.406574 252 251 248
2.878564 -0.467576 55.385124 251 252 248
2.877446 -0.348049 55.363617 249 250 247
2.876321 -0.228614 55.341972 246 248 245
2.875185 -0.109273 55.320122 243 245 242
2.874035 0.009975 55.297989 244 245 243
2.872869 0.129126 55.275555 249 250 249
2.871688 0.248180 55.252827 252 253 252
2.870494 0.367133 55.229858 253 253 253
2.869293 0.485987 55.206757 253 253 253
2.868094 0.604741 55.183670 253 254 254
2.866906 0.723399 55.160824 254 254 254
2.865744 0.841966 55.138470 254 254 254
2.864625 0.960450 55.116932 254 254 254
2.863566 1.078865 55.096550 254 254 253
2.862586 1.197224 55.077690 253 253 252
2.861705 1.315548 55.060741 250 250 250
2.860942 1.433859 55.046074 249 249 249
2.860318 1.552181 55.034058 251 251 251
2.859848 1.670541 55.025021 252 252 252
2.859547 1.788968 55.019230 253 253 253
2.859426 1.907491 55.016903 254 254 254
2.859493 2.026136 55.018185 254 254 254
2.859749 2.144928 55.023113 254 254 254
2.860193 2.263892 55.031670 254 254 254
2.860820 2.383043 55.043713 254 254 254
2.861615 2.502394 55.059025 253 253 253
2.862565 2.621953 55.077293 251 251 251
2.863647 2.741717 55.098122 251 251 251
2.864839 2.861681 55.121048 253 254 254
2.866112 2.981827 55.145538 254 254 254
2.867437 3.102136 55.171028 254 254 254
2.868782 3.222577 55.196907 254 254 254
2.870114 3.343115 55.222542 254 254 254
2.871402 3.463710 55.247330 254 254 254
2.872614 3.584317 55.270653 254 254 254
2.873721 3.704888 55.291943 254 254 254
2.874695 3.825375 55.310677 254 254 254
2.875512 3.945727 55.326401 254 254 254
2.876152 4.065897 55.338718 254 254 254
2.876599 4.185840 55.347317 254 254 254
2.876841 4.305512 55.351978 254 254 254
2.876873 4.424881 55.352585 254 254 254
2.876691 4.543916 55.349094 254 254 254
2.876301 4.662596 55.341576 254 254 254
2.875708 4.780910 55.330181 254 254 254
2.874928 4.898853 55.315170 254 254 254
2.873976 5.016433 55.296860 254 254 254
2.872875 5.133666 55.275661 254 254 254
2.871647 5.250577 55.252045 254 254 254
2.870321 5.367202 55.226532 254 254 254
2.868927 5.483586 55.199696 254 254 254
2.867495 5.599782 55.172142 254 254 254
2.866057 5.715847 55.144478 253 253 253
2.864646 5.831848 55.117332 253 253 253
2.863294 5.947854 55.091320 254 254 254
2.862032 6.063939 55.067047 254 254 254
2.860889 6.180176 55.045055 254 254 254
2.859893 6.296641 55.025883 247 247 247
2.859066 6.413403 55.009972 242 242 242
2.858429 6.530531 54.997726 248 248 248
2.858000 6.648089 54.989464 254 254 254
2.857790 6.766130 54.985416 254 254 254
2.857806 6.884700 54.985733 254 254 254
2.858053 7.003835 54.990475 254 254 254
2.858526 7.123555 54.999584 254 254 254
2.859220 7.243875 55.012939 253 253 253
2.860123 7.364789 55.030312 248 249 249
2.861218 7.486279 55.051373 246 248 247
2.862484 7.608316 55.075726 251 251 251
2.863896 7.730855 55.102909 254 252 252
2.865428 7.853836 55.132381 254 251 252
2.867048 7.977191 55.163555 254 244 248
2.868725 8.100841 55.195824 254 237 244
2.870426 8.224697 55.228542 254 238 247
2.872117 8.348666 55.261074 254 239 250
2.873765 8.472649 55.292778 254 238 250
2.875338 8.596546 55.323059 254 235 248
2.876808 8.720260 55.351341 253 222 235
2.878148 8.843695 55.377117 249 198 210
2.879334 8.966763 55.399940 244 183 194
2.880348 9.089386 55.419445 245 185 195
2.881173 9.211490 55.435322 247 194 202
2.881800 9.333020 55.447384 246 199 205
2.882221 9.453929 55.455494 245 204 210
2.882437 9.574187 55.459637 248 219 223
2.882447 9.693773 55.459831 253 236 239
2.882259 9.812687 55.456223 254 243 247
2.881883 9.930936 55.448986 253 238 242
2.881330 10.048538 55.438354 253 231 235
2.880616 10.165524 55.424610 254 232 237
2.879756 10.281931 55.408070 254 236 242
2.878768 10.397801 55.389046 254 236 243
2.877667 10.513181 55.367870 254 234 241
2.876471 10.628116 55.344856 254 225 233
2.875195 10.742652 55.320301 254 213 223
2.873853 10.856833 55.294476 254 211 224
2.872457 10.970698 55.267616 254 214 228
2.871017 11.084280 55.239925 255 212 227
2.869544 11.197610 55.211582 254 209 224
2.868044 11.310710 55.182713 254 203 220
2.866523 11.423605 55.153450 254 199 217
2.864986 11.536307 55.123875 254 196 216
2.863437 11.648836 55.094078 254 191 214
2.861882 11.761208 55.064148 254 184 210
2.860323 11.873437 55.034157 254 178 205
2.858766 11.985544 55.004200 254 172 201
2.857215 12.097549 54.974369 253 169 198
2.855677 12.209478 54.944767 250 166 193
2.854157 12.321357 54.915512 242 160 186
2.852659 12.433210 54.886707 233 156 179
2.851192 12.545072 54.858475 225 155 174
2.849759 12.656964 54.830906 214 154 168
2.848366 12.768918 54.804108 200 149 160
2.847017 12.880950 54.778137 192 150 158
2.845712 12.993078 54.753040 202 169 176
2.844454 13.105309 54.728825 227 203 209
2.843240 13.217643 54.705475 248 233 237
2.842068 13.330072 54.682922 254 248 249
2.840933 13.442581 54.661091 254 253 253
2.839830 13.555144 54.639858 249 249 249
2.838750 13.667731 54.619083 245 245 245
2.837687 13.780308 54.598625 246 247 246
3.110558 -7.298316 57.465370 254 143 170
3.107894 -7.168296 57.416157 254 144 173
3.105268 -7.038576 57.367653 254 145 175
3.102676 -6.909136 57.319752 254 146 176
3.100106 -6.779953 57.272274 254 146 176
3.097548 -6.651001 57.225018 254 147 179
3.094988 -6.522249 57.177723 254 147 180
3.092411 -6.393666 57.130123 254 145 179
3.089802 -6.265223 57.081924 254 145 179
3.087147 -6.136895 57.032875 254 144 178
3.084433 -6.008665 56.982738 254 143 178
3.081651 -5.880520 56.931339 254 143 178
3.078795 -5.752460 56.878582 254 145 181
3.075864 -5.624488 56.824429 254 146 184
3.072862 -5.496624 56.768970 254 150 190
3.069798 -5.368890 56.712353 254 160 201
3.066684 -5.241316 56.654835 254 168 208
3.063540 -5.113938 56.596741 254 165 203
3.060385 -4.986794 56.538467 254 153 190
3.057245 -4.859924 56.480450 254 150 184
3.054143 -4.733365 56.423149 254 159 191
3.051105 -4.607149 56.367031 254 153 183
3.048156 -4.481305 56.312550 254 134 163
3.045317 -4.355853 56.260094 254 131 161
3.042607 -4.230806 56.210030 254 141 172
3.040041 -4.106170 56.162621 254 150 182
3.037629 -3.981940 56.118053 254 154 189
3.035376 -3.858106 56.076443 254 144 183
3.033284 -3.734648 56.037800 254 120 165
3.031349 -3.611545 56.002048 254 108 157
3.029563 -3.488766 55.969048 254 112 166
3.027913 -3.366281 55.938568 254 117 172
3.026386 -3.244060 55.910355 255 111 163
3.024964 -3.122068 55.884090 254 103 151
3.023630 -3.000278 55.859447 254 104 145
3.022367 -2.878659 55.836094 254 107 140
3.021155 -2.757190 55.813709 254 113 139
3.019980 -2.635849 55.792004 254 134 155
3.018827 -2.514619 55.770702 254 166 183
3.017684 -2.393490 55.749596 254 193 207
3.016543 -2.272453 55.728512 254 204 215
3.015397 -2.151504 55.707348 254 198 208
3.014244 -2.030641 55.686035 254 196 205
3.013081 -1.909863 55.664558 254 207 214
3.011910 -1.789174 55.642929 254 218 225
3.010735 -1.668575 55.621208 254 225 231
3.009557 -1.548069 55.599453 254 232 235
3.008382 -1.427657 55.577740 254 232 235
3.007212 -1.307342 55.556137 254 232 234
3.006053 -1.187124 55.534718 254 235 237
3.004905 -1.067002 55.513512 254 238 239
3.003770 -0.946976 55.492538 254 240 241
3.002646 -0.827043 55.471779 254 244 244
3.001533 -0.707202 55.451202 253 247 245
3.000425 -0.587451 55.430744 252 248 245
2.999318 -0.467789 55.410297 251 248 244
2.998208 -0.348214 55.389778 246 246 243
2.997088 -0.228726 55.369091 243 244 241
2.995954 -0.109328 55.348137 241 243 239
2.994800 0.009980 55.326836 242 243 241
2.993626 0.129195 55.305138 248 249 248
2.992430 0.248315 55.283051 252 252 252
2.991216 0.367338 55.260612 252 252 252
2.989988 0.486261 55.237919 252 252 252
2.988754 0.605086 55.215126 253 254 254
2.987527 0.723814 55.192459 254 254 254
2.986321 0.842450 55.170177 254 254 254
2.985153 0.961002 55.148602 254 254 254
2.984043 1.079483 55.128101 253 253 253
2.983012 1.197906 55.109055 252 252 252
2.982082 1.316292 55.091866 250 250 250
2.981274 1.434663 55.076935 249 249 249
2.980608 1.553043 55.064648 249 250 250
2.980105 1.671462 55.055347 250 251 251
2.979780 1.789947 55.049335 251 252 251
2.979644 1.908528 55.046833 252 253 252
2.979707 2.027234 55.047997 252 253 252
2.979972 2.146089 55.052883 252 253 252
2.980437 2.265118 55.061474 253 253 253
2.981095 2.384338 55.073631 254 254 254
2.981934 2.503763 55.089130 253 253 253
2.982937 2.623399 55.107666 252 252 252
2.984082 2.743245 55.128822 252 252 252
2.985344 2.863294 55.152130 254 254 254
2.986692 2.983530 55.177036 254 254 254
2.988096 3.103931 55.202965 255 255 255
2.989520 3.224467 55.229282 254 254 254
2.990932 3.345102 55.255363 254 254 254
2.992296 3.465793 55.280556 254 254 254
2.993578 3.586496 55.304256 254 254 254
2.994749 3.707163 55.325882 254 254 254
2.995778 3.827742 55.344902 254 254 254
2.996641 3.948183 55.360836 254 254 254
2.997316 4.068439 55.373314 255 255 255
2.997787 4.188464 55.382015 254 254 254
2.998042 4.308215 55.386726 254 254 254
2.998075 4.427659 55.387329 254 254 254
2.997884 4.546765 55.383804 254 254 254
2.997474 4.665515 55.376221 254 254 254
2.996853 4.783896 55.364750 254 254 254
2.996035 4.901907 55.349648 254 254 254
2.995040 5.019553 55.331253 254 254 254
2.993888 5.136853 55.309978 254 254 254
2.992607 5.253834 55.286312 254 254 254
2.991225 5.370531 55.260773 254 254 254
2.989772 5.486989 55.233944 254 254 254
2.988282 5.603261 55.206417 254 254 254
2.986789 5.719406 55.178818 253 253 253
2.985324 5.835491 55.151768 253 253 253
2.983922 5.951583 55.125866 254 254 254
2.982615 6.067757 55.101719 254 254 254
2.981433 6.184085 55.079876 254 254 254
2.980403 6.300641 55.060844 250 250 250
2.979549 6.417495 55.045074 246 246 246
2.978893 6.534715 55.032955 250 250 250
2.978451 6.652361 55.024796 254 254 254
2.978236 6.770487 55.020824 254 254 254
2.978256 6.889138 55.021179 254 254 254
2.978511 7.008347 55.025902 254 254 254
2.979001 7.128136 55.034954 254 254 254
2.979718 7.248516 55.048191 252 252 252
2.980648 7.369481 55.065372 246 247 247
2.981774 7.491013 55.086182 244 246 245
2.983075 7.613079 55.110207 250 250 249
2.984524 7.735635 55.136982 254 249 250
2.986093 7.858621 55.165970 254 247 250
2.987750 7.981968 55.196587 254 243 248
2.989462 8.105595 55.228218 254 238 245
2.991194 8.229414 55.260216 254 239 247
2.992912 8.353329 55.291935 254 241 252
2.994581 8.477243 55.322769 254 238 252
2.996168 8.601057 55.352093 254 231 246
2.997643 8.724671 55.379349 252 208 224
2.998979 8.847993 55.404030 246 178 194
3.000151 8.970931 55.425690 244 166 181
3.001140 9.093407 55.443958 246 174 188
3.001930 9.215350 55.458557 244 183 195
3.002510 9.336702 55.469261 236 184 193
3.002873 9.457418 55.475967 230 186 193
3.003018 9.577468 55.478645 238 205 211
3.002947 9.696832 55.477329 249 233 236
3.002667 9.815507 55.472160 252 243 245
3.002188 9.933504 55.463322 248 230 233
3.001525 10.050841 55.451057 246 218 223
3.000691 10.167551 55.435665 249 225 230
2.999705 10.283672 55.417450 253 233 239
2.998586 10.399251 55.396767 254 229 237
2.997351 10.514337 55.373959 254 225 233
2.996019 10.628978 55.349346 254 220 229
2.994607 10.743228 55.323265 254 211 222
2.993132 10.857135 55.296009 254 210 223
2.991607 10.970743 55.267845 254 213 228
2.990046 11.084094 55.238998 254 212 227
2.988459 11.197224 55.209675 254 208 225
2.986855 11.310163 55.180038 254 206 223
2.985242 11.422940 55.150242 254 203 222
2.983626 11.535579 55.120392 254 198 220
2.982013 11.648100 55.090599 254 192 218
2.980408 11.760524 55.060944 254 188 216
2.978816 11.872870 55.031532 254 182 212
2.977241 11.985159 55.002434 253 174 205
2.975687 12.097409 54.973728 253 171 202
2.974160 12.209643 54.945511 250 168 197
2.972663 12.321883 54.917858 239 161 186
2.971201 12.434148 54.890842 229 157 178
2.969777 12.546460 54.864544 223 159 177
2.968395 12.658835 54.839008 213 160 173
2.967056 12.771288 54.814278 201 158 167
2.965761 12.883824 54.790359 200 166 174
2.964510 12.996448 54.767239 217 193 198
2.963299 13.109151 54.744869 238 223 228
2.962125 13.221920 54.723175 251 243 246
2.960981 13.334734 54.702045 254 252 253
2.959861 13.447565 54.681355 253 252 252
2.958756 13.560375 54.660942 245 244 245
2.957657 13.673126 54.640644 241 241 241
2.956556 13.785776 54.620293 242 243 242
3.233319 -7.295801 57.445564 254 146 173
3.230632 -7.166008 57.397823 254 146 174
3.227983 -7.036502 57.350758 254 147 176
3.225365 -6.907268 57.304256 254 148 178
3.222769 -6.778279 57.258129 254 149 179
3.220183 -6.649510 57.212189 254 149 180
3.217593 -6.520929 57.166157 254 149 181
3.214981 -6.392507 57.119766 254 148 180
3.212334 -6.264213 57.072723 254 147 179
3.209635 -6.136023 57.024773 254 146 177
3.206872 -6.007920 56.975677 254 142 174
3.204034 -5.879892 56.925262 254 141 174
3.201116 -5.751938 56.873421 255 145 178
3.198117 -5.624064 56.820141 254 148 183
3.195041 -5.496287 56.765484 254 151 187
3.191897 -5.368632 56.709629 254 156 193
3.188700 -5.241130 56.652828 254 159 196
3.185468 -5.113818 56.595409 254 162 197
3.182225 -4.986734 56.537785 254 161 193
3.178994 -4.859919 56.480385 254 159 190
3.175803 -4.733410 56.423695 254 163 193
3.172678 -4.607242 56.368168 254 156 186
3.169645 -4.481442 56.314278 254 140 169
3.166726 -4.356033 56.262424 254 132 160
3.163942 -4.231027 56.212963 254 131 160
3.161309 -4.106431 56.166180 254 139 171
3.158837 -3.982239 56.122261 254 151 186
3.156533 -3.858441 56.081318 254 144 182
3.154396 -3.735019 56.043365 254 118 161
3.152424 -3.611949 56.008331 254 101 149
3.150609 -3.489203 55.976067 254 103 155
3.148935 -3.366749 55.946342 254 107 160
3.147391 -3.244555 55.918900 254 103 155
3.145957 -3.122589 55.893414 254 99 148
3.144614 -3.000821 55.869560 254 101 145
3.143344 -2.879221 55.847000 254 102 139
3.142128 -2.757767 55.825401 254 106 136
3.140950 -2.636438 55.804470 254 125 148
3.139795 -2.515217 55.783947 254 153 173
3.138650 -2.394092 55.763599 254 179 194
3.137506 -2.273055 55.743271 254 192 203
3.136357 -2.152103 55.722855 254 192 202
3.135198 -2.031233 55.702278 254 194 202
3.134031 -1.910446 55.681534 254 204 211
3.132855 -1.789744 55.660648 254 214 221
3.131675 -1.669129 55.639679 254 219 226
3.130494 -1.548604 55.618694 254 225 230
3.129316 -1.428172 55.597775 254 227 231
3.128148 -1.307833 55.577007 254 227 231
3.126990 -1.187588 55.556442 254 230 233
3.125847 -1.067437 55.536133 254 233 235
3.124718 -0.947378 55.516083 254 236 237
3.123604 -0.827408 55.496284 254 239 239
3.122501 -0.707527 55.476688 253 241 240
3.121405 -0.587732 55.457211 252 242 240
3.120310 -0.468020 55.437759 250 243 239
3.119210 -0.348392 55.418213 245 243 237
3.118098 -0.228848 55.398464 241 242 237
3.116968 -0.109388 55.378391 241 242 238
3.115815 0.009986 55.357906 244 245 241
3.114635 0.129270 55.336941 247 249 246
3.113428 0.248461 55.315483 250 251 249
3.112194 0.367557 55.293564 251 251 250
3.110939 0.486555 55.271275 252 252 251
3.109672 0.605454 55.248756 253 253 252
3.108404 0.724257 55.226234 254 254 253
3.107152 0.842966 55.203979 254 254 253
3.105933 0.961590 55.182331 253 253 252
3.104769 1.080140 55.161648 252 252 251
3.103683 1.198630 55.142345 251 251 250
3.102697 1.317080 55.124836 249 250 249
3.101836 1.435512 55.109539 248 249 248
3.101123 1.553952 55.096870 248 249 248
3.100577 1.672428 55.087177 249 250 249
3.100218 1.790970 55.080791 250 251 250
3.100058 1.909607 55.077946 251 252 251
3.100107 2.028369 55.078819 250 251 250
3.100369 2.147281 55.083473 250 251 250
3.100843 2.266369 55.091896 252 253 251
3.101521 2.385651 55.103954 254 254 253
3.102392 2.505139 55.119419 254 254 253
3.103437 2.624842 55.137981 252 252 252
3.104633 2.744758 55.159229 252 252 252
3.105952 2.864880 55.182667 253 253 253
3.107364 2.985191 55.207752 254 254 254
3.108834 3.105669 55.233875 254 254 254
3.110327 3.226284 55.260403 254 254 254
3.111806 3.346997 55.286678 254 254 254
3.113235 3.467768 55.312057 254 254 254
3.114578 3.588549 55.335915 254 254 254
3.115802 3.709292 55.357662 254 254 254
3.116876 3.829945 55.376755 254 254 254
3.117776 3.950458 55.392735 254 254 254
3.118478 4.070782 55.405205 254 254 254
3.118965 4.190872 55.413864 254 254 254
3.119225 4.310686 55.418491 254 254 254
3.119253 4.430189 55.418991 254 254 254
3.119048 4.549354 55.415333 254 254 254
3.118613 4.668159 55.407608 254 254 254
3.117959 4.786597 55.395996 254 254 254
3.117102 4.904662 55.380760 254 254 254
3.116060 5.022366 55.362255 254 254 254
3.114858 5.139724 55.340897 255 255 255
3.113523 5.256766 55.317169 254 254 254
3.112084 5.373527 55.291611 254 255 254
3.110575 5.490054 55.264797 254 254 253
3.109028 5.606398 55.237324 253 254 253
3.107480 5.722618 55.209808 254 254 254
3.105963 5.838782 55.182869 253 253 253
3.104513 5.954956 55.157108 253 254 254
3.103163 6.071214 55.133114 254 254 254
3.101943 6.187628 55.111431 254 254 254
3.100880 6.304270 55.092556 253 253 253
3.100001 6.421211 55.076942 252 252 252
3.099327 6.538515 55.064960 253 253 253
3.098874 6.656243 55.056908 254 254 254
3.098655 6.774448 55.053013 254 254 254
3.098676 6.893172 55.053398 254 254 254
3.098942 7.012449 55.058117 254 254 254
3.099447 7.132299 55.067097 254 254 254
3.100185 7.252730 55.080200 253 253 253
3.101140 7.373738 55.097179 249 249 249
3.102297 7.495302 55.117722 247 248 248
3.103630 7.617390 55.141415 251 251 251
3.105114 7.739954 55.167774 254 248 250
3.106718 7.862938 55.196274 254 243 247
3.108409 7.986267 55.226318 254 243 249
3.110153 8.109864 55.257301 254 242 249
3.111913 8.233638 55.288582 254 239 249
3.113654 8.357494 55.319511 254 239 251
3.115340 8.481335 55.349464 254 236 251
3.116938 8.605061 55.377853 254 221 239
3.118416 8.728572 55.404106 252 192 212
3.119744 8.851774 55.427711 248 167 188
3.120900 8.974581 55.448238 248 166 186
3.121861 9.096910 55.465317 251 178 197
3.122612 9.218690 55.478649 248 183 200
3.123140 9.339865 55.488049 234 176 190
3.123441 9.460389 55.493393 224 170 182
3.123512 9.580231 55.494644 232 191 199
3.123356 9.699373 55.491871 247 226 230
3.122979 9.817813 55.485188 250 238 240
3.122394 9.935558 55.474792 242 217 220
3.121615 10.052632 55.460941 240 200 206
3.120657 10.169067 55.443928 247 210 217
3.119540 10.284903 55.424080 253 221 229
3.118284 10.400187 55.401756 254 218 227
3.116908 10.514975 55.377319 254 216 227
3.115433 10.629318 55.351116 254 219 230
3.113879 10.743273 55.323498 254 215 228
3.112262 10.856894 55.294785 254 212 226
3.110601 10.970231 55.265263 254 212 227
3.108909 11.083332 55.235203 254 211 227
3.107199 11.196239 55.204826 254 210 228
3.105483 11.308992 55.174332 254 209 229
3.103769 11.421623 55.143883 254 208 229
3.102066 11.534163 55.113628 254 203 228
3.100381 11.646640 55.083691 254 198 225
3.098719 11.759075 55.054165 254 193 223
3.097086 11.871492 55.025143 254 186 217
3.095486 11.983914 54.996719 254 179 210
3.093923 12.096359 54.968956 254 175 205
3.092402 12.208847 54.941925 248 167 195
3.090925 12.321395 54.915680 235 157 181
3.089494 12.434017 54.890266 225 155 175
3.088113 12.546729 54.865719 223 163 179
3.086780 12.659534 54.842041 214 166 178
3.085495 12.772438 54.819214 202 164 172
3.084257 12.885435 54.797211 206 179 185
3.083060 12.998513 54.775948 230 214 218
3.081900 13.111656 54.755333 247 240 243
3.080768 13.224833 54.735229 252 249 251
3.079657 13.338010 54.715485 252 251 252
3.078556 13.451148 54.695927 245 242 245
3.077455 13.564199 54.676357 236 233 236
3.076341 13.677114 54.656582 241 239 241
3.075206 13.789845 54.636410 247 246 247
3.355884 -7.293045 57.423866 254 150 176
3.353188 -7.163498 57.377724 254 148 175
3.350529 -7.034228 57.332222 254 148 176
3.347899 -6.905217 57.287235 254 149 177
3.345290 -6.776440 57.242592 254 150 179
3.342689 -6.647870 57.198074 254 151 180
3.340079 -6.519477 57.153423 254 151 181
3.337446 -6.391230 57.108356 254 151 181
3.334771 -6.263101 57.062595 254 150 180
3.332040 -6.135064 57.015862 254 149 178
3.329239 -6.007102 56.967926 255 147 175
3.326357 -5.879206 56.918617 254 146 174
3.323389 -5.751371 56.867825 254 147 176
3.320333 -5.623608 56.815536 254 149 179
3.317195 -5.495934 56.761833 254 151 182
3.313983 -5.368372 56.706886 254 152 185
3.310714 -5.240956 56.650948 254 153 186
3.307408 -5.113723 56.594364 254 157 189
3.304086 -4.986712 56.537537 254 161 192
3.300778 -4.859965 56.480919 254 157 187
3.297509 -4.733519 56.424988 254 150 179
3.294309 -4.607410 56.370232 254 144 174
3.291204 -4.481666 56.317093 254 142 170
3.288218 -4.356310 56.266003 254 138 166
3.285372 -4.231354 56.217312 255 133 162
3.282684 -4.106806 56.171310 254 141 172
3.280164 -3.982659 56.128189 254 153 187
3.277819 -3.858905 56.088055 254 145 183
3.275649 -3.735524 56.050934 254 122 164
3.273651 -3.612492 56.016735 254 105 151
3.271815 -3.489780 55.985325 254 100 149
3.270129 -3.367358 55.956470 254 100 150
3.268576 -3.245193 55.929901 254 97 147
3.267138 -3.123252 55.905285 254 97 144
3.265794 -3.001505 55.882301 254 100 142
3.264526 -2.879922 55.860596 254 102 138
3.263313 -2.758481 55.839844 254 105 136
3.262138 -2.637159 55.819736 254 119 145
3.260985 -2.515941 55.800014 254 139 160
3.259842 -2.394815 55.780453 254 156 173
3.258699 -2.273774 55.760887 254 169 182
3.257549 -2.152812 55.741207 254 179 190
3.256388 -2.031929 55.721355 254 190 199
3.255218 -1.911125 55.701328 254 202 211
3.254039 -1.790403 55.681152 254 210 219
3.252855 -1.669765 55.660892 254 214 223
3.251671 -1.549215 55.640633 254 219 226
3.250492 -1.428754 55.620457 254 222 228
3.249323 -1.308385 55.600456 254 222 228
3.248168 -1.188107 55.580700 254 225 230
3.247030 -1.067919 55.561222 254 228 232
3.245909 -0.947820 55.542042 254 230 232
3.244805 -0.827809 55.523144 254 232 233
3.243714 -0.707882 55.504471 254 234 234
3.242631 -0.588036 55.485943 252 235 233
3.241549 -0.468271 55.467426 250 238 235
3.240461 -0.348585 55.448818 247 241 236
3.239360 -0.228978 55.429974 242 240 235
3.238237 -0.109452 55.410751 242 240 236
3.237086 0.009992 55.391060 244 244 241
3.235902 0.129349 55.370800 247 248 245
3.234684 0.248616 55.349953 248 249 247
3.233431 0.367789 55.328522 249 250 248
3.232150 0.486866 55.306599 250 251 250
3.230848 0.605844 55.284325 251 252 251
3.229539 0.724725 55.261925 252 253 251
3.228238 0.843511 55.239658 252 253 251
3.226965 0.962209 55.217873 252 252 251
3.225742 1.080831 55.196957 251 251 250
3.224595 1.199390 55.177315 250 250 249
3.223547 1.317906 55.159397 248 249 248
3.222626 1.436400 55.143639 247 248 248
3.221857 1.554900 55.130463 247 248 248
3.221260 1.673433 55.120255 248 249 249
3.220856 1.792029 55.113350 249 250 249
3.220661 1.910718 55.110001 250 251 250
3.220684 2.029532 55.110401 250 251 250
3.220931 2.148496 55.114628 249 251 249
3.221401 2.267636 55.122673 251 252 251
3.222087 2.386970 55.134415 253 253 253
3.222976 2.506512 55.149620 253 253 253
3.224049 2.626270 55.167980 252 252 252
3.225282 2.746243 55.189072 250 250 250
3.226645 2.866423 55.212402 250 250 250
3.228106 2.986795 55.237404 252 253 252
3.229630 3.107334 55.263474 253 254 254
3.231177 3.228009 55.289955 252 253 253
3.232710 3.348784 55.316189 252 253 253
3.234191 3.469615 55.341518 253 254 254
3.235581 3.590456 55.365311 253 254 254
3.236847 3.711256 55.386971 253 253 253
3.237956 3.831964 55.405956 253 253 253
3.238882 3.952531 55.421795 253 253 253
3.239601 4.072905 55.434097 253 253 253
3.240096 4.193043 55.442562 254 254 254
3.240355 4.312903 55.446995 254 254 254
3.240371 4.432451 55.447277 254 254 254
3.240145 4.551658 55.443405 254 254 254
3.239682 4.670508 55.435482 254 254 254
3.238993 4.788989 55.423687 254 254 254
3.238093 4.907101 55.408295 254 254 254
3.237004 5.024852 55.389664 254 254 254
3.235752 5.142263 55.368229 254 254 254
3.234363 5.259359 55.344460 254 254 254
3.232869 5.376180 55.318905 254 254 254
3.231305 5.492770 55.292137 254 254 253
3.229705 5.609181 55.264755 254 254 254
3.228104 5.725475 55.237366 254 254 254
3.226539 5.841715 55.210590 254 254 254
3.225044 5.957969 55.185009 254 254 254
3.223654 6.074309 55.161217 254 254 254
3.222399 6.190806 55.139740 254 254 254
3.221307 6.307533 55.121067 254 254 254
3.220406 6.424556 55.105637 254 254 254
3.219715 6.541942 55.093822 254 254 254
3.219253 6.659749 55.085907 254 254 254
3.219030 6.778028 55.082108 254 254 253
3.219056 6.896821 55.082542 253 253 253
3.219332 7.016161 55.087261 254 254 254
3.219853 7.136065 55.096176 254 254 254
3.220611 7.256543 55.109154 254 254 254
3.221592 7.377587 55.125946 253 253 253
3.222778 7.499178 55.146225 252 252 252
3.224143 7.621281 55.169582 253 253 253
3.225659 7.743850 55.195538 254 250 252
3.227296 7.866823 55.223545 254 243 248
3.229019 7.990129 55.253029 254 242 249
3.230793 8.113690 55.283379 254 242 250
3.232579 8.237415 55.313950 254 237 249
3.234341 8.361208 55.344093 254 233 249
3.236042 8.484973 55.373207 254 228 246
3.237648 8.608607 55.400681 254 208 228
3.239125 8.732014 55.425949 254 179 202
3.240444 8.855099 55.448524 252 164 188
3.241580 8.977772 55.467953 253 170 194
3.242510 9.099953 55.483871 254 183 207
3.243219 9.221572 55.495998 253 187 209
3.243694 9.342572 55.504139 243 176 196
3.243930 9.462908 55.508163 234 166 184
3.243924 9.582547 55.508064 238 183 198
3.243679 9.701470 55.503872 249 218 227
3.243203 9.819677 55.495728 251 228 236
3.242508 9.937178 55.483833 246 208 218
3.241608 10.053990 55.468433 244 193 204
3.240521 10.170152 55.449844 249 199 210
3.239268 10.285704 55.428398 254 204 217
3.237869 10.400696 55.404465 255 202 217
3.236347 10.515182 55.378414 254 208 223
3.234723 10.629224 55.350624 254 216 232
3.233018 10.742876 55.321453 254 216 233
3.231253 10.856200 55.291252 254 214 231
3.229446 10.969253 55.260334 254 212 229
3.227615 11.082087 55.228996 254 209 227
3.225773 11.194750 55.197479 254 208 228
3.223934 11.307289 55.166019 254 209 230
3.222111 11.419744 55.134811 254 209 232
3.220311 11.532151 55.104015 254 207 232
3.218543 11.644542 55.073769 254 203 231
3.216815 11.756945 55.044189 254 196 226
3.215131 11.869386 55.015381 254 185 217
3.213497 11.981889 54.987423 254 176 208
3.211917 12.094473 54.960384 254 171 202
3.210394 12.207157 54.934322 249 165 192
3.208930 12.319957 54.909271 236 156 179
3.207525 12.432878 54.885239 227 157 175
3.206180 12.545928 54.862217 225 166 180
3.204892 12.659106 54.840183 214 166 177
3.203659 12.772406 54.819080 198 162 169
3.202474 12.885810 54.798805 204 179 184
3.201331 12.999297 54.779247 232 217 222
3.200221 13.112833 54.760246 250 244 247
3.199133 13.226379 54.741631 251 249 251
3.198055 13.339888 54.723186 249 247 250
3.196975 13.453309 54.704712 237 233 238
3.195880 13.566584 54.685966 226 222 227
3.194755 13.679652 54.666721 238 237 239
3.193589 13.792459 54.646770 250 250 250
3.478252 -7.290072 57.400459 254 151 178
3.475560 -7.160790 57.356033 254 150 177
3.472904 -7.031772 57.312202 254 150 177
3.470277 -6.903000 57.268848 254 151 178
3.467668 -6.774451 57.225792 254 152 180
3.465064 -6.646097 57.182816 254 153 181
3.462449 -6.517907 57.139660 254 153 181
3.459805 -6.389850 57.096031 254 153 181
3.457116 -6.261899 57.051651 255 154 181
3.454365 -6.134030 57.006245 254 154 180
3.451537 -6.006223 56.959587 254 153 178
3.448623 -5.878471 56.911503 254 152 177
3.445617 -5.750772 56.861893 254 152 177
3.442518 -5.623133 56.810738 254 151 176
3.439329 -5.495574 56.758125 254 151 177
3.436063 -5.368121 56.704227 254 153 180
3.432736 -5.240805 56.649311 254 154 183
3.429367 -5.113665 56.593716 254 156 185
3.425982 -4.986741 56.537857 254 159 187
3.422609 -4.860075 56.482193 254 153 182
3.419277 -4.733705 56.427200 254 142 171
3.416015 -4.607667 56.373375 254 139 168
3.412852 -4.481991 56.321171 254 143 172
3.409812 -4.356698 56.271008 254 146 175
3.406918 -4.231802 56.223255 254 149 179
3.404188 -4.107309 56.178200 254 155 187
3.401633 -3.983216 56.136024 254 159 192
3.399259 -3.859510 56.096859 254 150 186
3.397068 -3.736175 56.060707 254 132 172
3.395056 -3.613185 56.027489 254 114 158
3.393212 -3.490512 55.997059 254 102 149
3.391522 -3.368123 55.969181 254 98 145
3.389971 -3.245987 55.943581 254 95 141
3.388538 -3.124071 55.919933 254 95 139
3.387203 -3.002342 55.897892 254 99 139
3.385943 -2.880774 55.877106 254 102 138
3.384740 -2.759341 55.857246 254 105 137
3.383574 -2.638022 55.838005 254 116 143
3.382429 -2.516802 55.819111 254 130 153
3.381291 -2.395669 55.800335 254 141 158
3.380151 -2.274615 55.781528 254 152 166
3.379002 -2.153637 55.762569 254 169 181
3.377842 -2.032733 55.743416 254 183 194
3.376669 -1.911905 55.724064 254 196 206
3.375486 -1.791155 55.704540 254 207 218
3.374298 -1.670487 55.684940 254 212 223
3.373111 -1.549903 55.665337 254 216 226
3.371929 -1.429406 55.645840 254 219 228
3.370759 -1.308998 55.626534 254 219 227
3.369605 -1.188679 55.607494 254 218 224
3.368471 -1.068449 55.588779 254 221 226
3.367357 -0.948304 55.570393 254 224 228
3.366262 -0.828244 55.552319 254 227 229
3.365182 -0.708264 55.534496 254 228 229
3.364112 -0.588364 55.516830 254 230 230
3.363044 -0.468539 55.499203 253 235 233
3.361968 -0.348790 55.481461 250 239 235
3.360878 -0.229116 55.463463 246 237 233
3.359762 -0.109519 55.445045 244 238 234
3.358613 0.009998 55.426094 246 242 239
3.357426 0.129432 55.406502 249 245 244
3.356197 0.248779 55.386215 249 247 246
3.354926 0.368033 55.365242 250 248 247
3.353618 0.487192 55.343655 250 249 248
3.352280 0.606253 55.321587 251 250 249
3.350927 0.725214 55.299248 251 251 250
3.349574 0.844080 55.276924 251 251 250
3.348243 0.962856 55.254955 250 250 249
3.346957 1.081551 55.233734 249 249 248
3.345742 1.200181 55.213688 248 248 247
3.344626 1.318763 55.195274 248 248 247
3.343637 1.437320 55.178951 247 247 247
3.342801 1.555878 55.165154 247 247 247
3.342143 1.674466 55.154293 247 249 248
3.341684 1.793114 55.146713 249 250 249
3.341441 1.911852 55.142708 250 252 250
3.341426 2.030712 55.142456 250 251 250
3.341645 2.149721 55.146065 249 250 249
3.342097 2.268905 55.153530 251 252 251
3.342775 2.388282 55.164726 253 253 253
3.343667 2.507868 55.179443 253 253 253
3.344753 2.627669 55.197357 252 252 252
3.346006 2.747685 55.218048 248 248 248
3.347398 2.867909 55.241013 245 245 245
3.348893 2.988324 55.265690 248 249 248
3.350454 3.108907 55.291447 251 251 251
3.352041 3.229626 55.317642 248 249 248
3.353614 3.350443 55.343590 250 250 250
3.355132 3.471316 55.368645 253 253 253
3.356556 3.592196 55.392151 253 254 254
3.357851 3.713035 55.413517 253 254 254
3.358983 3.833779 55.432194 253 253 253
3.359924 3.954380 55.447727 252 252 252
3.360651 4.074787 55.459713 253 253 253
3.361144 4.194956 55.467857 253 253 253
3.361393 4.314846 55.471977 253 253 253
3.361392 4.434423 55.471958 254 254 253
3.361141 4.553662 55.467815 254 254 253
3.360646 4.672544 55.459644 254 254 254
3.359919 4.791059 55.447639 254 254 254
3.358976 4.909208 55.432087 254 254 254
3.357841 5.027000 55.413345 254 254 254
3.356538 5.144456 55.391846 252 253 252
3.355098 5.261604 55.368084 253 253 253
3.353553 5.378481 55.342583 254 254 254
3.351938 5.495133 55.315929 254 254 254
3.350288 5.611612 55.288700 254 254 254
3.348640 5.727978 55.261517 254 254 254
3.347032 5.844294 55.234966 254 254 254
3.345497 5.960628 55.209644 254 253 253
3.344071 6.077050 55.186111 253 252 252
3.342786 6.193632 55.164909 252 251 251
3.341671 6.310443 55.146503 253 252 252
3.340751 6.427550 55.131321 254 254 253
3.340049 6.545018 55.119724 254 254 253
3.339580 6.662903 55.111996 254 253 253
3.339358 6.781256 55.108334 253 252 251
3.339391 6.900117 55.108868 252 251 250
3.339678 7.019517 55.113605 253 253 252
3.340216 7.139474 55.122494 254 254 253
3.340997 7.259996 55.135376 254 254 253
3.342004 7.381074 55.151997 254 254 253
3.343218 7.502688 55.172035 254 253 253
3.344614 7.624803 55.195072 254 251 253
3.346163 7.747370 55.220631 254 248 252
3.347832 7.870332 55.248177 254 242 249
3.349586 7.993614 55.277126 254 238 248
3.351388 8.117137 55.306862 254 235 248
3.353199 8.240810 55.336746 254 230 246
3.354980 8.364539 55.366142 255 224 243
3.356695 8.488226 55.394440 254 217 237
3.358306 8.611770 55.421028 255 197 219
3.359781 8.735072 55.445362 254 173 198
3.361088 8.858039 55.466934 254 165 191
3.362202 8.980581 55.485313 254 173 199
3.363100 9.102620 55.500134 254 185 211
3.363765 9.224082 55.511105 254 188 214
3.364185 9.344913 55.518036 251 176 201
3.364353 9.465063 55.520813 246 163 187
3.364267 9.584504 55.519398 247 176 198
3.363931 9.703216 55.513855 252 204 222
3.363353 9.821196 55.504307 254 214 231
3.362544 9.938454 55.490959 252 205 223
3.361521 10.055012 55.474072 252 198 217
3.360301 10.170903 55.453941 253 197 217
3.358907 10.286174 55.430931 254 192 213
3.357360 10.400872 55.405407 254 191 212
3.355684 10.515059 55.377758 254 201 222
3.353904 10.628792 55.348377 255 210 231
3.352042 10.742137 55.317646 254 211 232
3.350120 10.855155 55.285927 254 210 231
3.348159 10.967910 55.253567 254 210 230
3.346178 11.080459 55.220882 254 208 228
3.344195 11.192857 55.188145 254 206 228
3.342223 11.305157 55.155621 254 207 230
3.340278 11.417405 55.123516 254 209 233
3.338370 11.529642 55.092026 254 209 235
3.336509 11.641909 55.061314 254 207 235
3.334702 11.754232 55.031494 254 200 230
3.332957 11.866649 55.002693 255 187 217
3.331278 11.979180 54.974995 254 176 206
3.329670 12.091848 54.948460 254 171 201
3.328135 12.204670 54.923126 252 168 194
3.326674 12.317656 54.899014 244 163 185
3.325287 12.430812 54.876118 236 164 181
3.323970 12.544138 54.854389 230 168 181
3.322721 12.657625 54.833767 213 164 173
3.321532 12.771257 54.814148 195 157 163
3.320396 12.885010 54.795403 199 171 177
3.319302 12.998847 54.777355 227 209 214
3.318238 13.112725 54.759796 249 240 244
3.317191 13.226593 54.742519 252 249 251
3.316146 13.340395 54.725266 249 247 250
3.315086 13.454063 54.707783 237 232 237
3.313996 13.567533 54.689796 229 224 229
3.312861 13.680737 54.671055 241 239 241
3.311665 13.793610 54.651325 252 251 252
3.310396 13.906090 54.630390 253 252 253
3.600427 -7.286913 57.375584 255 151 178
3.597754 -7.157911 57.332973 254 152 178
3.595114 -7.029160 57.290920 254 153 179
3.592503 -6.900643 57.249294 254 154 180
3.589907 -6.772336 57.207928 254 154 181
3.587312 -6.644210 57.166588 254 154 181
3.584704 -6.516237 57.125015 255 155 181
3.582063 -6.388384 57.082932 254 156 181
3.579371 -6.260625 57.040039 255 157 181
3.576612 -6.132935 56.996075 254 157 180
3.573772 -6.005298 56.950809 254 158 180
3.570839 -5.877703 56.904068 254 158 180
3.567807 -5.750151 56.855759 254 158 181
3.564677 -5.622652 56.805878 254 157 179
3.561453 -5.495222 56.754490 254 154 177
3.558146 -5.367889 56.701790 254 155 180
3.554773 -5.240687 56.648045 254 157 183
3.551357 -5.113655 56.593605 255 157 184
3.547923 -4.986831 56.538883 254 155 183
3.544500 -4.860259 56.484337 254 151 180
3.541120 -4.733979 56.430470 254 145 175
3.537811 -4.608024 56.377747 254 142 172
3.534605 -4.482427 56.326649 254 144 174
3.531526 -4.357207 56.277592 254 150 180
3.528599 -4.232380 56.230946 254 159 190
3.525841 -4.107953 56.187000 254 163 196
3.523265 -3.983919 56.145939 254 159 194
3.520877 -3.860269 56.107883 254 149 186
3.518678 -3.736984 56.072849 254 136 176
3.516664 -3.614040 56.040741 255 121 163
3.514823 -3.491407 56.011414 254 106 149
3.513142 -3.369053 55.984627 254 94 138
3.511603 -3.246946 55.960102 255 89 132
3.510185 -3.125052 55.937496 254 89 131
3.508865 -3.003340 55.916470 254 94 134
3.507623 -2.881782 55.896671 254 98 134
3.506435 -2.760353 55.877750 254 102 134
3.505284 -2.639033 55.859398 254 112 140
3.504151 -2.517804 55.841339 254 124 147
3.503023 -2.396657 55.823364 254 131 150
3.501889 -2.275584 55.805298 255 141 157
3.500743 -2.154582 55.787029 254 159 172
3.499582 -2.033649 55.768536 255 172 185
3.498406 -1.912788 55.749802 255 184 196
3.497219 -1.792002 55.730881 254 197 210
3.496026 -1.671294 55.711861 254 205 218
3.494832 -1.550669 55.692837 254 212 223
3.493645 -1.430128 55.673927 254 218 229
3.492471 -1.309673 55.655216 254 216 225
3.491316 -1.189306 55.636814 254 210 218
3.490183 -1.069025 55.618752 254 214 220
3.489073 -0.948828 55.601059 254 220 225
3.487984 -0.828712 55.583710 254 223 226
3.486913 -0.708674 55.566647 254 225 227
3.485854 -0.588713 55.549763 254 228 228
3.484797 -0.468824 55.532925 254 232 231
3.483733 -0.349007 55.515972 253 235 232
3.482652 -0.229262 55.498741 250 234 231
3.481543 -0.109591 55.481060 248 235 233
3.480395 0.010005 55.462780 248 237 235
3.479204 0.129519 55.443790 249 240 238
3.477963 0.248949 55.424015 251 244 242
3.476672 0.368287 55.403442 252 246 244
3.475335 0.487531 55.382133 251 247 245
3.473959 0.606676 55.360218 251 248 246
3.472559 0.725721 55.337906 252 249 247
3.471151 0.844669 55.315464 251 249 246
3.469757 0.963523 55.293243 250 248 246
3.468402 1.082294 55.271648 246 246 244
3.467113 1.200994 55.251122 245 245 243
3.465921 1.319643 55.232124 246 246 244
3.464855 1.438262 55.215126 246 247 245
3.463943 1.556878 55.200603 244 246 245
3.463213 1.675518 55.188961 245 247 246
3.462686 1.794214 55.180573 247 249 247
3.462383 1.912997 55.175732 249 251 249
3.462315 2.031898 55.174656 251 252 251
3.462491 2.150945 55.177456 251 252 251
3.462910 2.270164 55.184132 253 253 253
3.463565 2.389574 55.194576 253 254 253
3.464443 2.509191 55.208572 253 254 253
3.465525 2.629023 55.225803 252 252 252
3.466783 2.749068 55.245850 245 246 245
3.468186 2.869321 55.268208 240 241 240
3.469697 2.989763 55.292301 245 245 245
3.471279 3.110372 55.317509 249 249 248
3.472889 3.231116 55.343170 245 245 244
3.474485 3.351957 55.368599 247 247 247
3.476026 3.472852 55.393147 252 252 252
3.477469 3.593753 55.416157 253 253 253
3.478779 3.714610 55.437027 253 253 253
3.479922 3.835372 55.455231 253 253 253
3.480866 3.955989 55.470280 253 253 253
3.481590 4.076411 55.481815 252 252 252
3.482074 4.196595 55.489529 251 251 251
3.482307 4.316500 55.493240 251 251 251
3.482282 4.436094 55.492855 252 252 252
3.482002 4.555351 55.488384 253 253 252
3.481472 4.674254 55.479942 254 254 253
3.480706 4.792795 55.467731 254 254 254
3.479721 4.910974 55.452030 254 254 253
3.478540 5.028803 55.433220 253 253 253
3.477191 5.146302 55.411716 252 252 252
3.475704 5.263499 55.388020 252 252 252
3.474113 5.380432 55.362656 253 253 253
3.472452 5.497146 55.336193 254 254 254
3.470759 5.613695 55.309219 254 254 254
3.469071 5.730134 55.282322 255 253 253
3.467426 5.846530 55.256104 254 251 251
3.465859 5.962949 55.231140 254 250 250
3.464406 6.079458 55.207977 252 247 247
3.463098 6.196128 55.187138 250 245 245
3.461966 6.313027 55.169086 250 247 246
3.461034 6.430223 55.154243 254 250 249
3.460325 6.547775 55.142944 254 251 250
3.459856 6.665741 55.135471 254 251 250
3.459640 6.784170 55.132019 253 250 248
3.459682 6.903100 55.132694 252 249 248
3.459985 7.022563 55.137527 253 250 249
