ply
format ascii 1.0
element vertex 1245
property float x
property float y
property float z
property uchar red
property uchar green
property uchar blue
end_header
-2.385642 -4.307923 55.641045 44 32 32
-2.375621 -4.170389 55.407326 44 33 32
-2.365647 -4.033940 55.174686 44 33 32
-2.355709 -3.898556 54.942909 44 34 33
-2.345799 -3.764215 54.711773 45 35 33
-2.335910 -3.630904 54.481136 45 35 34
-2.326038 -3.498613 54.250889 45 35 34
-2.316181 -3.367336 54.020988 45 34 34
-2.306340 -3.237072 53.791454 46 34 34
-2.296516 -3.107822 53.562347 47 34 34
-2.286717 -2.979591 53.333786 48 34 34
-2.276947 -2.852383 53.105934 49 34 35
-2.267218 -2.726206 52.879021 51 35 35
-2.257539 -2.601064 52.653271 54 35 36
-2.247922 -2.476965 52.428970 56 36 36
-2.238380 -2.353910 52.206406 57 36 36
-2.228924 -2.231903 51.985867 58 36 36
-2.219568 -2.110941 51.767654 60 36 37
-2.210325 -1.991021 51.552067 61 37 38
-2.201206 -1.872136 51.339382 62 38 39
-2.192223 -1.754277 51.129871 62 38 39
-2.183386 -1.637432 50.923775 61 39 39
-2.174707 -1.521584 50.721344 61 40 40
-2.166193 -1.406718 50.522789 61 41 40
-2.157855 -1.292812 50.328308 61 41 41
-2.149699 -1.179845 50.138088 61 41 41
-2.141733 -1.067792 49.952290 62 42 42
-2.133963 -0.956629 49.771069 63 42 43
-2.126395 -0.846327 49.594543 64 42 44
-2.119032 -0.736858 49.422821 65 43 44
-2.111879 -0.628191 49.255989 65 43 43
-2.104938 -0.520296 49.094097 64 43 43
-2.098210 -0.413141 48.937187 63 43 43
-2.091696 -0.306694 48.785255 62 43 43
-2.085395 -0.200922 48.638298 62 43 43
-2.079306 -0.095794 48.496273 64 43 43
-2.073425 0.008723 48.359127 66 43 43
-2.067751 0.112660 48.226791 67 43 44
-2.062281 0.216048 48.099194 69 45 45
-2.057009 0.318916 47.976254 69 45 47
-2.051934 0.421295 47.857872 68 44 46
-2.047050 0.523212 47.743973 65 42 44
-2.042356 0.624696 47.634476 62 40 42
-2.037846 0.725774 47.529305 61 39 41
-2.033519 0.826472 47.428375 60 39 41
-2.029370 0.926817 47.331612 60 38 40
-2.025398 1.026834 47.238960 60 36 38
-2.021598 1.126548 47.150330 60 33 37
-2.017967 1.225982 47.065651 62 33 37
-2.014502 1.325161 46.984844 66 35 39
-2.011200 1.424106 46.907822 70 39 42
-2.008057 1.522840 46.834515 74 43 46
-2.005068 1.621382 46.764812 77 46 47
-2.002231 1.719755 46.698635 78 48 47
-1.999541 1.817976 46.635902 77 48 47
-1.996995 1.916064 46.576530 76 48 47
-1.994590 2.014039 46.520424 76 48 48
-1.992322 2.111917 46.467525 76 48 48
-1.990188 2.209716 46.417755 76 49 49
-1.988186 2.307453 46.371056 77 49 50
-1.986312 2.405144 46.327354 77 49 51
-1.984564 2.502806 46.286587 77 48 51
-1.982939 2.600454 46.248684 76 47 51
-1.981433 2.698100 46.213570 76 47 51
-1.980044 2.795759 46.181160 76 47 52
-1.978766 2.893441 46.151360 76 48 53
-1.977596 2.991159 46.124077 77 48 55
-1.976530 3.088921 46.099216 79 49 55
-1.975563 3.186734 46.076645 80 50 56
-1.974689 3.284607 46.056267 82 51 56
-1.973904 3.382544 46.037968 83 51 55
-1.973205 3.480553 46.021656 85 53 54
-1.972586 3.578638 46.007225 85 53 53
-1.972045 3.676804 45.994602 84 53 52
-1.971578 3.775059 45.983707 84 53 51
-1.971183 3.873407 45.974487 83 54 51
-1.970857 3.971856 45.966885 84 56 52
-1.970598 4.070412 45.960857 86 58 55
-1.970406 4.169081 45.956375 85 57 55
-1.970278 4.267870 45.953392 80 53 52
-1.970213 4.366786 45.951866 75 48 48
-1.970208 4.465831 45.951756 75 47 48
-1.970261 4.565012 45.952999 77 50 50
-1.970371 4.664330 45.955551 80 52 53
-1.970533 4.763786 45.959332 81 54 55
-1.970744 4.863381 45.964264 81 54 56
-1.971002 4.963113 45.970272 81 54 55
-1.971302 5.062979 45.977264 81 54 56
-1.971640 5.162976 45.985153 80 55 56
-1.972013 5.263101 45.993851 79 54 56
-1.972417 5.363347 46.003277 77 53 55
-1.972849 5.463710 46.013348 75 52 53
-1.973305 5.564185 46.023979 73 50 52
-1.973782 5.664766 46.035107 71 49 50
-1.974277 5.765450 46.046665 70 48 48
-1.974789 5.866229 46.058590 69 47 47
-1.975313 5.967101 46.070827 70 46 47
-1.975849 6.068060 46.083332 71 46 47
-1.976395 6.169105 46.096066 71 45 46
-1.976950 6.270233 46.109009 71 44 46
-1.977513 6.371441 46.122131 71 44 46
-1.978084 6.472733 46.135452 71 45 46
-1.978664 6.574112 46.148972 70 45 46
-1.979254 6.675583 46.162731 68 44 46
-1.979855 6.777154 46.176762 66 44 45
-1.980471 6.878835 46.191132 65 43 44
-1.981105 6.980640 46.205906 63 42 43
-1.981759 7.082581 46.221153 60 40 41
-1.982436 7.184674 46.236958 58 39 39
-1.983140 7.286932 46.253376 58 39 39
-1.983874 7.389372 46.270493 58 40 40
-1.984640 7.492005 46.288345 60 41 42
-1.985438 7.594843 46.306976 61 42 43
-1.986271 7.697893 46.326405 62 44 45
-1.987139 7.801164 46.346642 63 44 46
-1.988040 7.904656 46.367668 63 44 46
-1.988975 8.008371 46.389462 63 44 45
-1.989941 8.112312 46.412006 63 44 45
-1.990939 8.216475 46.435261 63 43 44
-1.991965 8.320862 46.459202 62 43 44
-1.993021 8.425475 46.483822 61 43 44
-1.994105 8.530316 46.509109 61 42 45
-1.995218 8.635394 46.535080 61 42 45
-1.996363 8.740718 46.561768 60 41 45
-1.997539 8.846301 46.589214 59 41 44
-1.998752 8.952163 46.617496 58 41 44
-2.000003 9.058322 46.646683 58 41 43
-2.001298 9.164804 46.676872 57 40 41
-2.002639 9.271633 46.708157 56 39 39
-2.004031 9.378837 46.740631 56 38 38
-2.005480 9.486444 46.774410 55 38 38
-2.570785 -8.698643 63.133354 30 25 25
-2.557965 -8.519850 62.818527 28 24 24
-2.545238 -8.342720 62.505993 27 22 22
-2.532600 -8.167222 62.195625 28 21 22
-2.520047 -7.993332 61.887344 29 22 23
-2.507578 -7.821032 61.581123 32 23 24
-2.495195 -7.650318 61.277020 34 25 25
-2.482903 -7.481189 60.975163 35 25 25
-2.470711 -7.313655 60.675732 37 26 25
-2.458625 -7.147723 60.378933 38 27 25
-2.446657 -6.983407 60.085026 40 28 26
-2.434817 -6.820716 59.794254 41 29 26
-2.423115 -6.659659 59.506882 42 30 27
-2.411561 -6.500238 59.223133 43 32 28
-2.400162 -6.342451 58.943195 44 32 29
-2.388924 -6.186289 58.667225 43 33 29
-2.377852 -6.031735 58.395306 41 33 29
-2.366946 -5.878767 58.127472 40 32 29
-2.356204 -5.727355 57.863689 38 31 30
-2.345625 -5.577464 57.603874 37 30 30
-2.335201 -5.429054 57.347878 36 29 30
-2.324924 -5.282084 57.095509 36 28 29
-2.314786 -5.136508 56.846531 36 28 29
-2.304775 -4.992283 56.600697 37 29 30
-2.294881 -4.849362 56.357700 39 29 31
-2.285089 -4.707701 56.117233 40 30 32
-2.275388 -4.567258 55.878986 42 31 33
-2.265764 -4.427995 55.642651 43 32 33
-2.256205 -4.289874 55.407909 45 33 33
-2.246700 -4.152863 55.174480 45 34 33
-2.237238 -4.016937 54.942116 45 34 33
-2.227810 -3.882071 54.710575 45 34 33
-2.218407 -3.748246 54.479664 44 34 33
-2.209025 -3.615451 54.249256 44 34 34
-2.199659 -3.483675 54.019249 45 34 34
-2.190309 -3.352914 53.789623 45 34 34
-2.180975 -3.223167 53.560402 46 33 34
-2.171661 -3.094437 53.331661 47 33 33
-2.162371 -2.966727 53.103535 47 33 33
-2.153115 -2.840044 52.876209 49 34 34
-2.143899 -2.714393 52.649902 51 34 35
-2.134736 -2.589781 52.424862 54 35 36
-2.125636 -2.466213 52.201382 56 35 36
-2.116611 -2.343691 51.979748 57 36 37
-2.107673 -2.222217 51.760254 58 36 37
-2.098835 -2.101788 51.543201 59 37 38
-2.090108 -1.982401 51.328884 61 38 39
-2.081504 -1.864048 51.117584 62 38 40
-2.073033 -1.746718 50.909557 62 39 40
-2.064705 -1.630399 50.705048 62 39 40
-2.056530 -1.515073 50.504292 62 40 40
-2.048517 -1.400723 50.307495 61 40 40
-2.040672 -1.287329 50.114849 61 40 41
-2.033004 -1.174866 49.926525 62 42 42
-2.025518 -1.063312 49.742680 62 42 43
-2.018220 -0.952639 49.563457 62 42 42
-2.011115 -0.842819 49.388969 63 42 43
-2.004206 -0.733823 49.219311 64 43 43
-1.997498 -0.625622 49.054565 64 43 43
-1.990991 -0.518183 48.894775 64 43 42
-1.984687 -0.411476 48.739964 63 42 42
-1.978586 -0.305467 48.590137 63 42 42
-1.972688 -0.200125 48.445278 63 41 42
-1.966989 -0.095417 48.305344 64 42 42
-1.961489 0.008689 48.170277 67 43 43
-1.956184 0.112224 48.039997 69 44 44
-1.951072 0.215218 47.914429 70 46 47
-1.946147 0.317701 47.793488 71 46 48
-1.941407 0.419703 47.677082 69 45 47
-1.936848 0.521252 47.565128 67 44 46
-1.932467 0.622375 47.457542 64 42 44
-1.928260 0.723100 47.354237 63 41 43
-1.924225 0.823453 47.255131 63 41 43
-1.920358 0.923460 47.160156 62 40 42
-1.916655 1.023145 47.069237 62 37 41
-1.913115 1.122533 46.982292 62 35 39
-1.909733 1.221647 46.899242 64 35 39
-1.906507 1.320512 46.820007 69 36 40
-1.903432 1.419147 46.744503 73 41 43
-1.900506 1.517576 46.672649 78 45 47
-1.897725 1.615819 46.604343 81 48 49
-1.895085 1.713894 46.539505 81 49 48
-1.892582 1.811822 46.478050 80 49 47
-1.890214 1.909621 46.419899 78 49 47
-1.887977 2.007308 46.364967 77 49 47
-1.885869 2.104902 46.313187 78 49 49
-1.883886 2.202420 46.264500 79 50 50
-1.882027 2.299879 46.218838 79 51 51
-1.880289 2.397295 46.176147 80 50 51
-1.878669 2.494684 46.136364 80 49 51
-1.877165 2.592062 46.099434 79 48 51
-1.875774 2.689442 46.065277 79 47 52
-1.874493 2.786839 46.033825 78 47 52
-1.873319 2.884264 46.004982 79 47 54
-1.872247 2.981729 45.978672 80 48 55
-1.871275 3.079243 45.954781 80 48 56
-1.870396 3.176813 45.933197 82 49 56
-1.869607 3.274448 45.913815 84 50 56
-1.868903 3.372152 45.896526 85 51 56
-1.868280 3.469933 45.881229 86 52 54
-1.867734 3.567794 45.867825 86 53 53
-1.867261 3.665742 45.856224 85 53 52
-1.866859 3.763782 45.846344 84 53 50
-1.866524 3.861919 45.838123 83 53 50
-1.866255 3.960159 45.831512 84 55 52
-1.866049 4.058508 45.826458 86 57 55
-1.865905 4.156973 45.822914 85 57 55
-1.865821 4.255560 45.820839 80 52 51
-1.865794 4.354272 45.820190 75 46 47
-1.865824 4.453115 45.820915 74 46 46
-1.865907 4.552093 45.822960 77 48 49
-1.866042 4.651207 45.826267 80 51 53
-1.866224 4.750459 45.830757 82 54 56
-1.866453 4.849847 45.836357 83 55 56
-1.866722 4.949370 45.842983 82 55 55
-1.867031 5.049026 45.850552 81 55 55
-1.867373 5.148809 45.858971 80 56 56
-1.867747 5.248716 45.868149 79 55 56
-1.868148 5.348741 45.877998 78 54 55
-1.868573 5.448878 45.888439 76 52 53
-1.869019 5.549121 45.899380 73 50 51
-1.869482 5.649465 45.910759 72 48 50
-1.869960 5.749903 45.922501 72 48 48
-1.870451 5.850430 45.934544 72 48 48
-1.870951 5.951041 45.946831 73 48 48
-1.871459 6.051731 45.959312 74 47 48
-1.871974 6.152495 45.971954 75 47 48
-1.872494 6.253332 45.984726 75 47 48
-1.873019 6.354240 45.997620 75 46 47
-1.873549 6.455222 46.010635 74 46 47
-1.874085 6.556281 46.023796 72 45 46
-1.874628 6.657422 46.037140 70 44 45
-1.875181 6.758654 46.050709 68 43 44
-1.875746 6.859990 46.064587 66 42 42
-1.876326 6.961444 46.078842 63 41 41
-1.876926 7.063030 46.093563 60 39 39
-1.877548 7.164765 46.108833 59 38 38
-1.878196 7.266667 46.124748 59 38 39
-1.878873 7.368752 46.141376 59 39 40
-1.879582 7.471035 46.158787 60 40 41
-1.880325 7.573531 46.177032 62 42 43
-1.881103 7.676248 46.196140 63 43 45
-1.881917 7.779196 46.216133 64 44 47
-1.882767 7.882381 46.237003 64 44 47
-1.883652 7.985804 46.258736 63 44 46
-1.884571 8.089468 46.281307 64 44 45
-1.885523 8.193374 46.304699 64 44 45
-1.886508 8.297522 46.328880 63 43 44
-1.887524 8.401913 46.353828 63 43 45
-1.888571 8.506553 46.379543 63 42 46
-1.889649 8.611445 46.406025 62 42 46
-1.890760 8.716601 46.433304 62 42 46
-1.891905 8.822035 46.461418 60 42 46
-1.893086 8.927759 46.490417 60 42 46
-1.894305 9.033792 46.520367 60 43 46
-1.895567 9.140157 46.551346 60 43 44
-1.896873 9.246876 46.583435 59 41 42
-1.898229 9.353972 46.616714 59 40 41
-1.899636 9.461471 46.651276 58 39 39
-1.901098 9.569396 46.687183 57 39 38
-2.424304 -8.661532 62.864014 31 25 26
-2.412226 -8.483545 62.550846 29 24 25
-2.400236 -8.307207 62.239922 29 23 24
-2.388327 -8.132488 61.931122 29 22 23
-2.376498 -7.959367 61.624374 30 23 24
-2.364747 -7.787827 61.319675 32 24 25
-2.353078 -7.617865 61.017082 34 25 25
-2.341495 -7.449481 60.716728 35 25 26
-2.330005 -7.282685 60.418797 37 26 26
-2.318617 -7.117483 60.123482 39 27 26
-2.307339 -6.953888 59.831043 41 28 26
-2.296182 -6.791911 59.541729 42 29 27
-2.285155 -6.631557 59.255787 44 31 28
-2.274266 -6.472831 58.973427 45 32 29
-2.263523 -6.315727 58.694843 45 33 29
-2.252930 -6.160238 58.420174 44 34 30
-2.242492 -6.006346 58.149506 42 33 30
-2.232209 -5.854028 57.882858 40 32 29
-2.222079 -5.703253 57.620190 39 31 30
-2.212100 -5.553988 57.361423 38 31 30
-2.202266 -5.406194 57.106407 38 30 31
-2.192568 -5.259828 56.854935 37 30 30
-2.182998 -5.114845 56.606785 38 30 30
-2.173547 -4.971203 56.361694 39 30 31
-2.164201 -4.828856 56.119373 41 31 32
-2.154952 -4.687759 55.879520 42 31 33
-2.145785 -4.547873 55.641815 44 32 33
-2.136690 -4.409160 55.405975 45 33 34
-2.127654 -4.271583 55.171673 46 34 34
-2.118668 -4.135112 54.938648 46 35 34
-2.109721 -3.999721 54.706650 46 35 34
-2.100805 -3.865388 54.475460 45 34 34
-2.091914 -3.732094 54.244900 44 34 33
-2.083042 -3.599828 54.014835 44 34 33
-2.074186 -3.468581 53.785206 45 33 33
-2.065346 -3.338351 53.555988 46 33 33
-2.056525 -3.209135 53.327225 46 32 33
-2.047723 -3.080938 53.099003 46 32 32
-2.038949 -2.953763 52.871471 48 32 32
-2.030208 -2.827616 52.644829 50 34 34
-2.021511 -2.702504 52.419292 52 34 35
-2.012866 -2.578432 52.195129 54 35 36
-2.004286 -2.455406 51.972637 56 36 37
-1.995781 -2.333426 51.752098 58 37 38
-1.987363 -2.212495 51.533813 59 38 39
-1.979043 -2.092608 51.318081 60 38 40
-1.970834 -1.973762 51.105194 61 38 40
-1.962744 -1.855947 50.895424 62 39 40
-1.954785 -1.739152 50.689034 62 39 41
-1.946964 -1.623363 50.486248 62 40 41
-1.939292 -1.508564 50.287300 61 40 41
-1.931775 -1.394734 50.092388 61 40 41
-1.924421 -1.281853 49.901688 61 41 41
-1.917236 -1.169898 49.715374 62 42 43
-1.910225 -1.058842 49.533581 62 42 43
-1.903395 -0.948660 49.356461 62 42 43
-1.896748 -0.839323 49.184097 63 43 43
-1.890288 -0.730801 49.016586 64 43 43
-1.884018 -0.623064 48.854000 64 43 43
-1.877939 -0.516081 48.696377 64 42 43
-1.872053 -0.409819 48.543739 64 42 42
-1.866358 -0.304247 48.396072 64 41 42
-1.860855 -0.199332 48.253368 64 41 41
-1.855541 -0.095042 48.115570 66 42 42
-1.850414 0.008655 47.982613 68 44 44
-1.845470 0.111790 47.854420 71 46 46
-1.840707 0.214393 47.730919 72 47 48
-1.836121 0.316495 47.612007 72 47 49
-1.831709 0.418123 47.497597 71 47 49
-1.827467 0.519306 47.387596 69 46 48
-1.823392 0.620072 47.281921 68 45 47
-1.819480 0.720447 47.180485 67 44 47
-1.815728 0.820457 47.083206 66 43 46
-1.812134 0.920128 46.990002 66 42 45
-1.808694 1.019483 46.900795 65 39 44
-1.805405 1.118548 46.815514 66 37 42
-1.802264 1.217345 46.734066 69 37 42
-1.799268 1.315896 46.656372 73 40 43
-1.796413 1.414225 46.582348 77 43 46
-1.793697 1.512350 46.511906 82 46 48
-1.791115 1.610293 46.444954 84 49 50
-1.788664 1.708072 46.381405 84 50 50
-1.786341 1.805707 46.321178 82 49 48
-1.784144 1.903215 46.264191 79 48 46
-1.782068 2.000615 46.210373 79 49 47
-1.780113 2.097924 46.159660 80 50 50
-1.778274 2.195160 46.111988 81 52 52
-1.776551 2.292338 46.067310 82 52 52
-1.774942 2.389477 46.025574 82 51 53
-1.773443 2.486592 45.986721 83 50 53
-1.772054 2.583699 45.950699 82 49 52
-1.770772 2.680812 45.917450 81 47 52
-1.769594 2.777944 45.886898 80 47 53
-1.768517 2.875110 45.858963 81 47 54
-1.767537 2.972319 45.833565 81 47 55
-1.766651 3.069582 45.810596 81 47 56
-1.765855 3.166906 45.789944 83 48 57
-1.765144 3.264299 45.771511 85 49 56
-1.764514 3.361767 45.755180 86 50 56
-1.763961 3.459316 45.740845 87 52 55
-1.763482 3.556950 45.728409 88 53 54
-1.763072 3.654675 45.717777 87 54 52
-1.762728 3.752495 45.708862 86 53 52
-1.762448 3.850416 45.701595 86 54 52
-1.762229 3.948443 45.695919 87 55 54
-1.762069 4.046581 45.691772 87 57 56
-1.761967 4.144836 45.689117 85 55 55
-1.761919 4.243213 45.687893 80 50 51
-1.761926 4.341716 45.688057 76 46 48
-1.761984 4.440350 45.689560 76 46 48
-1.762091 4.539118 45.692345 79 49 51
-1.762245 4.638021 45.696346 82 51 54
-1.762444 4.737060 45.701488 84 54 56
-1.762683 4.836234 45.707699 84 55 57
-1.762961 4.935541 45.714893 83 55 55
-1.763272 5.034978 45.722980 81 55 54
-1.763615 5.134539 45.731869 80 56 55
-1.763986 5.234221 45.741478 80 55 55
-1.764380 5.334017 45.751709 79 53 54
-1.764795 5.433920 45.762474 75 50 51
-1.765228 5.533926 45.773697 73 47 49
-1.765676 5.634026 45.785297 73 46 48
-1.766135 5.734215 45.797203 73 47 48
-1.766603 5.834485 45.809349 75 48 49
-1.767079 5.934831 45.821674 76 49 49
-1.767559 6.035247 45.834133 77 49 50
-1.768043 6.135730 45.846687 78 49 49
-1.768530 6.236277 45.859310 78 48 49
-1.769019 6.336885 45.871990 78 47 48
-1.769510 6.437558 45.884731 76 46 47
-1.770005 6.538298 45.897564 74 45 46
-1.770505 6.639113 45.910530 72 44 45
-1.771013 6.740011 45.923687 70 43 44
-1.771530 6.841007 45.937111 67 41 42
-1.772062 6.942113 45.950890 64 40 41
-1.772611 7.043349 45.965122 62 38 40
-1.773181 7.144732 45.979908 61 38 39
-1.773776 7.246280 45.995342 61 38 39
-1.774400 7.348015 46.011524 61 39 40
-1.775055 7.449951 46.028519 61 40 41
-1.775745 7.552104 46.046394 62 41 43
-1.776470 7.654489 46.065193 64 42 45
-1.777231 7.757115 46.084946 64 44 47
-1.778030 7.859988 46.105652 64 44 47
-1.778865 7.963115 46.127308 64 44 46
-1.779736 8.066497 46.149887 64 44 45
-1.780642 8.170137 46.173382 65 44 45
-1.781582 8.274037 46.197758 64 44 45
-1.782555 8.378200 46.223003 64 44 45
-1.783562 8.482628 46.249100 64 43 46
-1.784601 8.587326 46.276047 64 43 47
-1.785674 8.692306 46.303875 64 44 47
-1.786782 8.797575 46.332600 63 44 48
-1.787926 8.903152 46.362274 63 45 48
-1.789109 9.009048 46.392944 63 45 48
-1.790333 9.115287 46.424679 63 44 47
-1.791600 9.221885 46.457535 62 43 45
-1.792913 9.328864 46.491585 61 42 43
-1.794275 9.436246 46.526901 60 41 41
-1.795688 9.544051 46.563534 59 40 40
-2.290281 -8.802778 62.904976 33 26 27
-2.278852 -8.623925 62.591068 32 25 27
-2.267509 -8.446745 62.279510 31 24 26
-2.256246 -8.271200 61.970150 30 24 25
-2.245059 -8.097265 61.662888 30 23 25
-2.233946 -7.924919 61.357662 31 23 25
-2.222908 -7.754148 61.054485 33 24 26
-2.211946 -7.584946 60.753414 34 25 27
-2.201066 -7.417319 60.454586 36 26 27
-2.190274 -7.251271 60.158180 37 27 27
-2.179578 -7.086812 59.864395 39 27 27
-2.168986 -6.923953 59.573483 41 28 27
-2.158508 -6.762704 59.285686 43 30 28
-2.148152 -6.603070 59.001240 45 32 30
-2.137925 -6.445053 58.720348 46 33 31
-2.127834 -6.288650 58.443195 47 35 31
-2.117884 -6.133849 58.169914 45 35 32
-2.108078 -5.980634 57.900578 43 35 31
-2.098416 -5.828981 57.635204 42 33 31
-2.088897 -5.678860 57.373745 41 33 31
-2.079517 -5.530236 57.116108 40 32 32
-2.070271 -5.383071 56.862152 40 32 32
-2.061151 -5.237322 56.611664 40 31 31
-2.052149 -5.092947 56.364426 40 31 31
-2.043256 -4.949900 56.120171 41 32 32
-2.034461 -4.808139 55.878616 43 32 32
-2.025754 -4.667621 55.639462 44 33 33
-2.017123 -4.528304 55.402397 46 33 34
-2.008557 -4.390153 55.167130 47 34 34
-2.000046 -4.253133 54.933369 47 35 35
-1.991580 -4.117213 54.700840 47 35 35
-1.983151 -3.982369 54.469318 46 35 34
-1.974750 -3.848580 54.238590 45 35 34
-1.966373 -3.715829 54.008492 45 34 33
-1.958014 -3.584104 53.778900 44 33 32
-1.949672 -3.453398 53.549774 45 33 32
-1.941346 -3.323709 53.321106 47 32 32
-1.933039 -3.195036 53.092934 48 32 33
-1.924754 -3.067382 52.865383 49 32 33
-1.916497 -2.940753 52.638592 50 33 34
-1.908275 -2.815153 52.412781 52 34 35
-1.900098 -2.690589 52.188175 53 35 36
-1.891974 -2.567066 51.965046 55 36 37
-1.883915 -2.444589 51.743694 57 37 38
-1.875931 -2.323160 51.524403 59 38 39
-1.868033 -2.202778 51.307484 60 39 41
-1.860232 -2.083439 51.093220 61 40 41
-1.852538 -1.965138 50.881901 61 40 41
-1.844962 -1.847865 50.673809 62 40 41
-1.837512 -1.731609 50.469181 62 39 41
-1.830196 -1.616354 50.268253 62 40 41
-1.823023 -1.502082 50.071236 61 40 41
-1.815999 -1.388774 49.878319 61 40 41
-1.809131 -1.276407 49.689682 61 41 41
-1.802424 -1.164958 49.505478 62 42 43
-1.795884 -1.054401 49.325840 63 43 44
-1.789515 -0.944709 49.150898 64 43 44
-1.783319 -0.835852 48.980740 65 43 43
-1.777302 -0.727802 48.815453 65 43 43
-1.771463 -0.620527 48.655094 65 43 43
-1.765806 -0.513997 48.499706 65 42 43
-1.760329 -0.408178 48.349293 65 42 42
-1.755034 -0.303039 48.203842 65 41 42
-1.749918 -0.198547 48.063332 66 41 42
-1.744980 -0.094671 47.927711 68 43 44
-1.740217 0.008622 47.796898 70 46 46
-1.735627 0.111361 47.670822 73 48 48
-1.731206 0.213578 47.549400 74 49 50
-1.726951 0.315302 47.432533 74 49 50
-1.722859 0.416561 47.320126 74 48 50
-1.718925 0.517383 47.212082 72 47 50
-1.715147 0.617796 47.108318 71 47 50
-1.711522 0.717825 47.008747 71 46 50
-1.708046 0.817496 46.913269 70 45 49
-1.704716 0.916834 46.821819 70 43 48
-1.701530 1.015864 46.734306 69 41 46
-1.698484 1.114609 46.650654 70 39 44
-1.695576 1.213091 46.570770 72 39 44
-1.692802 1.311333 46.494576 77 41 46
-1.690159 1.409356 46.421989 81 44 48
-1.687644 1.507180 46.352913 84 47 50
-1.685254 1.604825 46.287258 86 49 52
-1.682985 1.702310 46.224937 86 51 51
-1.680835 1.799653 46.165882 84 49 49
-1.678800 1.896873 46.110008 81 48 47
-1.676879 1.993986 46.057243 82 50 48
-1.675069 2.091011 46.007534 84 52 51
-1.673369 2.187964 45.960823 85 53 54
-1.671776 2.284863 45.917076 86 53 54
-1.670289 2.381724 45.876228 85 52 55
-1.668906 2.478564 45.838249 85 51 55
-1.667626 2.575399 45.803089 84 50 54
-1.666446 2.672243 45.770687 83 48 54
-1.665365 2.769111 45.740986 83 47 54
-1.664379 2.866016 45.713909 83 46 55
-1.663485 2.962968 45.689369 83 46 55
-1.662681 3.059978 45.667274 83 47 56
-1.661961 3.157055 45.647511 85 48 56
-1.661323 3.254205 45.629974 86 49 56
-1.660761 3.351435 45.614555 87 50 56
-1.660273 3.448750 45.601139 88 51 55
-1.659854 3.546155 45.589626 88 52 55
-1.659500 3.643654 45.579910 88 53 54
-1.659209 3.741252 45.571915 87 54 53
-1.658977 3.838954 45.565548 88 55 54
-1.658803 3.936764 45.560757 89 57 56
-1.658683 4.034687 45.557468 88 56 56
-1.658616 4.132727 45.555641 86 54 54
-1.658601 4.230890 45.555218 82 50 52
-1.658635 4.329180 45.556145 80 48 50
-1.658716 4.427600 45.558365 79 48 51
-1.658842 4.526152 45.561829 81 50 53
-1.659011 4.624839 45.566467 83 51 55
-1.659220 4.723660 45.572205 85 54 56
-1.659466 4.822613 45.578964 85 55 56
-1.659746 4.921697 45.586662 83 55 55
-1.660057 5.020908 45.595211 81 54 53
-1.660396 5.120241 45.604523 80 54 54
-1.660760 5.219692 45.614506 80 55 55
-1.661144 5.319252 45.625065 79 52 53
-1.661547 5.418917 45.636120 75 47 49
-1.661964 5.518679 45.647579 72 44 46
-1.662393 5.618530 45.659367 73 44 47
-1.662831 5.718464 45.671410 76 47 49
-1.663277 5.818474 45.683636 78 50 50
-1.663727 5.918552 45.695992 79 51 51
-1.664179 6.018694 45.708424 80 51 51
-1.664633 6.118895 45.720890 80 51 50
-1.665088 6.219151 45.733376 80 49 49
-1.665542 6.319462 45.745861 79 48 48
-1.665997 6.419828 45.758358 78 47 48
-1.666453 6.520253 45.770889 76 46 47
-1.666913 6.620745 45.783512 74 45 46
-1.667378 6.721314 45.796295 72 44 45
-1.667852 6.821974 45.809307 70 42 44
-1.668338 6.922740 45.822659 67 41 42
-1.668840 7.023632 45.836449 65 39 41
-1.669362 7.124668 45.850788 64 39 40
-1.669909 7.225870 45.865788 63 39 41
-1.670482 7.327258 45.881546 63 39 41
-1.671087 7.428851 45.898159 63 40 42
-1.671725 7.530667 45.915688 63 40 43
-1.672399 7.632721 45.934193 64 41 44
-1.673110 7.735026 45.953716 64 42 46
-1.673858 7.837589 45.974258 64 43 46
-1.674643 7.940417 45.995827 65 43 46
-1.675465 8.043516 46.018410 66 44 45
-1.676324 8.146887 46.041985 66 44 45
-1.677217 8.250535 46.066532 65 44 46
-1.678146 8.354461 46.092030 65 44 45
-1.679108 8.458669 46.118473 65 43 46
-1.680105 8.563165 46.145847 64 43 46
-1.681136 8.667957 46.174175 65 44 47
-1.682203 8.773057 46.203472 65 44 48
-1.683306 8.878474 46.233776 66 45 48
-1.684448 8.984226 46.265121 66 45 48
-1.685629 9.090328 46.297562 66 45 48
-1.686852 9.196797 46.331154 65 44 46
-1.688118 9.303652 46.365940 64 43 44
-1.689430 9.410911 46.401978 62 42 43
-1.690789 9.518588 46.439304 60 41 41
-1.692196 9.626700 46.477947 57 39 39
-2.155978 -8.943769 62.942894 34 27 27
-2.145195 -8.764031 62.628094 33 26 27
-2.134497 -8.585994 62.315765 32 26 27
-2.123878 -8.409616 62.005749 32 25 27
-2.113333 -8.234863 61.697899 31 24 27
-2.102860 -8.061712 61.392143 31 24 26
-2.092457 -7.890144 61.088428 32 24 27
-2.082124 -7.720146 60.786766 33 25 27
-2.071864 -7.551713 60.487225 35 26 28
-2.061682 -7.384849 60.189938 36 26 28
-2.051582 -7.219559 59.895092 38 27 28
-2.041573 -7.055853 59.602879 40 28 28
-2.031662 -6.893741 59.313541 42 29 29
-2.021858 -6.733232 59.027317 44 30 30
-2.012168 -6.574329 58.744431 46 32 31
-2.002600 -6.417035 58.465076 47 34 32
-1.993158 -6.261344 58.189434 47 35 32
-1.983848 -6.107244 57.917614 46 35 33
-1.974670 -5.954720 57.649689 45 35 33
-1.965627 -5.803744 57.385670 44 35 33
-1.956715 -5.654288 57.125500 43 34 32
-1.947932 -5.506318 56.869087 42 34 32
-1.939273 -5.359794 56.616272 42 33 32
-1.930730 -5.214674 56.366856 42 33 31
-1.922295 -5.070916 56.120613 42 33 31
-1.913960 -4.928476 55.877281 43 33 32
-1.905715 -4.787312 55.636570 44 33 33
-1.897550 -4.647381 55.398201 46 34 33
-1.889455 -4.508644 55.161861 48 34 34
-1.881419 -4.371065 54.927265 49 35 35
-1.873434 -4.234610 54.694130 49 36 36
-1.865490 -4.099251 54.462200 48 36 35
-1.857579 -3.964964 54.231255 47 36 34
-1.849695 -3.831728 54.001099 46 35 34
-1.841833 -3.699529 53.771572 46 34 33
-1.833990 -3.568354 53.542580 46 34 33
-1.826163 -3.438198 53.314075 47 34 33
-1.818353 -3.309059 53.086075 48 34 34
-1.810563 -3.180937 52.858639 50 33 34
-1.802796 -3.053834 52.631882 51 33 34
-1.795058 -2.927757 52.405983 52 34 34
-1.787357 -2.802711 52.181149 53 34 35
-1.779700 -2.678702 51.957615 54 35 36
-1.772098 -2.555735 51.735664 56 36 37
-1.764560 -2.433813 51.515594 58 38 39
-1.757096 -2.312938 51.297699 60 39 40
-1.749717 -2.193109 51.082279 62 40 41
-1.742433 -2.074321 50.869621 62 40 42
-1.735254 -1.956568 50.660015 61 40 42
-1.728188 -1.839840 50.453724 61 40 41
-1.721243 -1.724122 50.250980 61 39 41
-1.714428 -1.609401 50.052017 61 39 40
-1.707749 -1.495656 49.857044 61 40 41
-1.701214 -1.382869 49.666233 61 41 42
-1.694826 -1.271015 49.479752 62 42 43
-1.688592 -1.160070 49.297745 63 43 44
-1.682515 -1.050009 49.120342 64 43 44
-1.676601 -0.940803 48.947662 65 43 44
-1.670850 -0.832423 48.779785 65 43 44
-1.665267 -0.724840 48.616787 66 43 44
-1.659853 -0.618023 48.458721 66 42 43
-1.654609 -0.511940 48.305618 67 42 44
-1.649534 -0.406558 48.157475 68 42 44
-1.644629 -0.301847 48.014278 69 42 44
-1.639893 -0.197773 47.876007 70 43 45
-1.635323 -0.094305 47.742580 71 45 46
-1.630917 0.008589 47.613945 74 48 49
-1.626672 0.110939 47.490005 76 51 51
-1.622584 0.212775 47.370674 77 51 52
-1.618651 0.314127 47.255856 77 50 51
-1.614869 0.415023 47.145451 76 49 51
-1.611235 0.515490 47.039356 76 48 52
-1.607746 0.615555 46.937492 75 48 52
-1.604399 0.715244 46.839756 75 47 51
-1.601189 0.814582 46.746067 74 46 50
-1.598116 0.913594 46.656330 74 44 49
-1.595175 1.012303 46.570473 73 42 47
-1.592364 1.110733 46.488411 73 40 45
-1.589680 1.208905 46.410049 75 40 46
-1.587120 1.306841 46.335304 79 43 47
-1.584681 1.404563 46.264099 83 46 50
-1.582360 1.502089 46.196335 86 48 52
-1.580153 1.599439 46.131916 89 50 54
-1.578059 1.696633 46.070774 88 51 53
-1.576074 1.793687 46.012825 86 49 51
-1.574196 1.890619 45.958000 84 49 49
-1.572423 1.987448 45.906231 85 51 50
-1.570752 2.084190 45.857468 87 53 53
-1.569183 2.180863 45.811657 89 55 56
-1.567714 2.277483 45.768772 89 54 56
-1.566344 2.374068 45.728771 88 54 56
-1.565071 2.470635 45.691612 88 53 57
-1.563894 2.567199 45.657253 87 51 56
-1.562812 2.663776 45.625656 85 49 55
-1.561822 2.760380 45.596756 84 48 55
-1.560922 2.857024 45.570484 84 47 55
-1.560110 2.953720 45.546764 84 47 56
-1.559381 3.050478 45.525497 84 47 56
-1.558733 3.147308 45.506577 86 48 56
-1.558162 3.244215 45.489895 87 49 56
-1.557663 3.341206 45.475342 88 51 56
-1.557234 3.438288 45.462803 88 51 56
-1.556870 3.535463 45.452168 88 52 55
-1.556567 3.632736 45.443329 88 52 54
-1.556323 3.730111 45.436199 88 53 54
-1.556134 3.827592 45.430695 90 56 56
-1.555999 3.925184 45.426735 91 57 58
-1.555914 4.022889 45.424259 89 56 57
-1.555878 4.120713 45.423210 86 52 54
-1.555889 4.218660 45.423534 84 50 53
-1.555945 4.316733 45.425163 83 50 53
-1.556044 4.414935 45.428047 83 50 53
-1.556183 4.513268 45.432133 84 51 54
-1.556362 4.611734 45.437351 85 52 56
-1.556577 4.710331 45.443619 86 54 56
-1.556825 4.809060 45.450867 86 54 56
-1.557104 4.907916 45.459015 83 54 55
-1.557411 5.006896 45.467972 81 53 53
-1.557742 5.105996 45.477642 80 52 53
-1.558095 5.205209 45.487946 80 52 53
-1.558467 5.304530 45.498787 79 50 52
-1.558853 5.403951 45.510078 76 46 49
-1.559252 5.503464 45.521729 74 43 47
-1.559661 5.603063 45.533669 76 45 48
-1.560078 5.702739 45.545822 78 48 50
-1.560498 5.802486 45.558109 80 51 52
-1.560922 5.902295 45.570477 81 53 52
-1.561347 6.002162 45.582867 82 53 52
-1.561771 6.102080 45.595249 81 52 51
-1.562194 6.202047 45.607597 80 50 50
-1.562615 6.302061 45.619896 79 48 49
-1.563035 6.402123 45.632164 78 47 48
-1.563455 6.502238 45.644432 77 46 48
-1.563877 6.602413 45.656742 76 46 48
-1.564303 6.702658 45.669178 75 45 47
-1.564736 6.802989 45.681824 73 44 46
-1.565180 6.903422 45.694786 71 43 44
-1.565639 7.003976 45.708176 68 41 43
-1.566116 7.104673 45.722111 67 41 42
-1.566616 7.205535 45.736717 66 40 42
-1.567143 7.306584 45.752094 65 40 42
-1.567700 7.407842 45.768356 65 40 43
-1.568290 7.509326 45.785568 65 40 44
-1.568914 7.611054 45.803802 66 41 45
-1.569575 7.713041 45.823105 66 42 46
-1.570274 7.815296 45.843494 66 42 46
-1.571010 7.917828 45.864979 67 43 46
-1.571783 8.020643 45.887550 68 43 46
-1.572593 8.123745 45.911194 68 44 46
-1.573439 8.227137 45.935890 67 44 46
-1.574320 8.330823 45.961620 67 43 46
-1.575236 8.434807 45.988369 66 43 46
-1.576187 8.539094 46.016132 66 43 46
-1.577173 8.643694 46.044922 66 44 47
-1.578195 8.748614 46.074749 66 45 47
-1.579253 8.853868 46.105633 67 45 48
-1.580348 8.959466 46.137615 67 45 48
-1.581482 9.065423 46.170723 67 45 48
-1.582656 9.171756 46.205002 67 45 47
-1.583872 9.278478 46.240482 65 44 46
-1.585130 9.385605 46.277206 64 43 45
-1.586431 9.493148 46.315186 61 42 43
-1.587775 9.601120 46.354446 58 40 40
-1.589164 9.709529 46.394989 57 39 39
-2.021466 -9.084716 62.979389 33 28 27
-2.011327 -8.904070 62.663509 33 27 27
-2.001271 -8.725148 62.350227 32 26 27
-1.991295 -8.547914 62.039391 32 26 27
-1.981391 -8.372330 61.730835 32 25 27
-1.971557 -8.198365 61.424450 32 25 27
-1.961790 -8.025997 61.120159 32 25 27
-1.952089 -7.855207 60.817928 33 25 27
-1.942455 -7.685983 60.517769 34 26 28
-1.932889 -7.518320 60.219757 36 26 29
-1.923397 -7.352224 59.924034 37 27 29
-1.913984 -7.187698 59.630768 40 28 30
-1.904657 -7.024753 59.340164 41 29 30
-1.895422 -6.863395 59.052448 43 30 30
-1.886287 -6.703634 58.767845 44 31 31
-1.877259 -6.545472 58.486580 46 32 32
-1.868344 -6.388909 58.208828 47 34 33
-1.859547 -6.233940 57.934753 47 35 34
-1.850872 -6.080552 57.664478 47 35 35
-1.842320 -5.928726 57.398041 46 36 34
-1.833892 -5.778438 57.135452 45 35 34
-1.825585 -5.629657 56.876648 44 35 33
-1.817396 -5.482349 56.621536 44 35 32
-1.809321 -5.336474 56.369946 44 34 31
-1.801352 -5.191992 56.121681 44 34 31
-1.793483 -5.048860 55.876511 44 34 31
-1.785705 -4.907034 55.634178 45 34 32
-1.778009 -4.766475 55.394409 47 35 33
-1.770386 -4.627139 55.156902 49 36 34
-1.762825 -4.488987 54.921368 50 36 36
-1.755320 -4.351987 54.687534 51 36 37
-1.747860 -4.216105 54.455120 50 37 36
-1.740438 -4.081313 54.223881 49 37 36
-1.733047 -3.947589 53.993610 48 36 35
-1.725681 -3.814914 53.764122 48 36 34
-1.718336 -3.683272 53.535278 48 35 34
-1.711008 -3.552654 53.306992 48 35 34
-1.703698 -3.423054 53.079231 49 35 35
-1.696405 -3.294470 52.852028 50 35 35
-1.689133 -3.166904 52.625450 52 35 36
-1.681885 -3.040358 52.399632 53 35 35
-1.674666 -2.914839 52.174744 54 35 35
-1.667485 -2.790351 51.951012 55 35 35
-1.660349 -2.666900 51.728695 56 36 36
-1.653267 -2.544491 51.508053 57 37 38
-1.646249 -2.423127 51.289398 60 39 40
-1.639304 -2.302808 51.073025 62 40 41
-1.632442 -2.183533 50.859234 62 40 41
-1.625672 -2.065297 50.648304 62 40 42
-1.619002 -1.948091 50.440517 61 40 42
-1.612443 -1.831905 50.236145 61 40 41
-1.605999 -1.716726 50.035404 61 40 41
-1.599680 -1.602535 49.838509 60 40 41
-1.593490 -1.489315 49.645672 61 41 42
-1.587436 -1.377044 49.457054 61 42 43
-1.581522 -1.265699 49.272816 62 42 43
-1.575754 -1.155254 49.093086 64 43 44
-1.570134 -1.045683 48.917999 65 43 45
-1.564666 -0.936958 48.747643 66 43 45
-1.559353 -0.829050 48.582108 66 43 45
-1.554196 -0.721928 48.421455 67 43 44
-1.549198 -0.615562 48.265736 68 42 44
-1.544358 -0.509919 48.114960 70 43 45
-1.539678 -0.404968 47.969131 72 43 46
-1.535155 -0.300677 47.828224 73 45 46
-1.530789 -0.197014 47.692207 74 46 47
-1.526578 -0.093946 47.561012 76 48 49
-1.522519 0.008556 47.434559 78 51 51
-1.518610 0.110525 47.312759 80 53 53
-1.514847 0.211989 47.195526 80 52 53
-1.511227 0.312977 47.082752 80 51 53
-1.507748 0.413517 46.974339 79 51 53
-1.504404 0.513636 46.870182 79 50 53
-1.501195 0.613361 46.770191 78 49 53
-1.498116 0.712717 46.674263 78 48 52
-1.495165 0.811729 46.582317 78 47 51
-1.492338 0.910420 46.494263 78 46 50
-1.489634 1.008815 46.410011 77 44 49
-1.487050 1.106936 46.329487 76 43 48
-1.484582 1.204803 46.252594 78 43 48
-1.482227 1.302440 46.179249 81 44 49
-1.479984 1.399865 46.109356 84 46 51
-1.477849 1.497098 46.042839 87 48 53
-1.475819 1.594159 45.979607 88 49 54
-1.473892 1.691064 45.919571 88 50 53
-1.472066 1.787833 45.862667 87 49 52
-1.470338 1.884483 45.808826 87 49 51
-1.468706 1.981030 45.757992 88 51 53
-1.467169 2.077493 45.710106 90 54 56
-1.465726 2.173888 45.665146 92 56 58
-1.464375 2.270233 45.623070 92 56 59
-1.463117 2.366545 45.583851 91 55 58
-1.461949 2.462840 45.547455 90 54 59
-1.460870 2.559136 45.513859 89 52 58
-1.459880 2.655448 45.483013 87 50 57
-1.458977 2.751790 45.454868 86 49 56
-1.458158 2.848176 45.429359 85 48 56
-1.457421 2.944618 45.406414 85 48 56
-1.456764 3.041127 45.385933 86 49 56
-1.456183 3.137711 45.367821 87 50 56
-1.455673 3.234377 45.351952 87 51 56
-1.455233 3.331132 45.338226 88 51 56
-1.454857 3.427981 45.326527 88 51 56
-1.454543 3.524928 45.316730 88 51 56
-1.454286 3.621976 45.308731 88 51 55
-1.454084 3.719129 45.302429 89 53 55
-1.453933 3.816391 45.297737 90 55 56
-1.453832 3.913764 45.294571 91 56 57
-1.453777 4.011252 45.292858 89 55 57
-1.453767 4.108859 45.292542 87 52 55
-1.453799 4.206589 45.293560 86 51 54
-1.453872 4.304443 45.295841 86 51 54
-1.453985 4.402426 45.299339 86 51 54
-1.454134 4.500538 45.303986 86 52 55
-1.454318 4.598780 45.309723 87 53 56
-1.454535 4.697152 45.316467 87 54 56
-1.454781 4.795651 45.324146 86 55 56
-1.455055 4.894276 45.332680 85 54 55
-1.455353 4.993022 45.341980 83 52 54
-1.455674 5.091885 45.351959 81 51 53
-1.456013 5.190857 45.362526 80 50 52
-1.456368 5.289934 45.373592 78 48 50
-1.456736 5.389107 45.385067 77 45 48
-1.457115 5.488369 45.396873 76 44 47
-1.457502 5.587712 45.408920 78 45 48
-1.457894 5.687128 45.421139 80 49 51
-1.458290 5.786610 45.433456 82 52 52
-1.458686 5.886148 45.445808 83 53 53
-1.459082 5.985740 45.458153 83 53 52
-1.459476 6.085376 45.470436 82 52 51
-1.459868 6.185056 45.482647 81 51 50
-1.460258 6.284776 45.494770 80 49 49
-1.460644 6.384538 45.506821 80 48 49
-1.461030 6.484346 45.518833 79 48 49
-1.461416 6.584209 45.530865 79 48 49
-1.461805 6.684137 45.542984 78 47 49
-1.462200 6.784146 45.555298 76 46 48
-1.462605 6.884254 45.567909 74 45 47
-1.463023 6.984479 45.580936 71 43 45
-1.463459 7.084846 45.594513 70 43 44
-1.463916 7.185377 45.608765 69 42 43
-1.464399 7.286096 45.623806 68 42 43
-1.464911 7.387025 45.639740 67 41 44
-1.465454 7.488186 45.656670 68 41 45
-1.466032 7.589596 45.674664 68 42 46
-1.466645 7.691271 45.693768 69 42 47
-1.467295 7.793223 45.714016 69 42 47
-1.467982 7.895463 45.735420 69 43 48
-1.468706 7.997995 45.757980 70 43 48
-1.469467 8.100828 45.781681 70 44 48
-1.470263 8.203965 45.806511 69 44 48
-1.471096 8.307409 45.832447 69 44 47
-1.471964 8.411166 45.859478 68 44 47
-1.472866 8.515243 45.887604 68 44 47
-1.473804 8.619644 45.916809 68 45 46
-1.474777 8.724381 45.947124 67 45 47
-1.475785 8.829463 45.978550 68 45 47
-1.476831 8.934901 46.011116 69 45 48
-1.477913 9.040708 46.044842 69 45 48
-1.479034 9.146896 46.079765 69 45 48
-1.480194 9.253480 46.115902 68 45 48
-1.481393 9.360468 46.153263 66 44 46
-1.482632 9.467872 46.191868 63 43 44
-1.483911 9.575697 46.231705 60 41 42
-1.485229 9.683949 46.272758 58 39 40
-1.886804 -9.225860 63.016144 32 27 26
-1.877308 -9.044270 62.698994 32 27 26
-1.867893 -8.864429 62.384541 32 27 27
-1.858555 -8.686306 62.072659 32 26 27
-1.849289 -8.509861 61.763210 32 26 28
-1.840092 -8.335061 61.456047 32 25 28
-1.830961 -8.161877 61.151062 32 26 27
-1.821892 -7.990284 60.848198 33 26 27
-1.812886 -7.820267 60.547413 33 26 27
-1.803944 -7.651816 60.248749 35 27 28
-1.795067 -7.484925 59.952267 37 27 29
-1.786259 -7.319597 59.658115 38 28 30
-1.777526 -7.155839 59.366455 41 29 30
-1.768874 -6.993656 59.077484 42 30 31
-1.760309 -6.833057 58.791420 43 31 31
-1.751838 -6.674049 58.508488 45 32 32
-1.743466 -6.516634 58.228889 46 33 33
-1.735200 -6.360809 57.952805 47 34 34
-1.727042 -6.206567 57.680363 47 35 35
-1.718998 -6.053896 57.411694 47 36 36
-1.711067 -5.902776 57.146809 47 36 35
-1.703249 -5.753181 56.885719 47 36 35
-1.695544 -5.605082 56.628361 46 36 34
-1.687946 -5.458441 56.374615 46 36 33
-1.680452 -5.313222 56.124329 46 35 31
-1.673055 -5.169383 55.877293 45 34 30
-1.665749 -5.026881 55.633270 45 34 30
-1.658525 -4.885675 55.392017 46 35 31
-1.651377 -4.745724 55.153255 48 36 33
-1.644294 -4.606987 54.916698 50 37 35
-1.637268 -4.469427 54.682056 51 38 37
-1.630292 -4.333010 54.449070 52 38 37
-1.623358 -4.197705 54.217468 52 38 37
-1.616457 -4.063485 53.987011 52 38 37
-1.609586 -3.930328 53.757511 51 37 36
-1.602738 -3.798215 53.528790 50 36 36
-1.595909 -3.667135 53.300735 50 36 35
-1.589098 -3.537077 53.073269 50 36 35
-1.582304 -3.408036 52.846359 51 36 36
-1.575529 -3.280011 52.620068 53 36 37
-1.568774 -3.153003 52.394466 54 36 38
-1.562044 -3.027017 52.169697 55 36 37
-1.555345 -2.902057 51.945953 55 36 37
-1.548683 -2.778128 51.723450 56 37 37
-1.542066 -2.655236 51.502460 57 37 38
-1.535503 -2.533386 51.283257 59 38 40
-1.529002 -2.412579 51.066135 61 40 42
-1.522572 -2.292816 50.851406 63 41 42
-1.516223 -2.174093 50.639351 63 41 42
-1.509963 -2.056405 50.430260 63 41 42
-1.503799 -1.939744 50.224400 62 41 41
-1.497740 -1.824098 50.022038 61 41 42
-1.491792 -1.709452 49.823391 61 41 42
-1.485961 -1.595788 49.628658 60 41 42
-1.480254 -1.483087 49.438042 61 42 43
-1.474674 -1.371326 49.251694 62 42 44
-1.469227 -1.260483 49.069771 63 42 44
-1.463916 -1.150531 48.892391 65 43 44
-1.458745 -1.041444 48.719669 66 43 45
-1.453716 -0.933192 48.551704 67 43 45
-1.448831 -0.825747 48.388561 67 43 45
-1.444093 -0.719078 48.230309 68 42 45
-1.439501 -0.613154 48.076965 69 42 45
-1.435058 -0.507944 47.928555 71 43 46
-1.430761 -0.403414 47.785072 74 44 47
-1.426612 -0.299535 47.646481 76 46 48
-1.422607 -0.196272 47.512741 78 48 49
-1.418746 -0.093596 47.383781 80 51 51
-1.415026 0.008525 47.259521 82 53 53
-1.411443 0.110121 47.139866 84 54 54
-1.407995 0.211221 47.024715 84 53 54
-1.404679 0.311855 46.913975 83 52 54
-1.401492 0.412048 46.807526 83 52 54
-1.398431 0.511829 46.705276 83 51 54
-1.395492 0.611223 46.607124 82 50 53
-1.392673 0.710254 46.512974 81 49 52
-1.389971 0.808948 46.422729 80 47 51
-1.387383 0.907327 46.336304 79 46 49
-1.384907 1.005415 46.253609 79 45 49
-1.382540 1.103234 46.174564 80 44 49
-1.380280 1.200804 46.099075 81 44 49
-1.378124 1.298147 46.027054 82 45 50
-1.376068 1.395282 45.958420 84 46 51
-1.374112 1.492229 45.893082 86 47 51
-1.372252 1.589005 45.830959 87 47 52
-1.370486 1.685628 45.771969 88 48 52
-1.368811 1.782117 45.716045 88 48 53
-1.367227 1.878489 45.663120 89 49 53
-1.365731 1.974759 45.613152 90 51 55
-1.364322 2.070947 45.566093 92 54 57
-1.362999 2.167069 45.521912 94 57 59
-1.361762 2.263143 45.480595 95 57 60
-1.360609 2.359186 45.442104 94 56 60
-1.359541 2.455214 45.406425 93 55 60
-1.358556 2.551246 45.373535 91 54 59
-1.357654 2.647297 45.343403 89 52 58
-1.356833 2.743381 45.315968 88 50 57
-1.356090 2.839513 45.291183 87 49 56
-1.355425 2.935705 45.268970 87 49 56
-1.354835 3.031968 45.249249 88 50 57
-1.354315 3.128310 45.231899 88 51 57
-1.353864 3.224739 45.216812 88 52 57
-1.353477 3.321261 45.203884 88 53 57
-1.353150 3.417881 45.192982 88 52 57
-1.352881 3.514603 45.183987 88 52 57
-1.352665 3.611428 45.176788 89 52 56
-1.352500 3.708362 45.171276 89 53 56
-1.352383 3.805406 45.167358 90 53 56
-1.352311 3.902563 45.164940 90 54 56
-1.352281 3.999835 45.163952 89 54 56
-1.352292 4.097227 45.164322 89 53 55
-1.352342 4.194740 45.165981 88 52 55
-1.352428 4.292378 45.168873 87 52 54
-1.352550 4.390141 45.172924 87 52 54
-1.352704 4.488030 45.178085 87 53 55
-1.352890 4.586049 45.184280 88 54 56
-1.353104 4.684193 45.191448 88 55 57
-1.353345 4.782463 45.199497 88 55 57
-1.353611 4.880854 45.208359 87 55 57
-1.353897 4.979363 45.217945 85 53 56
-1.354203 5.077986 45.228165 83 51 53
-1.354526 5.176715 45.238941 81 49 51
-1.354862 5.275545 45.250172 79 47 49
-1.355210 5.374468 45.261784 78 45 48
-1.355567 5.473476 45.273685 78 44 47
-1.355929 5.572561 45.285801 79 46 49
-1.356296 5.671716 45.298046 81 49 51
-1.356665 5.770931 45.310360 83 51 52
-1.357033 5.870200 45.322670 84 53 53
-1.357400 5.969515 45.334938 84 54 54
-1.357765 6.068871 45.347111 84 54 53
-1.358126 6.168265 45.359177 84 53 52
-1.358484 6.267694 45.371120 82 51 51
-1.358838 6.367160 45.382961 82 50 51
-1.359191 6.466668 45.394733 82 49 51
-1.359543 6.566225 45.406502 81 49 51
-1.359897 6.665843 45.418335 81 49 51
-1.360257 6.765537 45.430340 79 48 49
-1.360625 6.865327 45.442635 77 46 48
-1.361006 6.965233 45.455341 74 45 46
-1.361402 7.065278 45.468586 73 45 45
-1.361819 7.165488 45.482521 71 44 45
-1.362261 7.265886 45.497257 70 44 45
-1.362729 7.366498 45.512913 70 43 46
-1.363229 7.467343 45.529591 71 43 46
-1.363761 7.568443 45.547363 71 43 47
-1.364328 7.669815 45.566296 71 43 48
-1.364930 7.771471 45.586422 72 43 48
-1.365569 7.873424 45.607758 72 44 49
-1.366244 7.975679 45.630306 73 44 49
-1.366956 8.078247 45.654064 73 45 49
-1.367703 8.181130 45.679016 72 45 48
-1.368485 8.284335 45.705143 71 45 48
-1.369302 8.387865 45.732433 71 45 48
-1.370154 8.491728 45.760880 70 45 47
-1.371040 8.595929 45.790478 68 45 46
-1.371961 8.700479 45.821239 68 45 47
-1.372917 8.805384 45.853161 70 46 48
-1.373908 8.910657 45.886269 71 46 48
-1.374935 9.016308 45.920574 71 47 49
-1.375999 9.122348 45.956093 71 47 49
-1.377099 9.228785 45.992825 71 46 49
-1.378235 9.335629 46.030792 68 45 47
-1.379408 9.442885 46.069965 65 44 45
-1.380617 9.550559 46.110336 63 42 43
-1.381861 9.658648 46.151867 61 40 42
-1.383138 9.767154 46.194519 60 40 41
-1.752038 -9.367452 63.054855 31 25 25
-1.743185 -9.184877 62.736221 32 26 26
-1.734408 -9.004077 62.420364 32 26 26
-1.725706 -8.825020 62.107189 32 26 27
-1.717076 -8.647674 61.796593 32 26 27
-1.708514 -8.472002 61.488434 32 26 28
-1.700015 -8.297972 61.182579 32 26 28
-1.691578 -8.125555 60.878937 33 26 27
-1.683201 -7.954731 60.577446 33 27 27
-1.674883 -7.785481 60.278091 34 27 28
-1.666625 -7.617797 59.980892 36 28 28
-1.658430 -7.451674 59.685936 38 28 29
-1.650300 -7.287114 59.393356 39 29 30
-1.642241 -7.124121 59.103317 41 30 30
-1.634258 -6.962702 58.816006 42 30 30
-1.626356 -6.802863 58.531631 43 31 30
-1.618542 -6.644610 58.250408 44 32 31
-1.610821 -6.487942 57.972523 45 33 33
-1.603197 -6.332857 57.698139 47 34 35
-1.595674 -6.179347 57.427399 47 35 37
-1.588255 -6.027396 57.160381 48 36 37
-1.580940 -5.876985 56.897118 48 36 36
-1.573729 -5.728087 56.637596 48 37 36
-1.566619 -5.580671 56.381737 48 37 36
-1.559609 -5.434702 56.129436 47 37 34
-1.552692 -5.290141 55.880516 47 36 33
-1.545864 -5.146946 55.634769 46 35 31
-1.539118 -5.005078 55.391972 46 34 31
-1.532447 -4.864495 55.151878 47 36 32
-1.525842 -4.725154 54.914200 49 37 34
-1.519298 -4.587019 54.678661 51 38 35
-1.512805 -4.450051 54.445000 53 38 37
-1.506357 -4.314219 54.212936 54 39 37
-1.499947 -4.179492 53.982227 54 39 38
-1.493567 -4.045845 53.752644 54 39 38
-1.487215 -3.913256 53.524014 54 39 37
-1.480884 -3.781709 53.296169 53 38 37
-1.474572 -3.651191 53.069000 53 37 37
-1.468277 -3.521693 52.842445 53 36 37
-1.461999 -3.393212 52.616505 54 36 37
-1.455739 -3.265747 52.391232 55 37 38
-1.449501 -3.139298 52.166721 56 37 38
-1.443288 -3.013870 51.943119 56 38 39
-1.437106 -2.889468 51.720623 57 38 39
-1.430961 -2.766098 51.499470 58 38 39
-1.424860 -2.643763 51.279919 59 39 40
-1.418812 -2.522468 51.062252 61 40 41
-1.412825 -2.402215 50.846779 63 42 43
-1.406907 -2.283003 50.633785 65 43 44
-1.401066 -2.164829 50.423569 65 42 43
-1.395310 -2.047685 50.216404 65 41 43
-1.389646 -1.931563 50.012573 64 41 42
-1.384082 -1.816450 49.812309 63 41 42
-1.378622 -1.702330 49.615826 62 41 42
-1.373273 -1.589186 49.423332 62 42 43
-1.368041 -1.476996 49.235004 62 42 44
-1.362928 -1.365738 49.050999 63 43 44
-1.357939 -1.255389 48.871452 64 43 45
-1.353077 -1.145921 48.696476 66 44 45
-1.348345 -1.037308 48.526176 67 44 45
-1.343746 -0.929520 48.360645 67 44 45
-1.339280 -0.822528 48.199940 68 43 45
-1.334951 -0.716302 48.044109 68 42 45
-1.330757 -0.610810 47.893188 69 43 46
-1.326700 -0.506021 47.747169 72 43 47
-1.322779 -0.401903 47.606052 76 45 48
-1.318992 -0.298424 47.469788 79 47 50
-1.315340 -0.195552 47.338333 82 50 51
-1.311819 -0.093256 47.211617 84 52 52
-1.308427 0.008494 47.089546 86 53 54
-1.305161 0.109729 46.972019 88 54 55
-1.302019 0.210477 46.858940 87 54 55
-1.298998 0.310766 46.750206 87 53 55
-1.296094 0.410624 46.645699 86 53 55
-1.293305 0.510076 46.545319 85 52 55
-1.290628 0.609149 46.448963 84 51 53
-1.288060 0.707865 46.356537 83 49 52
-1.285598 0.806251 46.267941 80 47 50
-1.283240 0.904327 46.183083 79 45 48
-1.280984 1.002117 46.101883 80 45 49
-1.278827 1.099643 46.024254 81 45 49
-1.276767 1.196924 45.950100 82 45 50
-1.274800 1.293981 45.879341 83 46 50
-1.272926 1.390833 45.811886 84 46 50
-1.271142 1.487500 45.747658 85 46 50
-1.269444 1.583999 45.686573 86 47 51
-1.267832 1.680347 45.628555 87 47 52
-1.266303 1.776562 45.573540 89 47 53
-1.264857 1.872661 45.521473 90 48 54
-1.263491 1.968662 45.472305 90 50 54
-1.262204 2.064581 45.426010 92 53 57
-1.260997 2.160435 45.382557 95 56 59
-1.259868 2.256243 45.341934 97 57 61
-1.258818 2.352022 45.304127 97 57 61
-1.257845 2.447790 45.269115 95 56 61
-1.256949 2.543563 45.236889 93 55 59
-1.256130 2.639357 45.207417 91 53 58
-1.255387 2.735190 45.180660 90 51 57
-1.254717 2.831073 45.156555 89 50 56
-1.254119 2.927020 45.135044 89 51 56
-1.253591 3.023042 45.116035 90 52 57
-1.253130 3.119148 45.099419 90 53 58
-1.252731 3.215345 45.085087 90 54 59
-1.252393 3.311639 45.072914 90 55 59
-1.252111 3.408034 45.062778 90 54 59
-1.251883 3.504534 45.054554 90 53 58
-1.251704 3.601143 45.048122 90 53 57
-1.251572 3.697861 45.043362 90 52 56
-1.251484 3.794691 45.040180 89 52 55
-1.251436 3.891635 45.038475 89 52 55
-1.251428 3.988696 45.038166 89 52 55
-1.251456 4.085875 45.039181 89 52 55
-1.251519 4.183174 45.041443 88 51 54
-1.251614 4.280595 45.044884 87 51 53
-1.251741 4.378140 45.049450 87 51 54
-1.251897 4.475811 45.055069 88 53 55
-1.252081 4.573605 45.061676 89 54 56
-1.252290 4.671522 45.069199 90 56 58
-1.252522 4.769561 45.077560 91 58 60
-1.252776 4.867719 45.086693 92 58 60
-1.253048 4.965991 45.096500 89 55 58
-1.253338 5.064373 45.106915 85 51 53
-1.253641 5.162857 45.117836 82 48 51
-1.253957 5.261439 45.129181 81 48 50
-1.254281 5.360110 45.140869 81 47 49
-1.254613 5.458863 45.152817 81 47 50
-1.254950 5.557690 45.164948 81 48 51
-1.255290 5.656582 45.177177 83 49 52
-1.255631 5.755530 45.189442 84 51 53
-1.255971 5.854529 45.201683 85 53 54
-1.256309 5.953570 45.213840 86 54 55
-1.256643 6.052647 45.225880 86 54 55
-1.256974 6.151757 45.237785 86 54 55
-1.257301 6.250899 45.249542 85 53 54
-1.257624 6.350073 45.261169 84 52 54
-1.257945 6.449285 45.272709 84 51 53
