ply
format ascii 1.0
element vertex 1205
property float x
property float y
property float z
property uchar red
property uchar green
property uchar blue
end_header
5.552559 8.284659 35.231731 229 131 150
5.563328 8.376822 35.300064 226 130 148
5.573069 8.467717 35.361870 225 130 146
5.581788 8.557312 35.417194 224 129 145
5.589510 8.645605 35.466194 224 128 145
5.596281 8.732622 35.509151 222 125 144
5.602160 8.818422 35.546452 222 122 144
5.607223 8.903089 35.578583 224 122 145
5.611559 8.986728 35.606094 226 121 148
5.615263 9.069465 35.629601 224 117 146
5.618434 9.151435 35.649715 221 113 142
5.621173 9.232782 35.667095 216 107 134
5.623578 9.313652 35.682358 206 98 122
5.625744 9.394188 35.696098 197 90 110
5.627756 9.474524 35.708866 193 86 102
5.629693 9.554788 35.721157 194 88 101
5.631622 9.635092 35.733398 199 93 106
5.633604 9.715537 35.745968 202 97 110
5.635684 9.796209 35.759171 198 94 107
5.637903 9.877182 35.773251 186 83 98
5.640291 9.958514 35.788403 171 70 86
5.642872 10.040254 35.804783 162 64 79
5.645664 10.122443 35.822498 160 66 81
5.648682 10.205116 35.841644 159 69 83
5.651935 10.288301 35.862289 156 69 82
5.655433 10.372023 35.884483 151 68 79
5.659184 10.456306 35.908279 145 66 78
5.663194 10.541179 35.933727 139 63 75
5.667473 10.626661 35.960873 134 59 73
5.672025 10.712780 35.989761 141 65 80
5.676859 10.799557 36.020432 156 76 93
5.681977 10.887012 36.052910 164 82 99
5.687385 10.975165 36.087219 166 83 99
5.693078 11.064021 36.123344 165 83 98
5.699053 11.153585 36.161259 159 78 92
5.705298 11.243844 36.200882 142 64 78
5.711795 11.334773 36.242104 130 56 67
5.718516 11.426329 36.284752 133 65 75
5.725429 11.518454 36.328613 131 68 76
5.732491 11.611070 36.373421 117 58 66
5.739650 11.704079 36.418854 100 44 51
5.746848 11.797360 36.464520 88 34 41
5.754019 11.890784 36.510021 84 30 36
5.761088 11.984193 36.554878 83 26 33
5.767982 12.077429 36.598621 83 22 32
5.774623 12.170319 36.640759 86 20 30
5.780932 12.262686 36.680786 89 17 29
5.786830 12.354351 36.718216 94 17 29
5.792247 12.445140 36.752583 102 20 33
5.797110 12.534883 36.783443 113 26 40
5.801360 12.623423 36.810410 122 32 46
5.804942 12.710616 36.833134 130 38 52
5.807808 12.796330 36.851318 139 46 59
5.809918 12.880448 36.864712 144 50 62
5.811242 12.962870 36.873112 144 49 61
5.811753 13.043503 36.876354 140 45 57
4.073627 0.554271 25.498938 234 176 193
4.084672 0.610890 25.568075 220 155 174
4.096187 0.667883 25.640148 208 145 161
4.108163 0.725269 25.715117 193 132 145
4.120588 0.783063 25.792889 202 150 159
4.133439 0.841280 25.873327 235 203 208
4.146686 0.899929 25.956247 253 238 241
4.160293 0.959018 26.041422 254 239 244
4.174214 1.018552 26.128565 254 237 245
4.188398 1.078529 26.217350 254 231 245
4.202786 1.138944 26.307411 252 205 229
4.217316 1.199787 26.398361 245 162 195
4.231923 1.261046 26.489792 239 131 170
4.246539 1.322701 26.581284 239 119 157
4.261102 1.384734 26.672440 241 108 143
4.275552 1.447122 26.762890 245 105 136
4.289836 1.509841 26.852299 251 112 139
4.303910 1.572869 26.940395 254 118 144
4.317740 1.636184 27.026968 254 123 149
4.331306 1.699769 27.111885 254 128 155
4.344599 1.763609 27.195091 254 132 161
4.357623 1.827695 27.276613 254 135 166
4.370392 1.892022 27.356543 254 133 168
4.382934 1.956592 27.435047 254 128 165
4.395283 2.021413 27.512348 253 121 157
4.407482 2.086495 27.588705 252 118 152
4.419577 2.151856 27.664413 251 122 152
4.431619 2.217516 27.739790 247 127 153
4.443657 2.283501 27.815149 238 128 149
4.455741 2.349833 27.890787 228 126 144
4.467917 2.416542 27.967005 219 127 143
4.480229 2.483655 28.044069 222 143 160
4.492714 2.551198 28.122217 237 175 194
4.505406 2.619198 28.201662 250 191 213
4.518333 2.687681 28.282581 253 195 216
4.531519 2.756670 28.365118 253 208 225
4.544984 2.826189 28.449402 254 212 228
4.558740 2.896255 28.535509 254 214 232
4.572799 2.966890 28.623508 254 222 238
4.587165 3.038107 28.713434 254 211 228
4.601841 3.109922 28.805300 254 189 212
4.616826 3.182346 28.899099 254 181 208
4.632116 3.255388 28.994808 254 179 207
4.647705 3.329057 29.092382 254 177 204
4.663582 3.403357 29.191771 254 179 203
4.679739 3.478294 29.292906 254 180 200
4.696166 3.553870 29.395729 255 174 189
4.712852 3.630090 29.500172 253 163 175
4.729785 3.706954 29.606169 250 155 165
4.746958 3.784466 29.713661 249 155 164
4.764361 3.862628 29.822599 251 162 171
4.781990 3.941445 29.932943 253 178 188
4.799835 4.020920 30.044649 254 197 207
4.817894 4.101058 30.157684 253 201 212
4.836158 4.181861 30.272011 253 199 210
4.854622 4.263332 30.387589 252 203 213
4.873275 4.345471 30.504349 246 191 202
4.892105 4.428272 30.622213 243 170 183
4.911093 4.511727 30.741070 245 161 178
4.930218 4.595823 30.860785 241 158 178
4.949452 4.680537 30.981176 239 165 188
4.968761 4.765843 31.102047 247 183 209
4.988111 4.851709 31.223167 246 176 202
5.007463 4.938100 31.344301 242 165 193
5.026773 5.024971 31.465174 248 180 208
5.046001 5.112279 31.585531 251 184 213
5.065108 5.199983 31.705128 245 166 195
5.084059 5.288039 31.823751 244 169 197
5.102822 5.376410 31.941202 251 194 220
5.121377 5.465065 32.057346 254 204 229
5.139710 5.553980 32.172104 254 189 213
5.157818 5.643144 32.285450 254 173 196
5.175706 5.732553 32.397419 254 165 187
5.193390 5.822217 32.508114 253 160 181
5.210893 5.912151 32.617672 252 155 176
5.228248 6.002389 32.726307 252 154 175
5.245493 6.092967 32.834251 252 156 177
5.262668 6.183928 32.941757 252 156 177
5.279818 6.275322 33.049107 252 156 177
5.296984 6.367199 33.156559 252 158 179
5.314204 6.459606 33.264351 252 158 178
5.331511 6.552583 33.372681 252 156 177
5.348927 6.646163 33.481697 252 156 175
5.366464 6.740366 33.591473 252 155 174
5.384122 6.835195 33.702003 250 154 173
5.401886 6.930636 33.813198 249 153 172
5.419726 7.026656 33.924870 248 152 171
5.437599 7.123199 34.036743 246 152 170
5.455442 7.220186 34.148434 245 151 170
5.473182 7.317516 34.259476 244 150 170
5.490734 7.415071 34.369343 243 150 169
5.508001 7.512712 34.477425 242 148 169
5.524880 7.610283 34.583076 241 146 167
5.541264 7.707621 34.685631 240 145 166
5.557046 7.804558 34.784424 239 143 164
5.572125 7.900922 34.878811 238 141 162
5.586405 7.996551 34.968197 237 139 160
5.599804 8.091290 35.052067 235 137 158
5.612253 8.185007 35.129993 233 135 156
5.623703 8.277588 35.201660 229 133 152
5.634121 8.368946 35.266872 226 131 149
5.643497 8.459024 35.325569 224 130 146
5.651845 8.547798 35.377819 223 129 145
5.659195 8.635276 35.423824 223 128 144
5.665597 8.721494 35.463898 222 126 144
5.671119 8.806517 35.498466 222 123 144
5.675843 8.890439 35.528034 222 122 145
5.679860 8.973372 35.553181 222 121 147
5.683270 9.055446 35.574524 221 118 147
5.686176 9.136802 35.592712 219 115 144
5.688680 9.217585 35.608387 213 109 136
5.690882 9.297942 35.622169 202 99 123
5.692876 9.378016 35.634651 192 90 110
5.694748 9.457942 35.646370 191 88 106
5.696575 9.537842 35.657806 198 95 110
5.698423 9.617828 35.669376 208 104 118
5.700349 9.697996 35.681431 210 107 121
5.702398 9.778427 35.694260 197 94 109
5.704608 9.859191 35.708088 181 79 95
5.707006 9.940341 35.723095 169 69 86
5.709612 10.021923 35.739410 163 66 83
5.712444 10.103975 35.757141 161 67 84
5.715514 10.186526 35.776356 158 69 85
5.718831 10.269604 35.797115 153 68 83
5.722402 10.353231 35.819469 147 66 80
5.726234 10.437431 35.843456 141 63 78
5.730335 10.522228 35.869125 134 59 76
5.734712 10.607646 35.896526 131 57 76
5.739372 10.693709 35.925694 143 68 89
5.744321 10.780441 35.956673 157 81 102
5.749565 10.867865 35.989502 160 82 104
5.755107 10.955997 36.024193 158 80 101
5.760947 11.044847 36.060741 157 80 100
5.767079 11.134421 36.099125 151 75 94
5.773492 11.224709 36.139275 133 60 76
5.780171 11.315686 36.181076 121 51 64
5.787086 11.407311 36.224361 124 59 71
5.794207 11.499532 36.268936 124 64 73
5.801490 11.592267 36.314522 114 58 65
5.808884 11.685423 36.360806 100 47 53
5.816328 11.778880 36.407402 89 37 42
5.823758 11.872509 36.453907 84 30 36
5.831096 11.966151 36.499844 82 25 32
5.838270 12.059650 36.544750 83 22 30
5.845198 12.152833 36.588112 86 19 29
5.851800 12.245520 36.629440 89 17 28
5.857995 12.337528 36.668217 95 17 29
5.863708 12.428681 36.703976 104 20 34
5.868865 12.518805 36.736259 115 27 41
5.873404 12.607737 36.764668 125 34 48
5.877263 12.695326 36.788826 133 39 53
5.880394 12.781434 36.808422 139 44 58
5.882751 12.865936 36.823177 142 47 60
5.884300 12.948724 36.832874 141 47 59
5.885010 13.029696 36.837318 139 44 56
4.130568 0.554536 25.511126 238 187 204
4.141622 0.611160 25.579397 222 160 180
4.153152 0.668156 25.650608 206 144 163
4.165154 0.725541 25.724741 187 126 141
4.177619 0.783332 25.801727 192 135 147
4.190529 0.841544 25.881460 228 191 197
4.203860 0.900190 25.963793 251 236 239
4.217579 0.959280 26.048523 254 241 247
4.231645 1.018818 26.135399 254 233 243
4.246011 1.078808 26.224127 254 227 242
4.260624 1.139245 26.314375 250 205 228
4.275423 1.200124 26.405777 236 154 186
4.290348 1.261434 26.497953 225 107 144
4.305332 1.323160 26.590498 229 98 135
4.320313 1.385284 26.683029 241 106 140
4.335233 1.447786 26.775173 248 113 143
4.350035 1.510645 26.866594 252 119 145
4.364672 1.573838 26.956997 253 122 147
4.379108 1.637346 27.046158 252 122 147
4.393315 1.701149 27.133900 252 124 151
4.407277 1.765233 27.220131 254 129 159
4.420990 1.829585 27.304823 254 132 165
4.434460 1.894199 27.388018 254 130 165
4.447703 1.959072 27.469810 254 126 161
4.460746 2.024206 27.550365 253 122 157
4.473620 2.089609 27.629879 252 121 155
4.486362 2.155291 27.708576 247 123 152
4.499014 2.221268 27.786716 237 122 146
4.511618 2.287557 27.864563 226 120 139
4.524215 2.354179 27.942364 223 126 141
4.536847 2.421154 28.020380 229 142 155
4.549554 2.488507 28.098858 236 166 179
4.562371 2.556260 28.178017 245 194 209
4.575332 2.624437 28.258066 250 198 218
4.588466 2.693060 28.339188 248 190 212
4.601801 2.762154 28.421549 248 197 219
4.615360 2.831741 28.505291 252 204 226
4.629163 2.901841 28.590538 254 211 231
4.643225 2.972475 28.677391 254 222 238
4.657561 3.043662 28.765930 254 208 226
4.672179 3.115419 28.856216 254 181 204
4.687086 3.187762 28.948284 254 169 196
4.702285 3.260704 29.042152 254 169 196
4.717775 3.334256 29.137823 253 167 194
4.733554 3.408430 29.235279 253 170 193
4.749618 3.483232 29.334490 254 173 193
4.765959 3.558669 29.435417 254 170 186
4.782571 3.634747 29.538017 253 165 177
4.799447 3.711470 29.642241 250 159 169
4.816576 3.788844 29.748039 248 154 164
4.833955 3.866872 29.855370 249 160 171
4.851574 3.945560 29.964193 253 182 194
4.869429 4.024910 30.074463 254 201 214
4.887512 4.104928 30.186148 254 200 212
4.905817 4.185617 30.299204 253 193 204
4.924336 4.266979 30.413582 252 195 204
4.943058 4.349012 30.529209 251 191 199
4.961967 4.431712 30.645998 249 181 188
4.981045 4.515068 30.763828 244 169 179
5.000269 4.599066 30.882561 241 161 174
5.019610 4.683684 31.002008 245 174 191
5.039032 4.768895 31.121965 249 186 206
5.058500 4.854667 31.242199 243 170 194
5.077972 4.940961 31.362463 239 165 191
5.097405 5.027735 31.482485 248 189 217
5.116757 5.114946 31.602007 252 194 223
5.135987 5.202549 31.720774 244 166 195
5.155060 5.290502 31.838573 240 156 184
5.173944 5.378767 31.955202 248 182 211
5.192616 5.467312 32.070530 254 198 224
5.211065 5.556115 32.184467 254 183 206
5.229284 5.645163 32.296997 254 173 193
5.247281 5.734451 32.408142 254 172 191
5.265070 5.823989 32.518013 253 165 184
5.282676 5.913797 32.626751 251 156 175
5.300131 6.003902 32.734558 252 157 176
5.317473 6.094343 32.841667 254 163 183
5.334745 6.185163 32.948341 253 163 184
5.351989 6.276412 33.054844 251 159 181
5.369248 6.368136 33.161438 251 159 180
5.386559 6.460383 33.268353 252 160 181
5.403952 6.553191 33.375778 253 160 180
5.421451 6.646590 33.483849 253 160 180
5.439063 6.740597 33.592628 253 160 179
5.456788 6.835214 33.702099 252 160 178
5.474605 6.930419 33.812141 251 158 176
5.492485 7.026179 33.922569 249 156 173
5.510377 7.122432 34.033077 248 155 172
5.528219 7.219095 34.143272 247 154 171
5.545932 7.316063 34.252670 246 154 172
5.563428 7.413213 34.360729 245 152 171
5.580608 7.510404 34.466835 243 150 169
5.597366 7.607479 34.570335 242 148 168
5.613595 7.704274 34.670567 240 146 167
5.629187 7.800619 34.766865 239 145 165
5.644042 7.896347 34.858608 238 143 164
5.658064 7.991295 34.945217 236 141 162
5.671175 8.085318 35.026196 234 139 159
5.683311 8.178285 35.101143 231 137 157
5.694424 8.270092 35.169781 229 135 154
5.704490 8.360659 35.231953 227 133 151
5.713504 8.449939 35.287624 225 131 149
5.721484 8.537915 35.336910 223 130 147
5.728468 8.624604 35.380047 222 128 145
5.734512 8.710052 35.417377 221 126 145
5.739690 8.794333 35.449352 221 124 145
5.744087 8.877545 35.476509 220 123 146
5.747800 8.959809 35.499443 219 122 147
5.750933 9.041260 35.518791 218 120 147
5.753589 9.122037 35.535194 215 117 144
5.755875 9.202292 35.549313 209 111 137
5.757889 9.282172 35.561752 198 101 125
5.759726 9.361817 35.573097 191 93 115
5.761471 9.441360 35.583874 193 95 114
5.763200 9.520924 35.594555 205 106 125
5.764977 9.600613 35.605530 221 120 138
5.766856 9.680521 35.617138 221 119 138
5.768881 9.760725 35.629642 197 94 114
5.771085 9.841290 35.643257 176 74 95
5.773495 9.922266 35.658138 169 69 91
5.776129 10.003695 35.674408 167 69 91
5.779002 10.085609 35.692146 163 69 90
5.782123 10.168039 35.711426 157 69 88
5.785501 10.251006 35.732288 151 66 84
5.789142 10.334533 35.754776 144 64 82
5.793053 10.418641 35.778931 138 62 80
5.797240 10.503355 35.804790 131 59 77
5.801711 10.588698 35.832405 131 59 80
5.806472 10.674694 35.861813 142 70 94
5.811532 10.761369 35.893059 152 79 105
5.816894 10.848743 35.926178 150 77 103
5.822565 10.936839 35.961201 147 74 99
5.828542 11.025666 35.998116 148 76 99
5.834822 11.115231 36.036907 144 74 95
5.841396 11.205524 36.077511 126 58 77
5.848246 11.296527 36.119816 116 51 66
5.855345 11.388196 36.163662 118 57 70
5.862663 11.480483 36.208855 118 61 70
5.870156 11.573309 36.255131 110 58 64
5.877772 11.666581 36.302174 99 48 53
5.885452 11.760182 36.349606 88 38 42
5.893130 11.853983 36.397026 82 30 35
5.900728 11.947828 36.443954 80 24 30
5.908172 12.041559 36.489925 81 20 28
5.915379 12.135004 36.534435 85 18 28
5.922266 12.227980 36.576973 90 17 28
5.928751 12.320305 36.617027 97 18 30
5.934756 12.411798 36.654118 107 22 35
5.940206 12.502281 36.687775 118 29 42
5.945031 12.591587 36.717575 127 35 50
5.949169 12.679558 36.743134 134 40 54
5.952567 12.766051 36.764122 138 43 57
5.955176 12.850933 36.780235 140 44 58
5.956956 12.934083 36.791225 139 44 57
5.957873 13.015396 36.796894 137 42 55
4.187564 0.554801 25.523335 245 196 215
4.198625 0.611431 25.590750 231 170 193
4.210167 0.668429 25.661098 213 148 170
4.222191 0.725813 25.734385 191 125 144
4.234690 0.783600 25.810566 194 131 145
4.247651 0.841808 25.889563 226 184 193
4.261055 0.900449 25.971260 250 233 239
4.274873 0.959536 26.055483 254 240 247
4.289070 1.019076 26.142017 254 225 237
4.303605 1.079074 26.230606 254 211 228
4.318427 1.139530 26.320946 248 186 210
4.333482 1.200439 26.412706 231 139 170
4.348710 1.261795 26.505526 221 101 134
4.364051 1.323585 26.599030 230 100 134
4.379443 1.385793 26.692841 244 114 147
4.394826 1.448404 26.786600 250 124 154
4.410145 1.511397 26.879971 252 132 160
4.425349 1.574751 26.972641 252 134 162
4.440398 1.638448 27.064365 249 128 156
4.455259 1.702469 27.154942 249 125 154
4.469908 1.766796 27.244228 253 131 161
4.484333 1.831416 27.332151 254 132 165
4.498531 1.896320 27.418690 253 127 161
4.512508 1.961501 27.503880 252 122 157
4.526279 2.026957 27.587811 251 121 156
4.539864 2.092689 27.670612 247 123 155
4.553289 2.158703 27.752441 241 123 151
4.566587 2.225007 27.833494 228 118 142
4.579791 2.291613 27.913965 220 118 137
4.592933 2.358535 27.994066 227 135 150
4.606048 2.425788 28.074007 241 160 174
4.619172 2.493390 28.153997 249 186 198
4.632339 2.561361 28.234251 252 208 219
4.645580 2.629720 28.314957 251 204 220
4.658929 2.698489 28.396315 247 187 210
4.672413 2.767690 28.478506 247 194 218
4.686063 2.837344 28.561701 252 208 232
4.699903 2.907475 28.646053 254 215 237
4.713956 2.978105 28.731707 254 215 234
4.728243 3.049255 28.818790 253 196 216
4.742783 3.120946 28.907412 252 168 193
4.757589 3.193198 28.997654 253 157 185
4.772673 3.266029 29.089588 253 158 186
4.788040 3.339455 29.183256 252 157 183
4.803697 3.413490 29.278679 252 158 182
4.819641 3.488144 29.375864 254 163 185
4.835874 3.563430 29.474800 255 169 186
4.852389 3.639355 29.575466 254 174 188
4.869184 3.715927 29.677832 250 170 182
4.886252 3.793152 29.781860 243 156 167
4.903586 3.871035 29.887512 243 157 170
4.921181 3.949584 29.994751 250 184 198
4.939029 4.028801 30.103535 254 206 219
4.957124 4.108692 30.213823 254 206 218
4.975458 4.189260 30.325571 253 201 211
4.994021 4.270505 30.438715 249 191 199
5.012801 4.352427 30.553179 248 180 185
5.031782 4.435019 30.668867 249 182 184
5.050942 4.518270 30.785652 244 178 181
5.070259 4.602168 30.903389 239 170 176
5.089699 4.686686 31.021877 246 185 196
5.109229 4.771798 31.140911 248 188 204
5.128808 4.857471 31.260248 239 165 185
5.148397 4.943667 31.379641 238 166 189
5.167948 5.030342 31.498806 248 196 222
5.187420 5.117452 31.617487 254 203 230
5.206769 5.204951 31.735424 247 175 203
5.225961 5.292799 31.852398 243 161 190
5.244962 5.380956 31.968208 248 188 215
5.263749 5.469389 32.082714 254 203 227
5.282309 5.558078 32.195839 252 178 201
5.300637 5.647007 32.307549 249 163 183
5.318738 5.736173 32.417877 252 169 187
5.336630 5.825585 32.526924 253 169 187
5.354335 5.915262 32.634838 251 160 178
5.371886 6.005233 32.741814 251 159 177
5.389322 6.095534 32.848087 253 167 185
5.406685 6.186210 32.953915 253 168 188
5.424018 6.277307 33.059559 251 162 183
5.441362 6.368873 33.165276 249 156 179
5.458755 6.460952 33.271286 250 157 179
5.476226 6.553582 33.377769 252 161 182
5.493796 6.646791 33.484859 254 163 183
5.511472 6.740591 33.592594 254 165 184
5.529248 6.834979 33.700943 254 166 184
5.547105 6.929935 33.809780 253 165 182
5.565007 7.025418 33.918892 250 160 177
5.582902 7.121362 34.027966 248 157 173
5.600724 7.217682 34.136589 248 156 172
5.618391 7.314268 34.244267 248 155 172
5.635811 7.410995 34.350445 246 153 170
5.652884 7.507718 34.454510 242 150 168
5.669504 7.604281 34.555801 242 148 167
5.685560 7.700518 34.653664 241 147 167
5.700945 7.796260 34.747440 240 146 166
5.715561 7.891343 34.836521 238 145 165
5.729315 7.985610 34.920353 236 143 163
5.742130 8.078916 34.998459 233 140 160
5.753946 8.171141 35.070480 230 137 157
5.764722 8.262185 35.136158 228 135 155
5.774437 8.351979 35.195374 226 133 152
5.783093 8.440482 35.248135 224 132 150
5.790714 8.527687 35.294582 224 131 149
5.797343 8.613620 35.334984 223 130 147
5.803042 8.698334 35.369724 221 127 146
5.807890 8.781909 35.399273 220 125 146
5.811978 8.864452 35.424187 219 124 146
5.815405 8.946087 35.445076 217 123 146
5.818278 9.026953 35.462589 216 122 146
5.820704 9.107192 35.477371 212 118 143
5.822788 9.186958 35.490074 205 111 136
5.824631 9.266396 35.501308 196 102 126
5.826327 9.345645 35.511646 192 97 121
5.827960 9.424836 35.521595 198 103 126
5.829603 9.504087 35.531612 215 120 143
5.831319 9.583502 35.542072 233 136 160
5.833160 9.663169 35.553295 228 129 154
5.835166 9.743160 35.565521 196 94 121
5.837370 9.823536 35.578957 173 71 99
5.839796 9.904346 35.593735 169 68 96
5.842458 9.985624 35.609962 169 71 99
5.845370 10.067402 35.627712 165 71 97
5.848541 10.149706 35.647038 158 68 91
5.851978 10.232559 35.667988 150 66 87
5.855685 10.315978 35.690582 145 65 85
5.859669 10.399985 35.714863 138 63 83
5.863936 10.484605 35.740875 131 59 79
5.868495 10.569860 35.768658 130 61 82
5.873351 10.655776 35.798256 141 72 96
5.878512 10.742377 35.829716 147 78 103
5.883985 10.829686 35.863071 142 74 99
5.889774 10.917727 35.898357 137 69 94
5.895879 11.006508 35.935566 138 72 96
5.902298 11.096041 35.974689 137 72 94
5.909020 11.186316 36.015663 123 60 78
5.916030 11.277316 36.058392 114 53 69
5.923301 11.369001 36.102707 114 58 70
5.930803 11.461324 36.148430 113 60 69
5.938492 11.554207 36.195293 107 57 63
5.946318 11.647561 36.242992 97 48 53
5.954219 11.741271 36.291153 87 38 42
5.962131 11.835207 36.339375 80 29 34
5.969975 11.929217 36.387188 78 22 29
5.977676 12.023145 36.434124 81 19 27
5.985150 12.116815 36.479675 85 17 26
5.992311 12.210046 36.523327 91 16 28
5.999078 12.302654 36.564568 99 18 31
6.005368 12.394457 36.602905 109 23 37
6.011103 12.485271 36.637859 120 30 45
6.016211 12.574927 36.668995 130 37 51
6.020627 12.663260 36.695908 137 42 56
6.024291 12.750120 36.718243 140 44 58
6.027153 12.835366 36.735683 139 43 57
6.029167 12.918873 36.747963 137 41 55
6.030295 13.000522 36.754841 136 40 53
4.255702 0.611706 25.602251 244 186 213
4.267253 0.668706 25.671745 226 159 185
4.279294 0.726089 25.744179 202 127 151
4.291820 0.783873 25.819538 203 130 150
4.304824 0.842075 25.897774 232 183 196
4.318291 0.900710 25.978785 251 228 238
4.332197 0.959793 26.062445 254 230 241
4.346513 1.019332 26.148571 254 209 223
4.361202 1.079335 26.236938 252 184 203
4.376219 1.139804 26.327282 244 156 179
4.391514 1.200739 26.419300 230 122 150
4.407034 1.262135 26.512665 228 106 137
4.422719 1.323982 26.607027 238 113 145
4.438511 1.386270 26.702028 247 124 156
4.454350 1.448983 26.797318 251 138 169
4.470182 1.512105 26.892561 253 153 184
4.485954 1.575616 26.987448 253 159 189
4.501622 1.639498 27.081703 250 154 184
4.517146 1.703732 27.175098 251 153 182
4.532498 1.768302 27.267454 253 154 183
4.547656 1.833191 27.358641 254 144 175
4.562605 1.898388 27.448582 251 128 161
4.577344 1.963881 27.537249 248 119 152
4.591873 2.029664 27.624653 245 120 152
4.606202 2.095733 27.710855 241 123 153
4.620345 2.162086 27.795938 232 122 148
4.634322 2.228727 27.880026 221 118 139
4.648156 2.295659 27.963249 219 124 141
4.661870 2.362890 28.045757 234 149 163
4.675495 2.430429 28.127724 249 178 191
4.689058 2.498290 28.209320 254 200 212
4.702592 2.566485 28.290737 254 217 227
4.716126 2.635033 28.372156 253 208 223
4.729694 2.703950 28.453781 250 189 211
4.743329 2.773259 28.535810 251 196 222
4.757064 2.842981 28.618441 253 214 240
4.770931 2.913140 28.701866 254 211 237
4.784962 2.983761 28.786274 252 191 216
4.799184 3.054868 28.871836 249 167 193
4.813627 3.126486 28.958721 248 150 178
4.828310 3.198639 29.047060 250 147 175
4.843256 3.271349 29.136971 252 149 176
4.858478 3.344638 29.228544 252 150 176
4.873987 3.418522 29.321846 252 153 178
4.889790 3.493019 29.416914 253 158 182
4.905890 3.568142 29.513775 253 165 187
4.922289 3.643904 29.612431 251 174 193
4.938983 3.720313 29.712866 246 171 189
4.955970 3.797379 29.815056 238 155 173
4.973243 3.875110 29.918968 239 160 178
4.990797 3.953511 30.024576 249 190 207
5.008625 4.032588 30.131826 254 210 224
5.026719 4.112344 30.240681 254 213 224
5.045070 4.192784 30.351082 252 208 215
5.063668 4.273908 30.462969 243 184 187
5.082499 4.355713 30.576250 240 162 163
5.101543 4.438194 30.690823 247 172 172
5.120780 4.521338 30.806551 247 183 182
5.140183 4.605130 30.923281 244 185 187
5.159719 4.689545 31.040806 248 201 208
5.179351 4.774557 31.158913 247 195 206
5.199039 4.860129 31.277355 237 166 180
5.218739 4.946225 31.395874 237 170 189
5.238406 5.032798 31.514187 249 205 226
5.257994 5.119805 31.632029 254 216 238
5.277461 5.207201 31.749140 252 189 215
5.296769 5.294943 31.865297 250 174 203
5.315884 5.382990 31.980293 252 198 225
5.334783 5.471312 32.093990 254 213 233
5.353452 5.559885 32.206303 249 181 202
5.371886 5.648694 32.317204 243 155 176
5.390090 5.737737 32.426716 248 164 183
5.408080 5.827022 32.534946 253 175 192
5.425881 5.916567 32.642036 254 170 187
5.443525 6.006401 32.748184 253 165 182
5.461051 6.096560 32.853615 254 169 186
5.478499 6.187087 32.958588 254 171 190
5.495914 6.278028 33.063358 250 164 185
5.513338 6.369430 33.168175 246 156 178
5.530804 6.461335 33.273254 247 156 178
5.548343 6.553777 33.378761 252 161 183
5.565972 6.646783 33.484818 254 165 187
5.583698 6.740363 33.591457 254 168 188
5.601512 6.834510 33.698627 254 170 188
5.619391 6.929200 33.806190 253 168 186
5.637298 7.024387 33.913914 252 163 180
5.655176 7.120003 34.021473 250 159 175
5.672957 7.215960 34.128445 250 157 173
5.690557 7.312144 34.234325 249 156 172
5.707882 7.408428 34.338551 246 153 170
5.724829 7.504666 34.440502 243 151 167
5.741290 7.600700 34.539528 242 149 166
5.757155 7.696365 34.634975 242 148 167
5.772319 7.791494 34.726200 240 148 167
5.786683 7.885927 34.812614 239 147 167
5.800158 7.979510 34.893681 236 145 165
5.812670 8.072104 34.968956 233 142 162
5.824164 8.163596 35.038101 230 139 159
5.834602 8.253894 35.100899 228 137 157
5.843971 8.342935 35.157265 226 134 154
5.852277 8.430687 35.207230 225 133 152
5.859550 8.517153 35.250980 224 132 150
5.865837 8.602364 35.288807 223 131 149
5.871208 8.686380 35.321121 221 128 148
5.875745 8.769292 35.348412 220 127 147
5.879542 8.851208 35.371258 218 125 146
5.882705 8.932258 35.390282 215 122 144
5.885339 9.012582 35.406132 214 120 143
5.887554 9.092326 35.419456 211 118 142
5.889458 9.171642 35.430908 205 113 137
5.891149 9.250675 35.441082 197 105 129
5.892721 9.329562 35.450535 193 101 125
5.894255 9.408432 35.459770 202 109 134
5.895825 9.487398 35.469215 222 129 155
5.897492 9.566561 35.479240 238 143 170
5.899303 9.646004 35.490139 226 128 158
5.901298 9.725796 35.502140 194 93 125
5.903505 9.805993 35.515419 173 71 105
5.905948 9.886642 35.530113 170 69 103
5.908638 9.967772 35.546299 172 73 105
5.911589 10.049413 35.564049 168 72 102
5.914807 10.131589 35.583408 159 68 95
5.918298 10.214319 35.604408 151 65 89
5.922066 10.297623 35.627075 148 67 88
5.926117 10.381519 35.651447 142 66 86
5.930458 10.466033 35.677563 131 60 79
5.935096 10.551187 35.705463 130 62 82
5.940037 10.637005 35.735195 139 72 94
5.945292 10.723515 35.766804 143 78 100
5.950864 10.810740 35.800327 137 73 96
5.956761 10.898703 35.835804 130 67 90
5.962983 10.987416 35.873234 129 67 89
5.969527 11.076891 35.912605 129 68 89
5.976385 11.167121 35.953861 120 61 79
5.983541 11.258088 35.996910 114 57 73
5.990969 11.349758 36.041599 113 59 72
5.998639 11.442081 36.087742 110 59 69
6.006509 11.534987 36.135086 104 55 63
6.014527 11.628386 36.183327 96 48 54
6.022635 11.722164 36.232098 88 39 44
6.030764 11.816197 36.281006 81 29 35
6.038838 11.910332 36.329578 79 22 29
6.046780 12.004413 36.377357 81 19 27
6.054506 12.098267 36.423836 87 17 27
6.061929 12.191713 36.468491 93 17 28
6.068964 12.284567 36.510811 101 19 31
6.075527 12.376641 36.550297 110 24 38
6.081537 12.467753 36.586452 123 31 47
6.086920 12.557728 36.618839 134 41 56
6.091606 12.646395 36.647030 141 46 61
6.095533 12.733596 36.670654 142 46 60
6.098645 12.819187 36.689377 138 42 56
6.100893 12.903030 36.702900 135 38 52
6.102234 12.985003 36.710968 134 37 51
4.312869 0.611987 25.613997 251 202 230
4.324428 0.668990 25.682640 233 166 196
4.336480 0.726372 25.754219 209 126 155
4.349028 0.784152 25.828741 212 130 154
4.362067 0.842348 25.906181 238 182 199
4.375587 0.900977 25.986477 253 221 235
4.389570 0.960053 26.069521 254 215 230
4.403993 1.019589 26.155174 253 186 203
4.418821 1.079594 26.243244 247 154 173
4.434019 1.140073 26.333502 237 126 149
4.449541 1.201029 26.425684 231 111 137
4.465336 1.262460 26.519493 235 113 142
4.481352 1.324360 26.614611 242 122 152
4.497532 1.386721 26.710703 246 131 162
4.513819 1.449530 26.807434 250 153 184
4.530159 1.512774 26.904472 253 176 209
4.546497 1.576437 27.001505 254 182 216
4.562786 1.640499 27.098240 253 185 217
4.578981 1.704944 27.194429 253 194 223
4.595048 1.769754 27.289848 254 188 216
4.610955 1.834912 27.384315 252 160 190
4.626678 1.900401 27.477694 245 129 160
4.642201 1.966209 27.569891 240 115 145
4.657516 2.032323 27.660847 239 118 147
4.672618 2.098734 27.750532 236 123 150
4.687509 2.165433 27.838966 226 121 146
4.702195 2.232417 27.926188 215 117 138
4.716688 2.299683 28.012260 218 128 145
4.731002 2.367230 28.097277 236 160 175
4.745160 2.435064 28.181356 250 195 209
4.759182 2.503189 28.264635 254 217 231
4.773097 2.571615 28.347273 254 225 237
4.786934 2.640354 28.429451 254 209 225
4.800727 2.709423 28.511370 252 187 210
4.814513 2.778841 28.593243 253 192 218
4.828330 2.848630 28.675301 254 204 232
4.842216 2.918815 28.757774 252 190 221
4.856213 2.989423 28.840897 247 161 192
4.870356 3.060481 28.924894 242 140 171
4.884683 3.132020 29.009977 243 137 166
4.899224 3.204066 29.096342 248 141 169
4.914011 3.276647 29.184156 250 144 172
4.929064 3.349789 29.273561 251 148 175
4.944405 3.423514 29.364664 253 154 179
4.960044 3.497844 29.457546 253 159 184
4.975992 3.572795 29.552259 250 162 187
4.992253 3.648383 29.648834 243 161 185
5.008829 3.724622 29.747278 233 153 176
5.025717 3.801522 29.847576 230 150 172
5.042913 3.879091 29.949705 238 170 192
5.060413 3.957337 30.053635 250 199 218
5.078208 4.036267 30.159321 254 210 226
5.096290 4.115883 30.266710 254 212 223
5.114650 4.196191 30.375746 249 203 208
5.133275 4.277189 30.486357 234 165 167
5.152147 4.358875 30.598444 228 141 141
5.171250 4.441241 30.711893 243 161 160
5.190557 4.524274 30.826561 252 184 183
5.210043 4.607960 30.942284 251 198 198
5.229671 4.692271 31.058849 252 214 217
5.249402 4.777181 31.176037 247 202 209
5.269196 4.862652 31.293589 239 171 182
5.289006 4.948647 31.411245 241 176 191
5.308786 5.035118 31.528715 250 213 228
5.328489 5.122023 31.645731 254 228 243
5.348071 5.209314 31.762026 253 203 225
5.367493 5.296950 31.877377 252 183 212
5.386722 5.384888 31.991571 253 205 230
5.405731 5.473098 32.104469 254 221 240
5.424508 5.561556 32.215984 249 192 213
5.443046 5.650247 32.326084 244 160 183
5.461351 5.739167 32.434795 248 163 183
5.479438 5.828324 32.542213 253 175 192
5.497332 5.917736 32.648487 254 171 188
5.515066 6.007432 32.753803 254 167 184
5.532677 6.097447 32.858395 254 170 188
5.550206 6.187822 32.962502 254 174 193
5.567698 6.278603 33.066383 252 169 189
5.585192 6.369835 33.170280 249 160 182
5.602723 6.461557 33.274399 249 159 181
5.620318 6.553803 33.378895 252 164 186
5.637994 6.646595 33.483871 254 168 189
5.655756 6.739941 33.589355 254 169 189
5.673591 6.833831 33.695282 254 170 189
5.691475 6.928237 33.801495 253 169 187
5.709367 7.023110 33.907753 253 166 183
5.727209 7.118381 34.013718 253 162 179
5.744928 7.213953 34.118954 251 160 176
5.762440 7.309715 34.222954 250 157 174
5.779648 7.405537 34.325150 248 155 171
5.796447 7.501271 34.424923 245 153 168
5.812730 7.596760 34.521626 242 150 166
5.828388 7.691841 34.614613 241 150 165
5.843315 7.786349 34.703266 239 149 166
5.857415 7.880127 34.787006 238 148 166
5.870603 7.973026 34.865330 235 146 165
5.882807 8.064916 34.937809 233 144 163
5.893978 8.155686 35.004150 230 141 161
5.904082 8.245255 35.064163 228 139 158
5.913112 8.333567 35.117786 226 136 156
5.921077 8.420597 35.165092 225 134 154
5.928015 8.506356 35.206299 224 133 153
5.933979 8.590884 35.241718 224 131 151
5.939042 8.674248 35.271782 222 129 149
5.943288 8.756538 35.297005 220 127 148
5.946818 8.837873 35.317970 217 124 145
5.949739 8.918384 35.335312 214 121 143
5.952157 8.998212 35.349678 212 119 141
5.954185 9.077505 35.361721 212 119 142
5.955928 9.156413 35.372074 209 117 140
5.957488 9.235080 35.381332 203 110 133
5.958953 9.313641 35.390038 197 104 129
5.960406 9.392220 35.398666 204 111 136
5.961917 9.470928 35.407642 222 127 155
5.963545 9.549861 35.417309 232 136 166
5.965335 9.629099 35.427940 216 118 150
5.967325 9.708706 35.439754 190 90 124
5.969540 9.788735 35.452915 176 75 110
5.972001 9.869226 35.467529 175 74 109
5.974720 9.950212 35.483681 176 77 110
5.977707 10.031715 35.501419 170 74 106
5.980968 10.113758 35.520782 160 68 97
5.984508 10.196360 35.541805 152 65 91
5.988330 10.279538 35.564507 149 68 90
5.992441 10.363313 35.588924 146 70 89
5.996847 10.447705 35.615086 136 65 82
6.001554 10.532742 35.643044 132 65 83
6.006572 10.618445 35.672844 135 70 88
6.011908 10.704844 35.704533 134 73 90
6.017568 10.791964 35.738152 128 70 88
6.023561 10.879827 35.773739 122 65 83
6.029885 10.968447 35.811298 120 63 82
6.036541 11.057836 35.850826 119 64 82
6.043519 11.147991 35.892273 116 62 78
6.050804 11.238894 35.935539 113 60 75
6.058372 11.330513 35.980488 111 61 74
6.066194 11.422803 36.026939 108 59 69
6.074226 11.515693 36.074642 103 54 63
6.082419 11.609096 36.123299 96 47 54
6.090713 11.702900 36.172554 89 39 46
6.099042 11.796987 36.222019 83 30 37
6.107327 11.891200 36.271225 81 22 30
6.115491 11.985390 36.319714 83 19 28
6.123451 12.079384 36.366982 88 18 28
6.131117 12.173000 36.412514 95 18 30
6.138404 12.266054 36.455791 103 20 33
6.145225 12.358357 36.496300 114 26 40
6.151497 12.449725 36.533550 127 35 50
6.157143 12.539977 36.567078 139 44 60
6.162089 12.628941 36.596455 145 49 64
6.166270 12.716453 36.621284 143 47 61
6.169625 12.802358 36.641209 138 41 55
6.172101 12.886515 36.655918 133 36 50
6.173652 12.968788 36.665123 132 35 49
4.370139 0.612275 25.626043 249 205 231
4.381701 0.669282 25.693844 232 159 192
4.393762 0.726664 25.764568 214 121 155
4.406326 0.784440 25.838243 220 129 159
4.419393 0.842630 25.914865 243 177 200
4.432957 0.901252 25.994404 254 207 227
4.447006 0.960321 26.076786 254 194 214
4.461521 1.019852 26.161901 252 164 185
4.476478 1.079856 26.249601 245 135 156
4.491840 1.140341 26.339689 237 115 138
4.507573 1.201313 26.431944 236 112 137
4.523630 1.262774 26.526102 239 119 146
4.539963 1.324721 26.621878 240 122 151
4.556520 1.387149 26.718960 241 133 163
4.573245 1.450050 26.817034 248 166 197
4.590084 1.513410 26.915779 253 194 226
4.606985 1.577218 27.014885 254 196 231
4.623895 1.641456 27.114044 254 199 233
4.640767 1.706107 27.212980 254 213 242
4.657557 1.771154 27.311434 254 209 234
4.674225 1.836577 27.409174 249 172 199
4.690738 1.902359 27.506006 237 127 156
4.707068 1.968482 27.601765 230 108 136
4.723192 2.034929 27.696312 232 114 141
4.739092 2.101684 27.789545 231 121 146
4.754755 2.168734 27.881397 222 119 142
4.770177 2.236065 27.971827 211 115 135
4.785355 2.303670 28.060831 216 128 146
4.800294 2.371540 28.148432 236 169 185
4.815005 2.439672 28.234694 250 212 226
4.829505 2.508067 28.319717 254 233 245
4.843815 2.576727 28.403631 254 228 242
4.857965 2.645662 28.486605 253 203 222
4.871989 2.714885 28.568842 251 176 201
4.885928 2.784412 28.650576 251 172 200
4.899824 2.854268 28.732059 253 177 207
4.913723 2.924477 28.813562 250 164 197
4.927674 2.995069 28.895370 243 142 175
4.941724 3.066075 28.977758 239 132 164
4.955919 3.137528 29.061001 243 136 166
4.970302 3.209461 29.145340 249 143 172
4.984910 3.281907 29.231003 250 145 172
4.999777 3.354894 29.318178 249 147 174
5.014929 3.428453 29.407024 251 158 183
5.030385 3.502607 29.497662 253 171 196
5.046163 3.577379 29.590178 248 170 196
5.062269 3.652787 29.684624 233 150 177
5.078710 3.728848 29.781031 219 133 160
5.095484 3.805574 29.879395 223 145 171
5.112590 3.882976 29.979704 240 183 204
5.130024 3.961063 30.081930 252 209 227
5.147775 4.039841 30.186024 254 211 226
5.165837 4.119314 30.291935 254 212 221
5.184196 4.199485 30.399593 248 197 202
5.202841 4.280355 30.508923 229 152 155
5.221751 4.361919 30.619810 221 129 130
5.240907 4.444169 30.732140 238 154 152
5.260282 4.527092 30.845753 252 183 182
5.279847 4.610669 30.960478 254 206 206
5.299563 4.694877 31.076094 253 220 221
5.319393 4.779684 31.192371 245 200 204
5.339291 4.865054 31.309050 237 172 179
5.359210 4.950949 31.425858 243 183 194
5.379103 5.037320 31.542503 252 219 230
5.398920 5.124124 31.658710 254 235 246
5.418617 5.211313 31.774210 253 214 233
5.438153 5.298843 31.888771 252 192 219
5.457494 5.386674 32.002182 253 212 234
5.476614 5.474774 32.114300 254 228 246
5.495498 5.563118 32.225033 251 205 226
5.514140 5.651691 32.334351 247 170 192
5.532545 5.740489 32.442272 248 162 183
5.550727 5.829520 32.548893 252 172 189
5.568713 5.918800 32.654358 254 172 188
5.586533 6.008358 32.758850 254 168 183
5.604225 6.098227 32.862598 254 172 187
5.621831 6.188447 32.965836 254 177 195
5.639393 6.279065 33.068817 254 174 193
5.656950 6.370121 33.171772 252 167 188
5.674536 6.461653 33.274895 252 165 187
5.692177 6.553693 33.378338 253 168 189
5.709887 6.646260 33.482185 254 169 190
5.727668 6.739359 33.586456 254 170 191
5.745508 6.832976 33.691067 253 170 190
5.763378 6.927081 33.795853 253 169 188
5.781235 7.021621 33.900562 253 168 186
5.799019 7.116524 34.004848 253 166 184
5.816655 7.211693 34.108261 252 162 180
5.834055 7.307013 34.210300 251 159 176
5.851123 7.402351 34.310383 249 157 172
5.867755 7.497564 34.407909 246 154 169
5.883841 7.592493 34.502235 242 151 166
5.899273 7.686977 34.592728 240 150 166
5.913949 7.780857 34.678787 238 150 166
5.927775 7.873977 34.759861 237 149 166
5.940667 7.966196 34.835461 235 148 166
5.952561 8.057388 34.905205 232 145 164
5.963408 8.147453 34.968815 229 142 161
5.973185 8.236314 35.026138 227 140 158
5.981884 8.323924 35.077148 225 137 156
5.989523 8.410265 35.121944 225 135 155
5.996143 8.495356 35.160767 224 133 154
6.001803 8.579241 35.193954 224 131 152
6.006578 8.661994 35.221958 223 130 150
6.010560 8.743711 35.245300 221 127 147
6.013848 8.824513 35.264584 218 124 144
6.016551 8.904533 35.280434 215 121 142
6.018780 8.983913 35.293507 213 119 140
6.020645 9.062800 35.304440 213 120 141
6.022251 9.141344 35.313862 213 120 141
6.023699 9.219685 35.322350 209 116 138
6.025078 9.297956 35.330437 203 110 133
6.026467 9.376277 35.338577 205 112 136
6.027933 9.454755 35.347179 216 121 147
6.029533 9.533482 35.356564 219 122 152
6.031312 9.612533 35.366989 204 106 137
6.033302 9.691969 35.378658 186 87 120
6.035529 9.771839 35.391716 179 79 113
6.038010 9.852180 35.406269 181 81 115
6.040757 9.933022 35.422379 180 81 114
6.043777 10.014385 35.440090 172 76 107
6.047077 10.096291 35.459438 160 68 97
6.050660 10.178757 35.480446 152 65 91
6.054530 10.261799 35.503136 151 69 91
6.058691 10.345438 35.527538 149 72 91
6.063151 10.429696 35.553696 141 71 86
6.067918 10.514597 35.581646 135 69 83
6.072999 10.600168 35.611439 130 68 81
6.078403 10.686436 35.643131 124 65 78
6.084138 10.773425 35.676762 118 63 76
6.090211 10.861163 35.712372 115 62 76
6.096623 10.949663 35.749969 113 62 76
6.103374 11.038938 35.789558 111 61 76
6.110456 11.128985 35.831081 111 61 75
6.117854 11.219792 35.874462 111 62 75
6.125544 11.311326 35.919556 111 62 75
6.133496 11.403543 35.966190 109 60 71
6.141671 11.496375 36.014126 103 54 64
6.150018 11.589740 36.063072 96 46 55
6.158477 11.683528 36.112675 90 38 46
6.166983 11.777619 36.162552 85 30 38
6.175457 11.871865 36.212246 83 23 31
6.183823 11.966114 36.261303 85 19 28
6.191995 12.060197 36.309219 90 18 28
6.199884 12.153934 36.355480 97 20 30
6.207402 12.247136 36.399567 107 23 35
6.214462 12.339621 36.440964 118 29 43
6.220978 12.431195 36.479172 131 37 53
6.226870 12.521680 36.513721 142 47 62
6.232060 12.610895 36.544159 146 50 65
6.236482 12.698674 36.570084 144 48 62
6.240068 12.784856 36.591118 137 41 55
6.242764 12.869291 36.606926 132 35 49
6.244515 12.951836 36.617195 132 36 49
4.427519 0.612571 25.638432 243 193 219
4.439083 0.669583 25.705395 228 143 178
4.451149 0.726966 25.775263 222 118 156
4.463723 0.784739 25.848076 231 131 166
4.476810 0.842923 25.923861 246 166 196
4.490409 0.901536 26.002611 254 185 212
4.504514 0.960597 26.084288 254 171 198
4.519111 1.020121 26.168810 253 148 174
4.534179 1.080122 26.256065 249 130 155
4.549694 1.140610 26.345907 243 120 145
4.565623 1.201595 26.438147 243 119 146
4.581926 1.263082 26.532558 242 123 150
4.598562 1.325070 26.628889 238 123 151
4.615481 1.387560 26.726864 239 135 165
4.632633 1.450544 26.826185 248 170 201
4.649965 1.514016 26.926550 253 198 230
4.667423 1.577962 27.027639 254 195 230
4.684953 1.642370 27.129150 254 190 225
4.702501 1.707223 27.230770 254 202 232
4.720020 1.772502 27.332216 254 208 234
4.737460 1.838188 27.433207 248 177 204
4.754776 1.904259 27.533478 231 127 155
4.771928 1.970696 27.632801 223 104 130
4.788879 2.037475 27.730959 226 110 135
4.805598 2.104575 27.827774 225 117 140
4.822057 2.171976 27.923084 215 114 135
4.838237 2.239659 28.016775 209 115 134
4.854123 2.307605 28.108767 219 138 156
4.869707 2.375801 28.199007 239 184 201
4.884991 2.444236 28.287512 252 224 238
4.899983 2.512903 28.374329 254 234 248
4.914702 2.581801 28.459560 254 217 236
4.929174 2.650933 28.543365 251 184 208
4.943436 2.720311 28.625948 247 156 183
4.957528 2.789950 28.707554 248 149 179
4.971501 2.859872 28.788467 251 151 184
4.985408 2.930104 28.868999 249 146 179
4.999306 3.000677 28.949478 243 137 170
5.013253 3.071628 29.030239 243 137 168
5.027305 3.142992 29.111609 248 142 171
5.041514 3.214808 29.193890 249 147 174
5.055929 3.287112 29.277363 246 145 170
5.070592 3.359941 29.362274 243 149 171
5.085539 3.433327 29.448830 248 170 191
5.100798 3.507300 29.537184 251 193 213
5.116388 3.581887 29.627464 243 183 204
5.132325 3.657110 29.719751 223 147 172
5.148617 3.732988 29.814093 211 129 155
5.165266 3.809536 29.910500 223 152 177
5.182271 3.886767 30.008970 244 196 216
5.199627 3.964690 30.109478 253 221 237
5.217327 4.043313 30.211971 254 221 236
5.235361 4.122641 30.316399 254 220 231
5.253714 4.202674 30.422678 250 204 211
5.272374 4.283415 30.530729 236 162 168
5.291318 4.364856 30.640429 227 138 142
5.310524 4.446990 30.751648 238 154 156
5.329965 4.529802 30.864222 250 184 185
5.349607 4.613274 30.977964 254 213 214
5.369412 4.697378 31.092651 252 222 223
5.389339 4.782085 31.208042 240 192 194
5.409341 4.867357 31.323866 229 166 171
5.429370 4.953153 31.439852 241 190 198
5.449375 5.039427 31.555693 254 230 236
5.469308 5.126132 31.671118 254 242 250
5.489120 5.213221 31.785845 254 224 242
5.508772 5.300650 31.899643 253 208 232
5.528226 5.388377 32.012295 254 222 241
5.547458 5.476369 32.123657 254 232 249
5.566449 5.564602 32.233631 254 213 233
5.585195 5.653061 32.342182 251 181 203
5.603699 5.741739 32.449333 250 167 187
5.621977 5.830646 32.555176 252 175 193
5.640052 5.919795 32.659843 254 181 198
5.657956 6.009214 32.763523 254 178 193
5.675727 6.098938 32.866428 254 176 191
5.693404 6.189003 32.968792 254 179 195
5.711030 6.279452 33.070858 254 179 197
5.728643 6.370327 33.172848 254 174 194
5.746274 6.461663 33.274944 254 171 192
5.763948 6.553488 33.377289 254 170 192
5.781679 6.645818 33.479961 254 169 191
5.799464 6.738656 33.582951 253 168 189
5.817291 6.831985 33.686180 252 167 188
5.835127 6.925771 33.789463 252 168 188
5.852928 7.019960 33.892544 254 170 189
5.870631 7.114475 33.995056 254 170 189
5.888160 7.209219 34.096565 252 163 182
5.905427 7.304076 34.196548 249 157 176
5.922333 7.398914 34.294449 248 156 173
5.938775 7.493587 34.389660 246 155 171
5.954644 7.587942 34.481552 243 153 168
5.969834 7.681819 34.569515 241 152 167
5.984245 7.775063 34.652966 239 153 168
5.997786 7.867524 34.731373 238 152 168
6.010378 7.959068 34.804291 235 150 167
6.021959 8.049575 34.871353 231 148 165
6.032487 8.138950 34.932320 227 143 161
6.041942 8.227126 34.987068 224 140 158
6.050323 8.314063 35.035595 224 138 157
6.057652 8.399751 35.078037 224 136 156
6.063973 8.484212 35.114647 225 134 155
6.069352 8.567499 35.145790 224 132 153
6.073865 8.649689 35.171925 223 130 151
6.077607 8.730884 35.193592 221 127 147
6.080680 8.811202 35.211388 219 124 144
6.083194 8.890780 35.225948 217 123 142
6.085260 8.969762 35.237911 215 121 140
6.086988 9.048291 35.247917 214 120 139
6.088483 9.126514 35.256573 213 119 139
6.089842 9.204570 35.264446 210 117 137
6.091155 9.282589 35.272045 207 113 134
6.092496 9.360684 35.279812 207 112 135
6.093933 9.438960 35.288128 210 115 139
6.095518 9.517505 35.297310 208 112 137
6.097293 9.596388 35.307587 197 100 126
6.099290 9.675667 35.319153 185 88 116
6.101532 9.755388 35.332138 182 84 113
6.104035 9.835586 35.346634 184 85 116
6.106809 9.916285 35.362694 181 84 114
6.109859 9.997507 35.380356 172 76 105
6.113193 10.079270 35.399658 159 67 94
6.116812 10.161592 35.420616 151 63 87
6.120719 10.244488 35.443245 150 68 88
6.124922 10.327978 35.467583 150 72 89
6.129426 10.412085 35.493660 143 72 85
6.134240 10.496835 35.521538 136 69 81
6.139371 10.582252 35.551250 127 65 76
6.144830 10.668365 35.582859 117 61 71
6.150624 10.755202 35.616413 111 59 68
6.156762 10.842789 35.651955 109 61 70
6.163245 10.931140 35.689495 109 62 72
6.170073 11.020270 35.729034 107 61 72
6.177239 11.110179 35.770531 107 61 73
6.184729 11.200852 35.813904 110 63 76
6.192520 11.292263 35.859020 112 65 77
6.200583 11.384367 35.905712 111 63 74
6.208879 11.477101 35.953747 105 55 66
6.217357 11.570383 36.002842 97 46 55
6.225958 11.664107 36.052650 91 37 46
6.234617 11.758156 36.102791 87 30 39
6.243257 11.852384 36.152824 86 24 33
6.251800 11.946640 36.202290 87 20 30
6.260159 12.040758 36.250694 92 18 28
6.268246 12.134560 36.297527 100 21 31
6.275972 12.227858 36.342270 111 27 38
6.283248 12.320465 36.384399 123 33 47
6.289985 12.412193 36.423412 135 42 56
6.296101 12.502855 36.458828 144 49 64
6.301517 12.592271 36.490192 147 52 66
6.306160 12.680266 36.517075 143 48 62
6.309961 12.766676 36.539089 137 40 55
6.312860 12.851344 36.555878 131 35 49
6.314801 12.934120 36.567112 132 35 50
4.485016 0.612875 25.651182 236 174 203
4.496579 0.669893 25.717312 226 129 166
4.508644 0.727277 25.786318 232 120 160
4.521224 0.785048 25.858261 242 134 172
4.534324 0.843226 25.933187 249 155 190
4.547950 0.901831 26.011118 253 163 196
4.562099 0.960883 26.092043 254 151 182
4.576765 1.020398 26.175920 254 136 166
4.591934 1.080393 26.262674 252 129 158
4.607586 1.140883 26.352196 249 124 153
4.623696 1.201877 26.444336 246 123 152
4.640233 1.263384 26.538912 244 126 155
4.657157 1.325410 26.635706 241 128 158
4.674426 1.387955 26.734472 242 137 169
4.691993 1.451018 26.834944 248 161 194
4.709806 1.514594 26.936827 252 178 213
4.727813 1.578673 27.039812 253 172 208
4.745958 1.643244 27.143587 254 162 199
4.764184 1.708292 27.247824 254 172 207
4.782433 1.773797 27.352196 255 188 219
4.800649 1.839741 27.456381 248 174 203
4.818777 1.906098 27.560059 231 130 158
4.836762 1.972844 27.662926 220 103 130
4.854556 2.039953 27.764694 220 106 130
4.872110 2.107397 27.865089 217 110 133
4.889382 2.175149 27.963877 213 113 135
4.906339 2.243182 28.060856 218 130 151
4.922951 2.311472 28.155861 233 167 185
4.939198 2.379995 28.248781 248 208 224
4.955070 2.448734 28.339560 254 231 247
4.970570 2.517675 28.428213 254 228 246
4.985710 2.586812 28.514799 254 202 227
5.000514 2.656144 28.599470 251 168 196
5.015018 2.725677 28.682421 247 144 175
5.029267 2.795428 28.763920 248 140 172
5.043318 2.865416 28.844280 251 143 175
5.057230 2.935671 28.923847 251 141 173
5.071070 3.006225 29.003002 247 139 170
5.084906 3.077119 29.082132 247 141 170
5.098804 3.148392 29.161623 248 145 172
5.112829 3.220087 29.241833 246 146 170
5.127039 3.292248 29.323109 241 145 167
5.141488 3.364915 29.405743 241 158 176
5.156218 3.438125 29.489988 247 189 204
5.171265 3.511915 29.576048 246 204 218
5.186657 3.586313 29.664080 232 179 196
5.202414 3.661348 29.754194 216 148 167
5.218546 3.737041 29.846460 215 148 167
5.235059 3.813409 29.940907 231 177 195
5.251955 3.890466 30.037537 248 214 228
5.269227 3.968225 30.136322 254 233 245
5.286869 4.046692 30.237221 254 233 247
5.304869 4.125873 30.340168 254 230 244
5.323213 4.205770 30.445082 253 216 228
5.341884 4.286381 30.551868 245 183 194
5.360859 4.367701 30.660397 236 154 164
5.380116 4.449720 30.770527 236 156 164
5.399620 4.532423 30.882082 247 187 192
5.419341 4.615791 30.994871 254 220 224
5.439236 4.699796 31.108654 251 222 226
5.459261 4.784405 31.223186 234 183 187
5.479369 4.869582 31.338188 222 162 168
5.499509 4.955284 31.453379 238 200 206
5.519629 5.041464 31.568451 254 241 244
5.539679 5.128075 31.683119 254 248 253
5.559609 5.215068 31.797106 254 232 247
5.579378 5.302400 31.910172 254 222 242
5.598948 5.390026 32.022095 254 230 247
