ply
format ascii 1.0
element vertex 1240
property float x
property float y
property float z
property uchar red
property uchar green
property uchar blue
end_header
14.575998 10.547322 54.924133 63 41 45
14.582813 10.670707 54.949814 63 41 45
14.589725 10.794274 54.975861 62 42 45
14.596730 10.918023 55.002254 62 42 45
14.603825 11.041953 55.028984 62 43 45
14.611003 11.166063 55.056034 61 43 45
14.618260 11.290350 55.083378 60 42 44
14.625588 11.414811 55.110996 59 42 42
14.632983 11.539443 55.138855 58 41 42
14.640439 11.664245 55.166954 58 40 42
14.647955 11.789214 55.195274 59 39 42
14.655528 11.914353 55.223808 59 39 42
14.663154 12.039660 55.252544 60 39 44
14.670836 12.165135 55.281494 61 39 45
14.678576 12.290783 55.310654 61 39 45
14.686374 12.416608 55.340038 61 39 45
14.694241 12.542618 55.369682 61 39 45
14.702184 12.668820 55.399612 61 39 44
14.710216 12.795229 55.429878 62 39 44
14.718353 12.921862 55.460541 61 39 43
14.726619 13.048740 55.491688 60 39 43
14.735039 13.175891 55.523415 59 39 42
14.743646 13.303346 55.555847 59 39 41
14.752474 13.431144 55.589115 58 39 40
14.761569 13.559329 55.623383 58 39 40
14.770975 13.687951 55.658829 57 39 40
14.780744 13.817064 55.695637 57 39 39
14.790931 13.946731 55.734024 57 39 40
14.801593 14.077015 55.774200 56 39 39
14.812785 14.207981 55.816376 56 40 40
14.824567 14.339699 55.860771 56 40 40
14.836988 14.472231 55.907574 56 40 40
14.850101 14.605646 55.956985 55 40 40
14.863950 14.740004 56.009171 54 40 39
14.878569 14.875357 56.064255 54 40 40
14.893986 15.011751 56.122349 54 39 40
14.910216 15.149222 56.183506 54 39 40
14.927266 15.287797 56.247753 54 39 40
14.945127 15.427485 56.315056 55 39 40
14.963777 15.568284 56.385326 55 38 39
14.983176 15.710174 56.458427 55 38 39
15.003276 15.853116 56.534164 55 38 39
15.024006 15.997058 56.612278 55 37 39
15.045286 16.141926 56.692463 55 37 40
15.067017 16.287628 56.774349 55 37 40
15.089089 16.434053 56.857521 55 37 40
15.111379 16.581076 56.941509 54 37 40
15.133759 16.728561 57.025841 53 37 39
15.156094 16.876360 57.110001 52 37 39
15.178247 17.024319 57.193481 51 36 38
15.200088 17.172281 57.275776 49 36 37
15.221493 17.320105 57.356434 48 36 35
15.242355 17.467655 57.435047 47 36 34
15.262589 17.614819 57.511292 47 35 34
15.282132 17.761507 57.584930 47 35 34
15.300953 17.907667 57.655846 47 35 35
15.319050 18.053282 57.724041 47 34 36
15.336458 18.198372 57.789635 47 34 37
15.353249 18.343006 57.852905 47 34 37
15.369517 18.487286 57.914207 47 34 38
15.385397 18.631359 57.974045 49 36 39
15.401041 18.775404 58.032993 50 36 39
15.416618 18.919621 58.091690 51 37 39
15.432307 19.064228 58.150806 52 38 39
15.448289 19.209454 58.211025 52 37 38
15.464735 19.355522 58.273003 51 37 38
15.481804 19.502640 58.337318 50 37 37
15.499631 19.650997 58.404491 49 37 37
15.518322 19.800747 58.474922 49 37 37
15.537953 19.952007 58.548893 48 36 37
15.558566 20.104855 58.626564 47 36 38
15.580164 20.259319 58.707951 47 36 38
15.602721 20.415388 58.792950 46 36 38
15.626175 20.573004 58.881325 46 37 37
15.650436 20.732071 58.972744 46 37 37
15.675393 20.892460 59.066784 45 37 35
15.700911 21.054007 59.162937 44 37 34
15.726842 21.216524 59.260651 44 37 34
15.753030 21.379812 59.359329 44 37 34
15.779310 21.543652 59.458355 43 37 35
15.805513 21.707811 59.557095 43 37 35
15.831473 21.872061 59.654911 43 37 36
15.857021 22.036161 59.751183 43 36 36
15.881995 22.199873 59.845287 43 36 36
15.906234 22.362957 59.936623 42 35 35
15.929587 22.525185 60.024620 41 35 35
15.951911 22.686323 60.108738 41 35 35
14.779161 0.129045 55.240963 96 58 73
14.770154 0.247975 55.207294 96 58 71
14.761416 0.366766 55.174637 96 58 67
14.752874 0.485423 55.142708 97 58 65
14.744453 0.603947 55.111233 97 58 64
14.736085 0.722338 55.079956 97 58 63
14.727703 0.840594 55.048626 97 58 63
14.719248 0.958709 55.017021 97 58 63
14.710666 1.076679 54.984943 98 58 63
14.701911 1.194497 54.952221 99 58 62
14.692948 1.312155 54.918720 100 59 63
14.683743 1.429645 54.884308 101 59 63
14.674276 1.546959 54.848927 100 58 62
14.664538 1.664090 54.812531 98 57 61
14.654527 1.781031 54.775108 96 56 60
14.644246 1.897775 54.736683 93 56 59
14.633715 2.014319 54.697315 91 57 60
14.622957 2.130661 54.657108 92 59 62
14.612007 2.246799 54.616184 92 58 62
14.600910 2.362738 54.574703 91 58 62
14.589719 2.478481 54.532875 90 57 61
14.578491 2.594038 54.490906 89 56 60
14.567295 2.709419 54.449059 88 55 59
14.556204 2.824641 54.407600 87 55 60
14.545290 2.939720 54.366810 87 55 62
14.534636 3.054677 54.326984 86 57 65
14.524317 3.169536 54.288414 86 57 66
14.514408 3.284321 54.251377 86 57 66
14.504985 3.399061 54.216156 87 57 66
14.496115 3.513783 54.183002 88 57 66
14.487860 3.628515 54.152149 89 57 65
14.480277 3.743289 54.123806 89 57 65
14.473414 3.858132 54.098156 89 58 64
14.467315 3.973075 54.075356 88 58 64
14.462011 4.088143 54.055531 87 57 63
14.457532 4.203367 54.038788 86 57 63
14.453894 4.318769 54.025188 85 56 63
14.451107 4.434374 54.014774 85 56 63
14.449182 4.550205 54.007580 83 54 61
14.448110 4.666282 54.003574 81 52 59
14.447883 4.782619 54.002720 80 51 57
14.448481 4.899234 54.004959 78 50 56
14.449877 5.016135 54.010174 76 48 55
14.452033 5.133329 54.018234 75 48 55
14.454906 5.250818 54.028976 75 49 54
14.458443 5.368599 54.042194 75 50 55
14.462582 5.486666 54.057663 75 51 55
14.467260 5.605009 54.075153 75 51 55
14.472407 5.723612 54.094391 74 51 55
14.477950 5.842458 54.115108 74 50 55
14.483817 5.961527 54.137039 73 50 54
14.489938 6.080797 54.159912 72 50 54
14.496246 6.200246 54.183495 72 49 55
14.502685 6.319852 54.207558 72 50 56
14.509199 6.439597 54.231907 73 51 56
14.515747 6.559462 54.256382 74 51 56
14.522294 6.679431 54.280853 73 50 55
14.528816 6.799495 54.305233 73 50 55
14.535295 6.919643 54.329449 74 49 56
14.541719 7.039869 54.353462 74 49 55
14.548089 7.160172 54.377270 74 48 55
14.554401 7.280549 54.400864 74 48 55
14.560661 7.401000 54.424263 74 48 54
14.566875 7.521529 54.447483 73 47 53
14.573045 7.642135 54.470551 73 47 54
14.579179 7.762821 54.493477 74 46 55
14.585281 7.883589 54.516285 74 46 57
14.591355 8.004440 54.538986 75 46 60
14.597404 8.125375 54.561600 77 47 64
14.603431 8.246394 54.584122 81 50 70
14.609432 8.367496 54.606556 84 53 73
14.615415 8.488685 54.628918 82 51 71
14.621377 8.609957 54.651203 78 48 65
14.627322 8.731316 54.673428 77 48 60
14.633257 8.852763 54.695606 77 49 57
14.639183 8.974301 54.717758 76 49 53
14.645108 9.095935 54.739906 74 47 50
14.651041 9.217668 54.762077 72 45 47
14.656989 9.339507 54.784313 70 44 46
14.662964 9.461459 54.806644 69 44 45
14.668977 9.583531 54.829121 68 44 45
14.675035 9.705732 54.851768 68 44 45
14.681153 9.828069 54.874630 68 44 46
14.687340 9.950552 54.897755 67 43 46
14.693604 10.073187 54.921169 66 43 46
14.699952 10.195982 54.944897 65 42 46
14.706392 10.318943 54.968967 64 42 46
14.712930 10.442078 54.993404 64 42 45
14.719569 10.565391 55.018223 64 42 45
14.726312 10.688886 55.043427 63 42 45
14.733157 10.812565 55.069012 63 41 45
14.740103 10.936428 55.094971 62 42 44
14.747149 11.060478 55.121307 62 42 44
14.754291 11.184715 55.148003 61 42 44
14.761522 11.309136 55.175034 60 42 43
14.768840 11.433740 55.202381 59 41 42
14.776237 11.558523 55.230030 58 41 41
14.783708 11.683485 55.257957 59 40 41
14.791250 11.808625 55.286148 58 39 41
14.798860 11.933939 55.314590 59 39 41
14.806532 12.059428 55.343269 60 39 43
14.814269 12.185093 55.372185 60 40 44
14.822065 12.310933 55.401329 60 39 44
14.829926 12.436952 55.430710 60 39 44
14.837854 12.563154 55.460346 60 39 44
14.845858 12.689548 55.490257 60 39 43
14.853944 12.816144 55.520481 60 39 43
14.862132 12.942958 55.551086 59 39 43
14.870440 13.070009 55.582142 58 39 42
14.878893 13.197324 55.613735 58 39 42
14.887523 13.324932 55.645992 57 39 41
14.896361 13.452868 55.679031 57 39 40
14.905456 13.581180 55.713020 56 38 40
14.914849 13.709913 55.748131 57 39 40
14.924594 13.839123 55.784554 57 39 40
14.934747 13.968872 55.822506 56 39 39
14.945364 14.099222 55.862186 56 39 39
14.956502 14.230241 55.903820 55 40 39
14.968223 14.361996 55.947628 54 40 40
14.980577 14.494553 55.993805 54 40 40
14.993616 14.627978 56.042545 54 39 40
15.007386 14.762332 56.094013 54 39 40
15.021924 14.897670 56.148350 54 40 40
15.037257 15.034037 56.205666 55 40 41
15.053404 15.171471 56.266018 55 40 41
15.070371 15.309998 56.329433 55 39 41
15.088149 15.449629 56.395885 55 38 40
15.106718 15.590363 56.465290 55 38 39
15.126040 15.732179 56.537510 55 38 38
15.146062 15.875041 56.612350 54 37 38
15.166721 16.018898 56.689571 54 37 39
15.187932 16.163675 56.768848 54 36 39
15.209599 16.309282 56.849834 54 36 40
15.231607 16.455610 56.932098 54 36 40
15.253840 16.602535 57.015202 52 36 40
15.276165 16.749918 57.098644 51 36 39
15.298447 16.897615 57.181931 51 36 39
15.320549 17.045471 57.264542 49 35 38
15.342340 17.193335 57.345993 48 35 37
15.363695 17.341055 57.425812 47 35 35
15.384505 17.488503 57.503593 46 35 34
15.404687 17.635565 57.579029 46 35 34
15.424173 17.782152 57.651863 46 34 34
15.442932 17.928207 57.721977 46 34 35
15.460967 18.073719 57.789391 46 34 36
15.478310 18.218706 57.854210 47 34 37
15.495030 18.363237 57.916710 46 34 38
15.511232 18.507418 57.977272 47 35 38
15.527045 18.651392 58.036377 48 36 39
15.542627 18.795341 58.094616 49 36 39
15.558149 18.939468 58.152634 50 37 39
15.573792 19.083994 58.211102 50 37 38
15.589740 19.229149 58.270710 51 36 38
15.606168 19.375156 58.332115 50 36 37
15.623237 19.522230 58.395916 50 36 36
15.641085 19.670557 58.462627 49 36 36
15.659819 19.820293 58.532646 49 36 36
15.679517 19.971561 58.606277 48 37 37
15.700219 20.124434 58.683659 47 37 37
15.721932 20.278942 58.764816 46 36 37
15.744624 20.435070 58.849632 46 36 37
15.768234 20.592766 58.937881 46 36 37
15.792670 20.751925 59.029217 45 36 36
15.817815 20.912415 59.123203 44 36 35
15.843532 21.074072 59.219326 44 36 33
15.869669 21.236706 59.317020 43 36 33
15.896064 21.400106 59.415676 43 36 33
15.922548 21.564054 59.514671 44 37 34
15.948949 21.728317 59.613350 43 37 34
15.975094 21.892653 59.711071 43 36 35
16.000809 22.056816 59.807186 43 36 35
16.025927 22.220568 59.901073 42 36 36
16.050283 22.383663 59.992115 42 35 36
16.073727 22.545866 60.079735 41 35 35
16.096104 22.706947 60.163380 41 35 35
14.906312 0.248261 55.270882 94 56 67
14.897635 0.367192 55.238708 94 56 64
14.889132 0.485991 55.207180 94 56 63
14.880733 0.604658 55.176041 94 55 62
14.872367 0.723192 55.145020 93 56 61
14.863970 0.841590 55.113888 93 56 61
14.855482 0.959849 55.082413 93 56 61
14.846852 1.077961 55.050415 94 56 61
14.838036 1.195921 55.017727 95 57 61
14.828998 1.313720 54.984211 96 57 61
14.819709 1.431350 54.949768 97 58 61
14.810148 1.548804 54.914322 96 57 61
14.800312 1.666073 54.877850 94 56 60
14.790197 1.783152 54.840343 93 55 59
14.779810 1.900034 54.801830 90 54 59
14.769171 2.016715 54.762383 89 55 60
14.758307 2.133194 54.722095 90 57 61
14.747252 2.249470 54.681110 90 57 60
14.736053 2.365547 54.639587 88 55 60
14.724767 2.481429 54.597736 88 55 60
14.713451 2.597126 54.555779 87 55 59
14.702176 2.712650 54.513969 86 55 58
14.691014 2.828015 54.472588 85 54 59
14.680044 2.943240 54.431911 84 55 61
14.669344 3.058346 54.392235 84 55 63
14.658992 3.173356 54.353851 84 55 64
14.649066 3.288297 54.317047 84 56 65
14.639640 3.403195 54.282097 84 56 64
14.630783 3.518079 54.249256 85 56 64
14.622559 3.632979 54.218761 86 56 63
14.615020 3.747923 54.190807 87 56 62
14.608217 3.862941 54.165581 86 57 62
14.602191 3.978062 54.143238 86 57 61
14.596975 4.093314 54.123901 85 56 61
14.592595 4.208724 54.107658 84 56 61
14.589068 4.324316 54.094582 83 56 61
14.586405 4.440115 54.084705 83 55 61
14.584608 4.556142 54.078045 83 54 61
14.583675 4.672418 54.074589 82 53 60
14.583593 4.788957 54.074280 81 52 59
14.584344 4.905776 54.077065 79 51 58
14.585896 5.022882 54.082817 78 50 57
14.588215 5.140284 54.091419 77 49 56
14.591256 5.257982 54.102692 77 50 57
14.594965 5.375976 54.116447 77 51 57
14.599285 5.494258 54.132465 77 52 57
14.604152 5.612820 54.150509 76 52 57
14.609494 5.731646 54.170319 76 52 57
14.615241 5.850719 54.191628 75 51 56
14.621324 5.970022 54.214180 74 51 55
14.627668 6.089531 54.237705 73 50 54
14.634215 6.209227 54.261982 73 50 55
14.640903 6.329089 54.286781 73 50 55
14.647679 6.449096 54.311905 73 51 55
14.654501 6.569232 54.337196 73 51 55
14.661331 6.689481 54.362526 73 50 55
14.668149 6.809834 54.387806 74 50 55
14.674934 6.930280 54.412964 74 49 54
14.681673 7.050812 54.437946 75 49 55
14.688361 7.171427 54.462749 75 49 54
14.694999 7.292124 54.487358 74 48 54
14.701588 7.412903 54.511791 74 48 54
14.708128 7.533762 54.536041 73 48 53
14.714622 7.654702 54.560123 73 47 53
14.721079 7.775726 54.584061 73 46 55
14.727494 7.896831 54.607849 73 46 58
14.733871 8.018017 54.631493 74 46 62
14.740210 8.139284 54.654999 78 48 68
14.746510 8.260631 54.678356 88 57 81
14.752768 8.382054 54.701561 98 67 92
14.758984 8.503553 54.724609 93 62 85
14.765158 8.625129 54.747501 81 50 69
14.771291 8.746778 54.770241 74 45 60
14.777386 8.868501 54.792843 72 46 55
14.783445 8.990301 54.815311 71 45 51
14.789477 9.112181 54.837673 70 44 48
14.795486 9.234143 54.859959 69 44 46
14.801485 9.356194 54.882198 67 44 44
14.807484 9.478342 54.904442 66 43 44
14.813495 9.600593 54.926731 66 44 44
14.819531 9.722957 54.949112 66 43 45
14.825607 9.845444 54.971642 66 43 45
14.831734 9.968061 54.994354 65 43 46
14.837925 10.090821 55.017315 65 42 46
14.844191 10.213731 55.040546 65 42 46
14.850545 10.336802 55.064106 64 42 46
14.856991 10.460041 55.088009 64 42 46
14.863541 10.583456 55.112293 64 42 45
14.870197 10.707052 55.136974 63 42 45
14.876963 10.830834 55.162060 63 42 45
14.883838 10.954805 55.187553 62 41 45
14.890823 11.078968 55.213455 62 41 44
14.897917 11.203324 55.239758 61 41 44
14.905112 11.327871 55.266438 60 42 43
14.912408 11.452610 55.293488 59 41 42
14.919798 11.577538 55.320889 59 40 42
14.927272 11.702652 55.348602 59 40 41
14.934830 11.827950 55.376625 59 39 41
14.942466 11.953431 55.404938 59 39 41
14.950174 12.079094 55.433521 60 40 42
14.957951 12.204935 55.462357 60 40 44
14.965796 12.330956 55.491440 59 39 43
14.973702 12.457156 55.520760 59 39 43
14.981680 12.583540 55.550339 59 39 43
14.989729 12.710114 55.580185 59 39 43
14.997858 12.836884 55.610329 58 39 42
15.006083 12.963866 55.640823 58 39 42
15.014418 13.091076 55.671726 57 39 41
15.022890 13.218540 55.703144 56 38 40
15.031529 13.346289 55.735180 56 38 39
15.040369 13.474354 55.767952 55 38 39
15.049448 13.602777 55.801617 56 38 40
15.058818 13.731610 55.836357 56 38 40
15.068528 13.860907 55.872364 56 38 40
15.078636 13.990727 55.909843 55 38 39
15.089198 14.121135 55.949005 55 39 39
15.100272 14.252194 55.990067 55 39 40
15.111919 14.383976 56.033253 54 39 40
15.124195 14.516547 56.078770 53 39 40
15.137151 14.649973 56.126808 53 39 39
15.150832 14.784313 56.177536 53 39 40
15.165277 14.919625 56.231102 54 40 41
15.180517 15.055955 56.287605 55 40 42
15.196568 15.193340 56.347122 55 40 42
15.213439 15.331807 56.409676 55 39 41
15.231122 15.471369 56.475243 54 38 39
15.249595 15.612023 56.543739 54 37 38
15.268825 15.753752 56.615040 53 37 37
15.288757 15.896521 56.688950 53 37 38
15.309331 16.040279 56.765232 53 37 38
15.330460 16.184952 56.843575 53 36 38
15.352047 16.330450 56.923618 53 36 39
15.373985 16.476671 57.004963 52 36 39
15.396150 16.623484 57.087147 51 36 39
15.418409 16.770758 57.169685 50 36 39
15.440631 16.918344 57.252079 49 36 39
15.462678 17.066093 57.333824 48 35 38
15.484415 17.213852 57.414425 47 34 37
15.505716 17.361467 57.493408 46 34 35
15.526477 17.508816 57.570385 46 35 35
15.546607 17.655779 57.645023 45 34 34
15.566040 17.802267 57.717083 45 34 34
15.584747 17.948229 57.786446 45 33 34
15.602727 18.093647 57.853111 46 34 35
15.620011 18.238543 57.917198 46 34 36
15.636674 18.382982 57.978985 46 34 37
15.652816 18.527069 58.038834 47 35 38
15.668571 18.670956 58.097252 47 35 38
15.684096 18.814819 58.154819 48 36 38
15.699568 18.958864 58.212189 49 36 38
15.715167 19.103313 58.270027 49 35 37
15.731082 19.248396 58.329037 49 35 36
15.747489 19.394341 58.389874 49 35 36
15.764551 19.541361 58.453136 49 35 35
15.782411 19.689646 58.519356 49 36 35
15.801174 19.839354 58.588932 48 36 36
15.820922 19.990602 58.662155 48 37 36
15.841695 20.143473 58.739178 47 37 37
15.863498 20.297993 58.820023 46 36 37
15.886300 20.454147 58.904568 45 36 37
15.910040 20.611881 58.992592 45 36 36
15.934619 20.771090 59.083729 44 36 36
15.959921 20.931637 59.177547 44 35 34
15.985806 21.093359 59.273525 43 35 33
16.012117 21.256062 59.371086 43 35 32
16.038689 21.419531 59.469608 43 36 33
16.065348 21.583544 59.568459 43 36 33
16.091917 21.747860 59.666969 43 36 33
16.118216 21.912235 59.764484 43 36 34
16.144072 22.076424 59.860352 42 35 35
16.169310 22.240177 59.953934 42 35 36
16.193762 22.403246 60.044601 42 35 36
16.217270 22.565393 60.131767 41 35 35
15.043179 0.248554 55.336075 91 53 63
15.034557 0.367629 55.304359 91 53 62
15.026091 0.486572 55.273212 90 53 60
15.017708 0.605385 55.242378 90 53 60
15.009340 0.724065 55.211597 89 53 60
15.000922 0.842610 55.180634 89 54 60
14.992398 0.961014 55.149277 89 55 60
14.983716 1.079272 55.117340 90 55 60
14.974832 1.197376 55.084660 90 55 60
14.965714 1.315319 55.051117 91 55 60
14.956333 1.433091 55.016613 92 56 60
14.946676 1.550687 54.981091 91 55 60
14.936732 1.668097 54.944511 91 55 59
14.926507 1.785316 54.906898 90 54 59
14.916005 1.902337 54.868267 88 53 59
14.905251 2.019158 54.828705 87 54 59
14.894271 2.135776 54.788319 88 55 60
14.883106 2.252191 54.747250 87 55 59
14.871801 2.368407 54.705666 86 53 58
14.860412 2.484430 54.663769 86 53 58
14.849005 2.600269 54.621807 85 54 57
14.837645 2.715936 54.580021 84 53 57
14.826412 2.831447 54.538700 83 54 57
14.815382 2.946820 54.498127 82 54 59
14.804636 3.062077 54.458595 81 54 61
14.794254 3.177242 54.420406 81 55 62
14.784315 3.292341 54.383846 81 55 63
14.774891 3.407401 54.349182 81 55 62
14.766053 3.522451 54.316669 82 55 61
14.757865 3.637521 54.286549 83 55 61
14.750380 3.752640 54.259014 83 54 60
14.743647 3.867838 54.234249 83 55 60
14.737704 3.983143 54.212391 82 54 59
14.732587 4.098583 54.193565 82 54 59
14.728317 4.214184 54.177860 82 54 59
14.724913 4.329972 54.165337 81 54 59
14.722382 4.445970 54.156025 81 54 59
14.720726 4.562199 54.149937 81 53 59
14.719941 4.678679 54.147049 81 53 59
14.720013 4.795425 54.147312 81 53 59
14.720922 4.912452 54.150658 80 52 58
14.722638 5.029768 54.156971 79 51 57
14.725125 5.147382 54.166119 78 50 57
14.728338 5.265295 54.177937 77 50 57
14.732227 5.383505 54.192242 77 51 58
14.736732 5.502007 54.208817 78 52 58
14.741789 5.620791 54.227417 78 52 58
14.747330 5.739844 54.247795 76 52 57
14.753285 5.859149 54.269707 75 51 56
14.759585 5.978688 54.292881 74 51 54
14.766164 6.098442 54.317078 73 50 53
14.772950 6.218388 54.342041 73 50 53
14.779892 6.338508 54.367577 73 50 53
14.786932 6.458782 54.393475 73 50 53
14.794032 6.579193 54.419594 73 50 53
14.801154 6.699727 54.445789 73 50 53
14.808271 6.820372 54.471970 74 50 53
14.815366 6.941119 54.498066 74 49 53
14.822422 7.061960 54.524021 75 49 53
14.829433 7.182892 54.549812 75 49 53
14.836398 7.303912 54.575432 74 48 53
14.843316 7.425018 54.600880 74 48 53
14.850182 7.546208 54.626137 73 48 52
14.857002 7.667484 54.651226 73 47 52
14.863774 7.788842 54.676136 72 46 55
14.870499 7.910282 54.700871 72 46 57
14.877171 8.031801 54.725414 72 44 61
14.883792 8.153398 54.749771 77 48 70
14.890355 8.275067 54.773911 96 65 91
14.896858 8.396807 54.797836 117 86 113
14.903296 8.518613 54.821518 111 80 105
14.909670 8.640483 54.844963 86 55 76
14.915977 8.762415 54.868164 71 42 58
14.922216 8.884407 54.891117 69 42 53
14.928392 9.006460 54.913834 68 43 50
14.934512 9.128576 54.936344 67 43 47
14.940583 9.250760 54.958679 66 43 45
14.946616 9.373015 54.980865 65 43 44
14.952621 9.495349 55.002956 64 43 44
14.958613 9.617769 55.025002 64 43 44
14.964611 9.740289 55.047062 64 43 45
14.970625 9.862914 55.069187 64 43 45
14.976677 9.985660 55.091446 64 42 45
14.982779 10.108535 55.113892 63 42 45
14.988949 10.231553 55.136589 63 42 45
14.995196 10.354724 55.159573 63 42 45
15.001538 10.478059 55.182899 63 42 45
15.007984 10.601568 55.206612 63 42 45
15.014540 10.725258 55.230724 63 42 45
15.021211 10.849134 55.255264 62 42 45
15.028003 10.973206 55.280251 62 41 45
15.034914 11.097472 55.305672 61 40 44
15.041947 11.221939 55.331543 60 41 44
15.049095 11.346605 55.357838 60 41 43
15.056357 11.471471 55.384548 59 41 43
15.063724 11.596533 55.411648 59 40 42
15.071191 11.721788 55.439114 59 40 42
15.078751 11.847237 55.466923 59 40 42
15.086400 11.972876 55.495064 60 40 42
15.094129 12.098699 55.523491 60 40 42
15.101934 12.224708 55.552204 59 40 43
15.109808 12.350896 55.581169 58 39 42
15.117751 12.477265 55.610386 58 39 42
15.125763 12.603818 55.639854 58 40 42
15.133843 12.730556 55.669579 58 40 42
15.142002 12.857489 55.699593 57 39 42
15.150248 12.984625 55.729923 57 39 41
15.158599 13.111984 55.760647 56 38 40
15.167079 13.239588 55.791836 55 37 39
15.175715 13.367464 55.823608 54 37 39
15.184540 13.495644 55.856068 55 37 39
15.193599 13.624173 55.889389 55 37 40
15.202933 13.753097 55.923725 55 37 40
15.212600 13.882470 55.959286 55 38 40
15.222651 14.012353 55.996262 55 38 40
15.233150 14.142809 56.034882 54 39 40
15.244154 14.273905 56.075356 54 39 40
15.255721 14.405706 56.117905 54 39 40
15.267910 14.538284 56.162743 53 39 40
15.280771 14.671701 56.210052 52 39 40
15.294357 14.806024 56.260029 53 39 40
15.308701 14.941300 56.312790 53 40 41
15.323837 15.077584 56.368469 54 40 42
15.339782 15.214911 56.427124 55 39 42
15.356546 15.353310 56.488792 54 38 40
15.374123 15.492792 56.553444 53 36 38
15.392488 15.633356 56.621002 52 36 38
15.411613 15.774987 56.691353 53 37 37
15.431445 15.917652 56.764305 52 37 37
15.451919 16.061296 56.839615 52 36 37
15.472952 16.205853 56.916985 52 36 38
15.494451 16.351234 56.996067 52 36 38
15.516302 16.497332 57.076447 51 37 39
15.538386 16.644026 57.157688 51 37 40
15.560573 16.791180 57.239300 50 36 40
15.582727 16.938650 57.320793 48 36 39
15.604711 17.086285 57.401657 47 35 38
15.626388 17.233931 57.481396 46 34 37
15.647635 17.381443 57.559555 46 35 35
15.668344 17.528690 57.635735 45 34 35
15.688422 17.675554 57.709591 45 34 35
15.707809 17.821953 57.780903 45 34 34
15.726466 17.967825 57.849533 45 33 34
15.744394 18.113155 57.915482 45 33 35
15.761631 18.257967 57.978886 45 33 36
15.778241 18.402323 58.039986 45 34 36
15.794332 18.546331 58.099174 45 34 37
15.810036 18.690140 58.156944 46 34 37
15.825512 18.833925 58.213875 47 35 37
15.840938 18.977894 58.270615 47 35 37
15.856496 19.122269 58.327847 48 35 36
15.872377 19.267282 58.386269 48 34 35
15.888762 19.413162 58.446537 48 34 34
15.905813 19.560122 58.509258 48 35 34
15.923674 19.708353 58.574959 48 35 34
15.942456 19.858017 58.644047 48 36 35
15.962238 20.009232 58.716816 48 37 36
15.983063 20.162075 58.793423 47 37 36
16.004934 20.316578 58.873878 45 36 37
16.027824 20.472729 58.958076 45 36 37
16.051666 20.630463 59.045776 44 36 37
16.076363 20.789684 59.136623 44 36 36
16.101795 20.950253 59.230175 43 35 35
16.127819 21.111998 59.325901 43 35 33
16.154274 21.274727 59.423218 43 35 33
16.180994 21.438223 59.521503 43 35 32
16.207798 21.602257 59.620102 42 35 32
16.234505 21.766586 59.718346 42 35 33
16.260937 21.930965 59.815571 42 35 34
16.286907 22.095140 59.911106 42 35 34
16.312243 22.258862 60.004303 42 35 35
16.336769 22.421873 60.094524 41 35 35
16.360327 22.583935 60.181179 40 34 35
15.172225 0.368076 55.371696 87 51 59
15.163792 0.487168 55.340916 87 51 58
15.155422 0.606130 55.310371 86 51 58
15.147048 0.724959 55.279808 86 51 58
15.138606 0.843654 55.249001 85 52 58
15.130039 0.962207 55.217735 85 53 58
15.121299 1.080613 55.185837 86 53 58
15.112344 1.198865 55.153156 86 53 58
15.103141 1.316954 55.119568 87 53 58
15.093666 1.434873 55.084988 87 54 58
15.083904 1.552612 55.049362 87 53 58
15.073849 1.670166 55.012665 87 53 58
15.063506 1.787528 54.974922 86 52 58
15.052886 1.904691 54.936161 85 52 58
15.042010 2.021653 54.896469 84 52 58
15.030910 2.138412 54.855961 84 52 58
15.019629 2.254970 54.814785 84 52 57
15.008212 2.371328 54.773121 84 52 56
14.996717 2.487494 54.731171 84 52 56
14.985213 2.603477 54.689186 83 53 56
14.973771 2.719290 54.647427 82 53 56
14.962463 2.834949 54.606159 81 53 56
14.951374 2.950474 54.565685 80 52 57
14.940585 3.065885 54.526314 78 52 58
14.930176 3.181207 54.488323 78 53 59
14.920226 3.296468 54.452011 78 53 60
14.910810 3.411693 54.417648 78 53 59
14.901999 3.526914 54.385490 78 53 59
14.893853 3.642159 54.355766 79 53 58
14.886430 3.757458 54.328671 80 53 58
14.879775 3.872840 54.304386 80 53 57
14.873929 3.988334 54.283047 80 52 56
14.868919 4.103968 54.264767 80 52 56
14.864772 4.219767 54.249630 80 52 56
14.861500 4.335756 54.237690 80 53 57
14.859111 4.451959 54.228970 81 54 58
14.857607 4.568396 54.223480 81 53 58
14.856977 4.685085 54.221184 81 53 58
14.857213 4.802043 54.222042 80 53 57
14.858288 4.919283 54.225964 80 52 57
14.860174 5.036816 54.232853 79 51 57
14.862838 5.154647 54.242569 78 50 57
14.866229 5.272779 54.254948 77 49 57
14.870301 5.391211 54.269810 77 50 57
14.874996 5.509937 54.286942 78 52 58
14.880249 5.628949 54.306114 77 52 57
14.885992 5.748232 54.327076 75 51 56
14.892161 5.867774 54.349586 74 50 54
14.898685 5.987555 54.373398 73 49 53
14.905495 6.107556 54.398251 72 49 52
14.912527 6.227757 54.423916 72 49 52
14.919726 6.348140 54.450191 72 48 51
14.927039 6.468685 54.476875 72 48 51
14.934422 6.589376 54.503819 72 48 51
14.941838 6.710199 54.530888 72 49 51
14.949261 6.831141 54.557976 73 49 51
14.956669 6.952193 54.585011 73 49 52
14.964046 7.073347 54.611935 74 49 51
14.971384 7.194598 54.638718 74 48 51
14.978678 7.315943 54.665333 73 48 52
14.985923 7.437379 54.691776 73 48 51
14.993117 7.558903 54.718033 72 48 52
15.000258 7.680513 54.744095 72 48 52
15.007345 7.802207 54.769958 72 47 54
15.014373 7.923982 54.795605 72 46 56
15.021337 8.045833 54.821018 72 44 60
15.028230 8.167754 54.846176 77 48 68
15.035049 8.289744 54.871067 95 65 90
15.041787 8.411797 54.895657 117 86 112
15.048436 8.533903 54.919922 113 82 106
15.054996 8.656063 54.943859 87 58 77
15.061460 8.778272 54.967453 70 43 56
15.067832 8.900527 54.990707 67 41 50
15.074110 9.022826 55.013618 66 42 48
15.080303 9.145172 55.036221 65 42 46
15.086419 9.267569 55.058540 64 42 44
15.092466 9.390019 55.080608 63 42 43
15.098462 9.512531 55.102493 62 42 44
15.104422 9.635116 55.124241 62 42 44
15.110360 9.757780 55.145916 63 42 45
15.116300 9.880538 55.167591 63 42 45
15.122258 10.003403 55.189335 63 42 45
15.128255 10.126387 55.211224 62 41 45
15.134311 10.249504 55.233322 62 41 44
15.140439 10.372767 55.255688 63 41 44
15.146659 10.496190 55.278389 63 42 44
15.152984 10.619784 55.301472 63 42 44
15.159425 10.743560 55.324978 62 42 44
15.165986 10.867524 55.348923 61 41 44
15.172680 10.991687 55.373352 61 40 44
15.179503 11.116050 55.398254 60 40 44
15.186460 11.240619 55.423645 59 40 44
15.193545 11.365394 55.449501 59 40 43
15.200757 11.490376 55.475822 59 40 43
15.208089 11.615562 55.502579 59 41 43
15.215531 11.740951 55.529743 59 41 43
15.223081 11.866539 55.557293 59 41 43
15.230726 11.992321 55.585194 59 41 42
15.238462 12.118297 55.613430 59 41 42
15.246279 12.244458 55.641956 58 40 42
15.254171 12.370804 55.670757 58 40 42
15.262133 12.497331 55.699814 57 40 41
15.270164 12.624040 55.729126 57 40 41
15.278263 12.750933 55.758682 57 40 41
15.286435 12.878015 55.788509 56 39 40
15.294690 13.005295 55.818634 55 39 40
15.303045 13.132792 55.849129 54 38 39
15.311521 13.260523 55.880058 53 37 38
15.320141 13.388515 55.911518 54 36 39
15.328944 13.516804 55.943645 54 36 39
15.337969 13.645428 55.976582 54 36 40
15.347261 13.774436 56.010498 54 36 40
15.356876 13.903880 56.045586 54 37 40
15.366869 14.033821 56.082054 54 38 40
15.377297 14.164321 56.120113 54 38 41
15.388221 14.295445 56.159981 54 38 40
15.399703 14.427264 56.201885 53 39 40
15.411799 14.559844 56.246029 53 39 40
15.424564 14.693251 56.292614 53 39 41
15.438046 14.827547 56.341816 52 39 41
15.452282 14.962787 56.393772 53 39 41
15.467307 15.099020 56.448608 53 39 41
15.483138 15.236283 56.506386 53 39 41
15.499786 15.374605 56.567142 53 38 40
15.517244 15.514000 56.630859 52 37 39
15.535494 15.654466 56.697460 52 36 38
15.554503 15.795991 56.766834 52 36 37
15.574222 15.938541 56.838799 51 37 37
15.594584 16.082064 56.913109 51 37 37
15.615510 16.226496 56.989483 51 37 38
15.636905 16.371746 57.067562 51 37 38
15.658659 16.517712 57.146957 51 38 40
15.680654 16.664274 57.227222 50 38 40
15.702755 16.811300 57.307888 49 37 40
15.724831 16.958645 57.388454 47 36 38
15.746741 17.106157 57.468418 46 35 37
15.768355 17.253689 57.547298 46 35 36
15.789544 17.401093 57.624626 46 35 36
15.810197 17.548235 57.700001 46 35 36
15.830226 17.695005 57.773094 45 34 35
15.849562 17.841311 57.843666 45 34 34
15.868174 17.987099 57.911587 44 34 34
15.886057 18.132349 57.976856 44 33 35
15.903248 18.277084 58.039593 44 33 35
15.919813 18.421366 58.100048 44 34 36
15.935859 18.565304 58.158607 44 34 36
15.951518 18.709040 58.215759 45 34 36
15.966950 18.852757 58.272079 46 34 36
15.982335 18.996656 58.328224 46 34 36
15.997856 19.140963 58.384869 46 34 36
16.013706 19.285910 58.442711 47 34 35
16.030064 19.431723 58.502415 47 34 35
16.047100 19.578619 58.564590 47 34 34
16.064955 19.726789 58.629753 47 34 34
16.083746 19.876398 58.698330 47 36 35
16.103550 20.027561 58.770603 47 38 36
16.124411 20.180359 58.846737 47 38 36
16.146334 20.334822 58.926746 45 36 36
16.169291 20.490940 59.010525 44 36 36
16.193211 20.648649 59.097828 44 36 36
16.218000 20.807850 59.188297 43 36 35
16.243536 20.968403 59.281490 43 35 35
16.269672 21.130138 59.376877 43 35 34
16.296247 21.292858 59.473862 42 34 33
16.323088 21.456345 59.571815 42 34 32
16.350012 21.620365 59.670078 42 34 32
16.376837 21.784676 59.767975 41 34 32
16.403374 21.949024 59.864822 41 34 33
16.429440 22.113155 59.959949 42 35 34
16.454851 22.276812 60.052692 42 35 35
16.479433 22.439737 60.142403 41 35 35
15.310690 0.368536 55.440865 84 50 57
15.302281 0.487780 55.410416 84 50 57
15.293920 0.606894 55.380135 83 50 56
15.285535 0.725877 55.349773 83 51 56
15.277065 0.844724 55.319107 82 51 56
15.268453 0.963430 55.287922 83 51 56
15.259652 1.081988 55.256054 83 51 56
15.250621 1.200391 55.223351 83 51 56
15.241331 1.318630 55.189713 83 52 56
15.231757 1.436697 55.155045 83 52 55
15.221888 1.554585 55.119308 83 52 56
15.211720 1.672286 55.082489 82 51 57
15.201256 1.789793 55.044598 82 50 57
15.190512 1.907102 55.005692 81 50 57
15.179513 2.024209 54.965862 80 50 56
15.168291 2.141113 54.925228 80 50 56
15.156890 2.257815 54.883945 80 50 55
15.145358 2.374318 54.842190 80 50 54
15.133759 2.490630 54.800186 80 50 54
15.122157 2.606761 54.758175 81 51 54
15.110628 2.722724 54.716427 80 51 54
15.099248 2.838535 54.675220 79 51 55
15.088102 2.954214 54.634861 77 51 55
15.077271 3.069783 54.595642 75 50 55
15.066839 3.185267 54.557865 75 50 56
15.056884 3.300693 54.521816 75 51 56
15.047482 3.416090 54.487774 75 51 57
15.038704 3.531486 54.455986 76 51 56
15.030610 3.646911 54.426682 76 51 55
15.023258 3.762395 54.400055 77 51 55
15.016689 3.877967 54.376274 76 51 55
15.010947 3.993656 54.355480 76 51 54
15.006058 4.109489 54.337772 76 50 54
15.002041 4.225492 54.323227 77 51 55
14.998912 4.341689 54.311897 78 52 55
14.996675 4.458102 54.303799 79 53 56
14.995331 4.574752 54.298931 79 53 56
14.994866 4.691657 54.297249 80 53 56
14.995272 4.808834 54.298717 79 52 56
14.996522 4.926294 54.303246 78 52 56
14.998587 5.044048 54.310722 77 50 56
15.001431 5.162102 54.321018 76 49 56
15.005009 5.280459 54.333973 75 48 55
15.009269 5.399117 54.349400 75 48 55
15.014157 5.518073 54.367100 75 50 55
15.019609 5.637317 54.386845 75 50 55
15.025563 5.756837 54.408405 73 49 54
15.031949 5.876620 54.431526 72 48 53
15.038699 5.996647 54.455971 71 48 52
15.045748 6.116902 54.481495 71 47 51
15.053033 6.237364 54.507874 71 47 50
15.060494 6.358015 54.534893 71 46 49
15.068085 6.478837 54.562374 70 47 49
15.075753 6.599813 54.590145 70 47 49
15.083470 6.720929 54.618092 71 47 50
15.091203 6.842173 54.646088 72 47 49
15.098929 6.963535 54.674065 72 47 50
15.106631 7.085006 54.701954 72 47 50
15.114298 7.206581 54.729717 73 47 50
15.121922 7.328254 54.757324 73 48 51
15.129498 7.450023 54.784756 72 49 52
15.137019 7.571883 54.811993 72 49 52
15.144481 7.693830 54.839008 72 49 53
15.151878 7.815860 54.865799 72 48 54
15.159204 7.937968 54.892323 72 48 56
15.166451 8.060149 54.918571 73 47 60
15.173613 8.182397 54.944500 77 49 66
15.180679 8.304705 54.970089 87 58 78
15.187642 8.427065 54.995300 98 69 90
15.194491 8.549470 55.020103 97 68 87
15.201224 8.671916 55.044483 83 55 71
15.207836 8.794397 55.068424 71 44 56
15.214325 8.916908 55.091919 67 42 50
15.220691 9.039449 55.114971 65 42 47
15.226943 9.162021 55.137611 64 42 45
15.233088 9.284623 55.159859 62 41 43
15.239136 9.407263 55.181759 61 41 43
15.245106 9.529948 55.203377 60 41 43
15.251013 9.652687 55.224770 61 41 44
15.256880 9.775492 55.246014 61 41 44
15.262726 9.898376 55.267185 61 41 45
15.268576 10.021352 55.288368 61 41 45
15.274451 10.144437 55.309639 61 41 44
15.280375 10.267646 55.331089 61 41 44
15.286367 10.390996 55.352791 62 41 44
15.292450 10.514500 55.374813 62 41 44
15.298635 10.638170 55.397217 62 41 44
15.304944 10.762024 55.420055 61 41 44
15.311381 10.886067 55.443367 61 41 44
15.317958 11.010312 55.467182 60 40 44
15.324677 11.134763 55.491512 60 40 44
15.331542 11.259425 55.516369 59 40 44
15.338548 11.384299 55.541737 58 40 44
15.345694 11.509388 55.567612 58 40 43
15.352972 11.634688 55.593967 58 41 43
15.360374 11.760199 55.620777 58 41 43
15.367896 11.885915 55.648010 58 42 43
15.375523 12.011831 55.675629 57 42 43
15.383247 12.137944 55.703598 58 42 43
15.391062 12.264250 55.731895 57 42 42
15.398953 12.390739 55.760471 57 41 42
15.406921 12.517413 55.789322 56 41 41
15.414956 12.644267 55.818417 56 40 40
15.423059 12.771302 55.847755 56 40 39
15.431231 12.898522 55.877350 55 39 39
15.439484 13.025937 55.907234 54 38 38
15.447830 13.153562 55.937458 53 37 37
15.456289 13.281412 55.968086 53 37 38
15.464887 13.409515 55.999222 53 36 39
15.473659 13.537906 56.030983 53 36 39
15.482641 13.666618 56.063511 54 36 40
15.491887 13.795706 56.096989 54 37 41
15.501442 13.925216 56.131588 54 37 41
15.511368 14.055210 56.167530 54 36 40
15.521722 14.185751 56.205021 53 37 40
15.532565 14.316905 56.244286 53 38 40
15.543959 14.448739 56.285542 53 38 40
15.555957 14.581319 56.328991 53 39 40
15.568621 14.714714 56.374844 53 40 41
15.581995 14.848985 56.423275 53 40 41
15.596118 14.984183 56.474415 53 39 41
15.611026 15.120362 56.528397 52 38 40
15.626738 15.257559 56.585289 51 38 39
15.643263 15.395802 56.645130 52 38 40
15.660597 15.535105 56.707897 52 37 39
15.678721 15.675468 56.773529 52 36 39
15.697604 15.816879 56.841900 52 36 38
15.717197 15.959306 56.912849 51 36 38
15.737437 16.102701 56.986137 50 37 38
15.758245 16.246996 57.061481 50 37 38
15.779524 16.392107 57.138538 50 37 38
15.801169 16.537933 57.216919 50 38 40
15.823059 16.684355 57.296181 50 38 40
15.845066 16.831244 57.375870 49 38 39
15.867053 16.978453 57.455486 48 36 38
15.888884 17.125837 57.534534 46 36 37
15.910423 17.273247 57.612534 46 36 37
15.931546 17.420538 57.689018 46 36 37
15.952139 17.567574 57.763584 46 35 36
15.972115 17.714247 57.835918 45 34 36
15.991403 17.860464 57.905762 44 34 35
16.009968 18.006168 57.972988 44 34 34
16.027807 18.151342 58.037582 44 33 35
16.044954 18.296005 58.099678 44 33 35
16.061480 18.440222 58.159515 45 34 35
16.077484 18.584095 58.217472 45 34 36
16.093105 18.727768 58.274033 45 34 36
16.108498 18.871420 58.329769 45 34 36
16.123844 19.015259 58.385342 45 34 36
16.139330 19.159502 58.441418 45 34 36
16.155149 19.304384 58.498699 45 33 36
16.171484 19.450134 58.557846 45 33 36
16.188501 19.596964 58.619465 45 33 35
16.206347 19.745071 58.684086 45 34 34
16.225138 19.894615 58.752129 45 35 35
16.244951 20.045713 58.823875 46 37 36
16.265837 20.198454 58.899502 46 37 36
16.287796 20.352861 58.979019 45 36 36
16.310799 20.508924 59.062313 44 35 35
16.334782 20.666586 59.149158 43 35 35
16.359644 20.825741 59.239185 43 36 35
16.385262 20.986252 59.331951 43 35 34
16.411489 21.147947 59.426918 43 35 34
16.438160 21.310629 59.523495 42 35 33
16.465099 21.474075 59.621044 42 34 32
16.492123 21.638054 59.718899 42 34 32
16.519041 21.802315 59.816368 41 33 32
16.545664 21.966604 59.912773 40 34 32
16.571804 22.130665 60.007427 40 34 33
16.597273 22.294231 60.099655 41 34 34
16.621895 22.457050 60.188808 41 34 35
15.441615 0.488409 55.481873 81 50 56
15.433255 0.607680 55.451836 80 50 56
15.424857 0.726820 55.421661 80 50 55
15.416356 0.845824 55.391117 79 50 54
15.407696 0.964686 55.359997 80 50 55
15.398831 1.083400 55.328148 80 50 55
15.389726 1.201958 55.295429 80 50 54
15.380347 1.320351 55.261734 79 50 53
15.370673 1.438571 55.226974 79 50 53
15.360696 1.556611 55.191128 79 50 54
15.350410 1.674462 55.154175 79 50 55
15.339828 1.792120 55.116146 78 49 55
15.328959 1.909578 55.077099 77 48 55
15.317835 2.026833 55.037128 77 48 54
15.306491 2.143886 54.996372 76 48 54
15.294970 2.260736 54.954971 77 48 54
15.283324 2.377390 54.913132 77 48 53
15.271619 2.493852 54.871071 77 48 53
15.259922 2.610135 54.829044 77 49 53
15.248308 2.726252 54.787319 76 49 52
15.236857 2.842219 54.746178 75 49 53
15.225657 2.958057 54.705936 74 49 53
15.214790 3.073789 54.666889 72 49 53
15.204338 3.189440 54.629333 72 49 53
15.194385 3.305037 54.593571 72 49 54
15.185002 3.420609 54.559860 71 50 54
15.176265 3.536186 54.528465 72 50 54
15.168231 3.651797 54.499599 73 50 54
15.160957 3.767472 54.473465 73 50 53
15.154486 3.883240 54.450214 73 50 53
15.148856 3.999130 54.429985 73 50 52
15.144094 4.115169 54.412876 73 50 52
15.140220 4.231382 54.398956 74 50 52
15.137241 4.347793 54.388256 75 50 52
15.135165 4.464423 54.380795 76 51 53
15.133989 4.581294 54.376572 77 52 54
15.133700 4.698421 54.375530 78 52 54
15.134282 4.815822 54.377621 77 51 54
15.135714 4.933508 54.382767 77 50 54
15.137964 5.051490 54.390854 76 49 54
15.140995 5.169773 54.401741 75 48 54
15.144762 5.288361 54.415276 74 48 54
15.149218 5.407252 54.431286 73 47 53
15.154305 5.526443 54.449562 72 47 52
15.159964 5.645925 54.469898 71 47 51
15.166130 5.765688 54.492054 70 46 51
15.172739 5.885718 54.515797 70 46 51
15.179723 6.005999 54.540890 69 46 50
15.187016 6.126513 54.567093 69 46 49
15.194556 6.247241 54.594189 70 45 48
15.202288 6.368166 54.621967 69 45 48
15.210158 6.489271 54.650246 69 45 47
15.218122 6.610538 54.678860 69 46 47
15.226142 6.731953 54.707676 70 46 48
15.234190 6.853505 54.736591 70 46 48
15.242238 6.975181 54.765507 71 46 48
15.250268 7.096974 54.794361 71 46 48
15.258267 7.218877 54.823101 71 46 48
15.266225 7.340884 54.851692 71 47 50
15.274133 7.462989 54.880104 72 48 52
15.281979 7.585187 54.908298 72 49 53
15.289760 7.707473 54.936253 72 49 54
15.297466 7.829842 54.963943 72 49 54
15.305088 7.952285 54.991329 73 49 56
15.312614 8.074797 55.018372 74 48 60
15.320036 8.197370 55.045036 76 49 63
15.327340 8.319992 55.071281 80 52 68
15.334519 8.442660 55.097073 84 57 73
15.341560 8.565362 55.122375 83 56 71
15.348454 8.688090 55.147144 77 51 64
15.355203 8.810841 55.171391 71 46 55
15.361795 8.933605 55.195080 67 43 49
15.368237 9.056383 55.218224 65 42 46
15.374533 9.179173 55.240841 63 41 44
15.380692 9.301979 55.262970 61 41 42
15.386727 9.424805 55.284660 60 41 42
15.392654 9.547656 55.305954 59 41 43
15.398497 9.670547 55.326946 59 41 43
15.404273 9.793486 55.347702 60 41 44
15.410010 9.916489 55.368317 60 41 44
15.415734 10.039572 55.388882 60 40 44
15.421472 10.162752 55.409496 60 40 44
15.427248 10.286047 55.430248 60 40 44
15.433086 10.409474 55.451229 61 40 43
15.439013 10.533051 55.472519 61 40 43
15.445045 10.656794 55.494194 61 41 43
15.451202 10.780717 55.516319 60 42 44
15.457495 10.904831 55.538929 60 41 44
15.463938 11.029149 55.562077 60 40 44
15.470534 11.153678 55.585781 59 40 44
15.477287 11.278423 55.610043 59 40 44
15.484197 11.403388 55.634865 59 40 44
15.491259 11.528574 55.660240 58 41 44
15.498466 11.653977 55.686138 58 41 44
15.505810 11.779597 55.712524 57 41 43
15.513283 11.905430 55.739372 56 41 43
15.520873 12.031469 55.766647 56 41 43
15.528571 12.157710 55.794308 56 42 43
15.536365 12.284145 55.822308 56 42 42
15.544242 12.410769 55.850609 56 41 42
15.552197 12.537578 55.879192 56 41 41
15.560221 12.664565 55.908024 55 40 40
15.568315 12.791734 55.937103 55 40 39
15.576475 12.919084 55.966423 54 39 38
15.584713 13.046624 55.996021 53 38 37
15.593038 13.174367 56.025936 52 37 37
15.601471 13.302330 56.056236 52 37 38
15.610037 13.430539 56.087013 53 36 39
15.618770 13.559025 56.118389 53 36 39
15.627707 13.687825 56.150501 54 38 40
15.636898 13.816988 56.183525 56 39 42
15.646392 13.946563 56.217636 55 37 41
15.656249 14.076612 56.253056 54 36 40
15.666526 14.207193 56.289978 53 36 39
15.677283 14.338375 56.328632 53 37 40
15.688585 14.470225 56.369240 53 38 40
15.700488 14.602809 56.412006 53 39 40
15.713047 14.736192 56.457130 53 40 41
15.726312 14.870437 56.504791 53 40 41
15.740321 15.005598 56.555126 52 40 40
15.755107 15.141722 56.608253 51 38 40
15.770695 15.278852 56.664257 51 38 39
15.787091 15.417013 56.723171 51 37 39
15.804294 15.556222 56.784981 51 37 39
15.822285 15.696478 56.849621 51 36 39
15.841033 15.837771 56.916985 52 36 39
15.860492 15.980071 56.986900 51 36 38
15.880598 16.123329 57.059139 50 36 38
15.901274 16.267481 57.133430 50 36 38
15.922427 16.412447 57.209435 50 37 38
15.943951 16.558123 57.286770 50 38 39
15.965727 16.704397 57.365009 51 38 39
15.987626 16.851139 57.443695 50 38 39
16.009512 16.998205 57.522327 49 37 38
16.031250 17.145454 57.600437 48 37 38
16.052708 17.292736 57.677532 47 37 37
16.073755 17.439905 57.753155 47 36 37
16.094282 17.586834 57.826912 46 36 36
16.114199 17.733404 57.898468 46 35 36
16.133432 17.879530 57.967575 45 35 35
16.151949 18.025152 58.034107 44 34 34
16.169744 18.170252 58.098045 44 34 34
16.186852 18.314850 58.159515 45 34 34
16.203339 18.459002 58.218750 45 34 35
16.219305 18.602816 58.276123 45 34 35
16.234890 18.746433 58.332111 45 34 35
16.250246 18.890032 58.387295 45 34 35
16.265560 19.033813 58.442314 45 34 36
16.281015 19.177999 58.497841 45 33 37
16.296804 19.322823 58.554573 44 33 37
16.313114 19.468512 58.613174 44 33 36
16.330111 19.615278 58.674248 45 33 36
16.347944 19.763319 58.738319 44 33 35
16.366730 19.912794 58.805817 44 34 35
16.386549 20.063828 58.877026 45 35 35
16.407448 20.216497 58.952118 45 36 36
16.429432 20.370836 59.031109 44 35 35
16.452471 20.526831 59.113888 44 34 35
16.476500 20.684427 59.200222 43 35 35
16.501419 20.843517 59.289757 43 35 34
16.527102 21.003967 59.382038 42 35 34
16.553400 21.165602 59.476528 42 35 34
16.580151 21.328222 59.572639 42 35 34
16.607170 21.491608 59.669720 42 35 33
16.634274 21.655521 59.767105 42 34 32
16.661268 21.819712 59.864098 41 33 32
16.687960 21.983921 59.960003 40 33 32
16.714157 22.147888 60.054131 40 34 33
16.739670 22.311348 60.145794 40 34 33
15.573486 0.608489 55.525623 77 49 55
15.565071 0.727790 55.495621 77 48 54
15.556537 0.846955 55.465191 76 48 53
15.547828 0.965978 55.434139 77 48 53
15.538901 1.084852 55.402313 77 48 53
15.529719 1.203569 55.369576 76 48 52
15.520252 1.322121 55.335823 76 49 51
15.510482 1.440499 55.300987 76 49 51
15.500397 1.558695 55.265030 76 49 52
15.489998 1.676702 55.227955 76 49 52
15.479297 1.794514 55.189800 75 48 53
15.468308 1.912127 55.150623 74 48 53
15.457061 2.029536 55.110519 74 47 53
15.445596 2.146742 55.069641 73 47 52
15.433956 2.263747 55.028145 73 47 52
15.422201 2.380554 54.986233 73 47 52
15.410392 2.497173 54.944126 73 47 51
15.398602 2.613612 54.902096 74 48 51
15.386909 2.729888 54.860405 73 48 51
15.375394 2.846017 54.819344 72 48 51
15.364144 2.962021 54.779236 71 48 52
15.353245 3.077921 54.740376 70 47 52
15.342781 3.193745 54.703068 69 47 52
15.332833 3.309519 54.667603 69 48 52
15.323481 3.425273 54.634254 69 48 52
15.314789 3.541037 54.603264 69 49 52
15.306823 3.656840 54.574863 70 50 52
15.299636 3.772712 54.549240 70 50 52
15.293270 3.888684 54.526543 70 49 51
15.287762 4.004782 54.506905 70 49 50
15.283136 4.121033 54.490410 71 49 50
15.279408 4.237462 54.477119 72 49 50
15.276590 4.354093 54.467072 73 49 51
15.274684 4.470948 54.460274 74 49 51
15.273682 4.588045 54.456699 74 50 51
15.273574 4.705402 54.456318 74 49 51
15.274342 4.823034 54.459053 74 49 52
15.275961 4.940953 54.464828 74 48 52
15.278400 5.059168 54.473526 74 48 53
15.281625 5.177687 54.485023 74 47 52
15.285588 5.296512 54.499153 73 47 52
15.290245 5.415643 54.515755 72 46 51
15.295537 5.535076 54.534622 70 45 49
15.301407 5.654803 54.555553 69 44 49
15.307792 5.774816 54.578316 69 45 48
15.314630 5.895100 54.602695 68 45 48
15.321851 6.015640 54.628445 68 45 48
15.329393 6.136420 54.655334 68 44 47
15.337196 6.257422 54.683155 68 44 47
15.345202 6.378628 54.711700 68 44 46
15.353360 6.500022 54.740788 68 45 46
15.361622 6.621586 54.770241 68 45 46
15.369953 6.743307 54.799946 68 45 47
15.378319 6.865172 54.829777 69 45 47
15.386695 6.987170 54.859634 69 45 47
15.395058 7.109291 54.889454 69 45 47
15.403393 7.231527 54.919170 69 46 48
15.411684 7.353871 54.948734 69 47 50
15.419923 7.476316 54.978107 70 47 51
15.428098 7.598857 55.007256 72 49 53
15.436195 7.721485 55.036125 72 49 54
15.444207 7.844193 55.064690 72 49 55
15.452121 7.966974 55.092907 73 49 56
15.459921 8.089818 55.120720 73 49 57
15.467596 8.212715 55.148083 74 49 58
15.475134 8.335655 55.174957 75 50 60
15.482520 8.458630 55.201294 77 51 62
15.489741 8.581626 55.227039 76 51 61
15.496791 8.704637 55.252174 74 49 57
15.503661 8.827653 55.276669 70 46 52
15.510348 8.950670 55.300510 68 44 48
15.516852 9.073683 55.323700 65 42 45
15.523180 9.196691 55.346260 63 41 43
15.529341 9.319696 55.368229 61 41 42
15.535348 9.442702 55.389645 60 41 42
15.541220 9.565718 55.410580 60 41 43
15.546979 9.688754 55.431114 59 40 43
15.552652 9.811824 55.451344 60 40 44
15.558266 9.934942 55.471355 60 40 44
15.563848 10.058127 55.491257 60 40 44
15.569428 10.181397 55.511154 60 40 44
15.575040 10.304773 55.531162 60 40 43
15.580707 10.428272 55.551369 60 39 43
15.586460 10.551917 55.571880 60 40 42
15.592319 10.675723 55.592766 60 41 43
15.598307 10.799708 55.614117 59 41 43
15.604437 10.923885 55.635975 59 41 44
15.610725 11.048268 55.658394 59 40 44
15.617178 11.172865 55.681400 59 40 44
15.623800 11.297685 55.705013 59 40 44
15.630592 11.422729 55.729225 59 40 44
15.637548 11.547999 55.754028 58 40 44
15.644666 11.673497 55.779404 57 41 44
15.651931 11.799215 55.805309 56 41 43
15.659338 11.925154 55.831718 55 41 43
15.666873 12.051304 55.858582 55 41 43
15.674524 12.177661 55.885864 55 41 42
15.682279 12.304216 55.913513 55 41 42
15.690125 12.430963 55.941483 55 41 41
15.698051 12.557895 55.969749 54 41 40
15.706050 12.685007 55.998264 54 40 39
15.714120 12.812300 56.027039 54 39 38
15.722257 12.939772 56.056049 53 38 38
15.730467 13.067430 56.085320 52 38 37
15.738762 13.195286 56.114895 52 37 37
15.747162 13.323358 56.144844 52 37 37
15.755689 13.451667 56.175247 52 37 38
15.764377 13.580246 56.206223 52 37 39
15.773264 13.709131 56.237907 54 38 40
15.782396 13.838369 56.270470 55 39 41
15.791828 13.968012 56.304096 55 38 40
15.801613 14.098115 56.338985 53 36 39
15.811812 14.228741 56.375347 52 36 39
15.822486 14.359955 56.413406 52 37 39
15.833697 14.491823 56.453377 53 38 39
15.845503 14.624414 56.495472 53 38 40
15.857958 14.757790 56.539875 53 39 40
15.871111 14.892013 56.586773 53 39 40
15.885003 15.027137 56.636303 52 39 40
15.899669 15.163212 56.688591 51 39 40
15.915129 15.300276 56.743713 51 38 39
