ply
format ascii 1.0
element vertex 1199
property float x
property float y
property float z
property uchar red
property uchar green
property uchar blue
end_header
3.027249 2.202113 63.514576 201 129 141
3.027416 2.339159 63.518085 202 130 142
3.027806 2.476401 63.526264 204 131 143
3.028392 2.613848 63.538567 205 132 144
3.029147 2.751501 63.554398 204 132 143
3.030040 2.889355 63.573143 205 133 144
3.031041 3.027397 63.594143 205 135 146
3.032118 3.165609 63.616726 204 135 146
3.033237 3.303964 63.640205 201 134 144
3.034366 3.442432 63.663902 202 137 147
3.035474 3.580977 63.687153 211 148 159
3.036531 3.719560 63.709328 216 155 166
3.037509 3.858138 63.729843 208 149 160
3.038383 3.996668 63.748192 201 142 153
3.039134 4.135108 63.763931 203 145 156
3.039742 4.273418 63.776707 208 150 162
3.040197 4.411558 63.786236 217 158 171
3.040488 4.549496 63.792351 227 166 180
3.040613 4.687203 63.794975 233 171 186
3.040573 4.824659 63.794121 234 170 187
3.040370 4.961847 63.789871 233 168 185
3.040013 5.098759 63.782391 235 168 186
3.039514 5.235392 63.771912 237 167 186
3.038885 5.371751 63.758720 237 164 183
3.038142 5.507847 63.743134 234 159 180
3.037303 5.643695 63.725517 230 153 177
3.036384 5.779318 63.706249 226 149 172
3.035406 5.914740 63.685711 224 146 170
3.034385 6.049991 63.664310 222 144 167
3.033343 6.185104 63.642433 219 142 164
3.032295 6.320112 63.620461 215 140 160
3.031261 6.455054 63.598755 212 137 156
3.030255 6.589963 63.577644 215 141 158
3.029292 6.724878 63.557446 221 148 163
3.028385 6.859831 63.538414 223 150 163
3.027544 6.994857 63.520775 218 143 156
3.026778 7.129981 63.504692 213 136 150
3.026091 7.265226 63.490288 217 138 153
3.025487 7.400612 63.477604 224 144 160
3.024964 7.536146 63.466640 226 146 163
3.024520 7.671833 63.457325 226 147 163
3.024148 7.807666 63.449528 223 146 162
3.023841 7.943634 63.443073 219 144 159
3.023586 8.079714 63.437725 217 145 157
3.023372 8.215882 63.433231 216 146 157
3.023185 8.352107 63.429310 216 149 159
3.023011 8.488352 63.425667 225 159 171
3.022837 8.624578 63.422012 240 178 191
3.022650 8.760752 63.418076 248 188 202
3.022437 8.896835 63.413624 245 182 198
3.022191 9.032797 63.408455 241 176 193
3.021903 9.168611 63.402412 241 177 192
3.021569 9.304255 63.395401 243 180 194
3.021187 9.439721 63.387383 246 186 198
3.020757 9.575000 63.378365 246 191 200
3.020282 9.710096 63.368404 239 178 186
3.019767 9.845018 63.357601 226 157 167
3.019218 9.979782 63.346088 225 153 164
3.018644 10.114410 63.334034 234 162 175
3.018052 10.248927 63.321621 239 166 180
3.017452 10.383362 63.309025 234 159 175
3.016852 10.517745 63.296448 224 147 164
3.016262 10.652106 63.284061 216 136 154
3.015689 10.786475 63.272041 215 132 150
3.015141 10.920883 63.260536 219 132 151
3.014623 11.055354 63.249683 220 129 147
3.014143 11.189915 63.239597 218 124 141
3.013704 11.324588 63.230385 216 120 135
3.013310 11.459394 63.222122 214 115 131
3.012964 11.594351 63.214878 212 111 127
3.012671 11.729478 63.208717 208 106 123
3.012431 11.864788 63.203678 200 97 114
3.012246 12.000298 63.199799 188 84 102
3.012118 12.136021 63.197124 170 66 84
3.012049 12.271972 63.195675 154 48 67
3.012040 12.408163 63.195484 151 44 63
3.012093 12.544609 63.196587 158 51 70
3.012208 12.681325 63.199005 167 59 78
3.012388 12.818325 63.202774 176 67 85
3.012633 12.955625 63.207924 186 75 93
3.012945 13.093236 63.214470 196 84 102
3.013325 13.231174 63.222443 201 89 106
3.013774 13.369450 63.231853 201 87 103
3.014290 13.508071 63.242691 198 82 100
3.014874 13.647045 63.254948 195 78 96
3.015524 13.786371 63.268578 190 73 91
3.016236 13.926045 63.283524 183 67 86
3.017006 14.066054 63.299679 176 60 79
3.017828 14.206375 63.316921 169 55 73
3.018693 14.346976 63.335072 164 51 69
3.019591 14.487814 63.353912 163 52 70
3.020510 14.628835 63.373192 166 56 74
3.021435 14.769970 63.392609 172 63 81
3.022351 14.911140 63.411819 176 69 88
3.023239 15.052254 63.430439 177 73 91
3.024078 15.193206 63.448055 177 75 93
3.024848 15.333882 63.464211 177 77 95
3.025526 15.474157 63.478436 178 78 96
3.026088 15.613896 63.490234 177 78 96
3.026512 15.752964 63.499119 177 79 98
3.026772 15.891215 63.504585 181 82 101
3.026847 16.028502 63.506138 183 84 105
3.026712 16.164680 63.503311 185 86 108
3.026347 16.299606 63.495655 189 89 111
3.025733 16.433146 63.482765 193 91 114
3.024852 16.565170 63.464287 196 93 114
3.023690 16.695562 63.439919 196 92 112
3.022237 16.824226 63.409420 193 87 106
3.020484 16.951078 63.372639 190 83 100
3.018428 17.076056 63.329502 187 81 97
3.016070 17.199129 63.280037 186 80 96
3.013417 17.320290 63.224369 188 83 100
3.010479 17.439562 63.162731 200 97 116
3.007273 17.556999 63.095459 207 106 127
3.003818 17.672688 63.022980 193 93 117
3.000141 17.786741 62.945824 169 70 97
2.996269 17.899300 62.864578 155 58 87
2.992234 18.010529 62.779926 155 60 88
2.988071 18.120617 62.692589 159 65 92
2.983817 18.229771 62.603336 161 67 93
2.979509 18.338205 62.512943 158 65 88
2.975184 18.446148 62.422203 147 55 75
2.970880 18.553829 62.331894 138 47 63
2.966632 18.661478 62.242786 137 46 61
2.962477 18.769327 62.155605 139 49 62
3.181577 0.699867 63.864094 172 105 117
3.177981 0.836590 63.791904 174 108 118
3.174783 0.973124 63.727718 178 111 120
3.171979 1.109519 63.671436 181 115 124
3.169562 1.245822 63.622906 184 120 130
3.167520 1.382081 63.581932 190 125 135
3.165844 1.518339 63.548290 194 129 139
3.164520 1.654635 63.521702 196 129 140
3.163531 1.791007 63.501858 198 129 142
3.162861 1.927487 63.488415 199 129 142
3.162492 2.064106 63.480999 200 129 142
3.162402 2.200886 63.479183 201 129 143
3.162567 2.337848 63.482510 203 130 143
3.162964 2.475006 63.490475 205 131 144
3.163565 2.612366 63.502533 206 132 144
3.164340 2.749930 63.518093 206 132 144
3.165259 2.887692 63.536545 206 133 144
3.166290 3.025640 63.557228 205 133 144
3.167398 3.163755 63.579479 203 132 144
3.168550 3.302012 63.602612 202 134 145
3.169713 3.440380 63.625946 205 139 150
3.170853 3.578823 63.648838 213 149 159
3.171940 3.717302 63.670654 214 152 162
3.172945 3.855775 63.690823 205 145 155
3.173842 3.994200 63.708832 199 140 150
3.174610 4.132535 63.724251 202 144 155
3.175232 4.270739 63.736725 210 151 163
3.175693 4.408774 63.745987 220 160 173
3.175986 4.546608 63.751865 230 169 183
3.176107 4.684215 63.754295 236 174 188
3.176057 4.821571 63.753284 235 171 187
3.175840 4.958663 63.748928 232 167 182
3.175464 5.095481 63.741386 234 166 182
3.174941 5.232024 63.730888 238 167 185
3.174285 5.368297 63.717716 239 164 183
3.173512 5.504309 63.702194 233 156 177
3.172638 5.640077 63.684662 228 148 172
3.171683 5.775620 63.665489 227 146 170
3.170666 5.910965 63.645065 225 144 169
3.169604 6.046137 63.623760 223 143 167
3.168518 6.181170 63.601952 220 141 164
3.167424 6.316092 63.579994 216 138 159
3.166340 6.450942 63.558243 212 135 155
3.165282 6.585751 63.537010 212 137 154
3.164265 6.720555 63.516586 216 141 156
3.163300 6.855384 63.497223 217 142 155
3.162399 6.990271 63.479130 213 138 149
3.161569 7.125240 63.462471 211 134 145
3.160816 7.260314 63.447361 217 138 150
3.160143 7.395511 63.433853 227 147 161
3.159550 7.530839 63.421947 233 153 168
3.159034 7.666304 63.411591 233 153 168
3.158590 7.801900 63.402672 228 149 164
3.158209 7.937618 63.395031 221 145 158
3.157882 8.073440 63.388458 216 142 152
3.157597 8.209342 63.382732 217 145 155
3.157341 8.345297 63.377594 224 154 164
3.157101 8.481274 63.372780 231 162 174
3.156864 8.617237 63.368023 237 170 184
3.156618 8.753155 63.363083 240 173 189
3.156352 8.888995 63.357750 237 170 188
3.156057 9.024731 63.351833 234 167 185
3.155727 9.160336 63.345200 232 165 182
3.155356 9.295796 63.337765 232 165 180
3.154944 9.431098 63.329483 239 177 190
3.154490 9.566239 63.320377 246 192 203
3.153998 9.701223 63.310497 242 183 193
3.153471 9.836057 63.299927 229 160 171
3.152917 9.970757 63.288795 227 155 166
3.152342 10.105342 63.277248 237 165 178
3.151753 10.239835 63.265438 239 166 181
3.151160 10.374260 63.253532 228 153 171
3.150570 10.508645 63.241684 217 140 159
3.149990 10.643014 63.230049 213 133 153
3.149428 10.777394 63.218769 216 133 154
3.148890 10.911806 63.207958 220 134 155
3.148380 11.046273 63.197731 221 131 151
3.147904 11.180815 63.188171 220 126 145
3.147465 11.315450 63.179359 219 123 140
3.147066 11.450191 63.171352 219 119 137
3.146710 11.585058 63.164211 219 118 135
3.146400 11.720061 63.157974 216 113 131
3.146137 11.855217 63.152695 206 102 121
3.145923 11.990539 63.148403 192 88 107
3.145761 12.126040 63.145149 176 71 90
3.145652 12.261736 63.142967 160 54 73
3.145599 12.397643 63.141911 155 48 67
3.145605 12.533780 63.142029 160 53 72
3.145673 12.670163 63.143379 168 60 78
3.145803 12.806812 63.146004 176 67 85
3.146000 12.943744 63.149960 184 75 93
3.146266 13.080980 63.155300 194 83 101
3.146603 13.218537 63.162064 201 89 106
3.147013 13.356430 63.170277 201 89 105
3.147495 13.494670 63.179951 199 85 102
3.148049 13.633267 63.191090 197 81 98
3.148675 13.772223 63.203651 193 77 95
3.149369 13.911534 63.217579 188 72 91
3.150126 14.051187 63.232773 182 66 85
3.150939 14.191159 63.249104 175 60 79
3.151801 14.331419 63.266392 168 54 72
3.152699 14.471921 63.284412 162 50 68
3.153620 14.612610 63.302906 161 51 69
3.154549 14.753417 63.321568 165 57 75
3.155470 14.894262 63.340042 169 64 81
3.156362 15.035052 63.357956 172 69 86
3.157205 15.175683 63.374878 174 73 90
3.157977 15.316038 63.390358 177 77 94
3.158653 15.455995 63.403931 179 80 97
3.159209 15.595422 63.415108 177 78 96
3.159623 15.734180 63.423401 175 76 94
3.159868 15.872130 63.428318 177 78 97
3.159920 16.009127 63.429375 181 82 101
3.159757 16.145025 63.426094 184 85 105
3.159356 16.279686 63.418056 188 88 109
3.158698 16.412975 63.404846 193 92 113
3.157765 16.544767 63.386120 196 94 114
3.156543 16.674946 63.361572 197 93 112
3.155018 16.803410 63.330963 195 89 107
3.153183 16.930079 63.294132 192 86 102
3.151034 17.054890 63.251003 190 84 98
3.148572 17.177805 63.201584 187 82 97
3.145803 17.298819 63.145992 188 83 99
3.142737 17.417948 63.084450 203 100 119
3.139390 17.535244 63.017273 213 113 137
3.135784 17.650787 62.944881 199 100 127
3.131943 17.764692 62.867790 172 73 104
3.127897 17.877089 62.786572 156 58 91
3.123679 17.988146 62.701904 157 61 94
3.119324 18.098043 62.614494 165 70 102
3.114871 18.206987 62.525093 173 79 109
3.110357 18.315193 62.434494 173 80 106
3.105823 18.422882 62.343468 154 62 84
3.101305 18.530281 62.252785 137 45 64
3.096843 18.637621 62.163212 136 44 60
3.092472 18.745131 62.075474 139 48 63
3.088227 18.853031 61.990276 142 51 65
3.317564 0.699513 63.831730 173 106 119
3.313815 0.836166 63.759583 176 110 120
3.310481 0.972631 63.695431 179 114 122
3.307556 1.108956 63.639172 183 118 126
3.305034 1.245191 63.590633 186 122 131
3.302903 1.381379 63.549629 191 127 136
3.301151 1.517566 63.515930 194 129 139
3.299764 1.653789 63.489243 196 130 141
3.298726 1.790087 63.469265 198 130 142
3.298018 1.926492 63.455650 199 129 143
3.297621 2.063033 63.448017 200 128 144
3.297514 2.199734 63.445946 202 129 144
3.297671 2.336613 63.448975 203 130 144
3.298068 2.473686 63.456604 206 132 145
3.298676 2.610958 63.468296 207 133 145
3.299464 2.748430 63.483459 207 133 144
3.300400 2.886098 63.501484 206 132 143
3.301452 3.023950 63.521725 206 132 142
3.302585 3.161966 63.543522 204 132 142
3.303763 3.300121 63.566185 203 133 144
3.304952 3.438385 63.589058 204 136 147
3.306117 3.576722 63.611481 205 140 150
3.307228 3.715095 63.632851 205 142 152
3.308254 3.853460 63.652580 203 142 152
3.309168 3.991777 63.670181 202 142 152
3.309950 4.130004 63.685215 206 146 156
3.310580 4.268100 63.697346 214 154 166
3.311045 4.406030 63.706303 222 162 176
3.311338 4.543760 63.711922 229 169 183
3.311453 4.681264 63.714142 233 171 186
3.311392 4.818522 63.712975 232 168 183
3.311160 4.955519 63.708508 230 164 179
3.310766 5.092246 63.700920 234 165 181
3.310220 5.228703 63.690430 240 169 185
3.309539 5.364893 63.677319 239 165 182
3.308737 5.500826 63.661888 232 154 174
3.307833 5.636519 63.644485 227 146 168
3.306844 5.771990 63.625473 227 144 168
3.305791 5.907263 63.605206 226 143 168
3.304692 6.042364 63.584049 225 142 167
3.303565 6.177322 63.562366 223 141 165
3.302428 6.312169 63.540493 220 139 161
3.301298 6.446934 63.518757 216 137 158
3.300191 6.581652 63.497459 216 138 156
3.299121 6.716353 63.476875 217 140 156
3.298101 6.851068 63.457241 216 140 151
3.297140 6.985825 63.438759 214 138 146
3.296248 7.120650 63.421589 216 139 148
3.295429 7.255562 63.405830 225 147 156
3.294687 7.390580 63.391560 236 156 166
3.294023 7.525713 63.378780 242 161 173
3.293434 7.660966 63.367443 237 157 170
3.292915 7.796337 63.357464 229 149 163
3.292459 7.931817 63.348698 221 143 156
3.292058 8.067391 63.340977 215 139 150
3.291700 8.203040 63.334080 217 143 153
3.291373 8.338739 63.327793 227 153 164
3.291066 8.474462 63.321880 232 160 173
3.290765 8.610175 63.316093 233 162 176
3.290460 8.745852 63.310223 230 159 176
3.290140 8.881465 63.304070 225 155 174
3.289798 9.016988 63.297482 224 154 173
3.289425 9.152401 63.290321 225 155 175
3.289020 9.287688 63.282516 226 156 173
3.288579 9.422841 63.274040 229 163 178
3.288104 9.557858 63.264900 238 175 188
3.287597 9.692741 63.255142 241 176 188
3.287062 9.827498 63.244850 235 164 176
3.286505 9.962144 63.234131 232 160 172
3.285933 10.096696 63.223114 236 164 177
3.285351 10.231174 63.211926 231 158 174
3.284768 10.365597 63.200706 217 142 161
3.284191 10.499990 63.189598 209 132 153
3.283625 10.634374 63.178711 212 133 155
3.283077 10.768766 63.168163 220 139 162
3.282550 10.903189 63.158039 226 140 163
3.282051 11.037656 63.148426 224 135 157
3.281581 11.172182 63.139381 221 128 149
3.281143 11.306781 63.130962 220 124 144
3.280740 11.441465 63.123211 221 122 142
3.280374 11.576246 63.116169 224 122 142
3.280047 11.711136 63.109875 222 118 139
3.279761 11.846146 63.104370 210 105 127
3.279518 11.981290 63.099693 196 90 111
3.279320 12.116582 63.095898 183 76 96
3.279172 12.252041 63.093040 169 62 82
3.279075 12.387683 63.091179 163 55 75
3.279035 12.523530 63.090393 166 58 77
3.279053 12.659603 63.090748 171 62 81
3.279135 12.795925 63.092323 176 67 86
3.279284 12.932520 63.095196 183 74 92
3.279505 13.069409 63.099438 192 82 100
3.279799 13.206615 63.105099 199 88 105
3.280170 13.344157 63.112232 201 89 106
3.280618 13.482050 63.120865 201 87 105
3.281145 13.620302 63.130993 200 84 102
3.281748 13.758921 63.142597 197 81 99
3.282424 13.897899 63.155613 193 77 96
3.283169 14.037226 63.169945 188 72 91
3.283975 14.176878 63.185455 181 66 85
3.284833 14.316822 63.201950 172 59 78
3.285730 14.457011 63.219215 163 52 70
3.286653 14.597389 63.236969 158 49 66
3.287585 14.737885 63.254906 160 53 69
3.288508 14.878417 63.272659 164 60 76
3.289401 15.018892 63.289856 168 66 82
3.290243 15.159204 63.306057 173 72 88
3.291011 15.299237 63.320820 179 78 95
3.291679 15.438869 63.333675 185 84 101
3.292223 15.577971 63.344147 181 81 98
3.292618 15.716405 63.351749 173 74 91
3.292839 15.854034 63.356003 173 74 92
3.292861 15.990717 63.356434 176 77 96
3.292661 16.126310 63.352573 180 81 100
3.292216 16.260677 63.344006 185 85 105
3.291505 16.393688 63.330338 191 90 110
3.290511 16.525215 63.311214 196 93 113
3.289219 16.655148 63.286346 197 93 112
3.287615 16.783384 63.255489 197 91 108
3.285691 16.909842 63.218475 195 88 105
3.283443 17.034458 63.175224 193 86 102
3.280872 17.157194 63.125748 191 84 101
3.277982 17.278038 63.070141 191 84 102
3.274784 17.397009 63.008614 197 93 114
3.271295 17.514151 62.941475 203 101 126
3.267535 17.629545 62.869129 192 91 120
3.263530 17.743296 62.792072 173 73 103
3.259310 17.855536 62.710873 160 62 94
3.254908 17.966425 62.626194 160 63 95
3.250363 18.076145 62.538727 166 70 102
3.245711 18.184898 62.449234 174 79 109
3.240994 18.292891 62.358467 176 82 109
3.236251 18.400349 62.267212 159 65 89
3.231522 18.507494 62.176231 142 48 69
3.226847 18.614553 62.086273 139 45 63
3.222262 18.721752 61.998062 142 49 64
3.217804 18.829313 61.912289 145 52 67
3.453557 0.699187 63.802036 173 108 121
3.449656 0.835778 63.729961 176 112 122
3.446186 0.972179 63.665859 180 116 124
3.443141 1.108441 63.609608 183 120 128
3.440512 1.244611 63.561050 187 124 133
3.438290 1.380735 63.519985 191 128 138
3.436459 1.516855 63.486172 195 130 141
3.435006 1.653010 63.459324 197 131 143
3.433913 1.789237 63.439137 199 131 144
3.433162 1.925570 63.425255 198 129 145
3.432732 2.062035 63.417309 199 128 145
3.432600 2.198656 63.414864 201 129 146
3.432741 2.335454 63.417480 203 131 146
3.433129 2.472440 63.424652 206 132 147
3.433735 2.609622 63.435841 208 133 147
3.434527 2.747002 63.450478 208 133 145
3.435473 2.884574 63.467949 207 132 143
3.436538 3.022326 63.487614 206 131 141
3.437685 3.160239 63.508827 205 130 140
3.438881 3.298289 63.530903 202 130 141
3.440087 3.436446 63.553192 201 131 142
3.441270 3.574674 63.575050 201 133 143
3.442397 3.712936 63.595867 201 136 146
3.443437 3.851190 63.615082 203 139 149
3.444363 3.989395 63.632191 203 142 152
3.445153 4.127511 63.646782 207 146 157
3.445788 4.265498 63.658508 216 155 167
3.446254 4.403319 63.667110 223 164 176
3.446542 4.540944 63.672440 222 163 176
3.446650 4.678347 63.674431 218 158 172
3.446577 4.815506 63.673096 218 156 170
3.446330 4.952409 63.668530 225 160 174
3.445917 5.089047 63.660900 235 167 181
3.445351 5.225419 63.650433 241 171 185
3.444645 5.361530 63.637398 239 167 182
3.443817 5.497388 63.622097 235 158 176
3.442884 5.633010 63.604866 231 152 171
3.441865 5.768413 63.586040 231 149 171
3.440779 5.903620 63.565979 230 146 169
3.439645 6.038655 63.545025 228 143 167
3.438481 6.173547 63.523518 226 142 165
3.437304 6.308322 63.501778 222 139 162
3.436131 6.443012 63.480114 219 137 158
3.434978 6.577646 63.458817 220 140 158
3.433859 6.712254 63.438129 223 143 158
3.432785 6.846863 63.418293 218 139 150
3.431767 6.981500 63.399483 212 134 142
3.430813 7.116189 63.381863 218 141 146
3.429930 7.250952 63.365540 234 156 162
3.429120 7.385802 63.350574 246 167 175
3.428384 7.520751 63.336987 246 166 176
3.427722 7.655806 63.324757 236 155 167
3.427129 7.790963 63.313793 225 144 157
3.426598 7.926219 63.303993 220 140 152
3.426122 8.061562 63.295200 217 139 150
3.425691 8.196972 63.287228 217 141 151
3.425293 8.332431 63.279884 223 148 159
3.424918 8.467914 63.272957 226 153 166
3.424554 8.603395 63.266235 227 155 169
3.424191 8.738849 63.259525 225 151 169
3.423819 8.874250 63.252651 219 147 166
3.423430 9.009579 63.245468 218 145 167
3.423019 9.144815 63.237865 223 150 172
3.422581 9.279948 63.229778 224 152 172
3.422115 9.414968 63.221172 223 152 170
3.421622 9.549875 63.212063 228 157 173
3.421104 9.684672 63.202488 235 164 178
3.420564 9.819366 63.192516 236 165 177
3.420008 9.953970 63.182247 236 164 176
3.419441 10.088498 63.171780 234 162 175
3.418870 10.222968 63.161232 222 149 166
3.418302 10.357398 63.150719 209 134 153
3.417740 10.491804 63.140335 204 128 149
3.417191 10.626207 63.130196 213 135 158
3.416658 10.760618 63.120361 227 148 171
3.416147 10.895053 63.110912 233 150 174
3.415658 11.029521 63.101887 227 139 163
3.415196 11.164035 63.093338 221 128 151
3.414760 11.298602 63.085297 219 123 145
3.414354 11.433232 63.077789 220 122 143
3.413978 11.567933 63.070843 223 122 144
3.413634 11.702714 63.064491 221 117 140
3.413325 11.837586 63.058773 211 105 129
3.413052 11.972563 63.053734 199 92 116
3.412819 12.107660 63.049435 190 81 104
3.412630 12.242896 63.045948 179 70 92
3.412489 12.378290 63.043343 173 63 85
3.412401 12.513868 63.041718 174 64 84
3.412372 12.649654 63.041168 175 66 85
3.412405 12.785675 63.041782 178 68 88
3.412507 12.921958 63.043671 184 73 94
3.412683 13.058531 63.046917 192 81 100
3.412936 13.195418 63.051594 199 87 106
3.413270 13.332641 63.057766 202 90 108
3.413687 13.470218 63.065472 202 89 107
3.414187 13.608160 63.074711 202 86 106
3.414770 13.746472 63.085472 200 84 103
3.415431 13.885151 63.097687 196 80 99
3.416165 14.024183 63.111256 192 75 94
3.416965 14.163547 63.126034 185 69 89
3.417820 14.303202 63.141823 177 63 81
3.418717 14.443103 63.158394 168 55 73
3.419641 14.583192 63.175465 161 50 66
3.420574 14.723393 63.192703 159 50 65
3.421497 14.863626 63.209759 162 56 71
3.422389 15.003793 63.226227 167 64 78
3.423226 15.143790 63.241688 173 70 85
3.423984 15.283502 63.255695 179 77 92
3.424638 15.422806 63.267780 185 83 99
3.425163 15.561573 63.277473 181 79 95
3.425532 15.699670 63.284294 172 72 88
3.425720 15.836962 63.287777 170 70 87
3.425703 15.973309 63.287457 173 73 91
3.425456 16.108572 63.282890 177 77 95
3.424956 16.242619 63.273663 182 82 101
3.424184 16.375320 63.259384 189 87 106
3.423119 16.506556 63.239723 194 91 110
3.421748 16.636209 63.214386 196 92 110
3.420056 16.764189 63.183140 196 91 108
3.418036 16.890406 63.145813 195 88 105
3.415682 17.014801 63.102322 193 86 103
3.412994 17.137331 63.052670 192 85 103
3.409978 17.257988 62.996948 190 83 103
3.406644 17.376781 62.935352 189 82 106
3.403008 17.493757 62.868183 187 83 109
3.399092 17.608992 62.795834 181 79 107
3.394921 17.722586 62.718781 173 72 101
3.390526 17.834667 62.637585 166 67 96
3.385942 17.945396 62.552895 163 65 96
3.381206 18.054951 62.465397 163 67 97
3.376358 18.163523 62.375832 166 70 99
3.371438 18.271326 62.284954 166 71 97
3.366490 18.378574 62.193531 158 64 87
3.361552 18.485493 62.102322 149 54 75
3.356667 18.592302 62.012058 144 51 69
3.351871 18.699224 61.923458 145 52 68
3.347202 18.806479 61.837204 147 55 70
3.594074 0.562118 63.855015 170 107 118
3.589571 0.698891 63.775009 173 110 120
3.585519 0.835424 63.703018 176 114 122
3.581914 0.971768 63.638958 179 118 125
3.578748 1.107973 63.582714 183 122 130
3.576012 1.244084 63.534103 187 126 135
3.573695 1.380147 63.492935 191 128 139
3.571782 1.516204 63.458958 194 130 142
3.570259 1.652295 63.431885 197 131 145
3.569105 1.788455 63.411396 198 130 146
3.568304 1.924717 63.397163 198 129 146
3.567833 2.061107 63.388790 198 128 146
3.567669 2.197651 63.385868 200 130 147
3.567785 2.334366 63.387943 203 131 148
3.568156 2.471266 63.394527 206 133 148
3.568751 2.608357 63.405090 208 133 147
3.569537 2.745642 63.419060 208 133 145
3.570481 2.883115 63.435841 208 132 143
3.571549 3.020764 63.454803 207 131 142
3.572702 3.158571 63.475300 206 130 141
3.573905 3.296512 63.496670 203 130 139
3.575120 3.434557 63.518265 201 130 139
3.576312 3.572672 63.539440 201 132 142
3.577447 3.710819 63.559608 202 135 144
3.578494 3.848958 63.578209 202 138 147
3.579425 3.987048 63.594749 202 140 150
3.580218 4.125050 63.608826 206 145 155
3.580852 4.262924 63.620094 215 156 166
3.581314 4.400635 63.628304 221 163 175
3.581595 4.538153 63.633305 215 157 169
3.581693 4.675452 63.635033 204 146 159
3.581608 4.812513 63.633518 208 149 161
3.581344 4.949322 63.628841 225 163 175
3.580913 5.085871 63.621174 237 173 185
3.580325 5.222160 63.610737 243 175 187
3.579597 5.358193 63.597797 244 172 186
3.578744 5.493979 63.582642 241 167 182
3.577785 5.629533 63.565605 239 162 178
3.576738 5.764872 63.547009 237 156 175
3.575623 5.900017 63.527184 234 151 171
3.574457 6.034992 63.506470 231 147 169
3.573258 6.169821 63.485184 228 144 167
3.572045 6.304533 63.463627 224 139 162
3.570833 6.439153 63.442089 219 135 157
3.569637 6.573710 63.420837 222 140 157
3.568470 6.708231 63.400116 227 147 159
3.567346 6.842742 63.380127 223 144 151
3.566272 6.977270 63.361065 217 138 142
3.565259 7.111834 63.343067 221 143 145
3.564313 7.246455 63.326244 237 162 165
3.563436 7.381149 63.310669 249 176 181
3.562631 7.515928 63.296368 245 169 176
3.561897 7.650796 63.283321 231 150 160
3.561230 7.785757 63.271481 218 137 149
3.560626 7.920804 63.260738 217 136 148
3.560076 8.055928 63.250973 218 138 150
3.559573 8.191118 63.242035 218 140 152
3.559106 8.326355 63.233742 220 143 155
3.558666 8.461618 63.225918 220 145 158
3.558241 8.596887 63.218372 221 147 162
3.557822 8.732136 63.210934 223 148 166
3.557401 8.867348 63.203445 221 146 166
3.556969 9.002501 63.195778 219 144 166
3.556522 9.137580 63.187836 223 148 171
3.556056 9.272576 63.179554 225 151 173
3.555569 9.407482 63.170906 223 150 169
3.555063 9.542297 63.161900 224 152 169
3.554537 9.677023 63.152569 229 157 172
3.553997 9.811666 63.142967 233 161 174
3.553446 9.946240 63.133183 235 163 176
3.552890 10.080755 63.123299 231 159 173
3.552333 10.215227 63.113407 218 146 162
3.551781 10.349669 63.103596 208 134 152
3.551238 10.484096 63.093945 205 130 150
3.550708 10.618520 63.084526 213 137 159
3.550194 10.752952 63.075394 228 150 173
3.549698 10.887400 63.066582 235 153 177
3.549222 11.021873 63.058128 228 142 165
3.548767 11.156375 63.050049 220 130 152
3.548334 11.290913 63.042358 217 124 146
3.547924 11.425489 63.035072 217 121 143
3.547538 11.560113 63.028206 218 117 141
3.547177 11.694790 63.021793 215 112 137
3.546843 11.829532 63.015865 209 104 130
3.546540 11.964350 63.010483 203 95 121
3.546271 12.099262 63.005707 196 87 112
3.546042 12.234289 63.001629 189 78 103
3.545856 12.369453 62.998337 184 71 95
3.545722 12.504781 62.995941 182 70 92
3.545644 12.640302 62.994556 181 69 90
3.545630 12.776046 62.994308 181 70 90
3.545686 12.912045 62.995308 186 74 95
3.545819 13.048330 62.997665 193 82 102
3.546033 13.184928 63.001469 199 87 108
3.546333 13.321865 63.006798 202 90 110
3.546721 13.459158 63.013691 202 89 109
3.547198 13.596823 63.022163 202 87 107
3.547762 13.734862 63.032192 201 84 105
3.548411 13.873276 63.043720 198 80 101
3.549137 14.012045 63.056629 194 76 96
3.549933 14.151146 63.070770 188 71 91
3.550787 14.290542 63.085938 181 65 84
3.551685 14.430181 63.101883 173 59 77
3.552609 14.570001 63.118317 166 53 70
3.553543 14.709928 63.134907 161 51 66
3.554465 14.849874 63.151279 162 54 69
3.555351 14.989746 63.167034 167 60 74
3.556180 15.129436 63.181744 171 65 80
3.556924 15.268828 63.194965 176 71 86
3.557557 15.407801 63.206226 179 75 90
3.558055 15.546227 63.215069 176 73 88
3.558391 15.683976 63.221031 170 68 82
3.558538 15.820913 63.223644 168 67 82
3.558472 15.956905 63.222469 171 69 86
3.558167 16.091816 63.217064 175 73 90
3.557603 16.225517 63.207039 180 78 96
3.556758 16.357883 63.192020 186 83 101
3.555613 16.488792 63.171677 191 88 105
3.554152 16.618141 63.145729 194 89 107
3.552364 16.745831 63.113949 194 87 104
3.550237 16.871778 63.076172 191 84 101
3.547769 16.995922 63.032310 190 82 101
3.544957 17.118223 62.982365 191 83 103
3.541809 17.238668 62.926426 188 81 103
3.538333 17.357267 62.864677 184 77 101
3.534547 17.474062 62.797401 181 76 102
3.530471 17.589125 62.724983 178 75 101
3.526132 17.702555 62.647896 174 73 100
3.521561 17.814480 62.566681 169 70 97
3.516793 17.925051 62.481976 166 67 94
3.511867 18.034443 62.394451 163 66 93
3.506823 18.142851 62.304844 164 67 93
3.501704 18.250479 62.213890 164 68 92
3.496552 18.357542 62.122356 161 66 88
3.491409 18.464258 62.030979 156 62 82
3.486316 18.570847 61.940495 151 58 77
3.481312 18.677525 61.851597 149 57 74
3.476436 18.784506 61.764954 149 58 73
3.471722 18.891998 61.681206 151 61 75
3.730286 0.561901 63.830410 169 108 117
3.725619 0.698623 63.750538 173 112 120
3.721416 0.835105 63.678635 176 116 123
3.717675 0.971397 63.614613 179 119 126
3.714387 1.107548 63.558350 183 123 131
3.711542 1.243605 63.509659 186 126 136
3.709127 1.379612 63.468338 191 129 141
3.707128 1.515611 63.434132 194 130 144
3.705528 1.651641 63.406754 195 130 145
3.704308 1.787736 63.385891 196 129 146
3.703449 1.923928 63.371189 197 129 147
3.702929 2.060246 63.362293 198 129 148
3.702724 2.196712 63.358772 200 130 149
3.702806 2.333344 63.360188 202 132 150
3.703149 2.470155 63.366051 204 133 149
3.703722 2.607155 63.375854 206 134 148
3.704492 2.744342 63.389027 208 133 146
3.705425 2.881713 63.404991 208 131 144
3.706484 3.019256 63.423119 208 131 143
3.707633 3.156953 63.442776 208 132 143
3.708833 3.294780 63.463310 205 130 141
3.710047 3.432709 63.484089 203 130 140
3.711239 3.570706 63.504482 204 133 142
3.712374 3.708734 63.523899 203 135 144
3.713419 3.846753 63.541794 201 136 145
3.714348 3.984724 63.557686 201 138 148
3.715136 4.122608 63.571171 203 143 152
3.715765 4.260366 63.581921 211 154 162
3.716218 4.397964 63.589684 221 165 174
3.716489 4.535372 63.594315 220 164 173
3.716573 4.672566 63.595753 209 153 164
3.716472 4.809526 63.594025 213 156 166
3.716192 4.946240 63.589226 229 169 179
3.715741 5.082701 63.581512 238 176 186
3.715133 5.218907 63.571110 242 176 187
3.714382 5.354863 63.558266 245 176 187
3.713506 5.490578 63.543278 244 172 185
3.712523 5.626065 63.526447 242 167 181
3.711450 5.761342 63.508091 239 161 176
3.710307 5.896428 63.488541 234 154 171
3.709112 6.031345 63.468094 233 150 169
3.707883 6.166117 63.447063 234 151 171
3.706636 6.300767 63.425728 229 147 167
3.705388 6.435323 63.404354 220 137 155
3.704151 6.569809 63.383205 217 135 151
3.702941 6.704250 63.362495 226 146 157
3.701768 6.838672 63.342422 230 150 157
3.700643 6.973096 63.323166 225 146 149
3.699573 7.107544 63.304863 225 150 152
3.698566 7.242036 63.287628 241 176 178
3.697625 7.376585 63.271526 250 190 193
3.696753 7.511206 63.256599 239 170 176
3.695949 7.645903 63.242844 224 145 154
3.695211 7.780679 63.230221 217 136 148
3.694535 7.915534 63.218655 219 139 152
3.693915 8.050461 63.208046 220 140 154
3.693343 8.185449 63.198257 220 141 155
3.692811 8.320483 63.189148 220 142 156
3.692308 8.455547 63.180550 217 141 156
3.691827 8.590622 63.172310 218 142 158
3.691357 8.725690 63.164268 224 147 166
3.690891 8.860732 63.156296 228 151 172
3.690421 8.995731 63.148262 225 148 170
3.689944 9.130676 63.140091 224 148 171
3.689455 9.265556 63.131721 227 152 173
3.688952 9.400367 63.123123 227 153 172
3.688437 9.535106 63.114300 226 153 169
3.687910 9.669778 63.105286 227 155 169
3.687374 9.804386 63.096115 229 158 171
3.686833 9.938942 63.086861 231 160 172
3.686291 10.073455 63.077583 227 155 168
3.685752 10.207936 63.068359 219 146 161
3.685220 10.342397 63.059254 212 138 155
3.684698 10.476848 63.050323 209 133 152
3.684188 10.611296 63.041607 212 136 156
3.683694 10.745749 63.033146 223 145 167
3.683215 10.880213 63.024948 231 150 172
3.682752 11.014688 63.017025 228 143 165
3.682305 11.149179 63.009380 221 134 155
3.681874 11.283686 63.002007 219 127 149
3.681459 11.418211 62.994911 217 122 145
3.681062 11.552758 62.988110 216 117 141
3.680683 11.687336 62.981621 214 112 138
3.680324 11.821952 62.975491 210 105 132
3.679990 11.956619 62.969769 205 98 125
3.679685 12.091357 62.964542 200 91 118
3.679414 12.226188 62.959904 195 84 110
3.679184 12.361135 62.955971 191 78 103
3.679003 12.496231 62.952869 188 74 98
3.678877 12.631507 62.950729 185 72 94
3.678817 12.766999 62.949699 184 71 93
3.678829 12.902740 62.949909 188 74 96
3.678921 13.038764 62.951481 194 81 103
3.679099 13.175103 62.954525 199 87 108
3.679368 13.311784 62.959118 202 89 110
3.679730 13.448827 62.965321 202 88 110
3.680187 13.586246 62.973141 202 87 108
3.680737 13.724048 62.982559 201 83 106
3.681377 13.862225 62.993500 198 80 102
3.682099 14.000762 63.005856 195 76 98
3.682894 14.139633 63.019455 191 72 93
3.683748 14.278794 63.034081 185 68 87
3.684648 14.418196 63.049477 178 62 80
3.685575 14.557771 63.065338 170 56 73
3.686509 14.697441 63.081318 165 52 68
3.687428 14.837120 63.097038 164 53 68
3.688307 14.976707 63.112091 167 57 72
3.689123 15.116098 63.126045 170 61 76
3.689848 15.255174 63.138451 173 65 80
3.690456 15.393815 63.148853 175 68 83
3.690920 15.531896 63.156796 172 68 82
3.691213 15.669285 63.161812 168 64 78
3.691310 15.805857 63.163475 166 62 77
3.691185 15.941477 63.161339 168 65 81
3.690814 16.076014 63.154987 171 69 85
3.690175 16.209345 63.144043 176 72 90
3.689245 16.341347 63.128143 182 77 95
3.688009 16.471907 63.106979 187 82 100
3.686449 16.600918 63.080284 190 84 102
3.684552 16.728287 63.047829 190 83 101
3.682310 16.853935 63.009468 188 80 99
3.679718 16.977802 62.965111 188 80 100
3.676775 17.099846 62.914753 188 81 100
3.673486 17.220055 62.858479 187 80 101
3.669863 17.338436 62.796474 184 78 100
3.665920 17.455032 62.729012 181 77 100
3.661680 17.569910 62.656460 179 75 99
3.657170 17.683168 62.579285 176 74 98
3.652421 17.794930 62.498016 173 72 95
3.647468 17.905342 62.413277 169 70 93
3.642352 18.014580 62.325726 167 69 91
3.637114 18.122831 62.236092 169 71 93
3.631796 18.230299 62.145100 170 73 94
3.626442 18.337194 62.053497 168 73 92
3.621096 18.443729 61.962017 165 70 89
3.615799 18.550125 61.871380 160 67 84
3.610592 18.656588 61.782265 155 64 80
3.605511 18.763330 61.695332 154 64 78
3.600595 18.870558 61.611202 157 68 81
3.866536 0.561706 63.808174 170 109 116
3.861704 0.698381 63.728439 174 114 121
3.857352 0.834816 63.656616 176 116 123
3.853474 0.971061 63.592621 178 119 127
3.850062 1.107164 63.536308 182 122 132
3.847104 1.243171 63.487492 185 126 137
3.844587 1.379126 63.445957 190 129 142
3.842496 1.515069 63.411461 193 130 145
3.840814 1.651040 63.383698 194 129 146
3.839521 1.787072 63.362358 195 129 147
3.838597 1.923197 63.347103 197 130 148
3.838018 2.059442 63.337563 199 131 150
3.837762 2.195829 63.333328 201 132 151
3.837800 2.332378 63.333958 202 133 152
3.838105 2.469100 63.338985 204 134 151
3.838645 2.606004 63.347897 206 135 150
3.839387 2.743091 63.360142 208 134 148
3.840297 2.880357 63.375153 209 133 146
3.841336 3.017789 63.392315 209 133 145
3.842469 3.155372 63.411011 209 132 144
3.843656 3.293082 63.430595 204 128 140
3.844858 3.430889 63.450439 203 128 140
3.846040 3.568764 63.469940 207 134 145
3.847165 3.706667 63.488506 205 135 145
3.848201 3.844563 63.505604 199 133 142
3.849120 3.982409 63.520763 199 136 145
3.849897 4.120171 63.533585 201 142 149
3.850513 4.257808 63.543751 208 151 158
3.850953 4.395289 63.551010 223 168 175
3.851208 4.532585 63.555222 231 177 184
3.851275 4.669670 63.556335 226 172 179
3.851156 4.806528 63.554371 224 169 177
3.850857 4.943144 63.549423 231 173 182
3.850385 5.079514 63.541649 235 175 185
3.849756 5.215636 63.531261 238 176 186
3.848984 5.351514 63.518517 243 177 187
3.848085 5.487157 63.503689 245 176 187
3.847079 5.622578 63.487076 243 171 183
3.845982 5.757793 63.468979 240 165 178
3.844814 5.892821 63.449707 236 159 173
3.843592 6.027682 63.429546 238 158 173
3.842335 6.162397 63.408794 241 161 177
3.841057 6.296990 63.387707 236 155 173
3.839774 6.431485 63.366539 219 137 153
3.838501 6.565904 63.345524 212 130 143
3.837250 6.700270 63.324875 224 143 153
3.836032 6.834607 63.304775 235 155 162
3.834857 6.968936 63.285393 229 150 154
3.833734 7.103277 63.266853 226 155 156
3.832669 7.237648 63.249283 241 190 192
3.831667 7.372065 63.232746 245 203 206
3.830731 7.506538 63.217297 227 165 172
3.829861 7.641078 63.202942 213 138 147
3.829056 7.775688 63.189655 220 142 154
3.828313 7.910368 63.177395 226 148 162
3.827626 8.045115 63.166065 221 143 158
3.826990 8.179919 63.155567 216 139 153
3.826397 8.314773 63.145779 216 140 154
3.825839 8.449659 63.136559 216 140 155
3.825305 8.584564 63.127762 216 140 157
3.824790 8.719473 63.119263 224 148 167
3.824286 8.854368 63.110935 234 159 179
3.823785 8.989237 63.102676 233 157 178
3.823284 9.124068 63.094398 228 152 172
3.822778 9.258853 63.086048 228 154 172
3.822266 9.393588 63.077606 228 154 172
3.821748 9.528272 63.069061 226 154 169
3.821225 9.662905 63.060429 227 156 169
3.820699 9.797492 63.051746 230 159 170
3.820173 9.932042 63.043056 229 158 168
3.819649 10.066562 63.034420 223 152 163
3.819132 10.201060 63.025879 218 146 158
3.818622 10.335545 63.017475 214 140 155
3.818124 10.470022 63.009251 211 136 152
3.817637 10.604497 63.001221 211 135 153
3.817163 10.738973 62.993393 216 139 158
3.816701 10.873448 62.985767 222 143 162
3.816251 11.007926 62.978340 224 142 162
3.815811 11.142403 62.971085 222 137 157
3.815382 11.276876 62.963993 219 130 151
3.814961 11.411349 62.957058 218 126 147
3.814551 11.545820 62.950283 220 123 146
3.814152 11.680299 62.943703 219 118 144
3.813767 11.814793 62.937351 215 110 138
3.813401 11.949316 62.931301 208 100 128
3.813058 12.083887 62.925640 202 92 120
3.812745 12.218531 62.920475 197 86 113
3.812470 12.353276 62.915947 194 80 107
3.812243 12.488157 62.912197 190 76 101
3.812072 12.623209 62.909378 187 73 96
3.811967 12.758470 62.907642 187 72 95
3.811938 12.893977 62.907154 190 76 98
3.811991 13.029767 62.908043 195 81 104
3.812136 13.165875 62.910431 199 86 109
3.812377 13.302330 62.914410 201 87 110
3.812718 13.439153 62.920029 202 87 110
3.813159 13.576358 62.927311 202 87 109
3.813699 13.713951 62.936226 201 84 107
3.814333 13.851924 62.946693 199 80 104
3.815054 13.990260 62.958595 196 78 100
3.815851 14.128927 62.971741 193 75 96
3.816710 14.267884 62.985916 188 71 90
3.817614 14.407073 63.000835 182 65 84
3.818544 14.546424 63.016186 174 58 76
3.819479 14.685859 63.031605 169 53 70
3.820394 14.825285 63.046707 167 53 69
3.821265 14.964602 63.061077 168 55 71
3.822064 15.103702 63.074276 170 58 74
3.822766 15.242467 63.085861 172 62 77
3.823343 15.380778 63.095375 173 64 79
3.823766 15.518509 63.102360 171 63 78
3.824010 15.655535 63.106388 168 62 76
3.824048 15.791728 63.107014 166 60 75
3.823855 15.926961 63.103825 166 61 77
3.823406 16.061108 63.096424 168 64 81
3.822680 16.194046 63.084442 172 67 84
3.821656 16.325661 63.067543 177 71 87
3.820317 16.455841 63.045433 181 75 91
3.818645 16.584488 63.017849 184 78 92
3.816630 16.711510 62.984596 186 79 94
3.814262 16.836828 62.945511 187 79 94
3.811535 16.960386 62.900517 187 79 95
3.808451 17.082146 62.849621 187 79 95
3.805015 17.202091 62.792912 187 80 96
3.801235 17.320232 62.730545 184 78 97
3.797131 17.436607 62.662800 182 77 97
3.792722 17.551285 62.590046 180 75 98
3.788036 17.664358 62.512722 178 74 97
3.783106 17.775948 62.431351 176 74 96
3.777967 17.886200 62.346546 174 73 95
3.772660 17.995283 62.258965 173 73 94
3.767226 18.103384 62.169304 173 75 95
3.761711 18.210701 62.078293 174 78 96
3.756159 18.317444 61.986660 173 79 96
3.750612 18.423820 61.895126 171 78 95
3.745115 18.530045 61.804405 168 77 92
3.739707 18.636322 61.715157 164 75 88
3.734427 18.742859 61.628021 161 73 86
3.729311 18.849854 61.543606 164 76 87
3.724395 18.957499 61.462475 172 85 95
4.002822 0.561529 63.788055 170 109 115
3.997827 0.698162 63.708450 175 114 121
3.993324 0.834555 63.636696 176 116 123
3.989308 0.970757 63.572697 177 117 127
3.985768 1.106815 63.516289 180 120 131
3.982694 1.242775 63.467293 184 123 136
3.980070 1.378681 63.425488 188 127 141
3.977882 1.514571 63.390614 192 129 144
3.976110 1.650485 63.362381 194 130 146
3.974736 1.786455 63.340477 196 130 148
3.973737 1.922513 63.324562 198 131 150
3.973091 2.058684 63.314270 200 133 152
3.972773 2.194993 63.309200 202 134 153
3.972756 2.331456 63.308929 202 135 153
3.973011 2.468087 63.312984 202 134 151
3.973506 2.604893 63.320881 205 136 151
3.974209 2.741876 63.332077 211 139 153
3.975083 2.879032 63.346008 214 139 153
3.976092 3.016350 63.362080 214 137 151
3.977197 3.153814 63.379692 209 132 146
3.978358 3.291400 63.398201 201 125 138
3.979538 3.429082 63.417011 202 127 140
3.980700 3.566828 63.435513 209 136 148
3.981805 3.704602 63.453129 206 136 147
3.982822 3.842367 63.469345 198 131 141
3.983722 3.980085 63.483688 198 135 143
3.984481 4.117718 63.495770 201 142 149
3.985078 4.255231 63.505280 208 151 157
3.985498 4.392590 63.511978 222 167 173
3.985733 4.529768 63.515724 232 178 184
3.985779 4.666740 63.516464 232 178 184
3.985639 4.803492 63.514229 229 175 183
3.985317 4.940008 63.509098 232 175 184
3.984824 5.076283 63.501240 233 174 183
3.984172 5.212318 63.490852 234 174 183
3.983378 5.348116 63.478191 240 178 187
3.982456 5.483685 63.463509 247 182 192
3.981427 5.619038 63.447102 246 178 189
3.980307 5.754190 63.429260 242 170 181
3.979116 5.889159 63.410275 239 165 177
3.977869 6.023962 63.390411 242 166 179
3.976585 6.158622 63.369946 245 168 181
3.975279 6.293158 63.349125 236 157 171
3.973965 6.427592 63.328186 216 137 150
3.972656 6.561945 63.307343 206 128 138
3.971367 6.696241 63.286797 219 140 149
3.970107 6.830498 63.266716 236 158 164
3.968886 6.964737 63.247261 232 155 159
3.967713 7.098978 63.228565 225 153 157
3.966594 7.233237 63.210735 239 185 187
3.965535 7.367531 63.193859 241 195 199
3.964539 7.501871 63.177986 219 157 164
3.963608 7.636267 63.163147 209 135 144
3.962741 7.770725 63.149330 223 147 160
3.961936 7.905247 63.136497 230 154 169
3.961189 8.039833 63.124596 220 145 160
3.960495 8.174476 63.113537 212 137 152
3.959847 8.309169 63.103218 214 140 155
3.959239 8.443900 63.093525 215 141 156
3.958663 8.578659 63.084335 213 138 154
3.958110 8.713430 63.075523 221 148 165
3.957574 8.848204 63.066994 238 169 187
3.957050 8.982965 63.058640 241 171 189
3.956532 9.117704 63.050388 231 159 177
3.956018 9.252417 63.042187 225 154 169
3.955504 9.387094 63.033997 222 151 166
3.954990 9.521739 63.025818 221 152 165
3.954478 9.656350 63.017654 226 157 168
3.953967 9.790930 63.009514 230 161 171
3.953461 9.925486 63.001446 226 157 166
3.952960 10.060021 62.993465 219 149 159
3.952467 10.194543 62.985615 217 146 157
3.951984 10.329056 62.977913 217 145 157
3.951511 10.463562 62.970371 215 141 154
3.951048 10.598063 62.962994 211 136 151
3.950595 10.732558 62.955769 210 134 150
3.950150 10.867045 62.948677 213 136 153
3.949712 11.001521 62.941692 220 139 158
3.949278 11.135979 62.934780 222 138 157
3.948847 11.270417 62.927925 218 131 151
3.948420 11.404834 62.921112 218 127 148
3.947995 11.539228 62.914341 222 126 149
3.947575 11.673607 62.907639 223 122 148
3.947162 11.807981 62.901062 217 111 140
3.946761 11.942362 62.894684 208 99 129
3.946380 12.076774 62.888599 202 91 121
3.946025 12.211242 62.882942 198 86 114
3.945706 12.345798 62.877857 194 81 108
3.945433 12.480478 62.873508 191 77 102
3.945217 12.615322 62.870071 189 74 98
3.945070 12.750372 62.867718 189 74 97
3.945000 12.885668 62.866619 192 77 100
3.945019 13.021250 62.866920 197 82 106
3.945134 13.157154 62.868755 200 86 110
3.945352 13.293409 62.872219 202 88 111
3.945675 13.430040 62.877365 202 88 110
3.946105 13.567061 62.884216 202 87 110
3.946640 13.704475 62.892738 202 84 108
3.947273 13.842273 62.902836 200 81 106
3.947998 13.980435 62.914379 199 79 103
3.948800 14.118928 62.927174 195 76 99
3.949667 14.257706 62.940979 191 73 94
3.950578 14.396705 62.955498 185 68 88
3.951513 14.535855 62.970398 179 62 80
3.952449 14.675073 62.985313 173 56 73
3.953360 14.814263 62.999836 170 53 70
3.954221 14.953323 63.013546 169 54 70
3.955002 15.092143 63.026009 169 56 72
3.955677 15.230605 63.036762 171 60 75
3.956217 15.368587 63.045368 172 62 78
3.956594 15.505970 63.051373 171 62 77
3.956781 15.642626 63.054352 169 61 76
3.956752 15.778434 63.053886 168 60 76
3.956481 15.913267 63.049572 168 59 76
3.955945 16.047007 63.041027 167 60 77
3.955122 16.179535 63.027908 169 63 79
3.953992 16.310740 63.009903 173 66 81
3.952537 16.440517 62.986725 177 70 84
3.950743 16.568771 62.958134 181 73 87
3.948597 16.695415 62.923939 185 76 89
3.946091 16.820375 62.884003 187 79 91
3.943221 16.943598 62.838261 187 80 92
3.939986 17.065044 62.786701 187 80 92
3.936391 17.184700 62.729424 186 79 94
3.932448 17.302576 62.666595 184 77 94
3.928174 17.418709 62.598473 182 76 94
3.923590 17.533165 62.525425 181 75 95
3.918724 17.646038 62.447884 179 74 96
3.913608 17.757442 62.366360 178 74 96
3.908280 17.867525 62.281456 177 75 96
3.902781 17.976452 62.193813 176 76 96
3.897152 18.084402 62.104122 175 77 96
3.891440 18.191576 62.013100 175 79 97
3.885690 18.298178 61.921463 175 82 97
3.879946 18.404409 61.829922 175 83 98
3.874251 18.510485 61.739166 174 84 97
3.868646 18.616602 61.649853 173 85 96
3.863171 18.722963 61.562599 171 84 94
3.857862 18.829760 61.478001 171 84 94
3.852753 18.937178 61.396595 175 89 98
4.144807 0.424482 63.857059 165 102 111
4.139140 0.561367 63.769749 169 107 115
4.133980 0.697962 63.690258 173 111 120
4.129325 0.834317 63.618542 175 113 123
4.125167 0.970479 63.554489 176 115 126
4.121498 1.106495 63.497944 178 118 130
4.118302 1.242411 63.448708 182 121 134
4.115566 1.378269 63.406559 187 125 140
4.113273 1.514108 63.371231 192 129 144
4.111404 1.649965 63.342442 194 130 147
4.109939 1.785874 63.319866 196 131 149
4.108856 1.921864 63.303185 198 133 151
4.108132 2.057961 63.292034 200 134 153
4.107741 2.194189 63.286015 201 136 153
4.107657 2.330564 63.284718 201 135 151
4.107850 2.467101 63.287685 200 134 149
4.108289 2.603806 63.294441 206 138 152
4.108939 2.740681 63.304459 216 146 160
4.109765 2.877722 63.317188 223 151 164
4.110730 3.014920 63.332054 221 146 160
4.111795 3.152260 63.348461 210 135 149
4.112920 3.289717 63.365791 199 124 138
4.114066 3.427267 63.383453 199 125 140
4.115195 3.564879 63.400848 208 136 150
4.116271 3.702518 63.417423 207 136 150
4.117260 3.840146 63.432659 199 132 144
4.118133 3.977729 63.446102 200 136 146
4.118864 4.115228 63.457375 204 144 152
4.119435 4.252610 63.466164 210 153 159
4.119829 4.389841 63.472233 219 163 170
4.120038 4.526896 63.475460 225 171 176
4.120059 4.663751 63.475780 228 174 180
4.119893 4.800390 63.473225 231 177 184
4.119546 4.936801 63.467876 233 177 186
4.119028 5.072979 63.459900 231 173 183
4.118352 5.208922 63.449486 229 170 180
4.117534 5.344635 63.436878 236 177 187
4.116590 5.480127 63.422329 247 188 198
4.115537 5.615408 63.406116 250 187 197
4.114395 5.750494 63.388515 244 177 187
4.113180 5.885400 63.369801 241 171 181
4.111909 6.020144 63.350227 244 172 183
4.110600 6.154745 63.330048 244 170 181
4.109266 6.289222 63.309505 234 157 169
4.107923 6.423595 63.288807 218 141 152
4.106583 6.557884 63.268158 207 131 141
4.105258 6.692109 63.247742 213 137 146
4.103958 6.826289 63.227726 230 155 162
4.102695 6.960443 63.208260 229 155 161
4.101475 7.094589 63.189468 223 151 156
4.100307 7.228744 63.171463 236 169 174
4.099195 7.362923 63.154339 236 172 178
4.098144 7.497141 63.138153 220 152 160
4.097157 7.631406 63.122940 216 144 155
4.096234 7.765728 63.108719 224 151 165
4.095373 7.900110 63.095463 226 152 169
4.094573 8.034552 63.083134 220 146 164
4.093829 8.169052 63.071663 219 147 164
4.093135 8.303607 63.060982 225 154 170
4.092486 8.438206 63.050976 225 153 169
4.091874 8.572841 63.041550 218 145 161
4.091293 8.707500 63.032593 222 153 169
4.090736 8.842174 63.024014 241 178 195
4.090197 8.976850 63.015717 246 184 200
4.089672 9.111520 63.007622 234 167 182
4.089157 9.246179 62.999687 223 153 167
4.088649 9.380820 62.991867 217 148 160
4.088148 9.515443 62.984146 217 149 161
4.087653 9.650046 62.976517 225 157 167
4.087164 9.784632 62.968987 230 162 171
4.086682 9.919204 62.961567 224 156 163
4.086209 10.053762 62.954273 217 149 156
4.085745 10.188313 62.947121 220 151 159
4.085289 10.322856 62.940109 226 156 164
4.084844 10.457392 62.933235 222 150 160
4.084405 10.591918 62.926483 214 141 152
4.083972 10.726429 62.919819 208 134 147
4.083544 10.860923 62.913208 209 134 148
4.083116 10.995390 62.906620 216 138 155
4.082687 11.129826 62.900005 221 140 158
4.082254 11.264222 62.893337 219 133 153
4.081816 11.398578 62.886597 217 126 148
4.081375 11.532892 62.879795 219 123 147
4.080931 11.667171 62.872955 219 118 144
4.080488 11.801423 62.866135 213 108 137
4.080052 11.935667 62.859421 207 98 129
4.079631 12.069923 62.852928 203 91 122
4.079233 12.204224 62.846802 199 86 115
4.078870 12.338600 62.841198 196 81 108
4.078552 12.473093 62.836308 193 78 103
4.078293 12.607746 62.832314 191 76 100
4.078104 12.742603 62.829411 191 76 99
4.077999 12.877707 62.827782 194 79 101
4.077986 13.013103 62.827587 199 84 107
4.078076 13.148827 62.828964 202 88 112
4.078274 13.284910 62.832016 202 89 112
4.078584 13.421375 62.836800 202 88 111
4.079008 13.558238 62.843319 201 87 110
4.079541 13.695499 62.851547 201 85 109
4.080180 13.833150 62.861378 201 83 108
4.080912 13.971165 62.872662 199 81 105
4.081725 14.109509 62.885189 197 78 101
4.082602 14.248129 62.898705 193 75 97
4.083523 14.386963 62.912895 189 72 92
4.084466 14.525933 62.927414 184 66 85
