ply
format ascii 1.0
element vertex 1248
property float x
property float y
property float z
property uchar red
property uchar green
property uchar blue
end_header
0.415862 10.733191 46.935284 160 148 159
0.416495 10.850844 47.006660 167 156 167
0.417120 10.968610 47.077198 157 145 156
0.417732 11.086336 47.146275 139 127 139
0.418325 11.203863 47.213261 134 121 133
0.418895 11.321031 47.277534 157 142 155
0.419435 11.437682 47.338531 188 173 185
0.419942 11.553667 47.395714 185 170 182
0.420411 11.668852 47.448639 157 144 156
0.420839 11.783122 47.496956 139 128 140
0.421224 11.896388 47.540428 136 129 140
0.421565 12.008592 47.578953 153 149 160
0.421863 12.119703 47.612530 180 179 190
0.422118 12.229733 47.641331 194 194 206
0.422334 12.338724 47.665638 188 187 201
0.422513 12.446753 47.685856 177 173 189
0.422660 12.553926 47.702496 179 173 188
0.422781 12.660382 47.716160 202 194 206
0.422882 12.766273 47.727493 230 223 231
0.422967 12.871773 47.737190 241 235 240
0.423045 12.977053 47.745930 233 226 233
0.423120 13.082285 47.754353 217 207 217
0.423197 13.187630 47.763054 204 193 206
0.423281 13.293229 47.772533 199 189 203
0.423375 13.399196 47.783184 179 168 185
0.423482 13.505614 47.795261 142 131 151
0.423603 13.612523 47.808887 121 108 130
0.423737 13.719927 47.824024 132 117 139
0.423883 13.827782 47.840504 150 133 154
0.424038 13.936002 47.857986 154 134 154
0.424198 14.044460 47.876034 158 135 156
0.424358 14.152995 47.894070 164 140 159
0.424511 14.261412 47.911449 158 131 150
0.424653 14.369489 47.927444 156 128 147
0.424776 14.476995 47.941322 166 137 157
0.424874 14.583693 47.952347 172 142 163
0.424940 14.689343 47.959797 158 127 148
0.424969 14.793726 47.963032 133 102 124
0.424955 14.896643 47.961498 121 89 112
0.424895 14.997926 47.954765 123 90 114
0.424787 15.097445 47.942524 123 89 112
0.424628 15.195114 47.924614 123 88 109
0.424419 15.290891 47.901016 135 100 119
0.424161 15.384782 47.871868 160 125 141
0.423856 15.476832 47.837421 175 140 153
0.423507 15.567134 47.798058 154 120 132
0.423118 15.655800 47.754223 108 76 87
0.422695 15.742989 47.706486 88 57 69
0.422243 15.828863 47.655411 91 62 77
0.473839 0.842266 43.013699 85 52 59
0.474087 0.935480 43.036247 86 52 60
0.474321 1.028758 43.057453 87 52 61
0.474538 1.122089 43.077183 88 53 62
0.474738 1.215461 43.095329 88 53 63
0.474920 1.308861 43.111832 89 53 63
0.475083 1.402278 43.126659 89 53 62
0.475228 1.495701 43.139835 88 53 61
0.475356 1.589122 43.151413 87 52 60
0.475467 1.682535 43.161503 87 52 59
0.475563 1.775937 43.170254 88 54 60
0.475647 1.869326 43.177841 89 55 61
0.475720 1.962706 43.184502 88 54 61
0.475786 2.056082 43.190483 87 53 61
0.475848 2.149464 43.196068 85 53 61
0.475908 2.242864 43.201538 84 54 61
0.475970 2.336298 43.207191 84 55 61
0.476038 2.429782 43.213314 83 54 60
0.476113 2.523336 43.220173 81 53 58
0.476200 2.616979 43.228024 80 52 56
0.476299 2.710731 43.237068 79 51 55
0.476414 2.804612 43.247505 80 52 55
0.476546 2.898641 43.259464 80 53 56
0.476696 2.992834 43.273064 81 54 58
0.476865 3.087208 43.288372 81 55 58
0.477053 3.181776 43.305428 81 54 58
0.477260 3.276551 43.324242 81 53 57
0.477486 3.371543 43.344803 80 52 57
0.477732 3.466761 43.367088 80 51 57
0.477996 3.562213 43.391052 79 50 58
0.478278 3.657908 43.416664 80 50 60
0.478578 3.753851 43.443878 82 52 63
0.478895 3.850050 43.472656 85 55 66
0.479229 3.946512 43.502964 87 58 69
0.479579 4.043245 43.534790 86 57 67
0.479946 4.140258 43.568108 84 55 65
0.480330 4.237558 43.602913 83 55 65
0.480729 4.335157 43.639206 83 56 65
0.481146 4.433064 43.676998 83 57 66
0.481579 4.531291 43.716297 83 57 66
0.482028 4.629848 43.757122 84 57 66
0.482495 4.728747 43.799480 86 56 65
0.482979 4.827999 43.843388 88 56 65
0.483480 4.927616 43.888863 91 57 66
0.483998 5.027608 43.935905 90 54 64
0.484533 5.127987 43.984520 88 52 62
0.485086 5.228763 44.034714 89 53 63
0.485656 5.329945 44.086472 89 54 64
0.486244 5.431541 44.139790 89 55 65
0.486848 5.533560 44.194645 89 57 66
0.487469 5.636007 44.251007 90 58 68
0.488106 5.738889 44.308846 90 58 68
0.488759 5.842207 44.368107 90 58 67
0.489427 5.945963 44.428726 90 57 66
0.490109 6.050153 44.490620 91 58 66
0.490803 6.154772 44.553692 91 59 66
0.491510 6.259811 44.617813 91 60 67
0.492226 6.365256 44.682842 91 61 67
0.492950 6.471086 44.748600 91 61 68
0.493681 6.577277 44.814884 91 60 69
0.494414 6.683800 44.881474 92 60 70
0.495148 6.790617 44.948120 93 59 71
0.495880 6.897690 45.014549 93 59 72
0.496607 7.004972 45.080490 94 59 72
0.497324 7.112417 45.145657 95 60 72
0.498031 7.219975 45.209766 96 60 74
0.498722 7.327593 45.272549 97 60 75
0.499397 7.435225 45.333763 98 61 75
0.500051 7.542827 45.393204 100 62 77
0.500685 7.650358 45.450706 102 64 79
0.501296 7.757788 45.506161 101 65 78
0.501884 7.865096 45.559517 99 63 75
0.502448 7.972269 45.610794 97 62 73
0.502991 8.079310 45.660072 95 63 72
0.503514 8.186232 45.707497 94 63 72
0.504018 8.293062 45.753292 95 64 73
0.504508 8.399839 45.797722 97 66 75
0.504986 8.506617 45.841114 98 66 76
0.505456 8.613453 45.883827 97 65 76
0.505924 8.720419 45.926258 96 64 76
0.506392 8.827592 45.968807 96 63 77
0.506867 8.935052 46.011894 95 63 78
0.507352 9.042882 46.055916 96 63 80
0.507851 9.151163 46.101261 98 64 82
0.508369 9.259974 46.148270 101 65 84
0.508909 9.369389 46.197247 104 66 86
0.509473 9.479467 46.248444 108 69 87
0.510063 9.590267 46.302052 111 72 87
0.510682 9.701828 46.358192 109 72 85
0.511329 9.814179 46.416927 109 73 84
0.512004 9.927331 46.478226 109 76 84
0.512707 10.041282 46.542000 108 78 86
0.513434 10.156008 46.608070 107 80 88
0.514185 10.271469 46.676189 104 80 89
0.514954 10.387607 46.746025 105 84 93
0.515738 10.504339 46.817181 113 95 105
0.516531 10.621573 46.889191 129 113 124
0.517328 10.739192 46.961525 148 134 145
0.518122 10.857067 47.033619 159 147 157
0.518907 10.975054 47.104858 157 145 155
0.519675 11.092999 47.174610 143 132 141
0.520421 11.210743 47.242252 140 128 137
0.521136 11.328123 47.307156 163 150 158
0.521814 11.444981 47.368740 187 174 180
0.522450 11.561167 47.426479 181 167 173
0.523039 11.676546 47.479923 161 147 152
0.523576 11.791003 47.528725 142 131 134
0.524060 11.904449 47.572647 126 117 119
0.524489 12.016827 47.611580 141 134 136
0.524863 12.128103 47.645527 182 179 180
0.525184 12.238291 47.674667 199 196 200
0.525455 12.347433 47.699280 177 173 180
0.525681 12.455606 47.719776 156 149 160
0.525867 12.562919 47.736664 164 154 167
0.526020 12.669505 47.750546 185 173 185
0.526147 12.775522 47.762070 202 190 200
0.526255 12.881139 47.771923 219 209 216
0.526353 12.986527 47.780788 230 222 228
0.526447 13.091861 47.789310 214 204 212
0.526543 13.197299 47.798077 184 172 185
0.526648 13.302981 47.807583 166 153 169
0.526765 13.409019 47.818214 149 136 155
0.526898 13.515494 47.830227 128 114 134
0.527047 13.622446 47.843735 117 103 122
0.527211 13.729874 47.858700 128 112 131
0.527390 13.837733 47.874931 144 125 145
0.527579 13.945932 47.892094 148 127 145
0.527773 14.054345 47.909729 148 122 141
0.527967 14.162804 47.927261 148 121 138
0.528151 14.271109 47.944027 144 115 132
0.528320 14.379038 47.959297 142 112 128
0.528463 14.486356 47.972321 147 115 132
0.528573 14.592817 47.982349 148 115 134
0.528643 14.698185 47.988663 139 105 125
0.528665 14.802236 47.990620 125 90 110
0.528632 14.904767 47.987656 118 82 103
0.528540 15.005613 47.979347 120 83 105
0.528387 15.104645 47.965385 123 84 105
0.528169 15.201773 47.945614 125 84 104
0.527887 15.296960 47.920029 132 91 108
0.527543 15.390213 47.888767 148 107 122
0.527139 15.481583 47.852104 157 117 129
0.526680 15.571161 47.810421 141 103 113
0.526170 15.659067 47.764191 105 70 79
0.525617 15.745461 47.713978 90 57 66
0.525027 15.830513 47.660378 92 62 74
0.566567 0.842273 43.014053 84 52 59
0.566853 0.935470 43.035824 85 52 59
0.567122 1.028728 43.056221 86 52 60
0.567371 1.122035 43.075111 87 52 61
0.567599 1.215379 43.092415 88 53 62
0.567805 1.308746 43.108059 89 54 62
0.567989 1.402127 43.122040 89 54 61
0.568151 1.495512 43.134380 88 53 60
0.568293 1.588891 43.145142 88 53 59
0.568416 1.682260 43.154438 87 53 59
0.568521 1.775615 43.162422 88 54 60
0.568611 1.868955 43.169281 88 54 61
0.568690 1.962285 43.175243 87 54 61
0.568760 2.055610 43.180569 86 53 61
0.568825 2.148939 43.185520 85 52 61
0.568889 2.242285 43.190392 84 53 61
0.568956 2.335664 43.195473 84 55 61
0.569030 2.429092 43.201042 83 55 60
0.569113 2.522588 43.207375 81 53 57
0.569209 2.616173 43.214706 78 51 54
0.569322 2.709865 43.223251 78 51 53
0.569453 2.803684 43.233189 79 52 54
0.569604 2.897649 43.244663 80 53 55
0.569777 2.991776 43.257767 81 54 57
0.569972 3.086082 43.272587 81 54 58
0.570190 3.180581 43.289150 81 54 58
0.570431 3.275283 43.307472 81 53 57
0.570696 3.370201 43.327545 80 51 57
0.570983 3.465343 43.349342 79 49 57
0.571292 3.560718 43.372829 78 48 58
0.571623 3.656333 43.397976 79 49 61
0.571976 3.752197 43.424736 81 51 63
0.572349 3.848317 43.453087 84 54 66
0.572743 3.944701 43.483006 85 56 67
0.573158 4.041358 43.514465 85 56 66
0.573593 4.138297 43.547470 83 56 63
0.574048 4.235528 43.582016 82 56 62
0.574523 4.333061 43.618107 81 56 62
0.575019 4.430908 43.655758 81 56 63
0.575535 4.529081 43.694981 83 56 64
0.576073 4.627592 43.735802 84 56 65
0.576632 4.726452 43.778229 84 55 64
0.577212 4.825675 43.822289 86 55 64
0.577814 4.925272 43.867981 89 57 65
0.578438 5.025253 43.915321 89 56 64
0.579083 5.125631 43.964310 88 54 63
0.579750 5.226415 44.014935 89 54 63
0.580438 5.327615 44.067200 88 54 63
0.581148 5.429239 44.121078 87 55 63
0.581879 5.531295 44.176552 87 55 63
0.582630 5.633788 44.233585 89 57 65
0.583401 5.736724 44.292137 89 58 66
0.584192 5.840106 44.352150 89 58 66
0.585000 5.943933 44.413563 89 57 65
0.585827 6.048203 44.476284 91 59 65
0.586669 6.152910 44.540211 92 60 66
0.587525 6.258045 44.605221 93 61 66
0.588393 6.363592 44.671158 93 61 67
0.589272 6.469532 44.737858 93 61 68
0.590158 6.575843 44.805107 93 60 68
0.591048 6.682492 44.872692 92 60 69
0.591939 6.789444 44.940353 93 59 70
0.592828 6.896659 45.007824 94 59 71
0.593710 7.004094 45.074833 95 59 72
0.594583 7.111699 45.141094 96 60 73
0.595442 7.219423 45.206314 97 60 74
0.596284 7.327219 45.270237 97 60 75
0.597106 7.435035 45.332603 98 60 75
0.597904 7.542828 45.393208 100 62 77
0.598677 7.650557 45.451885 102 65 79
0.599423 7.758190 45.508518 101 64 77
0.600141 7.865705 45.563049 99 62 74
0.600832 7.973088 45.615482 97 61 73
0.601496 8.080341 45.665905 96 62 72
0.602135 8.187476 45.714447 95 62 72
0.602753 8.294518 45.761326 97 64 74
0.603352 8.401506 45.806808 99 67 77
0.603937 8.508491 45.851212 99 67 77
0.604512 8.615530 45.894894 98 65 75
0.605083 8.722696 45.938248 96 63 75
0.605655 8.830065 45.981682 95 63 75
0.606234 8.937716 46.025612 95 62 76
0.606824 9.045733 46.070438 96 63 77
0.607432 9.154199 46.116547 98 64 80
0.608060 9.263190 46.164295 100 64 82
0.608715 9.372785 46.213989 104 65 83
0.609398 9.483042 46.265881 108 68 86
0.610114 9.594022 46.320175 110 70 86
0.610862 9.705764 46.376999 109 69 82
0.611645 9.818298 46.436405 108 71 81
0.612461 9.931637 46.498383 110 74 83
0.613310 10.045778 46.562840 110 77 86
0.614189 10.160699 46.629597 108 79 87
0.615096 10.276358 46.698402 106 79 89
0.616024 10.392695 46.768932 105 82 94
0.616971 10.509632 46.840767 110 90 102
0.617928 10.627071 46.913460 119 102 114
0.618890 10.744897 46.986469 132 117 128
0.619848 10.862977 47.059219 142 129 139
0.620795 10.981167 47.131092 143 132 141
0.621722 11.099312 47.201458 139 129 137
0.622620 11.217253 47.269684 146 137 143
0.623482 11.334825 47.335140 167 158 162
0.624300 11.451867 47.397240 181 170 172
0.625067 11.568233 47.455463 174 164 164
0.625777 11.683784 47.509354 163 153 150
0.626425 11.798405 47.558556 145 134 129
0.627009 11.912008 47.602852 121 112 105
0.627526 12.024533 47.642113 134 126 119
0.627977 12.135954 47.676369 181 175 171
0.628364 12.246277 47.705776 199 193 191
0.628692 12.355547 47.730625 167 159 161
0.628964 12.463842 47.751331 142 131 136
0.629189 12.571269 47.768398 157 144 152
0.629374 12.677964 47.782425 176 161 171
0.629527 12.784083 47.794075 174 159 169
0.629658 12.889794 47.804028 180 165 174
0.629776 12.995271 47.812954 193 180 189
0.629889 13.100684 47.821514 181 169 179
0.630004 13.206192 47.830284 159 146 159
0.630129 13.311936 47.839764 150 135 152
0.630268 13.418024 47.850323 141 127 145
0.630425 13.524536 47.862225 127 111 130
0.630601 13.631513 47.875576 117 101 120
0.630795 13.738947 47.890324 123 105 124
0.631005 13.846794 47.906281 137 116 134
0.631227 13.954962 47.923103 141 117 135
0.631454 14.063317 47.940311 135 108 125
0.631678 14.171691 47.957336 131 102 118
0.631891 14.279879 47.973492 131 100 115
0.632082 14.387655 47.988037 132 100 114
0.632243 14.494781 48.000221 133 99 114
0.632362 14.601009 48.009285 131 96 112
0.632431 14.706098 48.014500 126 90 106
0.632440 14.809820 48.015209 119 83 100
0.632383 14.911975 48.010864 117 79 97
0.632253 15.012391 48.001019 118 78 98
0.632047 15.110940 47.985378 123 81 100
0.631763 15.207533 47.963783 126 83 100
0.631400 15.302134 47.936237 126 84 98
0.630961 15.394751 47.902889 128 86 98
0.630449 15.485435 47.864010 128 86 96
0.629869 15.574286 47.820015 119 80 87
0.629228 15.661420 47.771366 103 66 72
0.628534 15.747004 47.718655 95 61 68
0.627794 15.831209 47.662476 94 63 73
0.659298 0.842283 43.014530 84 53 59
0.659619 0.935464 43.035519 84 52 59
0.659920 1.028702 43.055107 84 52 60
0.660196 1.121985 43.073170 85 52 61
0.660449 1.215300 43.089626 87 53 62
0.660676 1.308636 43.104435 89 55 63
0.660877 1.401982 43.117584 90 56 63
0.661054 1.495329 43.129108 89 55 62
0.661207 1.588668 43.139076 88 54 62
0.661337 1.681994 43.147610 88 53 61
0.661449 1.775304 43.154861 87 53 60
0.661543 1.868598 43.161018 87 53 61
0.661624 1.961879 43.166313 87 53 61
0.661696 2.055154 43.170998 86 53 61
0.661763 2.148433 43.175350 84 52 61
0.661828 2.241727 43.179642 83 52 61
0.661898 2.335052 43.184170 82 53 61
0.661975 2.428426 43.189205 81 53 60
0.662064 2.521867 43.195011 79 52 58
0.662169 2.615394 43.201836 79 52 55
0.662292 2.709026 43.209873 79 52 54
0.662436 2.802784 43.219311 80 53 54
0.662604 2.896685 43.230278 80 54 55
0.662798 2.990747 43.242882 81 54 57
0.663017 3.084984 43.257187 81 54 57
0.663263 3.179411 43.273235 80 53 57
0.663536 3.274040 43.291039 80 52 56
0.663836 3.368882 43.310593 80 50 57
0.664162 3.463946 43.331875 78 48 57
0.664514 3.559242 43.354855 78 48 59
0.664892 3.654777 43.379501 79 49 61
0.665295 3.750560 43.405785 80 51 64
0.665722 3.846599 43.433689 82 53 65
0.666174 3.942903 43.463184 82 53 64
0.666651 4.039482 43.494270 82 54 63
0.667152 4.136346 43.526947 82 56 62
0.667677 4.233506 43.561214 82 57 62
0.668227 4.330974 43.597095 81 57 62
0.668802 4.428761 43.634602 81 56 61
0.669402 4.526881 43.673756 82 56 62
0.670027 4.625346 43.714577 82 55 62
0.670679 4.724170 43.757092 82 53 62
0.671357 4.823365 43.801308 84 54 62
0.672061 4.922943 43.847240 86 56 63
0.672791 5.022915 43.894894 86 56 63
0.673548 5.123294 43.944267 86 55 62
0.674331 5.224090 43.995358 87 55 63
0.675140 5.325311 44.048141 87 54 61
0.675975 5.426965 44.102600 85 53 60
0.676835 5.529061 44.158714 86 54 61
0.677720 5.631604 44.216431 89 58 65
0.678628 5.734597 44.275711 90 58 66
0.679560 5.838044 44.336487 90 58 65
0.680513 5.941943 44.398693 89 57 65
0.681487 6.046293 44.462234 91 59 65
0.682480 6.151086 44.527008 93 60 66
0.683490 6.256314 44.592884 94 61 66
0.684514 6.361960 44.659710 95 61 67
0.685550 6.468008 44.727310 95 61 67
0.686595 6.574430 44.795483 94 60 68
0.687645 6.681199 44.864010 94 60 69
0.688697 6.788278 44.932632 95 60 72
0.689746 6.895627 45.001087 96 60 73
0.690789 7.003202 45.069096 97 60 74
0.691820 7.110955 45.136372 97 60 74
0.692836 7.218836 45.202641 97 60 74
0.693831 7.326795 45.267616 97 60 75
0.694804 7.434782 45.331059 98 60 75
0.695749 7.542752 45.392750 101 63 77
0.696666 7.650665 45.452526 103 65 78
0.697551 7.758487 45.510262 101 63 74
0.698403 7.866196 45.565891 98 60 72
0.699224 7.973776 45.619419 99 62 74
0.700013 8.081230 45.670925 100 64 76
0.700773 8.188566 45.720531 98 62 75
0.701508 8.295810 45.768456 98 62 76
0.702220 8.402999 45.814945 100 65 78
0.702916 8.510182 45.860329 101 66 78
0.703600 8.617419 45.904957 99 64 76
0.704279 8.724779 45.949219 97 63 74
0.704958 8.832338 45.993526 96 63 75
0.705644 8.940178 46.038288 95 63 75
0.706343 9.048379 46.083912 96 63 75
0.707062 9.157026 46.130795 98 64 77
0.707805 9.266197 46.179279 101 64 79
0.708577 9.375968 46.229687 104 65 81
0.709384 9.486403 46.282284 108 68 83
0.710226 9.597559 46.337257 109 69 83
0.711107 9.709480 46.394756 109 69 81
0.712028 9.822193 46.454826 109 70 80
0.712988 9.935713 46.517467 113 75 84
0.713986 10.050038 46.582584 115 80 89
0.715020 10.165144 46.649998 112 80 90
0.716084 10.280992 46.719460 108 79 90
0.717175 10.397518 46.790634 107 81 94
0.718286 10.514646 46.863113 108 86 99
0.719410 10.632277 46.936440 113 93 106
0.720538 10.750291 47.010059 119 103 115
0.721663 10.868559 47.083401 124 111 121
0.722773 10.986935 47.155846 124 114 123
0.723860 11.105262 47.226761 130 122 129
0.724913 11.223377 47.295494 149 143 148
0.725924 11.341118 47.361423 167 161 163
0.726883 11.458324 47.423969 171 165 165
0.727781 11.574846 47.482594 172 165 162
0.728613 11.690545 47.536846 170 161 155
0.729372 11.805307 47.586384 151 141 132
0.730055 11.919044 47.630966 127 116 105
0.730661 12.031696 47.670490 132 121 111
0.731190 12.143234 47.704971 168 157 150
0.731643 12.253669 47.734570 184 173 168
0.732027 12.363042 47.759579 162 150 148
0.732346 12.471435 47.780418 144 131 132
0.732609 12.578952 47.797588 156 141 146
0.732825 12.685731 47.811695 168 151 158
0.733005 12.791924 47.823391 156 139 147
0.733157 12.897704 47.833363 147 130 139
0.733294 13.003242 47.842285 150 135 145
0.733425 13.108709 47.850807 147 131 143
0.733558 13.214263 47.859512 148 132 146
0.733702 13.320041 47.868893 157 142 157
0.733862 13.426155 47.879322 154 137 155
0.734042 13.532681 47.891052 135 117 136
0.734243 13.639658 47.904186 119 100 120
0.734465 13.747081 47.918678 120 98 118
0.734705 13.854898 47.934319 128 104 124
0.734957 13.963018 47.950768 131 105 123
0.735214 14.071302 47.967533 126 97 115
0.735467 14.179582 47.984039 123 91 108
0.735705 14.287644 47.999577 124 91 105
0.735917 14.395267 48.013424 126 91 105
0.736091 14.502199 48.024788 126 90 103
0.736216 14.608197 48.032917 124 86 100
0.736280 14.713012 48.037075 121 82 96
0.736272 14.816413 48.036583 117 79 93
0.736185 14.918199 48.030903 115 76 91
0.736012 15.018195 48.019573 115 75 91
0.735747 15.116271 48.002308 119 78 93
0.735389 15.212337 47.978935 123 81 95
0.734937 15.306361 47.949482 122 80 93
0.734395 15.398346 47.914078 118 77 88
0.733765 15.488351 47.873024 113 73 82
0.733056 15.576468 47.826721 107 69 77
0.732273 15.662827 47.775658 100 64 70
0.731426 15.747588 47.720425 97 63 69
0.730525 15.830932 47.661640 94 63 71
0.752034 0.842295 43.015163 85 54 59
0.752387 0.935461 43.035374 84 53 59
0.752715 1.028679 43.054157 84 52 59
0.753017 1.121938 43.071400 84 52 60
0.753290 1.215227 43.087036 85 53 61
0.753535 1.308533 43.101021 88 56 64
0.753750 1.401845 43.113354 90 57 65
0.753938 1.495155 43.124084 90 56 65
0.754099 1.588455 43.133286 89 55 64
0.754235 1.681739 43.141079 88 53 63
0.754349 1.775006 43.147621 87 53 62
0.754445 1.868255 43.153103 87 53 62
0.754527 1.961490 43.157757 86 53 62
0.754598 2.054718 43.161831 85 53 62
0.754664 2.147948 43.165596 84 52 61
0.754729 2.241192 43.169334 83 52 61
0.754799 2.334466 43.173321 82 52 61
0.754878 2.427787 43.177837 81 52 60
0.754970 2.521173 43.183132 80 52 58
0.755081 2.614644 43.189445 79 52 56
0.755212 2.708218 43.196980 80 52 55
0.755368 2.801915 43.205906 80 53 55
0.755551 2.895753 43.216362 80 53 56
0.755762 2.989748 43.228439 80 53 56
0.756003 3.083917 43.242222 79 52 56
0.756274 3.178272 43.257732 78 51 55
0.756576 3.272827 43.274998 78 50 55
0.756909 3.367592 43.294010 78 50 56
0.757271 3.462577 43.314751 77 48 56
0.757664 3.557792 43.337196 78 48 58
0.758086 3.653246 43.361328 79 49 60
0.758536 3.748946 43.387112 80 52 63
0.759016 3.844903 43.414543 82 53 64
0.759524 3.941127 43.443611 82 54 64
0.760061 4.037628 43.474308 82 54 63
0.760626 4.134417 43.506641 82 56 62
0.761220 4.231506 43.540634 82 57 62
0.761844 4.328908 43.576298 82 57 62
0.762497 4.426636 43.613659 82 56 61
0.763180 4.524704 43.652748 81 55 61
0.763894 4.623125 43.693577 82 55 61
0.764639 4.721913 43.736183 81 54 61
0.765415 4.821082 43.780575 82 54 62
0.766223 4.920643 43.826759 83 55 62
0.767062 5.020610 43.874748 83 55 62
0.767932 5.120993 43.924530 83 54 61
0.768833 5.221803 43.976093 84 55 62
0.769766 5.323047 44.029423 84 54 61
0.770728 5.424736 44.084484 82 52 59
0.771721 5.526874 44.141247 84 54 61
0.772742 5.629468 44.199661 87 56 64
0.773791 5.732520 44.259674 87 56 64
0.774867 5.836033 44.321217 88 56 64
0.775969 5.940006 44.384216 88 56 64
0.777094 6.044435 44.448570 90 57 65
0.778241 6.149313 44.514175 92 59 66
0.779407 6.254631 44.580891 94 60 66
0.780590 6.360374 44.648575 95 60 67
0.781787 6.466523 44.717041 96 61 68
0.782995 6.573051 44.786091 97 62 71
0.784208 6.679933 44.855507 97 62 73
0.785424 6.787129 44.925030 97 62 75
0.786637 6.894603 44.994404 99 62 77
0.787842 7.002308 45.063343 99 63 79
0.789035 7.110198 45.131565 99 63 78
0.790210 7.218222 45.198792 99 61 78
0.791363 7.326331 45.264751 98 60 77
0.792490 7.434475 45.329185 98 61 76
0.793586 7.542608 45.391888 100 63 76
0.794649 7.650691 45.452686 102 64 76
0.795676 7.758688 45.511440 100 62 74
0.796667 7.866577 45.568100 99 60 73
0.797620 7.974343 45.622662 102 63 76
0.798539 8.081984 45.675182 104 65 80
0.799424 8.189510 45.725803 101 62 78
0.800279 8.296946 45.774715 99 61 76
0.801109 8.404326 45.822182 100 63 77
0.801919 8.511701 45.868511 101 65 77
0.802715 8.619127 45.914059 99 64 75
0.803504 8.726676 45.959209 98 63 74
0.804294 8.834421 46.004372 97 63 73
0.805091 8.942444 46.049957 96 63 73
0.805902 9.050825 46.096371 96 63 74
0.806735 9.159650 46.144012 97 63 75
0.807596 9.268999 46.193241 100 64 78
0.808490 9.378944 46.244362 104 66 80
0.809421 9.489553 46.297646 107 68 82
0.810394 9.600883 46.353302 109 68 82
0.811411 9.712976 46.411461 110 69 82
0.812473 9.825864 46.472191 111 70 82
0.813579 9.939558 46.535469 115 76 87
0.814729 10.054059 46.601223 119 82 92
0.815918 10.169342 46.669262 116 82 93
0.817143 10.285366 46.739338 112 80 92
0.818398 10.402071 46.811123 109 80 94
0.819676 10.519376 46.884197 107 82 96
0.820968 10.637180 46.958088 107 86 99
0.822265 10.755370 47.032269 110 92 104
0.823556 10.873808 47.106140 111 97 108
0.824831 10.992349 47.179085 112 101 110
0.826079 11.110838 47.250473 121 113 120
0.827289 11.229109 47.319645 141 136 142
0.828448 11.346998 47.385979 154 149 153
0.829548 11.464346 47.448887 156 151 153
0.830579 11.581000 47.507839 166 159 158
0.831533 11.696825 47.562386 171 161 158
0.832403 11.811705 47.612171 155 144 137
0.833186 11.925550 47.656971 133 120 112
0.833880 12.038302 47.696667 129 115 107
0.834486 12.149934 47.731293 145 131 123
0.835005 12.260453 47.761002 158 143 137
0.835444 12.369905 47.786095 154 139 136
0.835809 12.478369 47.806984 146 131 132
0.836109 12.585948 47.824173 149 133 137
0.836356 12.692781 47.838272 152 134 140
0.836560 12.799026 47.849937 142 124 132
0.836733 12.904844 47.859844 129 113 121
0.836887 13.010416 47.868679 126 109 119
0.837034 13.115908 47.877083 125 109 120
0.837184 13.221478 47.885643 139 122 135
0.837345 13.327264 47.894848 159 142 157
0.837524 13.433376 47.905071 159 140 159
0.837725 13.539890 47.916565 141 120 140
0.837950 13.646844 47.929424 123 101 122
0.838197 13.754231 47.943604 120 96 117
0.838465 13.861999 47.958885 122 97 117
0.838745 13.970051 47.974918 123 95 114
0.839030 14.078252 47.991226 120 89 108
0.839309 14.186424 48.007195 119 86 102
0.839570 14.294357 48.022129 120 85 100
0.839800 14.401818 48.035275 123 85 98
0.839985 14.508561 48.045856 124 85 96
0.840111 14.614330 48.053085 124 83 94
0.840166 14.718878 48.056221 121 81 91
0.840138 14.821968 48.054596 119 80 89
0.840016 14.923395 48.047630 117 78 88
0.839793 15.022984 48.034885 112 74 85
0.839464 15.120600 48.016052 111 73 84
0.839026 15.216156 47.990978 115 76 87
0.838478 15.309612 47.959663 117 78 88
0.837824 15.400978 47.922268 115 77 86
0.837069 15.490307 47.879066 111 73 82
0.836220 15.577697 47.830490 104 68 76
0.835285 15.663277 47.777031 98 63 70
0.834275 15.747210 47.719276 96 62 68
0.844776 0.842311 43.016003 86 54 58
0.845158 0.935462 43.035450 85 53 59
0.845511 1.028662 43.053440 84 52 60
0.845834 1.121899 43.069878 83 52 60
0.846125 1.215161 43.084705 84 53 61
0.846384 1.308437 43.097885 87 55 64
0.846611 1.401717 43.109428 89 56 65
0.846807 1.494992 43.119385 89 56 65
0.846973 1.588254 43.127838 89 55 65
0.847112 1.681499 43.134918 88 54 64
0.847227 1.774724 43.140774 87 54 63
0.847322 1.867931 43.145607 86 54 63
0.847401 1.961121 43.149639 85 53 63
0.847469 2.054303 43.153122 84 52 62
0.847532 2.147486 43.156326 82 52 61
0.847595 2.240682 43.159515 81 52 61
0.847663 2.333907 43.162983 81 52 61
0.847741 2.427177 43.166981 80 52 61
0.847835 2.520510 43.171768 79 52 59
0.847949 2.613925 43.177578 78 52 57
0.848087 2.707442 43.184605 79 53 56
0.848253 2.801079 43.193024 79 53 56
0.848448 2.894854 43.202953 79 53 56
0.848675 2.988784 43.214504 79 53 56
0.848934 3.082884 43.227741 78 51 55
0.849228 3.177168 43.242706 77 50 54
0.849556 3.271648 43.259411 77 50 55
0.849919 3.366336 43.277863 77 50 55
0.850315 3.461242 43.298046 76 48 55
0.850745 3.556376 43.319942 76 49 57
0.851209 3.651747 43.343536 78 50 59
0.851705 3.747365 43.368809 80 52 61
0.852234 3.843240 43.395756 82 54 63
0.852796 3.939383 43.424377 83 55 63
0.853391 4.035805 43.454674 83 55 63
0.854019 4.132519 43.486668 82 54 63
0.854681 4.229537 43.520370 82 55 62
0.855378 4.326874 43.555820 83 55 62
0.856109 4.424543 43.593044 82 54 61
0.856875 4.522560 43.632069 82 54 60
0.857677 4.620939 43.672924 81 53 60
0.858516 4.719694 43.715630 81 53 61
0.859391 4.818839 43.760208 81 54 61
0.860304 4.918387 43.806664 81 54 61
0.861253 5.018350 43.855000 80 54 60
0.862239 5.118741 43.905205 81 54 61
0.863261 5.219567 43.957264 81 54 61
0.864320 5.320838 44.011147 81 54 61
0.865413 5.422563 44.066826 81 52 61
0.866541 5.524746 44.124252 82 52 61
0.867702 5.627393 44.183372 83 53 62
0.868895 5.730506 44.244125 84 53 62
0.870119 5.834086 44.306435 85 53 62
0.871371 5.938133 44.370220 87 54 63
0.872651 6.042640 44.435375 89 55 64
0.873955 6.147602 44.501785 91 57 65
0.875281 6.253008 44.569321 92 58 66
0.876627 6.358843 44.637825 94 59 68
0.877987 6.465087 44.707115 97 62 71
0.879360 6.571717 44.777000 101 65 75
0.880739 6.678703 44.847248 101 65 77
0.882121 6.786009 44.917614 99 65 78
0.883500 6.893596 44.987831 100 66 81
0.884871 7.001420 45.057629 103 69 86
0.886228 7.109435 45.126724 105 70 88
0.887566 7.217590 45.194836 102 66 84
0.888878 7.325835 45.261688 98 61 79
0.890162 7.434123 45.327042 97 60 77
0.891412 7.542406 45.390671 99 62 77
0.892624 7.650644 45.452404 100 63 77
0.893796 7.758803 45.512112 100 62 76
0.894928 7.866859 45.569733 100 61 76
0.896018 7.974796 45.625252 101 62 77
0.897069 8.082613 45.678738 102 62 79
0.898082 8.190317 45.730309 101 61 78
0.899061 8.297934 45.780170 100 60 76
0.900011 8.405498 45.828568 101 62 76
0.900939 8.513055 45.875809 101 64 75
0.901851 8.620665 45.922245 101 65 74
0.902755 8.728395 45.968262 101 65 73
0.903658 8.836320 46.014259 100 65 73
0.904569 8.944521 46.060658 98 64 73
0.905496 9.053081 46.107857 97 62 73
0.906447 9.162080 46.156254 97 62 74
0.907428 9.271602 46.206211 99 64 76
0.908445 9.381718 46.258041 103 66 79
0.909505 9.492497 46.312012 107 68 82
0.910612 9.603996 46.368336 109 69 84
0.911766 9.716258 46.427143 111 70 84
0.912971 9.829313 46.488503 111 70 83
0.914226 9.943175 46.552406 115 75 87
0.915530 10.057843 46.618759 120 81 93
0.916877 10.173293 46.687393 119 82 95
0.918265 10.289483 46.758045 115 81 94
0.919686 10.406352 46.830387 111 80 94
0.921131 10.523820 46.903999 107 79 94
0.922593 10.641785 46.978413 104 80 94
0.924059 10.760131 47.053085 105 84 97
0.925519 10.878721 47.127426 104 87 99
0.926960 10.997410 47.200809 104 91 101
0.928370 11.116039 47.272591 111 101 111
0.929736 11.234446 47.342133 123 117 125
0.931045 11.352461 47.408794 131 126 133
0.932286 11.469929 47.471996 134 129 135
0.933448 11.586694 47.531197 147 140 145
0.934524 11.702621 47.585953 156 146 148
0.935505 11.817595 47.635914 148 135 136
0.936387 11.931525 47.680847 132 116 116
0.937169 12.044354 47.720642 122 106 104
0.937850 12.156054 47.755333 126 109 107
0.938434 12.266632 47.785069 136 118 116
0.938927 12.376135 47.810158 141 124 123
0.939336 12.484640 47.831009 140 123 125
0.939673 12.592256 47.848141 138 120 124
0.939948 12.699117 47.862144 136 118 123
0.940175 12.805378 47.873688 131 112 119
0.940366 12.911209 47.883446 122 105 112
0.940536 13.016782 47.892101 118 100 109
0.940697 13.122268 47.900303 117 99 110
0.940861 13.227824 47.908630 129 110 123
0.941036 13.333588 47.917576 146 125 142
0.941232 13.439670 47.927517 149 126 146
0.941451 13.546144 47.938698 139 115 136
0.941697 13.653049 47.951214 129 103 125
0.941968 13.760376 47.965023 123 97 120
0.942260 13.868073 47.979897 120 93 115
0.942567 13.976042 47.995491 117 88 109
0.942877 14.084143 48.011303 116 85 105
0.943180 14.192195 48.026726 117 84 102
0.943461 14.299990 48.041054 120 83 99
0.943706 14.407289 48.053520 122 83 97
0.943899 14.513839 48.063335 125 84 95
0.944024 14.619385 48.069706 125 84 92
0.944067 14.723672 48.071877 124 83 90
0.944013 14.826462 48.069164 123 84 89
0.943853 14.927544 48.060989 122 84 90
0.943576 15.026742 48.046906 113 77 83
0.943177 15.123916 48.026581 105 69 75
0.942653 15.218976 47.999870 106 71 77
0.942003 15.311883 47.966778 111 76 84
0.941230 15.402641 47.927441 115 80 88
0.940341 15.491308 47.882164 113 78 86
0.939343 15.577979 47.831356 105 70 78
0.938247 15.662783 47.775524 97 63 70
0.937063 15.745884 47.715260 94 60 67
0.937936 0.935470 43.035816 86 54 59
0.938311 1.028652 43.053036 85 53 60
0.938653 1.121868 43.068691 84 53 61
0.938958 1.215105 43.082726 83 53 62
0.939229 1.308354 43.095123 85 54 63
0.939463 1.401602 43.105896 86 54 64
0.939664 1.494843 43.115105 88 55 65
0.939832 1.588070 43.122829 88 55 66
0.939972 1.681277 43.129211 88 55 65
0.940085 1.774462 43.134407 87 54 65
0.940176 1.867627 43.138603 86 54 64
0.940251 1.960775 43.142029 84 53 64
0.940314 2.053914 43.144943 83 53 63
0.940372 2.147051 43.147591 81 52 62
0.940430 2.240201 43.150253 80 52 61
0.940494 2.333378 43.153202 79 52 61
0.940570 2.426598 43.156693 79 53 61
0.940664 2.519880 43.160984 78 53 59
0.940780 2.613242 43.166286 78 53 58
0.940922 2.706702 43.172806 78 53 57
0.941094 2.800280 43.180698 78 53 56
0.941299 2.893993 43.190105 78 53 56
0.941539 2.987858 43.201111 78 52 56
0.941815 3.081890 43.213799 78 51 55
0.942129 3.176102 43.228199 77 50 55
0.942481 3.270508 43.244335 77 50 55
0.942870 3.365119 43.262211 76 50 55
0.943298 3.459945 43.281826 76 50 55
0.943763 3.554998 43.303158 77 51 56
0.944265 3.650286 43.326206 79 52 59
0.944804 3.745822 43.350956 82 53 61
0.945381 3.841615 43.377411 83 54 62
0.945995 3.937677 43.405579 84 55 63
0.946646 4.034022 43.435474 84 55 63
0.947336 4.130661 43.467121 83 54 63
0.948065 4.227610 43.500546 84 54 62
0.948833 4.324883 43.535786 84 54 61
0.949641 4.422496 43.572872 83 53 60
0.950490 4.520463 43.611839 82 52 59
0.951381 4.618802 43.652725 81 52 59
0.952314 4.717526 43.695549 80 52 59
0.953290 4.816649 43.740326 81 54 60
0.954309 4.916186 43.787064 81 54 61
0.955370 5.016149 43.835762 79 53 60
0.956474 5.116549 43.886406 78 53 60
0.957620 5.217395 43.938976 79 52 61
0.958807 5.318696 43.993431 80 52 61
0.960034 5.420459 44.049732 80 52 61
0.961300 5.522690 44.107834 79 52 61
0.962604 5.625392 44.167660 80 51 62
0.963944 5.728567 44.229149 81 51 62
0.965319 5.832215 44.292221 83 52 63
0.966725 5.936333 44.356773 85 53 63
0.968163 6.040918 44.422714 87 54 64
0.969627 6.145962 44.489914 88 55 65
0.971116 6.251452 44.558231 90 57 67
0.972626 6.357375 44.627522 92 58 69
0.974153 6.463710 44.697594 95 61 72
0.975693 6.570434 44.768257 98 65 76
0.977241 6.677516 44.839279 98 65 78
0.978792 6.784922 44.910419 97 65 79
0.980339 6.892613 44.981415 100 69 85
0.981877 7.000546 45.052002 113 80 99
0.983401 7.108673 45.121891 122 88 109
0.984903 7.216947 45.190807 113 79 100
0.986377 7.325316 45.258480 99 64 84
0.987820 7.433733 45.324661 95 59 78
0.989225 7.542152 45.389141 97 61 78
0.990589 7.650533 45.451740 99 62 78
0.991910 7.758839 45.512325 99 62 77
0.993185 7.867049 45.570835 99 61 77
0.994415 7.975145 45.627251 99 61 78
0.995600 8.083125 45.681633 99 60 78
0.996744 8.190998 45.734112 99 60 77
0.997850 8.298785 45.784866 99 60 76
0.998924 8.406522 45.834156 101 63 76
0.999973 8.514255 45.882275 103 65 76
1.001003 8.622040 45.929569 104 68 76
1.002025 8.729945 45.976429 104 69 76
1.003045 8.838046 46.023247 102 68 75
1.004074 8.946422 46.070442 99 66 74
1.005119 9.055153 46.118416 96 63 73
1.006190 9.164325 46.167561 96 62 74
1.007295 9.274016 46.218246 99 64 77
1.008440 9.384301 46.270775 104 67 81
1.009631 9.495246 46.325420 107 69 84
1.010872 9.606909 46.382393 109 71 87
1.012168 9.719334 46.441837 111 71 88
1.013519 9.832549 46.503811 111 71 86
1.014924 9.946571 46.568302 113 73 88
1.016383 10.061397 46.635231 119 79 93
1.017891 10.177003 46.704422 119 81 96
1.019442 10.293346 46.775604 118 81 97
1.021030 10.410367 46.848457 115 80 96
1.022645 10.527983 46.922558 110 78 94
1.024277 10.646092 46.997429 106 77 93
1.025913 10.764578 47.072533 105 79 94
1.027542 10.883303 47.147274 103 82 96
1.029150 11.002120 47.221024 103 84 97
1.030722 11.120872 47.293144 105 90 103
1.032244 11.239391 47.362980 110 99 111
1.033702 11.357514 47.429897 113 103 116
1.035084 11.475080 47.493313 116 107 118
1.036378 11.591933 47.552689 126 115 127
1.037575 11.707940 47.607578 136 122 133
1.038666 11.822984 47.657639 134 117 127
1.039646 11.936977 47.702629 124 105 114
1.040514 12.049857 47.742447 117 96 104
1.041270 12.161599 47.777119 118 97 103
1.041916 12.272211 47.806805 125 105 110
1.042461 12.381740 47.831810 132 112 116
1.042913 12.490260 47.852543 132 113 118
1.043283 12.597881 47.869518 129 110 115
1.043584 12.704740 47.883339 126 107 112
1.043831 12.810990 47.894669 123 104 110
1.044039 12.916801 47.904186 119 100 107
1.044222 13.022348 47.912579 116 96 105
1.044394 13.127797 47.920486 116 94 106
1.044569 13.233309 47.928493 122 100 114
1.044756 13.339021 47.937099 132 108 125
1.044965 13.445042 47.946674 136 110 130
1.045200 13.551450 47.957470 134 107 129
1.045464 13.658278 47.969582 131 103 127
1.045756 13.765521 47.982956 126 98 123
1.046070 13.873124 47.997375 119 91 116
1.046399 13.980989 48.012486 114 85 109
1.046732 14.088975 48.027779 115 83 107
1.047056 14.196899 48.042645 117 83 105
1.047355 14.304546 48.056358 120 83 102
1.047613 14.411677 48.068161 122 83 98
1.047810 14.518038 48.077240 124 83 94
1.047931 14.623364 48.082790 125 83 90
1.047959 14.727401 48.084049 124 84 88
1.047878 14.829903 48.080318 125 87 88
1.047675 14.930656 48.071011 124 88 89
1.047340 15.029480 48.055656 114 79 81
1.046867 15.126230 48.033932 102 68 72
1.046251 15.220816 48.005676 102 68 73
1.045492 15.313190 47.970875 109 75 82
1.044595 15.403362 47.929684 116 82 90
1.043564 15.491381 47.882385 115 82 89
1.042409 15.577345 47.829411 106 73 80
1.041142 15.661380 47.771244 97 64 71
1.039774 15.743652 47.708496 93 61 67
1.030724 0.935486 43.036552 87 54 60
1.031119 1.028652 43.053024 86 54 61
1.031476 1.121848 43.067924 84 54 62
1.031794 1.215062 43.081192 83 53 63
1.032072 1.308284 43.092827 83 53 63
1.032312 1.401503 43.102848 85 54 64
1.032515 1.494712 43.111324 86 55 65
1.032683 1.587904 43.118343 88 56 66
1.032820 1.681075 43.124046 88 55 66
1.032929 1.774223 43.128586 86 54 65
1.033014 1.867349 43.132164 85 53 64
1.033082 1.960456 43.135006 83 53 63
1.033139 2.053552 43.137352 82 53 62
1.033189 2.146647 43.139458 80 52 61
1.033240 2.239752 43.141598 79 52 60
1.033299 2.332882 43.144035 79 53 61
1.033370 2.426055 43.147026 79 54 61
1.033461 2.519286 43.150814 79 54 60
1.033576 2.612595 43.155613 78 54 58
1.033720 2.706001 43.161621 78 54 57
1.033896 2.799521 43.168995 77 53 56
1.034109 2.893173 43.177864 78 53 56
1.034359 2.986974 43.188324 78 53 56
1.034650 3.080937 43.200443 78 52 56
1.034981 3.175079 43.214275 77 51 55
1.035353 3.269411 43.229832 76 50 54
1.035768 3.363945 43.247128 76 51 55
1.036223 3.458693 43.266155 76 51 56
1.036721 3.553665 43.286919 78 53 57
1.037259 3.648872 43.309414 80 53 58
1.037840 3.744325 43.333633 83 53 60
1.038461 3.840037 43.359596 84 54 62
1.039125 3.936020 43.387310 84 54 63
1.039831 4.032288 43.416805 84 54 63
1.040581 4.128854 43.448105 84 54 62
1.041375 4.225735 43.481251 84 53 61
1.042214 4.322946 43.516285 84 53 60
1.043099 4.420504 43.553246 83 52 58
1.044031 4.518424 43.592167 82 50 57
1.045012 4.616724 43.633091 80 50 57
1.046040 4.715419 43.676037 79 50 57
1.047117 4.814524 43.721027 80 53 60
1.048244 4.914053 43.768063 80 54 61
1.049419 5.014018 43.817139 77 52 59
1.050643 5.114430 43.868233 76 51 59
1.051914 5.215298 43.921318 78 52 61
1.053232 5.316631 43.976349 78 52 61
1.054596 5.418435 44.033283 78 52 62
1.056004 5.520715 44.092056 78 51 61
1.057453 5.623472 44.152588 78 50 61
1.058944 5.726709 44.214813 79 51 62
1.060472 5.830425 44.278629 81 52 63
1.062036 5.934616 44.343945 82 52 63
1.063634 6.039277 44.410645 84 53 63
1.065261 6.144399 44.478600 86 54 64
1.066916 6.249970 44.547672 87 56 66
1.068593 6.355977 44.617702 89 57 68
1.070289 6.462397 44.688511 91 60 70
1.071998 6.569207 44.759892 93 62 73
1.073717 6.676377 44.831631 94 64 76
1.075438 6.783875 44.903488 94 64 78
1.077155 6.891660 44.975201 99 70 87
1.078862 6.999690 45.046494 123 93 113
1.080554 7.107919 45.117104 143 112 134
1.082222 7.216298 45.186745 129 96 119
1.083860 7.324779 45.255161 100 66 89
1.085463 7.433312 45.322098 91 57 78
1.087026 7.541853 45.387348 94 60 78
1.088544 7.650363 45.450737 96 61 78
1.090014 7.758805 45.512127 96 61 77
1.091435 7.867156 45.571453 96 60 77
1.092806 7.975399 45.628704 96 60 77
1.094129 8.083531 45.683929 96 60 76
1.095406 8.191562 45.737259 97 59 75
1.096642 8.299510 45.788868 99 60 75
1.097843 8.407411 45.839001 102 64 75
1.099016 8.515310 45.887966 107 70 78
1.100169 8.623265 45.936100 110 74 81
1.101310 8.731341 45.983780 109 74 81
1.102451 8.839613 46.031406 105 72 77
1.103600 8.948158 46.079384 100 68 75
1.104767 9.057058 46.128120 97 65 75
1.105962 9.166398 46.178005 96 63 76
1.107193 9.276254 46.229397 100 66 81
1.108468 9.386703 46.282619 105 69 87
1.109792 9.497810 46.337933 107 71 90
1.111172 9.609632 46.395542 110 71 92
1.112610 9.722214 46.455601 111 71 92
1.114109 9.835584 46.518162 111 71 91
1.115667 9.949758 46.583218 113 73 92
1.117283 10.064732 46.650688 118 78 97
1.118952 10.180483 46.720390 121 82 101
1.120669 10.296968 46.792065 122 84 103
1.122425 10.414126 46.865372 120 82 101
1.124210 10.531876 46.939907 114 78 97
1.126013 10.650114 47.015182 109 76 94
1.127820 10.768723 47.090656 107 77 94
1.129618 10.887564 47.165733 105 79 94
1.131392 11.006492 47.239784 103 80 95
1.133125 11.125346 47.312172 103 83 98
1.134803 11.243960 47.382233 104 88 103
1.136410 11.362168 47.449333 104 89 105
1.137933 11.479811 47.512894 105 90 106
1.139357 11.596732 47.572376 111 95 111
1.140673 11.712797 47.627331 118 98 116
1.141873 11.827889 47.677410 119 98 114
1.142950 11.941920 47.722385 116 93 109
1.143902 12.054829 47.762146 114 91 105
1.144730 12.166589 47.796719 116 93 106
1.145438 12.277210 47.826279 122 100 110
1.146033 12.386737 47.851116 127 106 114
1.146525 12.495246 47.871643 127 107 114
1.146926 12.602847 47.888386 123 104 110
1.147250 12.709675 47.901939 121 101 107
1.147515 12.815886 47.912971 120 99 105
1.147735 12.921648 47.922161 119 97 104
1.147927 13.027137 47.930199 118 95 104
1.148107 13.132520 47.937725 117 93 104
1.148290 13.237957 47.945332 121 95 109
1.148486 13.343588 47.953514 127 99 116
1.148704 13.449521 47.962646 130 101 121
1.148952 13.555833 47.972984 130 101 124
1.149230 13.662560 47.984619 129 100 126
1.149539 13.769696 47.997509 125 96 124
1.149872 13.877184 48.011421 117 88 118
1.150222 13.984928 48.026009 111 80 111
1.150575 14.092783 48.040760 111 79 108
1.150917 14.200565 48.055050 114 80 107
1.151231 14.308061 48.068165 118 81 105
1.151498 14.415021 48.079311 121 81 100
1.151699 14.521192 48.087681 122 81 94
1.151813 14.626304 48.092457 122 81 89
1.151823 14.730097 48.092854 121 82 86
1.151711 14.832325 48.088173 120 83 84
1.151462 14.932766 48.077801 118 82 83
1.151066 15.031232 48.061260 111 77 79
1.150514 15.127581 48.038219 104 70 74
1.149803 15.221712 48.008503 103 70 75
1.148930 15.313579 47.972088 108 75 81
1.147901 15.403183 47.929127 113 80 87
1.146722 15.490574 47.879894 113 80 88
1.145403 15.575846 47.824806 107 74 81
1.143955 15.659125 47.764366 99 67 73
1.123528 0.935512 43.037731 88 55 61
1.123939 1.028663 43.053493 87 55 62
1.124309 1.121841 43.067657 85 54 62
1.124636 1.215034 43.080189 83 54 63
1.124920 1.308231 43.091084 82 53 64
1.125163 1.401423 43.100380 84 54 65
1.125365 1.494602 43.108139 85 54 66
1.125531 1.587762 43.114468 87 55 66
1.125662 1.680898 43.119499 87 55 67
1.125764 1.774010 43.123409 86 54 65
1.125842 1.867098 43.126373 84 54 64
1.125901 1.960167 43.128635 83 54 63
1.125947 2.053222 43.130424 81 53 62
1.125988 2.146275 43.131996 79 52 60
1.126031 2.239338 43.133617 78 52 60
1.126081 2.332423 43.135544 79 54 61
1.126146 2.425549 43.138035 81 56 63
1.126232 2.518732 43.141323 80 56 61
1.126344 2.611990 43.145615 78 54 58
1.126487 2.705342 43.151108 78 53 57
1.126666 2.798805 43.157959 78 53 57
1.126884 2.892397 43.166286 78 53 57
1.127142 2.986135 43.176193 79 53 57
1.127444 3.080032 43.187748 78 52 56
1.127790 3.174104 43.200996 77 51 55
1.128181 3.268363 43.215969 77 51 55
1.128617 3.362821 43.232674 76 51 55
1.129098 3.457491 43.251122 77 52 56
1.129625 3.552383 43.271313 77 53 57
1.130198 3.647510 43.293247 79 53 59
1.130816 3.742882 43.316936 82 53 61
1.131481 3.838515 43.342403 84 53 62
1.132193 3.934419 43.369667 85 54 62
1.132952 4.030612 43.398758 85 53 61
1.133761 4.127107 43.429722 85 52 60
1.134619 4.223921 43.462593 84 51 59
1.135528 4.321073 43.497425 83 51 57
1.136490 4.418578 43.534264 82 50 56
1.137505 4.516453 43.573154 81 49 55
1.138575 4.614717 43.614124 79 49 55
1.139699 4.713387 43.657211 79 49 55
1.140880 4.812475 43.702419 79 51 57
1.142115 4.911997 43.749756 78 51 58
1.143407 5.011967 43.799213 76 50 57
1.144752 5.112393 43.850765 77 51 58
1.146152 5.213286 43.904369 78 52 61
1.147604 5.314653 43.959988 78 53 61
1.149106 5.416500 44.017551 78 52 61
1.150658 5.518829 44.076992 76 50 61
1.152257 5.621643 44.138226 77 50 61
1.153900 5.724943 44.201172 77 51 62
1.155585 5.828725 44.265724 78 52 62
1.157309 5.932988 44.331776 79 52 62
1.159070 6.037722 44.399204 81 53 62
1.160863 6.142920 44.467888 82 54 63
1.162684 6.248568 44.537674 83 54 63
1.164531 6.354652 44.608402 84 55 65
1.166397 6.461151 44.679893 86 57 68
1.168278 6.568040 44.751945 88 60 71
1.170168 6.675292 44.824345 90 62 75
1.172061 6.782871 44.896847 90 63 78
1.173950 6.890741 44.969200 95 69 86
1.175828 6.998857 45.041134 119 92 112
1.177688 7.107176 45.112389 140 111 134
1.179523 7.215650 45.182686 127 96 121
1.181326 7.324230 45.251770 100 68 92
1.183092 7.432868 45.319389 91 58 80
1.184813 7.541519 45.385334 92 59 79
1.186487 7.650145 45.449440 93 60 78
1.188109 7.758710 45.511566 93 59 75
1.189677 7.867190 45.571648 92 58 74
1.191192 7.975569 45.629677 92 58 74
1.192654 8.083843 45.685692 94 58 74
1.194067 8.192020 45.739822 96 59 74
1.195436 8.300122 45.792240 99 61 74
1.196766 8.408179 45.843193 103 65 76
1.198065 8.516239 45.892971 108 70 79
1.199343 8.624357 45.941914 112 76 83
1.200609 8.732597 45.990395 112 76 84
1.201872 8.841034 46.038807 107 73 80
1.203145 8.949745 46.087559 101 69 77
1.204437 9.058812 46.137051 98 66 78
1.205759 9.168315 46.187664 97 65 80
1.207119 9.278335 46.239765 101 68 86
1.208526 9.388943 46.293663 108 73 94
1.209987 9.500207 46.349625 111 75 98
1.211507 9.612184 46.407860 110 73 97
1.213090 9.724916 46.468510 109 71 95
1.214738 9.838432 46.531635 110 71 95
1.216450 9.952749 46.597225 112 72 97
1.218225 10.067863 46.665203 117 77 100
1.220057 10.183747 46.735374 124 83 107
1.221939 10.300364 46.807491 130 89 113
1.223864 10.417645 46.881210 128 89 112
1.225819 10.535513 46.956120 120 83 105
1.227794 10.653865 47.031738 112 77 98
1.229772 10.772579 47.107521 109 77 96
1.231739 10.891521 47.182877 107 78 95
1.233678 11.010540 47.257160 104 78 94
1.235573 11.129477 47.329739 102 78 95
1.237406 11.248167 47.399956 102 79 96
1.239161 11.366442 47.467178 101 80 97
1.240822 11.484141 47.530819 100 80 97
1.242376 11.601110 47.590336 103 81 100
1.243811 11.717213 47.645287 107 82 102
1.245117 11.832332 47.695316 109 83 103
1.246289 11.946380 47.740208 111 85 104
1.247323 12.059295 47.779842 113 87 105
1.248222 12.171050 47.814247 116 91 106
1.248988 12.281657 47.843601 120 96 109
1.249630 12.391159 47.868198 123 101 111
1.250159 12.499632 47.888447 123 102 110
1.250587 12.607186 47.904877 121 100 107
1.250932 12.713958 47.918083 119 98 104
1.251210 12.820104 47.928741 119 97 102
1.251440 12.925790 47.937519 119 95 102
1.251638 13.031192 47.945118 119 93 102
1.251822 13.136481 47.952187 120 91 102
1.252008 13.241817 47.959309 121 92 105
1.252209 13.347338 47.966991 125 94 110
1.252434 13.453156 47.975609 127 95 116
1.252690 13.559347 47.985420 127 96 120
1.252980 13.665949 47.996525 126 95 123
1.253302 13.772955 48.008869 121 90 123
1.253651 13.880311 48.022240 113 82 119
1.254017 13.987915 48.036266 106 74 113
1.254388 14.095625 48.050446 105 71 110
1.254745 14.203257 48.064156 112 77 114
1.255072 14.310589 48.076660 127 91 122
1.255346 14.417377 48.087170 134 96 120
1.255547 14.523357 48.094856 127 89 106
1.255652 14.628263 48.098896 119 80 92
1.255642 14.731823 48.098492 115 77 84
1.255496 14.833788 48.092918 114 77 81
1.255200 14.933931 48.081554 112 76 79
1.254739 15.032063 48.063919 109 74 79
1.254106 15.128031 48.039650 106 73 78
1.253294 15.221732 48.008564 106 73 79
1.252304 15.313113 47.970631 108 75 82
1.251139 15.402174 47.925987 110 77 84
1.249805 15.488957 47.874897 109 76 84
1.248314 15.573560 47.817787 105 72 80
1.246678 15.656098 47.755135 100 69 76
1.216350 0.935548 43.039417 90 56 63
1.216776 1.028687 43.054501 88 56 63
1.217157 1.121849 43.067966 85 55 63
1.217491 1.215022 43.079784 83 54 64
1.217779 1.308197 43.089966 82 54 65
1.218021 1.401364 43.098553 82 53 65
1.218221 1.494515 43.105618 84 54 65
1.218381 1.587644 43.111271 85 54 66
1.218504 1.680748 43.115650 86 55 66
1.218597 1.773826 43.118927 86 54 65
1.218664 1.866878 43.121292 84 54 64
1.218711 1.959910 43.122978 83 54 63
1.218746 2.052927 43.124214 81 54 63
1.218776 2.145940 43.125259 79 52 62
1.218807 2.238961 43.126358 77 52 61
1.218847 2.332004 43.127781 78 53 62
1.218903 2.425084 43.129768 81 56 64
1.218982 2.518220 43.132553 80 56 62
1.219089 2.611429 43.136341 78 54 59
1.219230 2.704728 43.141315 78 53 57
1.219408 2.798136 43.147633 79 54 58
1.219628 2.891670 43.155422 79 54 58
1.219893 2.985345 43.164772 79 53 57
1.220203 3.079177 43.175755 79 52 57
1.220561 3.173180 43.188423 78 52 56
1.220968 3.267367 43.202808 77 52 55
1.221423 3.361752 43.218922 77 52 55
1.221928 3.456345 43.236786 77 52 56
1.222482 3.551159 43.256397 78 52 57
1.223086 3.646206 43.277779 79 52 58
1.223741 3.741500 43.300941 82 52 60
1.224447 3.837054 43.325912 84 52 61
1.225205 3.932883 43.352730 85 52 60
1.226016 4.029002 43.381424 85 52 59
1.226881 4.125428 43.412052 84 51 58
1.227803 4.222179 43.444660 83 50 56
1.228782 4.319272 43.479301 83 50 55
1.229820 4.416727 43.516029 81 49 54
1.230918 4.514560 43.554886 79 48 53
1.232077 4.612791 43.595913 79 49 54
1.233299 4.711435 43.639137 79 50 55
