ply
format ascii 1.0
element vertex 1216
property float x
property float y
property float z
property uchar red
property uchar green
property uchar blue
end_header
-3.079776 0.007604 42.157024 132 78 104
-3.075432 0.098342 42.097569 132 78 105
-3.071007 0.188818 42.036995 133 77 106
-3.066505 0.279026 41.975376 133 77 105
-3.061930 0.368959 41.912750 132 76 104
-3.057283 0.458612 41.849140 131 76 104
-3.052564 0.547978 41.784550 129 75 103
-3.047776 0.637050 41.718998 126 74 101
-3.042918 0.725824 41.652508 124 73 100
-3.037996 0.814293 41.585129 127 78 103
-3.033015 0.902455 41.516953 131 84 107
-3.027984 0.990306 41.448082 134 89 110
-3.022913 1.077846 41.378670 132 89 108
-3.017817 1.165077 41.308914 130 88 105
-3.012711 1.252003 41.239025 132 91 108
-3.007614 1.338632 41.169250 136 95 112
-3.002543 1.424972 41.099842 135 95 112
-2.997519 1.511037 41.031063 135 95 112
-2.992559 1.596840 40.963177 136 96 113
-2.987683 1.682397 40.896435 138 98 114
-2.982908 1.767726 40.831078 141 99 116
-2.978250 1.852846 40.767307 146 100 116
-2.973721 1.937775 40.705315 148 99 116
-2.969333 2.022534 40.645256 149 97 115
-2.965097 2.107141 40.587273 154 99 118
-2.961020 2.191615 40.531452 158 99 121
-2.957106 2.275975 40.477882 154 93 118
-2.953360 2.360238 40.426609 148 86 112
-2.949784 2.444421 40.377659 148 85 113
-2.946378 2.528538 40.331028 149 85 115
-2.943139 2.612603 40.286694 149 86 116
-2.940064 2.696628 40.244606 150 87 117
-2.937148 2.780621 40.204689 150 89 118
-2.934382 2.864588 40.166832 149 90 118
-2.931756 2.948534 40.130886 148 91 118
-2.929256 3.032454 40.096672 147 92 118
-2.926867 3.116345 40.063957 147 92 117
-2.924567 3.200193 40.032482 148 92 115
-2.922335 3.283981 40.001926 150 93 116
-2.920144 3.367685 39.971931 156 97 120
-2.917965 3.451273 39.942104 157 99 123
-2.915766 3.534709 39.911999 149 92 117
-2.913513 3.617949 39.881161 135 81 105
-2.911171 3.700943 39.849113 123 73 96
-2.908706 3.783636 39.815361 112 67 89
-2.906080 3.865973 39.779430 101 62 82
-2.903263 3.947892 39.740860 92 59 76
-2.900221 4.029334 39.699226 87 59 72
-2.896929 4.110241 39.654160 84 62 71
-2.893364 4.190558 39.605358 80 62 68
-2.889509 4.270237 39.552589 75 59 63
-2.885354 4.349236 39.495712 68 52 57
-2.880895 4.427523 39.434681 61 45 49
-2.876137 4.505078 39.369545 54 35 40
-2.871090 4.581891 39.300461 52 28 35
-2.865773 4.657968 39.227684 58 28 37
-2.860211 4.733325 39.151546 69 35 45
-2.854434 4.807992 39.072472 80 42 53
-2.848479 4.882012 38.990955 89 47 59
-2.842386 4.955442 38.907558 96 50 62
-2.836200 5.028346 38.822880 101 52 63
-2.829966 5.100798 38.737545 105 53 63
-2.823731 5.172881 38.652199 108 54 64
-2.817542 5.244683 38.567490 110 54 65
-2.811446 5.316294 38.484039 112 54 66
-2.805486 5.387806 38.402458 115 54 66
-2.799703 5.459311 38.323292 118 55 68
-2.794133 5.530899 38.247051 122 56 69
-2.788809 5.602650 38.174168 125 57 71
-2.783756 5.674641 38.105011 127 58 73
-2.778996 5.746939 38.039852 129 58 73
-2.774542 5.819598 37.978886 128 57 72
-2.770400 5.892658 37.922192 127 57 71
-2.766570 5.966146 37.869766 125 57 70
-2.763044 6.040073 37.821503 124 57 70
-2.759808 6.114432 37.777195 123 58 71
-2.756839 6.189201 37.736557 122 59 71
-2.754110 6.264343 37.699207 122 60 73
-2.751590 6.339802 37.664707 122 62 75
-2.749241 6.415513 37.632553 121 61 74
-2.747024 6.491399 37.602215 118 58 71
-2.744900 6.567374 37.573132 116 56 66
-2.742827 6.643347 37.544754 114 54 61
-2.740766 6.719229 37.516548 125 64 68
-2.738683 6.794932 37.488026 147 85 86
-2.736544 6.870375 37.458752 155 92 93
-2.734324 6.945486 37.428371 142 78 79
-2.732004 7.020206 37.396614 127 63 65
-2.729570 7.094495 37.363297 121 57 61
-2.727017 7.168327 37.328350 119 56 61
-2.724347 7.241695 37.291794 117 54 60
-2.721566 7.314611 37.253731 115 53 59
-2.718690 7.387102 37.214363 114 53 58
-2.715736 7.459211 37.173935 113 52 59
-2.712729 7.530997 37.132771 114 51 60
-2.709693 7.602524 37.091206 114 51 60
-2.706653 7.673862 37.049603 113 51 61
-2.703637 7.745087 37.008308 112 52 62
-2.700668 7.816272 36.967667 111 52 62
-2.697768 7.887485 36.927979 109 51 61
-2.694955 7.958781 36.889473 106 52 61
-2.692245 8.030218 36.852371 104 52 63
-2.689648 8.101836 36.816822 103 54 65
-2.687170 8.173665 36.782909 101 55 68
-2.684815 8.245723 36.750668 99 55 69
-2.682581 8.318020 36.720097 96 52 69
-2.680467 8.390556 36.691151 99 54 72
-2.678466 8.463328 36.663765 114 68 87
-2.676572 8.536324 36.637844 126 79 97
-2.674779 8.609529 36.613293 121 73 91
-2.673079 8.682934 36.590023 108 60 76
-2.671466 8.756521 36.567940 100 53 67
-2.669934 8.830282 36.546967 99 52 63
-2.668477 8.904204 36.527027 97 52 60
-3.034842 -1.284103 42.805019 119 71 86
-3.032765 -1.191015 42.775738 118 69 87
-3.030494 -1.097982 42.743698 117 68 89
-3.028018 -1.005019 42.708782 117 68 91
-3.025335 -0.912144 42.670933 117 69 93
-3.022445 -0.819377 42.630173 119 71 96
-3.019354 -0.726736 42.586571 120 73 97
-3.016071 -0.634244 42.540268 121 75 97
-3.012609 -0.541919 42.491444 121 74 96
-3.008984 -0.449779 42.440308 120 72 94
-3.005210 -0.357843 42.387085 120 72 93
-3.001305 -0.266125 42.332005 123 75 96
-2.997283 -0.174637 42.275276 128 78 99
-2.993159 -0.083391 42.217102 131 81 103
-2.988943 0.007605 42.157642 132 80 104
-2.984644 0.098341 42.097012 131 77 105
-2.980270 0.188810 42.035316 131 76 105
-2.975823 0.279008 41.972599 131 75 104
-2.971307 0.368926 41.908897 131 75 104
-2.966722 0.458558 41.844231 131 77 105
-2.962069 0.547900 41.778603 131 78 106
-2.957349 0.636944 41.712021 128 76 104
-2.952563 0.725685 41.644524 126 75 102
-2.947716 0.814117 41.576164 128 79 104
-2.942814 0.902239 41.507023 132 84 107
-2.937866 0.990046 41.437225 134 88 108
-2.932881 1.077540 41.366920 134 89 107
-2.927875 1.164721 41.296310 133 89 106
-2.922862 1.251596 41.225605 134 92 107
-2.917861 1.338170 41.155056 136 95 111
-2.912887 1.424455 41.084915 136 95 111
-2.907962 1.510462 41.015442 135 96 112
-2.903103 1.596205 40.946903 136 96 112
-2.898327 1.681702 40.879551 138 97 113
-2.893652 1.766970 40.813610 142 99 114
-2.889092 1.852027 40.749290 146 100 115
-2.884659 1.936893 40.686771 148 98 115
-2.880366 2.021586 40.626213 149 97 114
-2.876220 2.106127 40.567745 152 97 116
-2.872230 2.190534 40.511463 155 96 118
-2.868400 2.274826 40.457439 152 92 115
-2.864733 2.359019 40.405727 148 87 111
-2.861232 2.443130 40.356339 147 84 111
-2.857895 2.527174 40.309273 147 84 112
-2.854721 2.611164 40.264503 148 85 113
-2.851706 2.695112 40.221981 149 86 115
-2.848845 2.779025 40.181625 150 88 117
-2.846129 2.862912 40.143322 150 91 119
-2.843548 2.946773 40.106918 150 92 120
-2.841090 3.030607 40.072247 148 93 120
-2.838738 3.114409 40.039074 148 93 119
-2.836474 3.198167 40.007141 149 92 117
-2.834276 3.281864 39.976135 151 93 117
-2.832119 3.365476 39.945713 154 95 118
-2.829975 3.448973 39.915478 154 95 119
-2.827816 3.532320 39.885017 147 90 113
-2.825608 3.615473 39.853878 135 81 104
-2.823319 3.698387 39.821598 124 75 96
-2.820916 3.781007 39.787697 112 69 88
-2.818365 3.863279 39.751720 101 64 81
-2.815635 3.945146 39.713215 91 60 74
-2.812697 4.026548 39.671776 84 59 69
-2.809525 4.107430 39.627033 80 60 67
-2.806098 4.187737 39.578693 77 60 66
-2.802398 4.267423 39.526516 72 57 61
-2.798417 4.346445 39.470364 66 51 55
-2.794150 4.424772 39.410175 59 44 47
-2.789599 4.502381 39.345985 53 35 39
-2.784774 4.579264 39.277931 51 28 33
-2.779691 4.655421 39.206238 57 29 36
-2.774372 4.730867 39.131218 68 35 44
-2.768845 4.805628 39.053265 79 41 51
-2.763144 4.879745 38.972847 88 46 56
-2.757305 4.953268 38.890491 94 49 60
-2.751369 5.026259 38.806767 99 51 62
-2.745378 5.098788 38.722279 104 53 62
-2.739378 5.170933 38.637642 107 54 63
-2.733411 5.242779 38.553486 109 55 65
-2.727522 5.314413 38.470425 112 55 65
-2.721752 5.385924 38.389042 115 55 66
-2.716141 5.457404 38.309898 118 56 67
-2.710724 5.528937 38.233490 121 57 70
-2.705532 5.600608 38.160263 123 59 72
-2.700592 5.672494 38.090591 125 60 73
-2.695926 5.744660 38.024773 127 60 74
-2.691547 5.817165 37.963005 126 58 73
-2.687463 5.890050 37.905411 125 57 71
-2.683677 5.963348 37.852005 125 58 70
-2.680182 6.037072 37.802708 124 58 70
-2.676966 6.111221 37.757355 123 58 70
-2.674011 6.185778 37.715683 122 59 70
-2.671294 6.260711 37.677349 121 59 70
-2.668783 6.335970 37.641941 120 59 71
-2.666447 6.411496 37.608990 120 58 72
-2.664249 6.487217 37.577988 119 58 71
-2.662152 6.563051 37.548405 118 56 68
-2.660117 6.638915 37.519707 118 56 65
-2.658108 6.714721 37.491379 123 59 67
-2.656092 6.790385 37.462940 131 67 73
-2.654038 6.865829 37.433964 134 69 74
-2.651921 6.940983 37.404106 131 65 69
-2.649722 7.015790 37.373085 126 61 65
-2.647428 7.090209 37.340729 122 57 64
-2.645032 7.164216 37.306942 120 55 63
-2.642537 7.237802 37.271744 118 54 63
-2.639948 7.310978 37.235229 116 54 61
-2.637279 7.383771 37.197582 115 53 60
-2.634546 7.456223 37.159039 116 53 61
-2.631772 7.528389 37.119907 116 52 61
-2.628979 7.600333 37.080517 115 52 62
-2.626191 7.672123 37.041203 115 52 63
-2.623434 7.743833 37.002316 114 52 63
-2.620730 7.815534 36.964176 112 52 63
-2.618100 7.887293 36.927082 109 51 62
-2.615560 7.959166 36.891254 105 51 61
-2.613124 8.031204 36.856895 104 52 62
-2.610803 8.103450 36.824154 103 54 65
-2.608601 8.175930 36.793098 102 55 68
-2.606521 8.248660 36.763760 99 55 69
-2.604561 8.321648 36.736111 97 54 69
-2.602717 8.394891 36.710102 101 56 73
-2.600983 8.468380 36.685650 112 67 84
-2.599351 8.542100 36.662636 121 74 91
-2.597814 8.616034 36.640949 116 68 85
-2.596363 8.690161 36.620480 105 57 73
-2.594989 8.764463 36.601105 99 52 65
-2.593685 8.838921 36.582722 98 51 62
-2.592445 8.913517 36.565228 97 51 60
-2.944615 -1.284997 42.834797 114 67 82
-2.942413 -1.191767 42.802765 114 67 85
-2.940026 -1.098607 42.768044 115 68 88
-2.937448 -1.005531 42.730541 116 69 91
-2.934677 -0.912557 42.690231 117 70 94
-2.931715 -0.819703 42.647148 119 72 96
-2.928569 -0.726989 42.601372 120 74 97
-2.925247 -0.634434 42.553051 121 76 97
-2.921762 -0.542058 42.502357 120 75 96
-2.918128 -0.449877 42.449493 117 72 93
-2.914360 -0.357907 42.394680 119 73 93
-2.910472 -0.266163 42.338123 123 77 96
-2.906479 -0.174656 42.280029 129 81 100
-2.902392 -0.083397 42.220577 133 83 104
-2.898221 0.007605 42.159904 132 80 104
-2.893974 0.098343 42.098129 129 76 102
-2.889657 0.188810 42.035320 129 75 102
-2.885272 0.279000 41.971535 129 74 102
-2.880820 0.368907 41.906784 129 74 103
-2.876304 0.458524 41.841087 131 77 106
-2.871723 0.547845 41.774445 134 81 109
-2.867078 0.636865 41.706875 133 80 109
-2.862371 0.725578 41.638401 131 79 107
-2.857606 0.813979 41.569088 132 81 107
-2.852789 0.902065 41.499020 134 84 107
-2.847929 0.989834 41.428322 135 87 107
-2.843037 1.077285 41.357155 136 89 108
-2.838126 1.164422 41.285713 136 91 108
-2.833211 1.251250 41.214218 137 92 109
-2.828309 1.337775 41.142918 138 95 111
-2.823439 1.424009 41.072063 138 95 112
-2.818617 1.509964 41.001923 137 95 112
-2.813862 1.595654 40.932755 137 95 112
-2.809191 1.681095 40.864799 140 96 113
-2.804619 1.766307 40.798302 143 97 114
-2.800161 1.851307 40.733444 146 97 115
-2.795829 1.936114 40.670422 148 96 115
-2.791633 2.020749 40.609386 149 95 115
-2.787582 2.105230 40.550457 150 94 116
-2.783683 2.189576 40.493736 150 91 116
-2.779939 2.273805 40.439285 149 89 115
-2.776356 2.357934 40.387150 147 86 113
-2.772932 2.441981 40.337353 146 83 112
-2.769669 2.525958 40.289879 145 82 112
-2.766563 2.609880 40.244705 146 83 113
-2.763612 2.693757 40.201771 147 85 113
-2.760808 2.777599 40.160992 148 88 116
-2.758146 2.861410 40.122257 150 90 119
-2.755613 2.945193 40.085415 149 92 120
-2.753198 3.028947 40.050289 148 93 120
-2.750886 3.112666 40.016655 148 93 119
-2.748659 3.196338 39.984253 148 92 117
-2.746495 3.279947 39.952782 149 92 117
-2.744372 3.363470 39.921898 150 92 117
-2.742264 3.446877 39.891228 149 91 115
-2.740142 3.530136 39.860363 144 88 111
-2.737977 3.613204 39.828861 135 83 104
-2.735738 3.696036 39.796291 125 77 97
-2.733392 3.778582 39.762180 113 71 89
-2.730911 3.860788 39.726086 102 67 82
-2.728264 3.942599 39.687576 91 62 74
-2.725424 4.023958 39.646255 81 57 67
-2.722365 4.104811 39.601768 75 56 63
-2.719069 4.185105 39.553814 72 57 62
-2.715519 4.264794 39.502171 68 56 59
-2.711704 4.343837 39.446682 63 51 53
-2.707621 4.422201 39.387280 57 44 46
-2.703270 4.499865 39.323994 52 35 39
-2.698660 4.576816 39.256931 51 30 34
-2.693805 4.653054 39.186302 58 31 37
-2.688724 4.728590 39.112385 68 36 44
-2.683442 4.803449 39.035557 80 42 51
-2.677989 4.877666 38.956242 89 46 57
-2.672401 4.951287 38.874939 95 49 60
-2.666712 5.024371 38.792194 99 51 62
-2.660964 5.096984 38.708576 103 53 62
-2.655197 5.169199 38.624687 106 54 63
-2.649453 5.241098 38.541130 109 55 65
-2.643773 5.312765 38.458496 112 55 65
-2.638196 5.384287 38.377373 115 56 66
-2.632760 5.455751 38.298298 118 59 69
-2.627500 5.527244 38.221783 122 60 72
-2.622447 5.598848 38.148266 124 61 73
-2.617626 5.670640 38.078144 126 61 74
-2.613060 5.742689 38.011719 126 61 75
-2.608763 5.815052 37.949219 125 58 72
-2.604746 5.887778 37.890785 124 57 71
-2.601012 5.960898 37.836456 124 57 70
-2.597556 6.034433 37.786186 123 58 69
-2.594370 6.108387 37.739845 122 58 69
-2.591439 6.182747 37.697201 121 58 69
-2.588740 6.257485 37.657940 120 57 68
-2.586247 6.332560 37.621681 120 57 69
-2.583931 6.407916 37.587990 120 57 71
-2.581758 6.483486 37.556381 121 58 71
-2.579694 6.559196 37.526348 120 57 70
-2.577702 6.634964 37.497379 119 56 68
-2.575750 6.710709 37.468975 121 57 68
-2.573803 6.786348 37.440662 124 58 69
-2.571835 6.861806 37.412033 126 59 68
-2.569821 6.937016 37.382732 125 58 67
-2.567741 7.011922 37.352482 123 56 65
-2.565584 7.086483 37.321098 120 54 64
-2.563343 7.160673 37.288494 119 54 63
-2.561017 7.234485 37.254662 118 53 63
-2.558613 7.307928 37.219696 117 53 62
-2.556143 7.381027 37.183758 118 53 63
-2.553621 7.453823 37.147079 118 53 63
-2.551069 7.526369 37.109947 118 53 64
-2.548507 7.598726 37.072678 118 53 65
-2.545958 7.670963 37.035603 117 53 66
-2.543446 7.743151 36.999054 116 53 66
-2.540991 7.815360 36.963352 114 53 66
-2.538614 7.887654 36.928772 111 53 65
-2.536329 7.960088 36.895527 107 53 64
-2.534150 8.032714 36.863827 106 53 63
-2.532085 8.105571 36.833794 104 54 64
-2.530140 8.178684 36.805492 102 54 65
-2.528315 8.252068 36.778946 100 55 67
-2.526608 8.325727 36.754116 100 56 68
-2.525015 8.399656 36.730942 103 58 71
-2.523528 8.473845 36.709320 109 64 78
-2.522140 8.548271 36.689121 114 67 82
-2.520840 8.622914 36.670212 111 63 77
-2.519619 8.697750 36.652462 103 55 68
-2.518469 8.772752 36.635719 99 50 63
-2.517379 8.847896 36.619865 98 49 61
-2.516341 8.923154 36.604763 97 51 60
-2.854389 -1.285948 42.866501 111 65 79
-2.852070 -1.192572 42.831676 112 66 83
-2.849577 -1.099280 42.794239 113 68 87
-2.846906 -1.006086 42.754124 115 69 91
-2.844056 -0.913008 42.711323 117 71 94
-2.841031 -0.820063 42.665894 118 72 96
-2.837837 -0.727271 42.617924 119 74 97
-2.834483 -0.634651 42.567562 120 75 97
-2.830982 -0.542219 42.514988 119 74 96
-2.827347 -0.449992 42.460392 116 72 92
-2.823591 -0.357986 42.403980 118 74 94
-2.819727 -0.266212 42.345955 124 78 97
-2.815768 -0.174683 42.286503 128 82 101
-2.811725 -0.083408 42.225780 132 83 103
-2.807606 0.007606 42.163918 130 80 103
-2.803416 0.098350 42.101009 127 76 100
-2.799162 0.188819 42.037121 127 74 101
-2.794845 0.279005 41.972286 128 74 102
-2.790466 0.368905 41.906521 128 74 103
-2.786025 0.458510 41.839828 130 77 107
-2.781522 0.547816 41.772209 135 82 112
-2.776959 0.636816 41.703678 136 83 113
-2.772337 0.725506 41.634266 135 82 111
-2.767660 0.813880 41.564034 135 82 109
-2.762935 0.901935 41.493073 135 84 108
-2.758170 0.989671 41.421509 136 86 108
-2.753375 1.077086 41.349506 137 89 108
-2.748565 1.164184 41.277260 138 91 108
-2.743753 1.250970 41.205002 138 93 110
-2.738957 1.337452 41.132977 139 94 112
-2.734194 1.423641 41.061436 141 95 113
-2.729480 1.509548 40.990643 141 96 114
-2.724833 1.595190 40.920864 141 95 113
-2.720270 1.680582 40.852333 142 95 113
-2.715805 1.765744 40.785286 144 95 114
-2.711453 1.850692 40.719921 146 95 115
-2.707224 1.935447 40.656414 147 94 115
-2.703129 2.020029 40.594917 148 92 115
-2.699176 2.104455 40.535549 148 90 115
-2.695371 2.188747 40.478413 147 88 115
-2.691719 2.272920 40.423557 148 87 117
-2.688221 2.356993 40.371033 148 87 118
-2.684879 2.440982 40.320850 147 86 117
-2.681693 2.524900 40.272999 146 84 116
-2.678659 2.608760 40.227440 146 84 115
-2.675775 2.692574 40.184113 146 86 114
-2.673033 2.776350 40.142941 147 88 116
-2.670426 2.860093 40.103794 148 90 118
-2.667945 2.943805 40.066525 148 92 119
-2.665576 3.027485 40.030960 147 93 119
-2.663306 3.111126 39.996864 147 93 117
-2.661117 3.194718 39.963985 146 92 116
-2.658989 3.278244 39.932037 147 91 115
-2.656901 3.361681 39.900677 148 91 115
-2.654828 3.445003 39.869537 146 90 113
-2.652743 3.528176 39.838230 142 87 109
-2.650619 3.611160 39.806335 135 84 103
-2.648427 3.693912 39.773418 125 79 96
-2.646138 3.776383 39.739037 116 75 91
-2.643723 3.858522 39.702766 105 72 85
-2.641154 3.940276 39.664192 92 65 76
-2.638406 4.021590 39.622925 78 57 66
-2.635456 4.102411 39.578621 70 54 60
-2.632285 4.182691 39.530998 68 56 59
-2.628877 4.262381 39.479820 65 55 57
-2.625223 4.341443 39.424942 60 50 51
-2.621317 4.419844 39.366280 55 43 44
-2.617160 4.497561 39.303852 51 35 38
-2.612758 4.574580 39.237751 51 30 34
-2.608124 4.650899 39.168156 58 30 36
-2.603275 4.726528 39.095329 69 36 44
-2.598233 4.801486 39.019608 82 43 53
-2.593024 4.875807 38.941395 91 47 59
-2.587682 4.949532 38.861156 96 49 62
-2.582238 5.022715 38.779408 99 50 62
-2.576730 5.095418 38.696686 102 51 62
-2.571196 5.167712 38.613575 105 52 63
-2.565674 5.239673 38.530647 108 54 65
-2.560203 5.311383 38.448490 111 55 66
-2.554821 5.382925 38.367668 114 57 68
-2.549564 5.454387 38.288719 121 62 73
-2.544466 5.525851 38.212151 127 66 78
-2.539555 5.597401 38.138409 127 66 78
-2.534860 5.669113 38.067890 126 64 77
-2.530401 5.741058 38.000927 125 62 76
-2.526195 5.813296 37.937759 124 59 73
-2.522252 5.885876 37.878548 123 57 71
-2.518577 5.958836 37.823368 123 57 69
-2.515170 6.032199 37.772202 122 58 69
-2.512023 6.105974 37.724941 122 58 69
-2.509123 6.180153 37.681389 122 58 68
-2.506452 6.254715 37.641270 121 58 68
-2.503985 6.329622 37.604229 121 58 69
-2.501697 6.404826 37.569859 121 58 71
-2.499556 6.480263 37.537708 122 58 71
-2.497530 6.555864 37.507286 122 58 71
-2.495587 6.631553 37.478100 122 57 70
-2.493694 6.707251 37.449669 123 56 69
-2.491820 6.782879 37.421528 124 56 69
-2.489938 6.858366 37.393276 124 56 67
-2.488026 6.933643 37.364555 123 55 67
-2.486064 7.008658 37.335094 121 54 66
-2.484040 7.083369 37.304699 119 53 65
-2.481948 7.157750 37.273270 119 53 64
-2.479785 7.231792 37.240799 118 53 64
-2.477558 7.305504 37.207352 118 54 64
-2.475277 7.378910 37.173092 119 54 64
-2.472955 7.452046 37.138226 119 54 65
-2.470612 7.524967 37.103035 120 55 66
-2.468267 7.597731 37.067822 120 54 68
-2.465942 7.670403 37.032898 119 54 69
-2.463658 7.743055 36.998600 118 55 70
-2.461435 7.815755 36.965221 116 55 69
-2.459292 7.888566 36.933041 113 54 67
-2.457243 7.961541 36.902267 110 54 65
-2.455300 8.034732 36.873085 107 54 64
-2.453472 8.108175 36.845627 105 55 63
-2.451762 8.181895 36.819946 103 55 63
-2.450171 8.255906 36.796055 101 55 64
-2.448696 8.330209 36.773907 101 56 66
-2.447332 8.404799 36.753429 103 58 68
-2.446072 8.479657 36.734501 106 61 72
-2.444906 8.554764 36.716988 108 62 74
-2.443824 8.630091 36.700733 107 59 71
-2.442815 8.705610 36.685581 102 53 65
-2.441869 8.781289 36.671371 99 49 61
-2.440974 8.857097 36.657948 99 49 60
-2.440123 8.933001 36.645157 99 50 61
-2.439304 9.008972 36.632866 98 51 61
-2.764140 -1.286952 42.899971 110 63 77
-2.761716 -1.193427 42.862354 111 65 82
-2.759129 -1.099998 42.822197 113 67 87
-2.756375 -1.006683 42.779465 115 69 91
-2.753457 -0.913496 42.734177 117 71 94
-2.750379 -0.820457 42.686394 118 72 95
-2.747146 -0.727584 42.636230 118 73 95
-2.743770 -0.634893 42.583836 118 74 95
-2.740262 -0.542402 42.529385 118 74 94
-2.736633 -0.450127 42.473061 117 73 93
-2.732896 -0.358079 42.415062 120 76 95
-2.729064 -0.266273 42.355579 125 80 99
-2.725146 -0.174717 42.294781 128 82 101
-2.721153 -0.083422 42.232815 129 82 102
-2.717092 0.007607 42.169777 130 80 102
-2.712967 0.098361 42.105766 129 76 101
-2.708783 0.188835 42.040817 128 75 102
-2.704540 0.279023 41.974968 128 74 102
-2.700239 0.368920 41.908218 128 74 103
-2.695880 0.458518 41.840561 130 76 106
-2.691462 0.547813 41.772003 135 81 111
-2.686987 0.636799 41.702553 138 83 114
-2.682457 0.725470 41.632236 137 83 113
-2.677875 0.813823 41.561123 137 83 111
-2.673247 0.901854 41.489304 136 84 109
-2.668583 0.989561 41.416908 136 86 108
-2.663892 1.076945 41.344105 137 88 108
-2.659188 1.164010 41.271095 138 90 108
-2.654485 1.250761 41.198101 139 91 109
-2.649799 1.337205 41.125374 140 92 111
-2.645146 1.423354 41.053169 143 96 115
-2.640545 1.509221 40.981754 144 97 117
-2.636010 1.594820 40.911377 144 97 116
-2.631559 1.680169 40.842293 144 95 116
-2.627205 1.765286 40.774719 145 94 116
-2.622962 1.850189 40.708858 146 94 116
-2.618840 1.934898 40.644886 146 92 116
-2.614849 2.019433 40.582947 145 89 115
-2.610997 2.103812 40.523163 144 87 114
-2.607290 2.188056 40.465626 144 85 115
-2.603730 2.272180 40.410389 147 87 119
-2.600322 2.356203 40.357498 151 91 125
-2.597066 2.440141 40.306957 153 92 125
-2.593960 2.524006 40.258747 152 91 123
-2.591001 2.607813 40.212830 150 89 121
-2.588187 2.691571 40.169144 149 90 119
-2.585510 2.775289 40.127598 148 90 118
-2.582962 2.858971 40.088058 147 91 118
-2.580534 2.942619 40.050381 146 92 117
-2.578215 3.026231 40.014381 145 91 116
-2.575989 3.109802 39.979836 144 91 114
-2.573840 3.193319 39.946487 144 91 113
-2.571751 3.276767 39.914055 145 91 112
-2.569698 3.360125 39.882202 146 90 113
-2.567661 3.443365 39.850582 145 90 112
-2.565613 3.526455 39.818806 141 87 108
-2.563530 3.609359 39.786476 134 83 102
-2.561385 3.692032 39.753174 125 80 96
-2.559149 3.774430 39.718483 118 79 94
-2.556798 3.856503 39.681988 109 76 90
-2.554305 3.938199 39.643288 94 68 79
-2.551646 4.019468 39.602020 78 58 67
-2.548799 4.100258 39.557846 68 54 59
-2.545748 4.180521 39.510490 64 54 57
-2.542477 4.260212 39.459732 62 53 55
-2.538977 4.339292 39.405407 57 49 50
-2.535242 4.417728 39.347439 53 42 43
-2.531273 4.495498 39.285831 49 34 36
-2.527073 4.572586 39.220650 50 29 33
-2.522654 4.648989 39.152065 57 30 36
-2.518030 4.724711 39.080303 69 36 44
-2.513222 4.799773 39.005680 81 42 54
-2.508253 4.874200 38.928562 91 46 60
-2.503152 4.948033 38.849392 96 48 62
-2.497949 5.021321 38.768642 99 48 62
-2.492679 5.094122 38.686844 101 49 62
-2.487375 5.166502 38.604530 104 51 63
-2.482075 5.238533 38.522270 107 52 65
-2.476814 5.310296 38.440624 110 54 66
-2.471629 5.381870 38.360149 115 58 69
-2.466553 5.453340 38.281372 125 66 78
-2.461620 5.524789 38.204803 132 72 85
-2.456857 5.596298 38.130894 132 70 83
-2.452293 5.667945 38.060047 128 65 79
-2.447948 5.739802 37.992611 125 62 77
-2.443839 5.811930 37.928844 124 58 74
-2.439979 5.884382 37.868931 123 57 72
-2.436373 5.957199 37.812973 123 57 70
-2.433023 6.030408 37.760983 123 57 70
-2.429924 6.104023 37.712879 123 58 70
-2.427065 6.178040 37.668503 123 59 69
-2.424429 6.252444 37.627598 123 59 69
-2.421997 6.327202 37.589848 123 59 69
-2.419744 6.402271 37.554874 123 59 70
-2.417641 6.477593 37.522243 123 59 71
-2.415660 6.553104 37.491497 123 59 71
-2.413769 6.628730 37.462151 123 58 71
-2.411938 6.704398 37.433739 123 57 71
-2.410139 6.780030 37.405807 123 56 70
-2.408344 6.855556 37.377960 123 55 70
-2.406533 6.930913 37.349846 123 55 69
-2.404686 7.006046 37.321178 122 54 68
-2.402791 7.080913 37.291767 120 54 67
-2.400841 7.155489 37.261497 120 54 67
-2.398834 7.229764 37.230350 119 54 66
-2.396774 7.303743 37.198383 118 54 66
-2.394670 7.377450 37.165741 119 55 67
-2.392537 7.450922 37.132618 120 56 69
-2.390389 7.524206 37.099285 121 56 70
-2.388246 7.597363 37.066029 122 56 71
-2.386128 7.670456 37.033154 121 56 72
-2.384055 7.743553 37.000977 120 56 73
-2.382046 7.816722 36.969795 118 56 72
-2.380118 7.890025 36.939873 115 56 70
-2.378284 7.963515 36.911415 112 55 66
-2.376556 8.037241 36.884602 109 55 64
-2.374943 8.111240 36.859554 106 54 62
-2.373446 8.185535 36.836330 104 55 61
-2.372066 8.260139 36.814919 102 55 60
-2.370801 8.335052 36.795284 102 56 62
-2.369645 8.410265 36.777332 103 57 63
-2.368588 8.485760 36.760941 105 58 65
-2.367623 8.561512 36.745949 106 58 66
-2.366736 8.637489 36.732193 106 56 66
-2.365918 8.713659 36.719501 104 53 63
-2.365157 8.789985 36.707684 102 51 61
-2.364441 8.866428 36.696568 101 50 61
-2.363759 8.942953 36.685982 101 51 62
-2.363100 9.019521 36.675758 101 52 63
-2.673846 -1.288004 42.935051 110 63 79
-2.671332 -1.194326 42.894672 112 65 84
-2.668663 -1.100759 42.851822 114 68 87
-2.665841 -1.007319 42.806496 115 70 90
-2.662867 -0.914021 42.758743 117 71 93
-2.659746 -0.820885 42.708630 117 72 94
-2.656487 -0.727926 42.656296 117 73 94
-2.653098 -0.635162 42.601887 117 73 95
-2.649591 -0.542609 42.545570 117 74 95
-2.645977 -0.450280 42.487541 118 74 95
-2.642268 -0.358188 42.427982 121 77 97
-2.638474 -0.266345 42.367062 125 81 100
-2.634605 -0.174759 42.304939 128 81 102
-2.630670 -0.083439 42.241745 129 81 102
-2.626673 0.007608 42.177567 129 79 101
-2.622619 0.098377 42.112476 128 76 101
-2.618511 0.188861 42.046505 128 75 101
-2.614349 0.279055 41.979675 128 74 102
-2.610133 0.368953 41.911976 128 74 103
-2.605862 0.458549 41.843399 130 76 106
-2.601537 0.547839 41.773941 135 80 111
-2.597156 0.636815 41.703606 138 82 113
-2.592724 0.725474 41.632431 138 83 113
-2.588243 0.813810 41.560474 138 82 110
-2.583719 0.901822 41.487843 137 83 109
-2.579162 0.989507 41.414654 136 83 107
-2.574580 1.076867 41.341084 135 84 106
-2.569987 1.163904 41.267342 136 86 107
-2.565398 1.250625 41.193642 139 89 109
-2.560827 1.337038 41.120247 142 92 112
-2.556290 1.423154 41.047405 144 96 116
-2.551805 1.508986 40.975384 145 97 117
-2.547387 1.594550 40.904438 145 97 117
-2.543051 1.679862 40.834812 145 96 118
-2.538811 1.764940 40.766735 145 95 117
-2.534680 1.849805 40.700394 145 93 117
-2.530668 1.934474 40.635967 144 91 117
-2.526784 2.018968 40.573605 144 89 118
-2.523036 2.103307 40.513420 144 87 118
-2.519429 2.187508 40.455502 145 87 119
-2.515966 2.271590 40.399906 148 89 124
-2.512650 2.355571 40.346661 154 93 129
-2.509482 2.439464 40.295780 156 95 130
-2.506459 2.523285 40.247238 154 93 128
-2.503579 2.607045 40.200989 151 92 124
-2.500837 2.690755 40.156963 149 92 122
-2.498227 2.774422 40.115059 148 93 120
-2.495742 2.858050 40.075153 146 93 118
-2.493371 2.941641 40.037079 144 93 116
-2.491103 3.025194 40.000664 142 91 113
-2.488924 3.108700 39.965679 141 90 112
-2.486819 3.192150 39.931866 142 90 111
-2.484768 3.275527 39.898945 144 91 111
-2.482754 3.358810 39.866596 146 91 112
-2.480754 3.441974 39.834480 145 89 110
-2.478745 3.524987 39.802216 140 86 106
-2.476702 3.607812 39.769428 133 82 101
-2.474603 3.690410 39.735714 126 79 96
-2.472420 3.772737 39.700672 119 78 93
-2.470131 3.854746 39.663910 110 76 89
-2.467711 3.936387 39.625042 97 69 80
-2.465138 4.017612 39.583725 81 60 69
-2.462392 4.098370 39.539635 69 55 60
-2.459456 4.178617 39.492500 63 53 56
-2.456318 4.258309 39.442104 58 50 52
-2.452967 4.337407 39.388294 54 46 47
-2.449397 4.415880 39.330978 50 40 41
-2.445609 4.493703 39.270145 47 33 35
-2.441605 4.570861 39.205856 48 28 32
-2.437395 4.647348 39.138252 55 30 35
-2.432991 4.723168 39.067539 67 35 44
-2.428411 4.798335 38.993992 80 42 53
-2.423676 4.872873 38.917965 89 46 59
-2.418812 4.946819 38.839855 94 47 62
-2.413846 5.020217 38.760124 98 47 63
-2.408810 5.093122 38.679245 102 49 64
-2.403735 5.165595 38.597755 104 50 65
-2.398655 5.237707 38.516186 107 52 67
-2.393604 5.309531 38.435085 110 54 68
-2.388616 5.381147 38.354996 115 58 71
-2.383724 5.452637 38.276436 124 65 78
-2.378959 5.524083 38.199917 130 70 84
-2.374349 5.595565 38.125896 130 68 83
-2.369920 5.667162 38.054787 126 63 79
-2.365696 5.738946 37.986946 123 59 75
-2.361692 5.810981 37.922653 121 56 73
-2.357922 5.883323 37.862118 121 55 72
-2.354393 5.956015 37.805462 123 55 71
-2.351110 6.029090 37.752728 124 57 71
-2.348066 6.102563 37.703865 124 58 71
-2.345256 6.176439 37.658741 124 59 70
-2.342665 6.250705 37.617138 124 60 69
-2.340275 6.325336 37.578762 124 60 69
-2.338064 6.400290 37.543255 123 60 70
-2.336007 6.475517 37.510216 123 60 70
-2.334075 6.550955 37.479198 123 59 71
-2.332241 6.626536 37.449745 123 58 71
-2.330475 6.702188 37.421402 123 58 71
-2.328751 6.777838 37.393719 123 57 71
-2.327044 6.853417 37.366295 123 57 71
-2.325331 6.928863 37.338791 122 56 71
-2.323595 7.004121 37.310925 121 56 70
-2.321824 7.079149 37.282475 120 56 70
-2.320009 7.153922 37.253338 120 56 69
-2.318149 7.228427 37.223469 119 56 68
-2.316247 7.302670 37.192921 119 56 68
-2.314310 7.376672 37.161819 120 57 69
-2.312350 7.450467 37.130352 121 57 71
-2.310383 7.524101 37.098766 121 58 74
-2.308426 7.597634 37.067352 122 58 75
-2.306498 7.671126 37.036392 122 57 75
-2.304618 7.744646 37.006195 121 57 75
-2.302803 7.818257 36.977055 118 56 74
-2.301070 7.892024 36.949230 116 56 71
-2.299431 7.965996 36.922913 113 55 68
-2.297898 8.040223 36.898289 110 55 65
-2.296477 8.114742 36.875469 107 54 62
-2.295171 8.189575 36.854507 105 54 60
-2.293981 8.264732 36.835392 103 54 58
-2.292902 8.340214 36.818073 103 54 58
-2.291930 8.416011 36.802460 104 55 60
-2.291055 8.492102 36.788410 105 56 62
-2.290267 8.568457 36.775757 106 56 63
-2.289555 8.645045 36.764328 107 56 63
-2.288907 8.721827 36.753922 106 54 62
-2.288311 8.798762 36.744343 104 52 61
-2.287753 8.875808 36.735390 104 51 62
-2.287223 8.952921 36.726871 104 51 64
-2.286707 9.030056 36.718597 103 53 65
-2.583489 -1.289100 42.971581 112 64 83
-2.580899 -1.195268 42.928497 114 67 87
-2.578165 -1.101560 42.883015 116 70 90
-2.575287 -1.007993 42.835148 116 70 91
-2.572270 -0.914582 42.784973 115 70 91
-2.569120 -0.821345 42.732578 116 72 93
-2.565845 -0.728299 42.678112 117 73 94
-2.562455 -0.635458 42.621723 117 73 94
-2.558960 -0.542839 42.563583 117 74 95
-2.555371 -0.450453 42.503880 118 75 95
-2.551697 -0.358313 42.442783 121 78 97
-2.547950 -0.266429 42.380455 125 81 100
-2.544138 -0.174809 42.317039 127 81 100
-2.540267 -0.083461 42.252651 127 79 100
-2.536341 0.007610 42.187366 127 77 99
-2.532365 0.098397 42.121227 126 75 99
-2.528340 0.188896 42.054276 126 75 101
-2.524265 0.279100 41.986496 128 75 103
-2.520140 0.369005 41.917889 129 76 104
-2.515965 0.458604 41.848431 131 77 106
-2.511737 0.547893 41.778114 135 79 109
-2.507458 0.636866 41.706944 137 81 111
-2.503130 0.725518 41.634953 138 82 111
-2.498756 0.813844 41.562206 138 81 108
-2.494343 0.901843 41.488796 138 81 106
-2.489898 0.989512 41.414860 135 80 104
-2.485431 1.076853 41.340569 133 80 102
-2.480956 1.163870 41.266125 134 83 103
-2.476485 1.250568 41.191761 139 89 108
-2.472034 1.336956 41.117722 143 93 113
-2.467618 1.423046 41.044273 145 96 115
-2.463253 1.508850 40.971676 145 96 116
-2.458955 1.594384 40.900177 145 97 117
-2.454737 1.679665 40.830032 145 95 116
-2.450615 1.764712 40.761459 144 94 116
-2.446599 1.849544 40.694660 144 93 117
-2.442699 1.934180 40.629795 143 91 118
-2.438925 2.018641 40.567020 143 90 118
-2.435283 2.102945 40.506447 144 89 120
-2.431779 2.187111 40.448158 146 90 123
-2.428415 2.271158 40.392212 149 92 125
-2.425194 2.355102 40.338638 153 94 128
-2.422116 2.438959 40.287434 155 95 129
-2.419178 2.522742 40.238575 151 91 124
-2.416379 2.606463 40.192005 146 88 119
-2.413713 2.690131 40.147659 145 90 118
-2.411173 2.773755 40.105419 145 92 118
-2.408753 2.857337 40.065159 144 94 117
-2.406441 2.940880 40.026711 143 94 116
-2.404227 3.024379 39.989891 142 93 114
-2.402098 3.107829 39.954475 142 92 112
-2.400038 3.191218 39.920204 143 92 111
-2.398030 3.274530 39.886803 145 93 112
-2.396055 3.357745 39.853958 146 92 112
-2.394094 3.440838 39.821335 144 89 109
-2.392124 3.523778 39.788574 140 85 105
-2.390124 3.606531 39.755310 134 81 101
-2.388071 3.689059 39.721161 127 79 97
-2.385942 3.771318 39.685741 120 77 93
-2.383713 3.853266 39.648678 111 74 89
-2.381365 3.934854 39.609612 100 70 82
-2.378875 4.016037 39.568211 87 65 73
-2.376227 4.096766 39.524158 73 58 62
-2.373404 4.176999 39.477207 62 52 54
-2.370394 4.256693 39.427139 55 48 49
-2.367188 4.335811 39.373802 51 44 45
-2.363779 4.414321 39.317097 47 38 39
-2.360166 4.492200 39.257011 44 31 34
-2.356353 4.569430 39.193581 46 27 31
-2.352345 4.646004 39.126926 54 29 34
-2.348155 4.721922 39.057236 66 36 43
-2.343798 4.797198 38.984760 79 42 54
-2.339292 4.871852 38.909809 88 46 60
-2.334660 4.945915 38.832760 93 46 63
-2.329927 5.019429 38.754032 97 47 64
-2.325121 5.092443 38.674095 101 48 65
-2.320271 5.165017 38.593437 104 51 67
-2.315410 5.237216 38.512577 108 53 68
-2.310569 5.309111 38.432049 111 55 69
-2.305779 5.380780 38.352375 115 58 71
-2.301071 5.452301 38.274082 121 62 75
-2.296477 5.523757 38.197662 124 64 78
-2.292023 5.595226 38.123585 125 63 78
-2.287736 5.666787 38.052273 124 61 77
-2.283637 5.738515 37.984093 121 56 74
-2.279745 5.810475 37.919350 118 52 71
-2.276072 5.882725 37.858265 118 51 70
-2.272629 5.955312 37.800995 121 53 71
-2.269419 6.028271 37.747601 124 56 72
-2.266441 6.101625 37.698067 126 58 72
-2.263689 6.175380 37.652283 126 59 72
-2.261150 6.249529 37.610062 126 60 71
-2.258810 6.324052 37.571133 125 60 70
-2.256648 6.398912 37.535172 124 60 70
-2.254641 6.474063 37.501797 123 60 71
-2.252764 6.549447 37.470573 123 60 71
-2.250990 6.625000 37.441063 123 59 72
-2.249292 6.700652 37.412823 122 59 72
-2.247644 6.776333 37.385410 122 58 73
-2.246022 6.851976 37.358440 122 58 73
-2.244406 6.927518 37.331547 121 58 74
-2.242777 7.002907 37.304455 121 58 73
-2.241123 7.078099 37.276947 120 58 72
-2.239436 7.153068 37.248890 120 58 71
-2.237714 7.227800 37.220242 119 58 70
-2.235958 7.302300 37.191036 119 59 70
-2.234175 7.376586 37.161385 120 59 71
-2.232376 7.450690 37.131466 121 60 72
-2.230576 7.524659 37.101517 121 60 73
-2.228789 7.598547 37.071800 121 59 74
-2.227034 7.672414 37.042610 121 58 74
-2.225329 7.746328 37.014240 120 57 74
-2.223689 7.820353 36.986969 117 57 73
-2.222131 7.894550 36.961056 115 56 70
-2.220667 7.968969 36.936695 113 55 68
-2.219306 8.043661 36.914062 110 54 65
-2.218056 8.118660 36.893269 108 53 62
-2.216919 8.193988 36.874363 106 53 59
-2.215896 8.269656 36.857338 105 53 58
-2.214981 8.345663 36.842129 105 53 58
-2.214170 8.421998 36.828644 106 54 59
-2.213454 8.498638 36.816727 107 55 60
-2.212822 8.575553 36.806213 108 55 61
-2.212263 8.652707 36.796909 108 55 61
-2.211763 8.730058 36.788605 107 54 61
-2.211311 8.807561 36.781082 107 53 61
-2.210893 8.885167 36.774128 107 52 62
-2.210496 8.962831 36.767525 107 52 64
-2.210108 9.040501 36.761063 106 53 66
-2.493049 -1.290234 43.009396 114 66 88
-2.490400 -1.196248 42.963699 117 69 92
-2.487615 -1.102399 42.915657 118 70 93
-2.484698 -1.008703 42.865334 116 69 92
-2.481653 -0.915177 42.812805 114 68 90
-2.478488 -0.821837 42.758194 115 70 92
-2.475210 -0.728700 42.701649 117 73 94
-2.471830 -0.635780 42.643333 118 74 95
-2.468357 -0.543092 42.583420 117 74 95
-2.464802 -0.450646 42.522083 118 75 96
-2.461174 -0.358454 42.459499 121 77 97
-2.457482 -0.266526 42.395802 124 79 98
-2.453733 -0.174867 42.331135 125 79 98
-2.449934 -0.083486 42.265587 126 78 98
-2.446087 0.007612 42.199223 126 76 98
-2.442195 0.098423 42.132084 126 75 99
-2.438259 0.188940 42.064182 126 75 100
-2.434278 0.279160 41.995499 128 76 102
-2.430251 0.369076 41.926029 129 77 104
-2.426177 0.458684 41.855732 132 78 106
-2.422054 0.547978 41.784607 134 78 107
-2.417883 0.636953 41.712650 136 79 108
-2.413666 0.725604 41.639893 137 79 108
-2.409405 0.813926 41.566399 138 79 107
-2.405108 0.901918 41.492264 137 79 105
-2.400782 0.989578 41.417629 135 79 104
-2.396436 1.076908 41.342655 133 80 102
-2.392083 1.163910 41.267559 133 82 103
-2.387736 1.250592 41.192562 138 88 108
-2.383409 1.336963 41.117920 143 94 112
-2.379118 1.423032 41.043892 143 94 113
-2.374878 1.508815 40.970737 143 94 113
-2.370703 1.594327 40.898716 143 94 113
-2.366608 1.679584 40.828068 142 93 113
-2.362605 1.764606 40.759018 142 93 113
-2.358707 1.849412 40.691765 142 93 114
-2.354923 1.934022 40.626476 142 92 115
-2.351260 2.018455 40.563293 142 92 117
-2.347727 2.102731 40.502342 143 92 118
-2.344328 2.186870 40.443695 146 93 121
-2.341065 2.270888 40.387413 149 93 124
-2.337941 2.354803 40.333515 151 94 125
-2.334955 2.438630 40.281998 151 92 124
-2.332105 2.522382 40.232830 145 87 118
-2.329388 2.606070 40.185955 140 85 114
-2.326799 2.689705 40.141296 140 87 114
-2.324332 2.773293 40.098736 141 91 115
-2.321979 2.856837 40.058136 142 94 116
-2.319729 2.940337 40.019325 143 95 116
-2.317572 3.023791 39.982113 142 95 115
-2.315495 3.107191 39.946274 143 95 114
-2.313482 3.190526 39.911556 145 95 112
-2.311518 3.273781 39.877678 146 94 112
-2.309586 3.356935 39.844337 145 91 111
-2.307665 3.439963 39.811207 143 87 108
-2.305737 3.522837 39.777946 140 83 104
-2.303781 3.605523 39.744198 135 80 101
-2.301775 3.687985 39.709599 130 78 98
-2.299699 3.770182 39.673782 123 76 95
-2.297532 3.852072 39.636398 115 74 91
-2.295255 3.933612 39.597107 105 73 86
-2.292848 4.014755 39.555588 93 69 78
-2.290296 4.095459 39.511551 77 61 66
-2.287583 4.175681 39.464748 61 50 54
-2.284698 4.255380 39.414974 52 44 46
-2.281631 4.334520 39.362072 48 41 42
-2.278378 4.413070 39.305954 45 36 37
-2.274936 4.491006 39.246578 42 30 32
-2.271308 4.568311 39.183983 44 26 30
-2.267498 4.644974 39.118259 52 28 33
-2.263517 4.720996 39.049568 65 36 44
-2.259376 4.796383 38.978134 79 44 55
-2.255093 4.871156 38.904251 89 47 62
-2.250688 4.945341 38.828251 93 47 64
-2.246183 5.018976 38.750538 97 47 65
-2.241604 5.092106 38.671535 101 48 65
-2.236977 5.164787 38.591717 104 50 66
-2.232332 5.237081 38.511589 108 53 68
-2.227699 5.309057 38.431652 113 56 70
-2.223107 5.380787 38.352428 116 58 72
-2.218586 5.452351 38.274429 119 60 73
-2.214164 5.523828 38.198158 122 61 75
-2.209870 5.595298 38.124077 124 62 76
-2.205728 5.666839 38.052620 124 61 77
-2.201761 5.738526 37.984169 122 57 75
-2.197986 5.810428 37.919044 118 51 70
-2.194418 5.882605 37.857494 116 49 68
-2.191067 5.955105 37.799686 119 51 69
-2.187939 6.027970 37.745720 124 55 72
-2.185034 6.101225 37.695599 127 58 73
-2.182346 6.174881 37.649239 127 59 72
-2.179868 6.248935 37.606480 126 60 71
-2.177584 6.323370 37.567085 125 60 71
-2.175478 6.398157 37.530743 124 60 71
-2.173527 6.473251 37.497093 123 60 72
-2.171709 6.548599 37.465721 123 60 72
-2.169998 6.624140 37.436207 122 59 73
-2.168369 6.699807 37.408104 122 59 73
-2.166797 6.775531 37.380989 121 59 73
-2.165260 6.851247 37.354465 121 59 74
-2.163736 6.926894 37.328182 121 59 74
-2.162210 7.002417 37.301846 121 59 74
-2.160667 7.077774 37.275234 120 60 73
-2.159100 7.152936 37.248207 120 60 72
-2.157506 7.227891 37.220707 120 60 72
-2.155886 7.302638 37.192753 120 60 71
-2.154245 7.377194 37.164452 120 61 72
-2.152594 7.451592 37.135960 121 61 73
-2.150945 7.525875 37.107510 122 61 74
-2.149313 7.600095 37.079353 122 60 74
-2.147714 7.674312 37.051769 121 59 74
-2.146165 7.748591 37.025051 119 58 73
-2.144682 7.822997 36.999474 117 57 71
-2.143281 7.897589 36.975288 115 56 69
-2.141970 7.972418 36.952682 113 55 67
-2.140762 8.047534 36.931835 110 54 64
-2.139662 8.122971 36.912861 108 53 62
-2.138673 8.198750 36.895794 107 52 60
-2.137794 8.274883 36.880634 106 52 59
-2.137022 8.351369 36.867317 107 53 59
-2.136351 8.428194 36.855736 108 54 60
-2.135772 8.505336 36.845741 109 55 60
-2.135274 8.582762 36.837154 110 55 60
-2.134845 8.660432 36.829762 110 55 61
-2.134474 8.738304 36.823357 109 54 61
-2.134146 8.816329 36.817699 109 54 62
-2.133848 8.894453 36.812561 109 53 63
-2.133567 8.972626 36.807705 109 53 65
-2.133288 9.050790 36.802902 109 54 67
-2.133000 9.128891 36.797935 108 55 69
-2.402509 -1.291403 43.048340 116 69 92
-2.399818 -1.197263 43.000137 116 70 93
-2.397001 -1.103272 42.949646 116 70 93
-2.394060 -1.009447 42.896954 114 68 91
-2.391002 -0.915805 42.842167 113 67 90
-2.387835 -0.822361 42.785423 115 70 92
-2.384568 -0.729131 42.726879 119 74 95
-2.381210 -0.636129 42.666706 118 75 96
-2.377770 -0.543368 42.605080 118 74 96
-2.374259 -0.450859 42.542171 118 75 96
-2.370686 -0.358612 42.478138 119 76 97
-2.367057 -0.266635 42.413120 121 77 97
-2.363381 -0.174934 42.347240 122 77 98
-2.359660 -0.083516 42.280579 123 77 98
-2.355899 0.007615 42.213184 124 76 98
-2.352098 0.098453 42.145084 124 76 98
-2.348258 0.188994 42.076275 125 75 100
-2.344378 0.279234 42.006744 126 76 101
-2.340455 0.369168 41.936447 127 76 103
-2.336488 0.458790 41.865376 130 77 104
-2.332476 0.548095 41.793488 132 77 105
-2.328419 0.637078 41.720795 134 77 105
-2.324319 0.725733 41.647324 135 77 105
-2.320178 0.814058 41.573135 135 77 105
-2.316003 0.902050 41.498329 135 78 103
-2.311801 0.989707 41.423038 133 79 103
-2.307582 1.077032 41.347435 132 80 102
-2.303356 1.164028 41.271725 133 84 103
-2.299138 1.250701 41.196136 136 88 106
-2.294941 1.337060 41.120930 139 91 110
-2.290779 1.423118 41.046352 141 92 110
-2.286667 1.508886 40.972672 140 91 109
-2.282619 1.594383 40.900146 138 90 107
-2.278649 1.679623 40.829014 137 89 106
-2.274770 1.764627 40.759502 137 90 108
-2.270992 1.849414 40.691811 139 92 110
-2.267325 1.934004 40.626102 140 93 113
-2.263777 2.018417 40.562527 141 94 115
-2.260354 2.102672 40.501198 144 94 117
-2.257061 2.186789 40.442196 147 94 120
-2.253901 2.270785 40.385574 149 93 121
-2.250875 2.354677 40.331352 149 92 121
-2.247983 2.438480 40.279530 147 89 118
-2.245222 2.522208 40.230061 141 84 113
-2.242589 2.605871 40.182888 136 82 109
-2.240080 2.689479 40.137924 137 85 111
-2.237687 2.773038 40.095051 139 90 113
-2.235402 2.856550 40.054119 141 94 115
-2.233217 2.940016 40.014954 143 97 117
-2.231118 3.023431 39.977360 144 97 117
-2.229095 3.106789 39.941105 145 97 116
-2.227133 3.190078 39.905945 145 96 114
-2.225216 3.273282 39.871597 145 93 112
-2.223328 3.356381 39.837765 144 90 110
-2.221451 3.439352 39.804131 143 86 108
-2.219566 3.522165 39.770363 140 83 105
-2.217655 3.604791 39.736122 136 80 103
-2.215699 3.687193 39.701065 131 78 100
-2.213677 3.769333 39.664848 125 76 97
-2.211572 3.851171 39.627132 118 75 93
-2.209366 3.932667 39.587597 109 74 89
-2.207041 4.013776 39.545940 98 72 83
-2.204583 4.094459 39.501896 82 63 70
-2.201978 4.174673 39.455219 62 51 54
-2.199215 4.254380 39.405712 49 42 43
-2.196286 4.333546 39.353230 46 38 39
-2.193185 4.412140 39.297665 43 34 35
-2.189910 4.490137 39.238983 41 28 30
-2.186461 4.567519 39.177189 43 25 28
-2.182844 4.644276 39.112373 51 27 32
-2.179065 4.720403 39.044666 65 35 43
-2.175136 4.795907 38.974262 79 44 55
-2.171071 4.870802 38.901424 89 48 62
-2.166888 4.945114 38.826466 93 48 64
-2.162606 5.018874 38.749752 97 48 65
-2.158250 5.092126 38.671688 101 49 65
-2.153842 5.164921 38.592720 104 51 66
-2.149411 5.237317 38.513325 108 54 68
-2.144984 5.309381 38.433998 113 57 71
-2.140589 5.381183 38.355251 118 60 73
-2.136255 5.452800 38.277580 120 60 73
-2.132008 5.524310 38.201492 121 61 74
-2.127876 5.595794 38.127457 123 62 76
-2.123883 5.667329 38.055908 124 62 77
-2.120052 5.738992 37.987251 123 59 75
-2.116400 5.810853 37.921814 119 53 71
-2.112942 5.882974 37.859867 117 51 69
-2.109691 5.955408 37.801605 120 52 70
-2.106652 6.028199 37.747147 124 56 73
-2.103826 6.101374 37.696522 127 58 74
-2.101211 6.174952 37.649670 127 59 73
-2.098800 6.248931 37.606461 126 59 72
-2.096579 6.323301 37.566669 125 60 72
-2.094533 6.398033 37.530014 124 60 72
-2.092643 6.473089 37.496151 124 60 72
-2.090888 6.548419 37.464687 123 60 73
-2.089242 6.623963 37.435204 122 60 73
-2.087683 6.699657 37.407269 122 59 73
-2.086187 6.775436 37.380463 122 59 73
-2.084732 6.851234 37.354389 122 60 74
-2.083298 6.926990 37.328697 121 60 74
-2.081869 7.002649 37.303085 120 60 74
-2.080431 7.078171 37.277325 120 60 74
-2.078976 7.153523 37.251259 120 60 73
-2.077501 7.228691 37.224823 121 61 72
-2.076005 7.303674 37.198029 121 61 71
-2.074495 7.378487 37.170963 121 62 71
-2.072978 7.453160 37.143776 122 62 72
-2.071465 7.527735 37.116684 123 61 73
-2.069973 7.602263 37.089935 122 61 73
-2.068514 7.676803 37.063793 121 60 73
-2.067105 7.751417 37.038555 118 58 71
-2.065762 7.826170 37.014481 116 57 69
-2.064497 7.901122 36.991825 114 55 68
-2.063322 7.976322 36.970776 112 55 67
-2.062247 8.051820 36.951508 110 54 65
-2.061277 8.127651 36.934128 109 53 64
-2.060416 8.203837 36.918690 108 53 62
-2.059661 8.280390 36.905174 107 52 61
-2.059011 8.357305 36.893520 108 53 61
-2.058459 8.434571 36.883625 110 53 61
-2.057996 8.512164 36.875324 111 55 61
-2.057611 8.590051 36.868439 111 55 61
-2.057294 8.668189 36.862751 111 56 61
-2.057030 8.746533 36.858032 111 55 62
-2.056808 8.825031 36.854042 111 55 62
-2.056611 8.903626 36.850525 111 54 64
-2.056428 8.982263 36.847240 110 54 66
-2.056244 9.060880 36.843933 110 55 68
-2.056045 9.139419 36.840366 110 56 71
-2.311852 -1.292600 43.088253 116 70 95
-2.309139 -1.198308 43.037670 116 70 95
-2.306305 -1.104177 42.984859 115 69 94
-2.303357 -1.010223 42.929916 115 68 93
-2.300302 -0.916463 42.872982 114 68 91
-2.297148 -0.822914 42.814201 116 70 93
-2.293905 -0.729589 42.753750 119 74 96
-2.290581 -0.636503 42.691795 119 75 96
-2.287186 -0.543667 42.628529 118 74 96
-2.283730 -0.451091 42.564114 118 75 97
-2.280220 -0.358785 42.498695 119 76 98
-2.276664 -0.266756 42.432411 120 77 99
-2.273067 -0.175009 42.365376 121 77 99
-2.269433 -0.083550 42.297646 123 77 99
-2.265764 0.007617 42.229263 123 76 98
-2.262061 0.098488 42.160248 123 75 98
-2.258324 0.189059 42.090588 125 75 98
-2.254550 0.279324 42.020245 126 75 100
-2.250737 0.369280 41.949188 127 75 101
-2.246884 0.458922 41.877377 128 75 101
-2.242990 0.548243 41.804787 130 75 102
-2.239053 0.637240 41.731419 133 76 103
-2.235076 0.725907 41.657288 134 77 103
-2.231061 0.814241 41.582462 134 78 104
-2.227014 0.902239 41.507038 134 79 104
-2.222942 0.989901 41.431149 131 79 102
-2.218855 1.077228 41.354965 130 80 102
-2.214762 1.164224 41.278690 132 83 103
-2.210678 1.250896 41.202560 135 87 105
-2.206614 1.337252 41.126820 138 90 108
-2.202585 1.423304 41.051731 140 92 109
-2.198605 1.509066 40.977554 140 92 108
-2.194688 1.594554 40.904545 136 87 103
-2.190847 1.679785 40.832947 132 85 100
-2.187093 1.764778 40.762989 133 86 102
-2.183438 1.849553 40.694862 136 90 106
-2.179890 1.934130 40.628746 138 93 109
-2.176458 2.018529 40.564777 141 95 113
-2.173147 2.102769 40.503071 144 96 115
-2.169963 2.186871 40.443714 146 95 117
-2.166906 2.270851 40.386753 148 94 117
-2.163980 2.354727 40.332211 147 92 116
-2.161183 2.438513 40.280071 144 88 114
-2.158512 2.522223 40.230301 139 84 110
-2.155965 2.605867 40.182831 136 82 108
-2.153536 2.689455 40.137562 137 86 110
-2.151219 2.772991 40.094372 139 90 113
-2.149005 2.856478 40.053108 141 94 115
-2.146885 2.939916 40.013596 143 97 117
-2.144848 3.023300 39.975620 145 99 117
-2.142881 3.106622 39.938961 145 99 117
-2.140971 3.189872 39.903362 145 96 114
-2.139103 3.273032 39.868553 144 93 112
-2.137261 3.356083 39.834232 143 89 111
-2.135430 3.439003 39.800095 143 87 109
-2.133591 3.521764 39.765827 142 85 108
-2.131728 3.604335 39.731094 139 82 106
-2.129822 3.686683 39.695583 134 79 103
-2.127857 3.768773 39.658951 127 77 99
-2.125815 3.850565 39.620895 120 75 95
-2.123680 3.932022 39.581108 112 74 91
-2.121438 4.013103 39.539310 102 73 86
-2.119073 4.093769 39.495243 86 66 74
-2.116575 4.173981 39.448677 65 53 57
-2.113933 4.253701 39.399426 51 43 45
-2.111138 4.332897 39.347336 45 38 40
-2.108186 4.411539 39.292313 42 34 35
-2.105073 4.489601 39.234299 40 28 30
-2.101800 4.567065 39.173294 42 25 28
-2.098369 4.643918 39.109360 50 27 32
