ply
format ascii 1.0
element vertex 1253
property float x
property float y
property float z
property uchar red
property uchar green
property uchar blue
end_header
2.176748 2.524732 32.458138 88 58 73
2.175556 2.593280 32.440365 83 51 64
2.174459 2.661867 32.424004 82 48 59
2.173439 2.730482 32.408802 84 48 58
2.172479 2.799107 32.394482 86 48 57
2.171561 2.867726 32.380791 87 48 57
2.170668 2.936321 32.367481 88 46 56
2.169786 3.004872 32.354328 90 45 56
2.168901 3.073363 32.341129 92 44 57
2.168002 3.141777 32.327721 97 46 61
2.167081 3.210100 32.313992 101 48 63
2.166133 3.278324 32.299858 103 47 63
2.165156 3.346441 32.285286 104 45 61
2.164151 3.414452 32.270298 104 45 59
2.163121 3.482358 32.254951 104 44 58
2.162074 3.550170 32.239338 107 44 57
2.161018 3.617899 32.223595 110 45 58
2.159964 3.685564 32.207874 110 44 57
2.158923 3.753183 32.192345 110 42 55
2.157906 3.820778 32.177177 113 42 58
2.156924 3.888370 32.162533 116 44 61
2.155987 3.955982 32.148560 116 44 63
2.155102 4.023633 32.135380 118 45 65
2.154278 4.091340 32.123081 119 47 67
2.153516 4.159114 32.111713 121 50 70
2.152816 4.226964 32.101292 124 54 73
2.152179 4.294891 32.091782 124 56 75
2.151598 4.362892 32.083122 124 57 75
2.151067 4.430960 32.075211 124 58 75
2.150578 4.499081 32.067921 124 58 75
2.150122 4.567239 32.061115 125 58 75
2.149688 4.635417 32.054649 126 59 75
2.149267 4.703594 32.048370 127 59 75
2.148850 4.771754 32.042152 129 61 76
2.148430 4.839879 32.035885 131 62 77
2.148000 4.907955 32.029476 129 60 74
2.147557 4.975974 32.022873 125 56 69
2.147100 5.043930 32.016048 122 53 65
2.146628 5.111822 32.009018 120 51 62
2.146145 5.179656 32.001808 118 49 61
2.145654 5.247440 31.994488 118 49 62
2.145160 5.315187 31.987129 123 53 67
2.144671 5.382912 31.979828 131 60 76
2.144191 5.450630 31.972673 136 64 81
2.143727 5.518358 31.965759 135 63 82
2.143285 5.586112 31.959162 133 60 80
2.142869 5.653907 31.952953 131 58 78
2.142482 5.721754 31.947186 130 57 77
2.142127 5.789661 31.941891 130 56 76
2.141804 5.857636 31.937086 130 56 76
2.141515 5.925682 31.932775 132 58 77
2.141258 5.993799 31.928944 136 62 81
2.141032 6.061987 31.925571 137 64 83
2.140835 6.130242 31.922628 133 60 79
2.140664 6.198562 31.920078 126 54 73
2.140517 6.266940 31.917885 122 51 70
2.140391 6.335372 31.916010 120 50 68
2.140284 6.403852 31.914412 118 50 67
2.140192 6.472371 31.913044 117 49 66
2.140113 6.540923 31.911863 117 49 65
2.140042 6.609496 31.910810 120 52 67
2.139976 6.678079 31.909826 127 58 73
2.139910 6.746656 31.908834 135 64 81
2.139837 6.815209 31.907749 141 67 87
2.139751 6.883715 31.906469 141 65 86
2.139645 6.952150 31.904890 139 60 83
2.139511 7.020486 31.902891 137 58 81
2.139340 7.088693 31.900345 139 59 82
2.139124 7.156736 31.897121 141 60 83
2.138854 7.224582 31.893089 143 61 84
2.138520 7.292196 31.888119 144 61 85
2.138116 7.359545 31.882092 146 61 86
2.137634 7.426595 31.874895 148 63 89
2.137066 7.493315 31.866425 149 64 90
2.136407 7.559677 31.856600 148 62 88
2.135652 7.625652 31.845339 145 58 85
2.134796 7.691217 31.832581 146 59 86
2.133836 7.756349 31.818268 150 63 90
2.132769 7.821025 31.802359 153 66 92
2.131592 7.885226 31.784807 154 68 93
2.130303 7.948933 31.765581 154 68 94
2.480614 -0.997825 35.837242 108 56 82
2.474344 -0.918245 35.746662 113 60 85
2.468052 -0.839048 35.655746 119 64 87
2.461727 -0.760233 35.564377 119 64 84
2.455364 -0.681801 35.472454 119 63 80
2.448960 -0.603756 35.379936 121 64 80
2.442514 -0.526100 35.286804 123 66 82
2.436028 -0.448839 35.193108 121 65 81
2.429508 -0.371976 35.098919 118 63 80
2.422963 -0.295516 35.004360 118 65 82
2.416403 -0.219463 34.909588 119 69 85
2.409842 -0.143818 34.814796 119 72 87
2.403293 -0.068582 34.720192 121 75 90
2.396773 0.006246 34.625988 124 79 93
2.390296 0.080669 34.532421 126 81 96
2.383879 0.154693 34.439720 126 80 96
2.377537 0.228325 34.348095 125 79 95
2.371284 0.301572 34.257755 126 80 96
2.365133 0.374447 34.168884 128 82 98
2.359094 0.446959 34.081646 132 86 102
2.353177 0.519122 33.996170 138 93 108
2.347391 0.590950 33.912567 139 96 111
2.341739 0.662455 33.830929 130 88 104
2.336229 0.733653 33.751316 121 80 97
2.330861 0.804556 33.673771 121 81 100
2.325639 0.875180 33.598316 123 83 104
2.320561 0.945538 33.524971 123 84 106
2.315631 1.015644 33.453735 126 85 109
2.310846 1.085512 33.384617 127 86 110
2.306208 1.155155 33.317612 127 86 110
2.301717 1.224587 33.252731 126 85 109
2.297374 1.293823 33.189983 126 84 109
2.293180 1.362877 33.129398 124 84 109
2.289139 1.431764 33.071003 123 83 109
2.285252 1.500502 33.014851 123 84 108
2.281524 1.569107 32.960995 121 85 108
2.277959 1.637597 32.909496 120 85 108
2.274562 1.705992 32.860424 119 85 107
2.271338 1.774309 32.813839 118 85 107
2.268290 1.842568 32.769810 118 85 107
2.265422 1.910790 32.728374 118 85 106
2.262736 1.978992 32.689571 118 85 106
2.260233 2.047193 32.653412 115 83 102
2.257912 2.115408 32.619873 112 80 98
2.255769 2.183651 32.588921 107 76 94
2.253800 2.251934 32.560467 101 73 89
2.251996 2.320265 32.534405 97 69 85
2.250347 2.388648 32.510586 93 66 82
2.248842 2.457085 32.488838 90 61 78
2.247465 2.525573 32.468956 86 56 71
2.246202 2.594107 32.450706 82 50 64
2.245035 2.662675 32.433842 82 48 59
2.243946 2.731266 32.418114 87 50 60
2.242918 2.799865 32.403255 89 51 60
2.241932 2.868454 32.389011 90 50 59
2.240972 2.937015 32.375141 90 48 58
2.240022 3.005531 32.361423 91 46 58
2.239070 3.073984 32.347664 93 45 59
2.238104 3.142359 32.333710 97 47 62
2.237117 3.210643 32.319447 100 48 63
2.236103 3.278826 32.304806 101 46 63
2.235061 3.346904 32.289749 102 45 61
2.233992 3.414875 32.274300 103 44 59
2.232899 3.482744 32.258518 103 44 58
2.231790 3.550518 32.242496 106 44 57
2.230674 3.618211 32.226368 110 45 58
2.229560 3.685839 32.210278 111 45 58
2.228461 3.753422 32.194393 112 43 57
2.227387 3.820980 32.178883 114 44 60
2.226349 3.888535 32.163895 116 45 62
2.225358 3.956108 32.149578 117 45 63
2.224422 4.023718 32.136055 118 45 65
2.223547 4.091382 32.123409 118 47 67
2.222736 4.159112 32.111698 120 49 69
2.221991 4.226917 32.100933 122 53 73
2.221310 4.294799 32.091095 126 57 77
2.220689 4.362756 32.082123 126 58 77
2.220122 4.430782 32.073925 125 58 76
2.219601 4.498867 32.066399 125 58 75
2.219117 4.566995 32.059402 124 58 74
2.218660 4.635150 32.052811 125 59 74
2.218222 4.703316 32.046478 126 59 74
2.217793 4.771475 32.040283 128 61 75
2.217366 4.839612 32.034115 129 62 75
2.216935 4.907712 32.027889 127 61 73
2.216495 4.975766 32.021534 125 58 70
2.216044 5.043767 32.015022 123 55 67
2.215582 5.111714 32.008343 121 53 64
2.215109 5.179608 32.001511 119 50 62
2.214629 5.247454 31.994572 120 50 64
2.214144 5.315261 31.987572 125 54 69
2.213660 5.383038 31.980579 131 60 75
2.213182 5.450799 31.973665 134 62 78
2.212713 5.518554 31.966892 133 60 78
2.212259 5.586317 31.960331 130 57 75
2.211823 5.654098 31.954029 128 54 73
2.211408 5.721906 31.948032 127 54 72
2.211016 5.789749 31.942371 127 54 72
2.210649 5.857633 31.937065 128 55 72
2.210306 5.925561 31.932123 131 58 74
2.209989 5.993536 31.927544 135 62 78
2.209697 6.061560 31.923321 136 63 80
2.209429 6.129631 31.919443 132 59 77
2.209183 6.197750 31.915897 127 54 72
2.208960 6.265915 31.912664 123 51 70
2.208756 6.334124 31.909723 121 50 69
2.208571 6.402374 31.907051 119 49 68
2.208403 6.470662 31.904619 118 49 67
2.208248 6.538980 31.902390 117 49 66
2.208105 6.607322 31.900314 119 50 67
2.207968 6.675675 31.898340 125 56 73
2.207833 6.744025 31.896393 134 63 83
2.207694 6.812355 31.894388 141 68 90
2.207544 6.880641 31.892221 143 67 91
2.207376 6.948859 31.889788 141 64 88
2.207181 7.016983 31.886967 139 61 85
2.206950 7.084979 31.883631 140 62 85
2.206674 7.152815 31.879648 143 63 86
2.206345 7.220461 31.874897 144 62 85
2.205954 7.287880 31.869247 144 62 85
2.205493 7.355043 31.862593 146 62 86
2.204956 7.421920 31.854830 148 63 88
2.204336 7.488482 31.845875 149 63 89
2.203629 7.554707 31.835657 147 60 87
2.202830 7.620571 31.824118 143 56 84
2.201937 7.686054 31.811211 144 57 85
2.200947 7.751140 31.796902 148 62 90
2.199857 7.815813 31.781162 150 65 92
2.198667 7.880057 31.763969 152 68 95
2.197374 7.943857 31.745296 154 70 97
2.553597 -0.919035 35.777412 113 61 87
2.547124 -0.839777 35.686722 119 65 89
2.540614 -0.760898 35.595512 119 65 86
2.534060 -0.682402 35.503693 119 63 82
2.527460 -0.604289 35.411213 121 64 82
2.520811 -0.526566 35.318066 123 67 83
2.514118 -0.449236 35.224293 122 67 83
2.507387 -0.372305 35.129982 118 64 82
2.500626 -0.295777 35.035255 116 65 83
2.493847 -0.219656 34.940273 117 69 86
2.487063 -0.143944 34.845226 119 73 89
2.480290 -0.068642 34.750336 121 77 93
2.473543 0.006251 34.655815 125 81 96
2.466840 0.080738 34.561897 128 83 99
2.460196 0.154824 34.468815 127 82 99
2.453628 0.228515 34.376781 126 81 97
2.447149 0.301821 34.286011 126 81 97
2.440773 0.374751 34.196678 127 81 97
2.434512 0.447317 34.108955 130 85 101
2.428374 0.519532 34.022968 136 93 107
2.422369 0.591407 33.938831 138 96 110
2.416502 0.662959 33.856632 129 88 103
2.410779 0.734199 33.776440 121 82 98
2.405201 0.805142 33.698292 122 83 101
2.399771 0.875803 33.622219 123 85 104
2.394491 0.946195 33.548237 123 84 105
2.389360 1.016331 33.476357 125 85 107
2.384380 1.086226 33.406586 126 86 109
2.379551 1.155894 33.338928 125 84 108
2.374874 1.225348 33.273392 124 83 107
2.370349 1.294603 33.209999 123 83 108
2.365980 1.363674 33.148781 122 83 108
2.361768 1.432577 33.089771 120 82 108
2.357718 1.501328 33.033024 121 83 108
2.353833 1.569945 32.978596 122 85 109
2.350118 1.638446 32.926552 121 86 109
2.346578 1.706850 32.876957 121 86 109
2.343218 1.775176 32.829876 121 86 108
2.340042 1.843444 32.785374 120 86 107
2.337052 1.911672 32.743488 119 85 106
2.334251 1.979881 32.704250 118 84 104
2.331640 2.048086 32.667660 114 81 100
2.329216 2.116305 32.633705 110 78 96
2.326977 2.184550 32.602329 106 75 92
2.324916 2.252832 32.573448 101 72 89
2.323024 2.321159 32.546944 97 68 85
2.321291 2.389535 32.522667 92 64 81
2.319705 2.457963 32.500443 88 59 76
2.318250 2.526437 32.480061 84 54 69
2.316910 2.594953 32.461288 82 48 62
2.315668 2.663500 32.443886 84 48 60
2.314505 2.732065 32.427593 89 51 60
2.313404 2.800634 32.412159 90 51 60
2.312345 2.869190 32.397327 90 49 58
2.311313 2.937716 32.382866 89 47 57
2.310292 3.006194 32.368561 90 46 57
2.309269 3.074608 32.354229 94 46 60
2.308233 3.142942 32.339718 98 47 63
2.307177 3.211186 32.324917 99 47 63
2.306095 3.279329 32.309761 100 46 63
2.304986 3.347368 32.294224 101 45 61
2.303851 3.415301 32.278324 101 44 60
2.302695 3.483133 32.262123 103 43 59
2.301524 3.550872 32.245712 105 44 58
2.300346 3.618531 32.229218 109 44 58
2.299174 3.686126 32.212788 112 46 60
2.298017 3.753676 32.196575 114 46 61
2.296886 3.821201 32.180744 116 47 62
2.295794 3.888722 32.165447 116 47 63
2.294751 3.956260 32.150822 117 46 63
2.293763 4.023834 32.136986 116 46 64
2.292838 4.091460 32.124023 116 46 65
2.291980 4.159151 32.111996 117 48 67
2.291189 4.226915 32.100918 121 53 73
2.290465 4.294756 32.090775 126 57 78
2.289804 4.362674 32.081516 127 58 78
2.289201 4.430663 32.073059 126 58 76
2.288647 4.498714 32.065308 125 58 74
2.288136 4.566815 32.058140 124 57 73
2.287657 4.634952 32.051434 124 57 72
2.287202 4.703108 32.045055 125 58 72
2.286762 4.771268 32.038895 126 59 73
2.286330 4.839418 32.032837 127 60 74
2.285898 4.907545 32.026794 127 61 73
2.285464 4.975637 32.020702 126 60 71
2.285022 5.043687 32.014515 124 58 69
2.284571 5.111692 32.008205 122 55 67
2.284113 5.179651 32.001774 121 53 65
2.283646 5.247564 31.995241 122 53 66
2.283175 5.315437 31.988632 126 56 70
2.282701 5.383276 31.981991 131 60 75
2.282227 5.451087 31.975357 133 61 77
2.281758 5.518880 31.968784 131 58 75
2.281296 5.586663 31.962309 128 54 71
2.280844 5.654442 31.955975 124 51 68
2.280404 5.722225 31.949812 124 51 68
2.279978 5.790016 31.943848 125 52 68
2.279568 5.857821 31.938097 127 53 68
2.279174 5.925645 31.932577 130 57 71
2.278797 5.993490 31.927298 136 62 76
2.278438 6.061358 31.922264 138 64 79
2.278096 6.129253 31.917477 134 60 77
2.277772 6.197176 31.912943 127 54 72
2.277467 6.265129 31.908663 123 51 70
2.277179 6.333113 31.904627 122 50 70
2.276908 6.401127 31.900835 120 50 69
2.276653 6.469171 31.897264 119 50 68
2.276413 6.537240 31.893894 119 50 69
2.276184 6.605327 31.890684 120 51 70
2.275962 6.673423 31.887583 125 56 75
2.275744 6.741515 31.884520 134 63 84
2.275522 6.809584 31.881416 141 69 92
2.275290 6.877608 31.878166 143 69 93
2.275040 6.945563 31.874660 143 67 91
2.274763 7.013421 31.870785 142 65 89
2.274451 7.081152 31.866409 143 64 88
2.274094 7.148723 31.861408 144 64 88
2.273684 7.216103 31.855658 145 63 87
2.273212 7.283261 31.849049 145 62 86
2.272671 7.350169 31.841475 148 63 87
2.272056 7.416799 31.832850 151 64 89
2.271360 7.483128 31.823103 151 63 90
2.270581 7.549136 31.812183 147 58 87
2.269715 7.614807 31.800051 143 55 84
2.268760 7.680126 31.786674 144 56 85
2.267716 7.745080 31.772043 146 59 90
2.266581 7.809661 31.756145 150 64 94
2.265356 7.873857 31.738977 153 69 98
2.264039 7.937658 31.720526 156 72 101
2.633081 -0.919859 35.809509 114 62 89
2.626425 -0.840536 35.718987 118 65 90
2.619726 -0.761590 35.627876 119 65 88
2.612977 -0.683024 35.536098 119 63 84
2.606176 -0.604842 35.443600 120 64 83
2.599322 -0.527048 35.350384 122 67 86
2.592418 -0.449647 35.256489 123 70 88
2.585471 -0.372645 35.162014 118 67 86
2.578490 -0.296046 35.067081 115 66 85
2.571488 -0.219854 34.971855 115 69 88
2.564479 -0.144073 34.876534 118 74 91
2.557479 -0.068703 34.781334 122 78 96
2.550505 0.006257 34.686478 127 84 102
2.543572 0.080809 34.592205 130 85 104
2.536700 0.154958 34.498737 128 83 102
2.529903 0.228712 34.406300 125 80 99
2.523197 0.302077 34.315098 123 78 97
2.516595 0.375065 34.225307 123 78 95
2.510109 0.447686 34.137104 126 82 98
2.503749 0.519954 34.050617 132 89 104
2.497524 0.591880 33.965950 133 91 106
2.491439 0.663479 33.883198 128 87 103
2.485500 0.734764 33.802425 124 85 101
2.479710 0.805749 33.723679 124 86 103
2.474071 0.876448 33.646988 124 86 105
2.468584 0.946875 33.572372 124 85 105
2.463251 1.017044 33.499840 124 84 106
2.458072 1.086968 33.429409 125 84 107
2.453048 1.156662 33.361088 125 84 107
2.448181 1.226139 33.294888 123 83 106
2.443471 1.295415 33.230843 122 83 106
2.438922 1.364505 33.168976 120 82 106
2.434537 1.433424 33.109337 119 82 106
2.430319 1.502189 33.051975 120 83 108
2.426273 1.570819 32.996952 122 85 110
2.422404 1.639331 32.944336 122 87 110
2.418717 1.707745 32.894192 123 87 110
2.415217 1.776079 32.846588 122 87 109
2.411907 1.844355 32.801579 121 85 107
2.408792 1.912590 32.759205 119 84 105
2.405872 1.980804 32.719490 116 81 101
2.403147 2.049013 32.682434 113 79 97
2.400616 2.117233 32.648018 109 76 94
2.398275 2.185477 32.616177 105 73 90
2.396116 2.253757 32.586819 100 70 87
2.394132 2.322078 32.559830 96 67 83
2.392310 2.390445 32.535049 91 63 79
2.390637 2.458860 32.512302 88 58 73
2.389098 2.527317 32.491375 84 52 66
2.387676 2.595812 32.472038 81 47 60
2.386354 2.664334 32.454052 83 47 57
2.385112 2.732871 32.437160 87 49 58
2.383932 2.801408 32.421112 88 48 57
2.382796 2.869929 32.405666 88 47 56
2.381687 2.938417 32.390587 89 46 56
2.380591 3.006855 32.375675 90 45 57
2.379493 3.075227 32.360748 93 44 60
2.378384 3.143520 32.345665 97 45 63
2.377255 3.211722 32.330318 98 45 63
2.376103 3.279825 32.314651 99 44 63
2.374926 3.347825 32.298634 101 43 62
2.373724 3.415720 32.282291 102 43 60
2.372503 3.483517 32.265682 103 43 58
2.371269 3.551223 32.248898 105 43 58
2.370031 3.618850 32.232059 109 45 58
2.368799 3.686414 32.215305 113 47 61
2.367584 3.753934 32.198792 115 49 62
2.366399 3.821430 32.182674 117 49 63
2.365253 3.888921 32.167091 117 49 63
2.364157 3.956429 32.152184 117 48 63
2.363119 4.023970 32.138065 116 48 63
2.362146 4.091562 32.124825 115 47 63
2.361240 4.159217 32.112511 115 48 66
2.360404 4.226945 32.101147 119 51 71
2.359638 4.294749 32.090725 124 55 76
2.358938 4.362631 32.081203 126 57 78
2.358299 4.430586 32.072506 126 57 76
2.357714 4.498608 32.064552 125 57 74
2.357175 4.566685 32.057232 124 56 72
2.356675 4.634806 32.050426 123 56 71
2.356204 4.702956 32.044025 124 57 71
2.355755 4.771122 32.037907 125 58 72
2.355318 4.839288 32.031975 125 59 73
2.354889 4.907444 32.026138 126 61 73
2.354461 4.975577 32.020321 126 62 73
2.354031 5.043681 32.014473 125 61 71
2.353596 5.111749 32.008556 123 58 69
2.353155 5.179777 32.002552 122 56 68
2.352707 5.247764 31.996458 123 55 69
2.352252 5.315710 31.990274 127 59 73
2.351792 5.383617 31.984022 132 62 77
2.351329 5.451490 31.977720 133 61 78
2.350864 5.519331 31.971392 131 58 75
2.350398 5.587144 31.965061 127 53 70
2.349934 5.654933 31.958750 125 50 66
2.349473 5.722702 31.952478 125 50 66
2.349016 5.790454 31.946262 125 51 66
2.348564 5.858193 31.940123 126 52 66
2.348119 5.925923 31.934072 130 55 69
2.347682 5.993646 31.928127 136 62 75
2.347255 6.061367 31.922308 140 66 79
2.346837 6.129090 31.916630 136 62 77
2.346431 6.196819 31.911106 129 55 72
2.346038 6.264559 31.905758 125 52 70
2.345658 6.332312 31.900595 123 51 70
2.345293 6.400082 31.895626 121 51 70
2.344941 6.467868 31.890842 120 51 71
2.344602 6.535669 31.886234 121 51 72
2.344274 6.603480 31.881767 122 53 74
2.343952 6.671292 31.877399 127 57 79
2.343633 6.739092 31.873062 134 63 87
2.343311 6.806864 31.868679 141 69 93
2.342978 6.874584 31.864145 144 70 95
2.342626 6.942228 31.859356 145 69 94
2.342246 7.009770 31.854195 145 67 93
2.341830 7.077180 31.848536 145 66 91
2.341368 7.144426 31.842258 146 65 89
2.340853 7.211479 31.835245 146 64 87
2.340276 7.278310 31.827394 147 63 86
2.339630 7.344892 31.818615 150 65 88
2.338910 7.411202 31.808830 153 66 90
2.338113 7.477222 31.797989 152 64 90
2.337236 7.542936 31.786055 147 58 87
2.336276 7.608332 31.773008 143 54 84
2.335235 7.673400 31.758839 143 54 86
2.334111 7.738136 31.743555 145 58 91
2.332906 7.802534 31.727165 149 63 95
2.331620 7.866588 31.709677 153 68 99
2.330254 7.930295 31.691099 156 72 103
2.705953 -0.841322 35.752407 117 64 89
2.699060 -0.762305 35.661335 118 64 88
2.692112 -0.683667 35.569534 119 64 86
2.685105 -0.605411 35.476955 121 66 86
2.678040 -0.527543 35.383610 124 70 90
2.670921 -0.450069 35.289551 124 71 91
2.663754 -0.372993 35.194862 118 68 88
2.656551 -0.296321 35.099682 114 67 87
2.649323 -0.220057 35.004189 114 69 89
2.642086 -0.144205 34.908566 116 72 93
2.634856 -0.068765 34.813046 121 78 98
2.627651 0.006263 34.717850 127 84 105
2.620488 0.080881 34.623211 129 85 106
2.613385 0.155096 34.529358 125 81 102
2.606359 0.228912 34.436523 123 78 99
2.599424 0.302339 34.344894 121 75 96
2.592595 0.375387 34.254662 120 76 95
2.585883 0.448065 34.165989 124 80 98
2.579300 0.520387 34.079006 129 86 103
2.572853 0.592366 33.993824 131 88 105
2.566548 0.664014 33.910526 128 87 103
2.560392 0.735346 33.829189 126 86 102
2.554387 0.806374 33.749847 126 86 104
2.548536 0.877114 33.672543 125 86 105
2.542841 0.947578 33.597290 125 85 105
2.537302 1.017781 33.524113 125 84 106
2.531922 1.087736 33.453022 125 83 106
2.526700 1.157457 33.384033 124 83 106
2.521639 1.226960 33.317162 123 83 106
2.516741 1.296257 33.252445 122 83 106
2.512008 1.365366 33.189919 120 83 106
2.507446 1.434302 33.129631 120 83 106
2.503056 1.503083 33.071636 121 84 107
2.498845 1.571726 33.015999 122 85 109
2.494818 1.640249 32.962788 122 86 109
2.490979 1.708673 32.912071 123 87 108
2.487334 1.777016 32.863911 123 86 107
2.483887 1.845298 32.818363 121 84 106
2.480640 1.913539 32.775463 118 82 103
2.477595 1.981757 32.735237 115 79 100
2.474753 2.049968 32.697678 111 77 96
2.472109 2.118188 32.662750 108 74 92
2.469661 2.186430 32.630398 104 72 89
2.467399 2.254704 32.600521 100 69 86
2.465316 2.323017 32.572994 95 66 82
2.463399 2.391372 32.547665 91 62 77
2.461634 2.459771 32.524349 88 58 72
2.460006 2.528209 32.502834 84 53 66
2.458496 2.596679 32.482887 81 48 60
2.457087 2.665173 32.464275 82 46 56
2.455761 2.733678 32.446743 84 46 54
2.454497 2.802180 32.430050 85 46 53
2.453279 2.870663 32.413952 86 46 54
2.452089 2.939110 32.398232 89 47 56
2.450912 3.007506 32.382687 91 45 57
2.449736 3.075836 32.367149 92 44 59
2.448550 3.144085 32.351479 95 43 61
2.447347 3.212245 32.335579 98 44 62
2.446122 3.280307 32.319393 99 44 62
2.444874 3.348267 32.302902 101 43 61
2.443604 3.416126 32.286121 102 42 59
2.442317 3.483888 32.269115 103 43 58
2.441019 3.551561 32.251972 105 43 57
2.439720 3.619158 32.234802 109 46 58
2.438429 3.686694 32.217751 114 49 61
2.437158 3.754187 32.200958 117 51 62
2.435918 3.821656 32.184570 118 52 63
2.434719 3.889120 32.168736 118 52 64
2.433572 3.956599 32.153576 117 51 63
2.432484 4.024113 32.139206 116 48 62
2.431463 4.091674 32.125706 114 47 62
2.430511 4.159298 32.113132 114 48 65
2.429631 4.226993 32.101509 117 50 69
2.428824 4.294765 32.090839 120 53 72
2.428085 4.362615 32.081081 123 54 74
2.427411 4.430540 32.072174 124 55 74
2.426795 4.498536 32.064041 124 55 73
2.426231 4.566593 32.056583 124 55 72
2.425711 4.634702 32.049709 123 55 71
2.425225 4.702849 32.043297 123 56 70
2.424767 4.771023 32.037247 124 57 71
2.424330 4.839211 32.031460 124 59 73
2.423905 4.907400 32.025848 125 62 75
2.423487 4.975579 32.020332 126 64 76
2.423073 5.043741 32.014854 126 63 76
2.422657 5.111877 32.009361 123 60 73
2.422237 5.179981 32.003815 121 57 71
2.421812 5.248048 31.998194 123 57 72
2.421379 5.316076 31.992477 129 62 78
2.420939 5.384062 31.986662 135 65 82
2.420491 5.452004 31.980738 135 63 81
2.420034 5.519903 31.974709 133 59 76
2.419570 5.587758 31.968575 130 55 72
2.419098 5.655568 31.962339 128 53 69
2.418619 5.723334 31.956009 127 51 67
2.418133 5.791058 31.949594 126 51 66
2.417642 5.858741 31.943108 126 51 65
2.417147 5.926385 31.936565 130 54 68
2.416649 5.993995 31.929987 137 62 74
2.416151 6.061574 31.923399 141 67 80
2.415653 6.129128 31.916828 137 63 77
2.415160 6.196664 31.910309 130 56 72
2.414672 6.264187 31.903866 125 53 70
2.414193 6.331703 31.897530 123 51 71
2.413723 6.399217 31.891315 121 52 72
2.413263 6.466732 31.885239 121 52 73
2.412812 6.534245 31.879288 122 53 75
2.412370 6.601756 31.873442 126 57 79
2.411932 6.669255 31.867664 130 60 84
2.411496 6.736731 31.861893 136 65 91
2.411054 6.804167 31.856052 143 71 96
2.410599 6.871540 31.850039 146 73 98
2.410123 6.938828 31.843752 147 71 96
2.409618 7.006004 31.837080 146 69 94
2.409074 7.073038 31.829895 146 67 92
2.408483 7.139901 31.822090 146 65 90
2.407837 7.206564 31.813551 148 64 89
2.407128 7.273002 31.804184 150 65 89
2.406350 7.339190 31.793913 152 66 90
2.405500 7.405108 31.782673 153 66 91
2.404573 7.470743 31.770435 152 63 90
2.403570 7.536083 31.757175 148 59 87
2.402489 7.601121 31.742895 144 55 86
2.401332 7.665854 31.727608 144 56 88
2.400101 7.730282 31.711338 146 59 92
2.398797 7.794405 31.694109 148 61 95
2.397423 7.858222 31.675955 152 67 100
2.778615 -0.763042 35.695774 118 64 87
2.771462 -0.684327 35.603886 121 67 89
2.764244 -0.605995 35.511169 124 69 90
2.756964 -0.528051 35.417641 125 71 92
2.749625 -0.450500 35.323360 123 71 92
2.742235 -0.373348 35.228420 118 67 89
2.734804 -0.296602 35.132965 116 67 89
2.727347 -0.220265 35.037163 116 70 91
2.719879 -0.144340 34.941223 117 72 95
2.712417 -0.068829 34.845367 121 77 100
2.704980 0.006268 34.749821 126 82 106
2.697585 0.080955 34.654819 125 81 105
2.690250 0.155236 34.560593 122 77 102
2.682992 0.229117 34.467358 121 75 100
2.675828 0.302607 34.375320 119 74 98
2.668771 0.375715 34.284657 119 75 97
2.661833 0.448453 34.195526 123 80 100
2.655025 0.520831 34.108067 127 84 102
2.648355 0.592863 34.022381 128 86 103
2.641829 0.664563 33.938553 127 85 102
2.635454 0.735943 33.856655 126 85 102
2.629233 0.807017 33.776733 126 85 103
2.623168 0.877798 33.698822 125 85 103
2.617262 0.948302 33.622940 125 85 105
2.611515 1.018540 33.549118 125 84 106
2.605930 1.088527 33.477364 125 84 106
2.600507 1.158278 33.407703 124 83 106
2.595250 1.227806 33.340157 123 82 105
2.590159 1.297127 33.274765 122 82 105
2.585240 1.366257 33.211571 122 83 105
2.580496 1.435211 33.150620 122 83 106
2.575931 1.504007 33.091972 121 84 107
2.571550 1.572663 33.035698 121 84 106
2.567360 1.641199 32.981869 120 83 104
2.563365 1.709632 32.930550 120 83 104
2.559570 1.777983 32.881802 122 84 105
2.555980 1.846272 32.835682 120 83 105
2.552598 1.914518 32.792221 117 81 102
2.549423 1.982738 32.751442 114 78 99
2.546456 2.050950 32.713329 111 76 96
2.543695 2.119168 32.677853 107 74 92
2.541133 2.187405 32.644943 103 72 88
2.538764 2.255671 32.614502 99 69 85
2.536576 2.323972 32.586395 95 66 81
2.534557 2.392313 32.560467 91 63 76
2.532694 2.460692 32.536533 87 58 71
2.530970 2.529107 32.514381 83 54 64
2.529366 2.597550 32.493786 81 49 58
2.527866 2.666013 32.474503 81 46 54
2.526448 2.734483 32.456295 81 45 52
2.525096 2.802946 32.438919 82 45 51
2.523790 2.871388 32.422138 85 46 52
2.522514 2.939792 32.405746 89 47 57
2.521253 3.008144 32.389549 90 46 57
2.519994 3.076428 32.373383 92 44 57
2.518728 3.144633 32.357113 96 43 60
2.517447 3.212749 32.340652 99 44 61
2.516146 3.280769 32.323948 101 44 61
2.514825 3.348690 32.306976 103 43 60
2.513485 3.416511 32.289764 104 43 59
2.512131 3.484239 32.272369 105 43 57
2.510769 3.551881 32.254875 106 44 56
2.509409 3.619449 32.237392 111 47 58
2.508059 3.686958 32.220058 116 51 61
2.506732 3.754426 32.203003 118 52 62
2.505437 3.821870 32.186375 119 53 62
2.504186 3.889310 32.170303 119 53 63
2.502989 3.956764 32.154915 119 52 62
2.501852 4.024252 32.140320 117 50 62
2.500783 4.091787 32.126587 116 48 62
2.499787 4.159382 32.113785 116 48 64
2.498864 4.227048 32.101933 118 49 67
2.498016 4.294791 32.091038 120 51 70
2.497240 4.362613 32.081066 122 52 72
2.496532 4.430513 32.071976 122 53 72
2.495887 4.498487 32.063690 123 54 72
2.495299 4.566528 32.056129 123 54 71
2.494760 4.634629 32.049202 123 55 71
2.494262 4.702778 32.042812 123 55 70
2.493799 4.770965 32.036858 123 56 71
2.493362 4.839178 32.031246 122 58 72
2.492945 4.907406 32.025890 123 60 75
2.492542 4.975638 32.020710 126 65 79
2.492146 5.043864 32.015633 128 67 81
2.491755 5.112075 32.010597 125 63 79
2.491362 5.180263 32.005554 121 59 74
2.490965 5.248418 32.000450 123 59 76
2.490560 5.316537 31.995251 131 64 82
2.490145 5.384610 31.989920 136 67 86
2.489717 5.452633 31.984425 136 66 84
2.489275 5.520601 31.978748 133 61 79
2.488817 5.588508 31.972864 131 58 75
2.488342 5.656350 31.966759 131 56 74
2.487849 5.724125 31.960424 129 54 71
2.487338 5.791830 31.953856 127 51 68
2.486809 5.859466 31.947060 126 50 66
2.486263 5.927032 31.940052 129 53 68
2.485703 5.994534 31.932861 137 62 75
2.485131 6.061975 31.925510 141 67 80
2.484550 6.129362 31.918045 138 64 78
2.483963 6.196702 31.910505 131 57 73
2.483374 6.264004 31.902931 125 52 70
2.482785 6.331274 31.895367 122 51 70
2.482199 6.398520 31.887838 121 51 71
2.481618 6.465745 31.880373 122 53 74
2.481042 6.532951 31.872972 124 55 78
2.480469 6.600136 31.865622 127 59 82
2.479899 6.667293 31.858290 132 62 88
2.479325 6.734411 31.850922 138 67 93
2.478743 6.801473 31.843443 143 71 97
2.478145 6.868459 31.835756 146 73 98
2.477522 6.935344 31.827763 146 71 96
2.476868 7.002104 31.819355 146 68 93
2.476172 7.068708 31.810413 146 66 91
2.475426 7.135131 31.800829 146 65 90
2.474622 7.201344 31.790504 148 65 90
2.473754 7.267323 31.779354 151 66 92
2.472817 7.333049 31.767309 153 66 93
2.471806 7.398504 31.754330 153 65 93
2.470721 7.463679 31.740393 152 63 92
2.469562 7.528566 31.725500 149 60 91
2.468330 7.593165 31.709671 147 58 90
2.467027 7.657477 31.692934 146 59 92
2.465657 7.721507 31.675339 147 60 95
2.464225 7.785262 31.656933 148 61 97
2.462732 7.848747 31.637758 153 66 102
2.858390 -0.763797 35.731125 116 64 85
2.851027 -0.685004 35.639076 122 69 89
2.843594 -0.606592 35.546165 125 71 91
2.836093 -0.528569 35.452400 124 71 91
2.828529 -0.450940 35.357845 122 70 91
2.820911 -0.373711 35.262615 119 69 91
2.813249 -0.296888 35.166843 118 69 92
2.805559 -0.220476 35.070717 120 72 95
2.797858 -0.144477 34.974438 121 74 98
2.790162 -0.068894 34.878235 123 77 102
2.782490 0.006274 34.782333 125 80 105
2.774861 0.081030 34.686970 124 78 105
2.767293 0.155379 34.592369 122 76 104
2.759804 0.229326 34.498749 121 75 102
2.752409 0.302880 34.406311 120 75 100
2.745123 0.376050 34.315231 121 77 101
2.737958 0.448848 34.225666 124 81 102
2.730924 0.521284 34.137741 126 83 102
2.724030 0.593372 34.051567 125 84 101
2.717283 0.665124 33.967224 125 84 100
2.710688 0.736554 33.884785 125 84 100
2.704249 0.807675 33.804291 125 85 101
2.697968 0.878501 33.725780 126 85 102
2.691849 0.949044 33.649277 126 85 103
2.685891 1.019320 33.574810 125 84 105
2.680099 1.089342 33.502399 125 84 105
2.674472 1.159123 33.432068 124 83 105
2.669014 1.228679 33.363842 123 82 105
2.663729 1.298024 33.297768 123 82 105
2.658619 1.367175 33.233891 123 82 105
2.653689 1.436148 33.172264 122 83 105
2.648944 1.504961 33.112949 122 83 105
2.644389 1.573631 33.056019 120 83 103
2.640032 1.642178 33.001545 118 81 101
2.635876 1.710621 32.949596 119 82 101
2.631927 1.778980 32.900230 120 83 103
2.628189 1.847274 32.853500 119 83 103
2.624664 1.915523 32.809444 117 81 101
2.621354 1.983745 32.768070 114 78 99
2.618258 2.051955 32.729366 110 76 95
2.615373 2.120169 32.693295 106 74 92
2.612692 2.188399 32.659782 102 72 88
2.610207 2.256655 32.628727 98 70 84
2.607908 2.324942 32.599991 93 67 80
2.605783 2.393264 32.573414 89 63 75
2.603815 2.461621 32.548817 85 59 70
2.601988 2.530009 32.525982 82 54 63
2.600284 2.598422 32.504688 79 50 57
2.598685 2.666850 32.484695 79 47 53
2.597171 2.735282 32.465775 79 46 52
2.595724 2.803704 32.447678 80 45 51
2.594325 2.872101 32.430191 84 46 52
2.592958 2.940459 32.413101 89 48 56
2.591608 3.008764 32.396229 90 46 56
2.590263 3.077001 32.379410 93 43 56
2.588912 3.145160 32.362534 97 43 59
2.587550 3.213230 32.345501 101 44 61
2.586171 3.281208 32.328266 103 44 61
2.584776 3.349088 32.310822 105 44 60
2.583364 3.416872 32.293179 106 44 59
2.581942 3.484566 32.275398 107 44 57
2.580515 3.552177 32.257565 108 45 56
2.579093 3.619717 32.239780 113 49 59
2.577684 3.687200 32.222176 118 53 62
2.576301 3.754644 32.204880 120 54 62
2.574952 3.822066 32.188026 120 54 62
2.573650 3.889484 32.171741 119 53 61
2.572402 3.956916 32.156147 120 53 62
2.571218 4.024380 32.141342 119 51 62
2.570103 4.091891 32.127407 118 50 63
2.569062 4.159462 32.114395 117 49 64
2.568098 4.227102 32.102341 118 50 66
2.567210 4.294819 32.091248 120 50 68
2.566398 4.362617 32.081097 121 51 70
2.565658 4.430495 32.071842 123 52 71
2.564986 4.498451 32.063435 124 53 71
2.564375 4.566482 32.055801 124 54 71
2.563819 4.634579 32.048859 124 54 71
2.563312 4.702734 32.042515 124 55 71
2.562846 4.770940 32.036690 122 55 70
2.562414 4.839185 32.031292 120 55 71
2.562009 4.907458 32.026230 122 58 75
2.561625 4.975749 32.021427 127 64 81
2.561255 5.044047 32.016796 130 68 85
2.560892 5.112341 32.012268 126 64 81
2.560533 5.180622 32.007774 121 59 76
2.560170 5.248877 32.003242 123 60 78
2.559800 5.317096 31.998615 131 66 84
2.559417 5.385268 31.993824 136 69 88
2.559016 5.453382 31.988821 136 68 86
2.558595 5.521430 31.983555 134 63 82
2.558149 5.589401 31.977976 132 61 80
2.557675 5.657287 31.972054 132 59 78
2.557172 5.725080 31.965759 131 57 75
2.556637 5.792777 31.959076 128 53 71
2.556072 5.860373 31.952007 125 50 68
2.555476 5.927869 31.944563 128 53 70
2.554852 5.995267 31.936764 136 61 76
2.554203 6.062572 31.928654 141 67 81
2.553533 6.129791 31.920277 138 64 79
2.552846 6.196932 31.911686 131 58 74
2.552146 6.264005 31.902935 125 52 70
2.551437 6.331018 31.894075 120 49 68
2.550724 6.397981 31.885155 119 50 70
2.550008 6.464899 31.876204 121 52 75
2.549290 6.531776 31.867239 124 57 80
2.548571 6.598609 31.858250 128 61 85
2.547848 6.665394 31.849215 133 64 89
2.547118 6.732120 31.840086 137 67 93
2.546375 6.798771 31.830791 141 71 95
2.545610 6.865327 31.821239 144 72 97
2.544818 6.931765 31.811337 145 71 95
2.543989 6.998059 31.800976 145 68 92
2.543115 7.064183 31.790045 145 66 91
2.542187 7.130108 31.778442 147 67 92
2.541198 7.195811 31.766079 151 68 93
2.540142 7.261269 31.752878 152 68 95
2.539015 7.326466 31.738791 153 67 95
2.537814 7.391387 31.723783 152 66 94
2.536540 7.456028 31.707857 151 64 94
2.535194 7.520385 31.691025 149 62 95
2.533778 7.584463 31.673328 149 62 95
2.532297 7.648267 31.654818 149 62 96
2.530757 7.711811 31.635563 150 63 98
2.529162 7.775104 31.615629 151 64 100
2.527519 7.838160 31.595085 154 67 103
2.930809 -0.685696 35.675064 121 68 88
2.923155 -0.607202 35.581894 123 70 90
2.915428 -0.529097 35.487835 122 69 89
2.907634 -0.451388 35.392967 122 70 90
2.899783 -0.374079 35.297401 122 71 92
2.891887 -0.297179 35.201286 121 72 95
2.883961 -0.220690 35.104805 122 73 97
2.876022 -0.144617 35.008171 122 74 99
2.868089 -0.068960 34.911613 122 75 101
2.860181 0.006280 34.815353 123 76 103
2.852317 0.081107 34.719627 125 77 106
2.844516 0.155524 34.624660 125 78 107
2.836794 0.229538 34.530670 124 78 106
2.829168 0.303158 34.437847 124 78 105
2.821652 0.376391 34.346363 125 80 104
2.814260 0.449251 34.256374 126 82 104
2.807000 0.521746 34.168007 124 81 100
2.799882 0.593891 34.081360 122 81 98
2.792912 0.665698 33.996517 123 82 97
2.786095 0.737179 33.913544 123 84 97
2.779437 0.808349 33.832493 125 85 98
2.772938 0.879220 33.753395 126 85 100
2.766603 0.949806 33.676277 126 85 102
2.760433 1.020120 33.601173 125 84 103
2.754430 1.090177 33.528103 124 84 103
2.748597 1.159991 33.457100 123 83 104
2.742936 1.229575 33.388191 124 82 106
2.737451 1.298946 33.321430 124 82 106
2.732147 1.368120 33.256859 124 82 106
2.727027 1.437113 33.194542 123 82 105
2.722098 1.505942 33.134541 121 82 103
2.717365 1.574626 33.076935 119 81 101
2.712835 1.643185 33.021793 118 81 99
2.708513 1.711638 32.969185 118 82 99
2.704405 1.780004 32.919170 118 83 101
2.700513 1.848303 32.871803 118 82 100
2.696841 1.916555 32.827110 116 81 99
2.693391 1.984776 32.785103 113 79 97
2.690159 2.052983 32.745762 110 76 94
2.687143 2.121191 32.709049 106 75 91
2.684336 2.189411 32.674889 101 73 87
2.681730 2.257653 32.643166 96 71 83
2.679314 2.325923 32.613754 92 68 79
2.677073 2.394224 32.586483 87 64 74
2.674994 2.462556 32.561176 83 59 69
2.673059 2.530914 32.537613 79 54 62
2.671248 2.599293 32.515575 78 50 58
2.669544 2.667682 32.494839 78 49 55
2.667928 2.736072 32.475159 78 47 52
2.666379 2.804450 32.456314 80 46 51
2.664882 2.872800 32.438084 84 47 52
2.663419 2.941110 32.420273 88 48 55
2.661975 3.009365 32.402702 91 46 55
2.660539 3.077553 32.385220 93 43 54
2.659101 3.145663 32.367718 98 43 57
2.657654 3.213688 32.350101 103 44 60
2.656195 3.281621 32.332340 105 44 59
2.654722 3.349460 32.314411 106 44 58
2.653237 3.417207 32.296341 107 44 57
2.651746 3.484867 32.278183 109 45 57
2.650253 3.552447 32.260014 110 45 56
2.648768 3.619959 32.241940 113 50 58
2.647301 3.687418 32.224079 118 54 62
2.645861 3.754839 32.206554 119 54 62
2.644459 3.822239 32.189491 119 54 62
2.643105 3.889637 32.173012 119 53 61
2.641809 3.957049 32.157227 120 53 62
2.640577 4.024492 32.142239 120 52 63
2.639417 4.091982 32.128117 120 51 63
2.638333 4.159530 32.114925 119 50 64
2.637328 4.227148 32.102688 119 50 65
2.636403 4.294843 32.091423 120 50 67
2.635556 4.362619 32.081116 121 51 68
2.634785 4.430479 32.071732 123 52 69
2.634087 4.498423 32.063229 124 53 70
2.633456 4.566446 32.055553 125 54 70
2.632887 4.634545 32.048626 125 54 71
2.632373 4.702713 32.042370 124 54 71
2.631908 4.770944 32.036713 122 53 71
2.631485 4.839227 32.031567 120 53 71
2.631098 4.907553 32.026848 122 56 74
2.630738 4.975911 32.022469 127 63 81
2.630399 5.044291 32.018341 129 67 86
2.630073 5.112678 32.014378 125 64 82
2.629754 5.181061 32.010490 120 59 77
2.629434 5.249426 32.006596 123 61 79
2.629106 5.317758 32.002602 130 67 85
2.628762 5.386041 31.998419 136 71 90
2.628397 5.454260 31.993969 137 70 90
2.628003 5.522401 31.989174 135 67 86
2.627574 5.590447 31.983963 134 64 83
2.627107 5.658388 31.978277 133 62 82
2.626598 5.726211 31.972071 131 59 79
2.626043 5.793908 31.965315 129 56 75
2.625442 5.861473 31.958000 127 53 73
2.624795 5.928903 31.950134 129 55 74
2.624106 5.996201 31.941740 136 63 80
2.623376 6.063371 31.932859 141 67 84
2.622611 6.130418 31.923546 138 64 81
2.621816 6.197355 31.913864 130 58 75
2.620996 6.264190 31.903881 124 52 70
2.620156 6.330935 31.893658 119 48 67
2.619301 6.397600 31.883255 117 48 70
2.618435 6.464191 31.872715 120 51 75
2.617560 6.530715 31.862064 124 56 81
2.616676 6.597170 31.851303 129 62 87
2.615782 6.663553 31.840418 134 65 90
2.614874 6.729853 31.829365 136 68 92
2.613947 6.796056 31.818079 140 69 94
2.612993 6.862141 31.806471 142 70 94
2.612006 6.928086 31.794455 143 69 93
2.610977 6.993867 31.781925 144 68 91
2.609897 7.059458 31.768784 144 67 91
2.608759 7.124832 31.754929 148 68 93
2.607555 7.189967 31.740280 152 71 96
2.606282 7.254843 31.724777 154 71 98
2.604934 7.319445 31.708376 153 68 97
2.603512 7.383764 31.691063 151 66 95
2.602016 7.447797 31.672855 150 65 95
2.600450 7.511548 31.653786 149 64 96
2.598817 7.575024 31.633911 149 64 97
2.597124 7.638238 31.613308 151 65 99
2.595379 7.701206 31.592060 152 67 101
2.593588 7.763946 31.570259 154 69 102
3.002929 -0.607824 35.618332 120 68 86
2.994971 -0.529635 35.523933 120 68 87
2.986942 -0.451843 35.428707 121 69 89
2.978854 -0.374454 35.332767 123 72 93
2.970719 -0.297474 35.236279 123 73 95
2.962554 -0.220908 35.139427 121 72 95
2.954376 -0.144758 35.042423 119 71 96
2.946204 -0.069027 34.945499 120 73 98
2.938058 0.006286 34.848877 122 74 101
2.929957 0.081184 34.752792 125 78 106
2.921921 0.155671 34.657471 128 81 109
2.913966 0.229754 34.563114 127 80 108
2.906108 0.303440 34.469917 127 80 106
2.898363 0.376739 34.378044 128 82 106
2.890742 0.449661 34.287651 128 82 104
2.883255 0.522217 34.198853 122 78 97
2.875912 0.594421 34.111748 119 77 93
2.868718 0.666283 34.026417 121 80 94
2.861679 0.737818 33.942932 123 83 94
2.854799 0.809038 33.861332 124 85 95
2.848082 0.879956 33.781654 126 87 98
2.841529 0.950586 33.703930 126 86 100
2.835144 1.020941 33.628189 124 84 100
2.828928 1.091035 33.554466 123 83 101
2.822885 1.160882 33.482788 123 82 102
2.817018 1.230496 33.413193 123 82 105
2.811330 1.299894 33.345734 124 82 106
2.805827 1.369091 33.280460 124 82 106
2.800514 1.438104 33.217438 123 82 105
2.795396 1.506951 33.156738 121 80 102
2.790481 1.575650 33.098434 118 80 99
2.785774 1.644221 33.042603 118 81 98
2.781281 1.712683 32.989307 119 83 99
2.777007 1.781055 32.938614 119 84 99
2.772956 1.849359 32.890572 118 83 98
2.769131 1.917611 32.845203 116 81 97
2.765533 1.985830 32.802525 113 80 95
2.762159 2.054033 32.762505 109 77 93
2.759006 2.122232 32.725105 106 76 90
2.756067 2.190441 32.690247 101 74 86
2.753333 2.258667 32.657818 95 71 82
2.750792 2.326917 32.627678 90 68 78
2.748430 2.395193 32.599667 86 64 73
2.746233 2.463495 32.573601 81 59 68
2.744181 2.531820 32.549267 77 53 62
2.742257 2.600162 32.526447 76 51 58
2.740442 2.668510 32.504917 77 49 56
2.738716 2.736855 32.484447 78 48 54
2.737062 2.805185 32.464821 79 47 53
2.735460 2.873485 32.445824 83 46 53
2.733895 2.941744 32.427261 87 46 54
2.732353 3.009947 32.408970 91 45 54
2.730822 3.078084 32.390808 94 43 55
2.729292 3.146145 32.372665 99 44 56
2.727758 3.214121 32.354465 104 44 59
2.726215 3.282009 32.336166 106 44 58
2.724663 3.349807 32.317753 107 44 58
2.723103 3.417516 32.299255 109 45 57
2.721540 3.485141 32.280724 111 46 57
2.719981 3.552691 32.262226 112 47 57
2.718434 3.620176 32.243870 113 49 58
2.716907 3.687611 32.225761 115 51 59
2.715411 3.755010 32.208015 117 52 60
2.713956 3.822390 32.190758 118 52 60
2.712551 3.889768 32.174099 119 52 61
2.711206 3.957162 32.158142 120 52 62
2.709928 4.024586 32.142986 120 52 63
2.708724 4.092056 32.128700 121 52 64
2.707598 4.159585 32.115345 121 51 65
2.706553 4.227183 32.102951 121 51 66
2.705590 4.294858 32.091537 120 50 67
2.704711 4.362617 32.081100 121 50 67
2.703911 4.430463 32.071613 122 51 67
2.703189 4.498397 32.063049 123 52 68
2.702541 4.566419 32.055359 124 53 69
2.701961 4.634525 32.048485 125 54 69
2.701444 4.702712 32.042358 124 54 70
2.700985 4.770973 32.036915 124 53 71
2.700577 4.839302 32.032066 122 53 70
2.700212 4.907690 32.027744 123 55 73
2.699883 4.976124 32.023842 128 62 79
2.699583 5.044595 32.020275 129 65 83
2.699301 5.113087 32.016937 124 62 80
2.699031 5.181586 32.013733 119 59 76
2.698762 5.250073 32.010540 121 60 78
2.698484 5.318531 32.007248 128 66 85
2.698189 5.386938 32.003746 134 72 90
2.697867 5.455275 31.999922 137 72 92
2.697508 5.523521 31.995667 135 69 89
2.697105 5.591657 31.990883 134 66 87
2.696650 5.659664 31.985489 133 64 85
2.696138 5.727528 31.979422 132 62 83
2.695566 5.795233 31.972630 131 60 81
2.694931 5.862774 31.965097 130 59 80
2.694233 5.930144 31.956823 132 60 81
2.693475 5.997344 31.947830 137 65 85
2.692660 6.064378 31.938166 141 69 87
2.691793 6.131252 31.927885 137 65 83
2.690881 6.197977 31.917068 129 58 76
2.689930 6.264565 31.905788 123 53 71
2.688947 6.331028 31.894129 120 50 70
2.687937 6.397378 31.882151 119 50 72
2.686906 6.463624 31.869913 121 53 76
2.685855 6.529770 31.857454 125 57 82
2.684787 6.595820 31.844784 129 62 87
2.683701 6.661770 31.831900 133 65 89
2.682593 6.727611 31.818758 134 66 90
2.681459 6.793328 31.805307 137 67 91
2.680292 6.858902 31.791460 138 67 91
2.679084 6.924312 31.777134 140 66 90
2.677828 6.989534 31.762234 140 66 89
2.676515 7.054542 31.746660 142 66 88
2.675137 7.119312 31.730326 146 68 92
2.673690 7.183822 31.713154 152 72 97
2.672168 7.248056 31.695101 154 73 99
2.670568 7.312002 31.676130 152 69 97
2.668892 7.375651 31.656246 149 65 95
2.667141 7.439007 31.635475 148 64 94
2.665320 7.502078 31.613876 147 65 96
2.663435 7.564874 31.591522 149 66 98
2.661495 7.627414 31.568508 152 68 102
2.659508 7.689721 31.544945 155 71 104
2.657485 7.751818 31.520941 156 72 105
3.074727 -0.530183 35.560696 119 66 85
3.066459 -0.452307 35.465069 120 67 88
3.058129 -0.374835 35.368729 123 72 92
3.049751 -0.297774 35.271835 124 74 96
3.041343 -0.221129 35.174591 119 70 93
3.032923 -0.144902 35.077206 115 67 91
3.024510 -0.069095 34.979908 118 71 95
3.016124 0.006292 34.882927 120 74 100
3.007786 0.081263 34.786488 124 78 104
2.999513 0.155821 34.690811 128 81 108
2.991324 0.229973 34.596100 128 81 108
2.983235 0.303727 34.502541 128 80 106
2.975259 0.377092 34.410297 130 83 107
2.967409 0.450078 34.319508 129 83 104
2.959695 0.522697 34.230293 122 77 96
2.952125 0.594961 34.142746 118 75 91
2.944706 0.666881 34.056942 121 80 92
2.937444 0.738470 33.972950 123 83 93
2.930342 0.809742 33.890808 124 85 93
2.923403 0.880709 33.810562 126 87 96
2.916631 0.951384 33.732235 127 87 97
2.910028 1.021781 33.655865 124 84 97
2.903596 1.091913 33.581486 122 81 98
2.897340 1.161795 33.509132 122 81 100
2.891263 1.231441 33.438843 123 82 103
2.885369 1.300866 33.370678 123 82 105
2.879664 1.370088 33.304695 123 82 105
2.874153 1.439122 33.240955 123 82 104
2.868842 1.507987 33.179539 122 82 103
2.863739 1.576701 33.120518 120 81 100
2.858850 1.645284 33.063969 120 83 99
2.854180 1.713755 33.009964 120 85 99
2.849735 1.782134 32.958557 120 85 99
2.845520 1.850440 32.909805 119 84 98
2.841536 1.918692 32.863728 116 82 96
2.837784 1.986908 32.820332 113 81 93
2.834262 2.055104 32.779594 110 79 91
2.830965 2.123293 32.741467 106 76 89
2.827887 2.191487 32.705864 100 74 85
2.825017 2.259695 32.672680 94 71 80
2.822345 2.327922 32.641769 89 67 76
2.819854 2.396170 32.612968 84 63 71
2.817531 2.464441 32.586102 79 57 66
2.815357 2.532729 32.560955 75 52 61
2.813313 2.601030 32.537308 74 49 59
2.811379 2.669334 32.514954 75 49 57
2.809538 2.737631 32.493660 76 47 55
2.807771 2.805910 32.473217 79 46 54
2.806059 2.874158 32.453419 82 46 53
2.804388 2.942363 32.434086 86 45 54
2.802742 3.010513 32.415058 91 44 55
2.801111 3.078596 32.396198 95 44 55
2.799487 3.146605 32.377407 100 44 56
2.797861 3.214533 32.358608 103 44 57
2.796232 3.282374 32.339764 107 44 57
2.794598 3.350130 32.320869 108 45 57
2.792962 3.417800 32.301945 110 46 58
2.791327 3.485391 32.283039 112 47 58
2.789700 3.552910 32.264221 112 47 58
2.788089 3.620369 32.245586 113 48 57
2.786503 3.687780 32.227238 113 49 58
2.784950 3.755158 32.209290 115 49 58
2.783442 3.822519 32.191845 116 50 59
2.781987 3.889880 32.175018 118 51 60
2.780594 3.957256 32.158909 120 52 62
2.779271 4.024662 32.143600 121 53 63
2.778023 4.092115 32.129166 121 53 65
2.776855 4.159626 32.115665 122 52 66
2.775772 4.227206 32.103130 122 51 67
2.774774 4.294865 32.091591 122 50 66
2.773862 4.362610 32.081047 121 50 65
2.773036 4.430445 32.071487 122 51 66
2.772292 4.498374 32.062889 122 52 66
2.771629 4.566399 32.055218 124 53 67
2.771042 4.634518 32.048431 124 54 69
2.770527 4.702729 32.042477 124 54 70
2.770078 4.771029 32.037285 124 54 70
2.769690 4.839412 32.032795 124 55 71
2.769354 4.907869 32.028912 126 57 73
2.769064 4.976390 32.025555 128 62 78
2.768810 5.044963 32.022614 128 64 80
2.768581 5.113572 32.019974 123 61 77
2.768369 5.182199 32.017517 119 58 74
2.768160 5.250822 32.015102 121 60 77
2.767944 5.319419 32.012596 126 65 84
2.767706 5.387965 32.009850 132 71 90
2.767436 5.456434 32.006721 135 72 93
2.767121 5.524801 32.003078 135 71 91
2.766750 5.593039 31.998789 133 68 89
2.766314 5.661126 31.993750 132 65 87
2.765805 5.729040 31.987864 132 64 86
2.765218 5.796764 31.981075 133 64 86
2.764550 5.864288 31.973351 134 64 86
2.763801 5.931603 31.964682 135 65 87
2.762971 5.998707 31.955090 138 67 89
2.762066 6.065604 31.944620 140 69 89
2.761091 6.132299 31.933340 137 66 86
2.760053 6.198807 31.921339 130 59 79
2.758960 6.265137 31.908701 124 54 75
2.757820 6.331304 31.895517 123 54 74
2.756640 6.397321 31.881868 124 55 77
2.755426 6.463200 31.867825 125 57 80
2.754182 6.528947 31.853437 127 59 83
2.752910 6.594565 31.838726 130 62 86
2.751610 6.660052 31.823690 133 64 88
2.750280 6.725400 31.808306 133 65 88
2.748915 6.790596 31.792521 134 64 87
2.747509 6.855621 31.776255 134 64 87
2.746054 6.920455 31.759432 135 62 85
2.744543 6.985073 31.741961 135 61 84
2.742969 7.049451 31.723751 137 62 84
2.741323 7.113567 31.704720 143 66 89
2.739601 7.177399 31.684801 150 71 95
2.737799 7.240934 31.663958 153 73 98
2.735915 7.304163 31.642172 150 69 95
2.733951 7.367079 31.619453 145 64 92
2.731910 7.429691 31.595854 144 62 91
2.729800 7.492008 31.571445 145 64 93
2.727627 7.554049 31.546320 148 66 97
2.725403 7.615837 31.520596 151 70 101
2.723138 7.677399 31.494400 156 73 105
2.720844 7.738766 31.467869 157 75 105
3.154702 -0.530742 35.598133 117 65 84
3.146189 -0.452779 35.502071 118 67 86
3.137613 -0.375223 35.405300 123 73 91
3.128989 -0.298079 35.307987 126 76 97
3.120335 -0.221353 35.210331 119 71 92
3.111670 -0.145048 35.112553 114 67 89
3.103014 -0.069164 35.014877 116 70 94
3.094387 0.006299 34.917530 119 75 98
3.085809 0.081343 34.820740 122 78 101
3.077299 0.155973 34.724712 126 80 104
3.068876 0.230196 34.629658 126 80 104
3.060553 0.304019 34.535748 126 80 103
3.052346 0.377452 34.443138 130 83 106
3.044267 0.450504 34.351971 130 83 104
3.036325 0.523187 34.262348 124 79 96
3.028528 0.595512 34.174366 121 77 92
3.020883 0.667491 34.088100 122 80 92
3.013395 0.739137 34.003609 124 83 93
3.006069 0.810462 33.920937 125 85 93
2.998907 0.881479 33.840118 126 86 94
2.991913 0.952201 33.761196 126 85 94
2.985089 1.022641 33.684196 124 82 94
2.978440 1.092813 33.609161 122 80 95
2.971967 1.162731 33.536129 121 81 97
2.965677 1.232409 33.465145 122 81 101
2.959573 1.301864 33.396267 122 81 103
2.953661 1.371111 33.329559 121 81 104
2.947948 1.440167 33.265091 123 83 105
2.942440 1.509050 33.202938 124 85 106
2.937144 1.577780 33.143177 124 86 104
2.932067 1.646375 33.085892 123 86 102
2.927216 1.714855 33.031147 123 86 101
2.922595 1.783239 32.979004 122 86 100
2.918209 1.851548 32.929508 120 85 97
2.914059 1.919799 32.882687 117 83 95
2.910147 1.988011 32.838539 113 81 92
