ply
format ascii 1.0
element vertex 1212
property float x
property float y
property float z
property uchar red
property uchar green
property uchar blue
end_header
-9.418127 1.990339 32.877003 133 55 75
-9.435425 2.064997 32.937386 133 55 76
-9.452751 2.139921 32.997871 133 56 77
-9.470158 2.215125 33.058632 133 58 77
-9.487680 2.290618 33.119801 133 59 76
-9.505345 2.366411 33.181465 132 59 76
-9.523163 2.442509 33.243664 131 59 74
-9.541130 2.518915 33.306385 131 59 73
-9.559232 2.595628 33.369576 131 60 72
-9.577445 2.672644 33.433155 131 61 72
-9.595737 2.749956 33.497009 132 62 73
-9.614070 2.827556 33.561005 132 62 73
-9.632402 2.905432 33.625000 132 62 73
-9.650697 2.983572 33.688862 132 62 73
-9.668917 3.061964 33.752464 132 63 73
-9.687034 3.140596 33.815708 133 63 74
-9.705025 3.219460 33.878513 132 63 74
-9.722881 3.298549 33.940845 131 61 73
-9.740602 3.377859 34.002708 129 60 72
-9.758200 3.457392 34.064137 129 60 72
-9.775694 3.537153 34.125206 129 60 73
-9.793120 3.617152 34.186039 129 60 74
-9.810515 3.697402 34.246761 130 61 76
-9.827931 3.777921 34.307556 130 61 78
-9.845419 3.858730 34.368603 131 62 80
-9.863035 3.939854 34.430099 132 63 82
-9.880833 4.021317 34.492229 132 63 82
-9.898871 4.103148 34.555195 131 61 79
-9.917199 4.185372 34.619175 130 60 76
-9.935869 4.268019 34.684349 130 60 76
-9.954923 4.351115 34.750862 130 60 74
-9.974405 4.434688 34.818871 128 59 72
-9.994349 4.518764 34.888496 127 58 71
-10.014790 4.603367 34.959846 125 56 70
-10.035748 4.688519 35.033009 123 54 69
-10.057248 4.774245 35.108063 120 52 67
-10.079302 4.860561 35.185047 119 53 66
-10.101918 4.947485 35.263996 119 53 65
-10.125093 5.035027 35.344894 117 53 63
-10.148813 5.123193 35.427700 115 53 62
-10.173057 5.211983 35.512329 112 53 60
-10.197786 5.301392 35.598656 109 51 58
-10.222951 5.391402 35.686501 105 50 56
-10.248488 5.481990 35.775650 101 48 54
-10.274323 5.573123 35.865829 97 46 52
-10.300364 5.664761 35.956738 92 43 49
-10.326515 5.756849 36.048023 89 40 47
-10.352671 5.849335 36.139328 87 39 46
-10.378721 5.942154 36.230267 86 38 45
-10.404556 6.035240 36.320454 86 38 44
-10.430068 6.128525 36.409512 86 38 44
-10.455157 6.221942 36.497093 85 39 45
-10.479733 6.315428 36.582878 85 40 47
-10.503717 6.408923 36.666607 86 41 49
-10.527044 6.502372 36.748035 86 42 50
-10.549669 6.595734 36.827015 86 43 51
-10.571557 6.688969 36.903423 85 44 51
-10.592694 6.782054 36.977211 83 44 50
-10.613076 6.874968 37.048359 80 41 47
-10.632717 6.967702 37.116920 76 37 43
-10.651639 7.060256 37.182976 74 35 41
-10.669877 7.152636 37.246639 72 33 39
-10.687469 7.244853 37.308052 70 32 38
-10.704465 7.336925 37.367382 70 32 37
-10.720912 7.428873 37.424793 70 31 36
-10.736865 7.520723 37.480484 71 32 36
-10.752378 7.612501 37.534634 72 32 37
-10.767506 7.704237 37.587444 72 33 37
-10.782304 7.795962 37.639099 72 33 38
-10.796828 7.887711 37.689804 73 34 38
-10.811131 7.979514 37.739731 73 35 39
-10.825266 8.071407 37.789078 74 37 41
-10.839287 8.163427 37.838020 75 39 42
-10.853241 8.255608 37.886730 75 40 43
-10.867175 8.347982 37.935371 75 40 43
-10.881130 8.440583 37.984085 74 40 43
-10.895145 8.533442 38.033012 74 40 43
-10.909256 8.626586 38.082268 73 41 43
-10.923487 8.720038 38.131947 72 40 43
-10.937862 8.813823 38.182129 72 39 42
-10.952398 8.907952 38.232868 72 38 42
-10.967104 9.002440 38.284206 72 38 42
-10.981980 9.097292 38.336136 73 38 43
-10.997029 9.192512 38.388668 73 38 43
-11.012243 9.288096 38.441780 73 38 43
-11.027613 9.384043 38.495430 73 39 43
-11.043128 9.480346 38.549591 73 38 43
-11.058775 9.576996 38.604214 73 38 43
-11.074544 9.673988 38.659260 73 38 44
-11.090427 9.771319 38.714706 72 38 44
-11.106422 9.868987 38.770542 71 38 44
-11.122527 9.966996 38.826763 71 37 44
-11.138749 10.065351 38.883389 71 37 45
-11.155101 10.164070 38.940472 71 36 45
-11.171603 10.263173 38.998077 72 36 44
-11.188280 10.362686 39.056293 73 36 44
-11.205164 10.462644 39.115234 73 36 44
-11.222294 10.563087 39.175030 73 36 44
-11.239708 10.664057 39.235821 72 35 43
-11.257450 10.765603 39.297752 72 36 43
-11.275566 10.867777 39.360992 72 37 43
-11.294101 10.970630 39.425694 71 37 42
-11.313098 11.074214 39.492012 71 37 42
-11.332598 11.178580 39.560081 70 37 41
-11.352640 11.283779 39.630043 68 36 40
-11.373259 11.389856 39.702019 66 36 39
-11.394486 11.496860 39.776123 65 35 38
-11.416355 11.604833 39.852463 63 34 37
-11.438891 11.713820 39.931133 63 33 37
-11.462124 11.823863 40.012234 63 33 36
-11.486079 11.935008 40.095856 62 33 35
-11.510786 12.047299 40.182102 62 33 35
-11.536270 12.160782 40.271065 62 33 34
-11.562560 12.275504 40.362839 63 35 35
-8.893460 -2.421874 31.280874 138 68 95
-8.887568 -2.352884 31.260153 139 71 97
-8.881462 -2.283927 31.238674 139 73 98
-8.875161 -2.215014 31.216511 141 75 100
-8.868690 -2.146156 31.193748 142 76 101
-8.862077 -2.077363 31.170488 144 77 102
-8.855355 -2.008645 31.146849 146 78 104
-8.848558 -1.940013 31.122942 147 78 104
-8.841723 -1.871475 31.098904 147 77 105
-8.834892 -1.803042 31.074873 147 75 105
-8.828101 -1.734721 31.050989 149 74 106
-8.821393 -1.666518 31.027395 151 75 107
-8.814809 -1.598440 31.004234 153 75 106
-8.808390 -1.530490 30.981659 154 74 104
-8.802176 -1.462671 30.959801 153 72 102
-8.796206 -1.394985 30.938803 151 68 97
-8.790516 -1.327433 30.918791 149 64 92
-8.785148 -1.260012 30.899910 149 63 91
-8.780137 -1.192722 30.882286 149 63 91
-8.775523 -1.125558 30.866058 150 64 91
-8.771348 -1.058517 30.851370 150 65 90
-8.767654 -0.991594 30.838379 150 65 89
-8.764488 -0.924783 30.827242 149 66 88
-8.761902 -0.858077 30.818148 148 67 89
-8.759950 -0.791467 30.811281 147 68 89
-8.758696 -0.724944 30.806868 147 69 91
-8.758201 -0.658498 30.805128 147 70 92
-8.758537 -0.592115 30.806313 146 71 93
-8.759776 -0.525782 30.810671 145 72 93
-8.761994 -0.459480 30.818470 146 73 94
-8.765264 -0.393193 30.829969 149 75 95
-8.769657 -0.326898 30.845423 151 77 96
-8.775240 -0.260571 30.865061 153 78 97
-8.782077 -0.194188 30.889107 154 79 97
-8.790212 -0.127719 30.917721 154 78 96
-8.799685 -0.061137 30.951038 154 77 94
-8.810513 0.005590 30.989128 153 76 94
-8.822706 0.072492 31.032011 152 75 93
-8.836243 0.139601 31.079622 152 74 93
-8.851088 0.206945 31.131840 151 73 93
-8.867186 0.274553 31.188459 151 72 93
-8.884461 0.342451 31.249224 152 71 94
-8.902816 0.410660 31.313780 151 69 93
-8.922135 0.479200 31.381733 150 67 92
-8.942290 0.548084 31.452623 149 66 90
-8.963140 0.617321 31.525961 148 64 89
-8.984534 0.686916 31.601210 147 64 88
-9.006322 0.756868 31.677843 146 64 88
-9.028346 0.827173 31.755308 146 65 88
-9.050463 0.897821 31.833099 145 65 88
-9.072532 0.968799 31.910721 144 66 89
-9.094427 1.040092 31.987734 144 67 91
-9.116042 1.111682 32.063759 145 69 93
-9.137289 1.183553 32.138493 147 72 96
-9.158101 1.255687 32.211693 151 75 99
-9.178436 1.328066 32.283218 156 79 103
-9.198275 1.400679 32.352997 161 84 106
-9.217619 1.473514 32.421036 161 82 102
-9.236491 1.546562 32.487415 152 71 90
-9.254933 1.619822 32.552280 142 61 79
-9.272996 1.693292 32.615814 140 59 77
-9.290746 1.766977 32.678246 140 59 77
-9.308254 1.840883 32.739826 137 57 76
-9.325592 1.915019 32.800808 135 55 75
-9.342831 1.989397 32.861439 133 55 74
-9.360036 2.064029 32.921959 132 55 75
-9.377266 2.138928 32.982559 132 57 76
-9.394568 2.214105 33.043419 133 59 77
-9.411977 2.289570 33.104649 133 60 77
-9.429516 2.365332 33.166336 132 60 76
-9.447193 2.441396 33.228516 131 60 75
-9.465008 2.517764 33.291172 131 60 73
-9.482944 2.594436 33.354259 130 60 73
-9.500980 2.671408 33.417702 131 60 73
-9.519088 2.748674 33.481388 131 61 74
-9.537230 2.826225 33.545200 132 62 74
-9.555372 2.904050 33.609009 133 63 74
-9.573479 2.982141 33.672699 133 63 74
-9.591519 3.060484 33.736153 132 63 73
-9.609470 3.139072 33.799290 132 63 73
-9.627315 3.217896 33.862053 131 62 73
-9.645047 3.296952 33.924423 130 61 73
-9.662669 3.376240 33.986408 129 61 72
-9.680199 3.455760 34.048061 129 60 72
-9.697657 3.535522 34.109467 129 60 73
-9.715078 3.615534 34.170746 130 61 75
-9.732503 3.695811 34.232033 131 62 77
-9.749979 3.776373 34.293499 131 63 79
-9.767555 3.857239 34.355320 132 63 81
-9.785286 3.938434 34.417686 132 63 82
-9.803220 4.019980 34.480762 132 63 82
-9.821410 4.101907 34.544743 130 61 79
-9.839904 4.184237 34.609791 129 60 76
-9.858747 4.267000 34.676067 129 60 76
-9.877976 4.350219 34.743702 129 60 75
-9.897634 4.433920 34.812843 127 59 73
-9.917749 4.518129 34.883595 125 57 71
-9.938353 4.602869 34.956062 123 56 70
-9.959465 4.688160 35.030323 121 54 68
-9.981111 4.774027 35.106457 120 53 67
-10.003301 4.860487 35.184505 119 54 66
-10.026045 4.947556 35.264503 118 54 65
-10.049338 5.035246 35.346436 117 54 64
-10.073176 5.123565 35.430279 115 53 62
-10.097532 5.212514 35.515945 112 52 61
-10.122376 5.302088 35.603329 109 51 59
-10.147657 5.392271 35.692249 106 50 57
-10.173319 5.483041 35.782505 102 48 54
-10.199282 5.574367 35.873829 98 46 53
-10.225463 5.666206 35.965912 94 44 51
-10.251760 5.758508 36.058407 91 42 49
-10.278071 5.851216 36.150955 89 40 48
-10.304283 5.944267 36.243149 89 39 47
-10.330285 6.037592 36.334606 89 40 47
-10.355963 6.131119 36.424919 90 40 47
-10.381216 6.224781 36.513741 90 42 47
-10.405947 6.318509 36.600727 90 42 49
-10.430075 6.412241 36.685593 90 43 51
-10.453527 6.505919 36.768082 90 44 52
-10.476256 6.599496 36.848026 89 46 53
-10.498222 6.692933 36.925285 89 47 54
-10.519408 6.786198 36.999805 87 46 53
-10.539807 6.879272 37.071556 83 43 49
-10.559434 6.972145 37.140587 79 39 46
-10.578310 7.064814 37.206982 77 36 43
-10.596472 7.157287 37.270859 75 34 41
-10.613960 7.249575 37.332371 73 33 40
-10.630826 7.341699 37.391693 72 32 38
-10.647123 7.433681 37.449017 72 32 37
-10.662911 7.525551 37.504547 74 33 37
-10.678247 7.617339 37.558487 75 34 38
-10.693193 7.709077 37.611057 75 34 39
-10.707808 7.800800 37.662460 75 35 39
-10.722151 7.892546 37.712910 75 36 40
-10.736278 7.984348 37.762596 76 37 40
-10.750244 8.076244 37.811722 76 38 41
-10.764107 8.168273 37.860481 76 40 42
-10.777913 8.260469 37.909042 76 40 44
-10.791708 8.352865 37.957561 76 41 44
-10.805533 8.445496 38.006191 75 41 43
-10.819427 8.538387 38.055054 74 41 43
-10.833417 8.631569 38.104267 74 41 43
-10.847533 8.725062 38.153915 73 40 43
-10.861792 8.818886 38.204067 73 40 43
-10.876206 8.913054 38.254768 73 39 43
-10.890787 9.007578 38.306049 73 39 43
-10.905532 9.102460 38.357914 74 39 43
-10.920438 9.197701 38.410343 74 39 43
-10.935499 9.293301 38.463318 74 39 43
-10.950707 9.389254 38.516808 74 39 43
-10.966049 9.485555 38.570774 73 39 42
-10.981515 9.582195 38.625168 73 39 42
-10.997094 9.679169 38.679962 73 39 43
-11.012779 9.776475 38.735134 72 38 43
-11.028571 9.874113 38.790676 72 38 44
-11.044470 9.972088 38.846596 72 37 45
-11.060483 10.070408 38.902920 72 37 46
-11.076630 10.169093 38.959713 73 37 46
-11.092928 10.268164 39.017040 73 37 46
-11.109407 10.367651 39.075005 74 37 44
-11.126103 10.467590 39.133728 74 36 44
-11.143053 10.568025 39.193344 75 37 45
-11.160297 10.668998 39.253998 75 37 45
-11.177883 10.770561 39.315853 74 38 44
-11.195856 10.872766 39.379066 73 38 43
-11.214261 10.975668 39.443802 72 38 42
-11.233141 11.079317 39.510208 71 38 41
-11.252537 11.183765 39.578430 69 37 40
-11.272486 11.289062 39.648598 67 36 39
-11.293022 11.395253 39.720829 66 36 39
-11.314175 11.502382 39.795227 65 35 38
-11.335973 11.610493 39.871899 64 34 38
-11.358440 11.719625 39.950924 63 33 37
-11.381601 11.829820 40.032387 62 32 36
-11.405480 11.941116 40.116379 62 32 35
-11.430100 12.053556 40.202972 62 33 34
-11.455483 12.167180 40.292252 62 34 35
-11.481655 12.282033 40.384304 62 34 35
-11.508634 12.398151 40.479195 62 35 36
-8.834833 -2.491788 31.312078 138 69 97
-8.829426 -2.422806 31.292912 140 71 100
-8.823768 -2.353840 31.272860 142 74 101
-8.817881 -2.284901 31.251997 143 76 102
-8.811788 -2.216000 31.230400 144 77 103
-8.805514 -2.147148 31.208166 145 78 104
-8.799090 -2.078356 31.185398 147 78 104
-8.792550 -2.009636 31.162218 149 78 105
-8.785925 -1.940997 31.138739 149 77 105
-8.779254 -1.872450 31.115097 147 74 104
-8.772577 -1.804003 31.091433 146 72 103
-8.765930 -1.735664 31.067875 148 71 104
-8.759356 -1.667441 31.044571 151 72 106
-8.752891 -1.599338 31.021660 154 74 107
-8.746577 -1.531361 30.999285 154 73 105
-8.740453 -1.463511 30.977579 153 70 102
-8.734554 -1.395791 30.956675 151 67 97
-8.728918 -1.328201 30.936699 149 63 92
-8.723583 -1.260741 30.917788 149 62 91
-8.718582 -1.193408 30.900066 149 63 91
-8.713957 -1.126200 30.883671 150 64 91
-8.709743 -1.059113 30.868740 150 65 90
-8.705988 -0.992143 30.855431 150 66 90
-8.702734 -0.925283 30.843899 149 67 89
-8.700034 -0.858527 30.834328 148 68 89
-8.697942 -0.791869 30.826912 148 69 89
-8.696520 -0.725298 30.821873 148 71 90
-8.695831 -0.658804 30.819433 148 71 91
-8.695949 -0.592375 30.819847 147 72 92
-8.696941 -0.525998 30.823366 146 73 92
-8.698889 -0.459656 30.830269 147 74 93
-8.701862 -0.393331 30.840807 149 75 94
-8.705935 -0.327002 30.855242 152 77 96
-8.711175 -0.260645 30.873814 154 78 97
-8.717645 -0.194236 30.896742 155 78 98
-8.725391 -0.127746 30.924198 156 78 98
-8.734453 -0.061147 30.956314 157 78 98
-8.744850 0.005591 30.993164 156 78 98
-8.756591 0.072499 31.034775 155 78 97
-8.769658 0.139607 31.081087 154 76 96
-8.784018 0.206946 31.131979 152 74 95
-8.799615 0.274543 31.187258 152 73 95
-8.816377 0.342423 31.246666 153 71 95
-8.834209 0.410609 31.309868 153 70 95
-8.853003 0.479120 31.376472 152 68 94
-8.872628 0.547969 31.446030 151 67 93
-8.892953 0.617166 31.518063 150 66 91
-8.913829 0.686717 31.592052 149 65 90
-8.935110 0.756621 31.667475 148 65 89
-8.956646 0.826873 31.743801 147 65 89
-8.978294 0.897466 31.820528 146 66 89
-8.999920 0.968388 31.897173 145 67 90
-9.021402 1.039623 31.973310 145 68 92
-9.042635 1.111155 32.048561 146 69 94
-9.063534 1.182969 32.122631 148 72 96
-9.084032 1.255047 32.195278 152 76 100
-9.104089 1.327373 32.266361 158 80 105
-9.123681 1.399935 32.335800 162 84 107
-9.142813 1.472721 32.403606 159 79 101
-9.161500 1.545726 32.469837 150 69 89
-9.179784 1.618944 32.534637 143 62 80
-9.197710 1.692376 32.598175 141 60 77
-9.215343 1.766026 32.660664 140 59 77
-9.232744 1.839899 32.722336 137 58 76
-9.249985 1.914005 32.783443 135 57 75
-9.267129 1.988354 32.844204 134 57 76
-9.284240 2.062957 32.904846 134 57 77
-9.301371 2.137826 32.965561 133 58 77
-9.318564 2.212971 33.026501 134 60 77
-9.335855 2.288404 33.087780 135 62 78
-9.353261 2.364130 33.149471 133 61 77
-9.370793 2.440154 33.211609 132 61 75
-9.388448 2.516479 33.274178 131 60 74
-9.406210 2.593104 33.337132 130 59 74
-9.424060 2.670025 33.400394 130 60 74
-9.441971 2.747236 33.463871 132 61 75
-9.459909 2.824729 33.527451 134 63 76
-9.477845 2.902496 33.591015 135 65 77
-9.495749 2.980526 33.654469 135 64 75
-9.513593 3.058811 33.717709 133 63 73
-9.531359 3.137343 33.780678 132 62 72
-9.549036 3.216116 33.843330 131 62 73
-9.566624 3.295129 33.905663 130 62 72
-9.584128 3.374381 33.967701 130 62 72
-9.601570 3.453878 34.029518 129 61 72
-9.618974 3.533628 34.091198 129 61 72
-9.636376 3.613643 34.152878 131 62 75
-9.653817 3.693939 34.214691 132 62 77
-9.671346 3.774535 34.276814 132 63 79
-9.689006 3.855452 34.339405 132 63 81
-9.706852 3.936714 34.402653 132 63 81
-9.724928 4.018343 34.466717 131 63 80
-9.743283 4.100367 34.531773 130 62 78
-9.761961 4.182808 34.597969 129 60 76
-9.781001 4.265694 34.665451 129 60 75
-9.800437 4.349046 34.734333 127 60 74
-9.820304 4.432889 34.804745 125 58 72
-9.840630 4.517247 34.876781 124 56 70
-9.861440 4.602141 34.950539 122 55 69
-9.882753 4.687592 35.026073 120 54 68
-9.904593 4.773622 35.103477 119 54 67
-9.926967 4.860248 35.182777 118 54 66
-9.949886 4.947486 35.264008 117 55 66
-9.973348 5.035349 35.347160 117 54 64
-9.997346 5.123845 35.432213 115 54 63
-10.021859 5.212976 35.519089 112 53 62
-10.046857 5.302737 35.607685 110 52 60
-10.072292 5.393114 35.697830 106 50 58
-10.098108 5.484087 35.789330 103 48 56
-10.124230 5.575623 35.881908 100 47 55
-10.150575 5.667681 35.975277 97 45 53
-10.177043 5.760213 36.069084 94 43 51
-10.203528 5.853159 36.162956 93 41 50
-10.229920 5.946455 36.256493 92 41 49
-10.256104 6.040031 36.349289 93 42 49
-10.281961 6.133815 36.440937 93 43 49
-10.307390 6.227733 36.531059 93 44 50
-10.332289 6.321715 36.619301 94 45 51
-10.356571 6.415697 36.705364 94 46 53
-10.380161 6.509615 36.788971 94 47 55
-10.403005 6.603420 36.869930 94 48 56
-10.425060 6.697068 36.948101 93 50 56
-10.446308 6.790527 37.023407 91 48 54
-10.466739 6.883774 37.095814 86 44 51
-10.486365 6.976798 37.165375 82 40 47
-10.505209 7.069595 37.232162 80 38 45
-10.523309 7.162174 37.296307 77 35 42
-10.540707 7.254546 37.357967 76 34 42
-10.557459 7.346735 37.417343 75 34 41
-10.573622 7.438765 37.474625 75 33 39
-10.589257 7.530667 37.530041 77 34 39
-10.604430 7.622476 37.583817 78 35 40
-10.619205 7.714227 37.636185 78 36 40
-10.633648 7.805959 37.687366 78 37 41
-10.647819 7.897712 37.737591 78 38 41
-10.661777 7.989522 37.787064 78 39 42
-10.675583 8.081429 37.835995 78 40 42
-10.689291 8.173471 37.884579 78 41 43
-10.702952 8.265688 37.932995 78 41 44
-10.716610 8.358111 37.981400 77 41 45
-10.730304 8.450771 38.029934 76 41 44
-10.744070 8.543697 38.078724 75 41 44
-10.757938 8.636916 38.127872 74 41 44
-10.771931 8.730448 38.177464 73 40 43
-10.786063 8.824307 38.227551 73 40 43
-10.800348 8.918509 38.278179 73 39 43
-10.814789 9.013060 38.329361 74 39 44
-10.829387 9.107962 38.381100 75 39 44
-10.844135 9.203215 38.433369 75 40 44
-10.859028 9.298818 38.486153 75 40 44
-10.874055 9.394763 38.539410 75 40 43
-10.889204 9.491045 38.593098 74 39 42
-10.904465 9.587657 38.647186 74 39 42
-10.919829 9.684594 38.701641 73 39 42
-10.935292 9.781854 38.756447 73 38 43
-10.950855 9.879440 38.811604 73 38 44
-10.966521 9.977357 38.867123 73 38 45
-10.982301 10.075618 38.923050 74 37 46
-10.998213 10.174243 38.979446 74 37 46
-11.014280 10.273257 39.036392 75 37 46
-11.030536 10.372692 39.094002 75 37 45
-11.047013 10.472586 39.152401 76 37 45
-11.063756 10.572986 39.211742 76 37 45
-11.080805 10.673935 39.272163 76 38 45
-11.098207 10.775490 39.333843 75 39 44
-11.116011 10.877702 39.396938 74 39 42
-11.134260 10.980626 39.461620 72 38 41
-11.152999 11.084315 39.528034 71 38 40
-11.172268 11.188822 39.596325 69 37 40
-11.192102 11.294193 39.666618 67 36 39
-11.212533 11.400475 39.739029 65 35 39
-11.233588 11.507708 39.813656 65 34 39
-11.255295 11.615934 39.890583 64 33 38
-11.277671 11.725188 39.969887 63 33 37
-11.300739 11.835510 40.051647 62 32 36
-11.324518 11.946935 40.135925 62 33 35
-11.349029 12.059499 40.222794 61 33 34
-11.374288 12.173239 40.312313 62 33 35
-11.400314 12.288193 40.404560 62 34 36
-11.427127 12.404397 40.499588 62 34 36
-11.454738 12.521883 40.597443 61 34 36
-8.775774 -2.561750 31.342218 138 69 98
-8.770895 -2.492800 31.324793 140 72 101
-8.765732 -2.423847 31.306353 142 74 103
-8.760302 -2.354901 31.286959 145 76 105
-8.754629 -2.285976 31.266701 146 78 106
-8.748739 -2.217083 31.245665 148 79 106
-8.742660 -2.148234 31.223949 149 78 106
-8.736421 -2.079440 31.201668 149 78 104
-8.730057 -2.010715 31.178940 150 77 104
-8.723602 -1.942066 31.155890 149 75 103
-8.717093 -1.873506 31.132645 147 72 101
-8.710570 -1.805043 31.109344 145 69 99
-8.704067 -1.736684 31.086123 146 68 100
-8.697625 -1.668437 31.063114 150 69 102
-8.691282 -1.600307 31.040461 153 71 104
-8.685078 -1.532300 31.018301 154 71 103
-8.679048 -1.464417 30.996763 153 69 100
-8.673225 -1.396661 30.975971 151 66 96
-8.667647 -1.329032 30.956051 149 63 91
-8.662351 -1.261530 30.937132 149 62 90
-8.657368 -1.194153 30.919334 150 63 91
-8.652736 -1.126898 30.902792 150 64 91
-8.648492 -1.059762 30.887636 151 66 91
-8.644681 -0.992741 30.874027 151 68 92
-8.641346 -0.925829 30.862114 151 69 92
-8.638535 -0.859022 30.852077 151 70 92
-8.636306 -0.792310 30.844116 151 72 92
-8.634718 -0.725687 30.838446 151 73 93
-8.633836 -0.659143 30.835293 149 73 93
-8.633730 -0.592665 30.834915 148 73 93
-8.634472 -0.526241 30.837563 148 73 92
-8.636138 -0.459854 30.843515 148 74 92
-8.638803 -0.393487 30.853033 150 75 94
-8.642540 -0.327120 30.866379 153 77 96
-8.647416 -0.260729 30.883795 155 78 98
-8.653495 -0.194291 30.905502 157 78 99
-8.660824 -0.127777 30.931681 158 79 100
-8.669444 -0.061160 30.962465 158 79 100
-8.679376 0.005592 30.997936 157 79 101
-8.690628 0.072507 31.038124 156 79 100
-8.703185 0.139616 31.082972 155 78 99
-8.717017 0.206948 31.132372 154 76 98
-8.732072 0.274533 31.186136 153 73 96
-8.748279 0.342394 31.244019 154 72 97
-8.765547 0.410554 31.305691 154 70 97
-8.783771 0.479033 31.370777 154 69 96
-8.802828 0.547843 31.438837 153 67 94
-8.822587 0.616997 31.509409 152 66 92
-8.842909 0.686498 31.581987 151 66 91
-8.863650 0.756348 31.656065 150 65 90
-8.884666 0.826543 31.731119 148 66 90
-8.905819 0.897075 31.806667 147 66 89
-8.926978 0.967934 31.882233 146 67 90
-8.948025 1.039105 31.957403 146 68 92
-8.968857 1.110574 32.031803 147 69 94
-8.989391 1.182325 32.105141 149 72 96
-9.009562 1.254341 32.177181 152 75 100
-9.029329 1.326608 32.247776 158 78 103
-9.048667 1.399114 32.316841 159 79 103
-9.067577 1.471848 32.384377 156 74 96
-9.086076 1.544802 32.450447 148 66 86
-9.104196 1.617975 32.515160 143 62 79
-9.121983 1.691365 32.578682 141 60 77
-9.139492 1.764974 32.641216 139 60 76
-9.156785 1.838811 32.702976 137 59 75
-9.173925 1.912881 32.764194 135 58 75
-9.190973 1.987196 32.825081 135 59 76
-9.207988 2.061765 32.885845 136 60 78
-9.225017 2.136600 32.946663 135 60 77
-9.242100 2.211710 33.007675 135 60 77
-9.259269 2.287105 33.068996 136 62 79
-9.276542 2.362789 33.130680 135 62 78
-9.293923 2.438769 33.192760 133 61 76
-9.311414 2.515046 33.255226 131 60 75
-9.328997 2.591618 33.318024 131 59 75
-9.346653 2.668481 33.381084 131 60 74
-9.364360 2.745631 33.444324 133 62 76
-9.382088 2.823060 33.507637 136 64 78
-9.399808 2.900759 33.570923 138 66 79
-9.417497 2.978722 33.634098 137 65 77
-9.435132 3.056939 33.697079 135 64 75
-9.452702 3.135406 33.759827 134 64 74
-9.470198 3.214119 33.822315 133 64 74
-9.487626 3.293078 33.884560 132 63 73
-9.504999 3.372286 33.946606 131 63 73
-9.522340 3.451749 34.008537 131 62 73
-9.539677 3.531478 34.070457 131 62 74
-9.557049 3.611487 34.132500 132 62 75
-9.574498 3.691793 34.194820 132 62 76
-9.592071 3.772417 34.257580 132 63 77
-9.609815 3.853380 34.320950 131 62 78
-9.627778 3.934705 34.385105 130 62 78
-9.646004 4.016417 34.450195 130 62 77
-9.664537 4.098540 34.516392 129 61 77
-9.683415 4.181097 34.583813 129 60 76
-9.702676 4.264112 34.652599 129 60 75
-9.722345 4.347607 34.722847 126 59 73
-9.742455 4.431605 34.794666 124 58 71
-9.763027 4.516127 34.868141 123 56 70
-9.784083 4.601193 34.943340 121 55 68
-9.805641 4.686823 35.020332 119 54 67
-9.827718 4.773037 35.099178 118 55 66
-9.850323 4.859852 35.179913 117 55 66
-9.873463 4.947283 35.262554 117 55 65
-9.897137 5.035341 35.347103 116 55 64
-9.921338 5.124037 35.433540 114 54 63
-9.946048 5.213372 35.521790 112 53 62
-9.971236 5.303342 35.611748 110 52 61
-9.996859 5.393934 35.703259 108 51 60
-10.022861 5.485127 35.796120 105 50 59
-10.049169 5.576892 35.890079 103 48 57
-10.075701 5.669188 35.984837 101 47 56
-10.102358 5.761963 36.080044 98 44 53
-10.129036 5.855161 36.175323 96 42 51
-10.155621 5.948715 36.270267 96 43 50
-10.181997 6.042554 36.364471 96 44 51
-10.208046 6.136603 36.457504 97 45 51
-10.233661 6.230789 36.548981 97 46 52
-10.258734 6.325035 36.638531 97 47 53
-10.283179 6.419275 36.725834 97 48 55
-10.306913 6.513443 36.810600 97 49 56
-10.329880 6.607484 36.892628 97 50 58
-10.352035 6.701354 36.971748 96 51 58
-10.373352 6.795017 37.047886 92 48 55
-10.393824 6.888447 37.120998 88 45 52
-10.413460 6.981632 37.191128 85 42 49
-10.432283 7.074569 37.258354 83 39 47
-10.450333 7.167264 37.322815 80 36 44
-10.467652 7.259732 37.384674 79 35 43
-10.484303 7.351996 37.444141 79 35 43
-10.500342 7.444084 37.501423 79 35 42
-10.515840 7.536031 37.556770 80 36 42
-10.530861 7.627871 37.610416 81 37 42
-10.545477 7.719646 37.662621 81 37 42
-10.559755 7.811395 37.713612 81 38 43
-10.573762 7.903162 37.763638 81 39 43
-10.587561 7.994987 37.812916 80 40 43
-10.601209 8.086911 37.861664 80 41 44
-10.614767 8.178975 37.910084 80 41 44
-10.628284 8.271216 37.958363 79 42 45
-10.641803 8.363666 38.006641 78 42 46
-10.655364 8.456358 38.055077 78 42 45
-10.669001 8.549319 38.103775 77 41 44
-10.682739 8.642573 38.152843 75 41 44
-10.696601 8.736138 38.202351 74 41 44
-10.710600 8.830031 38.252346 74 40 43
-10.724743 8.924259 38.302860 74 39 43
-10.739036 9.018830 38.353905 75 39 44
-10.753473 9.113745 38.405468 75 39 44
-10.768050 9.209001 38.457527 76 40 44
-10.782759 9.304593 38.510056 76 40 44
-10.797589 9.400520 38.563023 75 40 43
-10.812528 9.496770 38.616379 75 39 42
-10.827567 9.593339 38.670090 75 39 42
-10.842699 9.690222 38.724133 74 38 42
-10.857921 9.787419 38.778496 74 38 42
-10.873235 9.884934 38.833187 74 38 43
-10.888646 9.982776 38.888233 74 37 44
-10.904170 10.080956 38.943672 75 37 45
-10.919826 10.179501 38.999588 76 37 46
-10.935641 10.278436 39.056068 76 37 46
-10.951648 10.377794 39.113235 76 37 46
-10.967885 10.477622 39.171227 77 38 46
-10.984396 10.577962 39.230198 77 39 46
-11.001226 10.678865 39.290306 76 39 45
-11.018424 10.780388 39.351723 75 39 44
-11.036035 10.882583 39.414619 74 39 42
-11.054107 10.985508 39.479164 72 39 41
-11.072682 11.089215 39.545506 71 38 40
-11.091802 11.193757 39.613789 69 37 40
-11.111500 11.299182 39.684139 67 36 39
-11.131804 11.405531 39.756657 66 35 39
-11.152743 11.512848 39.831440 65 34 39
-11.174336 11.621168 39.908558 64 33 38
-11.196603 11.730526 39.988083 63 33 37
-11.219560 11.840955 40.070072 63 32 36
-11.243221 11.952486 40.154575 62 33 36
-11.267602 12.065152 40.241650 61 33 35
-11.292718 12.178987 40.331348 61 33 35
-11.318582 12.294021 40.423721 61 34 36
-11.345208 12.410286 40.518814 61 34 36
-11.372606 12.527813 40.616669 61 34 36
-11.400782 12.646623 40.717293 60 34 36
-8.716197 -2.631725 31.370960 138 70 96
-8.711901 -2.562836 31.355499 140 72 100
-8.707277 -2.493920 31.338860 142 74 103
-8.702351 -2.424991 31.321125 144 76 105
-8.697142 -2.356062 31.302378 147 78 107
-8.691676 -2.287146 31.282707 150 79 108
-8.685983 -2.218257 31.262215 151 79 108
-8.680090 -2.149407 31.241005 151 78 106
-8.674030 -2.080609 31.219196 150 75 103
-8.667839 -2.011873 31.196913 149 73 101
-8.661550 -1.943212 31.174276 148 71 100
-8.655199 -1.874636 31.151421 146 67 99
-8.648826 -1.806153 31.128481 145 65 97
-8.642466 -1.737772 31.105591 146 64 98
-8.636155 -1.669498 31.082880 148 65 99
-8.629934 -1.601340 31.060490 150 66 99
-8.623838 -1.533300 31.038549 152 67 99
-8.617903 -1.465382 31.017185 152 67 97
-8.612161 -1.397588 30.996517 151 65 94
-8.606644 -1.329917 30.976662 150 63 91
-8.601389 -1.262371 30.957750 149 63 90
-8.596427 -1.194947 30.939890 150 63 91
-8.591793 -1.127642 30.923214 151 65 92
-8.587524 -1.060455 30.907850 152 67 92
-8.583662 -0.993381 30.893948 152 69 93
-8.580248 -0.926416 30.881660 153 70 95
-8.577332 -0.859553 30.871164 153 72 95
-8.574967 -0.792787 30.862652 154 73 95
-8.573214 -0.726109 30.856342 153 73 95
-8.572136 -0.659510 30.852461 152 73 95
-8.571802 -0.592979 30.851261 151 73 95
-8.572286 -0.526504 30.853001 150 73 95
-8.573663 -0.460069 30.857958 150 73 94
-8.576006 -0.393657 30.866392 151 74 95
-8.579391 -0.327249 30.878574 154 76 97
-8.583883 -0.260822 30.894745 156 78 100
-8.589548 -0.194351 30.915134 158 79 101
-8.596436 -0.127811 30.939920 158 80 102
-8.604584 -0.061173 30.969250 158 80 102
-8.614018 0.005592 31.003204 158 80 102
-8.624747 0.072515 31.041821 157 80 101
-8.636760 0.139625 31.085052 156 79 100
-8.650026 0.206951 31.132801 155 77 98
-8.664498 0.274522 31.184889 154 74 97
-8.680111 0.342362 31.241081 154 72 97
-8.696775 0.410493 31.301062 155 71 97
-8.714392 0.478936 31.364466 154 69 96
-8.732842 0.547705 31.430872 153 68 94
-8.752004 0.616809 31.499834 152 66 92
-8.771738 0.686256 31.570862 151 65 90
-8.791908 0.756047 31.643457 150 65 89
-8.812375 0.826178 31.717123 149 65 89
-8.833008 0.896644 31.791382 148 66 89
-8.853676 0.967434 31.865768 147 67 90
-8.874268 1.038536 31.939880 147 68 91
-8.894681 1.109935 32.013355 147 69 93
-8.914836 1.181616 32.085896 149 70 95
-8.934667 1.253565 32.157269 152 72 97
-8.954131 1.325767 32.227325 155 74 99
-8.973206 1.398210 32.295975 155 74 98
-8.991887 1.470886 32.363213 151 69 90
-9.010188 1.543785 32.429081 145 63 81
-9.028139 1.616907 32.493690 142 61 77
-9.045780 1.690248 32.557182 141 60 76
-9.063164 1.763814 32.619751 138 60 75
-9.080345 1.837608 32.681587 137 60 74
-9.097382 1.911638 32.742905 135 59 74
-9.114331 1.985914 32.803909 136 60 75
-9.131246 2.060445 32.864784 137 61 78
-9.148170 2.135241 32.925701 136 61 78
-9.165143 2.210311 32.986790 135 60 78
-9.182189 2.285662 33.048141 136 61 79
-9.199326 2.361301 33.109818 135 61 78
-9.216558 2.437232 33.171837 133 60 77
-9.233881 2.513455 33.234188 132 59 76
-9.251284 2.589968 33.296822 132 59 75
-9.268746 2.666770 33.359673 132 59 75
-9.286247 2.743853 33.422661 134 61 77
-9.303761 2.821211 33.485695 137 64 79
-9.321262 2.898838 33.548687 139 66 80
-9.338731 2.976726 33.611561 139 66 79
-9.356153 3.054870 33.674263 137 66 77
-9.373518 3.133265 33.736763 136 66 76
-9.390827 3.211910 33.799065 134 65 75
-9.408091 3.290807 33.861195 133 63 74
-9.425323 3.369962 33.923218 132 63 74
-9.442555 3.449384 33.985237 132 63 74
-9.459818 3.529085 34.047371 133 63 74
-9.477155 3.609082 34.109768 133 63 75
-9.494606 3.689392 34.172577 133 62 75
-9.512222 3.770039 34.235985 132 62 75
-9.530050 3.851044 34.300144 131 62 75
-9.548135 3.932432 34.365234 130 61 75
-9.566518 4.014225 34.431400 129 61 75
-9.585240 4.096450 34.498787 129 61 75
-9.604337 4.179127 34.567516 129 62 76
-9.623837 4.262279 34.637699 129 62 76
-9.643765 4.345927 34.709427 126 59 73
-9.664146 4.430091 34.782780 123 57 70
-9.684998 4.514791 34.857826 122 56 69
-9.706338 4.600047 34.934635 119 55 68
-9.728177 4.685874 35.013237 118 55 67
-9.750531 4.772291 35.093693 117 55 67
-9.773406 4.859315 35.176022 116 55 66
-9.796808 4.946959 35.260250 116 55 65
-9.820734 5.035236 35.346363 115 55 64
-9.845178 5.124153 35.434338 113 54 64
-9.870119 5.213712 35.524109 112 53 63
-9.895533 5.303912 35.615574 111 53 63
-9.921372 5.394737 35.708576 109 52 62
-9.947586 5.486170 35.802925 107 52 61
-9.974104 5.578179 35.898365 106 51 60
-10.000843 5.670726 35.994602 104 49 58
-10.027705 5.763758 36.091286 101 46 55
-10.054589 5.857220 36.188046 99 44 52
-10.081378 5.951043 36.284462 99 45 52
-10.107955 6.045154 36.380116 100 46 53
-10.134201 6.139478 36.474579 100 47 53
-10.160005 6.233937 36.567451 100 48 54
-10.185258 6.328455 36.658344 100 49 55
-10.209868 6.422960 36.746918 100 49 55
-10.233750 6.517384 36.832874 99 50 56
-10.256845 6.611670 36.915993 98 51 57
-10.279101 6.705768 36.996101 96 51 57
-10.300495 6.799642 37.073101 92 48 55
-10.321013 6.893262 37.146946 90 46 53
-10.340666 6.986617 37.217682 88 44 52
-10.359477 7.079701 37.285385 86 42 50
-10.377484 7.172522 37.350193 83 39 47
-10.394737 7.265095 37.412292 82 36 45
-10.411295 7.357444 37.471886 83 37 46
-10.427222 7.449600 37.529209 83 38 46
-10.442590 7.541598 37.584518 84 38 45
-10.457469 7.633479 37.638073 84 39 45
-10.471935 7.725286 37.690140 84 39 45
-10.486058 7.817062 37.740971 84 40 45
-10.499909 7.908852 37.790821 84 41 45
-10.513553 8.000698 37.839928 83 42 45
-10.527049 8.092644 37.888504 83 42 45
-10.540460 8.184731 37.936768 83 42 45
-10.553833 8.276999 37.984901 82 43 46
-10.567214 8.369479 38.033062 81 43 46
-10.580639 8.462203 38.081379 80 42 46
-10.594141 8.555198 38.129978 78 41 44
-10.607745 8.648484 38.178944 77 41 44
-10.621470 8.742082 38.228340 76 40 43
-10.635326 8.836001 38.278210 76 40 43
-10.649322 8.930252 38.328579 76 39 43
-10.663455 9.024837 38.379448 76 40 44
-10.677723 9.119757 38.430801 76 39 44
-10.692119 9.215007 38.482613 77 40 44
-10.706632 9.310583 38.534847 78 40 43
-10.721252 9.406479 38.587471 77 40 43
-10.735970 9.502687 38.640442 77 39 42
-10.750774 9.599202 38.693722 77 39 42
-10.765659 9.696019 38.747299 76 39 41
-10.780625 9.793140 38.801163 76 39 41
-10.795675 9.890571 38.855328 76 38 42
-10.810818 9.988319 38.909828 76 37 43
-10.826068 10.086405 38.964718 77 37 45
-10.841452 10.184852 39.020088 77 36 46
-10.856996 10.283689 39.076031 77 36 46
-10.872736 10.382955 39.132683 77 37 46
-10.888714 10.482694 39.190193 78 39 47
-10.904975 10.582955 39.248718 78 40 48
-10.921566 10.683792 39.308430 77 40 46
-10.938537 10.785261 39.369511 76 40 44
-10.955936 10.887419 39.432137 75 40 43
-10.973811 10.990323 39.496468 72 39 41
-10.992203 11.094027 39.562664 71 38 41
-11.011154 11.198585 39.630875 70 37 40
-11.030696 11.304041 39.701206 68 36 40
-11.050856 11.410439 39.773766 66 35 39
-11.071659 11.517819 39.848637 65 34 38
-11.093122 11.626215 39.925892 64 34 38
-11.115262 11.735658 40.005573 63 33 37
-11.138091 11.846175 40.087738 63 33 37
-11.161619 11.957798 40.172421 62 33 36
-11.185857 12.070551 40.259655 61 33 35
-11.210814 12.184462 40.349480 61 33 35
-11.236503 12.299561 40.441936 60 33 36
-11.262930 12.415872 40.537052 60 33 36
-11.290102 12.533422 40.634850 60 33 36
-11.318021 12.652226 40.735336 60 34 36
-11.346683 12.772300 40.838493 59 34 36
-8.656019 -2.701674 31.397978 141 72 97
-8.652360 -2.632877 31.384703 142 73 99
-8.648333 -2.564029 31.370092 143 74 102
-8.643954 -2.495142 31.354214 144 74 103
-8.639255 -2.426233 31.337166 146 75 105
-8.634256 -2.357316 31.319036 148 77 108
-8.628991 -2.288406 31.299936 153 79 110
-8.623486 -2.219517 31.279964 155 80 109
-8.617772 -2.150662 31.259243 154 77 106
-8.611885 -2.081854 31.237888 151 72 101
-8.605859 -2.013106 31.216028 148 68 97
-8.599730 -1.944429 31.193794 147 66 95
-8.593531 -1.875833 31.171312 146 64 94
-8.587303 -1.807327 31.148722 145 62 95
-8.581081 -1.738920 31.126154 146 62 94
-8.574901 -1.670619 31.103735 146 62 94
-8.568799 -1.602428 31.081600 147 62 94
-8.562811 -1.534354 31.059881 149 63 94
-8.556969 -1.466398 31.038691 151 64 94
-8.551306 -1.398563 31.018150 151 64 92
-8.545853 -1.330849 30.998369 151 63 90
-8.540642 -1.263256 30.979465 151 64 90
-8.535703 -1.195783 30.961552 151 65 92
-8.531071 -1.128428 30.944750 152 66 92
-8.526779 -1.061187 30.929182 153 68 93
-8.522868 -0.994058 30.914995 153 69 95
-8.519378 -0.927036 30.902336 154 70 97
-8.516357 -0.860116 30.891380 155 72 97
-8.513857 -0.793292 30.882311 155 73 98
-8.511938 -0.726556 30.875351 155 73 98
-8.510662 -0.659900 30.870720 154 73 98
-8.510098 -0.593314 30.868675 153 73 98
-8.510317 -0.526785 30.869469 153 74 98
-8.511395 -0.460299 30.873381 151 73 96
-8.513407 -0.393840 30.880678 151 73 96
-8.516425 -0.327387 30.891624 154 75 98
-8.520517 -0.260921 30.906471 157 78 102
-8.525749 -0.194416 30.925447 158 80 103
-8.532170 -0.127847 30.948740 158 80 103
-8.539823 -0.061187 30.976494 158 80 102
-8.548730 0.005593 31.008806 158 80 102
-8.558907 0.072524 31.045719 157 80 101
-8.570341 0.139635 31.087196 156 79 100
-8.583010 0.206954 31.133148 156 77 98
-8.596867 0.274509 31.183411 155 74 97
-8.611849 0.342325 31.237757 155 73 97
-8.627876 0.410426 31.295895 156 71 96
-8.644852 0.478829 31.357468 155 69 95
-8.662664 0.547551 31.422079 153 67 92
-8.681193 0.616603 31.489290 152 65 90
-8.700310 0.685990 31.558630 151 64 88
-8.719882 0.755716 31.629623 150 64 87
-8.739775 0.825779 31.701780 149 65 87
-8.759861 0.896172 31.774641 148 66 88
-8.780017 0.966887 31.847754 148 66 89
-8.800134 1.037913 31.920721 148 67 90
-8.820111 1.109235 31.993185 148 68 92
-8.839870 1.180841 32.064857 149 69 93
-8.859346 1.252716 32.135506 151 70 95
-8.878497 1.324847 32.204967 153 71 96
-8.897296 1.397223 32.273159 153 71 93
-8.915738 1.469833 32.340054 149 67 87
-8.933834 1.542672 32.405693 144 61 79
-8.951609 1.615736 32.470165 142 60 76
-8.969098 1.689024 32.533604 141 61 75
-8.986349 1.762539 32.596180 139 61 74
-9.003413 1.836286 32.658077 138 60 73
-9.020343 1.910271 32.719486 136 59 74
-9.037190 1.984503 32.780598 136 60 75
-9.054004 2.058990 32.841583 136 61 77
-9.070824 2.133742 32.902596 136 61 78
-9.087685 2.208767 32.963753 136 61 78
-9.104608 2.284071 33.025139 135 60 78
-9.121609 2.359661 33.086807 134 60 78
-9.138692 2.435537 33.148773 133 60 77
-9.155851 2.511702 33.211018 132 59 76
-9.173075 2.588154 33.273491 133 59 76
-9.190346 2.664888 33.336140 133 59 77
-9.207644 2.741900 33.398884 134 61 77
-9.224946 2.819185 33.461643 137 63 79
-9.242230 2.896734 33.524338 140 67 81
-9.259483 2.974544 33.586922 140 67 81
-9.276693 3.052609 33.649345 138 68 79
-9.293856 3.130927 33.711601 137 67 78
-9.310978 3.209500 33.773708 135 65 77
-9.328074 3.288332 33.835720 133 64 75
-9.345166 3.367429 33.897720 133 63 75
-9.362288 3.446805 33.959824 134 63 75
-9.379477 3.526473 34.022171 135 63 75
-9.396776 3.606453 34.084923 134 63 75
-9.414231 3.686764 34.148239 133 62 74
-9.431892 3.767431 34.212299 132 62 74
-9.449806 3.848477 34.277279 131 62 73
-9.468019 3.929926 34.343338 131 62 73
-9.486567 4.011803 34.410618 130 62 73
-9.505490 4.094131 34.479259 129 62 73
-9.524817 4.176932 34.549366 129 62 74
-9.544577 4.260229 34.621040 128 62 75
-9.564784 4.344038 34.694340 126 59 72
-9.585463 4.428380 34.769344 123 56 70
-9.606622 4.513272 34.846092 121 55 69
-9.628274 4.598730 34.924637 120 55 68
-9.650428 4.684770 35.004993 119 55 68
-9.673094 4.771410 35.087208 118 55 68
-9.696274 4.858661 35.171291 117 55 66
-9.719973 4.946539 35.257252 116 56 65
-9.744184 5.035052 35.345074 115 55 65
-9.768901 5.124209 35.434731 114 54 65
-9.794106 5.214013 35.526157 113 54 65
-9.819771 5.304459 35.619251 112 54 65
-9.845853 5.395535 35.713860 111 54 64
-9.872301 5.487223 35.809795 110 53 64
-9.899046 5.579491 35.906803 108 52 63
-9.926007 5.672301 36.004601 106 50 60
-9.953087 5.765602 36.102829 103 47 56
-9.980184 5.859335 36.201118 101 45 54
-10.007182 5.953435 36.299049 101 46 54
-10.033964 6.047826 36.396194 102 47 53
-10.060409 6.142429 36.492115 103 48 54
-10.086402 6.237168 36.586403 102 49 55
-10.111835 6.331961 36.678654 101 50 55
-10.136608 6.426735 36.768513 101 50 55
-10.160638 6.521419 36.855679 99 50 55
-10.183857 6.615952 36.939903 97 49 55
-10.206217 6.710282 37.021004 94 49 55
-10.227687 6.804371 37.098885 92 48 54
-10.248254 6.898188 37.173489 91 46 53
-10.267927 6.991717 37.244850 90 45 52
-10.286731 7.084955 37.313053 88 43 51
-10.304704 7.177909 37.378246 87 41 50
-10.321895 7.270593 37.440605 87 40 49
-10.338369 7.363036 37.500362 86 39 49
-10.354193 7.455267 37.557762 87 39 48
-10.369441 7.547328 37.613071 88 40 48
-10.384188 7.639257 37.666561 88 40 48
-10.398512 7.731103 37.718517 87 40 47
-10.412489 7.822913 37.769218 87 41 47
-10.426189 7.914731 37.818916 87 42 46
-10.439684 8.006605 37.867863 87 43 46
-10.453032 8.098577 37.916279 87 43 46
-10.466297 8.190693 37.964397 86 44 47
-10.479529 8.282990 38.012394 85 44 47
-10.492770 8.375501 38.060421 84 43 47
-10.506059 8.468257 38.108620 82 42 46
-10.519423 8.561283 38.157101 80 41 45
-10.532889 8.654602 38.205944 78 40 44
-10.546472 8.748227 38.255215 78 40 43
-10.560180 8.842171 38.304939 78 39 43
-10.574019 8.936440 38.355137 78 39 43
-10.587988 9.031035 38.405807 78 39 44
-10.602079 9.125955 38.456921 78 39 44
-10.616285 9.221193 38.508446 77 39 43
-10.630595 9.316746 38.560356 78 39 43
-10.645000 9.412606 38.612606 78 40 43
-10.659487 9.508765 38.665154 79 39 42
-10.674048 9.605217 38.717972 79 39 42
-10.688679 9.701961 38.771042 79 39 42
-10.703380 9.798996 38.824368 78 38 42
-10.718156 9.896332 38.877964 78 38 42
-10.733019 9.993979 38.931873 78 37 43
-10.747986 10.091956 38.986164 78 37 44
-10.763083 10.190291 39.040928 78 36 45
-10.778342 10.289017 39.096279 77 36 45
-10.793803 10.388175 39.152359 77 38 46
-10.809505 10.487809 39.209316 79 40 48
-10.825501 10.587976 39.267338 80 41 49
-10.841837 10.688728 39.326591 79 42 48
-10.858562 10.790124 39.387260 76 41 44
-10.875731 10.892224 39.449539 75 40 43
-10.893390 10.995087 39.513588 74 39 42
-10.911580 11.098768 39.579571 72 39 42
-10.930343 11.203319 39.647629 70 38 41
-10.949710 11.308787 39.717876 68 37 40
-10.969707 11.415215 39.790413 66 36 39
-10.990356 11.522640 39.865318 65 35 39
-11.011675 11.631094 39.942642 64 34 38
-11.033671 11.740602 40.022430 63 34 38
-11.056357 11.851193 40.104721 62 34 37
-11.079738 11.962891 40.189529 61 34 36
-11.103820 12.075716 40.276882 61 34 36
-11.128610 12.189692 40.366802 60 33 36
-11.154113 12.304843 40.459309 60 33 36
-11.180332 12.421189 40.554413 60 33 36
-11.207271 12.538751 40.652130 60 33 37
-11.234928 12.657542 40.752449 60 33 37
-11.263295 12.777572 40.855347 59 33 37
-11.292356 12.898838 40.960762 59 34 37
-8.592194 -2.702888 31.412081 145 75 99
-8.588815 -2.634138 31.399729 146 75 102
-8.585043 -2.565324 31.385937 146 75 103
-8.580900 -2.496461 31.370790 146 74 103
-8.576416 -2.427567 31.354399 147 74 104
-8.571619 -2.358657 31.336863 150 75 106
-8.566543 -2.289749 31.318302 154 78 109
-8.561216 -2.220855 31.298830 157 79 109
-8.555674 -2.151991 31.278566 155 75 104
-8.549951 -2.083171 31.257643 151 70 98
-8.544083 -2.014407 31.236193 148 66 94
-8.538105 -1.945709 31.214336 146 63 92
-8.532054 -1.877091 31.192215 145 61 92
-8.525966 -1.808559 31.169956 145 60 91
-8.519876 -1.740124 31.147696 145 60 91
-8.513821 -1.671791 31.125557 145 59 91
-8.507833 -1.603566 31.103670 146 59 90
-8.501950 -1.535455 31.082161 147 61 91
-8.496201 -1.467459 31.061140 149 62 90
-8.490616 -1.399581 31.040724 150 62 90
-8.485225 -1.331821 31.021011 150 63 89
-8.480058 -1.264180 31.002123 151 64 90
-8.475143 -1.196656 30.984156 152 66 92
-8.470512 -1.129247 30.967228 153 67 93
-8.466200 -1.061952 30.951460 154 68 94
-8.462242 -0.994765 30.936991 155 70 96
-8.458677 -0.927685 30.923958 156 71 99
-8.455553 -0.860705 30.912537 157 73 101
-8.452918 -0.793821 30.902906 157 74 102
-8.450833 -0.727025 30.895283 157 74 102
-8.449357 -0.660310 30.889887 156 73 102
-8.448560 -0.593666 30.886971 154 73 101
-8.448509 -0.527081 30.886786 154 73 101
-8.449283 -0.460541 30.889614 152 73 99
-8.450953 -0.394031 30.895720 151 72 97
-8.453593 -0.327533 30.905371 153 75 99
-8.457273 -0.261025 30.918821 156 78 102
-8.462054 -0.194484 30.936306 158 80 103
-8.467992 -0.127886 30.958010 158 81 103
-8.475126 -0.061202 30.984093 158 80 102
-8.483485 0.005595 31.014652 158 80 102
-8.493084 0.072534 31.049746 157 80 101
-8.503915 0.139644 31.089342 156 79 99
-8.515958 0.206955 31.133369 156 77 97
-8.529170 0.274493 31.181671 156 75 96
-8.543495 0.342284 31.234043 157 74 97
-8.558855 0.410351 31.290199 157 72 96
-8.575161 0.478712 31.349810 156 69 94
-8.592306 0.547384 31.412491 153 66 91
-8.610177 0.616378 31.477823 152 64 87
-8.628649 0.685702 31.545357 151 63 85
-8.647597 0.755358 31.614628 150 63 85
-8.666891 0.825346 31.685165 150 64 86
-8.686410 0.895661 31.756523 149 66 87
-8.706033 0.966295 31.828262 149 66 88
-8.725654 1.037239 31.899996 149 67 89
-8.745176 1.108479 31.971369 149 67 90
-8.764524 1.180003 32.042095 149 68 92
-8.783629 1.251798 32.111946 150 69 93
-8.802451 1.323851 32.180756 152 70 93
-8.820962 1.396152 32.248428 152 70 91
-8.839153 1.468691 32.314938 149 67 86
-8.857033 1.541463 32.380302 146 63 80
-8.874621 1.614464 32.444603 144 62 77
-8.891951 1.687693 32.507957 143 62 76
-8.909062 1.761152 32.570515 141 62 74
-8.926003 1.834845 32.632450 139 60 73
-8.942822 1.908779 32.693932 138 59 74
-8.959562 1.982962 32.755138 137 60 75
-8.976272 2.057400 32.816227 137 60 76
-8.992985 2.132104 32.877327 136 60 78
-9.009733 2.207079 32.938557 136 60 78
-9.026536 2.282332 32.999985 135 60 78
-9.043405 2.357867 33.061653 134 59 78
-9.060342 2.433686 33.123573 133 59 77
-9.077342 2.509790 33.185726 133 59 78
-9.094393 2.586176 33.248062 134 61 78
-9.111480 2.662841 33.310532 133 60 78
-9.128582 2.739780 33.373055 132 60 76
-9.145679 2.816988 33.435562 136 63 79
-9.162757 2.894458 33.497993 140 67 82
-9.179802 2.972187 33.560307 140 69 82
-9.196808 3.050172 33.622478 139 69 81
-9.213777 3.128412 33.684513 139 68 81
-9.230718 3.206910 33.746452 137 66 79
-9.247655 3.285674 33.808369 135 65 78
-9.264613 3.364712 33.870369 135 64 78
-9.281631 3.444040 33.932583 136 64 77
-9.298749 3.523674 33.995163 136 64 76
-9.316016 3.603635 34.058292 135 64 75
-9.333479 3.683946 34.122131 133 63 74
-9.351190 3.764632 34.186882 132 63 73
-9.369195 3.845718 34.252708 131 62 72
-9.387541 3.927230 34.319778 131 63 72
-9.406263 4.009192 34.388226 131 63 73
-9.425397 4.091628 34.458176 131 64 73
-9.444969 4.174558 34.529728 130 63 74
-9.465001 4.258005 34.602966 129 61 74
-9.485507 4.341983 34.677929 127 60 72
-9.506501 4.426513 34.754681 125 58 71
-9.527989 4.511607 34.833244 123 56 70
-9.549980 4.597282 34.913635 121 55 69
-9.572474 4.683550 34.995872 120 55 69
-9.595478 4.770425 35.079971 119 56 68
-9.618991 4.857921 35.165932 118 56 67
-9.643013 4.946048 35.253757 116 56 66
-9.667538 5.034816 35.343414 115 55 65
-9.692555 5.124230 35.434875 114 54 65
-9.718046 5.214293 35.528069 114 55 66
-9.743985 5.305002 35.622898 113 55 66
-9.770329 5.396343 35.719208 113 55 66
-9.797027 5.488298 35.816811 112 56 67
-9.824010 5.580836 35.915459 110 54 65
-9.851202 5.673919 36.014870 107 49 60
-9.878506 5.767496 36.114689 104 47 56
-9.905819 5.861509 36.214542 103 46 55
-9.933026 5.955889 36.314011 103 47 54
-9.960011 6.050562 36.412663 103 47 54
-9.986650 6.145449 36.510052 103 48 54
-10.012828 6.240467 36.605755 102 49 54
-10.038432 6.335536 36.699364 101 50 54
-10.063364 6.430580 36.790512 100 49 54
-10.087534 6.525523 36.878872 98 49 54
-10.110875 6.620305 36.964207 95 48 53
-10.133332 6.714868 37.046307 92 47 53
-10.154876 6.809173 37.125065 90 46 52
-10.175490 6.903187 37.200432 89 45 51
-10.195185 6.996895 37.272434 89 45 51
-10.213983 7.090291 37.341156 90 44 51
-10.231923 7.183381 37.406742 90 43 52
-10.249061 7.276184 37.469395 90 42 52
-10.265457 7.368725 37.529339 91 42 52
-10.281185 7.461040 37.586838 91 41 51
-10.296322 7.553168 37.642178 91 41 50
-10.310945 7.645154 37.695637 90 41 49
-10.325136 7.737048 37.747520 90 42 48
-10.338973 7.828896 37.798107 90 42 48
-10.352532 7.920750 37.847675 90 43 48
-10.365882 8.012656 37.896481 90 43 48
-10.379087 8.104660 37.944759 90 44 49
-10.392211 8.196807 37.992737 90 45 49
-10.405303 8.289136 38.040600 89 45 49
-10.418406 8.381680 38.088501 87 44 49
-10.431556 8.474469 38.136578 85 43 47
-10.444781 8.567527 38.184929 82 41 45
-10.458108 8.660877 38.233646 81 40 44
-10.471545 8.754530 38.282772 79 39 43
-10.485103 8.848495 38.332336 79 39 43
-10.498782 8.942780 38.382351 80 39 43
-10.512582 9.037383 38.432800 80 39 43
-10.526493 9.132299 38.483658 79 38 43
-10.540506 9.227525 38.534889 79 38 43
-10.554610 9.323051 38.586449 80 39 43
-10.568794 9.418872 38.638306 80 39 42
-10.583049 9.514978 38.690418 80 39 42
-10.597364 9.611365 38.742756 80 39 42
-10.611736 9.708030 38.795296 80 39 43
-10.626168 9.804976 38.848057 80 38 42
-10.640666 9.902211 38.901062 79 37 42
-10.655243 9.999749 38.954353 79 37 42
-10.669920 10.097610 39.008007 79 37 43
-10.684725 10.195827 39.062134 78 36 44
-10.699691 10.294431 39.116848 78 37 45
-10.714860 10.393467 39.172302 78 38 47
-10.730277 10.492986 39.228668 80 41 49
-10.745993 10.593041 39.286121 81 43 50
-10.762056 10.693691 39.344852 80 43 49
-10.778523 10.794998 39.405052 76 40 45
-10.795444 10.897021 39.466911 74 39 43
-10.812867 10.999824 39.530609 74 39 43
-10.830838 11.103461 39.596310 73 39 43
-10.849395 11.207987 39.664150 72 39 43
-10.868567 11.313447 39.734241 69 38 41
-10.888385 11.419886 39.806694 67 37 40
-10.908864 11.527335 39.881561 65 35 39
-10.930018 11.635827 39.958900 64 35 38
-10.951858 11.745387 40.038742 63 35 38
-10.974387 11.856036 40.121109 62 34 37
-10.997610 11.967795 40.206005 61 34 37
-11.021527 12.080681 40.293446 61 34 37
-11.046141 12.194714 40.383430 61 33 37
-11.071451 12.309909 40.475964 61 33 37
-11.097460 12.426284 40.571045 61 33 37
