ply
format ascii 1.0
element vertex 1171
property float x
property float y
property float z
property uchar red
property uchar green
property uchar blue
end_header
-3.562111 8.425621 39.447449 241 243 245
-3.568775 8.526578 39.521248 238 240 245
-3.575483 8.627959 39.595531 222 223 234
-3.582240 8.729781 39.670364 225 224 236
-3.589055 8.832066 39.745827 241 239 247
-3.595933 8.934836 39.822002 251 249 253
-3.602884 9.038116 39.898979 251 247 252
-3.609915 9.141931 39.976841 243 236 245
-3.617032 9.246301 40.055656 230 219 231
-3.624240 9.351244 40.135475 216 205 216
-3.631539 9.456769 40.216305 208 197 207
-3.638928 9.562881 40.298134 207 196 205
-3.646401 9.669568 40.380894 206 196 206
-3.653948 9.776809 40.464470 202 194 204
-3.661554 9.884568 40.548698 200 193 203
-3.669198 9.992795 40.633347 199 193 204
-3.676855 10.101423 40.718143 197 194 205
-3.684495 10.210370 40.802753 194 191 202
-3.692085 10.319542 40.886806 189 186 197
-3.699588 10.428830 40.969898 186 183 194
-3.706965 10.538118 41.051590 185 181 193
-3.714176 10.647283 41.131443 184 180 192
-3.721182 10.756200 41.209030 184 180 191
-3.727945 10.864742 41.283920 185 180 191
-3.734431 10.972794 41.355747 184 179 190
-3.740610 11.080246 41.424175 181 176 187
-3.746457 11.187003 41.488930 177 172 183
-3.751956 11.292989 41.549824 174 168 179
-3.757094 11.398146 41.606728 172 165 176
-3.761869 11.502437 41.659607 171 164 175
-3.766286 11.605851 41.708519 171 163 175
-3.770355 11.708395 41.753578 171 162 174
-3.774093 11.810099 41.794975 170 160 172
-3.777524 11.911016 41.832977 169 158 170
-3.780678 12.011211 41.867897 167 155 168
-3.783583 12.110765 41.900074 164 153 166
-3.786275 12.209766 41.929882 162 151 167
-3.788788 12.308316 41.957706 163 152 169
-3.791156 12.406513 41.983932 149 138 158
-3.793413 12.504457 42.008930 116 104 126
-3.795590 12.602242 42.033043 86 74 96
-3.797718 12.699965 42.056599 71 61 82
-3.799820 12.797707 42.079884 68 58 77
-3.801922 12.895546 42.103161 66 58 73
-3.804043 12.993551 42.126648 62 55 68
-3.806201 13.091784 42.150543 60 54 63
-3.808411 13.190300 42.175014 58 54 59
-3.810687 13.289152 42.200218 56 53 55
-3.813040 13.388387 42.226288 54 52 53
-3.815484 13.488050 42.253345 51 50 50
-3.818028 13.588189 42.281525 49 49 48
-3.820684 13.688848 42.310932 48 48 47
-3.823460 13.790070 42.341675 47 47 46
-3.826368 13.891902 42.373878 47 46 45
-3.829416 13.994382 42.407627 46 45 44
-3.199142 3.996698 36.294292 254 243 253
-3.205411 4.082922 36.365410 254 243 253
-3.211623 4.169378 36.435890 254 240 250
-3.217772 4.256054 36.505646 252 232 242
-3.223850 4.342937 36.574608 250 227 237
-3.229856 4.430016 36.642735 252 233 241
-3.235786 4.517284 36.710014 254 240 247
-3.241642 4.604736 36.776447 254 245 251
-3.247425 4.692370 36.842056 254 248 253
-3.253139 4.780186 36.906887 254 248 253
-3.258790 4.868187 36.971001 254 249 253
-3.264385 4.956378 37.034470 254 249 253
-3.269930 5.044767 37.097385 254 249 253
-3.275435 5.133364 37.159836 254 250 253
-3.280907 5.222178 37.221916 254 253 253
-3.286355 5.311221 37.283722 254 254 254
-3.291787 5.400503 37.345345 254 254 254
-3.297209 5.490036 37.406864 254 254 254
-3.302629 5.579830 37.468357 254 254 254
-3.308053 5.669895 37.529884 254 254 254
-3.313485 5.760239 37.591507 254 254 254
-3.318929 5.850872 37.653275 254 254 254
-3.324390 5.941800 37.715233 254 254 254
-3.329871 6.033032 37.777412 254 254 254
-3.335375 6.124574 37.839859 254 254 254
-3.340906 6.216435 37.902603 254 254 254
-3.346466 6.308622 37.965687 254 253 254
-3.352060 6.401146 38.029148 254 253 254
-3.357691 6.494014 38.093029 254 253 254
-3.363363 6.587238 38.157375 254 251 253
-3.369080 6.680830 38.222237 254 251 253
-3.374846 6.774799 38.287655 254 251 254
-3.380666 6.869159 38.353676 254 251 254
-3.386541 6.963919 38.420334 254 249 254
-3.392476 7.059089 38.487663 254 245 250
-3.398472 7.154678 38.555683 253 238 244
-3.404528 7.250690 38.624401 253 235 241
-3.410646 7.347131 38.693810 253 237 242
-3.416825 7.444002 38.763901 251 239 244
-3.423060 7.541302 38.834648 242 234 240
-3.429351 7.639029 38.906010 231 225 232
-3.435692 7.737177 38.977951 229 225 232
-3.442080 7.835743 39.050426 240 239 243
-3.448511 7.934720 39.123386 250 250 252
-3.454983 8.034104 39.196800 249 249 252
-3.461491 8.133893 39.270638 239 240 243
-3.468035 8.234085 39.344883 224 225 228
-3.474615 8.334683 39.419537 224 226 228
-3.481233 8.435694 39.494610 240 242 243
-3.487891 8.537128 39.570148 234 235 237
-3.494595 8.639001 39.646202 216 216 223
-3.501350 8.741329 39.722839 222 221 231
-3.508164 8.844135 39.800144 241 238 246
-3.515043 8.947444 39.878193 250 247 253
-3.521997 9.051278 39.957085 251 247 253
-3.529032 9.155663 40.036896 245 238 246
-3.536154 9.260620 40.117691 232 223 233
-3.543367 9.366167 40.199524 218 208 218
-3.550671 9.472310 40.282394 210 200 209
-3.558065 9.579051 40.366280 210 200 209
-3.565542 9.686378 40.451096 208 199 209
-3.573089 9.794266 40.536724 202 194 204
-3.580692 9.902676 40.622982 197 190 200
-3.588329 10.011553 40.709621 195 189 200
-3.595974 10.120826 40.796352 194 190 200
-3.603597 10.230409 40.882832 191 188 198
-3.611163 10.340205 40.968678 186 183 193
-3.618636 10.450101 41.053459 183 180 190
-3.625978 10.559979 41.136745 183 180 191
-3.633149 10.669715 41.218098 185 181 191
-3.640110 10.779182 41.297081 185 181 191
-3.646827 10.888258 41.373280 185 180 190
-3.653266 10.996827 41.446331 183 178 188
-3.659399 11.104782 41.515907 180 176 185
-3.665204 11.212035 41.581768 177 173 182
-3.670665 11.318510 41.643719 173 167 177
-3.675772 11.424154 41.701668 169 162 172
-3.680525 11.528935 41.755585 169 161 172
-3.684928 11.632846 41.805534 170 161 172
-3.688992 11.735894 41.851643 170 160 171
-3.692735 11.838113 41.894112 170 159 170
-3.696181 11.939551 41.933197 169 156 168
-3.699355 12.040275 41.969204 167 153 165
-3.702286 12.140360 42.002464 164 150 163
-3.705007 12.239892 42.033337 161 147 162
-3.707550 12.338964 42.062180 160 147 164
-3.709946 12.437669 42.089363 146 133 153
-3.712225 12.536098 42.115227 113 100 120
-3.714418 12.634340 42.140099 83 71 91
-3.716550 12.732484 42.164284 70 59 78
-3.718645 12.830606 42.188057 68 58 75
-3.720726 12.928779 42.211662 65 56 70
-3.722811 13.027069 42.235317 61 53 64
-3.724917 13.125536 42.259212 57 51 58
-3.727060 13.224235 42.283520 55 50 54
-3.729253 13.323221 42.308407 53 50 52
-3.731511 13.422544 42.334015 51 49 50
-3.733845 13.522254 42.360497 49 48 48
-3.736268 13.622403 42.387985 48 48 47
-3.738792 13.723042 42.416622 47 47 46
-3.741427 13.824217 42.446522 47 46 45
-3.744188 13.925984 42.477840 46 45 44
-3.747082 14.028385 42.510670 46 45 43
-3.750117 14.131461 42.545101 45 44 43
-3.116688 3.913166 36.245262 254 242 252
-3.122838 3.999175 36.316784 254 240 251
-3.128939 4.085427 36.387733 254 241 251
-3.134982 4.171909 36.458015 254 239 248
-3.140961 4.258607 36.527542 248 227 236
-3.146869 4.345507 36.596252 244 218 227
-3.152704 4.432600 36.664112 248 225 233
-3.158464 4.519878 36.731098 253 237 244
-3.164150 4.607337 36.797226 254 245 251
-3.169765 4.694976 36.862514 254 250 253
-3.175312 4.782794 36.927029 254 250 253
-3.180798 4.870797 36.990822 254 250 253
-3.186229 4.958990 37.053986 254 250 253
-3.191614 5.047381 37.116604 255 250 253
-3.196960 5.135982 37.178783 254 250 252
-3.202278 5.224803 37.240623 254 252 253
-3.207575 5.313857 37.302231 254 254 253
-3.212861 5.403156 37.363693 254 253 253
-3.218141 5.492712 37.425102 254 253 253
-3.223424 5.582538 37.486542 254 254 254
-3.228715 5.672643 37.548077 254 254 254
-3.234021 5.763038 37.609776 254 254 254
-3.239344 5.853732 37.671680 254 254 254
-3.244690 5.944733 37.733849 254 254 254
-3.250061 6.036050 37.796314 254 254 254
-3.255461 6.127691 37.859112 254 254 254
-3.260893 6.219663 37.922287 254 254 254
-3.266361 6.311976 37.985867 254 254 254
-3.271866 6.404638 38.049892 254 253 254
-3.277414 6.497659 38.114407 254 253 254
-3.283007 6.591050 38.179455 255 252 254
-3.288649 6.684822 38.245075 254 251 254
-3.294345 6.778986 38.311314 254 251 254
-3.300098 6.873554 38.378212 255 249 254
-3.305910 6.968536 38.445808 254 247 252
-3.311785 7.063943 38.514130 254 243 247
-3.317724 7.159782 38.583191 253 238 242
-3.323726 7.256059 38.653000 252 237 241
-3.329793 7.352779 38.723553 252 238 243
-3.335923 7.449943 38.794838 248 237 243
-3.342113 7.547551 38.866825 239 231 238
-3.348360 7.645599 38.939476 230 225 233
-3.354661 7.744084 39.012749 232 230 237
-3.361011 7.843001 39.086597 244 242 248
-3.367407 7.942345 39.160980 250 250 253
-3.373846 8.042109 39.235859 248 249 251
-3.380324 8.142294 39.311199 239 240 242
-3.386841 8.242896 39.386986 224 225 226
-3.393396 8.343919 39.463219 223 224 225
-3.399991 8.445370 39.539913 236 236 237
-3.406629 8.547260 39.617111 224 224 227
-3.413315 8.649604 39.694866 208 207 214
-3.420055 8.752421 39.773247 224 223 230
-3.426855 8.855732 39.852329 244 242 249
-3.433724 8.959561 39.932205 251 247 254
-3.440668 9.063936 40.012962 251 246 253
-3.447695 9.168878 40.094681 247 240 248
-3.454809 9.274407 40.177422 235 227 236
-3.462016 9.380542 40.261223 222 213 222
-3.469313 9.487288 40.346085 215 207 214
-3.476698 9.594642 40.431973 215 206 214
-3.484164 9.702589 40.518795 212 203 212
-3.491698 9.811104 40.606415 204 196 205
-3.499283 9.920141 40.694626 196 188 199
-3.506897 10.029640 40.783169 191 185 195
-3.514514 10.139529 40.871746 189 184 194
-3.522101 10.249716 40.959988 187 183 193
-3.529626 10.360099 41.047497 184 181 191
-3.537051 10.470563 41.133842 182 179 189
-3.544338 10.580988 41.218586 183 180 190
-3.551450 10.691249 41.301285 184 181 190
-3.558348 10.801219 41.381508 184 181 190
-3.564998 10.910777 41.458843 183 179 188
-3.571370 11.019810 41.532948 181 177 186
-3.577438 11.128216 41.603516 179 175 182
-3.583181 11.235909 41.670307 176 172 179
-3.588586 11.342820 41.733166 171 166 174
-3.593646 11.448902 41.792004 166 160 168
-3.598359 11.554126 41.846817 166 159 168
-3.602733 11.658488 41.897686 168 159 169
-3.606780 11.762001 41.944744 169 159 168
-3.610516 11.864698 41.988197 169 157 167
-3.613964 11.966629 42.028297 169 154 165
-3.617150 12.067856 42.065346 167 151 163
-3.620101 12.168453 42.099663 163 147 160
-3.622846 12.268503 42.131592 160 144 158
-3.625415 12.368089 42.161465 157 142 157
-3.627837 12.467298 42.189629 140 126 143
-3.630140 12.566215 42.216408 106 93 110
-3.632349 12.664921 42.242096 80 67 85
-3.634489 12.763495 42.266983 70 59 74
-3.636582 12.862012 42.291325 68 58 71
-3.638647 12.960535 42.315342 65 56 67
-3.640703 13.059127 42.339252 60 53 60
-3.642766 13.157847 42.363239 56 50 54
-3.644850 13.256750 42.387482 54 49 52
-3.646971 13.355889 42.412144 52 48 50
-3.649142 13.455321 42.437397 50 47 48
-3.651377 13.555099 42.463387 49 46 47
-3.653690 13.655278 42.490280 48 46 46
-3.656093 13.755915 42.518227 48 46 45
-3.658600 13.857066 42.547382 47 45 44
-3.661224 13.958787 42.577896 47 44 43
-3.663975 14.061127 42.609886 46 44 43
-3.666861 14.164130 42.643456 45 44 42
-3.669891 14.267833 42.678688 44 42 42
-3.040562 3.915750 36.269196 254 241 251
-3.046541 4.001789 36.340519 254 239 250
-3.052470 4.088068 36.411247 254 239 250
-3.058342 4.174572 36.481281 253 239 247
-3.064147 4.261287 36.550533 245 224 233
-3.069882 4.348201 36.618946 238 211 220
-3.075545 4.435305 36.686485 243 218 225
-3.081133 4.522591 36.753143 251 234 240
-3.086648 4.610055 36.818928 254 246 251
-3.092092 4.697696 36.883869 254 251 254
-3.097471 4.785515 36.948032 254 251 254
-3.102790 4.873518 37.011486 254 251 254
-3.108058 4.961711 37.074318 254 251 254
-3.113281 5.050104 37.136627 254 251 254
-3.118470 5.138709 37.198524 254 251 253
-3.123634 5.227538 37.260117 254 252 253
-3.128781 5.316604 37.321510 254 254 254
-3.133920 5.405921 37.382812 254 254 254
-3.139058 5.495502 37.444107 254 253 253
-3.144204 5.585360 37.505486 254 254 254
-3.149363 5.675506 37.567024 254 254 254
-3.154540 5.765951 37.628784 254 254 254
-3.159741 5.856706 37.690823 254 254 254
-3.164969 5.947779 37.753181 254 254 254
-3.170228 6.039180 37.815910 254 254 254
-3.175520 6.130915 37.879036 255 255 255
-3.180848 6.222994 37.942596 254 254 254
-3.186216 6.315426 38.006626 254 254 254
-3.191627 6.408219 38.071167 254 254 254
-3.197083 6.501383 38.136253 254 253 254
-3.202589 6.594930 38.201927 254 253 254
-3.208147 6.688869 38.268230 255 252 255
-3.213762 6.783213 38.335201 254 251 254
-3.219435 6.877972 38.402882 254 249 254
-3.225172 6.973158 38.471306 254 246 252
-3.230973 7.068780 38.540501 254 242 247
-3.236839 7.164847 38.610485 253 239 244
-3.242773 7.261365 38.681263 253 239 243
-3.248773 7.358338 38.752834 251 239 244
-3.254838 7.455770 38.825180 245 236 243
-3.260966 7.553658 38.898277 236 230 238
-3.267154 7.652002 38.972084 231 227 236
-3.273397 7.750795 39.046558 236 234 243
-3.279693 7.850037 39.121658 245 244 250
-3.286037 7.949719 39.197342 248 248 250
-3.292427 8.049838 39.273560 248 248 249
-3.298860 8.150392 39.350296 246 246 247
-3.305334 8.251379 39.427521 236 236 237
-3.311850 8.352804 39.505241 231 232 233
-3.318408 8.454674 39.583469 239 239 241
-3.325012 8.556998 39.662247 227 226 230
-3.331667 8.659795 39.741631 215 214 219
-3.338378 8.763082 39.821690 232 230 235
-3.345153 8.866880 39.902496 248 246 250
-3.351998 8.971216 39.984142 251 249 254
-3.358920 9.076113 40.066719 251 248 254
-3.365927 9.181596 40.150291 248 243 249
-3.373021 9.287683 40.234924 238 232 239
-3.380208 9.394388 40.320648 226 219 226
-3.387485 9.501718 40.407452 219 212 218
-3.394848 9.609666 40.495289 218 209 216
-3.402289 9.718214 40.584049 214 205 212
-3.409795 9.827332 40.673580 205 197 205
-3.417347 9.936970 40.763664 196 188 197
-3.424922 10.047065 40.854023 189 182 191
-3.432494 10.157537 40.944336 184 179 189
-3.440029 10.268292 41.034222 184 179 189
-3.447495 10.379225 41.123276 183 179 189
-3.454853 10.490216 41.211052 182 179 189
-3.462067 10.601143 41.297104 183 180 189
-3.469100 10.711882 41.380993 184 181 190
-3.475916 10.822306 41.462296 183 181 189
-3.482481 10.932294 41.540607 181 179 187
-3.488768 11.041739 41.615597 179 176 183
-3.494752 11.150543 41.686985 177 173 180
-3.500417 11.258624 41.754551 174 170 177
-3.505749 11.365921 41.818157 170 165 172
-3.510744 11.472389 41.877739 165 160 166
-3.515403 11.578009 41.933319 165 158 165
-3.519734 11.682779 41.984982 167 159 167
-3.523750 11.786716 42.032883 169 159 167
-3.527467 11.889855 42.077225 169 156 165
-3.530909 11.992248 42.118275 168 153 163
-3.534098 12.093954 42.156315 166 149 159
-3.537060 12.195044 42.191658 163 146 157
-3.539824 12.295594 42.224625 159 142 154
-3.542416 12.395685 42.255535 153 137 150
-3.544861 12.495395 42.284710 133 118 132
-3.547186 12.594799 42.312435 101 87 101
-3.549412 12.693974 42.338997 79 67 80
-3.551563 12.792988 42.364647 70 59 71
-3.553657 12.891909 42.389626 66 57 66
-3.555712 12.990795 42.414143 62 55 61
-3.557746 13.089707 42.438400 59 52 57
-3.559772 13.188699 42.462570 55 49 52
-3.561807 13.287825 42.486843 53 47 49
-3.563864 13.387139 42.511383 51 46 47
-3.565958 13.486700 42.536366 49 45 46
-3.568104 13.586566 42.561962 49 45 45
-3.570317 13.686798 42.588356 48 45 44
-3.572610 13.787455 42.615715 48 45 44
-3.574999 13.888598 42.644203 48 44 43
-3.577497 13.990294 42.674004 47 44 42
-3.580116 14.092595 42.705246 47 44 42
-3.582866 14.195547 42.738041 45 44 42
-3.585753 14.299191 42.772488 44 42 41
-3.588784 14.403557 42.808636 42 40 39
-2.958597 3.832668 36.222904 254 238 248
-2.964444 3.918482 36.294498 254 243 251
-2.970250 4.004549 36.365582 254 239 249
-2.976005 4.090851 36.436035 254 238 248
-2.981700 4.177374 36.505772 253 238 248
-2.987331 4.264105 36.574703 246 226 236
-2.992891 4.351031 36.642773 237 211 219
-2.998378 4.438143 36.709961 239 214 221
-3.003792 4.525434 36.776249 248 231 237
-3.009135 4.612901 36.841656 253 246 250
-3.014409 4.700543 36.906223 254 251 254
-3.019619 4.788363 36.970016 254 251 254
-3.024772 4.876366 37.033112 255 252 255
-3.029876 4.964559 37.095600 254 253 254
-3.034940 5.052955 37.157593 254 253 254
-3.039972 5.141565 37.219200 254 253 254
-3.044982 5.230403 37.280540 254 253 254
-3.049979 5.319483 37.341721 254 254 254
-3.054972 5.408819 37.402851 254 254 254
-3.059969 5.498426 37.464035 254 254 254
-3.064977 5.588318 37.525352 254 254 254
-3.070004 5.678507 37.586887 254 254 254
-3.075052 5.769003 37.648705 254 254 254
-3.080129 5.859819 37.710854 254 254 254
-3.085237 5.950963 37.773392 254 254 254
-3.090379 6.042444 37.836349 254 254 254
-3.095559 6.134271 37.899769 254 254 254
-3.100779 6.226453 37.963680 254 254 254
-3.106042 6.318997 38.028118 254 254 254
-3.111351 6.411913 38.093113 254 254 254
-3.116708 6.505210 38.158703 254 254 254
-3.122117 6.598900 38.224930 255 253 255
-3.127581 6.692993 38.291828 254 252 254
-3.133103 6.787500 38.359436 254 251 254
-3.138687 6.882434 38.427795 254 248 253
-3.144334 6.977804 38.496941 254 245 250
-3.150048 7.073622 38.566898 254 242 246
-3.155830 7.169894 38.637680 253 240 244
-3.161680 7.266629 38.709305 252 239 244
-3.167598 7.363831 38.781757 248 238 244
-3.173582 7.461503 38.855034 242 235 243
-3.179633 7.559646 38.929108 237 232 241
-3.185745 7.658257 39.003941 237 235 243
-3.191916 7.757333 39.079494 241 240 247
-3.198142 7.856871 39.155720 239 239 245
-3.204419 7.956865 39.232578 235 235 240
-3.210746 8.057313 39.310032 240 240 244
-3.217118 8.158212 39.388050 248 248 250
-3.223535 8.259562 39.466618 245 246 246
-3.229997 8.361365 39.545731 240 240 242
-3.236505 8.463631 39.625408 244 244 246
-3.243062 8.566371 39.705692 240 239 243
-3.249673 8.669601 39.786636 232 231 236
-3.256344 8.773339 39.868305 240 239 243
-3.263080 8.877608 39.950771 250 248 252
-3.269889 8.982432 40.034138 251 249 253
-3.276777 9.087836 40.118469 251 247 253
-3.283750 9.193842 40.203846 248 243 250
-3.290813 9.300468 40.290318 240 234 241
-3.297966 9.407727 40.377903 229 222 228
-3.305210 9.515621 40.466583 220 212 219
-3.312537 9.624143 40.556293 217 208 215
-3.319939 9.733270 40.646919 213 203 211
-3.327401 9.842965 40.738281 205 195 203
-3.334905 9.953176 40.830147 196 187 196
-3.342425 10.063836 40.922218 189 181 190
-3.349934 10.174858 41.014156 183 177 186
-3.357400 10.286146 41.105568 182 177 187
-3.364789 10.397589 41.196033 183 178 188
-3.372064 10.509064 41.285095 183 179 188
-3.379188 10.620450 41.372314 183 180 189
-3.386124 10.731619 41.457241 184 181 189
-3.392840 10.842447 41.539463 183 180 188
-3.399303 10.952818 41.618591 180 177 184
-3.405488 11.062624 41.694313 178 175 181
-3.411372 11.171775 41.766361 176 172 178
-3.416941 11.280194 41.834545 173 169 174
-3.422186 11.387826 41.898750 170 165 170
-3.427102 11.494635 41.958942 166 160 165
-3.431693 11.600604 42.015152 166 158 164
-3.435968 11.705740 42.067497 168 159 165
-3.439941 11.810062 42.116138 169 158 165
-3.443629 11.913610 42.161289 168 155 163
-3.447054 12.016434 42.203217 166 151 160
-3.450238 12.118592 42.242199 164 148 156
-3.453205 12.220154 42.278530 161 145 154
-3.455981 12.321191 42.312523 157 140 150
-3.458591 12.421775 42.344475 150 133 144
-3.461057 12.521978 42.374672 127 112 122
-3.463403 12.621870 42.403381 99 86 95
-3.465647 12.721516 42.430859 81 69 77
-3.467809 12.820976 42.457333 71 61 68
-3.469907 12.920313 42.483021 65 57 62
-3.471957 13.019577 42.508114 60 54 57
-3.473973 13.118824 42.532799 57 51 54
-3.475970 13.218103 42.557243 54 48 49
-3.477962 13.317472 42.581638 51 46 47
-3.479964 13.416984 42.606155 49 44 45
-3.481991 13.516696 42.630966 48 44 43
-3.484058 13.616672 42.656273 48 44 43
-3.486181 13.716977 42.682262 48 44 43
-3.488375 13.817677 42.709129 48 43 42
-3.490656 13.918839 42.737057 48 43 42
-3.493040 14.020532 42.766235 48 43 42
-3.495538 14.122815 42.796822 47 43 41
-3.498161 14.225739 42.828941 46 42 41
-3.500918 14.329349 42.862694 45 41 40
-3.503814 14.433675 42.898148 43 39 38
-3.506850 14.538734 42.935318 41 38 37
-2.882657 3.835522 36.249874 254 237 247
-2.888329 3.921366 36.321205 254 243 251
-2.893959 4.007458 36.391998 254 237 248
-2.899536 4.093781 36.462135 254 234 246
-2.905055 4.180322 36.531528 254 237 247
-2.910507 4.267066 36.600101 248 231 240
-2.915891 4.354002 36.667797 240 216 224
-2.921202 4.441121 36.734592 239 216 222
-2.926442 4.528416 36.800484 247 231 237
-2.931612 4.615886 36.865494 253 247 250
-2.936715 4.703528 36.929665 254 252 254
-2.941757 4.791348 36.993069 254 251 253
-2.946745 4.879352 37.055794 255 252 254
-2.951687 4.967548 37.117935 254 254 254
-2.956591 5.055949 37.179604 254 254 254
-2.961467 5.144566 37.240921 254 254 254
-2.966325 5.233415 37.302006 254 254 254
-2.971173 5.322511 37.362980 254 254 254
-2.976021 5.411870 37.423946 254 254 254
-2.980877 5.501505 37.485008 254 254 254
-2.985749 5.591433 37.546268 254 254 254
-2.990641 5.681664 37.607792 254 254 254
-2.995560 5.772213 37.669655 254 254 254
-3.000511 5.863090 37.731907 254 254 254
-3.005496 5.954304 37.794598 254 254 254
-3.010520 6.045865 37.857769 254 254 254
-3.015583 6.137780 37.921444 254 254 254
-3.020690 6.230058 37.985661 254 254 254
-3.025842 6.322708 38.050453 254 254 254
-3.031042 6.415739 38.115845 254 254 254
-3.036293 6.509160 38.181870 254 253 254
-3.041597 6.602981 38.248566 254 253 254
-3.046957 6.697214 38.315971 255 252 255
-3.052377 6.791869 38.384125 254 250 254
-3.057858 6.886959 38.453064 254 248 253
-3.063405 6.982494 38.522816 254 245 250
-3.069020 7.078486 38.593418 252 241 245
-3.074703 7.174941 38.664879 252 240 244
-3.080455 7.271870 38.737221 250 240 245
-3.086277 7.369276 38.810432 245 238 244
-3.092169 7.467165 38.884518 239 234 242
-3.098126 7.565535 38.959435 236 233 242
-3.104149 7.664389 39.035172 240 239 245
-3.110232 7.763721 39.111671 243 243 247
-3.116374 7.863531 39.188911 232 232 237
-3.122571 7.963813 39.266834 222 223 230
-3.128820 8.064565 39.345413 235 235 240
-3.135118 8.165785 39.424614 249 249 251
-3.141465 8.267474 39.504425 245 245 247
-3.147860 8.369637 39.584846 239 238 242
-3.154305 8.472279 39.665894 247 246 248
-3.160803 8.575414 39.747608 250 249 251
-3.167358 8.679058 39.830036 244 243 247
-3.173975 8.783230 39.913250 247 246 250
-3.180661 8.887952 39.997326 251 249 253
-3.187422 8.993248 40.082340 250 247 253
-3.194263 9.099141 40.168377 249 245 252
-3.201191 9.205653 40.255493 248 243 250
-3.208208 9.312799 40.343735 241 235 242
-3.215316 9.420592 40.433117 228 222 228
-3.222512 9.529030 40.523602 219 211 217
-3.229789 9.638101 40.615112 216 206 214
-3.237136 9.747779 40.707512 213 203 211
-3.244540 9.858026 40.800613 206 196 204
-3.251979 9.968781 40.894157 197 188 196
-3.259428 10.079971 40.987827 189 181 190
-3.266859 10.191509 41.081276 183 176 185
-3.274239 10.303291 41.174084 182 176 185
-3.281535 10.415203 41.265823 184 178 188
-3.288709 10.527122 41.356041 184 180 189
-3.295725 10.638923 41.444275 184 179 188
-3.302550 10.750477 41.530090 183 179 188
-3.309149 10.861664 41.613083 181 178 185
-3.315495 10.972367 41.692879 179 175 182
-3.321562 11.082487 41.769176 177 173 178
-3.327332 11.191936 41.841736 175 170 175
-3.332792 11.300647 41.910397 173 167 171
-3.337935 11.408567 41.975063 171 165 168
-3.342759 11.515672 42.035732 167 160 164
-3.347270 11.621949 42.092461 166 157 162
-3.351479 11.727412 42.145382 167 157 163
-3.355398 11.832085 42.194668 168 156 163
-3.359047 11.936007 42.240551 166 154 161
-3.362445 12.039232 42.283291 164 150 157
-3.365616 12.141821 42.323166 162 147 155
-3.368582 12.243835 42.360462 160 144 152
-3.371366 12.345343 42.395466 156 139 147
-3.373989 12.446410 42.428452 145 129 137
-3.376473 12.547101 42.459686 122 108 115
-3.378837 12.647479 42.489414 98 84 90
-3.381098 12.747597 42.517849 82 71 76
-3.383273 12.847511 42.545204 73 64 69
-3.385377 12.947271 42.571663 67 59 63
-3.387424 13.046926 42.597404 62 55 58
-3.389428 13.146523 42.622601 58 52 54
-3.391401 13.246111 42.647415 55 49 50
-3.393358 13.345741 42.672028 51 46 47
-3.395314 13.445470 42.696613 49 45 44
-3.397281 13.545355 42.721359 47 43 42
-3.399278 13.645464 42.746471 47 43 42
-3.401321 13.745868 42.772160 48 43 42
-3.403426 13.846634 42.798634 48 42 42
-3.405610 13.947837 42.826092 48 42 42
-3.407889 14.049552 42.854755 48 42 42
-3.410277 14.151841 42.884781 47 41 41
-3.412785 14.254764 42.916325 46 41 41
-3.415423 14.358365 42.949490 45 40 39
-3.418195 14.462679 42.984352 43 38 38
-3.421104 14.567726 43.020935 42 37 37
-3.424148 14.673510 43.059216 41 36 35
-2.801183 3.752916 36.206818 254 230 244
-2.806712 3.838528 36.278282 254 238 249
-2.812207 3.924400 36.349312 254 243 252
-2.817658 4.010516 36.419769 254 236 248
-2.823057 4.096859 36.489552 254 232 244
-2.828397 4.183416 36.558571 254 237 247
-2.833672 4.270173 36.626747 249 234 242
-2.838877 4.357118 36.694035 243 222 229
-2.844013 4.444242 36.760414 242 222 229
-2.849078 4.531542 36.825886 249 237 241
-2.854076 4.619015 36.890484 253 249 251
-2.859009 4.706659 36.954247 254 252 254
-2.863884 4.794481 37.017258 254 252 253
-2.868708 4.882488 37.079605 254 253 254
-2.873488 4.970688 37.141396 254 254 254
-2.878234 5.059095 37.202744 254 254 254
-2.882956 5.147722 37.263771 255 255 255
-2.887663 5.236586 37.324612 254 254 254
-2.892364 5.325702 37.385376 254 254 254
-2.897068 5.415085 37.446182 254 254 254
-2.901784 5.504753 37.507137 254 254 254
-2.906518 5.594718 37.568329 254 254 254
-2.911278 5.684996 37.629845 254 254 254
-2.916066 5.775599 37.691746 254 254 254
-2.920890 5.866536 37.754086 254 254 254
-2.925750 5.957819 37.816914 254 254 254
-2.930651 6.049457 37.880260 254 254 254
-2.935595 6.141456 37.944160 254 254 254
-2.940584 6.233827 38.008644 254 254 254
-2.945619 6.326576 38.073730 254 254 254
-2.950704 6.419713 38.139458 254 254 254
-2.955841 6.513247 38.205845 254 253 254
-2.961031 6.607188 38.272938 254 253 254
-2.966279 6.701547 38.340763 254 252 254
-2.971586 6.796335 38.409363 254 249 253
-2.976956 6.891564 38.478771 254 248 253
-2.982391 6.987245 38.549026 253 246 250
-2.987894 7.083390 38.620159 251 242 246
-2.993467 7.180008 38.692184 250 241 245
-2.999110 7.277107 38.765121 249 242 246
-3.004823 7.374694 38.838970 244 239 245
-3.010607 7.472775 38.913731 237 235 242
-3.016460 7.571351 38.989384 235 234 242
-3.022379 7.670422 39.065895 242 242 247
-3.028363 7.769987 39.143238 243 243 246
-3.034408 7.870044 39.221371 229 229 234
-3.040511 7.970591 39.300255 221 221 229
-3.046669 8.071625 39.379856 237 237 243
-3.052881 8.173145 39.460152 250 250 252
-3.059146 8.275153 39.541122 244 244 248
-3.065462 8.377653 39.622765 239 238 244
-3.071832 8.480653 39.705101 246 245 249
-3.078259 8.584166 39.788174 253 253 254
-3.084746 8.688207 39.872021 252 252 253
-3.091299 8.792796 39.956718 251 250 253
-3.097922 8.897953 40.042332 249 247 252
-3.104623 9.003702 40.128937 247 243 251
-3.111405 9.110066 40.216606 247 242 251
-3.118275 9.217066 40.305401 247 242 249
-3.125234 9.324713 40.395344 239 233 240
-3.132282 9.433017 40.486443 226 219 226
-3.139415 9.541974 40.578651 217 208 216
-3.146627 9.651569 40.671871 215 205 213
-3.153906 9.761773 40.765953 214 204 213
-3.161235 9.872540 40.860683 208 198 207
-3.168594 9.983807 40.955795 199 189 199
-3.175956 10.095495 41.050953 189 180 191
-3.183292 10.207512 41.145779 184 176 186
-3.190570 10.319751 41.239857 183 175 186
-3.197757 10.432093 41.332741 185 179 189
-3.204814 10.544413 41.423962 186 180 190
-3.211708 10.656584 41.513077 185 179 188
-3.218405 10.768479 41.599636 183 177 186
-3.224874 10.879980 41.683254 181 176 183
-3.231088 10.990973 41.763577 179 174 180
-3.237025 11.101361 41.840309 177 172 177
-3.242668 11.211065 41.913250 175 169 173
-3.248007 11.320024 41.982258 173 166 169
-3.253037 11.428193 42.047272 171 163 167
-3.257759 11.535553 42.108307 169 160 164
-3.262180 11.642102 42.165451 166 157 162
-3.266312 11.747857 42.218853 166 155 161
-3.270169 11.852847 42.268711 165 155 161
-3.273770 11.957117 42.315258 164 152 159
-3.277136 12.060720 42.358757 162 149 156
-3.280287 12.163716 42.399487 161 146 154
-3.283245 12.266166 42.437721 159 143 151
-3.286030 12.368130 42.473721 153 138 145
-3.288662 12.469671 42.507748 139 124 131
-3.291161 12.570846 42.540039 115 102 108
-3.293541 12.671706 42.570805 94 82 88
-3.295818 12.772299 42.600239 83 72 77
-3.298006 12.872672 42.628525 75 66 71
-3.300118 12.972866 42.655819 69 62 65
-3.302166 13.072924 42.682285 64 57 60
-3.304161 13.172886 42.708073 59 53 55
-3.306116 13.272799 42.733341 55 50 51
-3.308043 13.372711 42.758263 52 47 48
-3.309958 13.472677 42.783012 49 45 44
-3.311876 13.572761 42.807793 48 43 43
-3.313811 13.673027 42.832813 48 42 42
-3.315784 13.773553 42.858307 48 42 42
-3.317809 13.874412 42.884487 48 42 42
-3.319906 13.975681 42.911587 48 41 42
-3.322091 14.077445 42.939835 48 40 42
-3.324379 14.179769 42.969410 47 40 41
-3.326783 14.282717 43.000481 47 40 41
-3.329312 14.386338 43.033169 45 39 39
-3.331972 14.490671 43.067551 44 38 38
-3.334766 14.595741 43.103668 43 37 37
-3.337692 14.701547 43.141491 41 36 36
-3.340746 14.808083 43.180962 40 36 35
-2.725399 3.756038 36.236935 253 229 245
-2.730750 3.841681 36.308086 254 239 251
-2.736066 3.927580 36.378769 254 244 253
-2.741338 4.013720 36.448864 254 237 248
-2.746557 4.100082 36.518257 254 232 244
-2.751717 4.186654 36.586864 254 237 246
-2.756813 4.273423 36.654621 250 237 243
-2.761842 4.360377 36.721485 245 228 235
-2.766802 4.447509 36.787430 246 231 237
-2.771694 4.534814 36.852474 252 244 247
-2.776520 4.622290 36.916641 254 252 253
-2.781285 4.709939 36.979992 254 253 254
-2.785994 4.797765 37.042610 254 253 254
-2.790655 4.885777 37.104584 254 254 254
-2.795276 4.973985 37.166027 254 254 254
-2.799867 5.062402 37.227062 254 254 254
-2.804436 5.151043 37.287811 254 254 254
-2.808993 5.239925 37.348412 254 254 254
-2.813549 5.329064 37.408981 254 254 254
-2.818111 5.418477 37.469639 254 254 254
-2.822687 5.508179 37.530487 254 254 254
-2.827285 5.598186 37.591618 255 255 254
-2.831911 5.688512 37.653118 254 254 254
-2.836568 5.779170 37.715046 254 254 254
-2.841263 5.870169 37.777462 254 254 254
-2.845996 5.961520 37.840405 254 254 254
-2.850772 6.053233 37.903904 254 254 254
-2.855592 6.145314 37.967995 254 254 254
-2.860459 6.237771 38.032692 254 254 254
-2.865373 6.330614 38.098030 254 254 254
-2.870336 6.423849 38.164024 254 254 254
-2.875351 6.517486 38.230709 254 254 254
-2.880421 6.611534 38.298111 254 254 254
-2.885547 6.706006 38.366272 254 253 254
-2.890733 6.800911 38.435223 254 251 254
-2.895982 6.896263 38.505005 254 250 253
-2.901295 6.992072 38.575657 253 248 250
-2.906677 7.088351 38.647205 250 244 246
-2.912128 7.185111 38.719685 248 242 245
-2.917650 7.282360 38.793102 247 243 246
-2.923243 7.380107 38.867477 241 239 244
-2.928909 7.478358 38.942806 233 233 239
-2.934645 7.577116 39.019073 233 234 241
-2.940450 7.676383 39.096256 243 244 247
-2.946322 7.776158 39.174328 243 243 246
-2.952258 7.876443 39.253258 225 225 232
-2.958256 7.977233 39.333008 218 218 228
-2.964313 8.078529 39.413544 235 235 243
-2.970427 8.180330 39.494839 248 248 254
-2.976598 8.282639 39.576885 244 244 251
-2.982825 8.385459 39.659683 242 242 249
-2.989110 8.488799 39.743240 247 247 252
-2.995455 8.592672 39.827602 253 253 254
-3.001863 8.697094 39.912807 253 253 254
-3.008340 8.802083 39.998920 250 248 253
-3.014889 8.907658 40.086002 245 242 251
-3.021518 9.013844 40.174133 243 240 250
-3.028229 9.120660 40.263371 246 241 251
-3.035028 9.228126 40.353764 246 240 250
-3.041915 9.336252 40.445335 237 230 240
-3.048889 9.445044 40.538063 225 216 227
-3.055946 9.554496 40.631901 216 207 218
-3.063079 9.664588 40.726730 214 204 215
-3.070273 9.775286 40.822384 213 202 214
-3.077512 9.886541 40.918636 207 197 209
-3.084774 9.998286 41.015194 199 189 202
-3.092033 10.110436 41.111706 192 182 195
-3.099259 10.222895 41.207787 186 176 189
-3.106420 10.335550 41.302998 182 174 185
-3.113481 10.448282 41.396885 184 176 187
-3.120408 10.560962 41.488976 187 179 190
-3.127165 10.673463 41.578827 186 178 188
-3.133722 10.785659 41.666004 183 176 184
-3.140048 10.897430 41.750111 181 174 182
-3.146118 11.008672 41.830826 180 174 180
-3.151914 11.119289 41.907883 179 171 177
-3.157419 11.229210 41.981087 177 168 173
-3.162627 11.338378 42.050331 174 165 169
-3.167535 11.446760 42.115585 171 162 165
-3.172146 11.554343 42.176895 169 159 163
-3.176469 11.661132 42.234371 166 156 162
-3.180516 11.767149 42.288189 165 155 161
-3.184304 11.872431 42.338551 165 154 160
-3.187851 11.977025 42.385712 162 151 158
-3.191177 12.080985 42.429932 159 147 155
-3.194303 12.184372 42.471489 158 144 152
-3.197247 12.287241 42.510635 155 141 149
-3.200029 12.389652 42.547630 148 133 141
-3.202667 12.491660 42.582706 131 117 124
-3.205177 12.593313 42.616070 109 95 103
-3.207571 12.694655 42.647907 93 80 87
-3.209863 12.795727 42.678379 85 74 80
-3.212064 12.896564 42.707645 78 68 74
-3.214185 12.997202 42.735840 71 63 67
-3.216235 13.097675 42.763100 65 58 61
-3.218225 13.198019 42.789555 60 54 56
-3.220166 13.298275 42.815365 56 50 51
-3.222070 13.398489 42.840683 53 47 48
-3.223952 13.498717 42.865704 50 45 45
-3.225826 13.599021 42.890617 50 44 43
-3.227709 13.699471 42.915657 49 42 42
-3.229619 13.800146 42.941055 48 41 41
-3.231575 13.901126 42.967060 48 40 41
-3.233594 14.002493 42.993912 48 40 41
-3.235696 14.104334 43.021851 47 39 40
-3.237895 14.206723 43.051090 46 39 40
-3.240205 14.309727 43.081799 46 39 40
-3.242635 14.413402 43.114120 46 39 39
-3.245194 14.517789 43.148144 45 38 38
-3.247885 14.622914 43.183914 43 37 37
-3.250705 14.728785 43.221420 42 36 36
-3.253652 14.835391 43.260597 40 36 35
-3.256717 14.942709 43.301346 39 36 35
-2.649583 3.759300 36.268398 253 231 246
-2.654755 3.844973 36.339199 254 241 252
-2.659892 3.930899 36.409512 254 246 253
-2.664984 4.017061 36.479210 254 239 249
-2.670023 4.103443 36.548187 254 234 246
-2.675004 4.190031 36.616371 254 238 247
-2.679922 4.276812 36.683693 251 239 245
-2.684774 4.363776 36.750114 248 233 240
-2.689560 4.450916 36.815617 249 237 242
-2.694279 4.538229 36.880222 253 248 250
-2.698936 4.625711 36.943966 254 253 254
-2.703534 4.713367 37.006908 254 254 254
-2.708080 4.801200 37.069134 254 254 254
-2.712581 4.889221 37.130741 254 254 254
-2.717045 4.977441 37.191853 254 254 254
-2.721482 5.065873 37.252586 254 254 254
-2.725901 5.154533 37.313076 254 254 254
-2.730312 5.243438 37.373447 254 254 254
-2.734724 5.332605 37.433834 254 254 254
-2.739145 5.422051 37.494350 254 254 254
-2.743582 5.511792 37.555099 254 254 254
-2.748045 5.601844 37.616180 254 254 253
-2.752536 5.692221 37.677662 253 253 252
-2.757062 5.782934 37.739616 254 254 254
-2.761626 5.873996 37.802090 254 254 254
-2.766232 5.965415 37.865128 254 254 254
-2.770880 6.057201 37.928757 254 254 254
-2.775573 6.149360 37.992992 254 254 254
-2.780312 6.241900 38.057865 254 254 254
-2.785099 6.334829 38.123398 254 254 254
-2.789936 6.428154 38.189602 254 254 254
-2.794824 6.521883 38.256508 254 254 254
-2.799765 6.616029 38.324150 254 254 254
-2.804763 6.710600 38.392559 254 253 254
-2.809819 6.805609 38.461773 254 252 254
-2.814938 6.901067 38.531834 254 252 254
-2.820121 6.996988 38.602779 252 249 250
-2.825371 7.093385 38.674648 246 242 243
-2.830691 7.190268 38.747471 245 240 242
-2.836082 7.287647 38.821266 245 243 245
-2.841546 7.385534 38.896057 238 237 241
-2.847083 7.483935 38.971851 227 228 234
-2.852692 7.582856 39.048634 228 229 236
-2.858373 7.682300 39.126392 240 241 245
-2.864123 7.782267 39.205101 240 240 243
-2.869941 7.882760 39.284740 218 218 226
-2.875824 7.983776 39.365265 210 210 222
-2.881770 8.085316 39.446651 230 230 240
-2.887777 8.187381 39.528881 246 246 253
-2.893844 8.289973 39.611935 246 246 253
-2.899972 8.393099 39.695816 246 246 253
-2.906161 8.496763 39.780529 250 250 254
-2.912413 8.600982 39.866116 253 253 254
-2.918732 8.705769 39.952614 252 252 254
-2.925122 8.811140 40.040081 247 245 253
-2.931587 8.917118 40.128574 240 238 250
-2.938132 9.023721 40.218155 240 238 249
-2.944760 9.130971 40.308887 243 239 250
-2.951475 9.238882 40.400799 242 236 247
-2.958276 9.347464 40.493900 234 228 239
-2.965163 9.456718 40.588173 225 216 228
-2.972130 9.566638 40.683537 218 208 221
-2.979167 9.677197 40.779865 214 203 217
-2.986261 9.788358 40.876972 210 199 213
-2.993395 9.900067 40.974617 204 194 209
-3.000545 10.012254 41.072491 199 189 204
-3.007685 10.124827 41.170227 194 183 198
-3.014786 10.237689 41.267422 186 176 190
-3.021814 10.350721 41.363625 181 172 185
-3.028736 10.463803 41.458382 182 173 185
-3.035518 10.576804 41.551212 185 177 188
-3.042126 10.689594 41.641666 185 177 187
-3.048530 10.802051 41.729324 183 175 184
-3.054702 10.914057 41.813812 181 174 182
-3.060619 11.025510 41.894806 181 173 180
-3.066264 11.136320 41.972069 179 170 176
-3.071624 11.246424 42.045441 177 167 172
-3.076694 11.355772 42.114838 174 164 168
-3.081473 11.464338 42.180260 171 160 165
-3.085967 11.572116 42.241772 168 157 163
-3.090185 11.679119 42.299522 165 154 161
-3.094143 11.785378 42.353695 164 154 161
-3.097856 11.890930 42.404522 164 153 160
-3.101344 11.995831 42.452263 160 149 157
-3.104625 12.100133 42.497181 155 144 153
-3.107720 12.203896 42.539543 153 141 151
-3.110647 12.307177 42.579609 150 138 147
-3.113423 12.410027 42.617599 139 127 136
-3.116062 12.512496 42.653732 119 107 116
-3.118580 12.614626 42.688194 101 88 97
-3.120986 12.716454 42.721138 92 80 89
-3.123292 12.818008 42.752697 87 76 83
-3.125506 12.919318 42.782997 80 70 76
-3.127635 13.020410 42.812149 72 64 68
-3.129690 13.121312 42.840271 65 58 61
-3.131678 13.222054 42.867481 59 53 55
-3.133609 13.322672 42.893917 56 49 51
-3.135495 13.423211 42.919731 53 46 47
-3.137349 13.523726 42.945114 50 45 45
-3.139187 13.624276 42.970272 50 43 44
-3.141025 13.724938 42.995434 48 42 43
-3.142882 13.825791 43.020855 47 40 41
-3.144777 13.926922 43.046791 46 39 40
-3.146729 14.028418 43.073509 46 38 40
-3.148757 14.130368 43.101265 46 38 40
-3.150877 14.232858 43.130287 45 38 39
-3.153103 14.335953 43.160755 45 38 39
-3.155447 14.439719 43.192841 45 38 39
-3.157916 14.544198 43.226635 44 38 38
-3.160514 14.649422 43.262196 43 37 37
-3.163240 14.755399 43.299515 42 36 36
-3.166091 14.862122 43.338547 40 35 35
-3.169061 14.969572 43.379192 39 35 35
-3.172140 15.077718 43.421337 38 35 35
-2.568700 3.677251 36.230309 254 233 249
-2.573720 3.762690 36.301113 254 236 250
-2.578713 3.848395 36.371536 255 243 253
-2.583669 3.934348 36.441448 255 247 254
-2.588581 4.020532 36.510731 254 242 251
-2.593442 4.106934 36.579285 254 237 249
-2.598245 4.193539 36.647030 254 239 249
-2.602986 4.280334 36.713905 252 240 248
-2.607664 4.367311 36.779877 250 236 245
-2.612277 4.454462 36.844940 251 239 246
-2.616826 4.541783 36.909111 253 248 251
-2.621316 4.629276 36.972439 254 253 254
-2.625750 4.716942 37.034981 254 254 254
-2.630135 4.804788 37.096828 254 254 254
-2.634479 4.892823 37.158092 254 254 254
-2.638789 4.981059 37.218887 254 254 254
-2.643075 5.069511 37.279339 252 253 253
-2.647346 5.158195 37.339581 251 251 251
-2.651612 5.247128 37.399750 252 252 252
-2.655882 5.336328 37.459969 253 253 253
-2.660163 5.425811 37.520359 252 253 252
-2.664464 5.515595 37.581017 251 252 251
-2.668791 5.605696 37.642044 251 251 251
-2.673149 5.696126 37.703514 251 251 250
-2.677543 5.786899 37.765488 253 253 253
-2.681976 5.878024 37.828011 254 254 254
-2.686450 5.969511 37.891121 254 254 254
-2.690968 6.061368 37.954845 254 254 254
-2.695531 6.153602 38.019199 254 254 254
-2.700139 6.246220 38.084202 254 254 254
-2.704795 6.339228 38.149872 254 254 254
-2.709500 6.432636 38.216228 254 254 254
-2.714255 6.526450 38.283295 254 254 254
-2.719062 6.620682 38.351101 254 253 254
-2.723924 6.715341 38.419682 254 253 254
-2.728844 6.810440 38.489075 254 253 254
-2.733825 6.905991 38.559326 254 253 254
-2.738870 7.002008 38.630478 248 246 247
-2.743981 7.098506 38.702572 239 237 237
-2.749162 7.195495 38.775642 238 237 237
-2.754414 7.292989 38.849724 242 242 243
-2.759740 7.390999 38.924839 239 239 242
-2.765140 7.489534 39.001003 231 232 237
-2.770614 7.588600 39.078213 230 231 236
-2.776162 7.688203 39.156460 240 240 244
-2.781781 7.788346 39.235729 238 238 242
-2.787472 7.889031 39.315994 218 218 226
-2.793232 7.990259 39.397232 210 210 221
-2.799058 8.092029 39.479404 228 228 238
-2.804950 8.194345 39.562500 243 244 252
-2.810905 8.297208 39.646503 246 247 254
-2.816925 8.400624 39.731407 248 249 254
-2.823009 8.504601 39.817219 251 252 254
-2.829160 8.609150 39.903976 253 253 254
-2.835380 8.714287 39.991707 251 251 254
-2.841673 8.820027 40.080463 246 245 253
-2.848042 8.926390 40.170300 241 239 250
-2.854491 9.033394 40.261269 240 238 249
-2.861024 9.141056 40.353409 241 238 249
-2.867642 9.249390 40.446754 240 235 245
-2.874345 9.358403 40.541294 233 226 238
-2.881130 9.468095 40.636997 224 216 230
-2.887992 9.578451 40.733772 218 208 223
-2.894919 9.689445 40.831478 213 202 218
-2.901898 9.801035 40.929913 208 197 213
-2.908910 9.913162 41.028816 203 192 209
-2.915932 10.025752 41.127865 198 187 203
-2.922939 10.138711 41.226681 192 181 197
-2.929899 10.251935 41.324848 186 175 190
-2.936780 10.365306 41.421906 182 172 186
-2.943549 10.478696 41.517387 182 173 186
-2.950174 10.591978 41.610825 184 176 188
-2.956621 10.705020 41.701759 185 177 187
-2.962862 10.817701 41.789783 183 176 184
-2.968871 10.929907 41.874535 181 173 182
-2.974626 11.041538 41.955715 179 171 178
-2.980113 11.152514 42.033104 177 169 175
-2.985322 11.262773 42.106564 175 165 172
-2.990248 11.372276 42.176048 172 162 169
-2.994893 11.481002 42.241570 169 159 166
-2.999266 11.588956 42.303246 166 156 163
-3.003377 11.696157 42.361225 163 153 160
-3.007241 11.802640 42.415733 162 152 159
-3.010876 11.908452 42.467007 161 150 159
-3.014301 12.013646 42.515308 157 146 156
-3.017535 12.118280 42.560917 151 140 151
-3.020596 12.222414 42.604095 149 138 149
-3.023502 12.326099 42.645077 144 133 144
-3.026267 12.429387 42.684082 129 119 130
-3.028906 12.532317 42.721302 108 98 109
-3.031429 12.634927 42.756889 94 83 95
-3.033846 12.737243 42.790977 91 80 91
-3.036164 12.839288 42.823669 88 77 86
-3.038389 12.941079 42.855061 80 71 78
-3.040529 13.042640 42.885242 72 63 69
-3.042589 13.143987 42.914303 65 57 61
-3.044578 13.245145 42.942345 58 51 54
-3.046503 13.346148 42.969498 54 47 49
-3.048375 13.447035 42.995907 52 45 46
-3.050208 13.547860 43.021755 50 44 45
-3.052016 13.648687 43.047260 49 43 44
-3.053817 13.749591 43.072662 48 41 43
-3.055629 13.850657 43.098225 47 39 42
-3.057473 13.951972 43.124222 46 38 40
-3.059366 14.053631 43.150928 45 37 39
-3.061330 14.155730 43.178627 45 38 39
-3.063381 14.258356 43.207554 45 38 39
-3.065534 14.361584 43.237923 44 38 39
-3.067801 14.465480 43.269901 44 38 39
-3.070190 14.570095 43.303604 43 38 38
-3.072707 14.675463 43.339096 43 37 37
-3.075351 14.781594 43.376389 41 36 36
-3.078119 14.888488 43.415428 40 35 36
-3.081005 14.996125 43.456139 38 34 35
-3.084002 15.104478 43.498402 37 34 35
-3.087099 15.213509 43.542088 37 34 35
-2.492952 3.680724 36.264526 254 238 252
-2.497793 3.766198 36.334953 254 241 253
-2.502607 3.851933 36.404980 254 246 254
-2.507385 3.937914 36.474483 255 249 254
-2.512118 4.024123 36.543339 254 245 253
-2.516801 4.110546 36.611454 254 240 251
-2.521427 4.197169 36.678753 254 242 251
-2.525994 4.283981 36.745190 254 242 250
-2.530499 4.370973 36.810722 252 239 247
-2.534942 4.458138 36.875351 252 240 247
-2.539325 4.545474 36.939106 253 247 251
-2.543650 4.632981 37.002029 254 252 253
-2.547923 4.720662 37.064190 254 254 254
-2.552151 4.808525 37.125687 254 254 254
-2.556340 4.896579 37.186623 254 254 254
-2.560499 4.984838 37.247124 253 253 253
-2.564636 5.073316 37.307316 248 248 248
-2.568763 5.162029 37.367336 243 244 243
-2.572886 5.250996 37.427319 246 247 246
-2.577016 5.340234 37.487389 249 250 249
-2.581159 5.429760 37.547665 246 247 246
-2.585324 5.519593 37.608250 241 242 241
-2.589516 5.609745 37.669235 244 245 244
-2.593741 5.700232 37.730694 250 250 250
-2.598002 5.791065 37.792679 254 254 254
-2.602303 5.882254 37.855236 254 254 254
-2.606645 5.973809 37.918404 254 254 254
-2.611030 6.065736 37.982197 254 254 254
-2.615460 6.158042 38.046635 254 254 254
-2.619935 6.250734 38.111729 254 254 254
-2.624456 6.343818 38.177490 254 254 254
-2.629024 6.437301 38.243942 254 254 254
-2.633641 6.531191 38.311104 254 254 254
-2.638309 6.625499 38.379005 254 254 254
-2.643030 6.720236 38.447685 254 254 254
-2.647807 6.815413 38.517185 254 254 254
-2.652644 6.911045 38.587547 254 252 252
-2.657544 7.007145 38.658817 245 243 243
-2.662509 7.103730 38.731056 233 232 232
-2.667544 7.200812 38.804295 233 233 233
-2.672651 7.298406 38.878582 241 242 242
-2.677831 7.396524 38.953938 246 246 247
-2.683087 7.495179 39.030396 242 242 244
-2.688419 7.594377 39.107964 236 236 239
-2.693827 7.694127 39.186630 241 241 243
-2.699310 7.794433 39.266392 241 241 244
-2.704867 7.895298 39.347225 225 225 231
-2.710496 7.996725 39.429111 214 214 224
-2.716196 8.098714 39.512016 225 225 235
-2.721964 8.201268 39.595928 241 242 250
-2.727801 8.304392 39.680832 247 248 254
-2.733704 8.408089 39.766708 248 249 254
-2.739675 8.512365 39.853573 249 250 254
-2.745716 8.617235 39.941448 249 249 254
-2.751828 8.722710 40.030361 249 249 254
-2.758014 8.828804 40.120350 249 248 254
-2.764277 8.935535 40.211456 243 242 251
-2.770621 9.042921 40.303730 240 238 248
-2.777046 9.150975 40.397202 244 242 249
-2.783555 9.259709 40.491879 244 240 248
-2.790146 9.369129 40.587761 235 229 241
-2.796815 9.479227 40.684776 224 216 232
-2.803556 9.589989 40.782841 216 207 224
-2.810359 9.701385 40.881790 212 201 218
-2.817207 9.813366 40.981407 207 196 213
-2.824082 9.925874 41.081429 202 191 208
-2.830962 10.038827 41.181503 197 187 203
-2.837819 10.152131 41.281246 192 181 197
-2.844623 10.265676 41.380234 186 176 191
-2.851344 10.379343 41.478001 183 173 187
-2.857949 10.493004 41.574078 183 174 187
-2.864404 10.606527 41.667984 184 176 188
-2.870680 10.719786 41.759281 186 177 188
-2.876749 10.832658 41.847565 184 177 186
-2.882587 10.945032 41.932484 181 173 182
-2.888175 11.056815 42.013763 178 170 178
-2.893498 11.167931 42.091206 175 167 174
-2.898550 11.278323 42.164700 172 164 171
-2.903330 11.387961 42.234222 170 161 168
-2.907839 11.496835 42.299824 167 158 165
-2.912088 11.604952 42.361633 164 155 163
-2.916089 11.712337 42.419830 161 152 160
-2.919858 11.819038 42.474663 158 148 157
-2.923414 11.925102 42.526382 156 147 156
-2.926774 12.030587 42.575264 152 143 153
-2.929958 12.135551 42.621578 147 137 149
-2.932983 12.240055 42.665585 143 133 145
-2.935865 12.344147 42.707512 135 126 138
-2.938618 12.447872 42.747562 119 111 123
-2.941254 12.551269 42.785904 100 92 105
-2.943781 12.654363 42.822662 92 83 96
-2.946207 12.757176 42.857944 92 83 95
-2.948535 12.859721 42.891823 89 79 90
-2.950773 12.962009 42.924370 81 71 79
-2.952923 13.064052 42.955647 71 63 68
-2.954991 13.165863 42.985725 63 55 59
-2.956982 13.267460 43.014690 56 49 52
-2.958904 13.368869 43.042652 53 46 48
-2.960767 13.470132 43.069756 50 44 45
-2.962584 13.571300 43.096188 49 43 44
-2.964370 13.672435 43.122162 48 42 43
-2.966140 13.773614 43.147919 47 41 43
-2.967916 13.874928 43.173752 46 40 42
-2.969716 13.976466 43.199932 45 39 40
-2.971560 14.078329 43.226761 44 38 39
-2.973470 14.180617 43.254536 43 37 38
-2.975462 14.283422 43.283516 43 38 39
-2.977552 14.386827 43.313923 43 38 39
-2.979753 14.490900 43.345936 42 38 38
-2.982074 14.595699 43.379700 42 38 38
-2.984520 14.701260 43.415279 42 37 37
-2.987092 14.807601 43.452702 41 36 36
-2.989788 14.914720 43.491924 40 35 36
-2.992604 15.022606 43.532875 38 34 35
-2.995530 15.131229 43.575443 38 34 35
-2.998559 15.240560 43.619511 38 34 35
-3.001683 15.350565 43.664955 38 34 35
-2.417124 3.684301 36.299770 254 242 252
-2.421788 3.769810 36.369804 254 245 254
-2.426424 3.855578 36.439423 254 248 254
-2.431023 3.941587 36.508503 254 249 254
-2.435580 4.027822 36.576927 254 246 254
-2.440087 4.114268 36.644611 254 244 253
-2.444539 4.200913 36.711479 254 245 252
-2.448934 4.287745 36.777477 254 245 250
