ply
format ascii 1.0
element vertex 1185
property float x
property float y
property float z
property uchar red
property uchar green
property uchar blue
end_header
-3.758431 9.909856 54.673237 60 32 32
-3.165694 -9.522406 47.541599 112 37 43
-3.167744 -9.426023 47.572395 113 37 43
-3.169778 -9.329457 47.602932 117 41 47
-3.171774 -9.232654 47.632912 122 46 52
-3.173714 -9.135558 47.662052 128 53 57
-3.175579 -9.038122 47.690060 131 57 60
-3.177353 -8.940309 47.716694 133 60 62
-3.179019 -8.842083 47.741718 139 66 68
-3.180566 -8.743419 47.764938 148 74 77
-3.181982 -8.644300 47.786205 155 80 84
-3.183260 -8.544721 47.805405 155 81 86
-3.184397 -8.444685 47.822487 153 78 84
-3.185393 -8.344204 47.837440 152 79 85
-3.186251 -8.243302 47.850323 153 81 88
-3.186978 -8.142011 47.861240 153 84 90
-3.187587 -8.040373 47.870380 151 86 92
-3.188091 -7.938437 47.877960 149 88 93
-3.188513 -7.836264 47.884289 147 92 96
-3.188875 -7.733920 47.889725 147 97 101
-3.189204 -7.631474 47.894672 146 101 106
-3.189533 -7.529005 47.899605 148 109 114
-3.189893 -7.426589 47.905025 162 127 134
-3.190324 -7.324310 47.911484 183 150 159
-3.190861 -7.222246 47.919559 187 157 168
-3.191546 -7.120476 47.929852 162 133 146
-3.192419 -7.019073 47.942951 133 104 118
-3.193517 -6.918103 47.959442 149 121 134
-3.194878 -6.817624 47.979889 204 185 194
-3.196537 -6.717681 48.004799 242 232 237
-3.198524 -6.618310 48.034634 240 221 228
-3.200864 -6.519529 48.069771 219 184 196
-3.203576 -6.421343 48.110500 201 160 173
-3.206672 -6.323739 48.156998 181 141 155
-3.210157 -6.226689 48.209343 158 121 137
-3.214028 -6.130149 48.267475 151 120 138
-3.218272 -6.034058 48.331211 169 143 164
-3.222869 -5.938342 48.400242 193 172 193
-3.227790 -5.842915 48.474140 202 187 206
-3.232997 -5.747679 48.552349 180 169 188
-3.238448 -5.652530 48.634201 128 118 138
-3.244091 -5.557358 48.718948 86 77 97
-3.249871 -5.462052 48.805759 114 106 123
-3.255729 -5.366499 48.893734 193 187 197
-3.261603 -5.270592 48.981941 244 242 245
-3.267430 -5.174231 49.069443 249 248 249
-3.273147 -5.077322 49.155300 229 226 229
-3.278694 -4.979784 49.238605 176 173 178
-3.284015 -4.881552 49.318512 112 110 119
-3.289057 -4.782570 49.394245 90 88 97
-3.293777 -4.682803 49.465118 119 119 126
-3.298134 -4.582226 49.530552 166 166 172
-3.302098 -4.480834 49.590088 200 201 205
-3.305648 -4.378637 49.643398 228 228 230
-3.308769 -4.275655 49.690266 249 249 249
-3.311456 -4.171926 49.730621 254 254 254
-3.313713 -4.067493 49.764511 254 254 254
-3.315550 -3.962413 49.792099 254 254 254
-3.316987 -3.856748 49.813675 254 254 254
-3.318047 -3.750566 49.829605 254 254 254
-3.318763 -3.643936 49.840363 254 254 254
-3.319171 -3.536932 49.846489 254 254 254
-3.319310 -3.429624 49.848576 254 254 254
-3.319225 -3.322081 49.847290 254 254 254
-3.318959 -3.214370 49.843304 254 254 254
-3.318561 -3.106552 49.837326 254 254 254
-3.318076 -2.998681 49.830040 247 247 247
-3.317551 -2.890806 49.822151 215 216 214
-3.317029 -2.782969 49.814320 178 180 178
-3.316553 -2.675202 49.807167 185 186 185
-3.316161 -2.567531 49.801281 223 223 222
-3.315888 -2.459974 49.797173 249 249 248
-3.315763 -2.352539 49.795296 254 254 254
-3.315812 -2.245231 49.796040 254 254 254
-3.316056 -2.138044 49.799702 254 253 254
-3.316510 -2.030971 49.806519 243 242 243
-3.317185 -1.923996 49.816654 214 213 216
-3.318086 -1.817102 49.830189 193 193 196
-3.319216 -1.710267 49.847153 208 207 211
-3.320570 -1.603468 49.867500 236 235 237
-3.322146 -1.496680 49.891155 251 251 251
-3.323931 -1.389878 49.917973 254 254 254
-3.325918 -1.283038 49.947807 249 246 249
-3.328092 -1.176135 49.980450 226 211 225
-3.330438 -1.069148 50.015686 187 161 182
-3.332941 -0.962053 50.053280 163 133 153
-3.335587 -0.854833 50.093006 179 153 168
-3.338357 -0.747470 50.134621 220 206 214
-3.341238 -0.639948 50.177876 248 245 247
-3.344211 -0.532255 50.222523 239 232 233
-3.347261 -0.424379 50.268330 192 165 170
-3.350372 -0.316311 50.315056 151 108 115
-3.353529 -0.208044 50.362461 164 114 123
-3.356716 -0.099574 50.410328 200 146 157
-3.359919 0.009102 50.458420 210 154 167
-3.363122 0.117986 50.506519 200 141 156
-3.366310 0.227076 50.554409 192 130 146
-3.369471 0.336370 50.601871 189 124 140
-3.372588 0.445862 50.648685 186 119 133
-3.375649 0.555547 50.694656 181 111 123
-3.378641 0.665417 50.739582 174 103 114
-3.381550 0.775462 50.783272 167 94 104
-3.384365 0.885670 50.825554 164 89 99
-3.387077 0.996030 50.866268 162 85 97
-3.389675 1.106529 50.905289 160 82 95
-3.392153 1.217153 50.942513 159 80 94
-3.394507 1.327888 50.977856 163 83 97
-3.396733 1.438722 51.011284 167 87 101
-3.398831 1.549642 51.042801 169 87 101
-3.400806 1.660638 51.072453 166 83 95
-3.402661 1.771698 51.100307 161 77 87
-3.404404 1.882818 51.126492 158 72 79
-3.406047 1.993991 51.151157 155 69 73
-3.407600 2.105215 51.174488 155 69 70
-3.409079 2.216492 51.196701 156 70 70
-3.410500 2.327824 51.218029 158 73 71
-3.411877 2.439218 51.238720 157 74 71
-3.413229 2.550682 51.259029 153 71 68
-3.414573 2.662227 51.279209 150 69 66
-3.415926 2.773865 51.299519 148 67 66
-3.417302 2.885612 51.320183 145 64 64
-3.418715 2.997480 51.341415 141 62 63
-3.420180 3.109487 51.363415 139 61 62
-3.421706 3.221646 51.386330 137 60 61
-3.423302 3.333972 51.410297 135 58 60
-3.424974 3.446477 51.435402 133 57 60
-3.426725 3.559173 51.461700 131 56 59
-3.428557 3.672069 51.489208 128 55 60
-3.430469 3.785173 51.517925 126 54 59
-3.432458 3.898487 51.547794 124 52 59
-3.434519 4.012015 51.578754 123 51 58
-3.436647 4.125756 51.610714 121 50 57
-3.438835 4.239708 51.643566 120 50 56
-3.441075 4.353868 51.677204 118 49 55
-3.443361 4.468233 51.711529 115 48 53
-3.445685 4.582797 51.746433 112 47 50
-3.448043 4.697557 51.781849 108 45 48
-3.450430 4.812512 51.817703 105 44 45
-3.452846 4.927661 51.853985 103 42 43
-3.455291 5.043008 51.890694 101 41 42
-3.457767 5.158561 51.927876 100 40 41
-3.460279 5.274330 51.965607 99 40 40
-3.462836 5.390330 52.004009 97 40 40
-3.465448 5.506583 52.043228 95 40 40
-3.468126 5.623113 52.083447 93 39 40
-3.470884 5.739949 52.124870 92 40 40
-3.473736 5.857122 52.167706 92 43 43
-3.476699 5.974669 52.212200 91 43 44
-3.479788 6.092629 52.258583 87 40 41
-3.483018 6.211040 52.307091 84 37 38
-3.486404 6.329946 52.357948 83 35 36
-3.489961 6.449385 52.411362 83 35 36
-3.493701 6.569398 52.467525 84 37 38
-3.497635 6.690025 52.526608 86 38 39
-3.501772 6.811301 52.588734 86 39 40
-3.506118 6.933260 52.654011 86 39 39
-3.510680 7.055932 52.722511 85 38 39
-3.515458 7.179342 52.794270 83 37 37
-3.520452 7.303510 52.869270 80 35 35
-3.525659 7.428450 52.947472 79 34 35
-3.531075 7.554172 53.028797 79 35 35
-3.536689 7.680676 53.113110 80 35 37
-3.542490 7.807956 53.200226 80 37 38
-3.548463 7.935997 53.289932 81 38 38
-3.554591 8.064776 53.381966 80 38 39
-3.560854 8.194263 53.476021 78 38 39
-3.567229 8.324413 53.571751 76 38 38
-3.573689 8.455181 53.668770 74 37 37
-3.580208 8.586507 53.766666 72 36 36
-3.586756 8.718327 53.865009 70 36 36
-3.593304 8.850571 53.963348 68 36 35
-3.599822 8.983162 54.061234 67 35 34
-3.606280 9.116025 54.158218 65 34 33
-3.612650 9.249081 54.253883 62 33 31
-3.618907 9.382254 54.347839 60 30 29
-3.625027 9.515474 54.439751 59 29 28
-3.630992 9.648678 54.529327 59 30 28
-3.636787 9.781813 54.616360 60 31 30
-3.642404 9.914836 54.700710 61 33 31
-3.065260 -9.426224 47.573410 118 42 49
-3.067283 -9.329826 47.604813 120 42 50
-3.069274 -9.233195 47.635708 122 45 52
-3.071213 -9.136277 47.665806 126 49 54
-3.073082 -9.039024 47.694817 130 55 58
-3.074865 -8.941394 47.722485 134 60 63
-3.076547 -8.843354 47.748585 141 67 69
-3.078114 -8.744878 47.772915 149 74 77
-3.079557 -8.645948 47.795315 154 80 82
-3.080870 -8.546558 47.815685 155 82 85
-3.082047 -8.446711 47.833958 153 81 85
-3.083089 -8.346416 47.850124 152 82 87
-3.083999 -8.245700 47.864243 152 85 90
-3.084783 -8.144591 47.876411 152 88 95
-3.085452 -8.043130 47.886799 152 91 98
-3.086022 -7.941369 47.895645 151 94 101
-3.086511 -7.839364 47.903229 152 99 106
-3.086941 -7.737178 47.909904 157 108 115
-3.087339 -7.634884 47.916077 163 119 125
-3.087734 -7.532557 47.922211 173 132 140
-3.088158 -7.430275 47.928802 192 155 164
-3.088648 -7.328118 47.936398 209 175 185
-3.089239 -7.226165 47.945568 200 167 179
-3.089970 -7.124496 47.956913 162 128 141
-3.090879 -7.023184 47.971031 125 89 103
-3.092005 -6.922295 47.988503 131 97 110
-3.093384 -6.821889 48.009903 180 151 164
-3.095049 -6.722012 48.035744 221 200 211
-3.097031 -6.622701 48.066502 225 197 211
-3.099354 -6.523976 48.102562 212 171 189
-3.102039 -6.425844 48.144226 203 156 175
-3.105097 -6.328294 48.191685 183 139 157
-3.108533 -6.231297 48.245018 158 117 136
-3.112345 -6.134812 48.304188 150 114 133
-3.116523 -6.038779 48.369022 159 130 149
-3.121045 -5.943123 48.439213 173 149 169
-3.125885 -5.847759 48.514324 174 156 175
-3.131006 -5.752588 48.593815 152 138 158
-3.136367 -5.657506 48.677006 115 104 124
-3.141917 -5.562400 48.763142 87 77 96
-3.147602 -5.467157 48.851376 114 106 121
-3.153363 -5.371664 48.940792 194 188 198
-3.159140 -5.275812 49.030449 246 244 247
-3.164870 -5.179496 49.119377 253 253 253
-3.170491 -5.082623 49.206619 245 244 245
-3.175944 -4.985109 49.291256 212 210 214
-3.181173 -4.886886 49.372406 156 155 162
-3.186127 -4.787900 49.449287 127 126 134
-3.190760 -4.688111 49.521191 158 158 164
-3.195034 -4.587498 49.587536 212 212 216
-3.198921 -4.486054 49.647858 239 239 241
-3.202397 -4.383789 49.701805 246 247 248
-3.205450 -4.280725 49.749187 252 252 253
-3.208075 -4.176900 49.789925 255 255 255
-3.210276 -4.072362 49.824085 254 254 254
-3.212064 -3.967166 49.851830 254 254 254
-3.213458 -3.861378 49.873478 254 254 254
-3.214484 -3.755066 49.889400 255 255 255
-3.215173 -3.648304 49.900097 254 254 254
-3.215561 -3.541163 49.906116 254 254 254
-3.215688 -3.433717 49.908077 254 254 254
-3.215595 -3.326037 49.906651 254 254 254
-3.215329 -3.218189 49.902519 254 254 254
-3.214935 -3.110234 49.896400 255 255 255
-3.214458 -3.002229 49.889000 252 252 252
-3.213943 -2.894222 49.881012 238 238 237
-3.213434 -2.786253 49.873100 209 210 208
-3.212970 -2.678357 49.865894 189 191 189
-3.212589 -2.570558 49.859982 207 209 207
-3.212323 -2.462873 49.855869 241 242 241
-3.212204 -2.355313 49.854012 254 254 254
-3.212254 -2.247880 49.854790 254 254 254
-3.212494 -2.140569 49.858509 254 254 254
-3.212938 -2.033372 49.865398 250 251 251
-3.213596 -1.926274 49.875622 229 230 231
-3.214475 -1.819256 49.889259 195 196 199
-3.215575 -1.712298 49.906338 181 182 185
-3.216895 -1.605375 49.926819 206 205 209
-3.218428 -1.498463 49.950611 239 237 240
-3.220166 -1.391538 49.977585 253 252 253
-3.222098 -1.284573 50.007576 247 244 247
-3.224212 -1.177546 50.040382 225 212 225
-3.226493 -1.070432 50.075783 204 181 203
-3.228926 -0.963211 50.113537 198 172 193
-3.231495 -0.855864 50.153408 207 181 198
-3.234185 -0.748372 50.195156 228 211 221
-3.236978 -0.640722 50.238514 248 242 245
-3.239860 -0.532898 50.283245 241 232 234
-3.242814 -0.424892 50.329090 195 167 172
-3.245825 -0.316693 50.375813 151 106 114
-3.248876 -0.208295 50.423176 157 105 115
-3.251955 -0.099694 50.470951 186 131 143
-3.255044 0.009113 50.518906 199 143 156
-3.258132 0.118126 50.566826 201 142 157
-3.261203 0.227346 50.614487 196 135 151
-3.264244 0.336767 50.661686 187 123 139
-3.267242 0.446386 50.708210 181 114 129
-3.270183 0.556196 50.753860 177 108 122
-3.273056 0.666189 50.798450 171 101 113
-3.275849 0.776356 50.841797 163 92 102
-3.278550 0.886684 50.883724 159 85 95
-3.281152 0.997162 50.924091 161 85 97
-3.283643 1.107778 50.962761 163 86 99
-3.286020 1.218518 50.999645 162 84 99
-3.288275 1.329368 51.034657 162 83 99
-3.290409 1.440315 51.067768 164 82 100
-3.292419 1.551348 51.098972 163 80 98
-3.294310 1.662454 51.128315 161 77 93
-3.296086 1.773625 51.155872 158 73 86
-3.297753 1.884853 51.181755 155 69 79
-3.299324 1.996133 51.206127 152 65 72
-3.300807 2.107464 51.229153 151 65 68
-3.302219 2.218845 51.251060 154 69 68
-3.303573 2.330281 51.272083 159 75 73
-3.304887 2.441776 51.292465 159 75 74
-3.306175 2.553341 51.312469 151 68 67
-3.307457 2.664986 51.332355 147 65 64
-3.308747 2.776724 51.352379 147 66 67
-3.310062 2.888570 51.372787 145 64 67
-3.311415 3.000539 51.393795 142 62 65
-3.312821 3.112647 51.415604 139 59 63
-3.314289 3.224910 51.438385 136 58 62
-3.315828 3.337343 51.462276 134 57 61
-3.317445 3.449959 51.487366 133 57 60
-3.319143 3.562772 51.513729 131 56 60
-3.320925 3.675791 51.541386 130 55 60
-3.322790 3.789023 51.570328 127 54 59
-3.324734 3.902473 51.600502 125 52 59
-3.326754 4.016145 51.631855 123 51 58
-3.328844 4.130039 51.664284 121 50 56
-3.330996 4.244152 51.697693 120 49 55
-3.333203 4.358480 51.731945 117 48 53
-3.335458 4.473021 51.766937 114 46 51
-3.337753 4.587768 51.802563 110 45 48
-3.340083 4.702716 51.838715 107 44 46
-3.342442 4.817864 51.875336 104 42 44
-3.344828 4.933209 51.912369 103 41 43
-3.347241 5.048754 51.949814 103 41 42
-3.349682 5.164504 51.987698 103 40 42
-3.352155 5.280467 52.026073 101 40 42
-3.354666 5.396658 52.065056 100 41 42
-3.357225 5.513094 52.104763 98 41 42
-3.359842 5.629799 52.145374 96 41 42
-3.362528 5.746799 52.187073 95 43 43
-3.365299 5.864124 52.230072 95 45 45
-3.368167 5.981809 52.274597 92 44 44
-3.371149 6.099891 52.320869 87 40 40
-3.374259 6.218408 52.369137 83 36 37
-3.377511 6.337400 52.419609 81 33 34
-3.380919 6.456907 52.472496 81 33 35
-3.384495 6.576970 52.528000 83 35 36
-3.388250 6.697626 52.586285 85 37 38
-3.392194 6.818911 52.647484 86 38 39
-3.396332 6.940859 52.711720 87 40 41
-3.400671 7.063501 52.779064 86 40 40
-3.405214 7.186862 52.849564 83 38 38
-3.409960 7.310963 52.923222 81 36 36
-3.414907 7.435820 53.000008 79 34 34
-3.420051 7.561442 53.079834 79 35 35
-3.425383 7.687832 53.162594 79 35 36
-3.430894 7.814985 53.248119 79 36 37
-3.436569 7.942887 53.336201 79 38 38
-3.442394 8.071519 53.426598 78 38 38
-3.448347 8.200849 53.519001 76 38 39
-3.454410 8.330838 53.613094 74 38 38
-3.460557 8.461439 53.708496 73 37 37
-3.466763 8.592601 53.804825 71 36 37
-3.473002 8.724257 53.901646 69 36 36
-3.479244 8.856339 53.998524 68 36 35
-3.485462 8.988779 54.095032 66 35 35
-3.491629 9.121500 54.190746 65 34 33
-3.497718 9.254427 54.285248 63 32 32
-3.503705 9.387487 54.378155 61 30 30
-3.509568 9.520614 54.469154 61 30 29
-3.515290 9.653744 54.557957 61 31 30
-3.520856 9.786827 54.644356 62 32 31
-2.962689 -9.426166 47.573112 127 51 61
-2.964700 -9.329945 47.605412 124 47 57
-2.966684 -9.233495 47.637257 124 46 55
-2.968620 -9.136764 47.668343 125 48 55
-2.970491 -9.039701 47.698387 129 53 58
-2.972281 -8.942266 47.727135 134 59 63
-2.973976 -8.844423 47.754356 141 65 69
-2.975563 -8.746146 47.779842 148 72 75
-2.977033 -8.647418 47.803440 154 78 81
-2.978378 -8.548231 47.825043 155 81 84
-2.979595 -8.448586 47.844582 153 82 85
-2.980683 -8.348497 47.862053 152 84 88
-2.981645 -8.247984 47.877499 152 87 93
-2.982487 -8.147077 47.891022 152 91 98
-2.983220 -8.045815 47.902786 153 96 103
-2.983857 -7.944249 47.913013 154 100 108
-2.984416 -7.842433 47.921989 157 106 114
-2.984918 -7.740431 47.930050 164 116 124
-2.985388 -7.638312 47.937592 177 132 140
-2.985853 -7.536151 47.945072 197 157 164
-2.986346 -7.434022 47.952972 222 189 195
-2.986898 -7.332009 47.961849 233 205 212
-2.987546 -7.230187 47.972256 211 179 189
-2.988327 -7.128638 47.984791 165 126 139
-2.989277 -7.027432 48.000046 129 88 103
-2.990433 -6.926639 48.018616 129 86 103
-2.991831 -6.826317 48.041061 158 115 133
-2.993504 -6.726515 48.067924 185 144 164
-2.995481 -6.627270 48.099667 194 150 173
-2.997787 -6.528605 48.136688 197 148 173
-3.000440 -6.430526 48.179302 201 150 174
-3.003455 -6.333025 48.227715 182 136 158
-3.006837 -6.236076 48.282021 153 111 131
-3.010584 -6.139637 48.342175 142 105 123
-3.014685 -6.043649 48.408028 148 116 133
-3.019121 -5.948038 48.479271 158 132 149
-3.023868 -5.852720 48.555485 159 139 155
-3.028888 -5.757595 48.636105 147 132 148
-3.034142 -5.662557 48.720470 128 117 132
-3.039582 -5.567495 48.807816 109 100 115
-3.045153 -5.472294 48.897270 133 126 138
-3.050799 -5.376838 48.987930 205 201 208
-3.056460 -5.281017 49.078827 250 249 251
-3.062074 -5.184726 49.168976 254 254 254
-3.067581 -5.087868 49.257404 253 253 253
-3.072922 -4.990360 49.343178 237 237 239
-3.078043 -4.892132 49.425407 201 200 205
-3.082893 -4.793128 49.503281 180 179 184
-3.087428 -4.693309 49.576096 205 205 208
-3.091610 -4.592652 49.643250 241 241 243
-3.095411 -4.491152 49.704281 253 253 254
-3.098808 -4.388819 49.758835 254 254 254
-3.101790 -4.285675 49.806713 254 254 254
-3.104352 -4.181760 49.847858 254 254 254
-3.106499 -4.077122 49.882324 254 254 254
-3.108242 -3.971820 49.910313 254 254 254
-3.109600 -3.865918 49.932117 254 254 254
-3.110598 -3.759489 49.948154 254 254 254
-3.111269 -3.652604 49.958916 254 254 254
-3.111646 -3.545339 49.964973 254 254 254
-3.111769 -3.437768 49.966953 254 254 254
-3.111681 -3.329961 49.965530 254 254 254
-3.111424 -3.221987 49.961414 254 254 254
-3.111044 -3.113906 49.955311 254 254 254
-3.110585 -3.005776 49.947941 254 254 254
-3.110090 -2.897644 49.939991 251 251 251
-3.109601 -2.789551 49.932137 231 232 232
-3.109157 -2.681532 49.925007 203 206 204
-3.108793 -2.573609 49.919174 208 210 208
-3.108544 -2.465802 49.915161 240 240 240
-3.108434 -2.358119 49.913406 254 254 254
-3.108490 -2.250563 49.914295 254 254 254
-3.108729 -2.143129 49.918133 254 254 254
-3.109165 -2.035808 49.925140 253 253 253
-3.109809 -1.928586 49.935486 241 242 243
-3.110666 -1.821443 49.949242 211 213 216
-3.111737 -1.714360 49.966446 183 183 189
-3.113021 -1.607312 49.987053 187 185 192
-3.114510 -1.500274 50.010971 220 218 224
-3.116198 -1.393222 50.038071 247 246 248
-3.118073 -1.286130 50.068180 248 245 249
-3.120124 -1.178975 50.101109 232 218 233
-3.122335 -1.071733 50.136620 221 199 221
-3.124693 -0.964383 50.174480 224 199 222
-3.127182 -0.856905 50.214439 227 199 218
-3.129786 -0.749283 50.256252 232 207 220
-3.132488 -0.641501 50.299656 245 231 238
-3.135274 -0.533546 50.344391 244 233 236
-3.138128 -0.425408 50.390209 210 180 187
-3.141033 -0.317077 50.436863 170 122 132
-3.143976 -0.208547 50.484116 162 107 120
-3.146941 -0.099814 50.531731 172 117 130
-3.149915 0.009124 50.579483 183 126 141
-3.152884 0.118267 50.627151 191 133 149
-3.155834 0.227615 50.674519 191 131 148
-3.158753 0.337164 50.721386 182 119 136
-3.161627 0.446909 50.767548 174 110 125
-3.164446 0.556842 50.812809 173 107 121
-3.167198 0.666957 50.856995 170 102 114
-3.169871 0.777243 50.899921 161 92 102
-3.172456 0.887689 50.941422 156 85 95
-3.174943 0.998284 50.981365 160 86 97
-3.177325 1.109014 51.019619 164 88 101
-3.179597 1.219867 51.056091 165 87 102
-3.181753 1.330828 51.090714 165 86 102
-3.183791 1.441885 51.123436 165 84 102
-3.185711 1.553027 51.154274 162 78 97
-3.187516 1.664240 51.183258 159 73 91
-3.189211 1.775518 51.210472 156 69 85
-3.190802 1.886851 51.236015 152 66 78
-3.192299 1.998235 51.260048 149 63 71
-3.193713 2.109669 51.282757 148 62 67
-3.195057 2.221152 51.304344 152 66 67
-3.196347 2.332688 51.325050 157 71 72
-3.197598 2.444283 51.345135 158 73 74
-3.198825 2.555947 51.364841 150 66 68
-3.200046 2.667690 51.384453 145 62 65
-3.201277 2.779527 51.404221 146 64 68
-3.202534 2.891472 51.424400 146 64 69
-3.203830 3.003541 51.445213 142 62 67
-3.205179 3.115750 51.466873 139 59 65
-3.206591 3.228117 51.489552 136 57 64
-3.208077 3.340658 51.513401 134 57 62
-3.209641 3.453387 51.538521 132 56 61
-3.211289 3.566316 51.564980 131 56 61
-3.213022 3.679458 51.592808 130 55 59
-3.214840 3.792819 51.622002 128 53 59
-3.216740 3.906407 51.652519 125 52 58
-3.218719 4.020223 51.684284 123 51 57
-3.220769 4.134269 51.717205 120 49 55
-3.222884 4.248543 51.751175 118 48 54
-3.225056 4.363039 51.786057 115 46 52
-3.227278 4.477755 51.821724 111 43 49
-3.229541 4.592683 51.858067 108 42 46
-3.231839 4.707819 51.894966 105 41 44
-3.234167 4.823159 51.932343 102 40 42
-3.236521 4.938699 51.970139 102 39 42
-3.238898 5.054440 52.008316 103 40 43
-3.241301 5.170385 52.046906 103 40 43
-3.243732 5.286542 52.085934 103 40 43
-3.246195 5.402922 52.125488 102 41 43
-3.248700 5.519542 52.165703 101 42 43
-3.251254 5.636421 52.206715 99 43 44
-3.253869 5.753586 52.248711 97 44 44
-3.256558 5.871064 52.291885 95 45 44
-3.259334 5.988889 52.336464 92 43 43
-3.262212 6.107095 52.382668 88 40 40
-3.265204 6.225720 52.430717 84 36 36
-3.268325 6.344802 52.480835 81 34 34
-3.271589 6.464382 52.533241 81 33 34
-3.275007 6.584498 52.588127 83 35 36
-3.278589 6.705188 52.645657 84 36 37
-3.282346 6.826488 52.705986 84 37 38
-3.286285 6.948432 52.769234 85 39 40
-3.290411 7.071051 52.835484 86 40 41
-3.294727 7.194371 52.904785 83 38 38
-3.299234 7.318413 52.977154 81 36 36
-3.303931 7.443194 53.052567 79 35 35
-3.308812 7.568725 53.130959 78 34 35
-3.313873 7.695009 53.212219 78 35 35
-3.319103 7.822042 53.296204 78 36 36
-3.324491 7.949813 53.382710 77 37 37
-3.330020 8.078302 53.471497 76 38 37
-3.335675 8.207481 53.562294 74 38 37
-3.341434 8.337314 53.654766 72 37 37
-3.347275 8.467753 53.748569 71 37 37
-3.353176 8.598748 53.843323 70 36 37
-3.359110 8.730240 53.938614 68 36 36
-3.365052 8.862162 54.034023 67 36 36
-3.370975 8.994444 54.129128 66 35 35
-3.376853 9.127016 54.223518 65 34 34
-3.382662 9.259806 54.316799 64 33 33
-3.388379 9.392742 54.408600 63 31 31
-3.393985 9.525761 54.498604 62 31 30
-3.399462 9.658803 54.586548 62 32 30
-3.404797 9.791817 54.672215 63 32 31
-2.862025 -9.329765 47.604500 134 59 70
-2.863998 -9.233509 47.637325 130 54 63
-2.865928 -9.136973 47.669434 129 52 61
-2.867799 -9.040111 47.700550 131 54 60
-2.869594 -8.942880 47.730412 134 57 63
-2.871300 -8.845244 47.758793 139 62 68
-2.872905 -8.747179 47.785484 147 69 74
-2.874399 -8.648664 47.810329 154 77 81
-2.875776 -8.549693 47.833225 156 82 85
-2.877031 -8.450268 47.854103 154 83 86
-2.878164 -8.350398 47.872952 152 86 89
-2.879178 -8.250106 47.889816 151 89 93
-2.880078 -8.149419 47.904789 152 93 99
-2.880875 -8.048377 47.918037 153 97 104
-2.881580 -7.947027 47.929764 155 102 110
-2.882210 -7.845421 47.940247 160 110 119
-2.882785 -7.743625 47.949821 170 122 130
-2.883329 -7.641703 47.958870 184 137 146
-2.883868 -7.539728 47.967831 207 162 171
-2.884431 -7.437778 47.977196 232 197 203
-2.885050 -7.335928 47.987488 238 209 215
-2.885758 -7.234259 47.999271 209 174 184
-2.886591 -7.132848 48.013130 167 121 135
-2.887585 -7.031767 48.029655 142 92 108
-2.888774 -6.931085 48.049435 140 88 107
-2.890193 -6.830860 48.073040 149 95 117
-2.891875 -6.731144 48.101006 161 106 131
-2.893847 -6.631974 48.133804 169 113 141
-2.896134 -6.533374 48.171856 180 124 154
-2.898756 -6.435352 48.215458 190 136 164
-2.901725 -6.337900 48.264839 179 129 155
-2.905047 -6.240995 48.320099 158 113 136
-2.908721 -6.144595 48.381218 153 112 132
-2.912738 -6.048642 48.448025 156 121 138
-2.917079 -5.953065 48.520241 156 127 142
-2.921721 -5.857777 48.597435 154 133 145
-2.926628 -5.762680 48.679062 158 142 154
-2.931762 -5.667668 48.764450 163 153 163
-2.937074 -5.572629 48.852818 156 151 159
-2.942516 -5.477448 48.943321 171 167 175
-2.948029 -5.382008 49.035027 222 220 224
-2.953556 -5.286196 49.126953 253 252 253
-2.959037 -5.189908 49.218121 254 254 254
-2.964413 -5.093047 49.307541 254 254 254
-2.969627 -4.995527 49.394264 248 248 249
-2.974624 -4.897278 49.477394 232 231 233
-2.979357 -4.798243 49.556110 223 222 225
-2.983781 -4.698384 49.629700 237 237 239
-2.987861 -4.597677 49.697567 252 252 252
-2.991569 -4.496118 49.759228 254 254 254
-2.994882 -4.393714 49.814342 254 254 254
-2.997790 -4.290493 49.862709 255 255 255
-3.000288 -4.186493 49.904270 254 254 254
-3.002382 -4.081762 49.939095 254 254 254
-3.004083 -3.976361 49.967381 254 254 254
-3.005409 -3.870357 49.989441 254 254 254
-3.006386 -3.763820 50.005695 254 254 254
-3.007045 -3.656825 50.016640 254 254 254
-3.007419 -3.549448 50.022869 254 254 254
-3.007548 -3.441762 50.025009 254 254 254
-3.007472 -3.333841 50.023746 254 254 254
-3.007233 -3.225751 50.019783 254 254 254
-3.006877 -3.117555 50.013847 254 254 254
-3.006444 -3.009309 50.006645 254 254 254
-3.005976 -2.901060 49.998875 254 254 254
-3.005515 -2.792851 49.991207 244 244 244
-3.005098 -2.684715 49.984268 223 224 223
-3.004759 -2.576674 49.978630 220 222 221
-3.004529 -2.468749 49.974804 242 243 242
-3.004435 -2.360946 49.973236 254 254 254
-3.004499 -2.253268 49.974312 254 254 254
-3.004740 -2.145713 49.978313 254 254 254
-3.005172 -2.038269 49.985489 251 251 251
-3.005802 -1.930922 49.995979 236 238 239
-3.006638 -1.823655 50.009884 217 218 221
-3.007680 -1.716445 50.027218 200 200 205
-3.008926 -1.609269 50.047939 192 189 198
-3.010371 -1.502104 50.071968 209 205 214
-3.012006 -1.394923 50.099163 240 237 242
-3.013822 -1.287702 50.129364 249 244 250
-3.015806 -1.180416 50.162369 235 220 236
-3.017944 -1.073043 50.197941 221 196 221
-3.020223 -0.965562 50.235847 219 191 216
-3.022628 -0.857953 50.275837 220 190 211
-3.025141 -0.750199 50.317646 228 196 214
-3.027749 -0.642284 50.361027 244 221 233
-3.030435 -0.534196 50.405704 248 229 238
-3.033184 -0.425924 50.451424 228 195 205
-3.035980 -0.317461 50.497936 196 146 158
-3.038810 -0.208798 50.545006 175 119 133
-3.041659 -0.099934 50.592392 169 112 127
-3.044513 0.009135 50.639862 174 117 133
-3.047359 0.118408 50.687206 184 127 144
-3.050186 0.227883 50.734215 187 129 147
-3.052979 0.337558 50.780682 178 119 136
-3.055728 0.447427 50.826401 170 109 124
-3.058422 0.557482 50.871208 170 107 120
-3.061049 0.667717 50.914906 170 105 116
-3.063600 0.778120 50.957336 164 97 105
-3.066065 0.888681 50.998341 159 90 97
-3.068436 0.999389 51.037781 160 89 97
-3.070707 1.110230 51.075546 163 90 100
-3.072870 1.221191 51.111538 166 90 102
-3.074924 1.332260 51.145691 168 90 103
-3.076864 1.443424 51.177963 169 88 103
-3.078692 1.554669 51.208374 166 82 98
-3.080410 1.665986 51.236946 159 74 90
-3.082022 1.777365 51.263760 154 67 82
-3.083536 1.888800 51.288933 151 64 77
-3.084959 2.000284 51.312603 147 61 71
-3.086303 2.111817 51.334961 146 60 66
-3.087581 2.223398 51.356220 147 62 66
-3.088807 2.335031 51.376610 151 66 69
-3.089996 2.446723 51.396385 152 68 71
-3.091164 2.558484 51.415817 149 66 69
-3.092327 2.670323 51.435165 147 64 68
-3.093502 2.782257 51.454704 147 64 69
-3.094703 2.894299 51.474682 146 64 69
-3.095945 3.006467 51.495335 143 62 68
-3.097240 3.118778 51.516876 140 59 66
-3.098600 3.231248 51.539494 137 58 65
-3.100033 3.343896 51.563335 135 56 63
-3.101547 3.456737 51.588512 132 55 62
-3.103146 3.569783 51.615105 131 54 60
-3.104831 3.683047 51.643135 129 53 58
-3.106603 3.796538 51.672611 127 52 57
-3.108459 3.910261 51.703480 125 50 56
-3.110394 4.024221 51.735676 121 49 55
-3.112404 4.138417 51.769096 118 48 54
-3.114480 4.252849 51.803631 115 46 52
-3.116615 4.367512 51.839142 111 43 48
-3.118800 4.482400 51.875492 107 41 45
-3.121028 4.597508 51.912544 104 39 43
-3.123291 4.712829 51.950191 102 38 41
-3.125584 4.828358 51.988323 101 37 40
-3.127901 4.944090 52.026863 101 37 40
-3.130241 5.060025 52.065784 101 38 42
-3.132602 5.176163 52.105064 102 39 43
-3.134988 5.292511 52.144745 102 40 43
-3.137401 5.409079 52.184887 102 41 43
-3.139850 5.525880 52.225609 101 42 43
-3.142340 5.642934 52.267040 100 43 44
-3.144884 5.760263 52.309349 98 44 44
-3.147492 5.877895 52.352726 95 44 43
-3.150177 5.995860 52.397385 92 43 42
-3.152951 6.114192 52.443539 89 40 40
-3.155830 6.232927 52.491413 85 37 37
-3.158825 6.352104 52.541229 82 35 35
-3.161950 6.471761 52.593204 82 35 35
-3.165215 6.591935 52.647518 83 35 36
-3.168633 6.712665 52.704365 82 35 36
-3.172211 6.833987 52.763889 82 35 35
-3.175958 6.955935 52.826210 83 37 37
-3.179879 7.078539 52.891434 84 38 39
-3.183978 7.201826 52.959606 83 38 38
-3.188256 7.325819 53.030762 81 37 37
-3.192712 7.450534 53.104881 80 36 36
-3.197343 7.575983 53.181908 79 35 35
-3.202143 7.702170 53.261745 79 35 35
-3.207103 7.829094 53.344254 78 36 36
-3.212213 7.956742 53.429237 77 37 36
-3.217458 8.085098 53.516483 76 37 36
-3.222822 8.214133 53.605701 73 37 36
-3.228287 8.343814 53.696602 71 36 35
-3.233832 8.474096 53.788834 69 35 35
-3.239435 8.604930 53.882030 68 35 35
-3.245072 8.736257 53.975788 68 35 36
-3.250718 8.868014 54.069706 67 34 36
-3.256350 9.000135 54.163380 66 34 35
-3.261943 9.132553 54.256413 66 33 34
-3.267474 9.265195 54.348412 64 33 33
-3.272922 9.397995 54.439026 63 32 32
-3.278269 9.530892 54.527958 62 32 31
-3.283498 9.663826 54.614937 62 32 31
-2.759254 -9.329253 47.601887 150 78 89
-2.761215 -9.233198 47.635727 143 68 78
-2.763138 -9.136869 47.668892 136 60 70
-2.765005 -9.040217 47.701111 132 56 63
-2.766803 -8.943200 47.732121 133 56 62
-2.768517 -8.845782 47.761696 138 60 66
-2.770136 -8.747938 47.789631 145 67 73
-2.771652 -8.649649 47.815769 152 75 81
-2.773057 -8.550906 47.840008 155 81 85
-2.774348 -8.451713 47.862282 154 83 87
-2.775524 -8.352077 47.882576 152 85 90
-2.776587 -8.252020 47.900925 151 88 93
-2.777545 -8.151570 47.917439 150 90 97
-2.778403 -8.050764 47.932251 151 94 101
-2.779176 -7.949648 47.945576 154 99 107
-2.779877 -7.848275 47.957684 164 110 119
-2.780527 -7.746704 47.968887 177 125 134
-2.781146 -7.645000 47.979565 185 133 142
-2.781759 -7.543236 47.990147 197 146 155
-2.782394 -7.441483 48.001099 214 166 176
-2.783081 -7.339820 48.012947 217 172 181
-2.783852 -7.238325 48.026245 193 145 156
-2.784739 -7.137072 48.041561 164 111 126
-2.785779 -7.036134 48.059483 152 96 113
-2.787003 -6.935581 48.080605 150 93 114
-2.788445 -6.835470 48.105484 150 93 116
-2.790136 -6.735854 48.134659 150 93 118
-2.792104 -6.636770 48.168610 153 95 124
-2.794373 -6.538243 48.207752 169 113 143
-2.796961 -6.440282 48.252396 189 136 165
-2.799881 -6.342883 48.302784 188 139 166
-2.803141 -6.246021 48.359013 182 138 162
-2.806738 -6.149656 48.421066 191 153 172
-2.810663 -6.053732 48.488792 190 158 173
-2.814902 -5.958178 48.561913 168 140 152
-2.819428 -5.862907 48.639999 153 130 139
-2.824211 -5.767823 48.722511 170 155 161
-2.829211 -5.672820 48.808777 203 194 199
-2.834384 -5.577785 48.898026 210 207 210
-2.839681 -5.482604 48.989395 213 211 214
-2.845046 -5.387158 49.081951 239 238 239
-2.850424 -5.291336 49.174725 254 254 254
-2.855756 -5.195032 49.266712 254 254 254
-2.860985 -5.098148 49.356930 254 254 254
-2.866056 -5.000599 49.444416 253 253 253
-2.870918 -4.902315 49.528282 248 248 249
-2.875520 -4.803237 49.607689 246 246 246
-2.879824 -4.703328 49.681931 249 249 249
-2.883792 -4.602564 49.750393 252 252 252
-2.887399 -4.500941 49.812611 254 254 254
-2.890623 -4.398468 49.868237 254 254 254
-2.893454 -4.295171 49.917068 255 255 255
-2.895887 -4.191089 49.959057 255 255 255
-2.897929 -4.086272 49.994270 254 254 254
-2.899589 -3.980781 50.022915 254 254 254
-2.900887 -3.874682 50.045315 254 254 254
-2.901848 -3.768049 50.061882 254 254 254
-2.902500 -3.660955 50.073139 254 254 254
-2.902878 -3.553477 50.079659 254 254 254
-2.903019 -3.445690 50.082092 254 254 254
-2.902963 -3.337665 50.081123 254 254 254
-2.902751 -3.229470 50.077457 254 254 254
-2.902424 -3.121169 50.071819 254 254 254
-2.902024 -3.012816 50.064919 254 254 254
-2.901591 -2.904459 50.057453 254 254 254
-2.901165 -2.796141 50.050095 250 251 250
-2.900779 -2.687893 50.043449 238 240 239
-2.900469 -2.579741 50.038101 235 237 236
-2.900264 -2.471700 50.034561 247 248 247
-2.900189 -2.363781 50.033260 254 254 254
-2.900265 -2.255986 50.034576 254 254 254
-2.900511 -2.148310 50.038811 254 254 254
-2.900938 -2.040744 50.046185 247 247 247
-2.901557 -1.933274 50.056862 223 224 225
-2.902372 -1.825881 50.070923 206 207 210
-2.903384 -1.718544 50.088387 211 210 214
-2.904592 -1.611240 50.109226 213 210 216
-2.905990 -1.503945 50.133343 219 217 223
-2.907571 -1.396634 50.160614 241 238 243
-2.909324 -1.289281 50.190865 249 244 250
-2.911239 -1.181864 50.223904 237 222 238
-2.913302 -1.074359 50.259491 219 195 219
-2.915499 -0.966745 50.297394 204 175 198
-2.917815 -0.859003 50.337345 197 164 184
-2.920235 -0.751115 50.379101 211 174 193
-2.922744 -0.643067 50.422382 232 199 215
-2.925326 -0.534845 50.466927 239 207 221
-2.927967 -0.426440 50.512478 229 187 200
-2.930651 -0.317843 50.558784 206 153 166
-2.933364 -0.209049 50.605598 184 127 142
-2.936093 -0.100053 50.652676 174 117 133
-2.938825 0.009145 50.699802 177 121 137
-2.941546 0.118547 50.746750 184 128 145
-2.944246 0.228149 50.793316 185 129 146
-2.946911 0.337948 50.839302 178 121 137
-2.949532 0.447938 50.884518 170 111 125
-2.952098 0.558113 50.928776 169 109 120
-2.954598 0.668464 50.971920 170 108 116
-2.957025 0.778982 51.013775 165 101 107
-2.959368 0.889655 51.054199 162 95 100
-2.961621 1.000471 51.093063 159 90 95
-2.963776 1.111419 51.130253 158 86 92
-2.965830 1.222485 51.165691 162 87 95
-2.967779 1.333657 51.199303 168 90 99
-2.969620 1.444921 51.231064 170 89 101
-2.971353 1.556266 51.260971 168 85 96
-2.972983 1.667681 51.289078 161 76 88
-2.974511 1.779158 51.315449 154 69 80
-2.975946 1.890688 51.340202 150 64 74
-2.977295 2.002268 51.363480 146 60 68
-2.978570 2.113894 51.385471 144 59 64
-2.979782 2.225569 51.406380 144 61 64
-2.980945 2.337296 51.426449 146 63 65
-2.982075 2.449082 51.445930 147 65 66
-2.983186 2.560936 51.465096 149 66 67
-2.984293 2.672869 51.484207 148 65 68
-2.985414 2.784897 51.503536 148 64 69
-2.986562 2.897035 51.523346 146 62 68
-2.987751 3.009300 51.543865 143 61 67
-2.988996 3.121711 51.565331 140 59 66
-2.990305 3.234285 51.587921 137 58 65
-2.991688 3.347039 51.611786 134 56 63
-2.993153 3.459989 51.637054 132 54 62
-2.994704 3.573151 51.663803 129 53 60
-2.996341 3.686536 51.692062 127 51 57
-2.998067 3.800154 51.721828 124 50 54
-2.999878 3.914011 51.753071 122 49 54
-3.001770 4.028112 51.785702 119 47 53
-3.003736 4.142457 51.819630 115 46 51
-3.005771 4.257044 51.854733 111 44 48
-3.007865 4.371870 51.890865 108 42 45
-3.010011 4.486927 51.927879 105 39 42
-3.012200 4.602211 51.965641 102 37 40
-3.014424 4.717712 52.004013 100 36 38
-3.016677 4.833425 52.042885 100 36 38
-3.018954 4.949345 52.082169 100 36 39
-3.021252 5.065469 52.121807 101 37 39
-3.023569 5.181798 52.161781 101 38 40
-3.025907 5.298334 52.202110 101 38 41
-3.028268 5.415086 52.242840 101 39 41
-3.030658 5.532066 52.284073 100 40 42
-3.033084 5.649293 52.325935 99 41 43
-3.035556 5.766785 52.368576 98 42 44
-3.038084 5.884570 52.412182 96 43 43
-3.040679 6.002676 52.456951 94 43 42
-3.043354 6.121137 52.503101 91 41 41
-3.046122 6.239986 52.550858 87 39 39
-3.048995 6.359260 52.600422 84 36 38
-3.051985 6.478997 52.652012 82 35 37
-3.055105 6.599236 52.705830 82 35 36
-3.058364 6.720014 52.762062 82 35 35
-3.061772 6.841365 52.820850 81 35 35
-3.065336 6.963325 52.882332 82 35 36
-3.069062 7.085924 52.946609 83 37 37
-3.072953 7.209188 53.013748 83 38 38
-3.077013 7.333143 53.083778 82 38 37
-3.081239 7.457803 53.156693 82 37 37
-3.085630 7.583182 53.232445 81 37 37
-3.090180 7.709285 53.310944 80 36 37
-3.094882 7.836109 53.392052 79 37 37
-3.099725 7.963646 53.475601 77 37 37
-3.104696 8.091880 53.561367 75 36 36
-3.109781 8.220781 53.649086 73 36 36
-3.114961 8.350318 53.738461 70 34 35
-3.120219 8.480450 53.829159 68 34 34
-3.125532 8.611125 53.920818 67 34 34
-3.130879 8.742290 54.013062 67 34 35
-3.136236 8.873883 54.105492 67 33 35
-3.141582 9.005840 54.197712 66 33 35
-3.146894 9.138096 54.289341 65 32 34
-3.152149 9.270581 54.380005 64 32 33
-3.157329 9.403234 54.469368 63 32 32
-3.162416 9.535990 54.557125 63 32 32
-3.167396 9.668798 54.643036 62 32 31
-2.658339 -9.232538 47.632320 160 88 98
-2.660251 -9.136426 47.666580 149 74 83
-2.662112 -9.039993 47.699932 137 60 69
-2.663908 -8.943200 47.732121 132 55 62
-2.665627 -8.846009 47.762917 136 58 65
-2.667257 -8.748395 47.792126 143 65 72
-2.668790 -8.650340 47.819592 150 72 79
-2.670220 -8.551836 47.845211 153 78 84
-2.671543 -8.452885 47.868919 154 81 88
-2.672759 -8.353496 47.890705 153 85 91
-2.673870 -8.253688 47.910606 152 87 93
-2.674880 -8.153488 47.928711 150 88 94
-2.675799 -8.052935 47.945171 149 89 96
-2.676636 -7.952070 47.960186 153 94 102
-2.677408 -7.850945 47.973999 165 107 116
-2.678130 -7.749619 47.986938 179 121 130
-2.678823 -7.648154 47.999355 182 124 133
-2.679510 -7.546619 48.011669 182 123 134
-2.680217 -7.445086 48.024338 186 127 138
-2.680972 -7.343631 48.037876 184 125 138
-2.681806 -7.242329 48.052814 171 113 126
-2.682750 -7.141255 48.069717 159 101 116
-2.683836 -7.040481 48.089176 154 96 113
-2.685096 -6.940075 48.111763 152 94 114
-2.686562 -6.840096 48.138035 150 92 115
-2.688264 -6.740594 48.168533 144 88 114
-2.690229 -6.641609 48.203732 146 93 121
-2.692479 -6.543167 48.244053 175 126 154
-2.695033 -6.445277 48.289818 209 166 192
-2.697904 -6.347934 48.341255 217 174 200
-2.701097 -6.251117 48.398472 217 179 201
-2.704613 -6.154787 48.461468 229 202 218
-2.708443 -6.058888 48.530094 224 203 214
-2.712571 -5.963350 48.604069 184 161 171
-2.716975 -5.868088 48.682980 152 130 137
-2.721624 -5.773005 48.766277 177 163 166
-2.726481 -5.677996 48.853306 226 219 220
-2.731503 -5.582949 48.943287 232 231 231
-2.736642 -5.487749 49.035366 221 220 221
-2.741846 -5.392279 49.128613 234 233 234
-2.747060 -5.296428 49.222046 251 250 251
-2.752230 -5.200089 49.314674 254 254 254
-2.757299 -5.103166 49.405506 254 254 254
-2.762215 -5.005573 49.493591 254 254 254
-2.766927 -4.907238 49.578018 254 254 254
-2.771389 -4.808106 49.657974 253 253 253
-2.775562 -4.708138 49.732731 249 249 249
-2.779410 -4.607310 49.801697 248 248 247
-2.782909 -4.505620 49.864388 252 252 251
-2.786039 -4.403075 49.920467 254 254 254
-2.788789 -4.299704 49.969746 254 254 254
-2.791157 -4.195544 50.012161 254 254 254
-2.793145 -4.090647 50.047794 254 254 254
-2.794767 -3.985073 50.076851 254 254 254
-2.796040 -3.878890 50.099659 254 254 254
-2.796987 -3.772170 50.116634 254 254 254
-2.797638 -3.664988 50.128296 254 254 254
-2.798025 -3.557420 50.135231 254 254 254
-2.798184 -3.449541 50.138077 254 254 254
-2.798153 -3.341424 50.137527 254 254 254
-2.797972 -3.233135 50.134289 254 254 254
-2.797681 -3.124738 50.129078 254 254 254
-2.797320 -3.016287 50.122601 254 254 254
-2.796926 -2.907830 50.115551 254 254 254
-2.796539 -2.799410 50.108601 252 252 252
-2.796191 -2.691057 50.102360 243 245 244
-2.795913 -2.582798 50.097397 242 243 243
-2.795736 -2.474647 50.094215 250 250 250
-2.795682 -2.366616 50.093250 255 255 255
-2.795772 -2.258704 50.094868 254 254 254
-2.796024 -2.150910 50.099380 254 254 254
-2.796449 -2.043224 50.106995 247 247 247
-2.797056 -1.935630 50.117878 223 223 224
-2.797851 -1.828112 50.132111 208 209 211
-2.798833 -1.720648 50.149719 223 223 225
-2.800003 -1.613216 50.170666 238 237 239
-2.801353 -1.505791 50.194866 244 242 244
-2.802877 -1.398348 50.222179 250 249 251
-2.804567 -1.290864 50.252457 252 249 253
-2.806411 -1.183314 50.285492 248 238 248
-2.808395 -1.075675 50.321045 237 220 235
-2.810507 -0.967927 50.358883 214 192 209
-2.812732 -0.860051 50.398746 193 164 182
-2.815055 -0.752029 50.440376 199 162 180
-2.817462 -0.643846 50.483501 216 176 193
-2.819937 -0.535491 50.527851 220 177 192
-2.822466 -0.426952 50.573166 210 161 175
-2.825034 -0.318223 50.619190 196 142 155
-2.827629 -0.209297 50.665672 187 130 144
-2.830235 -0.100171 50.712376 183 128 142
-2.832841 0.009156 50.759071 184 129 143
-2.835435 0.118684 50.805550 185 129 146
-2.838005 0.228411 50.851604 184 126 143
-2.840540 0.338332 50.897026 177 118 134
-2.843031 0.448441 50.941654 172 112 126
-2.845466 0.558732 50.985291 172 111 121
-2.847838 0.669197 51.027790 170 108 114
-2.850138 0.779825 51.068993 166 102 106
-2.852357 0.890605 51.108753 165 99 102
-2.854489 1.001527 51.146957 160 91 93
-2.856528 1.112576 51.183502 153 81 84
-2.858470 1.223742 51.218300 157 83 86
-2.860312 1.335011 51.251301 165 87 92
-2.862052 1.446371 51.282471 166 86 93
-2.863690 1.557810 51.311825 164 82 89
-2.865229 1.669318 51.339405 161 76 84
-2.866673 1.780885 51.365280 157 72 79
-2.868029 1.892506 51.389576 151 65 72
-2.869305 2.004176 51.412434 144 59 65
-2.870510 2.115892 51.434029 142 58 62
-2.871657 2.227656 51.454586 143 59 62
-2.872760 2.339473 51.474335 144 61 62
-2.873831 2.451348 51.493526 145 63 63
-2.874886 2.563291 51.512432 148 65 65
-2.875941 2.675316 51.531330 148 65 67
-2.877009 2.787435 51.550476 147 64 67
-2.878107 2.899667 51.570145 144 61 66
-2.879247 3.012027 51.590576 140 58 66
-2.880442 3.124536 51.611988 137 57 65
-2.881703 3.237210 51.634583 135 56 64
-2.883038 3.350068 51.658508 133 55 62
-2.884455 3.463128 51.683895 130 53 61
-2.885958 3.576403 51.710823 127 52 58
-2.887548 3.689907 51.739323 123 50 55
-2.889227 3.803649 51.769402 120 48 52
-2.890991 3.917637 51.801010 118 46 50
-2.892837 4.031875 51.834084 115 45 49
-2.894759 4.146365 51.868515 112 44 47
-2.896749 4.261103 51.904171 109 43 45
-2.898799 4.376086 51.940910 106 40 43
-2.900901 4.491308 51.978580 104 38 40
-2.903047 4.606761 52.017029 102 36 38
-2.905228 4.722438 52.056110 100 35 37
-2.907438 4.838331 52.095707 99 35 37
-2.909671 4.954433 52.135712 100 36 37
-2.911923 5.070742 52.176060 100 36 38
-2.914192 5.187255 52.216717 100 37 39
-2.916478 5.303975 52.257687 99 38 40
-2.918784 5.420907 52.299004 98 38 40
-2.921114 5.538064 52.340755 97 39 40
-2.923475 5.655460 52.383057 97 39 41
-2.925875 5.773115 52.426056 96 40 42
-2.928323 5.891052 52.469917 95 42 43
-2.930830 6.009301 52.514843 94 43 42
-2.933408 6.127890 52.561031 91 43 42
-2.936068 6.246855 52.608704 87 40 41
-2.938824 6.366231 52.658081 85 38 39
-2.941686 6.486055 52.709366 83 37 38
-2.944666 6.606364 52.762760 81 35 37
-2.947774 6.727196 52.818455 81 35 35
-2.951019 6.848586 52.876598 80 34 35
-2.954409 6.970567 52.937332 80 35 36
-2.957949 7.093171 53.000763 81 37 37
-2.961643 7.216425 53.066963 82 38 37
-2.965495 7.340352 53.135967 82 38 38
-2.969503 7.464971 53.207783 82 38 38
-2.973665 7.590293 53.282364 81 38 38
-2.977977 7.716325 53.359627 80 37 38
-2.982431 7.843064 53.439438 79 37 38
-2.987019 7.970503 53.521641 77 37 37
-2.991728 8.098626 53.606022 75 37 37
-2.996544 8.227405 53.692310 72 36 37
-3.001451 8.356809 53.780231 69 34 35
-3.006430 8.486797 53.869453 66 33 33
-3.011463 8.617322 53.959625 66 33 34
-3.016527 8.748330 54.050377 66 33 34
-3.021603 8.879761 54.141327 66 33 35
-3.026668 9.011552 54.232082 65 32 35
-3.031702 9.143641 54.322281 64 31 34
-3.036685 9.275960 54.411556 63 31 33
-3.041597 9.408449 54.499580 64 32 33
-3.046425 9.541052 54.586082 63 33 32
-2.555376 -9.231515 47.627041 178 109 118
-2.557275 -9.135630 47.662422 165 93 101
-2.559126 -9.039426 47.696934 147 72 80
-2.560917 -8.942862 47.730316 134 58 66
-2.562636 -8.845906 47.762360 134 57 65
-2.564273 -8.748529 47.792862 141 63 71
-2.565819 -8.650717 47.821674 147 70 77
-2.567269 -8.552460 47.848701 152 76 83
-2.568619 -8.453758 47.873871 156 81 90
-2.569870 -8.354625 47.897182 158 87 95
-2.571023 -8.255076 47.918671 156 88 95
-2.572083 -8.155140 47.938419 152 86 93
-2.573057 -8.054851 47.956577 151 85 93
-2.573956 -7.954250 47.973335 155 90 98
-2.574793 -7.853390 47.988937 165 101 109
-2.575585 -7.752324 48.003689 174 110 119
-2.576349 -7.651115 48.017941 176 112 121
-2.577109 -7.549829 48.032093 172 107 117
-2.577886 -7.448535 48.046585 167 103 114
-2.578709 -7.347308 48.061924 162 100 110
-2.579606 -7.246220 48.078632 158 96 107
-2.580605 -7.145347 48.097263 154 94 106
-2.581738 -7.044757 48.118378 151 92 107
-2.583035 -6.944518 48.142555 150 93 110
-2.584527 -6.844687 48.170353 149 95 115
-2.586241 -6.745318 48.202290 147 95 116
-2.588202 -6.646448 48.238853 158 109 133
-2.590434 -6.548103 48.280453 195 154 177
-2.592953 -6.450294 48.327408 231 197 218
-2.595773 -6.353017 48.379959 239 204 226
-2.598899 -6.256251 48.438217 240 211 229
-2.602331 -6.159958 48.502178 248 233 242
-2.606061 -6.064083 48.571697 240 228 234
-2.610074 -5.968556 48.646503 195 176 184
-2.614349 -5.873295 48.726181 155 134 140
-2.618857 -5.778203 48.810196 182 168 171
-2.623562 -5.683177 48.897881 231 227 227
-2.628423 -5.588104 48.988483 226 225 225
-2.633394 -5.492870 49.081135 193 191 192
-2.638425 -5.397361 49.174911 200 198 199
-2.643466 -5.301465 49.268848 236 235 236
-2.648461 -5.205074 49.361950 253 253 253
-2.653358 -5.108095 49.453228 254 254 254
-2.658107 -5.010442 49.541740 254 254 254
-2.662659 -4.912045 49.626583 254 254 254
-2.666971 -4.812847 49.706940 254 254 254
-2.671003 -4.712811 49.782097 249 250 249
-2.674725 -4.611914 49.851460 247 247 246
-2.678110 -4.510152 49.914551 251 251 251
-2.681141 -4.407536 49.971039 254 254 254
-2.683807 -4.304090 50.020729 254 254 254
-2.686105 -4.199857 50.063572 254 254 254
-2.688041 -4.094885 50.099648 254 254 254
-2.689624 -3.989236 50.129158 254 254 254
-2.690873 -3.882976 50.152431 254 254 254
-2.691810 -3.776179 50.169895 254 254 254
-2.692462 -3.668918 50.182053 254 254 254
-2.692862 -3.561271 50.189503 254 254 254
-2.693043 -3.453311 50.192875 254 254 254
-2.693042 -3.345112 50.192860 252 252 252
-2.692897 -3.236738 50.190155 250 250 250
-2.692646 -3.128254 50.185482 250 250 250
-2.692327 -3.019713 50.179539 253 253 253
-2.691978 -2.911165 50.173016 254 254 254
-2.691632 -2.802649 50.166573 250 250 250
-2.691323 -2.694197 50.160820 238 238 238
-2.691082 -2.585835 50.156315 235 236 236
-2.690934 -2.477579 50.153564 248 248 248
-2.690903 -2.369438 50.152996 254 254 254
-2.691010 -2.261415 50.154984 254 254 254
-2.691269 -2.153505 50.159809 254 254 254
-2.691692 -2.045699 50.167698 250 250 250
-2.692289 -1.937984 50.178814 238 239 239
-2.693062 -1.830341 50.193233 232 232 233
-2.694015 -1.722750 50.210987 241 240 242
-2.695144 -1.615189 50.232040 251 251 252
-2.696446 -1.507634 50.256310 254 254 254
-2.697914 -1.400060 50.283657 254 254 254
-2.699538 -1.292443 50.313927 254 253 254
-2.701308 -1.184759 50.346916 255 250 255
-2.703212 -1.076987 50.382397 252 245 251
-2.705236 -0.969104 50.420128 240 230 238
-2.707367 -0.861093 50.459846 223 206 217
-2.709591 -0.752937 50.501297 219 194 207
-2.711893 -0.644620 50.544205 225 193 205
-2.714259 -0.536131 50.588291 220 177 190
-2.716674 -0.427460 50.633305 202 151 163
-2.719124 -0.318599 50.678974 186 131 142
-2.721596 -0.209542 50.725052 179 122 134
-2.724078 -0.100287 50.771309 182 125 138
-2.726557 0.009167 50.817509 188 131 146
-2.729021 0.118819 50.863434 190 132 147
-2.731460 0.228668 50.908897 183 124 138
-2.733864 0.338708 50.953686 173 113 127
-2.736222 0.448934 50.997635 170 109 120
-2.738526 0.559338 51.040577 172 109 117
-2.740767 0.669912 51.082348 170 105 111
-2.742938 0.780647 51.122810 166 101 103
-2.745031 0.891530 51.161827 167 99 100
-2.747041 1.002551 51.199291 164 94 94
-2.748962 1.113698 51.235100 159 86 86
-2.750791 1.224958 51.269184 160 85 85
-2.752525 1.336319 51.301495 163 85 86
-2.754162 1.447768 51.332008 163 83 85
-2.755704 1.559295 51.360741 162 79 82
-2.757152 1.670889 51.387737 161 77 81
-2.758511 1.782542 51.413074 160 76 79
-2.759788 1.894248 51.436871 150 66 70
-2.760990 2.006001 51.459267 142 58 61
-2.762127 2.117802 51.480457 140 57 58
-2.763210 2.229650 51.500645 140 57 58
-2.764252 2.341552 51.520069 141 60 59
-2.765267 2.453512 51.538986 145 64 62
-2.766269 2.565542 51.557655 149 68 66
-2.767272 2.677653 51.576351 149 68 68
-2.768291 2.789862 51.595352 145 64 67
-2.769341 2.902184 51.614914 140 60 65
-2.770434 3.014637 51.635281 136 56 63
-2.771582 3.127241 51.656681 134 56 63
-2.772796 3.240014 51.679302 133 55 62
-2.774084 3.352974 51.703320 131 53 61
-2.775454 3.466140 51.728848 128 51 59
-2.776909 3.579526 51.755970 124 50 56
-2.778452 3.693145 51.784725 120 48 53
-2.780083 3.807009 51.815121 117 46 50
-2.781799 3.921124 51.847111 114 45 48
-2.783597 4.035495 51.880615 111 44 46
-2.785470 4.150123 51.915531 110 43 45
-2.787413 4.265007 51.951733 108 42 44
-2.789416 4.380143 51.989063 106 40 43
-2.791470 4.495523 52.027359 105 38 41
-2.793569 4.611140 52.066471 103 37 39
-2.795702 4.726985 52.106236 102 35 37
-2.797864 4.843051 52.146526 102 35 37
