ply
format ascii 1.0
element vertex 1238
property float x
property float y
property float z
property uchar red
property uchar green
property uchar blue
end_header
-6.459107 11.276666 55.601379 33 22 21
-6.459842 11.397820 55.607704 33 22 20
-6.460660 11.519151 55.614746 32 21 20
-6.461563 11.640662 55.622513 31 21 20
-6.462544 11.762352 55.630959 31 21 21
-6.463603 11.884221 55.640079 30 21 21
-6.464733 12.006261 55.649803 30 22 22
-6.465928 12.128464 55.660088 30 22 22
-6.467178 12.250817 55.670853 31 22 22
-6.468473 12.373302 55.681999 31 22 22
-6.469795 12.495887 55.693378 31 22 21
-6.471127 12.618541 55.704849 31 22 21
-6.472445 12.741216 55.716190 31 21 20
-6.473723 12.863859 55.727192 30 20 19
-6.474927 12.986404 55.737560 29 20 19
-6.476025 13.108778 55.747009 28 20 19
-6.476975 13.230890 55.755188 28 20 18
-6.477733 13.352642 55.761711 27 20 18
-6.478254 13.473928 55.766193 27 20 18
-6.478486 13.594628 55.768188 27 20 18
-6.478376 13.714614 55.767250 28 20 18
-6.477870 13.833750 55.762894 29 20 19
-6.476913 13.951894 55.754658 30 20 19
-6.475448 14.068897 55.742039 30 20 19
-6.473416 14.184607 55.724548 30 20 18
-6.470763 14.298869 55.701717 30 20 18
-6.467438 14.411533 55.673092 30 20 18
-6.463391 14.522451 55.638252 29 20 18
-6.458580 14.631489 55.596832 28 20 17
-6.452968 14.738520 55.548523 28 20 17
-6.446529 14.843438 55.493099 27 19 16
-6.439247 14.946160 55.430412 28 19 16
-6.431119 15.046633 55.360447 28 19 15
-6.422157 15.144837 55.283302 29 19 15
-6.412387 15.240788 55.199200 29 20 17
-6.401853 15.334546 55.108517 30 21 19
-6.390612 15.426208 55.011757 30 21 20
-6.378740 15.515918 54.909561 30 21 20
-6.366323 15.603850 54.802673 30 21 20
-6.353461 15.690221 54.691948 30 21 19
-6.340261 15.775274 54.578316 30 21 18
-6.326834 15.859272 54.462742 30 20 17
-6.313299 15.942494 54.346226 30 21 17
-6.299766 16.025223 54.229733 30 21 17
-6.286344 16.107733 54.114193 29 22 17
-6.273135 16.190294 54.000492 30 22 18
-6.260228 16.273149 53.889385 30 22 18
-6.247704 16.356527 53.781570 30 22 18
-6.235628 16.440622 53.677616 30 22 19
-6.224053 16.525602 53.577980 29 21 19
-6.213024 16.611610 53.483036 29 21 20
-6.202572 16.698763 53.393070 29 20 20
-6.192721 16.787155 53.308266 29 20 20
-6.183486 16.876865 53.228775 29 20 20
-6.174879 16.967957 53.154678 30 21 21
-6.166906 17.060484 53.086044 30 22 21
-6.159571 17.154491 53.022907 30 22 22
-6.152877 17.250025 52.965282 30 22 21
-6.146821 17.347109 52.913151 30 22 21
-6.141404 17.445784 52.866520 30 22 21
-6.136621 17.546068 52.825344 30 22 21
-6.132462 17.647974 52.789543 30 23 21
-6.128914 17.751495 52.759007 30 23 22
-6.125959 17.856611 52.733566 31 23 23
-6.123569 17.963278 52.712994 31 24 23
-6.121710 18.071419 52.696987 32 24 23
-6.120337 18.180939 52.685173 32 24 22
-6.119400 18.291708 52.677097 32 24 22
-6.118836 18.403568 52.672249 32 25 22
-6.118578 18.516331 52.670033 33 25 22
-6.118552 18.629789 52.669804 33 25 22
-6.118676 18.743710 52.670876 33 24 21
-6.118866 18.857836 52.672512 33 23 21
-6.119038 18.971910 52.673985 34 23 20
-6.119101 19.085655 52.674530 34 22 20
-6.118973 19.198801 52.673424 34 22 20
-6.118570 19.311075 52.669956 34 23 20
-5.985566 -7.007111 52.499233 11 11 10
-5.987524 -6.896194 52.516399 12 12 10
-5.989689 -6.785440 52.535397 12 12 10
-5.992097 -6.674873 52.556511 12 13 10
-5.994770 -6.564506 52.579956 12 13 9
-5.997725 -6.454342 52.605881 12 13 8
-6.000971 -6.344373 52.634350 12 12 7
-6.004505 -6.234580 52.665344 12 12 6
-6.008315 -6.124936 52.698761 11 11 6
-6.012381 -6.015403 52.734425 12 11 6
-6.016673 -5.905938 52.772068 12 11 7
-6.021155 -5.796494 52.811382 11 11 6
-6.025784 -5.687019 52.851982 11 11 7
-6.030511 -5.577461 52.893444 11 11 7
-6.035285 -5.467764 52.935310 12 10 7
-6.040048 -5.357879 52.977085 12 10 8
-6.044742 -5.247754 53.018261 13 10 8
-6.049311 -5.137344 53.058331 14 11 9
-6.053696 -5.026609 53.096794 15 11 10
-6.057842 -4.915514 53.133160 15 11 11
-6.061695 -4.804031 53.166954 15 11 11
-6.065205 -4.692136 53.197742 15 11 12
-6.068327 -4.579816 53.225128 15 11 12
-6.071024 -4.467066 53.248783 15 10 12
-6.073263 -4.353884 53.268417 15 10 11
-6.075019 -4.240281 53.283821 15 11 11
-6.076281 -4.126276 53.294884 16 12 11
-6.077040 -4.011891 53.301548 18 13 12
-6.077305 -3.897161 53.303871 20 14 13
-6.077092 -3.782123 53.301998 22 15 14
-6.076427 -3.666821 53.296169 24 17 15
-6.075349 -3.551302 53.286716 28 20 17
-6.073905 -3.435617 53.274052 34 26 22
-6.072151 -3.319817 53.258659 41 34 30
-6.070147 -3.203952 53.241085 44 39 35
-6.067960 -3.088069 53.221909 42 37 33
-6.065660 -2.972213 53.201733 37 32 29
-6.063313 -2.856423 53.181149 33 29 26
-6.060986 -2.740730 53.160736 31 26 24
-6.058740 -2.625160 53.141037 28 25 23
-6.056630 -2.509732 53.122528 27 24 21
-6.054702 -2.394455 53.105618 27 24 21
-6.052993 -2.279333 53.090630 28 25 22
-6.051530 -2.164365 53.077801 28 25 22
-6.050332 -2.049541 53.067291 27 24 22
-6.049407 -1.934850 53.059177 24 22 20
-6.048754 -1.820276 53.053448 22 20 18
-6.048366 -1.705801 53.050045 19 17 15
-6.048230 -1.591407 53.048855 18 16 14
-6.048327 -1.477075 53.049709 19 16 15
-6.048642 -1.362789 53.052464 20 17 16
-6.049151 -1.248531 53.056931 20 17 17
-6.049838 -1.134287 53.062958 21 17 18
-6.050685 -1.020044 53.070389 21 17 18
-6.051681 -0.905791 53.079117 22 17 17
-6.052816 -0.791519 53.089073 22 16 17
-6.054086 -0.677219 53.100220 23 17 17
-6.055494 -0.562883 53.112564 24 17 17
-6.057043 -0.448505 53.126148 25 18 17
-6.058743 -0.334077 53.141060 27 19 17
-6.060605 -0.219590 53.157391 28 20 18
-6.062643 -0.105036 53.175262 29 21 19
-6.064871 0.009596 53.194809 31 23 21
-6.067305 0.124315 53.216156 33 24 24
-6.069955 0.239136 53.239399 35 26 26
-6.072831 0.354070 53.264633 38 28 30
-6.075942 0.469131 53.291912 42 30 34
-6.079287 0.584332 53.321251 47 33 39
-6.082865 0.699686 53.352634 53 36 43
-6.086665 0.815205 53.385967 59 40 46
-6.090674 0.930900 53.421135 64 42 50
-6.094873 1.046779 53.457958 67 43 50
-6.099236 1.162848 53.496231 68 42 48
-6.103734 1.279111 53.535679 68 41 46
-6.108333 1.395566 53.576012 67 40 43
-6.112993 1.512211 53.616886 66 39 42
-6.117678 1.629038 53.657974 65 38 40
-6.122344 1.746038 53.698906 63 37 38
-6.126951 1.863195 53.739315 61 36 37
-6.131457 1.980495 53.778835 59 35 37
-6.135822 2.097916 53.817123 57 35 37
-6.140009 2.215439 53.853851 55 34 36
-6.143985 2.333039 53.888718 54 34 36
-6.147719 2.450693 53.921471 53 33 36
-6.151186 2.568378 53.951881 52 32 34
-6.154367 2.686068 53.979782 51 32 33
-6.157249 2.803743 54.005058 51 32 32
-6.159824 2.921381 54.027645 51 32 32
-6.162091 3.038964 54.047527 51 32 31
-6.164055 3.156478 54.064747 51 32 31
-6.165728 3.273911 54.079422 50 31 30
-6.167125 3.391257 54.091675 49 30 28
-6.168270 3.508512 54.101723 50 30 29
-6.169192 3.625678 54.109806 51 30 30
-6.169919 3.742762 54.116188 51 30 30
-6.170489 3.859775 54.121185 51 30 30
-6.170938 3.976731 54.125118 50 30 30
-6.171306 4.093650 54.128345 49 30 30
-6.171632 4.210556 54.131207 49 30 30
-6.171957 4.327472 54.134064 49 30 30
-6.172324 4.444431 54.137280 49 31 31
-6.172771 4.561463 54.141201 49 31 32
-6.173339 4.678604 54.146187 47 31 31
-6.174067 4.795890 54.152565 44 28 29
-6.174991 4.913360 54.160667 43 27 28
-6.176147 5.031054 54.170807 44 28 29
-6.177569 5.149014 54.183285 44 28 30
-6.179291 5.267282 54.198391 44 29 30
-6.181344 5.385904 54.216393 44 30 29
-6.183754 5.504922 54.237534 43 29 29
-6.186545 5.624377 54.262012 43 28 28
-6.189737 5.744310 54.290009 43 27 27
-6.193343 5.864756 54.321640 43 27 27
-6.197371 5.985745 54.356960 44 26 27
-6.201818 6.107300 54.395973 45 26 27
-6.206678 6.229437 54.438595 47 28 28
-6.211928 6.352158 54.484650 49 29 29
-6.217543 6.475455 54.533894 50 30 30
-6.223484 6.599312 54.586002 49 31 31
-6.229704 6.723694 54.640556 49 31 32
-6.236147 6.848557 54.697071 49 32 32
-6.242752 6.973843 54.754997 49 32 33
-6.249451 7.099486 54.813755 49 32 33
-6.256174 7.225411 54.872726 49 32 33
-6.262850 7.351534 54.931278 49 32 33
-6.269409 7.477772 54.988811 49 32 33
-6.275784 7.604033 55.044727 48 31 32
-6.281916 7.730236 55.098503 48 31 31
-6.287747 7.856297 55.149654 47 30 30
-6.293233 7.982139 55.197773 47 29 30
-6.298338 8.107697 55.242542 46 29 29
-6.303032 8.232914 55.283718 45 28 28
-6.307300 8.357742 55.321152 44 28 27
-6.311133 8.482147 55.354771 43 29 27
-6.314533 8.606107 55.384586 41 28 27
-6.317509 8.729610 55.410694 40 28 26
-6.320080 8.852658 55.433243 38 27 26
-6.322268 8.975260 55.452435 36 26 24
-6.324104 9.097438 55.468540 35 25 23
-6.325621 9.219219 55.481838 34 25 23
-6.326855 9.340641 55.492664 34 25 22
-6.327844 9.461743 55.501339 35 25 23
-6.328629 9.582574 55.508221 35 25 23
-6.329248 9.703181 55.513657 34 25 23
-6.329740 9.823612 55.517967 35 24 23
-6.330139 9.943918 55.521469 36 25 23
-6.330479 10.064143 55.524448 36 25 23
-6.330790 10.184336 55.527176 36 25 24
-6.331097 10.304535 55.529877 36 24 24
-6.331423 10.424775 55.532734 35 24 24
-6.331786 10.545089 55.535915 34 24 23
-6.332202 10.665506 55.539562 33 23 22
-6.332681 10.786046 55.543762 31 22 22
-6.333231 10.906727 55.548588 32 22 22
-6.333858 11.027563 55.554089 32 22 22
-6.334566 11.148565 55.560299 32 22 22
-6.335357 11.269742 55.567238 33 22 21
-6.336231 11.391097 55.574902 33 22 21
-6.337187 11.512635 55.583290 32 21 21
-6.338224 11.634357 55.592388 32 21 20
-6.339340 11.756265 55.602173 31 21 20
-6.340529 11.878353 55.612602 31 21 20
-6.341785 12.000611 55.623619 30 21 21
-6.343102 12.123033 55.635166 30 21 21
-6.344470 12.245604 55.647163 31 21 21
-6.345876 12.368301 55.659496 32 21 21
-6.347304 12.491096 55.672028 32 22 22
-6.348736 12.613950 55.684582 32 22 21
-6.350147 12.736817 55.696957 32 21 21
-6.351511 12.859643 55.708923 31 21 20
-6.352796 12.982359 55.720192 30 20 20
-6.353966 13.104885 55.730453 29 20 19
-6.354982 13.227137 55.739368 28 20 19
-6.355800 13.349010 55.746540 28 20 18
-6.356374 13.470397 55.751575 28 20 17
-6.356654 13.591177 55.754028 28 19 18
-6.356587 13.711221 55.753448 29 20 18
-6.356122 13.830393 55.749367 30 20 18
-6.355201 13.948549 55.741291 30 20 19
-6.353771 14.065541 55.728741 31 20 19
-6.351775 14.181217 55.711235 32 21 19
-6.349160 14.295426 55.688305 31 21 19
-6.345877 14.408017 55.659508 31 21 18
-6.341879 14.518847 55.624439 30 21 18
-6.337124 14.627779 55.582737 29 20 17
-6.331579 14.734692 55.534096 29 20 16
-6.325219 14.839483 55.478317 29 19 15
-6.318029 14.942074 55.415260 29 19 15
-6.310009 15.042411 55.344913 30 19 15
-6.301172 15.140481 55.267399 30 19 15
-6.291542 15.236299 55.182938 31 20 17
-6.281165 15.329927 55.091919 31 21 19
-6.270098 15.421468 54.994854 31 21 20
-6.258413 15.511059 54.892368 31 21 20
-6.246198 15.598882 54.785225 31 21 20
-6.233548 15.685148 54.674267 31 21 19
-6.220567 15.770101 54.560417 31 21 18
-6.207367 15.854002 54.444645 31 20 18
-6.194061 15.937128 54.327930 30 21 17
-6.180757 16.019760 54.211243 30 20 17
-6.167561 16.102169 54.095501 30 20 17
-6.154572 16.184622 53.981571 30 21 18
-6.141875 16.267361 53.870216 30 22 18
-6.129550 16.350611 53.762115 30 22 18
-6.117661 16.434565 53.657833 30 22 19
-6.106260 16.519388 53.557835 30 21 19
-6.095390 16.605228 53.462494 30 21 19
-6.085081 16.692198 53.372074 29 20 19
-6.075356 16.780390 53.286781 29 20 19
-6.066234 16.869888 53.206764 29 19 19
-6.057724 16.960756 53.132118 30 21 20
-6.049832 17.053049 53.062908 31 22 21
-6.042567 17.146816 52.999180 31 22 22
-6.035929 17.242104 52.940960 31 22 22
-6.029918 17.338940 52.888237 31 22 21
-6.024533 17.437365 52.841011 31 23 21
-6.019773 17.537405 52.799259 30 23 20
-6.015629 17.639071 52.762909 31 23 20
-6.012088 17.742361 52.731857 31 23 21
-6.009131 17.847252 52.705921 31 23 21
-6.006734 17.953703 52.684898 32 23 21
-6.004861 18.061638 52.668465 32 24 21
-6.003469 18.170961 52.656258 32 24 21
-6.002508 18.281544 52.647827 32 24 21
-6.001917 18.393223 52.642643 33 25 21
-6.001629 18.505816 52.640118 33 25 22
-6.001569 18.619102 52.639587 33 25 22
-6.001657 18.732851 52.640362 33 24 21
-6.001811 18.846809 52.641712 33 23 21
-6.001944 18.960707 52.642876 34 23 20
-6.001969 19.074266 52.643097 34 22 20
-6.001803 19.187218 52.641644 34 22 20
-6.001364 19.299284 52.637794 34 22 20
-5.859168 -6.991326 52.380974 11 11 9
-5.861078 -6.880654 52.398056 12 12 9
-5.863187 -6.770136 52.416908 12 12 9
-5.865526 -6.659798 52.437817 13 13 10
-5.868121 -6.549656 52.461014 13 13 10
-5.870989 -6.439714 52.486656 12 12 9
-5.874138 -6.329965 52.514812 12 12 8
-5.877570 -6.220391 52.545486 12 12 7
-5.881271 -6.110968 52.578583 12 11 7
-5.885225 -6.001657 52.613926 12 11 7
-5.889403 -5.892420 52.651279 12 11 7
-5.893771 -5.783208 52.690331 12 11 7
-5.898287 -5.673969 52.730701 12 11 7
-5.902905 -5.564652 52.771984 12 11 8
-5.907571 -5.455203 52.813702 13 10 8
-5.912231 -5.345568 52.855362 14 10 9
-5.916830 -5.235699 52.896473 14 11 9
-5.921307 -5.125547 52.936497 14 11 10
-5.925605 -5.015072 52.974926 15 12 10
-5.929669 -4.904237 53.011257 15 12 11
-5.933445 -4.793013 53.045013 15 12 12
-5.936882 -4.681375 53.075733 16 12 13
-5.939933 -4.569310 53.103020 16 11 13
-5.942560 -4.456808 53.126503 16 11 12
-5.944730 -4.343870 53.145901 15 10 11
-5.946416 -4.230505 53.160980 15 11 10
-5.947606 -4.116732 53.171612 16 12 11
-5.948291 -4.002573 53.177742 18 13 12
-5.948479 -3.888062 53.179417 20 14 13
-5.948183 -3.773237 53.176769 23 15 15
-5.947431 -3.658143 53.170044 26 17 16
-5.946259 -3.542829 53.159573 31 22 19
-5.944715 -3.427345 53.145775 38 29 25
-5.942854 -3.311743 53.129131 46 38 34
-5.940737 -3.196075 53.110203 48 41 36
-5.938430 -3.080391 53.089581 43 38 33
-5.936002 -2.964735 53.067871 37 32 29
-5.933521 -2.849147 53.045696 34 28 26
-5.931054 -2.733662 53.023640 31 26 24
-5.928664 -2.618305 53.002270 30 25 23
-5.926405 -2.503096 52.982075 29 25 22
-5.924326 -2.388046 52.963490 29 26 23
-5.922465 -2.273160 52.946850 29 26 23
-5.920851 -2.158437 52.932423 28 25 23
-5.919505 -2.043867 52.920387 27 24 22
-5.918436 -1.929440 52.910831 24 22 20
-5.917647 -1.815140 52.903778 22 20 18
-5.917132 -1.700950 52.899174 20 18 15
-5.916881 -1.586850 52.896931 19 16 14
-5.916878 -1.472821 52.896904 19 16 15
-5.917105 -1.358845 52.898933 20 17 16
-5.917545 -1.244905 52.902870 21 17 16
-5.918180 -1.130986 52.908546 21 17 17
-5.918995 -1.017073 52.915829 22 17 18
-5.919976 -0.903154 52.924603 22 17 17
-5.921116 -0.789218 52.934795 22 17 17
-5.922411 -0.675257 52.946373 23 17 17
-5.923861 -0.561259 52.959332 24 17 17
-5.925468 -0.447218 52.973698 25 17 17
-5.927241 -0.333124 52.989552 27 19 17
-5.929190 -0.218969 53.006977 28 20 18
-5.931327 -0.104741 53.026081 29 21 19
-5.933665 0.009569 53.046978 30 22 20
-5.936215 0.123973 53.069775 31 23 22
-5.938987 0.238485 53.094563 33 25 24
-5.941991 0.353118 53.121414 35 26 27
-5.945230 0.467885 53.150372 38 29 31
-5.948705 0.582799 53.181438 43 31 35
-5.952411 0.697875 53.214573 49 33 39
-5.956339 0.813124 53.249687 54 36 42
-5.960473 0.928556 53.286640 59 38 44
-5.964792 1.044181 53.325260 62 40 46
-5.969273 1.160003 53.365318 64 40 46
-5.973885 1.276025 53.406540 67 40 45
-5.978591 1.392248 53.448624 68 40 44
-5.983359 1.508667 53.491249 68 41 43
-5.988147 1.625276 53.534054 68 40 42
-5.992915 1.742063 53.576672 66 39 41
-5.997621 1.859015 53.618744 64 38 39
-6.002225 1.976115 53.659904 61 37 38
-6.006688 2.093343 53.699810 59 36 37
-6.010973 2.210677 53.738113 57 35 37
-6.015047 2.328096 53.774536 55 35 37
-6.018881 2.445573 53.808811 55 34 36
-6.022450 2.563086 53.840717 54 33 35
-6.025734 2.680609 53.870079 53 33 34
-6.028720 2.798121 53.896778 53 33 34
-6.031401 2.915600 53.920742 53 33 34
-6.033775 3.033029 53.941967 53 34 34
-6.035848 3.150391 53.960495 53 34 33
-6.037629 3.267676 53.976421 52 33 32
-6.039137 3.384876 53.989902 51 32 30
-6.040393 3.501988 54.001125 52 31 30
-6.041424 3.619014 54.010349 52 30 30
-6.042262 3.735960 54.017841 51 30 30
-6.042942 3.852838 54.023918 51 30 29
-6.043501 3.969662 54.028915 51 29 29
-6.043978 4.086453 54.033176 50 29 30
-6.044414 4.203233 54.037071 50 30 30
-6.044848 4.320029 54.040958 49 30 30
-6.045322 4.436872 54.045197 49 31 31
-6.045877 4.553792 54.050152 49 31 32
-6.046550 4.670826 54.056168 47 31 32
-6.047380 4.788011 54.063595 44 28 30
-6.048405 4.905385 54.072762 43 27 29
-6.049660 5.022989 54.083973 43 27 29
-6.051177 5.140865 54.097534 44 28 30
-6.052989 5.259055 54.113735 44 30 30
-6.055126 5.377604 54.132839 45 30 30
-6.057613 5.496553 54.155079 46 30 30
-6.060475 5.615945 54.180664 46 29 29
-6.063730 5.735820 54.209763 45 28 28
-6.067390 5.856210 54.242485 45 27 28
-6.071462 5.977147 54.278885 46 27 27
-6.075945 6.098654 54.318962 47 27 28
-6.080829 6.220744 54.362629 49 29 29
-6.086096 6.343421 54.409714 51 31 31
-6.091717 6.466677 54.459969 53 33 33
-6.097656 6.590493 54.513062 52 33 33
-6.103867 6.714837 54.568581 50 33 33
-6.110293 6.839663 54.626038 50 33 33
-6.116878 6.964915 54.684902 50 33 32
-6.123552 7.090526 54.744576 49 32 32
-6.130249 7.216420 54.804440 49 32 31
-6.136899 7.342515 54.863888 48 31 31
-6.143432 7.468727 54.922295 48 31 31
-6.149785 7.594966 54.979092 47 31 31
-6.155896 7.721148 55.033730 47 30 31
-6.161714 7.847191 55.085739 47 30 30
-6.167192 7.973020 55.134712 47 29 30
-6.172295 8.098567 55.180332 46 29 30
-6.176995 8.223776 55.222355 46 29 29
-6.181277 8.348598 55.260632 45 29 28
-6.185131 8.473001 55.295086 44 29 28
-6.188560 8.596964 55.325745 43 29 28
-6.191574 8.720471 55.352684 41 28 27
-6.194189 8.843527 55.376064 39 27 26
-6.196431 8.966143 55.396107 37 27 25
-6.198326 9.088337 55.413048 36 26 24
-6.199909 9.210141 55.427204 35 25 23
-6.201217 9.331592 55.438900 35 25 23
-6.202288 9.452730 55.448467 36 25 24
-6.203160 9.573606 55.456268 36 25 24
-6.203872 9.694263 55.462635 36 25 24
-6.204463 9.814756 55.467915 36 25 24
-6.204967 9.935134 55.472424 36 25 24
-6.205418 10.055445 55.476456 36 25 24
-6.205844 10.175732 55.480263 36 25 24
-6.206271 10.296037 55.484081 36 25 25
-6.206721 10.416397 55.488106 35 25 25
-6.207212 10.536843 55.492493 34 25 25
-6.207758 10.657404 55.497375 31 22 22
-6.208369 10.778099 55.502838 29 21 20
-6.209054 10.898946 55.508957 31 21 21
-6.209816 11.019958 55.515774 32 22 21
-6.210660 11.141144 55.523315 32 22 21
-6.211586 11.262512 55.531593 33 22 22
-6.212593 11.384066 55.540596 33 22 22
-6.213681 11.505808 55.550327 33 22 22
-6.214848 11.627737 55.560753 32 22 21
-6.216088 11.749853 55.571846 32 21 20
-6.217401 11.872152 55.583576 31 22 21
-6.218774 11.994621 55.595856 31 22 21
-6.220204 12.117252 55.608639 31 21 21
-6.221680 12.240029 55.621830 31 21 21
-6.223187 12.362926 55.635311 32 22 21
-6.224712 12.485917 55.648945 33 22 22
-6.226234 12.608958 55.662548 33 22 22
-6.227729 12.732005 55.675915 33 22 21
-6.229170 12.854997 55.688797 32 21 20
-6.230526 12.977867 55.700920 30 20 19
-6.231761 13.100535 55.711956 29 20 19
-6.232834 13.222909 55.721554 29 19 19
-6.233704 13.344888 55.729328 28 19 18
-6.234324 13.466361 55.734871 28 19 18
-6.234644 13.587205 55.737740 29 19 17
-6.234615 13.707293 55.737476 30 20 18
-6.234182 13.826484 55.733608 31 20 18
-6.233293 13.944637 55.725658 31 21 19
-6.231893 14.061604 55.713142 32 21 19
-6.229929 14.177233 55.695580 32 21 19
-6.227349 14.291373 55.672516 32 21 19
-6.224105 14.403877 55.643517 31 21 18
-6.220152 14.514601 55.608173 30 20 17
-6.215452 14.623415 55.566151 30 20 17
-6.209971 14.730196 55.517155 30 20 16
-6.203688 14.834849 55.460991 31 20 15
-6.196590 14.937294 55.397530 31 19 15
-6.188677 15.037485 55.326790 31 19 15
-6.179962 15.135406 55.248875 32 19 16
-6.170472 15.231078 55.164032 32 20 18
-6.160250 15.324566 55.072651 31 21 19
-6.149355 15.415971 54.975250 31 21 20
-6.137858 15.505435 54.872463 31 21 20
-6.125842 15.593134 54.765038 31 21 20
-6.113402 15.679285 54.653831 32 21 19
-6.100642 15.764128 54.539753 32 20 19
-6.087668 15.847923 54.423767 31 20 18
-6.074590 15.930943 54.306847 31 20 18
-6.061514 16.013468 54.189957 30 19 17
-6.048544 16.095770 54.074005 30 19 17
-6.035775 16.178108 53.959846 30 20 18
-6.023292 16.260727 53.848248 30 21 18
-6.011169 16.343845 53.739872 30 21 18
-5.999471 16.427658 53.635284 30 21 19
-5.988247 16.512327 53.534943 30 21 19
-5.977539 16.598000 53.439217 30 21 19
-5.967379 16.684786 53.348377 29 20 19
-5.957788 16.772787 53.262638 28 19 18
-5.948783 16.862080 53.182137 28 19 18
-5.940376 16.952730 53.106979 30 21 20
-5.932575 17.044798 53.037239 31 22 22
-5.925386 17.138334 52.972965 31 22 22
-5.918811 17.233383 52.914188 32 23 21
-5.912853 17.329985 52.860916 31 23 21
-5.907509 17.428171 52.813148 31 23 20
-5.902781 17.527977 52.770878 30 23 20
-5.898658 17.629412 52.734016 31 23 20
-5.895131 17.732479 52.702484 31 23 20
-5.892180 17.837154 52.676105 31 23 20
-5.889781 17.943399 52.654659 32 23 20
-5.887900 18.051136 52.637840 32 23 20
-5.886495 18.160271 52.625278 32 24 20
-5.885515 18.270672 52.616516 32 24 20
-5.884901 18.382175 52.611027 33 24 20
-5.884585 18.494596 52.608208 33 24 20
-5.884496 18.607719 52.607407 33 24 21
-5.884552 18.721300 52.607906 33 24 21
-5.884671 18.835087 52.608971 34 23 20
-5.884768 18.948807 52.609840 34 23 20
-5.884758 19.062185 52.609756 34 22 19
-5.884558 19.174942 52.607964 34 22 20
-5.884086 19.286798 52.603745 34 22 20
-5.732964 -6.975159 52.259842 12 11 8
-5.734824 -6.864731 52.276798 12 12 9
-5.736871 -6.754450 52.295464 13 13 10
-5.739140 -6.644345 52.316139 13 13 10
-5.741652 -6.534429 52.339050 13 13 10
-5.744429 -6.424709 52.364357 13 12 10
-5.747479 -6.315180 52.392159 13 12 9
-5.750801 -6.205825 52.422443 13 12 8
-5.754389 -6.096622 52.455147 13 11 8
-5.758224 -5.987534 52.490105 13 11 8
-5.762280 -5.878520 52.527081 13 11 8
-5.766523 -5.769536 52.565765 13 11 8
-5.770916 -5.660531 52.605808 13 11 8
-5.775412 -5.551451 52.646786 13 11 9
-5.779959 -5.442244 52.688236 14 11 9
-5.784504 -5.332856 52.729671 15 11 10
-5.788992 -5.223238 52.770580 14 11 11
-5.793364 -5.113341 52.810432 14 12 11
-5.797564 -5.003124 52.848713 15 12 12
-5.801533 -4.892547 52.884899 15 13 12
-5.805220 -4.781582 52.918507 15 13 13
-5.808572 -4.670203 52.949062 16 12 13
-5.811544 -4.558393 52.976154 16 12 13
-5.814095 -4.446145 52.999405 16 12 12
-5.816190 -4.333457 53.018505 16 12 12
-5.817805 -4.220339 53.033226 16 11 11
-5.818923 -4.106806 53.043415 17 12 11
-5.819537 -3.992884 53.049015 18 13 12
-5.819652 -3.878604 53.050064 21 14 14
-5.819282 -3.764007 53.046688 25 16 16
-5.818452 -3.649136 53.039131 28 18 17
-5.817200 -3.534041 53.027718 33 23 21
-5.815572 -3.418774 53.012875 41 32 28
-5.813622 -3.303388 52.995090 49 40 36
-5.811409 -3.187935 52.974926 49 42 37
-5.809001 -3.072465 52.952976 44 37 33
-5.806466 -2.957025 52.929867 37 31 28
-5.803873 -2.841656 52.906223 33 27 25
-5.801287 -2.726393 52.882652 31 26 24
-5.798771 -2.611263 52.859722 31 25 23
-5.796383 -2.496287 52.837952 30 25 22
-5.794170 -2.381476 52.817776 30 25 23
-5.792173 -2.266838 52.799576 29 25 23
-5.790422 -2.152369 52.783619 28 24 22
-5.788940 -2.038063 52.770103 26 23 21
-5.787738 -1.923909 52.759151 24 22 19
-5.786821 -1.809891 52.750790 22 20 18
-5.786186 -1.695992 52.745003 21 18 16
-5.785824 -1.582193 52.741695 20 17 15
-5.785721 -1.468473 52.740757 20 17 15
-5.785862 -1.354815 52.742046 21 17 15
-5.786230 -1.241200 52.745403 21 17 16
-5.786810 -1.127612 52.750694 21 18 17
-5.787588 -1.014035 52.757778 22 18 18
-5.788549 -0.900457 52.766544 22 18 18
-5.789688 -0.786865 52.776917 23 18 18
-5.790998 -0.673248 52.788864 23 18 18
-5.792480 -0.559596 52.802372 25 17 18
-5.794136 -0.445899 52.817467 25 17 18
-5.795972 -0.332148 52.834209 26 18 18
-5.797997 -0.218331 52.852669 27 20 18
-5.800222 -0.104439 52.872948 28 21 19
-5.802657 0.009541 52.895142 28 21 20
-5.805311 0.123622 52.919342 29 22 21
-5.808195 0.237816 52.945625 31 24 23
-5.811312 0.352138 52.974045 33 25 26
-5.814667 0.466602 53.004627 36 27 29
-5.818260 0.581221 53.037373 39 29 32
-5.822082 0.696008 53.072212 44 30 35
-5.826124 0.810977 53.109062 49 32 37
-5.830369 0.926136 53.147758 54 33 39
-5.834797 1.041495 53.188126 57 35 41
-5.839383 1.157060 53.229927 60 37 42
-5.844096 1.272832 53.272884 64 38 43
-5.848902 1.388811 53.316696 67 40 44
-5.853765 1.504995 53.361027 69 41 44
-5.858645 1.621374 53.405514 69 42 43
-5.863504 1.737938 53.449810 68 41 42
-5.868300 1.854674 53.493530 66 40 41
-5.872995 1.971564 53.536320 63 39 40
-5.877549 2.088588 53.577835 61 37 38
-5.881926 2.205725 53.617733 59 36 38
-5.886093 2.322952 53.655720 58 35 37
-5.890022 2.440243 53.691540 57 34 36
-5.893689 2.557575 53.724960 56 34 36
-5.897073 2.674923 53.755810 56 33 35
-5.900162 2.792264 53.783966 56 33 35
-5.902947 2.909577 53.809353 56 35 35
-5.905427 3.026843 53.831966 56 35 35
-5.907608 3.144047 53.851841 55 35 35
-5.909498 3.261177 53.869068 54 34 34
-5.911115 3.378224 53.883808 53 33 32
-5.912481 3.495188 53.896263 53 31 31
-5.913622 3.612067 53.906670 52 30 30
-5.914570 3.728869 53.915306 52 29 30
-5.915360 3.845606 53.922508 52 28 29
-5.916028 3.962292 53.928600 52 28 29
-5.916614 4.078948 53.933941 51 28 29
-5.917159 4.195597 53.938904 50 29 29
-5.917701 4.312267 53.943851 50 30 31
-5.918283 4.428988 53.949158 50 32 32
-5.918945 4.545791 53.955185 49 32 32
-5.919724 4.662714 53.962288 47 31 32
-5.920660 4.779794 53.970814 45 29 31
-5.921787 4.897069 53.981094 44 28 30
-5.923141 5.014581 53.993435 43 27 30
-5.924756 5.132371 54.008156 43 28 29
-5.926661 5.250482 54.025520 44 30 29
-5.928885 5.368957 54.045795 45 30 30
-5.931454 5.487839 54.069221 46 30 30
-5.934391 5.607169 54.095989 46 30 30
-5.937713 5.726986 54.126274 47 29 30
-5.941432 5.847323 54.160172 47 29 29
-5.945554 5.968212 54.197742 48 28 29
-5.950076 6.089673 54.238972 50 29 29
-5.954991 6.211720 54.283775 51 30 30
-5.960279 6.334357 54.331970 53 32 33
-5.965912 6.457576 54.383324 54 34 35
-5.971854 6.581357 54.437485 54 34 35
-5.978059 6.705666 54.494049 52 34 34
-5.984474 6.830459 54.552528 51 33 33
-5.991040 6.955679 54.612389 50 33 33
-5.997694 7.081260 54.673035 50 33 32
-6.004366 7.207127 54.733864 49 32 31
-6.010990 7.333195 54.794243 48 31 31
-6.017499 7.459381 54.853573 47 30 30
-6.023829 7.585598 54.911274 47 30 30
-6.029920 7.711759 54.966801 47 30 30
-6.035722 7.837783 55.019691 47 29 30
-6.041190 7.963594 55.069534 47 29 30
-6.046289 8.089128 55.116016 47 29 30
-6.050992 8.214324 55.158890 47 29 29
-6.055285 8.339139 55.198017 46 29 29
-6.059157 8.463536 55.233315 45 29 29
-6.062613 8.587496 55.264816 44 29 29
-6.065660 8.711004 55.292595 42 28 28
-6.068318 8.834066 55.316822 40 28 27
-6.070610 8.956692 55.337715 38 27 25
-6.072563 9.078901 55.355518 37 26 24
-6.074212 9.200727 55.370552 36 26 23
-6.075593 9.322206 55.383144 36 26 23
-6.076743 9.443381 55.393627 37 26 24
-6.077702 9.564300 55.402363 37 26 24
-6.078508 9.685013 55.409710 36 26 24
-6.079198 9.805571 55.416004 36 25 24
-6.079808 9.926024 55.421558 36 26 25
-6.080369 10.046421 55.426674 36 26 25
-6.080910 10.166807 55.431606 36 25 25
-6.081457 10.287224 55.436592 36 26 25
-6.082030 10.407708 55.441818 35 26 25
-6.082647 10.528290 55.447441 34 26 25
-6.083322 10.648996 55.453594 32 24 24
-6.084064 10.769850 55.460358 31 22 22
-6.084879 10.890862 55.467789 32 23 22
-6.085773 11.012051 55.475945 32 24 22
-6.086748 11.133420 55.484821 33 24 23
-6.087803 11.254978 55.494442 34 24 23
-6.088938 11.376726 55.504791 34 24 23
-6.090151 11.498665 55.515842 34 24 23
-6.091439 11.620796 55.527588 33 23 22
-6.092798 11.743114 55.539974 32 22 21
-6.094223 11.865615 55.552967 32 23 22
-6.095706 11.988284 55.566483 32 22 22
-6.097239 12.111114 55.580463 32 22 21
-6.098814 12.234084 55.594814 32 22 21
-6.100415 12.357170 55.609406 33 22 21
-6.102026 12.480341 55.624096 34 22 22
-6.103629 12.603558 55.638702 34 23 22
-6.105198 12.726767 55.653008 34 22 22
-6.106707 12.849911 55.666763 32 22 21
-6.108124 12.972919 55.679680 30 20 19
-6.109414 13.095712 55.691441 30 20 19
-6.110537 13.218192 55.701675 29 20 19
-6.111451 13.340261 55.710011 29 20 19
-6.112110 13.461804 55.716015 29 20 18
-6.112464 13.582698 55.719250 29 20 18
-6.112465 13.702811 55.719257 30 20 18
-6.112061 13.822008 55.715569 31 20 18
-6.111198 13.940145 55.707706 32 21 18
-6.109824 14.057071 55.695179 32 21 18
-6.107887 14.172637 55.677525 32 21 19
-6.105339 14.286695 55.654293 32 21 19
-6.102131 14.399098 55.625057 31 21 18
-6.098222 14.509706 55.589420 31 20 17
-6.093575 14.618388 55.547054 31 20 17
-6.088157 14.725027 55.497673 32 20 17
-6.081951 14.829529 55.441097 32 20 16
-6.074943 14.931816 55.377216 33 20 16
-6.067136 15.031848 55.306049 33 20 17
-6.058543 15.129610 55.227715 33 20 18
-6.049192 15.225127 55.142475 33 20 19
-6.039126 15.318463 55.050720 32 20 19
-6.028402 15.409722 54.952965 31 20 19
-6.017091 15.499046 54.849857 31 20 19
-6.005275 15.586615 54.742142 32 20 19
-5.993046 15.672642 54.630672 32 20 19
-5.980505 15.757364 54.516354 32 20 19
-5.967757 15.841043 54.400143 31 20 19
-5.954907 15.923951 54.283012 31 20 19
-5.942062 16.006365 54.165913 30 19 18
-5.929319 16.088551 54.049755 30 20 18
-5.916771 16.170773 53.935375 31 20 19
-5.904503 16.253267 53.823544 30 21 19
-5.892586 16.336254 53.714905 31 21 19
-5.881081 16.419922 53.610027 31 21 19
-5.870039 16.504440 53.509373 31 21 19
-5.859499 16.589947 53.413292 30 21 19
-5.849491 16.676558 53.322067 30 21 19
-5.840039 16.764370 53.235909 30 21 19
-5.831160 16.853464 53.154968 30 21 20
-5.822864 16.943909 53.079342 31 21 21
-5.815160 17.035763 53.009121 31 22 22
-5.808054 17.129074 52.944344 31 22 22
-5.801552 17.223902 52.885075 31 22 21
-5.795652 17.320272 52.831291 32 23 21
-5.790359 17.418236 52.783039 31 23 20
-5.785669 17.517817 52.740284 31 23 19
-5.781575 17.619032 52.702969 31 23 19
-5.778068 17.721886 52.671001 31 23 19
-5.775129 17.826355 52.644211 31 23 19
-5.772735 17.932398 52.622379 31 23 19
-5.770851 18.039948 52.605209 32 23 19
-5.769437 18.148899 52.592323 32 23 19
-5.768442 18.259121 52.583256 32 23 19
-5.767809 18.370457 52.577484 33 23 19
-5.767471 18.482712 52.574398 33 23 20
-5.767354 18.595669 52.573338 33 23 20
-5.767381 18.709085 52.573582 34 23 20
-5.767469 18.822704 52.574383 34 23 20
-5.767534 18.936249 52.574974 34 22 20
-5.767492 19.049444 52.574593 34 22 20
-5.767260 19.162006 52.572472 34 22 20
-5.766757 19.273655 52.567894 34 22 20
-5.606997 -6.958637 52.136059 12 11 8
-5.608803 -6.848455 52.152855 13 12 9
-5.610787 -6.738414 52.171303 13 12 9
-5.612981 -6.628541 52.191708 14 13 10
-5.615409 -6.518853 52.214287 14 12 10
-5.618092 -6.409357 52.239227 14 12 10
-5.621037 -6.300047 52.266613 14 12 9
-5.624248 -6.190912 52.296471 14 12 8
-5.627716 -6.081927 52.328716 14 11 9
-5.631425 -5.973058 52.363209 14 11 9
-5.635352 -5.864267 52.399719 14 11 9
-5.639464 -5.755508 52.437958 14 11 9
-5.643724 -5.646731 52.477570 14 11 10
-5.648088 -5.537885 52.518135 14 11 10
-5.652504 -5.428916 52.559208 15 12 10
-5.656924 -5.319772 52.600300 15 12 11
-5.661289 -5.210402 52.640892 15 12 12
-5.665545 -5.100756 52.680458 15 12 12
-5.669632 -4.990793 52.718468 14 12 12
-5.673496 -4.880474 52.754395 15 13 13
-5.677083 -4.769767 52.787750 15 13 13
-5.680341 -4.658647 52.818047 16 13 13
-5.683225 -4.547096 52.844856 16 13 13
-5.685691 -4.435104 52.867794 16 13 13
-5.687709 -4.322672 52.886551 16 13 12
-5.689249 -4.209806 52.900871 16 12 11
-5.690295 -4.096523 52.910603 17 12 11
-5.690841 -3.982848 52.915680 18 13 12
-5.690889 -3.868812 52.916122 21 14 14
-5.690453 -3.754455 52.912064 24 16 16
-5.689558 -3.639822 52.903744 28 19 17
-5.688238 -3.524961 52.891472 33 24 21
-5.686540 -3.409927 52.875687 42 33 30
-5.684517 -3.294772 52.856873 49 41 37
-5.682229 -3.179550 52.835598 48 41 36
-5.679739 -3.064311 52.812450 42 36 31
-5.677119 -2.949104 52.788082 36 29 27
-5.674433 -2.833969 52.763103 32 26 24
-5.671748 -2.718943 52.738144 32 26 24
-5.669128 -2.604054 52.713783 31 25 24
-5.666630 -2.489323 52.690552 31 25 23
-5.664302 -2.374764 52.668907 30 25 23
-5.662186 -2.260383 52.649231 29 25 23
-5.660314 -2.146179 52.631821 28 24 22
-5.658709 -2.032146 52.616898 26 22 21
-5.657384 -1.918273 52.604584 24 21 19
-5.656348 -1.804544 52.594948 22 19 17
-5.655599 -1.690943 52.587982 21 18 16
-5.655129 -1.577451 52.583618 21 17 15
-5.654929 -1.464046 52.581749 21 17 15
-5.654984 -1.350711 52.582260 21 17 15
-5.655279 -1.237426 52.585007 22 18 16
-5.655800 -1.124174 52.589855 21 18 17
-5.656534 -1.010939 52.596680 22 19 18
-5.657469 -0.897706 52.605370 22 19 19
-5.658597 -0.784463 52.615864 23 18 19
-5.659914 -0.671197 52.628109 24 18 19
-5.661418 -0.557897 52.642094 25 17 19
-5.663112 -0.444552 52.657841 26 17 19
-5.665000 -0.331149 52.675400 26 18 18
-5.667090 -0.217679 52.694828 27 19 18
-5.669390 -0.104129 52.716217 28 20 19
-5.671909 0.009513 52.739639 27 21 20
-5.674655 0.123262 52.765175 28 22 21
-5.677636 0.237130 52.792889 29 23 22
-5.680854 0.351133 52.822815 31 24 25
-5.684313 0.465284 52.854973 33 25 27
-5.688008 0.579598 52.889332 36 26 29
-5.691933 0.694088 52.925831 40 27 31
-5.696076 0.808767 52.964355 45 28 33
-5.700420 0.923644 53.004749 49 30 34
-5.704944 1.038728 53.046810 53 32 36
-5.709622 1.154025 53.090309 57 34 38
-5.714424 1.269536 53.134956 61 36 40
-5.719316 1.385262 53.180450 65 39 42
-5.724263 1.501199 53.226452 67 41 43
-5.729226 1.617338 53.272594 69 43 43
-5.734166 1.733670 53.318531 69 43 44
-5.739044 1.850179 53.363884 68 42 43
-5.743819 1.966849 53.408291 66 41 42
-5.748456 2.083659 53.451401 63 39 40
-5.752918 2.200590 53.492893 62 38 39
-5.757173 2.317615 53.532455 61 36 39
-5.761192 2.434711 53.569828 60 35 38
-5.764952 2.551854 53.604786 59 34 37
-5.768432 2.669019 53.637150 57 33 36
-5.771620 2.786181 53.666790 57 33 35
-5.774507 2.903320 53.693630 58 35 36
-5.777091 3.020416 53.717663 58 36 36
-5.779377 3.137455 53.738922 57 36 36
-5.781374 3.254422 53.757492 56 35 35
-5.783100 3.371311 53.773537 55 33 33
-5.784575 3.488118 53.787251 53 31 31
-5.785825 3.604844 53.798874 52 30 30
-5.786882 3.721496 53.808704 53 29 30
-5.787780 3.838085 53.817059 53 29 30
-5.788558 3.954627 53.824280 53 29 30
-5.789252 4.071143 53.830738 51 29 30
-5.789904 4.187655 53.836803 50 30 30
-5.790555 4.304193 53.842850 51 31 32
-5.791244 4.420786 53.849258 51 32 33
-5.792012 4.537468 53.856403 50 32 33
-5.792898 4.654276 53.864639 48 31 32
-5.793938 4.771247 53.874310 46 29 31
-5.795168 4.888420 53.885754 44 28 31
-5.796624 5.005837 53.899292 44 28 30
-5.798337 5.123539 53.915218 44 28 29
-5.800337 5.241570 53.933815 44 30 29
-5.802652 5.359971 53.955341 45 30 30
-5.805306 5.478786 53.980022 46 30 31
-5.808322 5.598055 54.008064 46 30 31
-5.811715 5.717816 54.039612 47 29 30
-5.815497 5.838104 54.074780 48 29 30
-5.819673 5.958947 54.113605 50 30 30
-5.824241 6.080366 54.156078 51 30 31
-5.829190 6.202375 54.202103 52 31 32
-5.834504 6.324977 54.251511 53 32 33
-5.840153 6.448161 54.304035 54 34 34
-5.846101 6.571910 54.359348 53 34 34
-5.852306 6.696189 54.417042 52 34 34
-5.858713 6.820953 54.476612 51 34 34
-5.865265 6.946146 54.537540 51 34 34
-5.871899 7.071701 54.599224 50 33 34
-5.878549 7.197540 54.661060 49 32 33
-5.885149 7.323584 54.722427 48 31 32
-5.891633 7.449745 54.782715 48 31 31
-5.897939 7.575939 54.841354 47 30 31
-5.904009 7.702078 54.897800 47 30 30
-5.909795 7.828082 54.951595 47 29 30
-5.915250 7.953875 55.002323 47 29 30
-5.920342 8.079391 55.049671 48 30 31
-5.925046 8.204573 55.093410 48 30 31
-5.929346 8.329375 55.133389 47 30 30
-5.933234 8.453765 55.169544 46 30 30
-5.936713 8.577718 55.201889 44 29 29
-5.939792 8.701224 55.230518 42 29 28
-5.942489 8.824287 55.255596 41 28 27
-5.944828 8.946920 55.277348 39 27 25
-5.946837 9.069144 55.296028 38 27 24
-5.948550 9.190990 55.311954 37 26 23
-5.950002 9.312497 55.325455 37 26 23
-5.951231 9.433708 55.336887 37 26 24
-5.952276 9.554673 55.346600 37 26 24
-5.953174 9.675442 55.354954 36 26 24
-5.953963 9.796067 55.362293 36 26 24
-5.954677 9.916597 55.368927 36 25 24
-5.955348 10.037086 55.375168 35 25 24
-5.956005 10.157575 55.381271 35 26 25
-5.956670 10.278107 55.387459 35 26 25
-5.957365 10.398717 55.393921 35 26 25
-5.958107 10.519437 55.400818 34 26 25
-5.958908 10.640292 55.408264 33 25 24
-5.959776 10.761303 55.416344 33 25 24
-5.960720 10.882483 55.425114 33 25 24
-5.961741 11.003847 55.434616 34 25 24
-5.962842 11.125399 55.444843 34 25 24
-5.964020 11.247142 55.455807 35 25 25
-5.965276 11.369080 55.467484 35 25 25
-5.966607 11.491212 55.479858 34 25 24
-5.968009 11.613537 55.492897 33 24 23
-5.969478 11.736047 55.506550 32 23 22
-5.971008 11.858740 55.520779 32 23 22
-5.972590 11.981598 55.535492 32 23 22
-5.974218 12.104612 55.550632 32 23 21
-5.975882 12.227764 55.566097 33 22 21
-5.977565 12.351026 55.581753 33 22 21
-5.979254 12.474364 55.597458 34 22 21
-5.980928 12.597738 55.613018 34 23 22
-5.982562 12.721096 55.628212 34 23 22
-5.984130 12.844377 55.642788 32 22 21
-5.985600 12.967508 55.656460 31 21 20
-5.986936 13.090407 55.668884 30 21 20
-5.988101 13.212981 55.679718 30 21 20
-5.989051 13.335122 55.688545 29 21 20
-5.989741 13.456719 55.694969 29 21 19
-5.990124 13.577646 55.698528 30 21 19
-5.990149 13.697772 55.698761 30 21 19
-5.989767 13.816958 55.695210 31 21 18
-5.988926 13.935062 55.687393 32 21 18
-5.987576 14.051935 55.674831 32 21 18
-5.985664 14.167427 55.657059 32 21 18
-5.983144 14.281389 55.633625 32 21 18
-5.979971 14.393681 55.604122 31 21 18
-5.976104 14.504158 55.568165 31 21 17
-5.971508 14.612697 55.525425 32 20 16
-5.966154 14.719183 55.475647 32 20 16
-5.960024 14.823523 55.418644 32 20 17
-5.953107 14.925645 55.354328 33 20 17
-5.945406 15.025508 55.282722 33 21 18
-5.936936 15.123102 55.203960 33 21 19
-5.927725 15.218455 55.118313 33 21 19
-5.917814 15.311630 55.026165 32 21 19
-5.907263 15.402736 54.928051 31 20 19
-5.896138 15.491912 54.824608 32 20 20
-5.884521 15.579341 54.716595 31 19 20
-5.872504 15.665235 54.604851 31 19 20
-5.860183 15.749829 54.490284 31 20 20
-5.847661 15.833388 54.373852 31 20 20
-5.835042 15.916177 54.256508 31 19 19
-5.822426 15.998472 54.139206 31 19 19
-5.809912 16.080542 54.022842 31 20 19
-5.797589 16.162642 53.908257 31 20 19
-5.785537 16.245010 53.796196 31 21 19
-5.773828 16.327864 53.687321 31 22 19
-5.762521 16.411394 53.582184 31 22 19
-5.751664 16.495762 53.481232 31 22 19
-5.741296 16.581108 53.384830 31 22 18
-5.731449 16.667551 53.293266 31 21 19
-5.722143 16.755182 53.206730 31 21 20
-5.713395 16.844088 53.125389 31 21 21
-5.705216 16.934332 53.049347 31 21 21
-5.697617 17.025980 52.978683 31 22 21
-5.690604 17.119085 52.913467 31 22 21
-5.684180 17.213696 52.853737 31 22 21
-5.678348 17.309853 52.799511 32 23 21
-5.673111 17.407600 52.750813 32 23 20
-5.668467 17.506969 52.707630 32 23 20
-5.664409 17.607977 52.669899 32 23 19
-5.660929 17.710627 52.637539 32 23 19
-5.658008 17.814898 52.610378 32 23 19
-5.655623 17.920753 52.588207 32 22 18
-5.653742 18.028116 52.570713 32 22 18
-5.652323 18.136889 52.557522 32 22 18
-5.651319 18.246943 52.548183 32 22 18
-5.650671 18.358112 52.542156 33 23 19
-5.650312 18.470205 52.538822 34 23 20
-5.650172 18.582998 52.537518 34 23 20
-5.650172 18.696253 52.537518 35 23 20
-5.650232 18.809704 52.538074 35 22 20
-5.650267 18.923077 52.538403 35 23 20
-5.650195 19.036089 52.537735 34 23 20
-5.649934 19.148458 52.535305 35 22 20
-5.649404 19.259899 52.530376 35 22 20
-5.648532 19.370148 52.522270 35 22 19
-5.481310 -6.941795 52.009876 13 12 8
-5.483059 -6.831859 52.026470 13 12 8
-5.484977 -6.722057 52.044666 14 12 9
-5.487094 -6.612419 52.064758 14 12 10
-5.489437 -6.502959 52.086983 14 12 10
-5.492021 -6.393686 52.111507 14 11 10
-5.494861 -6.284598 52.138447 14 11 9
-5.497955 -6.175682 52.167812 14 11 9
-5.501299 -6.066914 52.199543 14 11 9
-5.504879 -5.958264 52.233513 15 12 10
-5.508671 -5.849692 52.269489 15 12 10
-5.512645 -5.741156 52.307198 15 12 11
-5.516765 -5.632605 52.346287 16 12 11
-5.520988 -5.523990 52.386356 16 12 12
-5.525266 -5.415256 52.426952 16 12 12
-5.529549 -5.306350 52.467590 16 13 12
-5.533782 -5.197223 52.507751 16 13 13
-5.537908 -5.087825 52.546906 15 13 13
-5.541873 -4.978114 52.584534 15 12 13
-5.545621 -4.868050 52.620098 15 12 13
-5.549098 -4.757599 52.653088 15 13 13
-5.552254 -4.646738 52.683033 16 13 13
-5.555042 -4.535447 52.709480 16 13 13
-5.557420 -4.423716 52.732044 16 13 12
-5.559354 -4.311543 52.750397 16 13 12
-5.560817 -4.198936 52.764282 16 13 11
-5.561793 -4.085912 52.773544 17 13 12
-5.562273 -3.972492 52.778099 18 13 13
-5.562259 -3.858711 52.777966 20 14 14
-5.561765 -3.744607 52.773277 22 16 15
-5.560814 -3.630224 52.764248 26 19 17
-5.559440 -3.515614 52.751213 31 23 21
-5.557688 -3.400828 52.734589 39 31 29
-5.555609 -3.285920 52.714867 46 38 35
-5.553263 -3.170945 52.692604 46 39 34
-5.550713 -3.055954 52.668407 40 33 30
-5.548026 -2.940994 52.642910 36 28 26
-5.545269 -2.826108 52.616749 33 26 24
-5.542508 -2.711334 52.590549 33 27 26
-5.539804 -2.596699 52.564896 34 28 27
-5.537215 -2.482226 52.540333 33 28 26
-5.534791 -2.367930 52.517330 31 27 25
-5.532573 -2.253817 52.496288 30 25 24
-5.530595 -2.139887 52.477512 28 24 23
-5.528880 -2.026134 52.461246 26 21 21
-5.527446 -1.912550 52.447636 24 20 19
-5.526300 -1.799117 52.436764 23 18 16
-5.525443 -1.685820 52.428631 22 17 15
-5.524871 -1.572638 52.423206 21 17 16
-5.524576 -1.459553 52.420399 22 17 16
-5.524545 -1.346545 52.420105 22 17 16
-5.524765 -1.233594 52.422195 21 18 16
-5.525224 -1.120683 52.426552 21 19 17
-5.525909 -1.007794 52.433052 22 19 18
-5.526810 -0.894912 52.441605 23 19 19
-5.527920 -0.782022 52.452133 24 19 19
-5.529233 -0.669112 52.464596 25 18 19
-5.530749 -0.556169 52.478977 25 18 19
-5.532469 -0.443179 52.495296 26 17 19
-5.534396 -0.330132 52.513584 26 18 18
-5.536538 -0.217015 52.533905 27 19 19
-5.538899 -0.103813 52.556313 27 20 20
-5.541489 0.009485 52.580883 27 20 20
-5.544313 0.122894 52.607685 27 21 21
-5.547377 0.236429 52.636753 28 22 22
-5.550682 0.350105 52.668114 29 23 23
-5.554230 0.463936 52.701778 31 24 25
-5.558014 0.577936 52.737686 34 24 27
-5.562029 0.692121 52.775780 37 25 28
-5.566259 0.806500 52.815918 41 25 29
-5.570689 0.921086 52.857948 45 27 30
-5.575295 1.035886 52.901653 48 29 33
-5.580052 1.150905 52.946793 53 31 35
-5.584930 1.266147 52.993084 57 34 38
-5.589897 1.381609 53.040211 61 37 40
-5.594916 1.497289 53.087833 64 39 42
-5.599950 1.613179 53.135597 67 42 43
-5.604961 1.729267 53.183144 69 44 45
-5.609910 1.845540 53.230095 69 44 44
-5.614758 1.961981 53.276100 67 43 43
-5.619469 2.078568 53.320801 66 41 42
-5.624007 2.195282 53.363865 65 40 42
-5.628342 2.312097 53.404999 64 38 41
-5.632445 2.428990 53.443932 63 36 40
-5.636293 2.545935 53.480438 62 35 39
-5.639864 2.662907 53.514328 60 34 37
-5.643147 2.779883 53.545471 59 34 37
-5.646132 2.896840 53.573799 59 36 37
-5.648817 3.013760 53.599277 60 37 37
-5.651206 3.130625 53.621941 58 36 36
-5.653308 3.247423 53.641888 57 35 35
-5.655139 3.364146 53.659260 56 33 33
-5.656720 3.480791 53.674263 54 31 32
-5.658077 3.597357 53.687141 54 31 32
-5.659242 3.713853 53.698189 54 31 32
-5.660247 3.830288 53.707729 54 31 32
-5.661131 3.946680 53.716114 54 31 32
-5.661932 4.063049 53.723717 53 31 32
-5.662690 4.179419 53.730915 52 31 32
-5.663447 4.295819 53.738098 53 32 33
-5.664243 4.412280 53.745644 53 32 33
-5.665117 4.528836 53.753941 51 31 33
-5.666108 4.645524 53.763340 49 30 32
-5.667253 4.762382 53.774204 47 29 30
-5.668588 4.879449 53.786869 46 29 30
-5.670146 4.996769 53.801651 45 29 29
-5.671958 5.114381 53.818851 45 29 29
-5.674055 5.232330 53.838745 45 30 29
-5.676462 5.350657 53.861584 45 30 30
-5.679204 5.469406 53.887608 46 30 31
-5.682301 5.588614 53.916988 47 29 31
-5.685768 5.708323 53.949890 48 29 31
-5.689617 5.828563 53.986408 49 30 31
-5.693851 5.949364 54.026581 51 31 32
-5.698467 6.070745 54.070385 53 31 33
-5.703456 6.192719 54.117722 54 32 34
-5.708799 6.315289 54.168419 54 33 34
-5.714468 6.438445 54.222206 54 34 35
-5.720427 6.562166 54.278751 53 35 35
-5.726634 6.686420 54.337646 52 35 35
-5.733036 6.811159 54.398388 52 35 36
-5.739575 6.936327 54.460445 52 35 37
-5.746192 7.061857 54.523228 51 34 37
-5.752821 7.187673 54.586128 51 34 35
-5.759397 7.313694 54.648525 50 32 34
-5.765856 7.439831 54.709812 49 31 32
-5.772138 7.566001 54.769417 48 31 31
-5.778187 7.692119 54.826817 48 30 30
-5.783953 7.818100 54.881523 48 30 30
-5.789394 7.943872 54.933151 48 30 30
-5.794477 8.069368 54.981384 49 31 31
-5.799178 8.194532 55.025990 50 31 31
-5.803482 8.319320 55.066830 49 31 31
-5.807382 8.443696 55.103832 47 31 31
-5.810880 8.567638 55.137024 45 30 30
-5.813988 8.691140 55.166508 43 29 28
-5.816721 8.814203 55.192448 42 28 27
-5.819106 8.936841 55.215073 40 27 25
-5.821168 9.059076 55.234646 39 27 24
-5.822943 9.180943 55.251484 38 26 23
-5.824465 9.302476 55.265923 38 26 23
-5.825770 9.423723 55.278313 38 27 24
-5.826900 9.544735 55.289032 37 27 25
-5.827890 9.665561 55.298424 36 26 25
-5.828777 9.786255 55.306843 36 26 25
-5.829595 9.906868 55.314602 36 26 25
-5.830375 10.027449 55.322002 35 25 24
-5.831144 10.148043 55.329300 35 26 24
-5.831926 10.268692 55.336723 35 26 25
-5.832742 10.389431 55.344460 35 26 25
-5.833606 10.510292 55.352661 35 26 25
-5.834530 10.631298 55.361427 35 25 24
-5.835522 10.752467 55.370842 35 25 24
-5.836589 10.873816 55.380970 35 25 24
-5.837732 10.995352 55.391815 35 25 24
-5.838953 11.117081 55.403393 36 25 24
-5.840249 11.239007 55.415695 36 25 25
-5.841619 11.361129 55.428696 35 25 25
-5.843060 11.483446 55.442368 34 25 24
-5.844568 11.605956 55.456676 33 24 23
-5.846138 11.728651 55.471573 32 23 22
-5.847764 11.851525 55.487003 32 23 22
-5.849438 11.974563 55.502884 32 23 21
-5.851151 12.097751 55.519138 32 23 21
-5.852893 12.221068 55.535671 33 23 21
-5.854650 12.344490 55.552345 33 22 20
-5.856407 12.467981 55.569008 33 22 20
-5.858141 12.591498 55.585468 33 22 21
-5.859832 12.714989 55.601505 33 22 22
-5.861450 12.838391 55.616859 32 23 21
-5.862963 12.961629 55.631222 31 23 21
-5.864339 13.084620 55.644272 31 22 21
-5.865537 13.207269 55.655643 31 22 21
-5.866516 13.329467 55.664928 30 22 20
-5.867231 13.451101 55.671715 30 22 20
-5.867636 13.572047 55.675556 30 21 20
-5.867681 13.692170 55.675983 31 22 19
-5.867317 13.811332 55.672531 31 22 19
-5.866494 13.929388 55.664719 32 22 18
-5.865162 14.046194 55.652084 32 22 18
-5.863273 14.161598 55.634159 32 22 18
-5.860780 14.275455 55.610504 32 22 18
-5.857641 14.387621 55.580719 31 22 18
-5.853816 14.497960 55.544422 31 21 17
-5.849271 14.606347 55.501301 31 21 17
-5.843981 14.712672 55.451107 31 21 17
-5.837928 14.816842 55.393669 32 21 17
-5.831103 14.918791 55.328911 32 21 17
-5.823509 15.018477 55.256859 32 21 18
-5.815163 15.115897 55.177662 32 22 19
-5.806092 15.211077 55.091591 32 22 19
-5.796340 15.304088 54.999058 32 22 19
-5.785961 15.395031 54.900578 31 21 20
-5.775023 15.484054 54.796799 31 20 20
-5.763608 15.571336 54.688480 31 20 21
-5.751802 15.657089 54.576462 31 20 21
-5.739703 15.741553 54.461651 31 20 21
-5.727408 15.824984 54.344994 31 19 20
-5.715020 15.907651 54.227448 31 19 19
-5.702636 15.989824 54.109943 31 19 19
-5.690352 16.071774 53.993389 31 20 19
-5.678256 16.153753 53.878613 31 20 19
-5.666425 16.235996 53.766346 31 21 19
-5.654927 16.318718 53.657249 32 22 19
-5.643821 16.402109 53.551868 32 22 19
-5.633154 16.486332 53.450661 32 22 19
-5.622966 16.571526 53.353985 31 22 18
-5.613283 16.657804 53.262108 31 22 19
-5.604129 16.745266 53.175247 32 21 20
-5.595519 16.833992 53.093548 32 21 21
-5.587466 16.924051 53.017139 32 22 22
-5.579978 17.015507 52.946095 32 22 22
-5.573064 17.108414 52.880486 31 22 22
-5.566727 17.202824 52.820358 32 22 22
-5.560971 17.298780 52.765736 32 23 22
-5.555797 17.396324 52.716644 32 23 21
-5.551205 17.495493 52.673077 33 23 20
-5.547190 17.596302 52.634979 33 23 20
-5.543742 17.698757 52.602264 32 23 20
-5.540845 17.802843 52.574776 33 22 19
-5.538476 17.908514 52.552292 33 22 19
-5.536602 18.015701 52.534512 33 22 18
-5.535184 18.124306 52.521057 33 21 18
-5.534173 18.234192 52.511463 33 22 19
-5.533512 18.345198 52.505196 34 22 19
-5.533137 18.457130 52.501637 35 22 20
-5.532976 18.569767 52.500111 35 22 21
-5.532953 18.682861 52.499889 35 22 22
