ply
format ascii 1.0
element vertex 1213
property float x
property float y
property float z
property uchar red
property uchar green
property uchar blue
end_header
-14.262717 3.576408 44.738701 28 19 17
-14.251178 3.669878 44.702503 28 19 16
-14.239659 3.763197 44.666374 27 18 16
-14.228225 3.856384 44.630505 27 18 16
-14.216939 3.949457 44.595104 28 19 16
-14.205862 4.042437 44.560360 28 19 17
-14.195050 4.135345 44.526447 29 19 17
-14.184554 4.228199 44.493523 29 19 18
-14.174417 4.321022 44.461723 29 19 18
-14.164675 4.413831 44.431168 29 19 19
-14.155356 4.506643 44.401936 28 19 18
-14.146478 4.599472 44.374084 27 18 17
-14.138049 4.692330 44.347649 27 19 18
-14.130073 4.785227 44.322624 27 19 18
-14.122539 4.878170 44.298992 27 19 18
-14.115431 4.971160 44.276699 28 19 18
-14.108725 5.064198 44.255661 28 19 18
-14.102387 5.157281 44.235786 28 18 18
-14.096383 5.250402 44.216949 28 18 18
-14.090671 5.343553 44.199032 28 17 18
-14.085201 5.436720 44.181877 28 17 17
-14.079931 5.529891 44.165344 27 17 18
-14.074812 5.623052 44.149288 27 18 19
-14.069798 5.716186 44.133560 27 18 19
-14.064851 5.809279 44.118042 27 18 19
-14.059933 5.902318 44.102615 27 18 19
-14.055015 5.995291 44.087189 27 18 19
-14.050077 6.088189 44.071701 26 17 19
-14.045108 6.181005 44.056110 27 17 18
-14.040100 6.273738 44.040401 26 17 18
-14.035059 6.366387 44.024590 25 18 17
-14.029995 6.458958 44.008705 25 18 17
-14.024926 6.551458 43.992805 25 18 17
-14.019871 6.643896 43.976948 24 18 17
-14.014852 6.736283 43.961205 24 17 17
-14.009893 6.828632 43.945652 23 17 17
-14.005019 6.920956 43.930367 23 16 17
-14.000249 7.013265 43.915401 24 17 18
-13.995599 7.105571 43.900814 25 17 18
-13.991081 7.197882 43.886642 26 17 18
-13.986704 7.290205 43.872913 26 16 18
-13.982468 7.382544 43.859623 26 16 18
-13.978369 7.474899 43.846767 26 16 17
-13.974401 7.567269 43.834320 26 16 17
-13.970551 7.659650 43.822247 26 16 16
-13.966800 7.752034 43.810478 26 17 16
-13.963128 7.844412 43.798962 26 17 16
-13.959512 7.936772 43.787617 26 17 15
-13.955925 8.029099 43.776367 26 17 15
-13.952341 8.121381 43.765125 25 17 15
-13.948735 8.213600 43.753815 25 16 15
-13.945083 8.305743 43.742359 24 16 14
-13.941363 8.397797 43.730690 24 17 14
-13.937558 8.489747 43.718754 23 17 15
-13.933661 8.581590 43.706532 23 17 16
-13.929669 8.673321 43.694008 24 17 15
-13.925594 8.764946 43.681225 24 16 15
-13.921458 8.856477 43.668255 24 16 15
-13.917296 8.947935 43.655201 23 15 15
-13.913157 9.039351 43.642216 24 15 14
-13.909103 9.130768 43.629498 23 15 14
-13.905206 9.222234 43.617271 23 15 14
-13.901552 9.313809 43.605812 23 16 14
-13.898225 9.405558 43.595379 22 17 15
-13.895329 9.497556 43.586296 23 17 15
-13.892960 9.589877 43.578861 23 17 15
-13.891210 9.682599 43.573372 23 17 15
-13.890170 9.775796 43.570110 23 17 14
-13.889917 9.869539 43.569317 23 17 14
-13.890517 9.963890 43.571198 23 16 14
-13.892018 10.058903 43.575909 23 17 14
-13.894455 10.154617 43.583549 23 17 15
-13.897838 10.251064 43.594162 23 17 15
-13.902160 10.348256 43.607719 23 17 15
-13.907394 10.446191 43.624138 23 16 16
-13.913490 10.544850 43.643261 24 16 16
-13.920382 10.644200 43.664879 23 16 16
-13.927984 10.744191 43.688725 23 16 16
-13.936189 10.844754 43.714458 22 16 15
-13.944872 10.945804 43.741699 22 16 13
-13.953898 11.047242 43.770008 21 15 12
-13.963109 11.148950 43.798901 21 15 13
-13.972337 11.250796 43.827847 21 16 13
-13.981404 11.352637 43.856293 21 16 14
-13.990122 11.454313 43.883636 21 16 16
-13.998299 11.555662 43.909283 21 16 16
-14.005744 11.656512 43.932640 21 16 16
-14.012277 11.756698 43.953129 21 16 16
-14.017730 11.856057 43.970234 21 16 16
-14.021955 11.954444 43.983486 20 16 16
-14.024837 12.051735 43.992527 19 15 15
-14.026297 12.147832 43.997108 19 15 15
-14.026300 12.242679 43.997120 19 15 15
-14.024863 12.336257 43.992611 20 15 15
-14.022048 12.428595 43.983780 20 15 15
-14.017973 12.519770 43.970997 20 15 15
-14.012806 12.609907 43.954792 20 15 15
-14.006762 12.699178 43.935829 21 15 15
-14.000089 12.787793 43.914898 21 16 16
-13.993067 12.875998 43.892872 21 16 16
-13.985996 12.964062 43.870693 21 16 15
-13.979180 13.052269 43.849312 22 17 15
-13.972922 13.140908 43.829685 22 17 15
-13.967508 13.230262 43.812702 21 17 15
-13.963202 13.320599 43.799194 21 16 14
-13.960237 13.412167 43.789890 20 15 13
-13.958811 13.505182 43.785419 20 14 13
-13.959082 13.599833 43.786270 21 14 13
-13.961174 13.696275 43.792831 22 15 14
-13.965171 13.794625 43.805370 22 16 14
-16.645847 -4.636722 52.569469 15 12 11
-16.593287 -4.509117 52.403473 16 12 11
-16.540531 -4.382175 52.236866 16 11 11
-16.487694 -4.255932 52.070004 15 10 10
-16.434893 -4.130416 51.903252 15 9 10
-16.382235 -4.005655 51.736950 15 9 10
-16.329828 -3.881670 51.571442 15 9 10
-16.277769 -3.758479 51.407036 15 10 11
-16.226149 -3.636095 51.244011 16 11 12
-16.175045 -3.514527 51.082623 17 12 12
-16.124516 -3.393775 50.923046 18 13 13
-16.074612 -3.273838 50.765438 18 14 13
-16.025366 -3.154711 50.609917 17 13 11
-15.976800 -3.036383 50.456539 16 12 10
-15.928917 -2.918841 50.305321 16 12 10
-15.881698 -2.802069 50.156197 16 13 11
-15.835118 -2.686048 50.009094 17 13 11
-15.789136 -2.570758 49.863876 18 14 12
-15.743693 -2.456179 49.720364 18 14 13
-15.698725 -2.342289 49.578350 18 14 13
-15.654157 -2.229069 49.437599 17 14 12
-15.609913 -2.116499 49.297871 17 14 12
-15.565908 -2.004563 49.158901 17 13 11
-15.522072 -1.893246 49.020458 17 12 11
-15.478328 -1.782537 48.882309 17 13 11
-15.434609 -1.672426 48.744244 18 14 12
-15.390873 -1.562908 48.606117 17 13 12
-15.347086 -1.453982 48.467831 17 14 12
-15.303241 -1.345646 48.329365 18 14 12
-15.259350 -1.237903 48.190754 18 14 12
-15.215453 -1.130758 48.052120 19 15 13
-15.171612 -1.024214 47.913666 19 14 12
-15.127909 -0.918276 47.775646 19 13 12
-15.084449 -0.812945 47.638393 19 13 11
-15.041348 -0.708224 47.502277 20 13 11
-14.998735 -0.604108 47.367702 20 13 11
-14.956747 -0.500594 47.235096 20 13 11
-14.915514 -0.397672 47.104881 20 14 11
-14.875169 -0.295329 46.977467 21 14 11
-14.835835 -0.193548 46.853245 21 15 12
-14.797624 -0.092310 46.732567 21 15 13
-14.760625 0.008409 46.615723 22 16 13
-14.724922 0.108633 46.502968 22 16 14
-14.690578 0.208391 46.394508 22 16 15
-14.657640 0.307710 46.290482 22 16 15
-14.626139 0.406621 46.190998 22 16 15
-14.596096 0.505154 46.096123 22 15 15
-14.567517 0.603338 46.005867 22 15 15
-14.540401 0.701203 45.920231 22 15 15
-14.514731 0.798779 45.839161 22 15 15
-14.490490 0.896094 45.762608 22 16 16
-14.467653 0.993175 45.690487 22 16 16
-14.446188 1.090048 45.622696 21 16 16
-14.426055 1.186739 45.559113 21 17 16
-14.407209 1.283271 45.499596 21 17 16
-14.389603 1.379664 45.443993 22 17 16
-14.373174 1.475939 45.392109 22 17 16
-14.357856 1.572112 45.343731 23 18 16
-14.343574 1.668197 45.298630 23 18 16
-14.330246 1.764205 45.256538 23 18 16
-14.317780 1.860143 45.217171 24 18 16
-14.306075 1.956016 45.180202 25 18 16
-14.295027 2.051823 45.145313 26 17 17
-14.284527 2.147563 45.112152 26 17 17
-14.274466 2.243228 45.080376 25 18 15
-14.264732 2.338810 45.049637 25 18 14
-14.255219 2.434298 45.019596 25 18 14
-14.245829 2.529677 44.989937 24 18 15
-14.236465 2.624934 44.960365 24 18 15
-14.227050 2.720053 44.930634 25 17 15
-14.217514 2.815021 44.900517 25 17 16
-14.207807 2.909823 44.869862 26 17 17
-14.197891 3.004449 44.838547 27 17 17
-14.187745 3.098889 44.806503 27 17 17
-14.177367 3.193140 44.773727 27 17 17
-14.166768 3.287197 44.740257 27 18 16
-14.155974 3.381064 44.706169 28 18 16
-14.145024 3.474746 44.671585 28 19 17
-14.133965 3.568251 44.636662 28 19 17
-14.122852 3.661591 44.601566 29 19 16
-14.111748 3.754782 44.566494 28 19 16
-14.100713 3.847842 44.531643 28 19 16
-14.089811 3.940788 44.497219 28 19 16
-14.079106 4.033642 44.463409 28 19 17
-14.068654 4.126424 44.430401 29 19 17
-14.058505 4.219155 44.398350 29 19 18
-14.048708 4.311856 44.367409 28 19 18
-14.039298 4.404545 44.337692 28 19 18
-14.030305 4.497240 44.309292 28 19 18
-14.021751 4.589956 44.282276 28 19 18
-14.013647 4.682705 44.256680 28 19 18
-14.005997 4.775499 44.232521 28 19 19
-13.998794 4.868345 44.209774 28 19 19
-13.992023 4.961246 44.188389 28 19 19
-13.985662 5.054202 44.168301 28 19 19
-13.979680 5.147212 44.149410 29 19 19
-13.974044 5.240269 44.131611 29 18 18
-13.968710 5.333365 44.114765 29 18 18
-13.963636 5.426490 44.098743 29 18 18
-13.958776 5.519630 44.083393 29 18 18
-13.954082 5.612772 44.068573 28 18 19
-13.949514 5.705900 44.054146 28 18 19
-13.945028 5.799000 44.039978 28 18 19
-13.940591 5.892060 44.025963 27 17 19
-13.936173 5.985068 44.012012 27 18 19
-13.931754 6.078015 43.998055 26 17 18
-13.927322 6.170897 43.984058 26 18 17
-13.922870 6.263708 43.969997 25 18 17
-13.918399 6.356451 43.955879 25 18 17
-13.913919 6.449129 43.941730 25 18 17
-13.909444 6.541747 43.927597 25 18 17
-13.904988 6.634315 43.913525 24 18 17
-13.900574 6.726841 43.899582 24 18 17
-13.896215 6.819335 43.885818 24 17 17
-13.891935 6.911808 43.872303 24 17 18
-13.887746 7.004269 43.859070 25 17 18
-13.883658 7.096725 43.846165 26 17 19
-13.879683 7.189184 43.833607 26 17 18
-13.875818 7.281646 43.821404 26 16 18
-13.872066 7.374115 43.809551 26 16 17
-13.868418 7.466590 43.798031 26 16 17
-13.864864 7.559067 43.786808 26 17 17
-13.861392 7.651539 43.775845 26 17 17
-13.857983 7.744000 43.765076 26 17 16
-13.854616 7.836439 43.754444 26 17 15
-13.851273 7.928845 43.743885 26 17 15
-13.847927 8.021204 43.733322 26 17 15
-13.844558 8.113504 43.722679 25 17 15
-13.841143 8.205730 43.711895 25 16 15
-13.837663 8.297872 43.700901 25 16 15
-13.834101 8.389915 43.689655 24 16 14
-13.830444 8.481854 43.678108 24 17 15
-13.826690 8.573681 43.666252 24 17 15
-13.822843 8.665399 43.654099 24 16 15
-13.818916 8.757014 43.641701 24 16 15
-13.814936 8.848542 43.629131 24 16 15
-13.810940 8.940004 43.616508 24 15 14
-13.806979 9.031437 43.604004 24 15 14
-13.803119 9.122881 43.591812 24 15 14
-13.799433 9.214388 43.580170 24 15 14
-13.796005 9.306021 43.569344 23 16 14
-13.792923 9.397841 43.559608 23 17 14
-13.790285 9.489925 43.551277 23 17 14
-13.788187 9.582350 43.544655 24 18 14
-13.786724 9.675190 43.540031 24 18 14
-13.785978 9.768520 43.537678 24 18 14
-13.786029 9.862409 43.537838 24 17 14
-13.786936 9.956917 43.540703 24 18 14
-13.788748 10.052096 43.546425 24 18 15
-13.791492 10.147987 43.555092 24 18 15
-13.795179 10.244616 43.566738 23 18 16
-13.799802 10.341995 43.581337 24 18 16
-13.805327 10.440120 43.598785 24 17 16
-13.811707 10.538973 43.618935 24 16 16
-13.818875 10.638518 43.641571 23 16 16
-13.826742 10.738706 43.666416 22 15 15
-13.835205 10.839466 43.693142 22 15 15
-13.844144 10.940718 43.721371 22 15 13
-13.853420 11.042360 43.750668 21 14 12
-13.862884 11.144279 43.780556 21 15 12
-13.872374 11.246348 43.810524 21 15 13
-13.881711 11.348424 43.840015 21 15 14
-13.890718 11.450352 43.868458 21 16 15
-13.899209 11.551974 43.895275 21 16 16
-13.906997 11.653124 43.919868 21 16 16
-13.913909 11.753639 43.941700 21 16 16
-13.919781 11.853362 43.960239 21 16 16
-13.924469 11.952150 43.975048 20 15 15
-13.927862 12.049882 43.985764 20 15 15
-13.929883 12.146462 43.992146 19 15 15
-13.930496 12.241834 43.994083 19 15 15
-13.929714 12.335977 43.991611 20 15 15
-13.927597 12.428919 43.984924 20 15 15
-13.924255 12.520731 43.974373 20 15 15
-13.919852 12.611535 43.960468 20 15 15
-13.914591 12.701496 43.943851 20 15 15
-13.908711 12.790818 43.925282 20 15 15
-13.902485 12.879737 43.905617 20 15 15
-13.896195 12.968513 43.885757 21 15 14
-13.890141 13.057425 43.866638 22 16 15
-13.884611 13.146750 43.849171 23 17 16
-13.879883 13.236765 43.834240 22 17 15
-13.876210 13.327729 43.822639 22 16 15
-13.873821 13.419887 43.815098 21 15 14
-13.872904 13.513443 43.812199 21 14 13
-13.873616 13.608586 43.814449 21 14 13
-13.876074 13.705462 43.822208 22 15 14
-13.880361 13.804192 43.835747 23 16 14
-13.886522 13.904857 43.855209 23 16 14
-16.559294 -4.871240 52.654587 14 11 12
-16.508514 -4.743145 52.493118 15 12 11
-16.457336 -4.615634 52.330383 15 12 11
-16.405859 -4.488743 52.166698 15 11 11
-16.354189 -4.362506 52.002403 15 11 11
-16.302439 -4.236957 51.837849 15 11 10
-16.250723 -4.112125 51.673401 15 10 10
-16.199146 -3.988038 51.509403 15 9 10
-16.147818 -3.864716 51.346191 15 9 10
-16.096832 -3.742177 51.184067 16 10 11
-16.046274 -3.620435 51.023308 17 11 12
-15.996222 -3.499496 50.864155 18 12 12
-15.946731 -3.379362 50.706783 18 13 13
-15.897849 -3.260031 50.551350 18 14 13
-15.849607 -3.141498 50.397953 18 13 12
-15.802025 -3.023752 50.246651 17 12 11
-15.755104 -2.906780 50.097454 17 12 10
-15.708825 -2.790566 49.950298 17 13 10
-15.663162 -2.675091 49.805099 17 13 11
-15.618072 -2.560336 49.661724 17 14 12
-15.573500 -2.446281 49.519997 17 14 12
-15.529379 -2.332905 49.379704 17 14 12
-15.485641 -2.220188 49.240627 17 14 12
-15.442207 -2.108112 49.102516 16 13 11
-15.399003 -1.996662 48.965137 16 13 11
-15.355951 -1.885823 48.828247 16 12 11
-15.312987 -1.775583 48.691628 17 13 12
-15.270047 -1.665936 48.555092 17 13 11
-15.227090 -1.556875 48.418499 18 13 12
-15.184090 -1.448400 48.281765 18 14 12
-15.141040 -1.340509 48.144878 18 14 12
-15.097958 -1.233206 48.007889 19 14 12
-15.054888 -1.126495 47.870937 19 14 13
-15.011892 -1.020378 47.734219 20 14 13
-14.969059 -0.914862 47.598022 20 13 12
-14.926488 -0.809946 47.462654 20 13 12
-14.884299 -0.705633 47.328503 20 13 12
-14.842621 -0.601918 47.195976 20 13 12
-14.801583 -0.498797 47.065487 20 13 11
-14.761317 -0.396259 46.937454 20 14 11
-14.721951 -0.294290 46.812279 21 15 11
-14.683604 -0.192875 46.690342 22 15 12
-14.646382 -0.091993 46.571983 22 16 12
-14.610371 0.008380 46.457478 23 16 13
-14.575647 0.108269 46.347065 23 17 14
-14.542269 0.207701 46.240929 23 17 15
-14.510280 0.306705 46.139210 23 17 16
-14.479706 0.405309 46.041992 23 16 16
-14.450563 0.503545 45.949329 23 16 16
-14.422854 0.601441 45.861221 23 15 16
-14.396574 0.699026 45.777653 23 15 15
-14.371705 0.796329 45.698578 23 15 15
-14.348228 0.893378 45.623928 22 15 16
-14.326119 0.990200 45.553627 22 16 15
-14.305345 1.086820 45.487568 21 16 16
-14.285866 1.183262 45.425629 21 17 16
-14.267643 1.279550 45.367683 22 17 16
-14.250624 1.375705 45.313568 22 17 16
-14.234755 1.471745 45.263107 22 17 16
-14.219972 1.567687 45.216103 23 18 16
-14.206203 1.663545 45.172318 23 18 16
-14.193367 1.759331 45.131504 24 18 16
-14.181377 1.855051 45.093384 25 18 16
-14.170138 1.950710 45.057644 25 18 16
-14.159546 2.046308 45.023964 26 17 17
-14.149496 2.141843 44.992004 26 17 17
-14.139880 2.237309 44.961430 26 18 15
-14.130591 2.332697 44.931892 25 18 15
-14.121520 2.427996 44.903049 25 18 15
-14.112571 2.523191 44.874592 25 18 15
-14.103650 2.618270 44.846226 24 17 15
-14.094676 2.713216 44.817692 25 18 16
-14.085582 2.808015 44.788776 26 18 16
-14.076317 2.902654 44.759312 26 18 17
-14.066840 2.997121 44.729179 27 18 17
-14.057130 3.091406 44.698303 27 18 17
-14.047183 3.185505 44.666676 28 18 16
-14.037009 3.279414 44.634327 28 18 16
-14.026634 3.373136 44.601337 28 19 16
-14.016093 3.466674 44.567818 29 19 16
-14.005434 3.560038 44.533924 29 20 16
-13.994710 3.653239 44.499825 29 20 16
-13.983983 3.746292 44.465714 29 19 15
-13.973314 3.839213 44.431793 28 19 15
-13.962770 3.932024 44.398262 28 19 15
-13.952410 4.024743 44.365318 28 19 16
-13.942295 4.117393 44.333157 28 19 17
-13.932476 4.209993 44.301933 28 19 18
-13.923001 4.302565 44.271805 28 19 18
-13.913908 4.395128 44.242893 28 19 18
-13.905233 4.487701 44.215309 28 19 18
-13.896996 4.580299 44.189117 28 20 18
-13.889213 4.672937 44.164368 28 20 18
-13.881886 4.765626 44.141071 28 20 19
-13.875012 4.858372 44.119213 28 20 19
-13.868581 4.951182 44.098763 28 20 19
-13.862570 5.044057 44.079651 28 20 19
-13.856951 5.136995 44.061783 29 19 19
-13.851688 5.229990 44.045048 29 19 19
-13.846745 5.323037 44.029335 29 19 19
-13.842077 5.416122 44.014488 29 19 18
-13.837640 5.509236 44.000378 29 19 19
-13.833389 5.602365 43.986862 29 19 19
-13.829280 5.695493 43.973797 28 18 19
-13.825274 5.788609 43.961060 28 18 19
-13.821337 5.881699 43.948540 27 17 18
-13.817440 5.974751 43.936146 26 18 18
-13.813561 6.067760 43.923817 26 18 17
-13.809689 6.160717 43.911499 25 18 16
-13.805813 6.253619 43.899174 25 18 16
-13.801935 6.346468 43.886845 24 18 16
-13.798061 6.439265 43.874527 24 18 16
-13.794200 6.532016 43.862251 24 18 17
-13.790366 6.624726 43.850060 24 18 17
-13.786573 6.717404 43.837997 24 18 17
-13.782833 6.810056 43.826107 24 18 17
-13.779161 6.902691 43.814430 25 17 18
-13.775566 6.995315 43.803001 25 17 19
-13.772055 7.087932 43.791832 26 17 19
-13.768628 7.180545 43.780937 27 17 18
-13.765286 7.273157 43.770313 26 17 18
-13.762024 7.365764 43.759937 26 17 17
-13.758829 7.458364 43.749779 26 17 17
-13.755692 7.550952 43.739807 26 17 17
-13.752599 7.643521 43.729969 26 17 17
-13.749531 7.736062 43.720211 26 18 16
-13.746468 7.828564 43.710472 26 18 15
-13.743393 7.921016 43.700695 26 17 15
-13.740284 8.013408 43.690811 26 17 15
-13.737123 8.105725 43.680759 26 17 16
-13.733893 8.197958 43.670490 25 17 15
-13.730576 8.290094 43.659943 25 17 15
-13.727164 8.382127 43.649094 24 16 14
-13.723647 8.474048 43.637909 24 16 14
-13.720027 8.565856 43.626400 24 16 14
-13.716312 8.657556 43.614586 24 16 14
-13.712522 8.749155 43.602531 24 15 14
-13.708685 8.840673 43.590332 24 15 14
-13.704843 8.932135 43.578114 24 15 14
-13.701047 9.023575 43.566048 24 15 14
-13.697366 9.115039 43.554340 24 15 15
-13.693873 9.206579 43.543236 24 15 15
-13.690657 9.298259 43.533009 24 16 14
-13.687799 9.390141 43.523918 23 17 14
-13.685401 9.482303 43.516296 24 17 14
-13.683557 9.574819 43.510429 24 18 13
-13.682356 9.667764 43.506611 24 18 14
-13.681882 9.761211 43.505104 24 18 14
-13.682210 9.855230 43.506149 24 18 14
-13.683398 9.949879 43.509926 24 19 15
-13.685492 10.045208 43.516582 24 19 15
-13.688517 10.141256 43.526203 24 19 16
-13.692480 10.238048 43.538803 24 19 16
-13.697371 10.335593 43.554356 24 19 17
-13.703158 10.433888 43.572758 24 18 17
-13.709791 10.532912 43.593849 23 17 16
-13.717201 10.632629 43.617413 22 15 15
-13.725305 10.732991 43.643181 22 15 15
-13.733995 10.833926 43.670815 22 15 14
-13.743156 10.935356 43.699944 21 14 13
-13.752654 11.037180 43.730145 21 14 13
-13.762341 11.139289 43.760948 20 14 12
-13.772060 11.241555 43.791851 20 14 12
-13.781641 11.343843 43.822315 20 14 13
-13.790907 11.445999 43.851780 20 14 14
-13.799681 11.547870 43.879677 21 15 15
-13.807781 11.649295 43.905437 21 15 15
-13.815039 11.750113 43.928513 21 15 15
-13.821297 11.850173 43.948414 21 15 15
-13.826416 11.949335 43.964691 21 15 15
-13.830286 12.047480 43.976997 20 15 14
-13.832832 12.144515 43.985092 20 16 15
-13.834019 12.240381 43.988865 20 15 15
-13.833855 12.335060 43.988342 20 15 15
-13.832398 12.428576 43.983711 20 15 15
-13.829757 12.520998 43.975311 21 15 14
-13.826081 12.612441 43.963627 21 14 14
-13.821569 12.703065 43.949280 21 15 15
-13.816452 12.793067 43.933006 21 15 15
-13.810989 12.882675 43.915634 21 14 14
-13.805456 12.972144 43.898041 21 14 14
-13.800139 13.061742 43.881138 22 16 15
-13.795319 13.151738 43.865807 23 17 16
-13.791261 13.242401 43.852901 23 16 15
-13.788213 13.333986 43.843212 22 16 15
-13.786393 13.426725 43.837425 22 15 14
-13.785986 13.520824 43.836132 22 14 14
-13.787143 13.616463 43.839809 22 14 13
-13.789975 13.713783 43.848816 22 15 14
-13.794566 13.812903 43.863415 23 16 14
-13.800959 13.913904 43.883743 23 15 14
-13.809177 14.016845 43.909874 23 16 14
-16.419661 -4.976827 52.570934 15 10 12
-16.370420 -4.848917 52.413284 15 10 11
-16.320698 -4.721546 52.254082 15 11 11
-16.270580 -4.594751 52.093620 15 11 11
-16.220165 -4.468566 51.932209 15 11 11
-16.169563 -4.343026 51.770195 15 11 11
-16.118879 -4.218163 51.607922 15 11 10
-16.068230 -4.094009 51.445751 15 11 11
-16.017717 -3.970588 51.284027 15 11 11
-15.967448 -3.847923 51.123081 15 10 12
-15.917515 -3.726030 50.963211 16 10 12
-15.867999 -3.604922 50.804676 17 11 12
-15.818976 -3.484605 50.647720 17 12 12
-15.770500 -3.365082 50.492512 18 13 13
-15.722614 -3.246350 50.339195 18 13 13
-15.675348 -3.128402 50.187862 18 13 12
-15.628720 -3.011230 50.038574 17 13 11
-15.582729 -2.894820 49.891323 17 13 10
-15.537357 -2.779156 49.746059 17 13 10
-15.492575 -2.664219 49.602676 17 13 11
-15.448341 -2.549991 49.461056 17 14 11
-15.404604 -2.436452 49.321018 17 14 11
-15.361295 -2.323581 49.182354 17 13 11
-15.318347 -2.211361 49.044849 16 13 11
-15.275688 -2.099773 48.908268 16 12 11
-15.233245 -1.988802 48.772381 16 12 11
-15.190947 -1.878434 48.636951 16 12 11
-15.148727 -1.768660 48.501778 17 12 11
-15.106534 -1.659472 48.366684 17 13 11
-15.064324 -1.550864 48.231544 18 13 12
-15.022081 -1.442836 48.096294 18 14 12
-14.979801 -1.335387 47.960926 19 14 12
-14.937507 -1.228521 47.825512 19 15 12
-14.895243 -1.122241 47.690193 20 15 13
-14.853077 -1.016551 47.555191 21 15 13
-14.811093 -0.911455 47.420773 21 14 13
-14.769401 -0.806954 47.287285 21 14 13
-14.728112 -0.703047 47.155094 21 14 13
-14.687356 -0.599733 47.024601 20 14 12
-14.647262 -0.497003 46.896233 20 14 12
-14.607957 -0.394848 46.770390 21 14 11
-14.569564 -0.293254 46.647469 21 15 11
-14.532200 -0.192204 46.527840 22 16 12
-14.495962 -0.091676 46.411816 23 16 13
-14.460937 0.008352 46.299675 24 17 14
-14.427192 0.107906 46.191631 24 17 15
-14.394780 0.207013 46.087860 24 18 15
-14.363740 0.305703 45.988476 24 18 16
-14.334094 0.404003 45.893559 24 17 16
-14.305853 0.501943 45.803143 23 17 16
-14.279017 0.599552 45.717220 23 16 16
-14.253576 0.696859 45.635769 23 15 16
-14.229516 0.793892 45.558735 23 15 16
-14.206811 0.890678 45.486038 22 15 16
-14.185434 0.987243 45.417595 22 16 15
-14.165359 1.083612 45.353321 21 16 16
-14.146542 1.179809 45.293076 21 17 16
-14.128945 1.275857 45.236736 22 17 16
-14.112523 1.371776 45.184155 22 17 16
-14.097220 1.467585 45.135162 23 17 16
-14.082975 1.563300 45.089554 23 18 16
-14.069720 1.658934 45.047112 24 18 16
-14.057379 1.754501 45.007599 25 18 17
-14.045864 1.850005 44.970734 26 18 17
-14.035086 1.945453 44.936222 26 18 16
-14.024940 2.040844 44.903744 26 18 16
-14.015327 2.136176 44.872963 26 18 16
-14.006143 2.231444 44.843555 26 18 15
-13.997276 2.326638 44.815170 25 18 15
-13.988625 2.421746 44.787468 25 18 15
-13.980089 2.516756 44.760139 25 18 15
-13.971580 2.611653 44.732895 24 17 15
-13.963015 2.706422 44.705475 25 18 16
-13.954326 2.801048 44.677654 26 18 16
-13.945461 2.895518 44.649273 26 18 17
-13.936382 2.989819 44.620205 27 18 18
-13.927065 3.083942 44.590374 27 18 17
-13.917507 3.177881 44.559772 28 18 16
-13.907715 3.271633 44.528419 28 19 16
-13.897716 3.365200 44.496403 29 19 16
-13.887542 3.458586 44.463833 29 20 17
-13.877242 3.551799 44.430855 29 20 16
-13.866871 3.644850 44.397648 29 20 15
-13.856487 3.737756 44.364403 29 20 14
-13.846155 3.830532 44.331322 29 19 14
-13.835938 3.923198 44.298611 28 19 15
-13.825900 4.015776 44.266472 28 19 16
-13.816099 4.108285 44.235092 28 19 16
-13.806592 4.200748 44.204655 28 19 17
-13.797425 4.293187 44.175304 28 19 17
-13.788641 4.385620 44.147179 28 19 17
-13.780273 4.478067 44.120392 29 20 17
-13.772347 4.570546 44.095013 29 20 18
-13.764878 4.663069 44.071098 29 20 18
-13.757874 4.755651 44.048676 29 20 18
-13.751331 4.848298 44.027729 28 20 18
-13.745240 4.941017 44.008224 28 20 19
-13.739582 5.033811 43.990108 28 20 19
-13.734328 5.126678 43.973286 28 20 19
-13.729448 5.219614 43.957661 28 20 19
-13.724901 5.312612 43.943104 29 20 19
-13.720647 5.405663 43.929485 29 19 19
-13.716642 5.498754 43.916660 29 19 19
-13.712844 5.591875 43.904499 29 19 19
-13.709208 5.685010 43.892857 28 18 19
-13.705695 5.778147 43.881611 28 18 18
-13.702272 5.871275 43.870651 27 17 18
-13.698911 5.964381 43.859890 26 18 17
-13.695589 6.057459 43.849255 25 18 16
-13.692290 6.150502 43.838696 25 18 16
-13.689008 6.243506 43.828182 24 19 15
-13.685739 6.336472 43.817719 24 19 15
-13.682487 6.429399 43.807304 24 18 16
-13.679255 6.522292 43.796959 24 18 16
-13.676056 6.615157 43.786716 23 18 16
-13.672896 6.707996 43.776600 24 18 17
-13.669786 6.800816 43.766644 25 18 17
-13.666732 6.893621 43.756863 26 17 18
-13.663739 6.986416 43.747280 26 17 19
-13.660809 7.079202 43.737900 27 17 19
-13.657937 7.171978 43.728706 27 18 18
-13.655120 7.264744 43.719685 27 18 17
-13.652347 7.357495 43.710808 26 17 17
-13.649607 7.450225 43.702034 26 17 17
-13.646885 7.542927 43.693317 26 18 16
-13.644167 7.635594 43.684616 26 18 16
-13.641434 7.728215 43.675865 26 18 16
-13.638669 7.820780 43.667015 26 18 15
-13.635857 7.913280 43.658009 26 18 15
-13.632977 8.005700 43.648792 25 17 16
-13.630017 8.098034 43.639313 25 17 16
-13.626963 8.190269 43.629532 25 17 16
-13.623804 8.282400 43.619419 25 17 16
-13.620532 8.374416 43.608944 24 17 15
-13.617146 8.466318 43.598106 24 16 14
-13.613653 8.558105 43.586922 24 16 13
-13.610063 8.649782 43.575424 25 15 14
-13.606401 8.741364 43.563702 25 15 14
-13.602699 8.832868 43.551849 25 15 14
-13.599002 8.924325 43.540012 25 15 15
-13.595364 9.015770 43.528362 24 15 15
-13.591855 9.107251 43.517128 24 15 15
-13.588548 9.198821 43.506542 24 15 15
-13.585531 9.290544 43.496883 24 16 14
-13.582890 9.382483 43.488422 23 17 13
-13.580720 9.474716 43.481476 24 17 13
-13.579115 9.567317 43.476337 24 18 13
-13.578163 9.660360 43.473293 24 18 14
-13.577948 9.753919 43.472603 24 18 14
-13.578537 9.848059 43.474491 24 19 15
-13.579988 9.942838 43.479137 24 19 15
-13.582345 10.038305 43.486683 24 19 15
-13.585629 10.134498 43.497192 23 19 16
-13.589845 10.231438 43.510693 24 20 17
-13.594982 10.329134 43.527142 25 20 18
-13.601007 10.427583 43.546429 24 19 18
-13.607866 10.526761 43.568390 23 17 17
-13.615495 10.626635 43.592819 22 15 15
-13.623805 10.727149 43.619423 21 14 15
-13.632697 10.828240 43.647896 21 14 14
-13.642055 10.929828 43.677853 21 14 13
-13.651746 11.031814 43.708881 21 14 13
-13.661629 11.134090 43.740524 20 15 13
-13.671549 11.236533 43.772285 19 14 12
-13.681341 11.339007 43.803638 19 14 12
-13.690839 11.441370 43.834045 20 14 13
-13.699864 11.543467 43.862942 21 15 14
-13.708246 11.645141 43.889778 22 15 15
-13.715817 11.746236 43.914021 22 16 15
-13.722428 11.846607 43.935184 22 16 15
-13.727943 11.946115 43.952843 21 16 15
-13.732255 12.044645 43.966648 21 16 14
-13.735289 12.142103 43.976360 21 16 15
-13.737008 12.238434 43.981869 21 15 14
-13.737424 12.333618 43.983200 21 15 14
-13.736589 12.427676 43.980526 21 15 15
-13.734607 12.520675 43.974178 21 14 14
-13.731621 12.612726 43.964619 21 14 14
-13.727820 12.703982 43.952450 21 15 14
-13.723430 12.794635 43.938393 21 15 14
-13.718698 12.884907 43.923241 21 14 14
-13.713890 12.975042 43.907848 21 15 14
-13.709282 13.065301 43.893093 22 16 14
-13.705146 13.155950 43.879852 22 16 15
-13.701738 13.247246 43.868942 22 15 14
-13.699300 13.339437 43.861134 22 15 14
-13.698041 13.432753 43.857105 23 15 15
-13.698138 13.527390 43.857418 23 15 15
-13.699739 13.623524 43.862545 23 15 14
-13.702954 13.721296 43.872837 23 15 14
-13.707860 13.820818 43.888546 23 15 14
-13.714502 13.922170 43.909813 23 16 14
-13.722903 14.025410 43.936707 23 16 14
-13.733054 14.130568 43.969208 23 16 14
-13.744935 14.237657 44.007244 22 16 14
-16.326508 -5.209914 52.635967 14 11 12
-16.279482 -5.081769 52.484356 15 10 12
-16.231833 -4.954087 52.330738 15 10 12
-16.183622 -4.826901 52.175312 15 10 11
-16.134932 -4.700244 52.018333 15 11 11
-16.085852 -4.574154 51.860104 15 11 11
-16.036482 -4.448666 51.700939 15 11 11
-15.986927 -4.323813 51.541176 15 11 11
-15.937292 -4.199628 51.381149 15 11 11
-15.887692 -4.076143 51.221245 15 12 11
-15.838226 -3.953380 51.061768 16 12 12
-15.789000 -3.831362 50.903061 16 12 13
-15.740099 -3.710106 50.745411 16 11 13
-15.691607 -3.589623 50.589073 17 11 13
-15.643590 -3.469920 50.434269 17 12 12
-15.596106 -3.350998 50.281181 18 12 12
-15.549191 -3.232854 50.129929 18 13 12
-15.502873 -3.115483 49.980606 18 13 11
-15.457169 -2.998875 49.833256 17 13 11
-15.412078 -2.883016 49.687885 17 13 10
-15.367579 -2.767891 49.544418 16 13 10
-15.323643 -2.653482 49.402771 16 13 10
-15.280230 -2.539770 49.262814 16 13 11
-15.237288 -2.426737 49.124367 16 13 11
-15.194754 -2.314363 48.987240 16 13 10
-15.152561 -2.202630 48.851215 17 12 11
-15.110640 -2.091521 48.716061 17 12 11
-15.068922 -1.981021 48.581562 17 12 11
-15.027338 -1.871117 48.447498 17 12 11
-14.985833 -1.761801 48.313690 17 13 12
-14.944350 -1.653065 48.179951 18 13 12
-14.902860 -1.544904 48.046188 18 13 12
-14.861346 -1.437318 47.912350 18 14 12
-14.819811 -1.330306 47.778442 19 15 12
-14.778279 -1.223873 47.644543 20 15 12
-14.736799 -1.118020 47.510815 21 16 13
-14.695442 -1.012753 47.377483 21 16 13
-14.654295 -0.908073 47.244823 21 16 13
-14.613461 -0.803983 47.113178 21 16 13
-14.573059 -0.700480 46.982925 21 15 13
-14.533213 -0.597563 46.854462 20 14 13
-14.494051 -0.495222 46.728203 20 14 13
-14.455695 -0.393448 46.604549 21 14 12
-14.418266 -0.292226 46.483879 22 15 11
-14.381875 -0.191538 46.366554 23 16 12
-14.346615 -0.091362 46.252876 24 17 13
-14.312565 0.008323 46.143101 25 18 14
-14.279791 0.107546 46.037437 26 19 15
-14.248340 0.206331 45.936043 26 19 16
-14.218243 0.304709 45.839012 26 19 16
-14.189519 0.402707 45.746407 25 19 17
-14.162177 0.500355 45.658257 24 18 17
-14.136211 0.597681 45.574543 24 17 17
-14.111609 0.694713 45.495232 24 16 16
-14.088353 0.791479 45.420250 23 15 17
-14.066419 0.888005 45.349533 22 15 17
-14.045777 0.984317 45.282990 21 15 16
-14.026398 1.080439 45.220512 21 16 16
-14.008245 1.176395 45.161991 21 16 16
-13.991280 1.272206 45.107292 22 16 16
-13.975453 1.367893 45.056267 22 17 16
-13.960715 1.463474 45.008755 23 17 16
-13.947009 1.558966 44.964565 23 17 16
-13.934266 1.654382 44.923481 25 17 16
-13.922414 1.749732 44.885269 26 18 17
-13.911370 1.845025 44.849667 26 19 17
-13.901041 1.940264 44.816364 26 19 16
-13.891334 2.035450 44.785069 26 18 16
-13.882144 2.130581 44.755440 26 18 16
-13.873370 2.225652 44.727158 26 18 15
-13.864905 2.320652 44.699867 26 18 16
-13.856647 2.415570 44.673241 25 18 15
-13.848497 2.510393 44.646969 25 18 15
-13.840367 2.605106 44.620758 25 18 16
-13.832176 2.699695 44.594349 25 18 16
-13.823854 2.794143 44.567520 26 18 17
-13.815352 2.888438 44.540108 26 19 17
-13.806629 2.982567 44.511986 27 19 17
-13.797665 3.076521 44.483086 28 19 17
-13.788451 3.170293 44.453381 28 19 17
-13.778998 3.263881 44.422905 29 20 17
-13.769333 3.357285 44.391747 29 20 17
-13.759488 3.450510 44.360008 29 20 17
-13.749513 3.543564 44.327843 29 20 17
-13.739457 3.636459 44.295425 29 20 15
-13.729386 3.729209 44.262959 29 20 14
-13.719360 3.821832 44.230637 29 19 14
-13.709447 3.914348 44.198673 28 19 15
-13.699709 4.006777 44.167278 28 19 16
-13.690206 4.099142 44.136639 28 19 16
-13.680993 4.191463 44.106941 28 19 16
-13.672123 4.283763 44.078342 28 19 17
-13.663636 4.376063 44.050983 29 19 17
-13.655570 4.468383 44.024979 29 20 17
-13.647950 4.560740 44.000412 30 20 17
-13.640793 4.653149 43.977337 30 21 18
-13.634109 4.745622 43.955788 29 21 18
-13.627896 4.838170 43.935757 29 21 18
-13.622147 4.930800 43.917221 28 21 18
-13.616841 5.023513 43.900120 28 21 19
-13.611956 5.116311 43.884369 27 20 19
-13.607458 5.209189 43.869865 27 20 19
-13.603312 5.302142 43.856503 27 20 19
-13.599477 5.395160 43.844135 28 19 19
-13.595909 5.488233 43.832634 28 19 18
-13.592568 5.581349 43.821861 28 19 18
-13.589411 5.674496 43.811684 28 18 18
-13.586399 5.767661 43.801975 28 18 18
-13.583498 5.860832 43.792622 27 18 18
-13.580681 5.953999 43.783539 26 18 17
-13.577924 6.047153 43.774651 25 19 16
-13.575212 6.140290 43.765907 25 19 16
-13.572531 6.233403 43.757263 25 19 15
-13.569881 6.326494 43.748718 24 19 15
-13.567258 6.419560 43.740261 24 19 15
-13.564666 6.512605 43.731907 24 18 15
-13.562107 6.605630 43.723660 24 18 16
-13.559589 6.698639 43.715542 25 18 16
-13.557113 6.791635 43.707554 26 18 17
-13.554680 6.884618 43.699715 27 18 18
-13.552292 6.977590 43.692013 27 18 18
-13.549943 7.070549 43.684441 27 18 18
-13.547625 7.163493 43.676968 27 18 18
-13.545330 7.256416 43.669567 27 18 17
-13.543043 7.349312 43.662193 26 17 17
-13.540751 7.442173 43.654804 26 18 16
-13.538437 7.534991 43.647346 26 18 16
-13.536087 7.627755 43.639771 26 19 16
-13.533682 7.720456 43.632015 26 19 16
-13.531208 7.813083 43.624039 26 19 16
-13.528648 7.905626 43.615788 26 18 16
-13.525990 7.998076 43.607220 25 17 16
-13.523223 8.090423 43.598297 25 17 17
-13.520336 8.182659 43.588989 25 17 17
-13.517325 8.274778 43.579281 25 17 16
-13.514188 8.366778 43.569168 25 17 15
-13.510928 8.458658 43.558659 25 16 15
-13.507553 8.550420 43.547779 25 16 14
-13.504084 8.642074 43.536591 25 15 14
-13.500546 8.733636 43.525188 25 15 15
-13.496976 8.825126 43.513676 25 15 15
-13.493421 8.916578 43.502216 25 15 16
-13.489938 9.008028 43.490986 25 15 16
-13.486596 9.099525 43.480213 24 15 16
-13.483474 9.191126 43.470146 24 15 15
-13.480655 9.282891 43.461060 24 16 14
-13.478225 9.374888 43.453224 23 16 13
-13.476280 9.467194 43.446957 24 17 13
-13.474911 9.559878 43.442539 24 18 13
-13.474203 9.653019 43.440258 24 18 14
-13.474236 9.746686 43.440365 24 18 14
-13.475079 9.840944 43.443081 24 18 14
-13.476784 9.935849 43.448578 24 18 14
-13.479389 10.031448 43.456978 23 18 15
-13.482918 10.127778 43.468357 22 18 16
-13.487372 10.224858 43.482716 23 20 17
-13.492738 10.322697 43.500011 24 21 18
-13.498980 10.421288 43.520138 24 20 18
-13.506046 10.520607 43.542919 22 18 17
-13.513871 10.620620 43.568146 21 16 16
-13.522368 10.721275 43.595543 21 15 16
-13.531439 10.822507 43.624783 21 15 15
-13.540967 10.924234 43.655502 21 15 14
-13.550827 11.026364 43.687290 21 15 13
-13.560880 11.128789 43.719700 20 15 13
-13.570976 11.231390 43.752251 19 14 12
-13.580955 11.334033 43.784420 19 15 13
-13.590652 11.436578 43.815685 20 15 13
-13.599901 11.538877 43.845505 21 15 14
-13.608533 11.640777 43.873333 22 16 15
-13.616388 11.742126 43.898655 22 16 15
-13.623317 11.842781 43.920998 22 16 15
-13.629192 11.942608 43.939938 22 16 15
-13.633908 12.041492 43.955139 22 16 14
-13.637389 12.139343 43.966362 22 16 14
-13.639605 12.236108 43.973507 22 16 14
-13.640559 12.331762 43.976582 22 16 15
-13.640305 12.426330 43.975765 22 15 15
-13.638938 12.519872 43.971355 22 15 14
-13.636600 12.612496 43.963818 21 15 14
-13.633471 12.704351 43.953732 21 15 14
-13.629766 12.795624 43.941788 21 15 14
-13.625725 12.886525 43.928757 21 14 13
-13.621608 12.977299 43.915485 21 14 13
-13.617679 13.068194 43.902817 22 15 13
-13.614199 13.159471 43.891598 23 16 14
-13.611419 13.251380 43.882637 23 16 15
-13.609569 13.344162 43.876671 23 16 15
-13.608855 13.438042 43.874374 24 16 15
-13.609448 13.533210 43.876286 24 16 15
-13.611491 13.629838 43.882870 24 16 15
-13.615091 13.728065 43.894478 24 16 15
-13.620321 13.827995 43.911339 24 15 14
-13.627228 13.929713 43.933601 24 16 14
-13.635829 14.033271 43.961334 24 16 14
-13.646122 14.138701 43.994518 23 16 14
-13.658084 14.246017 44.033085 22 16 14
-13.671680 14.355212 44.076920 22 16 15
-16.184404 -5.313976 52.542995 13 10 11
-16.139044 -5.186135 52.395729 14 10 11
-16.093008 -5.058717 52.246273 15 10 12
-16.046354 -4.931753 52.094814 15 10 12
-15.999147 -4.805275 51.941555 15 10 11
-15.951469 -4.679321 51.786766 15 10 11
-15.903409 -4.553924 51.630733 15 10 11
-15.855062 -4.429120 51.473778 14 10 11
-15.806536 -4.304943 51.316235 14 11 10
-15.757934 -4.181426 51.158447 15 11 11
-15.709367 -4.058598 51.000774 16 12 12
-15.660932 -3.936483 50.843529 16 12 12
-15.612729 -3.815103 50.687038 17 12 13
-15.564844 -3.694473 50.531578 17 11 13
-15.517355 -3.574604 50.377403 17 11 13
-15.470325 -3.455503 50.224724 18 12 12
-15.423807 -3.337170 50.073700 18 12 12
-15.377838 -3.219604 49.924461 18 13 11
-15.332443 -3.102797 49.777084 18 13 10
-15.287636 -2.986740 49.631615 18 13 10
-15.243411 -2.871421 49.488041 17 13 10
-15.199752 -2.756823 49.346302 17 13 9
-15.156630 -2.642929 49.206303 16 13 10
-15.114003 -2.529722 49.067917 16 13 10
-15.071821 -2.417183 48.930969 16 13 10
-15.030023 -2.305294 48.795273 16 12 11
-14.988549 -2.194036 48.660625 17 12 11
-14.947329 -2.083395 48.526802 18 12 12
-14.906299 -1.973356 48.393597 18 12 12
-14.865397 -1.863907 48.260811 18 13 12
-14.824570 -1.755040 48.128262 19 13 13
-14.783770 -1.646747 47.995804 19 14 13
-14.742969 -1.539025 47.863342 19 14 13
-14.702155 -1.431873 47.730843 19 14 12
-14.661338 -1.325291 47.598328 19 15 12
-14.620544 -1.219283 47.465889 20 15 12
-14.579827 -1.113852 47.333702 21 16 13
-14.539259 -1.009001 47.201996 21 16 14
-14.498925 -0.904733 47.071053 21 16 13
-14.458936 -0.801048 46.941227 21 16 13
-14.419403 -0.697945 46.812881 20 15 13
-14.380452 -0.595420 46.686428 20 14 13
-14.342205 -0.493464 46.562256 20 14 13
-14.304785 -0.392065 46.440773 21 15 12
-14.268306 -0.291210 46.322342 22 16 12
-14.232873 -0.190880 46.207310 24 17 13
-14.198577 -0.091052 46.095966 26 17 13
-14.165490 0.008296 45.988548 26 18 14
-14.133674 0.107190 45.885258 26 20 15
-14.103168 0.205658 45.786217 26 20 16
-14.074003 0.303729 45.691532 26 20 16
-14.046190 0.401429 45.601238 25 20 17
-14.019734 0.498789 45.515350 25 19 17
-13.994628 0.595836 45.433838 24 18 17
-13.970855 0.692597 45.356659 24 17 16
-13.948396 0.789100 45.283749 23 16 17
-13.927223 0.885371 45.215008 22 16 17
-13.907310 0.981434 45.150360 22 16 16
-13.888624 1.077314 45.089695 22 16 16
-13.871129 1.173032 45.032902 22 16 16
-13.854787 1.268612 44.979843 23 16 16
-13.839552 1.364071 44.930382 23 16 16
-13.825377 1.459430 44.884365 24 16 15
-13.812202 1.554703 44.841591 24 16 15
-13.799966 1.649903 44.801865 25 17 16
-13.788594 1.745041 44.764946 26 18 17
-13.778008 1.840126 44.730579 26 19 16
-13.768119 1.935160 44.698475 26 19 15
-13.758832 2.030144 44.668324 25 18 15
-13.750048 2.125077 44.639805 25 18 15
-13.741666 2.219951 44.612595 25 18 15
-13.733579 2.314758 44.586342 25 18 16
-13.725687 2.409485 44.560719 25 18 16
-13.717895 2.504121 44.535419 25 18 16
-13.710112 2.598649 44.510155 25 18 16
-13.702258 2.693054 44.484657 25 18 17
-13.694268 2.787322 44.458717 26 18 17
-13.686089 2.881438 44.432159 26 19 18
-13.677684 2.975390 44.404877 27 20 18
-13.669029 3.069169 44.376778 28 20 17
-13.660121 3.162768 44.347858 28 21 17
-13.650970 3.256184 44.318150 29 21 17
-13.641600 3.349418 44.287727 29 21 17
-13.632047 3.442475 44.256714 29 21 17
-13.622359 3.535364 44.225262 29 21 17
-13.612591 3.628095 44.193550 29 20 15
-13.602801 3.720684 44.161770 29 20 14
-13.593059 3.813148 44.130138 29 20 14
-13.583426 3.905509 44.098862 29 19 15
-13.573967 3.997785 44.068157 28 19 15
-13.564747 4.090001 44.038223 28 19 16
-13.555819 4.182178 44.009235 28 19 17
-13.547234 4.274339 43.981365 28 19 17
-13.539038 4.366504 43.954758 29 19 17
-13.531266 4.458695 43.929527 30 20 17
-13.523947 4.550930 43.905766 30 20 17
-13.517099 4.643223 43.883537 30 21 17
-13.510734 4.735590 43.862869 30 21 17
-13.504850 4.828041 43.843769 29 21 17
-13.499439 4.920580 43.826202 28 21 18
-13.494488 5.013216 43.810123 27 21 18
-13.489969 5.105945 43.795456 26 20 18
-13.485854 5.198767 43.782097 26 19 18
-13.482108 5.291676 43.769936 26 19 18
-13.478690 5.384664 43.758839 27 19 18
-13.475560 5.477721 43.748676 27 19 19
-13.472677 5.570837 43.739319 28 19 18
-13.469999 5.663998 43.730625 28 18 18
-13.467489 5.757193 43.722477 28 18 18
-13.465113 5.850411 43.714760 27 19 17
-13.462842 5.943643 43.707386 27 18 16
-13.460652 6.036880 43.700279 26 19 16
-13.458527 6.130115 43.693378 25 19 15
-13.456452 6.223343 43.686646 25 19 15
-13.454423 6.316564 43.680054 25 19 15
-13.452432 6.409775 43.673592 25 19 14
-13.450480 6.502976 43.667252 24 18 15
-13.448565 6.596169 43.661034 25 18 15
-13.446687 6.689353 43.654938 26 18 16
-13.444842 6.782528 43.648952 27 19 17
-13.443029 6.875693 43.643066 27 19 18
-13.441242 6.968847 43.637264 28 19 18
-13.439469 7.061982 43.631504 28 19 18
-13.437699 7.155095 43.625759 28 19 17
-13.435917 7.248176 43.619976 28 18 17
-13.434109 7.341218 43.614105 27 18 16
-13.432256 7.434209 43.608086 26 18 16
-13.430341 7.527140 43.601871 26 19 16
-13.428348 7.620000 43.595402 26 19 16
-13.426261 7.712779 43.588627 27 19 17
-13.424067 7.805465 43.581505 27 19 17
-13.421751 7.898049 43.573986 26 18 16
-13.419306 7.990524 43.566048 25 17 17
-13.416722 8.082882 43.557659 26 18 18
-13.413996 8.175116 43.548805 25 18 18
-13.411126 8.267223 43.539490 25 18 17
-13.408117 8.359203 43.529724 25 17 16
-13.404977 8.451059 43.519527 25 17 15
-13.401720 8.542797 43.508953 26 16 15
-13.398370 8.634428 43.498077 26 15 15
-13.394955 8.725970 43.486988 26 15 16
-13.391517 8.817450 43.475826 27 16 16
-13.388104 8.908899 43.464752 26 16 17
-13.384779 9.000358 43.453953 25 16 17
-13.381610 9.091877 43.443665 25 15 16
-13.378673 9.183511 43.434128 24 15 15
-13.376056 9.275326 43.425632 24 16 14
-13.373841 9.367385 43.418442 23 17 13
-13.372124 9.459765 43.412868 24 17 13
-13.370991 9.552540 43.409191 24 18 14
-13.370528 9.645782 43.407688 24 18 14
-13.370811 9.739560 43.408607 24 18 14
-13.371902 9.833938 43.412151 24 18 13
-13.373857 9.928969 43.418495 23 17 13
-13.376707 10.024701 43.427746 21 17 13
-13.380472 10.121165 43.439972 21 18 15
-13.385154 10.218382 43.455173 23 20 18
-13.390736 10.316357 43.473293 24 21 18
-13.397182 10.415082 43.494221 23 20 17
-13.404442 10.514535 43.517792 22 18 16
-13.412446 10.614678 43.543774 22 17 16
-13.421110 10.715463 43.571903 22 16 16
-13.430339 10.816821 43.601864 22 16 16
-13.440019 10.918676 43.633289 22 16 16
-13.450027 11.020935 43.665779 21 16 14
-13.460226 11.123492 43.698895 20 15 13
-13.470472 11.226232 43.732159 20 15 13
-13.480611 11.329024 43.765076 20 15 13
-13.490484 11.431733 43.797127 20 15 13
-13.499928 11.534214 43.827785 21 16 13
-13.508780 11.636317 43.856525 22 16 14
-13.516885 11.737896 43.882839 22 16 14
-13.524100 11.838808 43.906265 22 16 14
-13.530300 11.938926 43.926392 22 16 14
-13.535381 12.038136 43.942886 22 16 15
-13.539273 12.136350 43.955521 23 16 15
-13.541942 12.233514 43.964188 23 16 14
-13.543392 12.329607 43.968895 23 16 15
-13.543674 12.424647 43.969810 23 16 15
-13.542879 12.518697 43.967228 22 15 14
-13.541143 12.611859 43.961594 21 15 13
-13.538642 12.704277 43.953472 21 15 13
-13.535582 12.796133 43.943539 21 14 13
-13.532193 12.887633 43.932537 21 14 13
-13.528727 12.979012 43.921280 21 14 13
-13.525438 13.070514 43.910606 22 15 12
-13.522585 13.162393 43.901344 23 16 13
-13.520404 13.254891 43.894264 23 16 15
-13.519122 13.348247 43.890102 24 16 16
-13.518935 13.442673 43.889496 24 16 16
-13.520014 13.538363 43.892994 25 16 16
-13.522491 13.635480 43.901039 25 16 16
-13.526474 13.734160 43.913971 25 16 15
-13.532034 13.834508 43.932018 24 15 14
-13.539214 13.936602 43.955330 24 15 14
-13.548035 14.040496 43.983967 23 15 14
-13.558492 14.146220 44.017914 23 15 14
-13.570565 14.253790 44.057114 22 15 14
-13.584220 14.363200 44.101440 22 16 15
-13.599407 14.474433 44.150749 23 16 16
-16.085274 -5.545379 52.589207 12 10 10
-16.042332 -5.417513 52.448807 12 10 10
-15.998632 -5.290002 52.305939 13 10 11
-15.954218 -5.162875 52.160732 14 10 11
-15.909140 -5.036164 52.013351 15 10 11
-15.863454 -4.909901 51.863987 15 9 11
-15.817225 -4.784117 51.712845 15 10 11
-15.770534 -4.658848 51.560192 15 11 11
-15.723471 -4.534130 51.406326 15 11 11
-15.676131 -4.409998 51.251553 15 11 11
-15.628618 -4.286486 51.096214 14 11 10
-15.581033 -4.163623 50.940639 15 11 11
-15.533484 -4.041441 50.785183 15 12 12
-15.486064 -3.919962 50.630150 16 12 12
-15.438869 -3.799207 50.475849 17 12 13
-15.391984 -3.679191 50.322559 17 11 13
-15.345478 -3.559924 50.170517 17 11 13
-15.299415 -3.441412 50.019917 18 12 12
-15.253843 -3.323656 49.870926 19 13 12
-15.208796 -3.206653 49.723648 18 13 11
-15.164296 -3.090397 49.578163 19 14 11
-15.120357 -2.974878 49.434502 18 13 11
-15.076970 -2.860084 49.292656 18 13 11
-15.034120 -2.745999 49.152561 17 13 10
-14.991776 -2.632607 49.014122 17 13 10
-14.949900 -2.519890 48.877213 17 13 10
-14.908443 -2.407832 48.741673 17 13 10
-14.867347 -2.296414 48.607311 17 13 11
-14.826553 -2.185619 48.473942 17 13 12
-14.785998 -2.075433 48.341354 18 13 12
-14.745624 -1.965843 48.209351 18 13 12
-14.705369 -1.856837 48.077744 19 13 12
-14.665187 -1.748407 47.946369 19 13 13
-14.625036 -1.640547 47.815102 19 14 13
-14.584895 -1.533254 47.683865 19 14 13
-14.544754 -1.426526 47.552631 19 14 12
-14.504629 -1.320366 47.421444 19 15 12
-14.464550 -1.214776 47.290409 20 15 13
-14.424572 -1.109758 47.159706 20 16 14
-14.384769 -1.005316 47.029575 21 16 14
-14.345233 -0.901451 46.900314 21 16 14
-14.306067 -0.798165 46.772263 20 16 14
-14.267385 -0.695454 46.645798 20 15 14
-14.229310 -0.593314 46.521317 20 14 14
-14.191961 -0.491736 46.399208 20 15 13
-14.155457 -0.390707 46.279861 21 15 13
-14.119909 -0.290213 46.163639 23 16 13
-14.085416 -0.190233 46.050869 25 18 14
-14.052064 -0.090748 45.941830 27 19 15
-14.019923 0.008268 45.836746 27 19 15
-13.989044 0.106841 45.735790 27 20 15
-13.959466 0.204998 45.639088 27 21 16
-13.931212 0.302766 45.546715 26 21 16
-13.904293 0.400175 45.458706 25 20 17
-13.878707 0.497252 45.375053 25 20 17
-13.854443 0.594024 45.295723 24 18 17
-13.831483 0.690521 45.220657 24 17 17
-13.809804 0.786766 45.149784 24 17 17
-13.789380 0.882786 45.083012 23 17 17
-13.770182 0.978606 45.020241 24 17 17
-13.752175 1.074247 44.961372 24 16 17
-13.735329 1.169734 44.906292 24 16 16
-13.719599 1.265087 44.854866 24 16 17
-13.704946 1.360324 44.806957 25 16 16
-13.691319 1.455464 44.762405 25 17 16
-13.678666 1.550523 44.721039 26 17 15
-13.666923 1.645512 44.682644 26 17 15
-13.656019 1.740443 44.646996 26 18 16
-13.645878 1.835323 44.613842 25 18 14
-13.636411 1.930156 44.582890 24 18 14
-13.627528 2.024941 44.553848 25 18 15
-13.619128 2.119677 44.526386 25 18 15
-13.611113 2.214357 44.500183 25 18 16
-13.603379 2.308972 44.474899 25 18 16
-13.595826 2.403510 44.450203 25 18 16
-13.588360 2.497957 44.425793 26 18 17
-13.580892 2.592298 44.401379 25 18 16
-13.573341 2.686518 44.376694 25 18 17
-13.565646 2.780602 44.351532 25 18 17
-13.557754 2.874536 44.325729 26 19 18
-13.549628 2.968307 44.299164 26 20 18
-13.541247 3.061906 44.271763 27 20 17
-13.532607 3.155326 44.243515 28 21 17
-13.523720 3.248566 44.214458 29 21 17
-13.514611 3.341625 44.184677 29 21 17
-13.505319 3.434509 44.154297 29 21 17
-13.495889 3.527226 44.123470 29 21 16
-13.486378 3.619789 44.092373 29 20 15
-13.476849 3.712212 44.061218 29 20 15
-13.467365 3.804514 44.030212 29 20 14
-13.457995 3.896716 43.999580 29 19 15
-13.448804 3.988838 43.969528 28 19 15
-13.439851 4.080903 43.940258 29 19 16
-13.431197 4.172935 43.911964 29 19 16
-13.422892 4.264955 43.884811 29 20 16
-13.414980 4.356986 43.858944 30 20 16
-13.407499 4.449049 43.834488 30 21 17
-13.400479 4.541162 43.811539 30 21 17
-13.393939 4.633343 43.790154 30 21 17
-13.387889 4.725604 43.770370 30 21 17
-13.382331 4.817957 43.752201 29 21 17
-13.377258 4.910410 43.735619 28 21 18
-13.372656 5.002967 43.720570 27 21 18
-13.368501 5.095631 43.706985 26 19 18
-13.364763 5.188397 43.694767 24 17 17
-13.361413 5.281264 43.683811 24 17 17
-13.358408 5.374223 43.673985 25 18 18
-13.355709 5.467265 43.665165 26 18 18
-13.353278 5.560380 43.657219 27 18 18
-13.351075 5.653557 43.650013 27 18 18
-13.349061 5.746785 43.643429 27 18 17
-13.347204 5.840053 43.637356 27 18 17
-13.345472 5.933350 43.631699 27 18 17
-13.343846 6.026671 43.626381 27 19 16
-13.342305 6.120008 43.621342 26 19 16
-13.340831 6.213354 43.616520 26 19 16
-13.339417 6.306708 43.611900 26 19 15
-13.338054 6.400066 43.607441 25 19 14
-13.336735 6.493427 43.603130 25 18 14
-13.335457 6.586790 43.598953 25 18 15
-13.334213 6.680151 43.594887 26 19 16
-13.332995 6.773509 43.590904 27 19 17
-13.331794 6.866857 43.586975 28 19 18
-13.330597 6.960191 43.583061 28 19 18
-13.329391 7.053503 43.579117 29 19 17
-13.328156 7.146783 43.575085 29 19 17
-13.326879 7.240022 43.570904 29 18 16
-13.325536 7.333207 43.566513 28 18 16
-13.324109 7.426327 43.561852 27 19 17
