ply
format ascii 1.0
element vertex 1238
property float x
property float y
property float z
property uchar red
property uchar green
property uchar blue
end_header
-4.613474 16.703978 65.070900 29 25 23
-4.625525 16.888247 65.240868 29 24 23
-4.637702 17.073713 65.412621 29 25 23
-4.180161 -8.509340 60.808060 57 40 42
-4.175194 -8.368304 60.735813 58 41 43
-4.170290 -8.227703 60.664471 57 42 43
-4.165447 -8.087527 60.594017 57 42 42
-4.160663 -7.947768 60.524422 56 41 41
-4.155935 -7.808415 60.455654 54 40 39
-4.151263 -7.669462 60.387691 50 37 36
-4.146646 -7.530900 60.320522 48 35 35
-4.142082 -7.392725 60.254131 50 36 37
-4.137572 -7.254929 60.188526 54 40 41
-4.133117 -7.117512 60.123726 56 41 43
-4.128720 -6.980470 60.059753 57 41 43
-4.124381 -6.843801 59.996635 57 40 42
-4.120104 -6.707506 59.934422 58 41 42
-4.115891 -6.571582 59.873146 58 42 42
-4.111748 -6.436030 59.812874 59 43 42
-4.107677 -6.300848 59.753643 59 43 42
-4.103680 -6.166035 59.695511 59 44 42
-4.099763 -6.031590 59.638538 58 42 41
-4.095930 -5.897509 59.582764 57 41 41
-4.092182 -5.763790 59.528248 56 40 40
-4.088524 -5.630430 59.475040 56 39 40
-4.084959 -5.497424 59.423180 57 39 41
-4.081491 -5.364768 59.372719 57 39 41
-4.078121 -5.232457 59.323696 56 39 41
-4.074852 -5.100483 59.276142 55 39 41
-4.071686 -4.968841 59.230095 54 39 40
-4.068625 -4.837521 59.185566 55 39 40
-4.065670 -4.706516 59.142574 55 39 40
-4.062819 -4.575815 59.101120 55 39 40
-4.060075 -4.445407 59.061188 55 39 41
-4.057434 -4.315282 59.022770 55 40 41
-4.054894 -4.185428 58.985836 55 40 41
-4.052455 -4.055833 58.950344 56 40 42
-4.050112 -3.926484 58.916260 57 40 42
-4.047862 -3.797370 58.883533 58 41 42
-4.045703 -3.668479 58.852123 60 43 44
-4.043631 -3.539800 58.821980 60 43 43
-4.041643 -3.411321 58.793060 56 39 39
-4.039735 -3.283033 58.765316 51 35 35
-4.037906 -3.154926 58.738708 50 34 34
-4.036152 -3.026990 58.713196 49 33 33
-4.034471 -2.899216 58.688736 50 34 34
-4.032859 -2.771595 58.665287 52 36 36
-4.031313 -2.644118 58.642803 53 37 37
-4.029830 -2.516778 58.621231 53 37 38
-4.028406 -2.389565 58.600506 53 37 38
-4.027035 -2.262472 58.580566 53 37 38
-4.025713 -2.135491 58.561340 52 37 37
-4.024435 -2.008615 58.542747 51 36 36
-4.023195 -1.881836 58.524704 50 35 35
-4.021987 -1.755149 58.507133 50 35 34
-4.020805 -1.628549 58.489948 50 35 35
-4.019646 -1.502031 58.473072 51 35 35
-4.018502 -1.375592 58.456436 51 35 35
-4.017371 -1.249227 58.439980 51 35 34
-4.016249 -1.122937 58.423656 50 35 34
-4.015133 -0.996718 58.407425 49 34 34
-4.014021 -0.870570 58.391254 47 33 34
-4.012913 -0.744493 58.375130 47 32 33
-4.011806 -0.618485 58.359035 46 32 32
-4.010702 -0.492547 58.342964 47 32 33
-4.009598 -0.366678 58.326916 48 33 33
-4.008497 -0.240879 58.310890 48 34 34
-4.007396 -0.115149 58.294884 49 34 34
-4.006297 0.010513 58.278885 49 34 34
-4.005197 0.136105 58.262894 50 35 35
-4.004097 0.261628 58.246899 50 35 36
-4.002996 0.387082 58.230885 49 35 36
-4.001894 0.512467 58.214844 48 35 35
-4.000789 0.637783 58.198769 47 34 34
-3.999682 0.763029 58.182663 46 32 32
-3.998573 0.888204 58.166531 45 31 29
-3.997462 1.013310 58.150375 44 30 28
-3.996353 1.138347 58.134239 45 30 29
-3.995247 1.263315 58.118156 46 31 30
-3.994149 1.388217 58.102188 46 32 30
-3.993064 1.513054 58.086399 47 33 31
-3.991997 1.637831 58.070885 47 32 30
-3.990956 1.762553 58.055733 44 29 28
-3.989948 1.887224 58.041065 42 27 26
-3.988981 2.011854 58.027000 43 29 28
-3.988065 2.136450 58.013672 44 31 30
-3.987208 2.261022 58.001213 43 30 29
-3.986422 2.385582 57.989769 42 30 29
-3.985714 2.510143 57.979481 41 29 28
-3.985097 2.634719 57.970497 40 29 29
-3.984578 2.759325 57.962955 41 30 30
-3.984169 2.883977 57.957008 43 31 31
-3.983879 3.008694 57.952785 44 33 32
-3.983716 3.133492 57.950417 44 34 34
-3.983690 3.258393 57.950035 44 34 34
-3.983808 3.383414 57.951756 44 33 34
-3.984077 3.508575 57.955669 43 32 33
-3.984504 3.633897 57.961872 44 32 31
-3.985092 3.759398 57.970425 45 32 32
-3.985845 3.885097 57.981380 46 33 32
-3.986765 4.011011 57.994762 46 34 32
-3.987851 4.137155 58.010567 47 34 32
-3.989102 4.263543 58.028763 47 34 32
-3.990514 4.390187 58.049301 47 34 32
-3.992082 4.517095 58.072105 48 35 33
-3.993798 4.644276 58.097080 48 34 32
-3.995657 4.771733 58.124115 48 34 31
-3.997649 4.899470 58.153088 48 33 30
-3.999766 5.027489 58.183884 47 32 29
-4.002000 5.155792 58.216385 48 33 29
-4.004344 5.284381 58.250492 50 35 31
-4.006795 5.413260 58.286137 50 37 33
-4.009346 5.542433 58.323254 50 37 35
-4.011998 5.671907 58.361828 50 37 35
-4.014751 5.801694 58.401878 48 36 35
-4.017609 5.931808 58.443443 46 35 34
-4.020575 6.062265 58.486595 45 34 33
-4.023658 6.193088 58.531448 43 33 32
-4.026866 6.324300 58.578114 43 32 32
-4.030209 6.455928 58.626732 43 32 32
-4.033695 6.588002 58.677444 44 32 32
-4.037335 6.720550 58.730396 45 33 32
-4.041139 6.853604 58.785728 45 34 33
-4.045115 6.987193 58.843563 45 35 33
-4.049269 7.121347 58.904007 44 35 33
-4.053610 7.256095 58.967152 43 34 32
-4.058141 7.391461 59.033062 42 33 32
-4.062865 7.527469 59.101784 42 31 32
-4.067783 7.664139 59.173328 41 30 32
-4.072895 7.801486 59.247677 41 30 31
-4.078196 7.939525 59.324791 41 29 30
-4.083681 8.078261 59.404591 40 29 30
-4.089344 8.217697 59.486965 40 29 30
-4.095174 8.357828 59.571770 40 29 29
-4.101158 8.498647 59.658825 39 29 28
-4.107282 8.640132 59.747898 39 29 27
-4.113526 8.782260 59.838737 38 29 27
-4.119871 8.924997 59.931034 38 29 27
-4.126294 9.068305 60.024471 38 29 27
-4.132771 9.212133 60.118683 38 29 28
-4.139274 9.356430 60.213291 37 29 28
-4.145779 9.501137 60.307911 37 29 29
-4.152259 9.646194 60.402172 37 29 29
-4.158689 9.791539 60.495705 36 28 28
-4.165046 9.937116 60.588188 36 28 28
-4.171312 10.082869 60.679337 35 27 28
-4.177470 10.228752 60.768921 34 27 27
-4.183510 10.374727 60.856781 34 27 27
-4.189425 10.520769 60.942829 34 26 27
-4.195215 10.666862 61.027050 34 26 27
-4.200882 10.813004 61.109489 34 25 27
-4.206436 10.959204 61.190281 33 25 26
-4.211888 11.105486 61.269592 33 24 25
-4.217255 11.251882 61.347664 33 24 25
-4.222555 11.398434 61.424763 33 25 25
-4.227808 11.545191 61.501183 33 25 25
-4.233037 11.692206 61.577232 34 26 25
-4.238261 11.839540 61.653229 33 25 25
-4.243504 11.987254 61.729496 33 25 25
-4.248785 12.135407 61.806328 34 25 25
-4.254127 12.284065 61.884029 34 25 25
-4.259547 12.433287 61.962875 34 25 26
-4.265064 12.583136 62.043133 34 25 27
-4.270695 12.733669 62.125046 34 25 27
-4.276457 12.884950 62.208858 33 25 27
-4.282364 13.037035 62.294792 32 24 26
-4.288433 13.189987 62.383072 33 25 26
-4.294677 13.343865 62.473904 33 25 26
-4.301110 13.498729 62.567490 33 26 25
-4.307746 13.654638 62.664028 32 26 25
-4.314599 13.811655 62.763702 32 26 26
-4.321679 13.969838 62.866692 31 27 26
-4.328998 14.129249 62.973171 30 26 25
-4.336568 14.289943 63.083290 30 26 25
-4.344399 14.451980 63.197208 29 26 26
-4.352500 14.615415 63.315056 29 26 26
-4.360880 14.780301 63.436951 30 26 26
-4.369546 14.946695 63.563023 30 25 25
-4.378507 15.114645 63.693359 30 25 25
-4.387764 15.284196 63.828037 29 24 25
-4.397325 15.455388 63.967102 30 24 25
-4.407187 15.628253 64.110573 30 25 25
-4.417349 15.802808 64.258400 30 25 25
-4.427804 15.979056 64.410477 30 25 25
-4.438539 16.156981 64.566643 30 26 25
-4.449535 16.336538 64.726601 30 26 24
-4.460767 16.517658 64.889992 30 26 24
-4.472200 16.700232 65.056305 29 25 23
-4.483791 16.884117 65.224915 29 25 23
-4.495488 17.069136 65.395073 29 24 23
-4.507234 17.255072 65.565941 29 24 24
-4.046625 -8.635186 60.771206 57 40 42
-4.041798 -8.494040 60.698719 57 39 42
-4.037035 -8.353338 60.627193 57 40 41
-4.032336 -8.213075 60.556614 57 41 41
-4.027698 -8.073238 60.486961 58 41 40
-4.023119 -7.933819 60.418198 57 42 41
-4.018598 -7.794807 60.350296 56 41 40
-4.014132 -7.656196 60.283234 54 39 38
-4.009720 -7.517973 60.216980 53 38 38
-4.005362 -7.380136 60.151527 53 39 39
-4.001057 -7.242676 60.086876 56 41 43
-3.996805 -7.105590 60.023022 57 42 44
-3.992608 -6.968875 59.959995 57 41 44
-3.988468 -6.832529 59.897812 57 40 42
-3.984386 -6.696549 59.836514 58 41 41
-3.980366 -6.560935 59.776138 58 41 41
-3.976410 -6.425685 59.716732 59 42 42
-3.972522 -6.290799 59.658340 59 42 42
-3.968705 -6.156275 59.601021 58 42 41
-3.964962 -6.022111 59.544815 57 41 41
-3.961298 -5.888306 59.489788 56 40 40
-3.957716 -5.754857 59.435982 55 39 40
-3.954217 -5.621759 59.383450 56 39 40
-3.950808 -5.489011 59.332245 56 39 40
-3.947489 -5.356608 59.282406 56 39 40
-3.944265 -5.224545 59.233994 55 39 40
-3.941139 -5.092815 59.187035 54 38 40
-3.938110 -4.961413 59.141556 53 38 39
-3.935183 -4.830331 59.097599 54 38 40
-3.932358 -4.699560 59.055164 55 39 41
-3.929634 -4.569090 59.014263 56 40 41
-3.927012 -4.438911 58.974888 56 40 42
-3.924491 -4.309013 58.937027 57 41 43
-3.922069 -4.179384 58.900654 57 41 43
-3.919743 -4.050011 58.865723 57 40 43
-3.917511 -3.920882 58.832203 57 40 41
-3.915370 -3.791986 58.800045 57 40 41
-3.913316 -3.663310 58.769203 58 41 41
-3.911346 -3.534843 58.739624 58 41 40
-3.909458 -3.406575 58.711262 56 39 38
-3.907647 -3.278494 58.684067 53 37 36
-3.905911 -3.150591 58.658001 52 35 35
-3.904247 -3.022856 58.633011 51 34 34
-3.902652 -2.895279 58.609058 51 35 35
-3.901123 -2.767853 58.586090 53 36 36
-3.899656 -2.640568 58.564060 54 37 37
-3.898248 -2.513416 58.542912 54 37 38
-3.896894 -2.386388 58.522583 54 37 38
-3.895591 -2.259477 58.503010 53 37 38
-3.894333 -2.132675 58.484123 51 36 36
-3.893116 -2.005976 58.465839 50 35 35
-3.891933 -1.879372 58.448086 49 34 34
-3.890781 -1.752859 58.430779 49 34 34
-3.889653 -1.626430 58.413841 50 35 35
-3.888546 -1.500082 58.397205 51 35 35
-3.887453 -1.373812 58.380802 51 35 35
-3.886373 -1.247616 58.364586 51 35 35
-3.885303 -1.121492 58.348503 50 35 35
-3.884238 -0.995440 58.332527 48 34 34
-3.883180 -0.869458 58.316631 48 33 34
-3.882126 -0.743545 58.300800 47 33 33
-3.881076 -0.617701 58.285034 47 33 33
-3.880030 -0.491925 58.269325 47 34 33
-3.878988 -0.366218 58.253674 48 34 34
-3.877949 -0.240578 58.238079 48 34 34
-3.876915 -0.115006 58.222542 48 34 34
-3.875883 0.010500 58.207050 49 34 34
-3.874855 0.135938 58.191601 49 34 34
-3.873828 0.261311 58.176182 49 35 35
-3.872802 0.386616 58.160778 48 35 35
-3.871777 0.511856 58.145378 48 35 35
-3.870751 0.637029 58.129967 47 33 33
-3.869724 0.762135 58.114544 46 32 31
-3.868695 0.887175 58.099102 44 31 29
-3.867666 1.012148 58.083652 43 30 28
-3.866639 1.137054 58.068222 43 30 28
-3.865615 1.261895 58.052841 45 31 29
-3.864598 1.386673 58.037567 47 32 31
-3.863592 1.511389 58.022461 48 34 32
-3.862603 1.636047 58.007610 48 33 32
-3.861637 1.760651 57.993103 47 32 31
-3.860702 1.885208 57.979053 46 31 31
-3.859804 2.009724 57.965580 46 32 31
-3.858954 2.134208 57.952805 45 33 31
-3.858160 2.258670 57.940876 44 31 29
-3.857431 2.383121 57.929932 43 30 28
-3.856776 2.507572 57.920101 42 29 28
-3.856206 2.632040 57.911545 41 29 28
-3.855731 2.756538 57.904411 41 29 29
-3.855360 2.881082 57.898827 43 31 30
-3.855101 3.005691 57.894939 44 32 32
-3.854964 3.130382 57.892887 46 33 34
-3.854958 3.255174 57.892799 47 34 35
-3.855090 3.380088 57.894783 46 34 35
-3.855368 3.505141 57.898952 46 33 34
-3.855796 3.630356 57.905388 46 33 33
-3.856381 3.755750 57.914173 47 33 33
-3.857125 3.881341 57.925339 47 33 33
-3.858030 4.007149 57.938931 47 33 32
-3.859095 4.133186 57.954926 45 33 31
-3.860320 4.259469 57.973316 44 31 29
-3.861700 4.386007 57.994038 44 31 29
-3.863230 4.512810 58.017017 46 33 31
-3.864904 4.639885 58.042160 48 33 31
-3.866715 4.767238 58.069359 48 33 30
-3.868654 4.894869 58.098484 48 33 30
-3.870715 5.022784 58.129425 49 34 29
-3.872888 5.150982 58.162064 50 35 30
-3.875169 5.279467 58.196316 50 36 32
-3.877551 5.408241 58.232094 50 37 34
-3.880032 5.537311 58.269352 50 37 35
-3.882611 5.666683 58.308079 50 37 35
-3.885288 5.796370 58.348282 49 36 35
-3.888067 5.926386 58.390026 48 36 34
-3.890954 6.056749 58.433384 46 34 33
-3.893956 6.187481 58.478462 45 33 33
-3.897081 6.318608 58.525394 45 33 33
-3.900339 6.450157 58.574318 45 33 33
-3.903739 6.582157 58.625381 45 33 33
-3.907292 6.714638 58.678730 46 34 33
-3.911006 6.847632 58.734509 46 35 34
-3.914890 6.981170 58.792839 46 35 34
-3.918951 7.115281 58.853825 46 35 34
-3.923195 7.249993 58.917561 45 35 34
-3.927626 7.385331 58.984104 44 34 33
-3.932246 7.521318 59.053493 43 33 33
-3.937056 7.657974 59.125729 43 31 32
-3.942055 7.795313 59.200794 42 30 32
-3.947238 7.933349 59.278641 41 30 31
-3.952601 8.072085 59.359173 41 30 30
-3.958135 8.211524 59.442280 41 30 30
-3.963830 8.351661 59.527805 40 30 29
-3.969673 8.492483 59.615559 40 30 28
-3.975649 8.633973 59.705311 39 29 27
-3.981741 8.776105 59.796795 39 29 27
-3.987928 8.918843 59.889709 38 28 27
-3.994189 9.062149 59.983730 38 28 27
-4.000498 9.205974 60.078484 38 28 28
-4.006833 9.350265 60.173611 38 29 29
-4.013166 9.494963 60.268726 38 29 29
-4.019474 9.640010 60.363453 37 29 29
-4.025733 9.785346 60.457447 37 28 28
-4.031921 9.930915 60.550381 36 27 27
-4.038021 10.076662 60.641983 35 27 27
-4.044017 10.222544 60.732037 35 27 27
-4.049900 10.368524 60.820389 35 27 27
-4.055665 10.514577 60.906956 35 26 27
-4.061310 10.660689 60.991734 35 26 27
-4.066839 10.806861 61.074780 35 26 27
-4.072262 10.953102 61.156212 34 25 26
-4.077589 11.099436 61.236214 34 25 26
-4.082837 11.245895 61.315029 34 25 26
-4.088023 11.392522 61.392906 33 26 26
-4.093166 11.539364 61.470146 33 26 26
-4.098287 11.686475 61.547050 33 26 26
-4.103406 11.833913 61.623924 33 26 25
-4.108543 11.981736 61.701080 34 26 26
-4.113719 12.130004 61.778809 34 25 25
-4.118953 12.278779 61.857403 34 25 25
-4.124261 12.428122 61.937130 34 25 26
-4.129663 12.578089 62.018250 34 25 27
-4.135174 12.728742 62.101006 34 25 27
-4.140808 12.880137 62.185623 33 25 27
-4.146583 13.032337 62.272346 32 24 26
-4.152511 13.185399 62.361374 32 24 25
-4.158608 13.339386 62.452934 32 25 25
-4.164886 13.494353 62.547211 32 26 24
-4.171359 13.650367 62.644424 32 26 25
-4.178039 13.807485 62.744751 32 26 25
-4.184939 13.965768 62.848373 31 26 25
-4.192070 14.125276 62.955463 30 26 25
-4.199442 14.286066 63.066181 30 26 26
-4.207066 14.448195 63.180660 29 26 26
-4.214948 14.611717 63.299038 29 26 26
-4.223098 14.776684 63.421425 29 25 26
-4.231521 14.943145 63.547924 29 25 25
-4.240223 15.111145 63.678608 29 24 25
-4.249207 15.280725 63.813538 29 24 25
-4.258476 15.451917 63.952732 30 24 25
-4.268028 15.624746 64.096184 30 25 25
-4.277860 15.799226 64.243828 30 25 25
-4.287961 15.975350 64.395538 30 25 25
-4.298321 16.153095 64.551117 30 26 25
-4.308919 16.332418 64.710274 30 26 25
-4.319730 16.513237 64.872620 30 26 25
-4.330719 16.695444 65.037659 30 25 24
-4.341846 16.878901 65.204758 30 25 24
-4.353062 17.063423 65.373192 29 25 24
-4.364311 17.248808 65.542137 29 24 24
-3.908525 -8.619533 60.661049 56 40 42
-3.903902 -8.478727 60.589294 56 39 41
-3.899343 -8.338367 60.518532 56 40 40
-3.894846 -8.198445 60.448753 57 40 40
-3.890412 -8.058953 60.379932 58 41 40
-3.886037 -7.919878 60.312031 59 42 41
-3.881720 -7.781211 60.245026 59 42 41
-3.877458 -7.642941 60.178875 58 42 41
-3.873249 -7.505062 60.113560 57 42 41
-3.869093 -7.367563 60.049057 57 42 42
-3.864989 -7.230440 59.985359 57 42 44
-3.860937 -7.093687 59.922470 57 42 44
-3.856937 -6.957300 59.860397 57 41 43
-3.852992 -6.821276 59.799168 57 40 42
-3.849102 -6.685613 59.738800 57 40 41
-3.845271 -6.550310 59.679333 58 41 41
-3.841501 -6.415364 59.620815 59 41 42
-3.837794 -6.280776 59.563286 58 41 42
-3.834154 -6.146542 59.506794 58 41 41
-3.830584 -6.012662 59.451389 57 40 41
-3.827088 -5.879135 59.397133 56 39 40
-3.823669 -5.745957 59.344067 56 39 39
-3.820330 -5.613125 59.292248 56 39 40
-3.817075 -5.480637 59.241726 57 40 41
-3.813907 -5.348489 59.192558 57 40 41
-3.810829 -5.216676 59.144783 55 39 40
-3.807843 -5.085193 59.098450 53 37 39
-3.804953 -4.954033 59.053585 52 36 38
-3.802159 -4.823189 59.010223 53 37 39
-3.799463 -4.692653 58.968380 55 38 40
-3.796865 -4.562416 58.928066 56 39 42
-3.794365 -4.432467 58.889271 57 41 43
-3.791963 -4.302795 58.851986 58 41 44
-3.789656 -4.173390 58.816185 58 41 44
-3.787443 -4.044239 58.781834 57 39 42
-3.785320 -3.915329 58.748886 56 38 40
-3.783285 -3.786649 58.717297 56 39 39
-3.781334 -3.658187 58.687019 57 39 38
-3.779465 -3.529932 58.658005 57 40 38
-3.777673 -3.401871 58.630196 56 39 37
-3.775956 -3.273996 58.603542 55 38 36
-3.774310 -3.146294 58.578003 54 37 36
-3.772732 -3.018758 58.553520 53 36 35
-3.771220 -2.891377 58.530052 53 35 35
-3.769770 -2.764142 58.507545 54 36 37
-3.768379 -2.637046 58.485950 55 37 38
-3.767042 -2.510079 58.465206 55 37 38
-3.765756 -2.383235 58.445251 55 37 38
-3.764517 -2.256503 58.426022 53 37 38
-3.763321 -2.129879 58.407448 51 35 36
-3.762161 -2.003355 58.389446 49 34 34
-3.761034 -1.876924 58.371948 48 33 33
-3.759934 -1.750582 58.354881 49 34 34
-3.758857 -1.624323 58.338165 50 35 35
-3.757798 -1.498144 58.321739 51 35 35
-3.756755 -1.372041 58.305538 51 36 35
-3.755723 -1.246011 58.289528 51 36 35
-3.754700 -1.120054 58.273659 50 35 35
-3.753685 -0.994166 58.257904 49 35 35
-3.752677 -0.868349 58.242256 48 34 34
-3.751674 -0.742600 58.226696 48 34 34
-3.750678 -0.616919 58.211227 48 34 34
-3.749687 -0.491305 58.195847 48 35 34
-3.748702 -0.365758 58.180561 48 34 34
-3.747723 -0.240278 58.165371 48 34 34
-3.746751 -0.114863 58.150280 48 34 34
-3.745784 0.010487 58.135277 48 33 33
-3.744823 0.135772 58.120350 48 33 33
-3.743865 0.260993 58.105492 48 34 34
-3.742911 0.386150 58.090679 49 34 34
-3.741958 0.511244 58.075897 48 35 34
-3.741007 0.636275 58.061138 48 34 34
-3.740056 0.761241 58.046379 46 33 32
-3.739105 0.886144 58.031620 44 31 30
-3.738154 1.010984 58.016861 43 29 28
-3.737205 1.135760 58.002125 43 29 28
-3.736259 1.260474 57.987438 45 30 30
-3.735318 1.385126 57.972847 47 32 32
-3.734388 1.509720 57.958412 50 35 34
-3.733474 1.634259 57.944218 51 35 35
-3.732580 1.758746 57.930347 51 35 35
-3.731714 1.883187 57.916904 50 35 35
-3.730884 2.007590 57.904018 49 35 34
-3.730096 2.131961 57.891800 48 34 32
-3.729362 2.256312 57.880398 46 33 31
-3.728688 2.380652 57.869938 44 31 29
-3.728085 2.504995 57.860577 43 30 28
-3.727561 2.629354 57.852455 42 29 28
-3.727127 2.753744 57.845722 42 29 28
-3.726792 2.878181 57.840515 43 30 30
-3.726564 3.002682 57.836979 45 32 32
-3.726453 3.127265 57.835255 47 33 34
-3.726467 3.251951 57.835464 48 34 35
-3.726613 3.376757 57.837742 48 35 36
-3.726899 3.501705 57.842178 49 35 35
-3.727331 3.626813 57.848877 49 35 34
-3.727912 3.752101 57.857906 48 34 34
-3.728648 3.877588 57.869320 47 33 33
-3.729538 4.003290 57.883133 46 32 32
-3.730583 4.129223 57.899349 45 31 30
-3.731781 4.255401 57.917950 43 29 28
-3.733130 4.381835 57.938873 43 29 28
-3.734622 4.508534 57.962044 45 31 30
-3.736254 4.635505 57.987370 48 32 30
-3.738017 4.762753 58.014736 48 33 30
-3.739904 4.890281 58.044022 49 33 30
-3.741907 5.018090 58.075104 50 34 30
-3.744019 5.146183 58.107883 50 35 31
-3.746234 5.274562 58.142254 50 36 33
-3.748547 5.403231 58.178150 50 36 34
-3.750955 5.532196 58.215527 50 36 35
-3.753457 5.661463 58.254368 50 37 36
-3.756056 5.791047 58.294697 50 37 36
-3.758754 5.920960 58.336571 49 36 36
-3.761557 6.051224 58.380077 48 35 35
-3.764473 6.181860 58.425331 46 34 34
-3.767510 6.312895 58.472473 46 34 33
-3.770678 6.444355 58.521637 46 34 33
-3.773986 6.576273 58.572979 46 34 33
-3.777445 6.708679 58.626659 47 34 33
-3.781063 6.841605 58.682812 47 35 34
-3.784848 6.975082 58.741562 47 35 35
-3.788808 7.109138 58.803020 47 35 35
-3.792948 7.243804 58.867268 47 35 35
-3.797272 7.379105 58.934376 47 35 35
-3.801781 7.515061 59.004360 46 34 34
-3.806476 7.651692 59.077225 44 33 33
-3.811355 7.789013 59.152946 43 31 32
-3.816414 7.927035 59.231461 42 31 31
-3.821646 8.065762 59.312672 42 31 30
-3.827045 8.205194 59.396461 41 31 30
-3.832599 8.345327 59.482662 41 31 29
-3.838296 8.486146 59.571075 40 30 28
-3.844120 8.627633 59.661469 40 30 27
-3.850054 8.769759 59.753563 39 29 27
-3.856078 8.912493 59.847065 38 29 27
-3.862172 9.055790 59.941639 38 28 27
-3.868311 9.199604 60.036919 38 28 28
-3.874472 9.343882 60.132538 38 28 29
-3.880631 9.488566 60.228123 38 28 29
-3.886764 9.633598 60.323303 37 28 29
-3.892848 9.778918 60.417732 37 28 28
-3.898863 9.924471 60.511097 37 27 27
-3.904794 10.070206 60.603130 36 27 26
-3.910625 10.216079 60.693630 36 27 26
-3.916347 10.362055 60.782448 36 27 27
-3.921957 10.508111 60.869503 36 27 27
-3.927453 10.654235 60.954803 36 26 27
-3.932840 10.800426 61.038414 36 26 27
-3.938126 10.946698 61.120453 35 26 27
-3.943323 11.093074 61.201115 35 26 27
-3.948446 11.239585 61.280621 34 26 27
-3.953511 11.386275 61.359241 33 26 27
-3.958538 11.533191 61.437260 33 26 27
-3.963545 11.680384 61.514965 33 26 26
-3.968552 11.827910 61.592670 33 26 26
-3.973577 11.975831 61.670673 33 26 26
-3.978641 12.124202 61.749256 33 25 26
-3.983759 12.273082 61.828701 34 25 26
-3.988951 12.422530 61.909267 35 26 26
-3.994231 12.572605 61.991211 35 26 27
-3.999614 12.723364 62.074772 34 25 27
-4.005116 12.874865 62.160168 34 25 27
-4.010753 13.027166 62.247635 33 25 26
-4.016535 13.180327 62.337387 32 24 25
-4.022479 13.334409 62.429634 32 25 25
-4.028596 13.489470 62.524582 32 26 24
-4.034902 13.645575 62.622433 32 26 25
-4.041406 13.802781 62.723377 32 26 26
-4.048120 13.961150 62.827595 32 26 26
-4.055058 14.120742 62.935261 31 26 26
-4.062226 14.281612 63.046520 31 26 26
-4.069636 14.443817 63.161518 30 26 26
-4.077294 14.607408 63.280369 29 25 26
-4.085207 14.772432 63.403179 29 24 25
-4.093380 14.938937 63.530029 29 24 25
-4.101818 15.106963 63.660988 29 24 25
-4.110522 15.276544 63.796078 29 23 24
-4.119493 15.447706 63.935307 30 24 24
-4.128728 15.620469 64.078636 30 24 24
-4.138222 15.794839 64.225990 30 25 25
-4.147966 15.970803 64.377213 30 25 25
-4.157945 16.148335 64.532089 30 25 25
-4.168140 16.327379 64.690315 30 25 25
-4.178525 16.507860 64.851501 30 25 25
-4.189069 16.689665 65.015137 30 25 24
-4.199731 16.872650 65.180618 29 25 23
-4.210465 17.056644 65.347221 29 25 24
-4.221220 17.241440 65.514145 29 24 24
-4.231938 17.426800 65.680481 29 24 24
-3.775359 -8.744735 60.622486 57 42 43
-3.770875 -8.603823 60.550488 57 40 42
-3.766455 -8.463365 60.479515 56 39 40
-3.762099 -8.323354 60.409565 56 39 40
-3.757805 -8.183781 60.340622 57 40 40
-3.753573 -8.044636 60.272663 58 41 41
-3.749400 -7.905910 60.205658 59 42 42
-3.745284 -7.767590 60.139568 61 43 43
-3.741223 -7.629667 60.074352 60 43 43
-3.737215 -7.492131 60.009987 59 44 43
-3.733258 -7.354974 59.946449 59 44 43
-3.729351 -7.218189 59.883724 58 44 44
-3.725495 -7.081769 59.821804 57 43 44
-3.721690 -6.945712 59.760700 57 42 43
-3.717936 -6.810013 59.700424 56 41 42
-3.714235 -6.674668 59.640999 57 41 42
-3.710590 -6.539677 59.582458 58 41 42
-3.707001 -6.405038 59.524845 58 41 43
-3.703473 -6.270749 59.468193 58 41 43
-3.700008 -6.136808 59.412552 58 41 42
-3.696609 -6.003215 59.357975 57 41 42
-3.693280 -5.869967 59.304512 57 40 41
-3.690023 -5.737063 59.252220 57 40 40
-3.686843 -5.604500 59.201145 57 40 40
-3.683741 -5.472276 59.151344 58 41 41
-3.680722 -5.340385 59.102871 59 42 42
-3.677789 -5.208826 59.055775 56 39 40
-3.674945 -5.077591 59.010101 52 35 37
-3.672191 -4.946676 58.965881 51 34 36
-3.669530 -4.816072 58.923149 53 36 38
-3.666963 -4.685774 58.881931 55 37 39
-3.664490 -4.555770 58.842224 56 39 41
-3.662112 -4.426052 58.804035 58 40 43
-3.659827 -4.296608 58.767353 58 41 44
-3.657635 -4.167427 58.732147 58 40 43
-3.655532 -4.038497 58.698380 57 38 41
-3.653517 -3.909806 58.666016 56 37 39
-3.651586 -3.781343 58.635010 55 37 37
-3.649736 -3.653094 58.605305 56 38 37
-3.647964 -3.525048 58.576851 56 39 37
-3.646266 -3.397195 58.549591 56 39 37
-3.644640 -3.269522 58.523476 56 39 36
-3.643081 -3.142021 58.498447 55 38 36
-3.641587 -3.014682 58.474464 54 37 35
-3.640155 -2.887495 58.451466 54 37 36
-3.638781 -2.760451 58.429405 55 37 37
-3.637462 -2.633542 58.408226 56 37 38
-3.636194 -2.506759 58.387863 55 37 38
-3.634974 -2.380095 58.368263 54 37 38
-3.633796 -2.253542 58.349354 52 36 37
-3.632657 -2.127094 58.331066 50 35 35
-3.631552 -2.000743 58.313328 48 33 33
-3.630477 -1.874484 58.296062 47 32 32
-3.629427 -1.748312 58.279202 48 33 33
-3.628398 -1.622221 58.262676 50 35 35
-3.627386 -1.496209 58.246429 51 35 35
-3.626388 -1.370273 58.230408 51 36 35
-3.625402 -1.244409 58.214565 51 36 36
-3.624425 -1.118616 58.198875 51 36 36
-3.623456 -0.992894 58.183315 50 35 35
-3.622494 -0.867240 58.167873 49 35 35
-3.621540 -0.741654 58.152546 49 35 35
-3.620593 -0.616136 58.137341 49 35 35
-3.619653 -0.490684 58.122261 49 35 35
-3.618722 -0.365298 58.107311 49 35 35
-3.617800 -0.239977 58.092499 49 34 35
-3.616886 -0.114720 58.077824 49 34 34
-3.615980 0.010474 58.063271 49 33 33
-3.615081 0.135605 58.048847 49 32 33
-3.614189 0.260674 58.034519 49 33 34
-3.613302 0.385682 58.020279 50 34 34
-3.612420 0.510630 58.006104 49 35 34
-3.611539 0.635516 57.991966 48 35 34
-3.610661 0.760343 57.977859 47 33 32
-3.609783 0.885108 57.963764 44 31 29
-3.608906 1.009813 57.949684 43 29 28
-3.608030 1.134458 57.935623 43 29 28
-3.607158 1.259043 57.921619 45 31 31
-3.606291 1.383570 57.907700 48 33 33
-3.605434 1.508041 57.893929 51 35 36
-3.604590 1.632458 57.880379 53 36 37
-3.603765 1.756827 57.867138 54 36 37
-3.602966 1.881152 57.854301 53 36 37
-3.602199 2.005439 57.841988 51 36 36
-3.601473 2.129697 57.830322 50 35 34
-3.600795 2.253936 57.819447 48 34 32
-3.600175 2.378165 57.809486 46 32 31
-3.599621 2.502398 57.800591 45 30 30
-3.599142 2.626647 57.792904 44 30 29
-3.598748 2.750928 57.786583 43 30 29
-3.598448 2.875257 57.781761 45 31 30
-3.598251 2.999650 57.778591 46 32 32
-3.598165 3.124127 57.777206 48 34 34
-3.598198 3.248705 57.777748 49 35 36
-3.598359 3.373405 57.780327 51 36 37
-3.598654 3.498247 57.785065 51 36 36
-3.599089 3.623250 57.792046 50 35 36
-3.599668 3.748433 57.801350 49 34 35
-3.600395 3.873816 57.813023 48 33 33
-3.601271 3.999414 57.827091 47 32 32
-3.602297 4.125244 57.843555 46 31 31
-3.603469 4.251319 57.862389 45 30 30
-3.604787 4.377650 57.883537 45 30 30
-3.606243 4.504246 57.906918 46 31 30
-3.607832 4.631114 57.932442 48 32 31
-3.609548 4.758259 57.959991 48 33 31
-3.611382 4.885683 57.989441 49 33 31
-3.613327 5.013387 58.020679 50 34 31
-3.615377 5.141375 58.053589 50 35 32
-3.617525 5.269648 58.088081 50 35 33
-3.619767 5.398210 58.124081 50 35 34
-3.622101 5.527067 58.161552 50 35 35
-3.624525 5.656227 58.200481 49 36 35
-3.627042 5.785703 58.240906 49 36 35
-3.629656 5.915511 58.282879 49 36 35
-3.632372 6.045670 58.326492 48 35 35
-3.635199 6.176204 58.371880 47 35 34
-3.638144 6.307140 58.419170 47 34 34
-3.641217 6.438507 58.468521 47 34 33
-3.644429 6.570335 58.520092 46 34 33
-3.647789 6.702657 58.574036 47 34 33
-3.651305 6.835506 58.630497 47 34 33
-3.654986 6.968913 58.689610 47 35 34
-3.658839 7.102907 58.751472 47 35 34
-3.662868 7.237517 58.816177 47 35 34
-3.667078 7.372769 58.883778 47 35 34
-3.671470 7.508685 58.954300 46 34 34
-3.676043 7.645282 59.027737 45 33 33
-3.680796 7.782576 59.104057 44 32 32
-3.685724 7.920575 59.183193 43 31 31
-3.690822 8.059284 59.265041 42 31 30
-3.696079 8.198702 59.349464 41 31 31
-3.701488 8.338822 59.436302 41 31 30
-3.707033 8.479631 59.525345 41 30 29
-3.712700 8.621107 59.616341 40 30 28
-3.718472 8.763223 59.709026 39 30 27
-3.724330 8.905944 59.803093 38 29 27
-3.730253 9.049228 59.898201 37 28 27
-3.736218 9.193026 59.993988 37 28 28
-3.742203 9.337286 60.090088 37 28 29
-3.748184 9.481950 60.186127 37 28 29
-3.754139 9.626962 60.281746 37 28 29
-3.760046 9.772261 60.376595 37 27 28
-3.765886 9.917793 60.470379 37 27 27
-3.771644 10.063510 60.562836 37 27 26
-3.777307 10.209368 60.653759 37 27 27
-3.782865 10.355333 60.743019 37 27 27
-3.788316 10.501386 60.830551 36 27 27
-3.793660 10.647513 60.916351 36 27 27
-3.798900 10.793717 61.000496 36 27 27
-3.804045 10.940011 61.083115 36 27 27
-3.809107 11.086417 61.164391 35 27 27
-3.814099 11.232971 61.244560 34 27 27
-3.819039 11.379713 61.323879 33 27 27
-3.823944 11.526690 61.402630 33 27 27
-3.828830 11.673953 61.481102 32 27 26
-3.833719 11.821560 61.559597 33 26 27
-3.838627 11.969564 61.638401 33 26 27
-3.843571 12.118024 61.717793 34 26 27
-3.848569 12.266997 61.798046 34 26 27
-3.853636 12.416540 61.879414 35 26 27
-3.858788 12.566710 61.962143 36 26 27
-3.864039 12.717563 62.046467 35 26 27
-3.869404 12.869155 62.132603 35 25 26
-3.874896 13.021547 62.220787 34 25 26
-3.880527 13.174795 62.311222 33 25 24
-3.886314 13.328962 62.404133 32 25 24
-3.892266 13.484105 62.499710 31 26 24
-3.898397 13.640286 62.598164 32 26 25
-3.904720 13.797568 62.699688 32 26 26
-3.911245 13.956010 62.804462 32 26 26
-3.917983 14.115670 62.912655 32 26 27
-3.924943 14.276606 63.024414 31 26 27
-3.932133 14.438868 63.139874 30 25 26
-3.939560 14.602507 63.259136 30 25 26
-3.947231 14.767568 63.382301 29 24 25
-3.955148 14.934094 63.509434 29 23 24
-3.963315 15.102120 63.640583 29 23 24
-3.971733 15.271674 63.775745 30 23 24
-3.980400 15.442779 63.914913 30 24 25
-3.989313 15.615446 64.058029 30 24 24
-3.998465 15.789674 64.204987 30 24 25
-4.007845 15.965446 64.355614 30 24 25
-4.017440 16.142727 64.509682 30 24 25
-4.027230 16.321465 64.666878 29 25 24
-4.037189 16.501572 64.826797 29 25 24
-4.047287 16.682940 64.988937 29 25 24
-4.057485 16.865425 65.152702 29 25 24
-4.067741 17.048857 65.317390 28 24 24
-4.078005 17.233034 65.482201 28 24 24
-4.088224 17.417730 65.646294 28 24 24
-3.642285 -8.869592 60.582699 59 44 43
-3.637943 -8.728578 60.510479 58 43 43
-3.633663 -8.588022 60.439289 57 41 42
-3.629447 -8.447921 60.369152 56 39 40
-3.625293 -8.308266 60.300060 57 39 40
-3.621201 -8.169047 60.231995 58 40 41
-3.617169 -8.030258 60.164940 59 41 43
-3.613196 -7.891884 60.098854 61 42 44
-3.609279 -7.753916 60.033699 61 43 46
-3.605416 -7.616343 59.969440 61 44 45
-3.601604 -7.479154 59.906044 60 44 45
-3.597843 -7.342341 59.843483 59 44 45
-3.594131 -7.205896 59.781738 58 44 45
-3.590467 -7.069813 59.720798 57 44 44
-3.586852 -6.934086 59.660671 56 43 43
-3.583286 -6.798712 59.601360 57 43 43
-3.579771 -6.663689 59.542892 58 42 43
-3.576308 -6.529012 59.485287 59 42 44
-3.572899 -6.394681 59.428593 59 43 44
-3.569547 -6.260694 59.372833 59 43 44
-3.566255 -6.127048 59.318069 59 43 44
-3.563024 -5.993745 59.264339 59 42 43
-3.559860 -5.860781 59.211700 59 41 42
-3.556764 -5.728154 59.160206 58 40 41
-3.553739 -5.595863 59.109901 57 40 41
-3.550791 -5.463904 59.060856 58 40 41
-3.547920 -5.332275 59.013115 58 40 40
-3.545132 -5.200972 58.966728 56 38 38
-3.542427 -5.069989 58.921749 53 34 36
-3.539809 -4.939321 58.878208 52 34 36
-3.537281 -4.808961 58.836143 54 35 37
-3.534842 -4.678901 58.795570 56 37 39
-3.532493 -4.549134 58.756508 57 38 41
-3.530235 -4.419647 58.718948 57 39 42
-3.528067 -4.290432 58.682888 57 39 42
-3.525987 -4.161478 58.648296 57 38 41
-3.523993 -4.032770 58.615135 56 37 39
-3.522084 -3.904299 58.583370 55 36 37
-3.520255 -3.776051 58.552952 55 36 36
-3.518504 -3.648015 58.523819 56 37 36
-3.516827 -3.520179 58.495930 56 38 36
-3.515221 -3.392531 58.469219 56 39 36
-3.513683 -3.265062 58.443634 56 39 36
-3.512209 -3.137761 58.419121 56 39 36
-3.510796 -3.010617 58.395626 55 39 36
-3.509441 -2.883623 58.373089 55 38 36
-3.508141 -2.756768 58.351456 56 38 37
-3.506892 -2.630045 58.330681 56 38 38
-3.505690 -2.503445 58.310684 55 38 38
-3.504531 -2.376961 58.291416 54 37 37
-3.503412 -2.250586 58.272800 52 36 36
-3.502329 -2.124312 58.254780 49 34 34
-3.501276 -1.998134 58.237274 47 32 32
-3.500250 -1.872045 58.220215 46 31 31
-3.499248 -1.746042 58.203537 47 33 33
-3.498264 -1.620119 58.187172 49 34 34
-3.497296 -1.494274 58.171070 50 35 35
-3.496341 -1.368502 58.155186 50 36 36
-3.495397 -1.242804 58.139481 51 36 36
-3.494462 -1.117176 58.123932 51 36 37
-3.493536 -0.991617 58.108524 51 36 36
-3.492618 -0.866127 58.093258 50 36 36
-3.491708 -0.740705 58.078129 51 36 36
-3.490808 -0.615349 58.063148 51 36 36
-3.489917 -0.490060 58.048328 51 36 36
-3.489036 -0.364835 58.033680 51 35 36
-3.488166 -0.239674 58.019203 50 34 36
-3.487306 -0.114576 58.004906 50 33 34
-3.486457 0.010461 57.990784 49 32 34
-3.485617 0.135437 57.976822 50 32 34
-3.484787 0.260353 57.963005 50 33 35
-3.483963 0.385211 57.949310 51 35 35
-3.483146 0.510010 57.935707 51 36 35
-3.482332 0.634752 57.922180 50 36 34
-3.481522 0.759436 57.908699 48 34 32
-3.480713 0.884062 57.895252 46 32 30
-3.479907 1.008631 57.881832 44 30 29
-3.479101 1.133142 57.868439 44 30 29
-3.478299 1.257597 57.855099 46 32 32
-3.477502 1.381996 57.841843 50 34 35
-3.476714 1.506342 57.828720 52 35 37
-3.475937 1.630637 57.815807 54 36 38
-3.475178 1.754885 57.803185 54 36 38
-3.474443 1.879092 57.790947 54 36 39
-3.473737 2.003263 57.779217 53 36 38
-3.473069 2.127406 57.768101 52 36 36
-3.472446 2.251531 57.757744 51 34 34
-3.471877 2.375648 57.748280 49 33 33
-3.471371 2.499769 57.739857 47 32 32
-3.470936 2.623908 57.732620 46 31 30
-3.470581 2.748078 57.726711 46 31 30
-3.470315 2.872298 57.722294 47 32 31
-3.470147 2.996583 57.719501 48 33 33
-3.470086 3.120951 57.718479 50 35 35
-3.470139 3.245423 57.719368 51 36 36
-3.470314 3.370016 57.722282 52 37 38
-3.470618 3.494752 57.727337 52 37 38
-3.471057 3.619650 57.734634 51 36 38
-3.471634 3.744730 57.744236 50 35 37
-3.472353 3.870008 57.756199 49 34 36
-3.473216 3.995504 57.770550 49 33 34
-3.474223 4.121231 57.787289 48 32 33
-3.475371 4.247204 57.806385 47 32 32
-3.476657 4.373434 57.827785 47 32 32
-3.478077 4.499928 57.851402 47 32 32
-3.479625 4.626694 57.877140 48 31 32
-3.481293 4.753736 57.904892 48 32 32
-3.483074 4.881055 57.934521 49 33 32
-3.484962 5.008656 57.965919 50 34 33
-3.486949 5.136537 57.998966 50 34 34
-3.489030 5.264703 58.033573 50 34 34
-3.491200 5.393157 58.069675 49 34 35
-3.493458 5.521904 58.107231 49 35 35
-3.495803 5.650955 58.146236 49 35 35
-3.498237 5.780321 58.186729 49 35 36
-3.500765 5.910019 58.228767 49 35 36
-3.503392 6.040070 58.272465 49 35 36
-3.506126 6.170497 58.317940 48 35 35
-3.508976 6.301329 58.365345 48 35 34
-3.511951 6.432595 58.414841 47 34 34
-3.515062 6.564327 58.466583 47 34 34
-3.518318 6.696559 58.520741 47 33 34
-3.521729 6.829323 58.577465 47 33 33
-3.525301 6.962651 58.636875 47 33 33
-3.529041 7.096574 58.699093 47 34 33
-3.532955 7.231121 58.764198 47 34 33
-3.537046 7.366317 58.832241 47 35 33
-3.541315 7.502183 58.903252 46 34 34
-3.545762 7.638738 58.977211 45 33 33
-3.550383 7.775995 59.054085 44 32 32
-3.555176 7.913964 59.133797 43 32 31
-3.560133 8.052648 59.216240 42 31 31
-3.565244 8.192044 59.301270 42 31 31
-3.570502 8.332146 59.388710 42 31 31
-3.575891 8.472937 59.478344 41 31 30
-3.581397 8.614396 59.569935 40 31 29
-3.587003 8.756495 59.663189 39 30 29
-3.592691 8.899199 59.757797 38 29 28
-3.598441 9.042464 59.853428 37 28 28
-3.604229 9.186241 59.949711 37 28 29
-3.610036 9.330480 60.046288 37 27 29
-3.615837 9.475121 60.142776 37 27 29
-3.621611 9.620107 60.238827 37 26 28
-3.627339 9.765381 60.334095 37 26 26
-3.633002 9.910890 60.428288 38 27 26
-3.638585 10.056584 60.521152 38 27 27
-3.644077 10.202423 60.612499 38 28 27
-3.649469 10.348373 60.702190 37 28 28
-3.654759 10.494416 60.790180 37 28 28
-3.659946 10.640541 60.876465 37 28 28
-3.665036 10.786751 60.961124 37 28 28
-3.670037 10.933059 61.044296 36 28 28
-3.674959 11.079488 61.126160 35 28 28
-3.679816 11.226075 61.206959 33 28 28
-3.684625 11.372858 61.286942 33 28 27
-3.689401 11.519887 61.366390 32 27 26
-3.694163 11.667210 61.445587 33 27 26
-3.698927 11.814882 61.524826 33 27 27
-3.703710 11.962960 61.604393 34 26 27
-3.708530 12.111498 61.684555 34 26 27
-3.713401 12.260551 61.765575 35 26 27
-3.718338 12.410176 61.847702 36 26 27
-3.723357 12.560430 61.931175 36 26 27
-3.728470 12.711365 62.016224 35 26 26
-3.733691 12.863038 62.103069 35 26 26
-3.739033 13.015508 62.191929 35 26 25
-3.744510 13.168832 62.283016 34 25 24
-3.750133 13.323071 62.376549 33 25 24
-3.755915 13.478282 62.472721 32 26 25
-3.761868 13.634530 62.571743 32 26 25
-3.768005 13.791875 62.673813 32 26 26
-3.774334 13.950374 62.779099 32 26 27
-3.780868 14.110087 62.887772 32 26 27
-3.787614 14.271070 62.999977 31 26 27
-3.794580 14.433371 63.115837 31 25 26
-3.801771 14.597039 63.235455 30 25 25
-3.809193 14.762116 63.358902 30 24 25
-3.816849 14.928640 63.486244 29 23 24
-3.824740 15.096642 63.617496 29 23 24
-3.832866 15.266145 63.752655 30 23 24
-3.841224 15.437164 63.891678 30 23 24
-3.849809 15.609705 64.034485 30 24 24
-3.858615 15.783762 64.180946 30 24 25
-3.867630 15.959312 64.330894 29 24 25
-3.876838 16.136316 64.484062 29 24 24
-3.886221 16.314713 64.640129 29 24 24
-3.895755 16.494419 64.798698 29 24 24
-3.905408 16.675322 64.959267 29 24 24
-3.915146 16.857281 65.121239 29 24 24
-3.924928 17.040127 65.283943 28 24 24
-3.934707 17.223665 65.446602 28 24 24
-3.944435 17.407677 65.608406 28 24 24
-3.954059 17.591923 65.768478 28 24 24
-3.509294 -8.994048 60.541370 59 45 42
-3.505097 -8.852942 60.468975 59 45 42
-3.500960 -8.712296 60.397602 58 43 42
-3.496884 -8.572107 60.327286 58 41 42
-3.492870 -8.432370 60.258030 57 39 40
-3.488917 -8.293079 60.189838 56 39 40
-3.485025 -8.154223 60.122692 57 40 42
-3.481192 -8.015794 60.056572 59 41 44
-3.477417 -7.877779 59.991436 61 42 46
-3.473696 -7.740167 59.927246 61 44 47
-3.470027 -7.602947 59.863960 61 44 47
-3.466410 -7.466108 59.801552 60 44 46
-3.462841 -7.329642 59.739979 59 44 45
-3.459319 -7.193540 59.679226 59 44 45
-3.455844 -7.057795 59.619278 58 44 44
-3.452416 -6.922401 59.560135 58 44 44
-3.449035 -6.787356 59.501801 58 43 44
-3.445702 -6.652654 59.444298 58 43 44
-3.442418 -6.518294 59.387646 59 43 45
-3.439185 -6.384274 59.331879 59 43 45
-3.436006 -6.250592 59.277035 60 43 45
-3.432883 -6.117246 59.223160 61 43 45
-3.429819 -5.984234 59.170300 61 43 45
-3.426817 -5.851557 59.118511 60 42 43
-3.423880 -5.719211 59.067837 59 41 42
-3.421011 -5.587195 59.018341 58 40 41
-3.418213 -5.455506 58.970078 57 39 40
-3.415490 -5.324142 58.923096 56 38 38
-3.412845 -5.193098 58.877457 55 37 37
-3.410280 -5.062370 58.833202 54 36 36
-3.407797 -4.931952 58.790371 54 35 36
-3.405399 -4.801839 58.749004 55 36 38
-3.403087 -4.672021 58.709118 56 37 39
-3.400861 -4.542491 58.670723 57 38 40
-3.398722 -4.413240 58.633820 57 38 41
-3.396669 -4.284256 58.598404 56 38 40
-3.394701 -4.155528 58.564445 55 37 39
-3.392815 -4.027044 58.531910 54 36 37
-3.391009 -3.898793 58.500755 53 36 37
-3.389280 -3.770761 58.470932 54 36 36
-3.387626 -3.642939 58.442390 55 37 37
-3.386042 -3.515312 58.415062 56 38 37
-3.384526 -3.387871 58.388905 57 39 37
-3.383073 -3.260605 58.363853 57 39 37
-3.381682 -3.133502 58.339844 57 39 36
-3.380348 -3.006555 58.316830 56 39 36
-3.379067 -2.879752 58.294743 56 39 37
-3.377838 -2.753087 58.273537 56 39 38
-3.376656 -2.626549 58.253139 57 39 38
-3.375517 -2.500131 58.233494 56 39 38
-3.374418 -2.373827 58.214539 54 37 37
-3.373356 -2.247627 58.196205 51 36 36
-3.372325 -2.121528 58.178425 49 34 34
-3.371322 -1.995521 58.161125 46 32 32
-3.370344 -1.869603 58.144241 45 31 32
-3.369385 -1.743767 58.127712 47 33 33
-3.368444 -1.618011 58.111477 49 34 34
-3.367517 -1.492332 58.095486 50 35 35
-3.366603 -1.366726 58.079704 50 36 36
-3.365698 -1.241192 58.064098 51 36 37
-3.364803 -1.115729 58.048653 52 36 37
-3.363916 -0.990335 58.033356 52 37 38
-3.363038 -0.865008 58.018215 52 37 38
-3.362170 -0.739750 58.003239 53 37 38
-3.361313 -0.614558 57.988441 53 37 38
-3.360466 -0.489431 57.973843 52 36 37
-3.359632 -0.364368 57.959446 52 35 37
-3.358810 -0.239369 57.945274 51 34 36
-3.358002 -0.114431 57.931324 50 33 35
-3.357205 0.010447 57.917587 50 33 35
-3.356421 0.135267 57.904060 51 33 35
-3.355648 0.260028 57.890709 52 34 36
-3.354884 0.384734 57.877533 52 35 36
-3.354127 0.509383 57.864479 52 36 36
-3.353376 0.633977 57.851528 51 37 35
-3.352630 0.758517 57.838657 49 36 34
-3.351887 0.883002 57.825840 47 34 32
-3.351146 1.007432 57.813057 46 32 31
-3.350408 1.131808 57.800316 46 32 31
-3.349672 1.256130 57.787624 48 33 34
-3.348942 1.380400 57.775024 51 35 37
-3.348218 1.504618 57.762543 53 36 38
-3.347506 1.628788 57.750256 54 36 39
-3.346810 1.752914 57.738243 54 36 40
-3.346135 1.876999 57.726604 55 36 39
-3.345488 2.001051 57.715439 55 37 39
-3.344876 2.125077 57.704872 55 37 38
-3.344306 2.249087 57.695045 54 35 37
-3.343786 2.373089 57.686081 52 34 36
-3.343326 2.497097 57.678135 50 33 34
-3.342932 2.621123 57.671349 49 32 33
-3.342615 2.745183 57.665882 49 32 32
-3.342383 2.869291 57.661877 49 33 33
-3.342244 2.993467 57.659481 50 35 34
-3.342207 3.117726 57.658840 51 36 35
-3.342280 3.242090 57.660099 53 37 37
-3.342470 3.366577 57.663372 53 37 38
-3.342783 3.491207 57.668774 53 37 38
-3.343225 3.616000 57.676403 52 36 38
-3.343801 3.740975 57.686344 51 35 38
-3.344513 3.866150 57.698624 51 34 37
-3.345364 3.991544 57.713295 50 34 36
-3.346351 4.117169 57.730335 49 33 34
-3.347475 4.243042 57.749725 48 33 34
-3.348732 4.369169 57.771400 48 33 33
-3.350116 4.495563 57.795280 48 32 33
-3.351622 4.622227 57.821262 47 32 33
-3.353243 4.749166 57.849228 48 32 33
-3.354972 4.876383 57.879063 49 33 34
-3.356802 5.003878 57.910629 50 34 34
-3.358726 5.131654 57.943825 50 34 35
-3.360739 5.259712 57.978554 50 34 35
-3.362838 5.388056 58.014755 49 34 36
-3.365020 5.516693 58.052391 49 34 36
-3.367284 5.645631 58.091461 50 34 36
-3.369634 5.774884 58.132004 50 35 36
-3.372074 5.904469 58.174095 50 35 37
-3.374610 6.034408 58.217842 50 35 37
-3.377249 6.164724 58.263378 49 35 37
-3.380002 6.295447 58.310867 49 35 36
-3.382877 6.426607 58.360462 48 34 35
-3.385884 6.558238 58.412342 47 33 35
-3.389033 6.690372 58.466675 47 33 34
-3.392334 6.823044 58.523609 47 33 34
-3.395793 6.956287 58.583282 47 33 33
-3.399417 7.090132 58.645805 47 33 32
-3.403211 7.224607 58.711266 47 34 32
-3.407179 7.359739 58.779709 46 34 33
-3.411320 7.495548 58.851158 46 34 34
-3.415635 7.632053 58.925602 45 33 34
-3.420121 7.769268 59.002991 44 33 33
-3.424773 7.907198 59.083244 43 32 32
-3.429585 8.045850 59.166248 42 32 31
-3.434547 8.185218 59.251854 42 32 31
-3.439649 8.325294 59.339870 42 32 31
-3.444878 8.466062 59.430088 42 32 31
-3.450220 8.607500 59.522243 41 31 31
-3.455657 8.749578 59.616055 40 30 31
-3.461173 8.892260 59.711201 39 29 30
-3.466746 9.035501 59.807343 37 29 30
-3.472355 9.179255 59.904121 37 28 30
-3.477981 9.323468 60.001163 37 27 30
-3.483600 9.468082 60.098103 37 27 29
-3.489192 9.613042 60.194588 37 26 28
-3.494739 9.758289 60.290276 37 26 27
-3.500222 9.903770 60.384876 38 27 27
-3.505629 10.049439 60.478153 38 28 27
-3.510948 10.195256 60.569920 38 28 28
-3.516172 10.341187 60.660038 38 29 28
-3.521298 10.487217 60.748474 37 29 29
-3.526327 10.633334 60.835228 37 29 29
-3.531264 10.779543 60.920391 37 29 29
-3.536115 10.925858 61.004093 36 29 29
-3.540894 11.072305 61.086529 35 29 29
-3.545612 11.218915 61.167923 33 28 28
-3.550285 11.365732 61.248539 32 28 27
-3.554928 11.512802 61.328648 33 28 27
-3.559559 11.660174 61.408535 33 27 26
-3.564193 11.807902 61.488480 34 27 27
-3.568847 11.956042 61.568768 35 27 27
-3.573536 12.104646 61.649654 35 27 27
-3.578274 12.253768 61.731400 35 27 26
-3.583076 12.403463 61.814247 36 26 26
-3.587956 12.553787 61.898426 36 26 26
-3.592926 12.704793 61.984165 36 26 26
-3.597998 12.856535 62.071674 36 26 25
-3.603186 13.009071 62.161175 36 26 24
-3.608501 13.162459 62.252876 35 26 24
-3.613957 13.316758 62.346996 34 26 24
-3.619564 13.472027 62.443726 33 26 25
-3.625335 13.628327 62.543282 32 26 25
-3.631280 13.785720 62.645844 32 26 26
-3.637410 13.944263 62.751602 32 26 26
-3.643734 14.104014 62.860703 32 26 26
-3.650261 14.265027 62.973301 31 25 26
-3.656997 14.427350 63.089504 31 25 26
-3.663947 14.591028 63.209412 31 25 25
-3.671116 14.756100 63.333080 30 24 24
-3.678505 14.922600 63.460556 30 24 24
-3.686115 15.090554 63.591839 30 23 24
-3.693944 15.259979 63.726906 30 23 25
-3.701989 15.430887 63.865696 30 23 25
-3.710244 15.603276 64.008110 30 23 25
-3.718701 15.777136 64.154007 30 23 25
-3.727348 15.952436 64.303177 29 23 25
-3.736169 16.129135 64.455360 29 23 24
-3.745146 16.307167 64.610237 29 24 24
-3.754256 16.486448 64.767387 29 24 23
-3.763468 16.666862 64.926315 29 24 23
-3.772750 16.848274 65.086449 29 24 24
-3.782063 17.030516 65.247116 28 24 24
-3.791365 17.213398 65.407593 28 24 24
-3.800610 17.396711 65.567078 28 24 24
-3.809749 17.580225 65.724739 29 24 24
-3.372332 -8.976866 60.425713 58 44 42
-3.368342 -8.836141 60.354214 58 44 42
-3.364409 -8.695872 60.283745 58 43 42
-3.360536 -8.556059 60.214344 58 41 42
-3.356723 -8.416697 60.146027 57 39 40
-3.352970 -8.277777 60.078777 57 39 40
-3.349276 -8.139291 60.012592 57 39 42
-3.345640 -8.001228 59.947441 59 41 45
-3.342059 -7.863576 59.883282 60 42 47
-3.338532 -7.726326 59.820080 60 43 47
-3.335056 -7.589462 59.757793 61 44 47
-3.331629 -7.452978 59.696384 60 44 46
-3.328248 -7.316861 59.635815 60 44 45
-3.324914 -7.181105 59.576061 59 44 45
-3.321624 -7.045701 59.517117 59 44 44
-3.318378 -6.910643 59.458965 58 44 44
-3.315178 -6.775928 59.401619 59 44 45
-3.312023 -6.641551 59.345089 59 43 45
-3.308915 -6.507511 59.289398 60 43 45
-3.305855 -6.373804 59.234577 60 43 45
-3.302846 -6.240429 59.180660 61 43 45
-3.299890 -6.107385 59.127697 62 42 45
-3.296990 -5.974669 59.075726 62 41 44
-3.294148 -5.842282 59.024807 61 41 43
-3.291368 -5.710221 58.974991 60 41 42
-3.288652 -5.578484 58.926323 59 40 42
-3.286004 -5.447068 58.878872 58 39 40
-3.283426 -5.315972 58.832687 57 38 39
-3.280922 -5.185192 58.787827 55 37 37
-3.278495 -5.054722 58.744331 54 37 36
-3.276146 -4.924559 58.702240 54 37 37
-3.273878 -4.794694 58.661598 55 37 37
-3.271691 -4.665122 58.622421 56 38 39
-3.269587 -4.535833 58.584724 57 39 40
-3.267566 -4.406818 58.548508 56 39 40
-3.265627 -4.278067 58.513756 55 38 39
-3.263768 -4.149568 58.480453 54 37 37
-3.261988 -4.021309 58.448559 53 35 36
-3.260284 -3.893280 58.418030 52 35 36
-3.258654 -3.765466 58.388817 53 36 37
-3.257094 -3.637857 58.360870 54 37 37
-3.255601 -3.510441 58.334122 55 38 38
-3.254172 -3.383207 58.308517 57 38 38
-3.252804 -3.256143 58.283993 58 38 38
-3.251492 -3.129240 58.260490 58 39 37
-3.250234 -3.002488 58.237949 57 39 37
-3.249026 -2.875878 58.216309 57 39 37
-3.247865 -2.749400 58.195511 57 39 38
-3.246748 -2.623048 58.175488 57 39 38
-3.245670 -2.496812 58.156178 56 39 38
-3.244629 -2.370686 58.137516 53 38 37
-3.243620 -2.244663 58.119438 51 36 35
-3.242640 -2.118736 58.101875 48 34 34
-3.241684 -1.992901 58.084755 46 33 32
-3.240750 -1.867152 58.068020 45 32 32
-3.239835 -1.741484 58.051609 47 33 33
-3.238934 -1.615895 58.035469 49 35 35
-3.238045 -1.490381 58.019550 50 35 36
-3.237168 -1.364941 58.003830 50 36 36
-3.236300 -1.239572 57.988277 51 36 37
-3.235441 -1.114273 57.972889 52 36 38
-3.234591 -0.989043 57.957657 53 37 39
-3.233751 -0.863881 57.942600 53 37 40
-3.232921 -0.738787 57.927731 53 37 40
-3.232103 -0.613759 57.913074 53 37 40
-3.231297 -0.488796 57.898640 53 37 39
-3.230506 -0.363897 57.884460 52 36 38
-3.229729 -0.239060 57.870537 52 35 38
-3.228967 -0.114283 57.856888 51 34 37
-3.228220 0.010434 57.843498 52 34 37
-3.227487 0.135094 57.830364 52 34 36
-3.226766 0.259699 57.817455 52 35 37
-3.226057 0.384250 57.804752 52 36 37
-3.225358 0.508747 57.792225 52 37 37
-3.224666 0.633192 57.779827 51 37 36
-3.223980 0.757584 57.767536 49 37 35
-3.223299 0.881925 57.755322 48 36 34
-3.222620 1.006214 57.743160 47 35 34
-3.221944 1.130452 57.731049 48 35 35
-3.221272 1.254639 57.718998 50 35 37
-3.220604 1.378775 57.707031 52 35 39
-3.219942 1.502864 57.695183 54 36 40
-3.219291 1.626906 57.683517 54 36 41
-3.218655 1.750906 57.672108 54 36 40
-3.218038 1.874868 57.661060 54 35 40
-3.217447 1.998799 57.650471 55 36 40
-3.216888 2.122705 57.640453 57 38 41
-3.216369 2.246596 57.631153 56 37 40
-3.215897 2.370481 57.622700 54 35 38
-3.215481 2.494374 57.615242 53 34 36
