ply
format ascii 1.0
element vertex 1206
property float x
property float y
property float z
property uchar red
property uchar green
property uchar blue
end_header
0.633282 2.288807 48.079159 213 213 214
0.633596 2.393634 48.102955 179 181 182
0.633916 2.498590 48.127277 174 180 180
0.634247 2.603693 48.152367 179 187 189
0.634591 2.708962 48.178486 159 170 172
0.634952 2.814420 48.205929 136 147 151
0.635335 2.920096 48.234997 152 161 168
0.635743 3.026017 48.265987 202 207 215
0.636181 3.132218 48.299221 231 234 240
0.636652 3.238731 48.334980 223 225 231
0.637160 3.345592 48.373543 201 202 210
0.637708 3.452837 48.415169 173 173 181
0.638300 3.560503 48.460072 142 141 148
0.638937 3.668624 48.508427 125 123 126
0.639621 3.777232 48.560375 125 122 121
0.640354 3.886360 48.616020 139 136 132
0.641136 3.996037 48.675423 151 148 143
0.641968 4.106287 48.738602 142 140 135
0.642850 4.217137 48.805561 133 132 129
0.643782 4.328609 48.876282 147 148 145
0.644762 4.440723 48.950726 160 161 161
0.645791 4.553501 49.028854 150 151 151
0.646869 4.666962 49.110634 133 133 135
0.647994 4.781128 49.196041 139 139 142
0.649166 4.896019 49.285038 172 172 177
0.650385 5.011659 49.377628 207 207 213
0.651652 5.128069 49.473801 214 213 221
0.652966 5.245271 49.573544 191 189 202
0.654327 5.363289 49.676857 160 156 174
0.655734 5.482141 49.783703 133 127 148
0.657187 5.601847 49.894047 121 113 136
0.658686 5.722421 50.007816 124 115 137
0.660228 5.843874 50.124924 128 119 139
0.661813 5.966211 50.245232 125 115 132
0.663438 6.089436 50.368584 119 109 123
0.665101 6.213548 50.494816 125 114 125
0.666799 6.338538 50.623730 150 138 147
0.668529 6.464399 50.755108 175 163 169
0.670290 6.591120 50.888760 174 163 167
0.672077 6.718688 51.024456 149 139 142
0.673889 6.847088 51.162010 119 109 112
0.675722 6.976308 51.301228 102 94 97
0.677576 7.106333 51.441929 104 96 99
0.679446 7.237148 51.583939 114 106 110
0.681332 7.368739 51.727097 123 116 120
0.683230 7.501089 51.871231 124 117 122
0.685139 7.634178 52.016171 121 112 118
0.687057 7.767983 52.161728 124 112 118
0.688979 7.902480 52.307705 131 117 123
0.690905 8.037639 52.453892 135 120 124
0.692830 8.173427 52.600075 131 116 117
0.694753 8.309809 52.746025 129 114 113
0.696669 8.446746 52.891518 131 118 115
0.698577 8.584203 53.036343 120 109 105
0.700473 8.722142 53.180305 99 91 85
0.702356 8.860535 53.323254 92 86 79
0.704224 8.999353 53.465073 109 102 95
0.706076 9.138576 53.605679 148 140 133
0.707911 9.278190 53.745037 190 182 175
0.709731 9.418189 53.883163 201 191 185
0.711534 9.558569 54.020077 171 159 156
0.713322 9.699329 54.155819 126 113 111
0.715095 9.840469 54.290428 91 78 78
0.716853 9.981985 54.423916 79 66 66
0.718597 10.123862 54.556255 83 70 71
0.720323 10.266080 54.687366 91 79 79
0.722032 10.408599 54.817089 95 84 84
0.723720 10.551368 54.945202 98 87 85
0.725382 10.694319 55.071407 98 88 86
0.727014 10.837366 55.195328 92 83 81
0.728611 10.980412 55.316555 79 69 68
0.730166 11.123351 55.434639 64 55 56
0.731674 11.266070 55.549133 59 48 51
0.733130 11.408461 55.659618 59 48 53
0.734527 11.550425 55.765739 61 50 57
0.735864 11.691876 55.867229 65 52 60
0.737138 11.832758 55.963951 66 53 62
0.738349 11.973035 56.055893 65 51 62
0.739500 12.112717 56.143238 65 50 62
0.740594 12.251840 56.226284 67 52 63
0.741637 12.390483 56.305531 74 57 67
0.742639 12.528764 56.381607 84 67 76
0.743610 12.666834 56.455284 92 74 81
0.744560 12.804870 56.527405 92 74 80
0.745501 12.943072 56.598892 86 69 73
0.746447 13.081656 56.670700 79 63 65
0.747410 13.220844 56.743771 75 59 61
0.748401 13.360853 56.818993 74 60 61
0.749430 13.501887 56.897171 76 63 63
0.750508 13.644138 56.979023 76 64 64
0.751642 13.787765 57.065105 72 61 59
0.752838 13.932909 57.155891 64 53 52
0.754099 14.079670 57.251659 57 47 46
0.755429 14.228119 57.352570 55 46 46
0.756826 14.378300 57.458664 52 44 44
0.758291 14.530232 57.569881 48 40 40
0.759822 14.683916 57.686096 43 35 36
0.761415 14.839328 57.807095 40 32 33
0.763069 14.996443 57.932652 38 30 29
0.764780 15.155232 58.062553 37 28 27
0.766546 15.315676 58.196609 37 28 26
0.768364 15.477757 58.334663 37 28 25
0.770234 15.641482 58.476635 38 28 26
0.772156 15.806873 58.622517 38 28 27
0.785299 -11.256232 51.235203 36 28 27
0.784949 -11.140821 51.212379 38 31 30
0.784565 -11.025027 51.187321 39 33 36
0.784142 -10.908804 51.159740 40 37 42
0.783677 -10.792123 51.129425 44 43 50
0.783168 -10.674970 51.096230 49 50 60
0.782614 -10.557342 51.060047 56 58 70
0.782013 -10.439252 51.020844 66 67 81
0.781366 -10.320724 50.978638 94 92 109
0.780674 -10.201791 50.933502 157 150 166
0.779939 -10.082492 50.885536 222 213 225
0.779163 -9.962872 50.834881 216 205 214
0.778347 -9.842974 50.781666 137 119 129
0.777495 -9.722851 50.726078 72 47 55
0.776609 -9.602544 50.668251 63 36 40
0.775691 -9.482100 50.608372 75 47 51
0.774744 -9.361562 50.546581 83 55 57
0.773770 -9.240972 50.483051 84 57 59
0.772772 -9.120368 50.417938 80 55 58
0.771752 -8.999794 50.351414 78 56 59
0.770714 -8.879287 50.283649 82 61 66
0.769659 -8.758888 50.214828 87 67 75
0.768591 -8.638638 50.145153 93 74 84
0.767513 -8.518580 50.074833 98 80 90
0.766429 -8.398759 50.004120 97 80 90
0.765343 -8.279220 49.933273 95 79 87
0.764260 -8.160012 49.862583 99 84 90
0.763184 -8.041185 49.792366 111 96 101
0.762119 -7.922785 49.722927 126 112 114
0.761072 -7.804860 49.654602 137 123 124
0.760047 -7.687450 49.587704 135 122 121
0.759048 -7.570595 49.522549 121 107 106
0.758080 -7.454325 49.459404 105 90 89
0.757147 -7.338663 49.398525 95 78 79
0.756252 -7.223624 49.340111 88 70 73
0.755396 -7.109213 49.284306 83 65 68
0.754583 -6.995428 49.231205 85 67 69
0.753811 -6.882255 49.180847 91 74 75
0.753081 -6.769674 49.133209 94 79 79
0.752391 -6.657658 49.088223 102 89 88
0.751740 -6.546174 49.045765 136 125 122
0.751126 -6.435185 49.005692 176 167 164
0.750546 -6.324655 48.967823 173 166 164
0.749996 -6.214543 48.931973 128 122 124
0.749475 -6.104814 48.897945 91 86 93
0.748978 -5.995433 48.865559 90 86 96
0.748504 -5.886369 48.834648 107 104 119
0.748051 -5.777596 48.805061 119 115 134
0.747616 -5.669091 48.776688 128 123 145
0.747198 -5.560835 48.749432 147 140 163
0.746796 -5.452814 48.723209 167 159 181
0.746410 -5.345013 48.697975 178 170 191
0.746037 -5.237424 48.673695 161 153 172
0.745679 -5.130036 48.650333 122 116 134
0.745335 -5.022842 48.627869 111 105 124
0.745004 -4.915833 48.606274 135 131 151
0.744686 -4.808999 48.585510 154 150 171
0.744379 -4.702330 48.565517 140 136 158
0.744084 -4.595814 48.546246 107 102 124
0.743798 -4.489440 48.527603 88 82 102
0.743521 -4.383194 48.509491 102 95 111
0.743250 -4.277064 48.491802 148 140 150
0.742983 -4.171035 48.474400 206 199 202
0.742718 -4.065094 48.457153 221 215 212
0.742454 -3.959227 48.439911 176 167 159
0.742188 -3.853423 48.422516 135 122 114
0.741916 -3.747670 48.404823 130 116 110
0.741638 -3.641959 48.386665 117 102 101
0.741351 -3.536282 48.367908 115 99 103
0.741051 -3.430632 48.348389 164 150 156
0.740739 -3.325005 48.327980 210 199 206
0.740410 -3.219399 48.306561 203 192 200
0.740065 -3.113813 48.284027 174 162 170
0.739701 -3.008250 48.260311 146 133 143
0.739319 -2.902715 48.235348 125 112 125
0.738917 -2.797215 48.209122 138 126 140
0.738495 -2.691756 48.181629 159 149 164
0.738055 -2.586351 48.152924 149 141 156
0.737598 -2.481010 48.123066 134 127 142
0.737124 -2.375747 48.092171 140 133 147
0.736637 -2.270574 48.060383 154 147 161
0.736139 -2.165506 48.027863 157 149 162
0.735632 -2.060555 47.994820 153 144 156
0.735121 -1.955736 47.961483 161 150 160
0.734610 -1.851058 47.928120 178 166 176
0.734102 -1.746533 47.894985 173 162 170
0.733602 -1.642169 47.862366 143 134 141
0.733115 -1.537971 47.830566 128 121 129
0.732644 -1.433944 47.799881 134 130 139
0.732195 -1.330088 47.770603 133 131 142
0.731773 -1.226402 47.743019 124 122 136
0.731380 -1.122882 47.717415 103 100 116
0.731022 -1.019519 47.694038 78 76 92
0.730702 -0.916305 47.673130 100 96 111
0.730422 -0.813227 47.654892 172 168 180
0.730186 -0.710269 47.639496 233 231 236
0.729996 -0.607416 47.627068 253 252 253
0.729852 -0.504649 47.617706 254 254 254
0.729756 -0.401949 47.611465 248 246 247
0.729709 -0.299295 47.608349 228 226 227
0.729708 -0.196667 47.608326 204 199 200
0.729754 -0.094046 47.611320 198 193 192
0.729844 0.008589 47.617214 223 218 217
0.729977 0.111256 47.625866 244 243 242
0.730149 0.213972 47.637096 252 251 248
0.730358 0.316752 47.650703 253 254 246
0.730599 0.419610 47.666466 251 253 244
0.730870 0.522556 47.684147 239 241 234
0.731167 0.625601 47.703495 227 232 226
0.731485 0.728751 47.724266 238 243 241
0.731822 0.832011 47.746208 247 250 252
0.732172 0.935383 47.769085 244 247 251
0.732534 1.038870 47.792671 247 250 253
0.732903 1.142470 47.816742 248 248 249
0.733276 1.246181 47.841110 227 227 227
0.733652 1.350002 47.865604 216 216 215
0.734027 1.453927 47.890083 235 235 234
0.734400 1.557954 47.914436 252 252 251
0.734770 1.662078 47.938576 254 253 252
0.735136 1.766297 47.962460 252 251 249
0.735498 1.870608 47.986069 251 250 249
0.735856 1.975011 48.009434 253 253 253
0.736211 2.079507 48.032616 254 254 254
0.736565 2.184099 48.055710 245 243 245
0.736920 2.288793 48.078861 220 217 220
0.737279 2.393598 48.102242 200 199 202
0.737644 2.498527 48.126060 208 210 213
0.738019 2.603595 48.150558 215 220 224
0.738409 2.708822 48.176006 191 199 204
0.738818 2.814232 48.202698 154 164 171
0.739251 2.919850 48.230934 148 157 167
0.739713 3.025707 48.261036 187 193 203
0.740207 3.131835 48.293327 231 234 240
0.740740 3.238270 48.328102 246 248 250
0.741316 3.345047 48.365662 239 240 243
0.741939 3.452203 48.406273 212 212 219
0.742611 3.559775 48.450165 171 170 177
0.743337 3.667800 48.497532 135 133 137
0.744119 3.776311 48.548534 119 115 116
0.744958 3.885343 48.603291 130 126 124
0.745856 3.994925 48.661880 151 147 146
0.746814 4.105086 48.724335 148 145 144
0.747830 4.215850 48.790665 136 134 135
0.748906 4.327243 48.860863 145 145 147
0.750041 4.439287 48.934895 159 159 161
0.751234 4.552003 49.012730 153 153 156
0.752485 4.665412 49.094326 138 136 141
0.753792 4.779535 49.179649 135 133 138
0.755157 4.894393 49.268677 150 149 154
0.756578 5.010009 49.361374 170 170 176
0.758054 5.126402 49.457718 179 177 186
0.759587 5.243595 49.557701 176 173 186
0.761174 5.361607 49.661274 166 161 178
0.762816 5.480456 49.768402 148 141 161
0.764512 5.600160 49.879017 140 131 153
0.766259 5.720728 49.993031 146 136 158
0.768057 5.842173 50.110336 146 136 156
0.769903 5.964494 50.230770 133 122 140
0.771795 6.087695 50.354183 115 104 120
0.773729 6.211771 50.480377 111 100 113
0.775703 6.336712 50.609146 136 125 135
0.777713 6.462511 50.740280 176 165 173
0.779756 6.589151 50.873558 191 181 186
0.781828 6.716623 51.008778 169 158 163
0.783927 6.844910 51.145737 133 124 128
0.786050 6.973999 51.284248 112 104 107
0.788195 7.103876 51.424145 109 101 104
0.790358 7.234528 51.565266 115 108 111
0.792537 7.365940 51.707447 121 115 118
0.794730 7.498096 51.850536 123 117 121
0.796935 7.630978 51.994370 124 117 122
0.799148 7.764568 52.138790 128 119 124
0.801368 7.898840 52.283607 133 122 126
0.803591 8.033767 52.428627 135 122 126
0.805813 8.169320 52.573650 131 118 119
0.808033 8.305466 52.718460 127 115 115
0.810246 8.442169 52.862858 125 114 112
0.812450 8.579394 53.006638 115 106 102
0.814642 8.717111 53.149624 101 93 88
0.816819 8.855288 53.291672 96 88 81
0.818980 8.993900 53.432678 106 97 89
0.821124 9.132930 53.572559 140 130 122
0.823250 9.272365 53.711292 189 179 171
0.825359 9.412198 53.848888 216 205 198
0.827451 9.552426 53.985363 196 185 179
0.829526 9.693049 54.120758 145 133 129
0.831585 9.834064 54.255089 96 85 83
0.833628 9.975465 54.388367 78 66 66
0.835654 10.117233 54.520535 86 74 75
0.837661 10.259348 54.651505 99 87 89
0.839647 10.401763 54.781086 106 94 94
0.841609 10.544424 54.909042 105 93 94
0.843540 10.687258 55.035042 102 91 91
0.845435 10.830173 55.158695 95 84 83
0.847288 10.973069 55.279564 80 70 70
0.849091 11.115833 55.397179 67 57 60
0.850836 11.258348 55.511059 62 52 57
0.852518 11.400499 55.620777 62 53 59
0.854130 11.542185 55.725960 65 54 62
0.855668 11.683320 55.826344 68 56 66
0.857131 11.823837 55.921761 71 58 68
0.858517 11.963707 56.012218 71 58 70
0.859831 12.102935 56.097893 72 58 71
0.861075 12.241559 56.179108 73 58 71
0.862259 12.379663 56.256359 76 60 72
0.863393 12.517365 56.330307 86 69 79
0.864488 12.654821 56.401745 97 80 88
0.865558 12.792216 56.471542 101 84 90
0.866617 12.929754 56.540657 94 78 82
0.867681 13.067660 56.610069 84 69 71
0.868764 13.206164 56.680763 77 63 64
0.869882 13.345489 56.753654 77 64 64
0.871045 13.485847 56.829582 81 69 68
0.872267 13.627437 56.909275 82 71 69
0.873555 13.770422 56.993328 76 65 63
0.874918 13.914950 57.082222 67 57 55
0.876359 14.061124 57.176250 60 51 50
0.877882 14.209022 57.275593 57 49 48
0.879486 14.358683 57.380268 54 46 45
0.881172 14.510135 57.490253 49 41 40
0.882936 14.663372 57.605389 44 36 36
0.884777 14.818377 57.725479 40 32 32
0.886690 14.975122 57.850288 38 30 29
0.888672 15.133584 57.979614 37 28 27
0.890721 15.293739 58.113258 37 27 25
0.892833 15.455580 58.251080 37 28 25
0.895009 15.619115 58.393013 38 28 26
0.897247 15.784374 58.539074 39 29 27
0.899551 15.951411 58.689362 41 29 28
0.896173 -11.261613 51.259693 37 27 26
0.895796 -11.146434 51.238174 39 29 29
0.895380 -11.030856 51.214378 39 31 34
0.894919 -10.914832 51.188007 40 35 38
0.894409 -10.798330 51.158836 42 39 46
0.893847 -10.681334 51.126690 47 47 56
0.893232 -10.563840 51.091476 54 54 66
0.892561 -10.445861 51.053146 64 63 77
0.891837 -10.327420 51.011715 89 83 101
0.891060 -10.208549 50.967247 141 130 149
0.890231 -10.089289 50.919842 197 181 200
0.889353 -9.969682 50.869633 191 173 188
0.888429 -9.849775 50.816753 125 102 115
0.887460 -9.729616 50.761375 71 45 54
0.886451 -9.609252 50.703648 66 39 45
0.885404 -9.488728 50.643742 78 51 54
0.884321 -9.368087 50.581814 86 59 61
0.883206 -9.247373 50.518024 88 62 64
0.882061 -9.126628 50.452541 85 61 64
0.880890 -9.005893 50.385540 84 61 65
0.879695 -8.885212 50.317204 88 66 72
0.878480 -8.764627 50.247726 93 72 81
0.877249 -8.644176 50.177299 97 77 89
0.876006 -8.523911 50.106174 100 80 92
0.874754 -8.403876 50.034592 98 78 89
0.873499 -8.284120 49.962826 98 79 87
0.872247 -8.164692 49.891182 110 92 97
0.871002 -8.045644 49.819977 124 107 109
0.869770 -7.927025 49.749535 121 104 104
0.868558 -7.808882 49.680191 112 96 93
0.867371 -7.691259 49.612274 109 95 92
0.866214 -7.574195 49.546093 108 95 92
0.865092 -7.457723 49.481949 105 91 89
0.864011 -7.341865 49.420078 100 85 86
0.862972 -7.226638 49.360699 97 80 83
0.861981 -7.112050 49.303967 94 77 80
0.861037 -6.998096 49.249985 97 78 82
0.860142 -6.884767 49.198795 101 83 87
0.859296 -6.772041 49.150387 101 84 86
0.858497 -6.659893 49.104698 102 86 87
0.857744 -6.548289 49.061615 123 110 111
0.857033 -6.437195 49.020996 152 142 143
0.856364 -6.326573 48.982677 148 139 143
0.855730 -6.216382 48.946449 114 107 113
0.855130 -6.106586 48.912136 92 85 96
0.854560 -5.997149 48.879543 105 98 113
0.854018 -5.888039 48.848503 130 123 141
0.853499 -5.779228 48.818851 140 131 151
0.853003 -5.670691 48.790459 142 131 153
0.852527 -5.562408 48.763222 162 149 170
0.852069 -5.454361 48.737034 187 172 192
0.851629 -5.346536 48.711845 180 167 184
0.851205 -5.238919 48.687588 142 129 145
0.850796 -5.131501 48.664223 110 100 115
0.850402 -5.024273 48.641716 113 105 122
0.850023 -4.917223 48.620022 141 135 153
0.849657 -4.810344 48.599094 162 157 177
0.849304 -4.703623 48.578880 152 147 168
0.848962 -4.597051 48.559315 114 109 130
0.848630 -4.490616 48.540314 84 78 97
0.848306 -4.384305 48.521782 92 84 99
0.847988 -4.278106 48.503616 146 138 147
0.847675 -4.172007 48.485699 212 206 208
0.847364 -4.065995 48.467899 228 222 218
0.847052 -3.960058 48.450085 178 168 160
0.846738 -3.854187 48.432121 124 108 100
0.846419 -3.748370 48.413860 110 92 85
0.846092 -3.642599 48.395168 104 86 84
0.845755 -3.536867 48.375908 123 106 109
0.845406 -3.431168 48.355938 184 171 176
0.845043 -3.325498 48.335144 216 205 211
0.844663 -3.219856 48.313416 190 177 186
0.844265 -3.114240 48.290653 150 134 146
0.843848 -3.008654 48.266788 120 104 118
0.843410 -2.903102 48.241772 114 100 115
0.842952 -2.797589 48.215572 134 122 137
0.842474 -2.692123 48.188202 150 140 154
0.841975 -2.586715 48.159691 150 141 156
0.841458 -2.481373 48.130112 153 147 160
0.840924 -2.376111 48.099552 169 163 176
0.840375 -2.270941 48.068142 180 173 186
0.839814 -2.165875 48.036045 172 164 177
0.839244 -2.060926 48.003445 157 148 160
0.838669 -1.956106 47.970558 160 150 160
0.838093 -1.851425 47.937626 176 163 172
0.837521 -1.746895 47.904903 173 161 168
0.836957 -1.642522 47.872654 153 142 148
0.836407 -1.538312 47.841175 146 138 145
0.835874 -1.434269 47.810738 150 144 152
0.835366 -1.330395 47.781639 141 136 146
0.834885 -1.226688 47.754154 124 120 132
0.834438 -1.123144 47.728565 103 99 112
0.834028 -1.019757 47.705128 91 86 100
0.833660 -0.916516 47.684071 125 119 133
0.833337 -0.813410 47.665604 191 185 197
0.833063 -0.710425 47.649906 237 232 239
0.832839 -0.607545 47.637127 252 250 252
0.832668 -0.504751 47.627354 252 250 251
0.832552 -0.402026 47.620667 231 227 229
0.832489 -0.299350 47.617077 197 191 192
0.832480 -0.196701 47.616573 179 172 173
0.832524 -0.094061 47.619087 182 175 176
0.832619 0.008591 47.624516 197 189 190
0.832762 0.111272 47.632721 215 209 208
0.832951 0.214001 47.643547 235 229 228
0.833183 0.316792 47.656792 247 242 239
0.833453 0.419660 47.672234 248 245 240
0.833758 0.522617 47.689648 240 239 233
0.834092 0.625670 47.708778 234 235 230
0.834452 0.728829 47.729385 244 246 243
0.834834 0.832098 47.751205 249 250 251
0.835232 0.935479 47.773994 246 248 250
0.835643 1.038975 47.797523 248 249 252
0.836064 1.142585 47.821556 245 246 247
0.836489 1.246306 47.845894 223 223 223
0.836917 1.350136 47.870361 209 209 208
0.837344 1.454070 47.894806 228 228 227
0.837769 1.558105 47.919090 249 249 249
0.838189 1.662236 47.943134 254 254 254
0.838604 1.766460 47.966877 254 253 253
0.839014 1.870773 47.990295 254 253 253
0.839418 1.975175 48.013409 254 254 254
0.839817 2.079665 48.036266 253 253 253
0.840214 2.184247 48.058975 246 243 244
0.840611 2.288927 48.081673 230 226 227
0.841011 2.393711 48.104523 225 222 223
0.841417 2.498614 48.127735 237 236 238
0.841833 2.603649 48.151554 243 244 247
0.842265 2.708836 48.176258 225 230 234
0.842717 2.814199 48.202141 187 195 202
0.843196 2.919764 48.229519 155 164 173
0.843706 3.025561 48.258717 169 177 187
0.844255 3.131624 48.290062 215 220 227
0.844846 3.237986 48.323872 246 247 250
0.845485 3.344686 48.360455 250 250 252
0.846178 3.451762 48.400089 235 236 241
0.846929 3.559251 48.443027 205 206 213
0.847741 3.667191 48.489479 166 165 170
0.848617 3.775617 48.539612 135 132 135
0.849561 3.884565 48.593559 138 135 136
0.850572 3.994066 48.651421 159 156 157
0.851653 4.104150 48.713234 155 153 155
0.852803 4.214845 48.779026 140 138 141
0.854023 4.326174 48.848785 144 143 147
0.855311 4.438162 48.922489 155 154 159
0.856668 4.550830 49.000099 153 152 157
0.858093 4.664201 49.081581 142 141 147
0.859584 4.778294 49.166882 136 135 141
0.861141 4.893131 49.255962 140 139 145
0.862764 5.008732 49.348793 147 145 153
0.864452 5.125117 49.445328 154 151 160
0.866204 5.242306 49.545525 166 161 173
0.868019 5.360318 49.649334 171 164 179
0.869896 5.479167 49.756687 159 152 169
0.871833 5.598867 49.867504 153 144 163
0.873829 5.719430 49.981686 161 151 170
0.875882 5.840860 50.099079 163 153 171
0.877988 5.963161 50.219536 147 137 152
0.880144 6.086328 50.342873 121 111 124
0.882347 6.210357 50.468891 108 99 110
0.884593 6.335238 50.597374 132 122 131
0.886879 6.460961 50.728115 181 171 178
0.889200 6.587510 50.860882 211 201 208
0.891553 6.714871 50.995476 193 182 188
0.893935 6.843031 51.131699 150 140 145
0.896342 6.971977 51.269379 121 112 117
0.898772 7.101694 51.408352 116 108 112
0.901221 7.232170 51.548454 119 113 117
0.903688 7.363392 51.689560 122 117 120
0.906170 7.495346 51.831520 123 119 123
0.908664 7.628016 51.974186 125 120 124
0.911168 7.761383 52.117409 128 122 126
0.913679 7.895427 52.261017 133 124 128
0.916193 8.030121 52.404831 136 126 129
0.918708 8.165439 52.548672 137 127 128
0.921219 8.301350 52.692333 137 126 127
0.923725 8.437821 52.835632 131 121 120
0.926220 8.574819 52.978367 118 107 105
0.928703 8.712315 53.120380 106 96 92
0.931171 8.850281 53.261547 101 92 85
0.933622 8.988694 53.401745 106 95 86
0.936055 9.127536 53.540916 132 119 109
0.938470 9.266796 53.679039 178 166 155
0.940866 9.406466 53.816097 217 206 196
0.943244 9.546547 53.952133 215 204 196
0.945605 9.687033 54.087158 165 154 148
0.947949 9.827922 54.221203 104 93 89
0.950274 9.969205 54.354233 79 68 66
0.952582 10.110864 54.486206 89 77 79
0.954868 10.252868 54.616985 106 94 97
0.957130 10.395173 54.746380 115 101 104
0.959364 10.537719 54.874123 113 99 101
0.961562 10.680427 54.999866 106 93 94
0.963718 10.823201 55.123184 95 82 85
0.965824 10.965935 55.243622 82 70 73
0.967870 11.108511 55.360683 71 60 64
0.969849 11.250809 55.473888 67 57 62
0.971753 11.392708 55.582764 67 57 63
0.973574 11.534103 55.686939 68 58 66
0.975308 11.674905 55.786137 70 59 69
0.976953 11.815047 55.880188 73 61 72
0.978507 11.954496 55.969097 76 64 76
0.979975 12.093257 56.053040 81 68 81
0.981361 12.231370 56.132347 82 68 81
0.982676 12.368921 56.207546 79 64 77
0.983931 12.506033 56.279316 84 68 79
0.985139 12.642865 56.348454 96 80 89
0.986318 12.779610 56.415894 103 87 94
0.987484 12.916476 56.482594 98 83 88
0.988656 13.053698 56.549583 88 75 77
0.989850 13.191510 56.617874 81 69 70
0.991083 13.330148 56.688416 82 69 70
0.992371 13.469830 56.762081 87 75 75
0.993726 13.610756 56.839615 88 76 76
0.995161 13.753106 56.921661 81 70 70
0.996682 13.897024 57.008686 72 61 61
0.998296 14.042623 57.101017 64 54 54
1.000006 14.189980 57.198833 60 51 50
1.001813 14.339138 57.302162 55 46 46
1.003715 14.490126 57.410973 50 42 41
1.005711 14.642938 57.525112 45 37 36
1.007796 14.797556 57.644367 40 33 31
1.009966 14.953952 57.768505 37 29 28
1.012218 15.112103 57.897320 36 27 26
1.014549 15.271991 58.030617 37 27 25
1.016955 15.433604 58.168255 38 27 25
1.019436 15.596961 58.310192 40 28 26
1.021993 15.762095 58.456451 42 29 28
1.024628 15.929070 58.607159 44 31 30
1.007226 -11.267824 51.287964 38 27 26
1.006825 -11.152820 51.267532 39 29 29
1.006379 -11.037407 51.244793 40 31 32
1.005881 -10.921535 51.219444 40 33 36
1.005327 -10.805170 51.191242 41 37 43
1.004714 -10.688294 51.160007 45 43 51
1.004039 -10.570904 51.125637 51 48 60
1.003301 -10.453008 51.088074 60 55 72
1.002501 -10.334631 51.047333 82 73 92
1.001639 -10.215803 51.003464 122 109 130
1.000718 -10.096564 50.956562 162 144 165
0.999740 -9.976957 50.906754 153 131 149
0.998707 -9.857029 50.854176 102 76 90
0.997624 -9.736827 50.798992 67 41 51
0.996492 -9.616397 50.741348 71 43 51
0.995314 -9.495785 50.681408 84 56 61
0.994095 -9.375037 50.619335 92 64 68
0.992838 -9.254195 50.555290 95 68 71
0.991545 -9.133306 50.489456 93 68 72
0.990220 -9.012410 50.422001 93 69 74
0.988867 -8.891554 50.353119 96 74 81
0.987490 -8.770780 50.283005 100 78 88
0.986094 -8.650135 50.211884 103 81 93
0.984682 -8.529665 50.139996 102 81 94
0.983260 -8.409421 50.067604 97 75 87
0.981834 -8.289452 49.994984 103 81 89
0.980410 -8.169810 49.922459 132 110 114
0.978993 -8.050549 49.850346 148 127 128
0.977592 -7.931717 49.778984 126 107 104
0.976212 -7.813365 49.708714 97 81 76
0.974860 -7.695537 49.639866 91 77 72
0.973542 -7.578273 49.572769 96 83 79
0.972265 -7.461605 49.507710 98 86 84
0.971032 -7.345559 49.444946 100 87 89
0.969849 -7.230152 49.384697 101 86 91
0.968718 -7.115389 49.327122 104 87 94
0.967642 -7.001273 49.272339 109 91 98
0.966622 -6.887789 49.220390 113 94 102
0.965658 -6.774920 49.171284 106 88 95
0.964748 -6.662640 49.124950 98 82 88
0.963891 -6.550917 49.081303 109 96 102
0.963083 -6.439716 49.040199 130 120 126
0.962323 -6.328999 49.001461 127 119 129
0.961605 -6.218726 48.964905 103 96 109
0.960926 -6.108860 48.930351 95 89 105
0.960283 -5.999362 48.897587 124 117 136
0.959671 -5.890203 48.866447 159 150 171
0.959088 -5.781348 48.836758 162 149 171
0.958531 -5.672773 48.808372 155 138 158
0.957996 -5.564456 48.781174 179 161 179
0.957483 -5.456377 48.755043 209 192 206
0.956990 -5.348518 48.729904 185 170 181
0.956514 -5.240866 48.705685 125 110 120
0.956055 -5.133410 48.682320 99 84 96
0.955612 -5.026137 48.659763 109 98 111
0.955184 -4.919038 48.637962 133 124 140
0.954769 -4.812102 48.616859 159 152 170
0.954368 -4.705319 48.596397 160 153 173
0.953977 -4.598679 48.576504 123 117 136
0.953596 -4.492170 48.557114 85 78 96
0.953223 -4.385782 48.538124 94 85 100
0.952856 -4.279502 48.519444 158 149 159
0.952494 -4.173321 48.500969 220 212 216
0.952133 -4.067227 48.482586 221 213 211
0.951771 -3.961210 48.464172 171 157 153
0.951406 -3.855260 48.445606 121 102 97
0.951036 -3.749369 48.426769 101 80 76
0.950659 -3.643530 48.407536 95 75 73
0.950271 -3.537735 48.387772 128 111 113
0.949870 -3.431980 48.367378 195 184 187
0.949455 -3.326261 48.346230 222 213 218
0.949023 -3.220576 48.324230 201 189 198
0.948572 -3.114927 48.301300 163 149 162
0.948102 -3.009314 48.277367 126 112 127
0.947612 -2.903740 48.252377 118 104 121
0.947100 -2.798212 48.226318 135 123 139
0.946567 -2.692737 48.199184 153 143 157
0.946014 -2.587322 48.171005 168 161 173
0.945441 -2.481977 48.141834 188 183 193
0.944850 -2.376714 48.111759 205 201 211
0.944244 -2.271544 48.080894 204 199 210
0.943625 -2.166477 48.049385 189 182 194
0.942997 -2.061525 48.017399 173 165 175
0.942363 -1.956700 47.985138 173 163 171
0.941729 -1.852012 47.952824 191 180 186
0.941098 -1.747470 47.920685 201 190 195
0.940475 -1.643082 47.888981 193 184 187
0.939866 -1.538852 47.857979 186 179 183
0.939276 -1.434786 47.827953 181 175 180
0.938711 -1.330884 47.799179 160 155 162
0.938176 -1.227145 47.771923 138 135 143
0.937676 -1.123565 47.746468 122 118 127
0.937216 -1.020140 47.723061 119 114 124
0.936802 -0.916859 47.701935 156 149 159
0.936436 -0.813712 47.683300 205 197 206
0.936122 -0.710685 47.667347 236 230 236
0.935865 -0.607763 47.654224 251 248 250
0.935665 -0.504928 47.644043 245 241 242
0.935524 -0.402163 47.636887 206 200 200
0.935444 -0.299448 47.632786 169 159 160
0.935423 -0.196764 47.631737 169 160 161
0.935461 -0.094090 47.633690 174 164 166
0.935557 0.008593 47.638554 163 152 154
0.935707 0.111304 47.646210 165 154 156
0.935909 0.214059 47.656498 188 178 180
0.936159 0.316875 47.669235 209 201 200
0.936453 0.419766 47.684208 221 215 214
0.936787 0.522743 47.701187 231 228 226
0.937155 0.625816 47.719921 242 240 238
0.937553 0.728994 47.740173 250 250 249
0.937975 0.832280 47.761677 252 252 252
0.938417 0.935679 47.784176 249 250 250
0.938874 1.039191 47.807442 248 249 249
0.939341 1.142816 47.831230 239 240 240
0.939814 1.246552 47.855331 219 221 220
0.940290 1.350395 47.879559 215 216 215
0.940765 1.454342 47.903748 233 233 233
0.941237 1.558387 47.927769 250 250 249
0.941703 1.662526 47.951515 254 253 253
0.942163 1.766756 47.974918 253 253 253
0.942615 1.871072 47.997963 254 253 253
0.943061 1.975473 48.020649 252 252 252
0.943500 2.079958 48.043037 251 250 249
0.943936 2.184531 48.065216 247 244 244
0.944370 2.289196 48.087322 239 235 235
0.944806 2.393960 48.109520 240 236 235
0.945248 2.498837 48.132034 249 248 247
0.945701 2.603841 48.155102 253 253 253
0.946171 2.708991 48.179001 244 248 249
0.946662 2.814310 48.204037 217 224 227
0.947183 2.919826 48.230530 180 189 195
0.947738 3.025568 48.258820 173 181 189
0.948335 3.131570 48.289234 201 207 215
0.948981 3.237868 48.322113 231 235 239
0.949681 3.344500 48.357761 244 247 250
0.950442 3.451505 48.396481 242 244 250
0.951268 3.558921 48.438541 232 232 238
0.952163 3.666788 48.484150 208 206 211
0.953133 3.775142 48.533504 177 175 179
0.954178 3.884020 48.586742 164 162 165
0.955302 3.993455 48.643974 166 165 168
0.956505 4.103477 48.705246 162 161 165
0.957789 4.214116 48.770588 159 159 165
0.959152 4.325397 48.840008 165 165 172
0.960594 4.437343 48.913467 167 168 174
0.962116 4.549978 48.990929 161 162 169
0.963715 4.663324 49.072357 153 152 160
0.965391 4.777400 49.157688 146 146 153
0.967142 4.892227 49.246868 149 149 156
0.968968 5.007824 49.339848 156 155 162
0.970867 5.124209 49.436569 162 160 167
0.972839 5.241401 49.536968 169 165 173
0.974882 5.359416 49.640980 172 166 177
0.976994 5.478266 49.748516 166 159 170
0.979173 5.597964 49.859467 160 152 165
0.981416 5.718518 49.973709 163 154 167
0.983722 5.839930 50.091099 167 158 169
0.986085 5.962202 50.211460 158 150 160
0.988503 6.085327 50.334591 133 126 135
0.990972 6.209300 50.460297 115 108 115
0.993487 6.334109 50.588356 134 126 134
0.996044 6.459742 50.718548 186 177 185
0.998638 6.586185 50.850651 221 211 219
1.001266 6.713423 50.984478 206 195 204
1.003925 6.841444 51.119835 163 153 161
1.006609 6.970232 51.256542 132 122 129
1.009318 7.099776 51.394463 123 115 121
1.012047 7.230065 51.533455 124 119 123
1.014796 7.361088 51.673386 127 122 126
1.017560 7.492831 51.814129 126 123 126
1.020337 7.625280 51.955551 126 123 126
1.023125 7.758421 52.097519 128 125 128
1.025921 7.892233 52.239880 132 127 130
1.028721 8.026692 52.382458 136 130 133
1.031522 8.161777 52.525101 142 134 137
1.034321 8.297455 52.667614 146 136 139
1.037113 8.433697 52.809807 137 127 128
1.039896 8.570472 52.951508 120 109 108
1.042666 8.707753 53.092567 110 98 95
1.045421 8.845514 53.232857 108 94 89
1.048159 8.983732 53.372269 109 95 88
1.050879 9.122392 53.510742 126 111 102
1.053579 9.261481 53.648251 164 150 139
1.056261 9.400995 53.784794 208 196 185
1.058924 9.540930 53.920387 221 212 204
1.061568 9.681281 54.055046 178 169 163
1.064194 9.822044 54.188770 113 103 99
1.066802 9.963208 54.321541 83 71 71
1.069389 10.104753 54.453281 92 80 83
1.071953 10.246645 54.583836 111 98 103
1.074490 10.388836 54.713005 123 108 114
1.076993 10.531260 54.840488 122 107 113
1.079456 10.673834 54.965912 113 98 103
1.081871 10.816460 55.088852 99 85 90
1.084226 10.959023 55.208797 85 72 77
1.086513 11.101403 55.325260 75 63 67
1.088722 11.243474 55.437721 72 60 65
1.090843 11.385113 55.545708 71 60 66
1.092868 11.526210 55.648830 71 61 68
1.094792 11.666671 55.746792 71 60 69
1.096611 11.806428 55.839424 70 60 70
1.098325 11.945447 55.926731 75 65 76
1.099939 12.083733 56.008892 85 75 87
1.101459 12.221329 56.086266 89 78 91
1.102894 12.358319 56.159370 85 72 84
1.104260 12.494834 56.228916 84 71 81
1.105572 12.631037 56.295734 91 78 86
1.106849 12.767123 56.360767 98 85 90
1.108111 12.903313 56.425030 96 84 88
1.109379 13.039845 56.489571 91 79 81
1.110672 13.176965 56.555443 87 75 77
1.112012 13.314913 56.623627 88 76 77
1.113414 13.453915 56.695015 91 79 81
1.114894 13.594183 56.770405 92 80 83
1.116466 13.735898 56.850437 85 74 77
1.118139 13.879214 56.935623 76 64 68
1.119919 14.024243 57.026283 68 57 60
1.121811 14.171068 57.122601 62 52 54
1.123814 14.319736 57.224625 56 47 49
1.125929 14.470271 57.332310 51 42 43
1.128152 14.622672 57.445499 45 37 37
1.130479 14.776917 57.563969 40 32 31
1.132904 14.932981 57.687492 36 27 26
1.135425 15.090837 57.815842 35 25 24
1.138037 15.250468 57.948833 36 25 24
1.140737 15.411865 58.086323 37 26 24
1.143525 15.575049 58.228275 40 27 27
1.146401 15.740061 58.374729 44 30 29
1.149368 15.906967 58.525837 47 33 32
1.152432 16.075861 58.681820 49 34 34
1.118866 -11.389380 51.337532 39 28 29
1.118482 -11.274839 51.319897 39 28 28
1.118056 -11.159956 51.300335 40 29 29
1.117579 -11.044659 51.278465 41 30 31
1.117045 -10.928894 51.253956 41 32 34
1.116448 -10.812626 51.226562 41 36 40
1.115784 -10.695834 51.196102 43 39 47
1.115051 -10.578516 51.162457 47 42 55
1.114246 -10.460679 51.125565 55 47 65
1.113372 -10.342342 51.085423 74 64 85
1.112427 -10.223538 51.042084 114 100 123
1.111415 -10.104305 50.995628 156 138 160
1.110337 -9.984686 50.946186 145 122 142
1.109197 -9.864723 50.893875 95 70 87
1.107998 -9.744468 50.838860 69 42 56
1.106743 -9.623963 50.781273 78 50 60
1.105436 -9.503259 50.721298 92 64 71
1.104080 -9.382397 50.659077 98 71 76
1.102679 -9.261424 50.594780 101 75 79
1.101236 -9.140385 50.528591 101 76 81
1.099756 -9.019326 50.460690 105 80 86
1.098243 -8.898293 50.391281 109 86 94
1.096702 -8.777332 50.320568 109 87 97
1.095138 -8.656490 50.248779 107 84 97
1.093555 -8.535819 50.176167 101 78 91
1.091961 -8.415368 50.103012 93 69 81
1.090361 -8.295191 50.029598 107 83 92
1.088762 -8.175341 49.956253 153 129 134
1.087172 -8.055872 49.883308 177 154 155
1.085599 -7.936835 49.811104 141 120 116
1.084049 -7.818282 49.739994 93 75 70
1.082530 -7.700256 49.670311 80 64 59
1.081050 -7.582799 49.602379 84 70 67
1.079614 -7.465944 49.536499 89 77 77
1.078229 -7.349717 49.472931 95 82 86
1.076898 -7.234135 49.411900 100 85 93
1.075627 -7.119205 49.353577 108 92 102
1.074418 -7.004929 49.298069 120 102 114
1.073271 -6.891295 49.245445 124 105 118
1.072187 -6.778286 49.195709 111 93 106
1.071165 -6.665875 49.148811 95 79 91
1.070202 -6.554034 49.104652 97 84 95
1.069297 -6.442726 49.063114 111 102 114
1.068445 -6.331912 49.024017 111 105 119
1.067642 -6.221555 48.987186 96 92 110
1.066884 -6.111615 48.952419 103 99 119
1.066167 -6.002055 48.919529 148 143 163
1.065487 -5.892839 48.888321 184 176 196
1.064840 -5.783937 48.858624 171 158 178
1.064222 -5.675320 48.830280 157 141 158
1.063631 -5.566962 48.803139 191 174 186
1.063063 -5.458843 48.777084 224 211 218
1.062517 -5.350944 48.752010 187 176 180
1.061990 -5.243249 48.727829 118 102 106
1.061481 -5.135745 48.704472 92 75 82
1.060988 -5.028419 48.681862 101 87 97
1.060510 -4.921261 48.659943 118 107 119
1.060046 -4.814259 48.638653 149 139 155
1.059594 -4.707404 48.617924 162 153 170
1.059153 -4.600684 48.597687 129 121 138
1.058721 -4.494091 48.577877 90 81 98
1.058297 -4.387614 48.558403 101 91 106
1.057878 -4.281243 48.539185 163 151 163
1.057463 -4.174969 48.520123 207 195 202
1.057049 -4.068783 48.501129 191 177 180
1.056634 -3.962675 48.482094 147 129 129
1.056216 -3.856637 48.462917 113 94 91
1.055793 -3.750664 48.443489 96 76 72
1.055361 -3.644747 48.423702 92 74 70
1.054920 -3.538881 48.403461 136 121 120
1.054467 -3.433063 48.382652 205 196 196
1.053999 -3.327289 48.361176 230 223 226
1.053514 -3.221558 48.338951 213 203 212
1.053012 -3.115869 48.315899 177 165 178
1.052490 -3.010223 48.291954 138 128 143
1.051948 -2.904625 48.267082 130 120 136
1.051385 -2.799078 48.241241 148 138 154
1.050801 -2.693589 48.214439 171 163 176
1.050196 -2.588165 48.186691 196 191 200
1.049572 -2.482814 48.158051 222 219 226
1.048929 -2.377546 48.128586 234 231 237
1.048272 -2.272371 48.098400 225 220 229
1.047601 -2.167299 48.067619 211 204 214
1.046920 -2.062340 48.036388 194 187 195
1.046234 -1.957506 48.004898 187 177 183
1.045546 -1.852805 47.973343 205 196 200
1.044862 -1.748245 47.941940 229 221 223
1.044186 -1.643834 47.910923 232 226 226
1.043524 -1.539578 47.880543 227 222 222
1.042881 -1.435479 47.851059 212 207 209
1.042264 -1.331540 47.822731 178 174 178
1.041677 -1.227759 47.795826 153 151 156
1.041127 -1.124133 47.770603 147 144 150
1.040620 -1.020658 47.747314 153 149 157
1.040160 -0.917325 47.726192 184 179 186
1.039751 -0.814124 47.707455 220 214 218
1.039399 -0.711042 47.691284 241 237 239
1.039106 -0.608064 47.677845 252 250 250
1.038875 -0.505174 47.667263 236 233 233
1.038709 -0.402355 47.659626 186 178 178
1.038608 -0.299588 47.654991 155 145 144
1.038572 -0.196853 47.653351 174 164 165
1.038601 -0.094131 47.654678 177 167 168
1.038693 0.008597 47.658897 145 134 138
1.038846 0.111350 47.665905 132 121 126
1.039056 0.214145 47.675545 144 135 140
1.039320 0.316998 47.687653 158 150 155
1.039633 0.419923 47.702007 182 176 180
1.039990 0.522932 47.718395 217 214 215
1.040386 0.626035 47.736580 244 242 242
1.040816 0.729240 47.756298 253 253 253
1.041273 0.832552 47.777294 252 252 252
1.041753 0.935975 47.799313 250 251 250
1.042250 1.039510 47.822113 247 248 248
1.042759 1.143156 47.845448 231 232 232
1.043274 1.246911 47.869102 215 219 218
1.043792 1.350771 47.892879 227 229 229
1.044310 1.454732 47.916611 246 246 246
1.044823 1.558790 47.940159 252 252 252
1.045329 1.662939 47.963406 251 250 250
1.045828 1.767174 47.986286 251 250 250
1.046318 1.871493 48.008774 252 251 251
1.046800 1.975893 48.030869 249 247 246
1.047274 2.080373 48.052620 247 244 242
1.047743 2.184936 48.074127 248 245 243
1.048209 2.289586 48.095524 247 244 243
1.048676 2.394331 48.116974 248 246 244
1.049150 2.499183 48.138699 252 252 251
1.049635 2.604156 48.160942 254 254 254
1.050137 2.709271 48.183994 251 253 253
1.050664 2.814550 48.208157 239 243 243
1.051222 2.920021 48.233761 216 222 224
1.051819 3.025714 48.261147 198 205 209
1.052462 3.131663 48.290665 197 204 211
1.053159 3.237904 48.322651 211 217 223
1.053917 3.344477 48.357430 229 234 239
1.054743 3.451421 48.395313 241 244 249
1.055642 3.558776 48.436569 245 246 250
1.056620 3.666583 48.481434 239 239 242
1.057680 3.774878 48.530106 219 219 223
1.058827 3.883700 48.582737 187 189 193
1.060063 3.993083 48.639439 159 162 167
1.061389 4.103059 48.700275 164 166 171
1.062806 4.213657 48.765278 191 193 198
1.064313 4.324904 48.834446 207 209 215
1.065911 4.436824 48.907749 201 203 210
1.067598 4.549441 48.985149 183 186 194
1.069373 4.662776 49.066582 167 169 178
1.071234 4.776847 49.151989 160 160 169
1.073180 4.891675 49.241302 170 170 177
1.075211 5.007277 49.334454 190 188 195
1.077322 5.123670 49.431358 196 193 199
1.079515 5.240870 49.531948 184 179 185
1.081785 5.358891 49.636116 171 166 172
1.084131 5.477745 49.743774 176 169 176
1.086551 5.597439 49.854786 178 170 178
1.089040 5.717980 49.969013 164 156 163
1.091596 5.839369 50.086285 157 150 156
1.094215 5.961604 50.206429 159 153 157
1.096891 6.084679 50.329231 148 142 146
1.099621 6.208585 50.454487 128 124 127
1.102399 6.333310 50.581974 140 135 140
1.105222 6.458842 50.711475 188 181 189
1.108083 6.585165 50.842781 218 210 219
1.110980 6.712266 50.975689 204 194 205
1.113908 6.840132 51.110031 171 161 171
1.116864 6.968750 51.245651 145 135 144
1.119844 7.098109 51.382401 131 123 129
1.122847 7.228200 51.520164 131 124 129
1.125869 7.359014 51.658825 133 129 132
1.128908 7.490538 51.798271 130 129 131
1.131962 7.622762 51.938393 127 126 128
1.135027 7.755671 52.079052 127 126 129
1.138102 7.889249 52.220127 131 128 132
1.141182 8.023475 52.361454 135 130 135
1.144264 8.158324 52.502884 141 134 139
1.147345 8.293773 52.644238 144 135 140
1.150420 8.429789 52.785336 133 122 126
1.153486 8.566347 52.926025 116 104 106
1.156540 8.703420 53.066147 110 96 96
1.159579 8.840981 53.205578 110 97 93
1.162601 8.979011 53.344219 111 96 90
1.165604 9.117494 53.482014 120 105 96
1.168588 9.256419 53.618927 149 135 123
1.171552 9.395780 53.754955 193 181 170
1.174498 9.535571 53.890106 216 208 200
1.177425 9.675791 54.024391 183 176 171
1.180332 9.816430 54.157799 120 111 108
1.183220 9.957476 54.290287 87 76 77
1.186085 10.098906 54.421764 93 82 86
1.188925 10.240682 54.552071 114 101 107
1.191734 10.382753 54.680973 132 117 124
1.194506 10.525051 54.808159 137 121 128
1.197232 10.667487 54.933231 127 109 118
1.199902 10.809958 55.055737 108 91 98
1.202505 10.952346 55.175163 90 73 80
1.205029 11.094524 55.290981 80 64 70
1.207463 11.236364 55.402668 77 63 68
1.209796 11.377737 55.509724 77 64 70
1.212020 11.518530 55.611752 75 64 70
1.214127 11.658647 55.708447 71 61 69
1.216115 11.798017 55.799637 66 56 66
1.217982 11.936604 55.885323 69 60 71
1.219734 12.074413 55.965698 84 74 86
1.221377 12.211488 56.041103 93 83 95
1.222925 12.347918 56.112106 92 81 92
1.224392 12.483833 56.179413 89 77 87
1.225797 12.619406 56.243896 91 79 86
1.227162 12.754834 56.306522 94 82 87
1.228509 12.890346 56.368324 94 83 86
1.229862 13.026190 56.430416 93 82 84
1.231245 13.162616 56.493858 92 80 82
1.232679 13.299873 56.559669 92 80 84
1.234186 13.438200 56.628796 95 83 88
1.235782 13.577810 56.702034 95 83 89
1.237482 13.718894 56.780064 89 76 84
1.239299 13.861610 56.863411 80 67 75
1.241239 14.006077 56.952412 72 59 66
1.243306 14.152378 57.047264 65 53 58
1.245502 14.300561 57.148003 58 47 52
1.247824 14.450654 57.254585 52 42 45
1.250271 14.602654 57.366856 46 37 39
1.252837 14.756537 57.484581 41 32 33
1.255516 14.912278 57.607517 37 27 28
1.258304 15.069849 57.735435 36 25 25
1.261196 15.229230 57.868134 36 24 23
1.264190 15.390417 58.005486 37 25 24
1.267284 15.553430 58.147446 40 27 27
1.270479 15.718312 58.294075 46 32 31
1.273780 15.885139 58.445530 50 36 35
1.277192 16.054010 58.602062 53 39 38
1.230365 -11.397087 51.372269 41 30 34
1.229958 -11.282615 51.355286 42 30 33
1.229506 -11.167801 51.336399 43 30 32
1.228998 -11.052572 51.315208 44 31 33
1.228427 -10.936872 51.291370 44 33 36
1.227787 -10.820664 51.264645 44 35 40
1.227073 -10.703924 51.234825 45 38 46
1.226282 -10.586650 51.201794 46 40 51
1.225412 -10.468845 51.165478 51 44 58
1.224463 -10.350530 51.125862 69 60 78
1.223436 -10.231731 51.082985 117 105 125
1.222333 -10.112490 51.036938 172 155 177
1.221157 -9.992843 50.987808 166 146 166
1.219910 -9.872837 50.935738 110 88 105
1.218595 -9.752519 50.880859 78 53 68
1.217217 -9.631932 50.823322 85 59 70
1.215780 -9.511127 50.763287 98 71 80
1.214285 -9.390144 50.700905 104 77 84
1.212739 -9.269033 50.636353 104 78 84
1.211146 -9.147841 50.569813 108 83 89
1.209509 -9.026615 50.501469 117 92 99
1.207834 -8.905403 50.431545 123 100 108
1.206127 -8.784253 50.360245 120 96 106
1.204392 -8.663216 50.287815 111 87 98
1.202636 -8.542342 50.214512 98 74 86
1.200867 -8.421688 50.140636 85 61 72
1.199091 -8.301305 50.066475 102 77 86
1.197316 -8.181252 49.992367 160 135 140
1.195551 -8.061581 49.918655 195 171 172
1.193803 -7.942346 49.845684 159 137 134
1.192082 -7.823597 49.773811 101 81 77
1.190395 -7.705382 49.703369 78 61 58
1.188750 -7.587739 49.634693 78 63 63
1.187154 -7.470704 49.568081 83 69 73
1.185615 -7.354303 49.503803 89 76 83
1.184137 -7.238553 49.442081 97 82 93
1.182724 -7.123463 49.383087 110 94 107
1.181379 -7.009032 49.326946 128 110 126
1.180104 -6.895252 49.273727 134 115 132
1.178900 -6.782105 49.223434 119 101 118
1.177765 -6.669568 49.176037 98 82 98
1.176697 -6.557609 49.131443 91 79 94
1.175693 -6.446193 49.089520 97 89 105
1.174749 -6.335284 49.050121 96 92 110
1.173862 -6.224841 49.013054 91 89 110
1.173025 -6.114825 48.978130 116 115 136
1.172235 -6.005198 48.945145 172 171 189
1.171487 -5.895924 48.913910 196 191 208
1.170776 -5.786969 48.884235 163 152 169
1.170099 -5.678303 48.855949 149 134 148
1.169451 -5.569900 48.828892 195 183 190
1.168829 -5.461735 48.802929 229 222 225
1.168230 -5.353789 48.777935 188 180 180
1.167652 -5.246045 48.753807 119 103 104
1.167093 -5.138485 48.730457 94 75 80
1.166551 -5.031098 48.707798 97 82 89
1.166023 -4.923872 48.685757 108 95 106
1.165508 -4.816795 48.664272 138 127 141
1.165005 -4.709857 48.643265 154 144 160
1.164512 -4.603049 48.622673 127 117 134
1.164027 -4.496362 48.602421 93 82 99
1.163548 -4.389787 48.582447 104 91 107
1.163075 -4.283315 48.562672 154 138 153
1.162604 -4.176939 48.543011 189 172 183
1.162134 -4.070650 48.523388 181 163 169
1.161663 -3.964442 48.503723 145 127 129
1.161189 -3.858309 48.483925 111 94 91
1.160709 -3.752244 48.463902 91 74 70
1.160223 -3.646242 48.443577 99 84 79
1.159726 -3.540299 48.422855 155 144 140
1.159218 -3.434412 48.401653 219 212 210
1.158697 -3.328576 48.379879 235 229 231
1.158160 -3.222791 48.357464 210 203 210
1.157606 -3.117057 48.334332 170 161 174
1.157034 -3.011375 48.310429 141 133 149
1.156442 -2.905747 48.285717 148 140 157
1.155830 -2.800176 48.260166 175 167 182
1.155198 -2.694669 48.233768 202 196 208
1.154546 -2.589231 48.206543 226 222 229
1.153874 -2.483869 48.178516 243 241 244
1.153185 -2.378591 48.149754 247 244 248
1.152481 -2.273407 48.120338 241 237 242
1.151764 -2.168325 48.090385 228 223 230
1.151037 -2.063355 48.060024 199 192 199
1.150303 -1.958506 48.029411 180 173 178
1.149568 -1.853785 47.998730 207 201 203
1.148837 -1.749202 47.968174 241 237 238
1.148113 -1.644762 47.937950 250 248 248
1.147403 -1.540470 47.908306 248 246 246
1.146712 -1.436331 47.879471 230 228 229
1.146047 -1.332346 47.851692 194 193 195
1.145413 -1.228514 47.825230 174 173 177
1.144817 -1.124833 47.800331 177 176 181
1.144264 -1.021298 47.777241 188 186 191
1.143760 -0.917902 47.756195 212 209 214
1.143310 -0.814635 47.737400 238 236 238
1.142918 -0.711486 47.721066 251 249 249
1.142590 -0.608440 47.707340 254 253 253
1.142327 -0.505483 47.696373 237 234 233
1.142133 -0.402597 47.688259 190 182 179
1.142008 -0.299765 47.683067 164 154 150
1.141954 -0.196967 47.680809 192 183 181
1.141970 -0.094184 47.681473 202 193 195
1.142054 0.008602 47.684986 171 162 166
1.142205 0.111409 47.691265 154 145 151
1.142418 0.214255 47.700169 155 147 155
1.142690 0.317156 47.711529 157 149 159
1.143016 0.420126 47.725151 178 173 181
1.143391 0.523177 47.740822 220 217 222
1.143810 0.626320 47.758289 248 247 248
1.144265 0.729561 47.777309 254 254 253
1.144752 0.832907 47.797630 251 253 251
1.145264 0.936360 47.818985 250 252 250
1.145794 1.039923 47.841129 247 249 248
1.146337 1.143595 47.863819 228 231 230
1.146888 1.247372 47.886822 218 222 221
1.147442 1.351252 47.909946 237 239 239
1.147995 1.455230 47.933018 252 253 253
1.148542 1.559302 47.955891 253 253 253
1.149083 1.663460 47.978447 249 248 249
1.149614 1.767702 48.000622 248 247 248
1.150135 1.872024 48.022377 249 248 249
1.150646 1.976421 48.043716 246 245 244
1.151148 2.080896 48.064693 245 243 241
1.151644 2.185448 48.085396 250 248 246
1.152137 2.290083 48.105968 252 252 250
1.152630 2.394809 48.126575 253 253 250
1.153130 2.499637 48.147442 254 254 252
1.153642 2.604582 48.168812 254 254 254
1.154173 2.709664 48.190983 254 254 254
1.154730 2.814907 48.214264 250 252 251
1.155323 2.920337 48.238987 238 242 241
1.155958 3.025987 48.265499 218 224 225
1.156644 3.131890 48.294163 201 207 210
1.157390 3.238083 48.325317 197 203 209
1.158204 3.344606 48.359299 214 218 224
1.159093 3.451500 48.396423 236 240 243
1.160064 3.558806 48.436977 247 249 252
1.161124 3.666565 48.481197 244 246 250
1.162275 3.774815 48.529297 228 232 237
1.163524 3.883595 48.581432 183 188 195
1.164872 3.992942 48.637718 135 141 148
1.166321 4.102886 48.698223 150 155 161
1.167872 4.213458 48.762981 207 210 214
1.169525 4.324687 48.831997 237 239 243
1.171279 4.436595 48.905228 226 231 237
1.173133 4.549207 48.982628 199 205 214
1.175085 4.662543 49.064133 179 185 194
1.177133 4.776621 49.149666 173 177 187
1.179276 4.891459 49.239140 191 192 201
1.181511 5.007075 49.332470 220 221 227
1.183837 5.123483 49.429554 224 223 229
1.186250 5.240696 49.530304 192 189 194
1.188747 5.358727 49.634598 168 165 169
1.191327 5.477583 49.742313 190 184 188
1.193986 5.597273 49.853306 207 200 204
1.196719 5.717799 49.967426 186 178 181
1.199522 5.839159 50.084488 164 158 159
1.202392 5.961350 50.204292 163 158 157
1.205322 6.084365 50.326637 158 155 153
1.208308 6.208193 50.451305 142 138 137
1.211344 6.332824 50.578087 141 138 140
1.214425 6.458240 50.706753 180 175 182
1.217548 6.584431 50.837112 209 203 213
1.220706 6.711381 50.968971 199 190 203
1.223896 6.839080 51.102173 173 164 176
1.227115 6.967515 51.236568 152 143 153
1.230359 7.096677 51.372036 139 132 140
1.233627 7.226560 51.508472 139 133 138
1.236915 7.357155 51.645779 140 136 140
1.240222 7.488453 51.783855 135 132 136
1.243545 7.620445 51.922604 129 128 130
1.246882 7.753119 52.061916 127 126 129
1.250229 7.886461 52.201672 129 126 132
1.253583 8.020452 52.341728 133 128 135
1.256941 8.155070 52.481941 137 131 138
1.260299 8.290291 52.622139 137 128 135
1.263653 8.426088 52.762165 125 114 120
1.266998 8.562434 52.901852 109 97 102
1.270332 8.699305 53.041058 105 92 94
1.273652 8.836675 53.179661 108 94 93
1.276954 8.974523 53.317558 109 94 90
1.280239 9.112837 53.454697 112 98 90
