ply
format ascii 1.0
element vertex 1245
property float x
property float y
property float z
property uchar red
property uchar green
property uchar blue
end_header
14.341589 4.828744 58.818562 19 17 14
14.355606 4.960380 58.876049 19 18 14
14.370027 5.092408 58.935192 20 18 14
14.384806 5.224820 58.995808 20 19 15
14.399910 5.357615 59.057751 21 19 16
14.415318 5.490792 59.120941 20 19 17
14.431026 5.624359 59.185368 20 18 16
14.447047 5.758328 59.251076 19 17 15
14.463412 5.892722 59.318192 18 16 15
14.480159 6.027563 59.386875 16 15 14
14.497342 6.162885 59.457344 16 15 13
14.515018 6.298726 59.529842 16 15 14
14.533247 6.435123 59.604603 16 15 14
14.552086 6.572119 59.681866 17 16 14
14.571583 6.709751 59.761826 17 17 15
14.591776 6.848054 59.844643 17 17 15
14.612687 6.987057 59.930405 17 16 15
14.634320 7.126782 60.019131 17 16 15
14.656664 7.267242 60.110764 17 16 14
14.679688 7.408440 60.205193 17 16 14
14.703347 7.550372 60.302227 16 15 14
14.727584 7.693023 60.401630 16 15 13
14.752333 7.836375 60.503128 16 15 13
14.777519 7.980401 60.606426 16 15 14
14.803076 8.125075 60.711243 17 15 15
14.635089 -6.273710 59.496277 64 58 68
14.623610 -6.140636 59.449615 64 59 69
14.611618 -6.007553 59.400864 65 62 70
14.599136 -5.874482 59.350121 66 64 72
14.586188 -5.741446 59.297482 67 68 73
14.572802 -5.608469 59.243061 69 71 75
14.559007 -5.475573 59.186981 72 74 76
14.544837 -5.342781 59.129379 74 77 77
14.530327 -5.210114 59.070389 72 76 75
14.515513 -5.077597 59.010166 68 71 69
14.500436 -4.945249 58.948872 65 67 64
14.485134 -4.813090 58.886665 66 67 64
14.469652 -4.681142 58.823727 68 66 65
14.454034 -4.549422 58.760231 64 61 61
14.438325 -4.417948 58.696373 58 54 54
14.422575 -4.286737 58.632343 57 53 53
14.406836 -4.155805 58.568359 64 58 59
14.391166 -4.025169 58.504654 73 66 68
14.375625 -3.894842 58.441475 81 74 76
14.360279 -3.764839 58.379093 84 76 79
14.345202 -3.635173 58.317802 79 71 75
14.330472 -3.505855 58.257915 72 65 69
14.316169 -3.376897 58.199768 69 62 66
14.302378 -3.248306 58.143703 69 62 66
14.289186 -3.120087 58.090073 61 55 58
14.276678 -2.992243 58.039227 50 45 47
14.264937 -2.864772 57.991497 45 40 42
14.254039 -2.737669 57.947193 46 42 43
14.244052 -2.610924 57.906590 47 43 43
14.235031 -2.484522 57.869919 46 43 42
14.227020 -2.358446 57.837349 46 43 41
14.220044 -2.232673 57.808990 43 41 38
14.214118 -2.107177 57.784901 40 38 34
14.209231 -1.981931 57.765034 38 35 31
14.205365 -1.856904 57.749313 37 34 30
14.202480 -1.732064 57.737587 36 33 30
14.200526 -1.607380 57.729645 35 32 29
14.199441 -1.482821 57.725231 33 31 29
14.199151 -1.358357 57.724056 30 29 27
14.199583 -1.233961 57.725807 28 27 25
14.200651 -1.109607 57.730152 26 25 24
14.202277 -0.985273 57.736763 25 24 23
14.204380 -0.860940 57.745312 25 23 22
14.206882 -0.736590 57.755478 24 23 22
14.209714 -0.612211 57.766994 24 23 22
14.212811 -0.487791 57.779587 23 23 22
14.216116 -0.363322 57.793022 23 22 22
14.219580 -0.238798 57.807102 24 23 22
14.223163 -0.114214 57.821667 24 23 22
14.226829 0.010433 57.836575 25 23 21
14.230553 0.135144 57.851715 25 23 21
14.234313 0.259922 57.866997 25 23 21
14.238093 0.384766 57.882366 24 22 21
14.241885 0.509676 57.897781 24 21 20
14.245674 0.634653 57.913185 23 21 18
14.249461 0.759696 57.928581 23 21 18
14.253238 0.884805 57.943932 23 21 17
14.257000 1.009979 57.959225 22 21 16
14.260743 1.135218 57.974445 22 21 16
14.264467 1.260520 57.989582 21 20 16
14.268167 1.385886 58.004627 22 21 17
14.271844 1.511314 58.019573 21 21 17
14.275497 1.636803 58.034428 21 21 17
14.279131 1.762354 58.049198 21 21 17
14.282752 1.887967 58.063919 21 22 18
14.286374 2.013644 58.078640 21 21 17
14.290014 2.139387 58.093441 20 20 17
14.293697 2.265201 58.108418 19 19 17
14.297461 2.391092 58.123711 19 19 17
14.301344 2.517071 58.139500 20 19 16
14.305397 2.643149 58.155975 21 19 16
14.309679 2.769342 58.173386 21 19 15
14.314253 2.895670 58.191978 21 19 15
14.319187 3.022153 58.212036 21 19 15
14.324553 3.148818 58.233849 21 19 15
14.330420 3.275692 58.257702 20 18 15
14.336855 3.402803 58.283867 19 18 16
14.343919 3.530182 58.312584 19 18 16
14.351662 3.657858 58.344059 19 18 16
14.360126 3.785860 58.378468 19 18 16
14.369334 3.914212 58.415901 18 17 15
14.379299 4.042939 58.456413 18 16 14
14.390016 4.172058 58.499977 17 16 14
14.401463 4.301584 58.546516 17 16 13
14.413609 4.431524 58.595890 17 16 13
14.426404 4.561884 58.647907 18 16 14
14.439796 4.692661 58.702354 18 16 14
14.453727 4.823853 58.758987 19 17 14
14.468135 4.955452 58.817558 19 17 14
14.482963 5.087452 58.877838 20 18 15
14.498163 5.219845 58.939632 20 18 15
14.513697 5.352628 59.002781 20 18 16
14.529542 5.485801 59.067200 20 18 16
14.545692 5.619369 59.132854 20 18 16
14.562157 5.753344 59.199787 19 17 16
14.578963 5.887746 59.268108 19 17 16
14.596147 6.022599 59.337967 17 16 15
14.613761 6.157934 59.409573 16 15 15
14.631861 6.293786 59.483158 16 15 15
14.650506 6.430195 59.558952 17 16 15
14.669748 6.567198 59.637180 18 17 15
14.689637 6.704834 59.718037 18 17 16
14.710208 6.843135 59.801662 18 17 16
14.731482 6.982131 59.888149 18 17 16
14.753459 7.121838 59.977489 18 17 16
14.776126 7.262270 60.069641 18 17 16
14.799450 7.403428 60.164459 17 16 15
14.823384 7.545305 60.261757 17 15 14
14.847867 7.687885 60.361290 16 15 14
14.872831 7.831149 60.462776 16 15 14
14.898203 7.975068 60.565922 16 14 13
14.725860 -6.001925 59.345222 65 63 73
14.713109 -5.868910 59.293835 67 67 76
14.699897 -5.735938 59.240589 69 70 78
14.686251 -5.603029 59.185596 71 72 79
14.672199 -5.470206 59.128971 74 76 80
14.657778 -5.337492 59.070854 77 80 82
14.643018 -5.204909 59.011372 77 80 80
14.627958 -5.072478 58.950680 72 74 73
14.612637 -4.940220 58.888935 66 69 67
14.597094 -4.808156 58.826294 67 68 66
14.581371 -4.676304 58.762932 70 69 68
14.565515 -4.544683 58.699032 68 65 64
14.549570 -4.413311 58.634773 60 56 56
14.533587 -4.282206 58.570366 56 51 51
14.517618 -4.151381 58.506008 59 54 54
14.501719 -4.020854 58.441936 67 61 62
14.485955 -3.890639 58.378410 74 68 70
14.470391 -3.760750 58.315685 77 70 72
14.455102 -3.631200 58.254066 74 67 70
14.440164 -3.502001 58.193867 72 65 68
14.425659 -3.373163 58.135414 72 65 68
14.411674 -3.244694 58.079056 70 63 67
14.398296 -3.116600 58.025143 62 55 59
14.385610 -2.988881 57.974014 49 43 46
14.373700 -2.861537 57.926022 42 37 39
14.362643 -2.734563 57.881458 44 39 40
14.352504 -2.607948 57.840595 45 40 40
14.343341 -2.481678 57.803673 45 42 40
14.335196 -2.355734 57.770851 45 42 40
14.328097 -2.230095 57.742241 43 41 37
14.322055 -2.104734 57.717892 39 37 33
14.317062 -1.979623 57.697769 37 35 31
14.313096 -1.854733 57.681786 36 33 30
14.310122 -1.730030 57.669800 35 32 30
14.308084 -1.605485 57.661587 34 31 29
14.306921 -1.481066 57.656898 32 30 28
14.306563 -1.356743 57.655457 30 29 27
14.306930 -1.232489 57.656933 28 27 25
14.307942 -1.108278 57.661015 26 25 23
14.309518 -0.984089 57.667366 25 23 22
14.311574 -0.859901 57.675652 25 23 22
14.314040 -0.735699 57.685589 24 22 21
14.316842 -0.611468 57.696880 23 22 22
14.319914 -0.487197 57.709263 23 22 22
14.323204 -0.362879 57.722519 23 22 22
14.326664 -0.238506 57.736462 23 22 22
14.330250 -0.114074 57.750912 23 23 22
14.333929 0.010420 57.765739 24 23 21
14.337676 0.134979 57.780842 24 23 21
14.341474 0.259604 57.796146 25 22 20
14.345302 0.384295 57.811573 24 22 20
14.349151 0.509054 57.827084 24 21 19
14.353014 0.633880 57.842651 23 20 18
14.356882 0.758774 57.858242 23 20 17
14.360753 0.883735 57.873840 23 20 17
14.364619 1.008763 57.889423 22 20 16
14.368477 1.133857 57.904968 22 20 16
14.372323 1.259018 57.920467 21 20 17
14.376152 1.384244 57.935902 21 21 17
14.379961 1.509534 57.951252 21 21 17
14.383748 1.634888 57.966515 21 21 17
14.387517 1.760305 57.981701 21 21 17
14.391273 1.885786 57.996838 21 21 17
14.395023 2.011332 58.011951 20 21 18
14.398788 2.136945 58.027126 19 20 17
14.402593 2.262630 58.042458 19 19 17
14.406468 2.388392 58.058075 19 19 17
14.410456 2.514241 58.074146 20 19 16
14.414608 2.640190 58.090878 21 19 16
14.418983 2.766254 58.108505 21 19 16
14.423644 2.892451 58.127293 21 19 15
14.428664 3.018804 58.147522 21 19 16
14.434116 3.145339 58.169498 21 19 16
14.440074 3.272082 58.193504 20 18 16
14.446607 3.399065 58.219833 19 18 16
14.453779 3.526317 58.248737 19 18 16
14.461647 3.653870 58.280445 19 18 16
14.470252 3.781752 58.315125 19 18 16
14.479624 3.909990 58.352894 18 17 14
14.489776 4.038609 58.393806 18 16 14
14.500707 4.167628 58.437855 17 16 13
14.512395 4.297061 58.484962 17 17 14
14.524810 4.426919 58.534992 17 16 13
14.537905 4.557205 58.587765 18 16 14
14.551623 4.687920 58.643047 18 16 15
14.565905 4.819060 58.700603 19 16 15
14.580686 4.950617 58.760174 19 17 15
14.595908 5.082585 58.821518 19 17 15
14.611520 5.214956 58.884434 20 18 15
14.627479 5.347726 58.948746 20 18 16
14.643760 5.480893 59.014359 20 18 16
14.660354 5.614463 59.081230 20 18 16
14.677266 5.748446 59.149387 20 17 16
14.694520 5.882860 59.218925 19 16 16
14.712153 6.017729 59.289986 17 16 15
14.730213 6.153082 59.362766 17 15 15
14.748754 6.288953 59.437485 17 15 15
14.767831 6.425381 59.514366 18 16 15
14.787498 6.562402 59.593624 19 17 16
14.807800 6.700052 59.675446 19 17 17
14.828772 6.838363 59.759956 19 17 17
14.850430 6.977361 59.847240 19 18 18
14.872773 7.117064 59.937283 19 17 17
14.895785 7.257480 60.030022 19 17 17
14.919430 7.398610 60.125309 18 16 16
14.943657 7.540445 60.222946 17 15 15
14.968404 7.682967 60.322674 17 15 15
14.993598 7.826153 60.424210 17 14 14
14.813504 -5.730485 59.184277 71 71 80
14.799606 -5.597647 59.128750 72 73 81
14.785310 -5.464901 59.071632 74 76 82
14.770645 -5.332269 59.013042 78 80 85
14.755649 -5.199771 58.953125 79 81 84
14.740355 -5.067431 58.892025 73 75 77
14.724803 -4.935267 58.829891 67 68 69
14.709035 -4.803300 58.766891 68 68 68
14.693089 -4.671549 58.703182 71 70 70
14.677013 -4.540032 58.638954 70 68 68
14.660852 -4.408766 58.574387 63 60 60
14.644655 -4.277769 58.509678 57 53 53
14.628476 -4.147055 58.445038 57 53 53
14.612373 -4.016641 58.380699 62 58 58
14.596408 -3.886540 58.316914 68 63 63
14.580648 -3.756768 58.253948 70 65 66
14.565166 -3.627337 58.192097 69 63 66
14.550042 -3.498258 58.131668 69 62 65
14.535358 -3.369542 58.073006 69 63 65
14.521201 -3.241196 58.016441 68 61 64
14.507657 -3.113225 57.962326 60 54 57
14.494812 -2.985632 57.911007 48 42 44
14.482749 -2.858415 57.862812 40 36 37
14.471547 -2.731568 57.818062 41 37 37
14.461272 -2.605081 57.777008 42 39 38
14.451981 -2.478939 57.739883 43 40 39
14.443714 -2.353125 57.706860 44 41 40
14.436501 -2.227615 57.678040 43 40 37
14.430351 -2.102385 57.653469 39 37 33
14.425258 -1.977405 57.633121 36 33 30
14.421198 -1.852646 57.616901 35 32 30
14.418136 -1.728076 57.604664 34 32 30
14.416016 -1.603664 57.596195 33 31 29
14.414777 -1.479379 57.591244 32 29 28
14.414349 -1.355192 57.589531 30 28 27
14.414652 -1.231074 57.590744 28 26 25
14.415605 -1.107001 57.594551 27 24 23
14.417127 -0.982950 57.600636 25 23 22
14.419138 -0.858902 57.608669 25 23 22
14.421564 -0.734841 57.618359 24 23 22
14.424334 -0.610753 57.629425 24 22 22
14.427384 -0.486626 57.641617 24 23 23
14.430659 -0.362452 57.654697 23 22 22
14.434114 -0.238225 57.668499 23 22 22
14.437706 -0.113940 57.682854 22 22 21
14.441403 0.010408 57.697624 23 22 21
14.445183 0.134820 57.712727 23 22 20
14.449021 0.259298 57.728062 24 22 19
14.452907 0.383843 57.743584 24 21 19
14.456828 0.508457 57.759251 24 21 18
14.460773 0.633139 57.775017 23 20 17
14.464741 0.757890 57.790867 23 20 16
14.468720 0.882711 57.806763 22 20 16
14.472707 1.007600 57.822693 22 20 16
14.476696 1.132558 57.838631 22 20 16
14.480680 1.257585 57.854549 21 20 16
14.484653 1.382679 57.870419 21 20 17
14.488609 1.507840 57.886227 21 20 17
14.492546 1.633067 57.901955 21 20 17
14.496464 1.758359 57.917606 20 20 17
14.500361 1.883716 57.933182 20 20 17
14.504252 2.009140 57.948723 19 20 18
14.508148 2.134631 57.964291 19 19 18
14.512072 2.260193 57.979965 19 19 18
14.516057 2.385834 57.995888 18 18 17
14.520144 2.511560 58.012218 19 18 17
14.524385 2.637385 58.029160 20 18 16
14.528837 2.763323 58.046951 20 18 16
14.533569 2.889394 58.065857 21 19 16
14.538655 3.015619 58.086174 21 19 16
14.544169 3.142025 58.108204 21 19 17
14.550190 3.268639 58.132259 20 19 16
14.556791 3.395492 58.158634 20 19 16
14.564039 3.522616 58.187592 20 18 16
14.571997 3.650042 58.219383 19 18 16
14.580709 3.777800 58.254189 19 18 16
14.590209 3.905920 58.292145 18 18 15
14.600513 4.034425 58.333313 17 17 14
14.611623 4.163338 58.377701 17 16 14
14.623521 4.292673 58.425236 17 16 14
14.636174 4.422441 58.475792 17 16 14
14.649538 4.552649 58.529182 18 16 14
14.663556 4.683295 58.585190 19 17 15
14.678164 4.814376 58.643555 19 17 16
14.693300 4.945887 58.704025 20 17 16
14.708899 5.077818 58.766350 20 18 16
14.724910 5.210164 58.830315 20 18 16
14.741285 5.342917 58.895741 20 18 16
14.757997 5.476078 58.962509 20 18 16
14.775031 5.609648 59.030567 20 17 16
14.792393 5.743639 59.099930 19 17 15
14.810102 5.878068 59.170681 18 16 15
14.828192 6.012955 59.242958 18 16 15
14.846707 6.148331 59.316933 17 15 15
14.865702 6.284228 59.392822 18 15 14
14.885229 6.420682 59.470837 18 16 15
14.905338 6.557728 59.551182 19 16 16
14.926074 6.695402 59.634026 19 17 17
14.947466 6.833733 59.719490 19 17 17
14.969529 6.972745 59.807644 19 17 17
14.992262 7.112454 59.898464 19 17 17
15.015640 7.252868 59.991871 19 17 17
15.039626 7.393982 60.087704 19 16 17
15.064167 7.535788 60.185749 18 15 16
14.898418 -5.459687 59.015266 74 75 84
14.883525 -5.327139 58.956268 78 80 87
14.868303 -5.194731 58.895977 79 80 86
14.852792 -5.062484 58.834530 73 74 79
14.837026 -4.930418 58.772079 68 68 72
14.821048 -4.798552 58.708786 69 68 71
14.804898 -4.666904 58.644817 71 70 72
14.788621 -4.535494 58.580338 71 69 71
14.772264 -4.404338 58.515549 66 63 65
14.755877 -4.273452 58.450630 59 55 56
14.739511 -4.142852 58.385803 56 52 53
14.723225 -4.012553 58.321289 59 55 55
14.707081 -3.882571 58.257343 63 59 59
14.691148 -3.752917 58.194229 65 60 61
14.675498 -3.623606 58.132240 65 60 61
14.660212 -3.494648 58.071686 66 60 62
14.645371 -3.366055 58.012901 66 60 62
14.631062 -3.237831 57.956215 65 59 61
14.617373 -3.109985 57.901989 59 53 55
14.604387 -2.982516 57.850559 49 43 45
14.592193 -2.855423 57.802250 41 36 36
14.580863 -2.728701 57.757374 39 35 35
14.570465 -2.602338 57.716187 41 36 36
14.561058 -2.476322 57.678921 41 38 36
14.552682 -2.350633 57.645741 42 39 37
14.545362 -2.225248 57.616749 41 38 36
14.539113 -2.100143 57.591995 37 35 32
14.533927 -1.975289 57.571449 35 32 30
14.529778 -1.850656 57.555012 35 32 30
14.526628 -1.726213 57.542538 35 32 30
14.524427 -1.601928 57.533821 34 31 30
14.523113 -1.477770 57.528614 33 30 29
14.522614 -1.353711 57.526634 31 28 27
14.522849 -1.229723 57.527569 29 26 25
14.523742 -1.105781 57.531105 28 24 23
14.525208 -0.981863 57.536911 26 24 23
14.527169 -0.857948 57.544682 25 24 23
14.529553 -0.734022 57.554127 25 24 23
14.532290 -0.610070 57.564964 25 24 24
14.535316 -0.486080 57.576950 25 24 24
14.538576 -0.362045 57.589867 24 23 23
14.542025 -0.237957 57.603527 23 23 22
14.545627 -0.113811 57.617794 22 22 21
14.549346 0.010396 57.632526 22 22 20
14.553160 0.134668 57.647633 22 21 19
14.557048 0.259006 57.663036 23 21 19
14.560998 0.383412 57.678680 23 20 18
14.565000 0.507887 57.694530 23 20 17
14.569039 0.632432 57.710537 23 20 17
14.573116 0.757049 57.726685 23 20 17
14.577220 0.881736 57.742939 22 19 16
14.581341 1.006495 57.759266 22 19 16
14.585475 1.131325 57.775642 22 19 16
14.589611 1.256226 57.792027 22 20 16
14.593743 1.381197 57.808392 22 20 17
14.597861 1.506238 57.824707 21 20 17
14.601962 1.631346 57.840946 20 20 17
14.606038 1.756522 57.857094 20 20 17
14.610090 1.881764 57.873146 19 19 18
14.614124 2.007073 57.889126 19 19 18
14.618155 2.132451 57.905094 19 19 18
14.622202 2.257900 57.921124 19 19 18
14.626295 2.383425 57.937336 18 18 17
14.630475 2.509035 57.953896 19 18 17
14.634794 2.634742 57.971004 19 18 16
14.639314 2.760560 57.988907 20 18 16
14.644099 2.886508 58.007862 21 18 16
14.649228 3.012608 58.028179 21 19 17
14.654780 3.138886 58.050171 21 19 17
14.660837 3.265372 58.074162 21 19 17
14.667476 3.392096 58.100460 20 19 16
14.674768 3.519090 58.129349 20 18 16
14.682781 3.646387 58.161087 19 18 16
14.691565 3.774019 58.195881 19 18 16
14.701157 3.902015 58.233875 18 18 15
14.711576 4.030403 58.275150 18 17 14
14.722831 4.159204 58.319729 18 17 14
14.734902 4.288435 58.367550 17 16 14
14.747762 4.418108 58.418488 17 16 14
14.761363 4.548229 58.472366 18 16 15
14.775651 4.678800 58.528961 19 17 16
14.790562 4.809818 58.588024 19 17 16
14.806027 4.941275 58.649288 20 17 16
14.821985 5.073165 58.712502 20 18 17
14.838378 5.205480 58.777431 20 18 17
14.855156 5.338214 58.843895 20 18 17
14.872289 5.471364 58.911762 20 18 16
14.889759 5.604935 58.980965 20 17 15
14.907568 5.738934 59.051506 18 16 14
14.925733 5.873377 59.123459 17 15 14
14.944283 6.008285 59.196945 17 15 14
14.963264 6.143687 59.272129 17 15 14
14.982722 6.279613 59.349209 18 15 14
15.002711 6.416099 59.428387 19 16 14
15.023279 6.553178 59.509861 20 16 15
15.044465 6.690883 59.593781 20 16 16
15.066297 6.829243 59.680260 20 16 16
15.088786 6.968280 59.769344 19 16 17
15.111926 7.108006 59.861008 20 17 17
15.135693 7.248428 59.955151 20 17 17
15.160041 7.389540 60.051598 20 16 17
14.981054 -5.189808 58.840168 76 78 85
14.965339 -5.057658 58.778442 71 71 79
14.949376 -4.925692 58.715748 67 66 74
14.933207 -4.793930 58.652237 67 65 72
14.916871 -4.662389 58.588078 70 68 73
14.900414 -4.531089 58.523445 72 69 74
14.883883 -4.400045 58.458515 68 65 68
14.867327 -4.269274 58.393486 60 56 59
14.850797 -4.138790 58.328564 55 52 53
14.834352 -4.008610 58.263977 55 53 53
14.818056 -3.878747 58.199966 58 55 55
14.801974 -3.749214 58.136803 60 57 57
14.786181 -3.620024 58.074776 61 57 58
14.770756 -3.491188 58.014191 63 57 59
14.755782 -3.362717 57.955379 64 57 59
14.741343 -3.234617 57.898670 64 57 59
14.727530 -3.106892 57.844414 59 52 54
14.714426 -2.979546 57.792946 50 44 45
14.702116 -2.852575 57.744598 42 37 37
14.690676 -2.725975 57.699665 39 33 33
14.680172 -2.599733 57.658409 39 34 34
14.670662 -2.473838 57.621056 39 35 34
14.662188 -2.348269 57.587772 38 35 34
14.654774 -2.223004 57.558655 37 35 33
14.648432 -2.098019 57.533745 36 34 31
14.643154 -1.973284 57.513020 35 32 30
14.638919 -1.848771 57.496384 35 33 31
14.635688 -1.724447 57.483692 36 33 32
14.633407 -1.600282 57.474731 36 33 32
14.632015 -1.476246 57.469265 34 32 30
14.631441 -1.352309 57.467010 32 30 28
14.631609 -1.228443 57.467670 30 27 25
14.632435 -1.104625 57.470917 28 25 24
14.633842 -0.980831 57.476444 26 24 24
14.635752 -0.857043 57.483944 26 24 24
14.638090 -0.733244 57.493130 26 24 25
14.640788 -0.609420 57.503723 25 25 25
14.643785 -0.485561 57.515495 25 25 25
14.647029 -0.361657 57.528233 25 24 24
14.650473 -0.237702 57.541763 23 23 22
14.654082 -0.113689 57.555939 22 22 20
14.657824 0.010385 57.570633 22 22 20
14.661675 0.134523 57.585762 22 21 19
14.665620 0.258728 57.601254 22 21 18
14.669640 0.383002 57.617043 22 20 18
14.673728 0.507346 57.633099 22 20 17
14.677874 0.631762 57.649384 22 20 17
14.682071 0.756251 57.665867 23 20 17
14.686307 0.880813 57.682507 23 20 17
14.690577 1.005450 57.699276 23 20 17
14.694868 1.130160 57.716129 23 20 17
14.699173 1.254944 57.733036 22 20 17
14.703476 1.379801 57.749939 22 20 17
14.707769 1.504729 57.766804 21 19 17
14.712044 1.629728 57.783588 20 19 17
14.716290 1.754797 57.800266 20 20 17
14.720505 1.879933 57.816822 19 20 18
14.724691 2.005137 57.833267 19 19 18
14.728861 2.130409 57.849644 19 19 18
14.733031 2.255752 57.866020 19 19 18
14.737230 2.381170 57.882511 19 18 17
14.741500 2.506671 57.899281 18 18 16
14.745892 2.632266 57.916531 19 18 16
14.750463 2.757969 57.934486 20 19 16
14.755286 2.883800 57.953434 21 19 16
14.760441 3.009778 57.973679 21 19 17
14.766009 3.135933 57.995548 21 19 17
14.772076 3.262291 58.019375 21 19 17
14.778724 3.388886 58.045486 20 19 16
14.786031 3.515750 58.074184 20 18 16
14.794066 3.642917 58.105743 19 18 16
14.802887 3.770420 58.140388 19 18 16
14.812536 3.898291 58.178288 18 18 15
14.823038 4.026556 58.219536 18 17 15
14.834400 4.155241 58.264160 18 17 14
14.846611 4.284362 58.312122 18 16 14
14.859642 4.413934 58.363304 17 16 14
14.873449 4.543964 58.417534 18 16 15
14.887977 4.674454 58.474590 18 17 15
14.903161 4.805401 58.534229 19 17 15
14.918932 4.936800 58.596172 19 17 16
14.935225 5.068643 58.660168 20 17 16
14.951980 5.200923 58.725971 20 18 17
14.969146 5.333632 58.793392 20 18 17
14.986686 5.466770 58.862286 20 17 15
15.004582 5.600337 58.932575 20 16 14
15.022832 5.734341 59.004253 18 16 14
15.041450 5.868798 59.077374 17 15 13
15.060462 6.003729 59.152050 16 14 13
15.079909 6.139158 59.228432 17 14 14
15.099838 6.275116 59.306709 18 15 14
15.120299 6.411638 59.387070 19 16 14
15.141336 6.548755 59.469696 20 16 15
15.162986 6.686499 59.554729 20 16 15
15.185273 6.824895 59.642262 20 16 15
15.208205 6.963964 59.732330 19 16 16
15.231771 7.103718 59.824894 20 16 16
15.255942 7.244158 59.919827 20 16 17
15.061909 -4.921104 58.661068 65 63 73
15.045567 -4.789449 58.597424 64 62 72
15.029067 -4.658019 58.533161 68 65 74
15.012453 -4.526832 58.468456 72 69 76
14.995770 -4.395903 58.403481 68 65 70
14.979068 -4.265248 58.338428 60 57 60
14.962399 -4.134884 58.273514 54 52 53
14.945821 -4.004824 58.208946 53 51 52
14.929396 -3.875082 58.144978 55 53 53
14.913192 -3.745671 58.081867 56 54 55
14.897280 -3.616603 58.019897 58 55 56
14.881742 -3.487890 57.959377 60 54 56
14.866658 -3.359540 57.900635 61 55 56
14.852116 -3.231562 57.843994 61 55 56
14.838199 -3.103959 57.789795 59 54 54
14.824998 -2.976733 57.738380 51 46 46
14.812592 -2.849881 57.690063 42 37 36
14.801057 -2.723399 57.645142 37 32 31
14.790463 -2.597275 57.603882 37 32 31
14.780865 -2.471495 57.566498 37 33 31
14.772302 -2.346041 57.533146 36 33 31
14.764801 -2.220891 57.503933 35 33 31
14.758373 -2.096019 57.478901 34 32 30
14.753013 -1.971398 57.458023 34 32 30
14.748694 -1.846997 57.441204 35 33 31
14.745380 -1.722786 57.428299 36 34 33
14.743018 -1.598733 57.419098 37 35 33
14.741549 -1.474810 57.413380 36 34 32
14.740899 -1.350987 57.410847 34 31 29
14.740993 -1.227236 57.411213 31 28 26
14.741750 -1.103534 57.414158 28 26 24
14.743093 -0.979857 57.419392 26 24 24
14.744944 -0.856188 57.426598 26 24 25
14.747231 -0.732509 57.435505 26 24 25
14.749886 -0.608807 57.445843 25 25 25
14.752851 -0.485071 57.457394 25 25 25
14.756074 -0.361291 57.469944 24 24 24
14.759511 -0.237460 57.483330 23 23 22
14.763125 -0.113573 57.497410 22 22 21
14.766891 0.010374 57.512074 22 22 20
14.770782 0.134386 57.527225 21 21 20
14.774783 0.258466 57.542812 21 21 19
14.778879 0.382615 57.558765 22 20 18
14.783060 0.506835 57.575047 22 20 17
14.787318 0.631129 57.591633 22 20 17
14.791642 0.755498 57.608471 23 20 17
14.796023 0.879943 57.625534 23 20 18
14.800450 1.004465 57.642776 23 21 18
14.804912 1.129064 57.660152 23 20 18
14.809395 1.253739 57.677616 22 20 18
14.813883 1.378490 57.695095 21 20 17
14.818363 1.503316 57.712543 20 19 17
14.822822 1.628214 57.729904 20 19 16
14.827248 1.753184 57.747143 20 20 17
14.831635 1.878223 57.764233 19 20 18
14.835981 2.003330 57.781158 19 19 18
14.840295 2.128505 57.797958 19 19 18
14.844592 2.253751 57.814693 19 19 18
14.848898 2.379070 57.831463 19 18 17
14.853254 2.504469 57.848431 18 18 17
14.857709 2.629960 57.865780 19 18 16
14.862326 2.755555 57.883759 20 19 16
14.867176 2.881273 57.902653 20 19 16
14.872340 3.007135 57.922764 21 19 17
14.877905 3.133169 57.944439 21 19 17
14.883960 3.259404 57.968018 20 19 17
14.890594 3.385872 57.993855 20 19 16
14.897887 3.512607 58.022259 19 18 15
14.905917 3.639644 58.053535 19 18 15
14.914745 3.767017 58.087917 18 17 15
14.924419 3.894760 58.125595 18 17 15
14.934968 4.022901 58.166679 18 17 15
14.946405 4.151465 58.211224 18 17 14
14.958722 4.280473 58.259193 18 16 15
14.971892 4.409940 58.310486 18 16 15
14.985873 4.539873 58.364937 18 16 15
15.000610 4.670276 58.422333 18 16 15
15.016038 4.801148 58.482418 19 17 15
15.032087 4.932483 58.544926 19 17 15
15.048691 5.064273 58.609592 19 17 16
15.065785 5.196512 58.676167 19 17 16
15.083318 5.329193 58.744450 19 17 16
15.101250 5.462312 58.814289 19 17 15
15.119558 5.595872 58.885593 19 16 14
15.138239 5.729880 58.958347 18 15 13
15.157300 5.864349 59.032585 17 14 13
15.176769 5.999300 59.108414 16 14 13
15.196683 6.134757 59.185970 17 14 13
15.217085 6.270749 59.265430 18 15 13
15.238021 6.407308 59.346966 19 15 14
15.259533 6.544466 59.430752 19 16 14
15.281655 6.682252 59.516911 19 16 15
15.304407 6.820691 59.605518 19 16 16
15.327795 6.959800 59.696606 19 16 16
15.141523 -4.653801 58.480167 65 63 72
15.124772 -4.522729 58.415470 69 67 75
15.107962 -4.391918 58.350544 67 65 71
15.091138 -4.261384 58.285564 60 57 63
15.074356 -4.131140 58.220749 55 52 56
15.057670 -4.001202 58.156303 53 51 53
15.041142 -3.871583 58.092472 54 52 52
15.024841 -3.742295 58.029514 54 52 52
15.008839 -3.613350 57.967709 55 52 52
14.993214 -3.484760 57.907360 56 52 53
14.978045 -3.356532 57.848774 58 53 54
14.963421 -3.228673 57.792294 59 54 55
14.949427 -3.101190 57.738243 59 54 54
14.936148 -2.974082 57.686958 52 48 46
14.923665 -2.847346 57.638748 41 37 35
14.912056 -2.720978 57.593910 35 31 30
14.901387 -2.594967 57.552704 35 31 30
14.891712 -2.469299 57.515339 35 32 30
14.883072 -2.343954 57.481964 34 32 30
14.875496 -2.218912 57.452705 34 32 30
14.868989 -2.094147 57.427574 33 31 30
14.863549 -1.969632 57.406563 33 31 30
14.859149 -1.845336 57.389568 35 32 31
14.855754 -1.721231 57.376457 37 34 33
14.853312 -1.597283 57.367023 39 36 35
14.851760 -1.473466 57.361031 37 35 33
14.851029 -1.349748 57.358212 34 32 30
14.851046 -1.226104 57.358273 32 29 28
14.851728 -1.102510 57.360909 29 26 25
14.853000 -0.978943 57.365822 27 24 24
14.854787 -0.855385 57.372723 26 24 24
14.857016 -0.731818 57.381332 26 24 24
14.859622 -0.608230 57.391399 25 24 24
14.862549 -0.484609 57.402702 25 24 24
14.865746 -0.360946 57.415047 24 23 23
14.869171 -0.237233 57.428280 23 22 22
14.872790 -0.113464 57.442257 22 22 21
14.876576 0.010364 57.456879 22 22 20
14.880507 0.134257 57.472057 21 21 20
14.884565 0.258218 57.487732 21 21 19
14.888741 0.382250 57.503860 21 20 18
14.893019 0.506354 57.520382 22 20 18
14.897393 0.630534 57.537277 22 20 17
14.901853 0.754791 57.554501 22 20 17
14.906385 0.879126 57.572006 22 20 18
14.910981 1.003541 57.589756 22 20 18
14.915622 1.128036 57.607681 22 20 18
14.920292 1.252611 57.625717 22 20 18
14.924975 1.377265 57.643806 21 19 17
14.929653 1.501996 57.661877 20 19 17
14.934310 1.626803 57.679859 20 19 16
14.938926 1.751683 57.697685 19 19 17
14.943494 1.876633 57.715328 19 19 17
14.948008 2.001652 57.732761 20 19 18
14.952471 2.126739 57.750000 20 19 18
14.956900 2.251896 57.767105 20 18 18
14.961315 2.377124 57.784157 19 18 17
14.965757 2.502430 57.801315 18 18 17
14.970274 2.627823 57.818760 19 18 16
14.974931 2.753316 57.836746 19 18 16
14.979798 2.878929 57.855545 20 19 17
14.984960 3.004681 57.875481 20 19 17
14.990508 3.130599 57.896912 20 19 16
14.996536 3.256715 57.920193 20 19 16
15.003136 3.383059 57.945679 19 19 16
15.010393 3.509667 57.973713 19 18 15
15.018394 3.636576 58.004608 18 17 14
15.027203 3.763821 58.038631 18 16 14
15.036874 3.891436 58.075985 18 17 14
15.047442 4.019451 58.116802 18 17 14
15.058925 4.147894 58.161152 18 16 14
15.071317 4.276786 58.209011 19 16 15
15.084595 4.406144 58.260296 19 16 15
15.098719 4.535976 58.314842 18 16 15
15.113634 4.666289 58.372452 18 16 15
15.129276 4.797080 58.432865 18 16 15
15.145576 4.928345 58.495819 19 17 15
15.162463 5.060078 58.561043 19 17 15
15.179873 5.192271 58.628284 19 17 15
15.197750 5.324918 58.697327 19 17 15
15.216053 5.458014 58.768017 19 17 14
15.234756 5.591563 58.840252 18 15 13
15.253851 5.725570 58.914001 18 14 13
15.273344 5.860048 58.989288 17 14 12
15.293261 5.995017 59.066212 17 13 12
15.313633 6.130499 59.144894 17 13 13
15.334501 6.266523 59.225494 17 14 13
15.355911 6.403121 59.308182 18 15 13
15.377899 6.540321 59.393108 19 15 13
15.400496 6.678151 59.480377 19 16 14
15.423717 6.816634 59.570068 20 17 16
15.203554 -4.257679 58.234898 63 60 66
15.186684 -4.127559 58.170280 59 56 60
15.169917 -3.997745 58.106056 56 54 56
15.153315 -3.868250 58.042461 54 52 53
15.136944 -3.739086 57.979759 53 51 51
15.120876 -3.610265 57.918213 53 49 49
15.105189 -3.481797 57.858128 53 49 49
15.089963 -3.353690 57.799805 54 50 49
15.075281 -3.225952 57.743568 55 51 50
15.061233 -3.098585 57.689754 54 50 49
15.047897 -2.971592 57.638680 48 45 42
15.035358 -2.844970 57.590649 40 37 34
15.023691 -2.718713 57.545963 37 33 31
15.012962 -2.592810 57.504868 37 33 31
15.003225 -2.467248 57.467567 37 33 32
14.994520 -2.342008 57.434223 36 33 32
14.986874 -2.217068 57.404938 35 33 32
14.980297 -2.092403 57.379745 34 32 31
14.974780 -1.967987 57.358616 34 32 31
14.970302 -1.843790 57.341461 35 32 31
14.966826 -1.719781 57.328148 36 33 32
14.964301 -1.595932 57.318474 36 34 33
14.962665 -1.472211 57.312210 36 34 32
14.961850 -1.348592 57.309090 34 32 30
14.961782 -1.225048 57.308826 32 30 28
14.962382 -1.101553 57.311127 29 27 25
14.963578 -0.978088 57.315708 27 25 24
14.965290 -0.854632 57.322266 26 24 24
14.967454 -0.731171 57.330555 25 24 23
14.970006 -0.607689 57.340328 25 23 22
14.972888 -0.484176 57.351368 24 23 22
14.976052 -0.360622 57.363487 24 22 22
14.979462 -0.237019 57.376545 23 21 21
14.983081 -0.113362 57.390411 23 21 21
14.986884 0.010355 57.404980 22 21 20
14.990850 0.134136 57.420170 22 21 20
14.994967 0.257986 57.435940 21 20 20
14.999222 0.381906 57.452236 21 20 19
15.003601 0.505902 57.469009 21 20 18
15.008094 0.629974 57.486217 21 20 18
15.012694 0.754126 57.503841 21 20 18
15.017386 0.878359 57.521812 22 20 18
15.022156 1.002676 57.540081 22 20 18
15.026986 1.127075 57.558582 21 20 18
15.031856 1.251557 57.577236 21 19 18
15.036745 1.376122 57.595963 20 19 17
15.041631 1.500767 57.614674 20 18 16
15.046491 1.625489 57.633289 19 18 16
15.051309 1.750288 57.651749 19 19 16
15.056067 1.875158 57.669968 19 19 17
15.060757 2.000098 57.687935 20 19 17
15.065381 2.125106 57.705647 20 19 18
15.069947 2.250182 57.723137 20 18 18
15.074476 2.375327 57.740486 19 18 18
15.079008 2.500548 57.757847 18 17 17
15.083590 2.625852 57.775394 18 16 15
15.088285 2.751252 57.793377 18 16 15
15.093166 2.876765 57.812077 20 18 16
15.098324 3.002414 57.831829 20 19 17
15.103848 3.128224 57.852985 20 19 16
15.109837 3.254226 57.875927 20 19 16
15.116389 3.380452 57.901024 19 19 15
15.123597 3.506939 57.928635 19 18 14
15.131549 3.633723 57.959095 18 17 13
15.140320 3.760842 57.992691 18 16 13
15.149967 3.888330 58.029644 18 16 13
15.160530 4.016221 58.070103 18 16 14
15.172032 4.144543 58.114162 19 16 14
15.184473 4.273318 58.161812 19 16 15
15.197832 4.402565 58.212982 19 16 15
15.212070 4.532295 58.267517 19 16 15
15.227137 4.662514 58.325226 19 16 15
15.242965 4.793221 58.385857 19 16 15
15.259487 4.924413 58.449142 19 16 15
15.276630 5.056083 58.514805 19 17 15
15.294329 5.188225 58.582596 19 17 15
15.312525 5.320832 58.652294 19 17 14
15.331174 5.453901 58.723728 19 16 14
15.350248 5.587433 58.796791 18 15 13
15.369738 5.721434 58.871441 17 14 12
15.389646 5.855916 58.947697 17 13 12
15.409993 5.990898 59.025631 17 13 12
15.430810 6.126402 59.105366 18 14 13
15.452135 6.262456 59.187050 18 14 13
15.474009 6.399088 59.270832 18 15 13
15.496466 6.536329 59.356853 18 15 13
15.282555 -3.994447 58.058117 63 61 63
15.265904 -3.865077 57.994862 59 57 57
15.249492 -3.736039 57.932514 54 51 51
15.233387 -3.607342 57.871330 51 48 47
15.217665 -3.478997 57.811600 49 46 45
15.202407 -3.351011 57.753635 49 45 44
15.187694 -3.223391 57.697742 49 45 43
15.173611 -3.096141 57.644238 47 44 41
15.160242 -2.969261 57.593452 43 40 37
15.147668 -2.842749 57.545685 40 37 34
15.135961 -2.716599 57.501209 39 36 34
15.125188 -2.590800 57.460285 39 36 34
15.115402 -2.465339 57.423107 39 36 34
15.106642 -2.340197 57.389828 39 36 34
15.098935 -2.215353 57.360550 38 35 33
15.092292 -2.090783 57.335312 36 34 32
15.086704 -1.966459 57.314087 35 32 31
15.082150 -1.842353 57.296783 34 31 30
15.078592 -1.718435 57.283268 33 31 30
15.075981 -1.594675 57.273346 33 31 30
15.074256 -1.471045 57.266792 33 31 30
15.073353 -1.347516 57.263359 32 30 28
15.073193 -1.224063 57.262753 31 29 27
15.073706 -1.100661 57.264702 29 27 25
15.074815 -0.977289 57.268917 27 25 24
15.076446 -0.853929 57.275112 26 24 24
15.078537 -0.730565 57.283058 25 24 23
15.081024 -0.607182 57.292503 25 23 23
15.083852 -0.483769 57.303249 25 23 22
15.086978 -0.360318 57.315125 25 22 22
15.090364 -0.236819 57.327988 24 21 22
15.093977 -0.113266 57.341713 24 21 21
15.097795 0.010346 57.356216 23 21 21
15.101797 0.134022 57.371422 22 21 20
15.105970 0.257767 57.387276 22 20 20
15.110302 0.381584 57.403732 22 20 19
15.114780 0.505477 57.420746 22 19 19
15.119398 0.629449 57.438286 21 19 19
15.124143 0.753503 57.456314 21 20 18
15.129001 0.877641 57.474766 21 20 18
15.133950 1.001865 57.493568 21 20 18
15.138974 1.126176 57.512657 21 19 18
15.144051 1.250573 57.531940 20 19 17
15.149156 1.375055 57.551334 19 19 17
15.154258 1.499622 57.570721 19 19 16
15.159335 1.624269 57.590008 19 18 16
15.164365 1.748993 57.609116 19 19 16
15.169325 1.873792 57.627956 19 19 16
15.174204 1.998661 57.646492 20 19 16
15.178996 2.123598 57.664700 20 19 17
15.183708 2.248601 57.682602 20 19 18
15.188364 2.373673 57.700287 19 18 18
15.192992 2.498817 57.717869 19 18 17
15.197644 2.624040 57.735546 18 17 16
15.202383 2.749356 57.753544 19 17 15
15.207285 2.874780 57.772167 20 18 16
15.212436 3.000333 57.791737 20 19 16
15.217935 3.126042 57.812626 20 20 16
15.223884 3.251937 57.835224 19 19 15
15.230385 3.378052 57.859924 19 19 15
15.237535 3.504423 57.887085 19 18 14
15.245430 3.631089 57.917084 18 17 13
15.254150 3.758087 57.950207 18 16 12
15.263759 3.885454 57.986710 18 16 13
15.274301 4.013224 58.026760 18 16 14
15.285804 4.141426 58.070461 19 16 15
15.298272 4.270087 58.117828 19 16 16
15.311688 4.399224 58.168793 19 16 16
15.326017 4.528851 58.223232 19 16 16
15.341208 4.658973 58.280941 19 15 16
15.357196 4.789594 58.341679 19 15 16
15.373912 4.920709 58.405182 19 16 15
15.391283 5.052313 58.471176 19 17 14
15.409242 5.184400 58.539398 20 17 15
15.427730 5.316962 58.609634 19 17 14
15.446699 5.449997 58.681698 18 16 13
15.466119 5.583507 58.755474 18 15 13
15.485976 5.717495 58.830914 17 14 12
15.506275 5.851975 58.908024 17 13 12
15.527031 5.986964 58.986874 17 13 12
15.548272 6.122484 59.067574 18 14 13
15.570035 6.258562 59.150249 18 14 13
15.362460 -3.733144 57.887615 56 55 54
15.346343 -3.604572 57.826885 51 49 48
15.330613 -3.476350 57.767612 47 45 43
15.315348 -3.348485 57.710091 45 41 38
15.300628 -3.220982 57.654625 43 39 36
15.286535 -3.093846 57.601521 42 38 35
15.273155 -2.967077 57.551102 41 38 35
15.260564 -2.840673 57.503654 40 38 35
15.248836 -2.714627 57.459465 40 38 35
15.238033 -2.588928 57.418762 40 37 34
15.228209 -2.463563 57.381744 39 36 34
15.219407 -2.338515 57.348576 39 36 34
15.211649 -2.213762 57.319340 39 36 34
15.204945 -2.089279 57.294075 37 35 33
15.199289 -1.965041 57.272766 36 33 32
15.194657 -1.841019 57.255314 34 31 30
15.191016 -1.717185 57.241596 33 31 30
15.188317 -1.593508 57.231426 33 30 29
15.186501 -1.469960 57.224579 33 29 29
15.185500 -1.346515 57.220810 32 29 28
15.185245 -1.223145 57.219845 31 28 27
15.185659 -1.099829 57.221409 29 26 26
15.186674 -0.976544 57.225231 27 25 24
15.188218 -0.853272 57.231049 25 24 24
15.190225 -0.729998 57.238613 25 23 23
15.192638 -0.606707 57.247707 25 23 23
15.195407 -0.483389 57.258137 25 22 22
15.198485 -0.360032 57.269737 25 22 22
15.201841 -0.236630 57.282383 24 21 22
15.205442 -0.113175 57.295952 24 21 21
15.209267 0.010338 57.310364 24 21 21
15.213300 0.133915 57.325562 23 20 20
15.217527 0.257561 57.341488 22 20 20
15.221936 0.381281 57.358101 22 20 19
15.226516 0.505077 57.375362 22 19 19
15.231259 0.628955 57.393234 21 19 19
15.236151 0.752917 57.411667 21 20 18
15.241173 0.876967 57.430592 21 20 18
15.246310 1.001105 57.449947 21 20 18
15.251537 1.125333 57.469646 20 19 18
15.256828 1.249652 57.489582 19 19 17
15.262156 1.374060 57.509659 19 18 17
15.267487 1.498554 57.529743 18 18 16
15.272792 1.623133 57.549736 18 18 16
15.278045 1.747792 57.569527 18 18 15
15.283217 1.872526 57.589020 19 18 15
15.288297 1.997332 57.608158 19 18 15
15.293270 2.122206 57.626900 20 18 16
15.298143 2.247146 57.645264 20 18 17
15.302935 2.372152 57.663319 19 18 17
15.307674 2.497228 57.681179 19 18 17
15.312410 2.622380 57.699020 19 17 16
15.317205 2.747620 57.717091 19 17 15
15.322134 2.872963 57.735661 20 18 15
15.327290 2.998430 57.755089 20 18 15
15.332773 3.124048 57.775749 19 19 15
15.338687 3.249846 57.798035 19 19 15
15.345140 3.375859 57.822350 19 19 14
15.352235 3.502123 57.849087 19 18 14
15.360073 3.628678 57.878620 18 17 13
15.368739 3.755562 57.911278 18 16 12
15.378302 3.882814 57.947308 18 16 13
15.388814 4.010468 57.986919 17 15 14
15.400306 4.138556 58.030220 18 15 14
15.412787 4.267106 58.077255 19 15 15
15.426244 4.396135 58.127960 19 16 16
15.440643 4.525661 58.182220 19 16 16
15.455935 4.655688 58.239841 19 15 16
15.472058 4.786221 58.300594 19 16 16
15.488942 4.917257 58.364212 19 16 16
15.506514 5.048792 58.430428 19 17 16
15.524704 5.180819 58.498970 19 17 15
15.543452 5.313332 58.569618 19 17 14
15.562711 5.446328 58.642185 18 16 13
15.582446 5.579808 58.716549 18 15 13
15.602644 5.713777 58.792656 17 14 12
15.623303 5.848248 58.870502 17 14 12
15.644439 5.983236 58.950146 17 14 12
15.666077 6.118764 59.031681 17 14 13
15.428736 -3.346096 57.668915 42 38 35
15.414034 -3.218711 57.613964 37 33 30
15.399957 -3.091688 57.561344 37 34 30
15.386584 -2.965029 57.511364 40 37 34
15.373995 -2.838729 57.464310 42 40 37
15.362261 -2.712783 57.420448 41 39 36
15.351445 -2.587181 57.380024 39 36 34
15.341599 -2.461909 57.343220 39 36 34
15.332760 -2.336950 57.310184 40 37 34
15.324958 -2.212282 57.281021 40 37 34
15.318199 -2.087882 57.255756 38 36 34
15.312478 -1.963724 57.234375 37 34 33
15.307772 -1.839781 57.216785 35 32 31
15.304048 -1.716023 57.202862 33 30 29
15.301257 -1.592422 57.192432 32 29 28
15.299343 -1.468951 57.185276 32 28 28
15.298241 -1.345582 57.181156 31 27 27
15.297879 -1.222290 57.179806 30 27 27
15.298190 -1.099051 57.180969 29 26 26
15.299102 -0.975847 57.184376 27 25 24
15.300546 -0.852657 57.189774 25 24 24
15.302463 -0.729466 57.196938 25 23 23
15.304792 -0.606261 57.205647 25 23 23
15.307491 -0.483031 57.215733 25 22 22
15.310514 -0.359764 57.227036 25 22 22
15.313831 -0.236453 57.239433 24 21 22
15.317413 -0.113090 57.252819 24 21 21
15.321241 0.010330 57.267128 24 21 21
15.325299 0.133814 57.282295 23 20 20
15.329576 0.257367 57.298283 22 20 20
15.334059 0.380994 57.315037 22 20 19
15.338742 0.504700 57.332542 22 20 19
15.343609 0.628489 57.350731 21 19 19
15.348648 0.752365 57.369568 20 19 18
15.353844 0.876331 57.388988 20 19 18
15.359171 1.000390 57.408901 20 19 18
15.364606 1.124542 57.429214 19 19 18
15.370118 1.248788 57.449821 19 18 17
15.375677 1.373126 57.470596 18 18 17
15.381248 1.497556 57.491417 18 17 16
15.386790 1.622072 57.512135 18 17 15
15.392277 1.746672 57.532642 18 17 14
15.397676 1.871349 57.552826 18 17 14
15.402969 1.996099 57.572609 19 17 14
15.408141 2.120919 57.591938 19 18 15
15.413193 2.245803 57.610821 19 18 16
15.418138 2.370753 57.629303 19 18 16
15.423005 2.495770 57.647499 19 18 16
15.427843 2.620861 57.665581 19 17 15
15.432710 2.746034 57.683769 20 17 15
15.437687 2.871307 57.702377 20 18 15
15.442864 2.996698 57.721725 20 18 15
15.448345 3.122235 57.742214 20 18 14
15.454240 3.247946 57.764244 20 18 15
15.460658 3.373867 57.788235 19 18 15
15.467710 3.500035 57.814598 19 18 15
15.475499 3.626489 57.843704 19 17 14
15.484116 3.753269 57.875916 18 17 13
15.493637 3.880414 57.911503 17 16 13
15.504118 4.007962 57.950676 17 16 13
15.515595 4.135943 57.993576 17 15 14
15.528082 4.264387 58.040249 18 15 15
15.541569 4.393314 58.090656 18 15 16
15.556023 4.522741 58.144684 18 15 16
15.571399 4.652676 58.202156 18 15 16
15.587635 4.783122 58.262844 18 16 16
15.604662 4.914079 58.326485 19 17 17
15.622406 5.045542 58.392811 19 17 17
15.640798 5.177505 58.461555 19 17 16
15.659777 5.309964 58.532494 19 17 15
15.679292 5.442915 58.605434 18 16 14
15.699308 5.576358 58.680252 18 15 13
15.719810 5.710301 58.756886 17 15 12
15.500456 -2.963097 57.473904 40 37 33
15.487888 -2.836901 57.427303 43 41 37
15.476166 -2.711053 57.383835 42 40 36
15.465350 -2.585545 57.343735 40 37 34
15.455491 -2.460362 57.307178 39 36 34
15.446629 -2.335487 57.274319 40 37 34
15.438788 -2.210900 57.245247 40 37 34
15.431980 -2.086578 57.220001 38 36 33
15.426195 -1.962495 57.198551 37 34 32
15.421416 -1.838625 57.180832 35 32 30
15.417605 -1.714938 57.166702 33 30 28
15.414721 -1.591408 57.156006 32 28 27
15.412704 -1.468007 57.148525 31 27 27
15.411492 -1.344708 57.144035 31 26 27
15.411019 -1.221488 57.142284 30 26 26
15.411216 -1.098322 57.143009 29 25 25
15.412016 -0.975191 57.145977 27 25 24
15.413352 -0.852078 57.150932 26 24 23
15.415167 -0.728966 57.157658 26 24 23
15.417406 -0.605841 57.165962 25 23 23
15.420025 -0.482692 57.175671 25 22 22
15.422985 -0.359510 57.186649 25 22 22
15.426254 -0.236285 57.198772 24 21 22
15.429812 -0.113010 57.211964 24 21 21
15.433638 0.010323 57.226147 24 21 21
15.437716 0.133718 57.241272 23 21 20
15.442039 0.257183 57.257301 22 20 20
15.446594 0.380723 57.274189 22 20 20
15.451373 0.504343 57.291912 22 20 19
15.456367 0.628048 57.310425 21 19 18
15.461557 0.751842 57.329670 20 18 17
15.466926 0.875729 57.349575 19 18 17
15.472447 0.999713 57.370049 19 18 18
15.478095 1.123793 57.390991 19 18 18
15.483837 1.247972 57.412281 18 18 17
15.489635 1.372247 57.433777 18 17 16
15.495451 1.496616 57.455345 18 17 15
15.501244 1.621076 57.476826 18 17 15
15.506979 1.745623 57.498089 17 16 14
15.512621 1.870250 57.519009 18 16 13
15.518145 1.994951 57.539490 18 17 14
15.523532 2.119723 57.559467 19 17 15
15.528780 2.244560 57.578926 19 17 15
15.533899 2.369462 57.597908 19 18 15
15.538917 2.494429 57.616512 20 18 15
15.543879 2.619467 57.634911 20 18 15
15.548843 2.744585 57.653320 20 18 15
15.553893 2.869797 57.672043 20 18 15
15.559117 2.995124 57.691414 20 18 15
15.564622 3.120591 57.711823 20 18 15
15.570520 3.246228 57.733696 20 18 15
15.576927 3.372069 57.757446 19 18 16
15.583957 3.498153 57.783512 19 18 16
15.591713 3.624518 57.812275 19 18 15
15.600298 3.751206 57.844105 18 18 15
15.609789 3.878256 57.879295 17 17 14
15.620248 4.005707 57.918076 17 16 14
15.631715 4.133591 57.960594 16 16 14
15.644206 4.261937 58.006908 17 15 15
15.657716 4.390769 58.057003 17 15 15
15.672216 4.520103 58.110771 17 15 16
15.687662 4.649948 58.168041 18 16 16
15.703994 4.780310 58.228596 18 16 17
15.721141 4.911188 58.292175 18 17 17
15.739032 5.042579 58.358513 19 17 17
15.757596 5.174476 58.427349 19 17 17
15.776772 5.306876 58.498451 19 17 16
15.796509 5.439775 58.571632 18 16 14
15.569793 -2.458904 57.273212 40 36 34
15.560913 -2.334110 57.240551 39 35 34
15.553043 -2.209601 57.211601 38 35 33
15.546188 -2.085352 57.186386 37 34 32
15.540344 -1.961340 57.164886 35 32 30
15.535490 -1.837538 57.147030 34 30 29
15.531592 -1.713918 57.132694 32 28 27
15.528608 -1.590453 57.121716 31 27 27
15.526484 -1.467117 57.113903 31 25 26
15.525157 -1.343884 57.109020 30 25 26
15.524567 -1.220730 57.106850 30 25 26
15.524641 -1.097632 57.107124 29 25 26
15.525319 -0.974571 57.109619 28 24 25
15.526539 -0.851529 57.114105 26 24 24
15.528243 -0.728490 57.120377 25 24 23
15.530383 -0.605441 57.128242 25 24 22
15.532913 -0.482370 57.137550 25 23 22
15.535800 -0.359268 57.148170 25 22 22
15.539019 -0.236125 57.160011 24 21 21
15.542543 -0.112933 57.172977 24 21 20
15.546359 0.010316 57.187012 24 21 20
15.550452 0.133627 57.202068 23 21 20
15.554818 0.257007 57.218128 22 21 20
15.559443 0.380463 57.235142 22 20 20
15.564321 0.504001 57.253082 22 20 19
15.569435 0.627625 57.271896 21 19 18
15.574777 0.751342 57.291546 20 19 17
15.580320 0.875155 57.311939 19 18 17
15.586039 0.999067 57.332973 19 17 18
15.591905 1.123080 57.354553 19 17 18
15.597882 1.247195 57.376537 19 17 17
15.603929 1.371410 57.398781 18 17 16
15.610000 1.495725 57.421112 17 17 15
15.616055 1.620134 57.443390 17 16 14
15.622051 1.744632 57.465443 17 16 14
15.627950 1.869213 57.487141 17 16 13
15.633721 1.993872 57.508373 18 16 14
15.639344 2.118603 57.529057 18 17 14
15.644812 2.243400 57.549171 19 17 14
15.650131 2.368262 57.568737 19 18 14
15.655327 2.493188 57.587849 20 18 15
15.660442 2.618183 57.606663 20 18 15
15.665536 2.743256 57.625404 20 18 15
15.670688 2.868420 57.644356 20 18 15
15.675992 2.993694 57.663864 20 18 15
15.681554 3.119104 57.684322 20 17 15
15.687489 3.244680 57.706154 20 17 16
15.693915 3.370455 57.729797 19 17 16
15.700950 3.496468 57.755672 19 18 16
15.708705 3.622758 57.784199 19 18 16
15.717280 3.749367 57.815742 19 18 16
15.726761 3.876335 57.850620 18 18 15
15.737212 4.003700 57.889065 17 17 15
15.748681 4.131498 57.931252 16 16 15
15.761184 4.259758 57.977242 16 15 15
15.774720 4.388503 58.027035 16 15 15
15.789263 4.517751 58.080532 17 15 15
15.804770 4.647512 58.137573 17 16 16
15.821182 4.777794 58.197945 18 16 17
15.838430 4.908595 58.261391 18 17 17
15.856442 5.039912 58.327652 18 17 17
15.875152 5.171741 58.396469 18 17 17
15.660714 -2.084188 57.154457 36 32 30
15.654810 -1.960243 57.132908 34 30 29
15.649881 -1.836505 57.114922 33 28 27
15.645895 -1.712948 57.100372 31 27 26
15.642810 -1.589546 57.089115 30 25 26
15.640573 -1.466271 57.080948 30 25 26
15.639127 -1.343099 57.075672 30 24 26
15.638407 -1.220007 57.073044 29 24 26
15.638354 -1.096973 57.072853 28 24 25
15.638905 -0.973978 57.074860 27 24 25
15.639998 -0.851003 57.078854 26 24 24
15.641582 -0.728034 57.084633 25 24 23
15.643613 -0.605058 57.092041 24 23 23
15.646048 -0.482061 57.100929 24 23 22
15.648854 -0.359035 57.111172 24 22 21
15.652012 -0.235971 57.122696 24 22 20
15.655498 -0.112858 57.135418 24 22 19
15.659297 0.010309 57.149284 23 22 19
15.663404 0.133538 57.164268 23 22 19
15.667808 0.256838 57.180344 22 22 19
15.672498 0.380213 57.197460 22 21 19
15.677469 0.503671 57.215607 22 21 19
15.682709 0.627218 57.234726 22 20 18
15.688200 0.750860 57.254768 21 20 18
15.693919 0.874600 57.275639 20 19 18
15.699841 0.998444 57.297249 19 18 18
15.705929 1.122393 57.319469 19 17 18
15.712144 1.246447 57.342152 19 17 17
15.718446 1.370607 57.365150 18 17 16
15.724783 1.494869 57.388275 17 16 15
15.731112 1.619231 57.411373 18 16 14
15.737382 1.743685 57.434258 17 15 14
15.743555 1.868226 57.456791 17 15 14
15.749594 1.992848 57.478828 17 16 14
15.755475 2.117543 57.500290 18 16 13
15.761188 2.242307 57.521137 18 17 14
15.766734 2.367136 57.541382 19 17 14
15.772138 2.492030 57.561100 20 17 15
15.777438 2.616991 57.580444 20 17 15
15.782698 2.742029 57.599640 20 17 15
15.787990 2.867156 57.618954 20 17 15
15.793411 2.992390 57.638741 20 17 15
15.799070 3.117756 57.659393 20 16 15
15.805082 3.243284 57.681335 19 16 16
15.811568 3.369008 57.705006 19 17 16
15.818646 3.494964 57.730839 19 17 16
15.826434 3.621194 57.759258 18 17 16
15.835034 3.747739 57.790646 18 18 16
15.844535 3.874640 57.825317 18 18 16
15.855005 4.001934 57.863529 17 17 15
15.866494 4.129659 57.905457 16 16 15
15.879023 4.257843 57.951183 16 16 15
15.892593 4.386512 58.000710 16 15 15
15.907180 4.515683 58.053944 16 14 15
15.922743 4.645368 58.110741 16 15 15
15.939223 4.775573 58.170887 17 16 16
15.757200 -1.588671 57.057701 30 25 25
15.754846 -1.465455 57.049175 29 24 25
15.753273 -1.342342 57.043484 29 24 24
15.752421 -1.219310 57.040398 28 24 24
15.752232 -1.096336 57.039711 27 24 23
15.752645 -0.973404 57.041210 26 24 23
15.753606 -0.850494 57.044685 26 24 23
