ply
format ascii 1.0
element vertex 1240
property float x
property float y
property float z
property uchar red
property uchar green
property uchar blue
end_header
-6.564673 -2.221865 54.487907 32 28 24
-6.560682 -2.103128 54.454781 31 28 24
-6.556727 -1.984545 54.421955 30 26 23
-6.552801 -1.866111 54.389370 28 24 22
-6.548899 -1.747825 54.356979 27 23 21
-6.545018 -1.629683 54.324768 25 22 20
-6.541158 -1.511685 54.292728 25 21 20
-6.537321 -1.393830 54.260880 25 21 20
-6.533513 -1.276118 54.229271 25 21 20
-6.529744 -1.158550 54.197990 25 21 20
-6.526029 -1.041124 54.167156 25 21 21
-6.522386 -0.923842 54.136917 26 21 21
-6.518834 -0.806702 54.107441 27 21 21
-6.515400 -0.689701 54.078934 27 22 22
-6.512107 -0.572835 54.051605 27 23 23
-6.508982 -0.456099 54.025665 28 24 24
-6.506050 -0.339485 54.001324 28 24 23
-6.503335 -0.222983 53.978798 28 23 23
-6.500861 -0.106583 53.958260 28 23 23
-6.498644 0.009730 53.939861 27 23 23
-6.496699 0.125968 53.923717 28 23 24
-6.495036 0.242148 53.909912 29 24 25
-6.493659 0.358283 53.898479 29 24 25
-6.492567 0.474390 53.889416 29 24 25
-6.491755 0.590484 53.882675 28 24 24
-6.491211 0.706578 53.878162 28 24 23
-6.490921 0.822684 53.875759 27 24 23
-6.490868 0.938814 53.875309 27 24 23
-6.491028 1.054977 53.876640 26 24 22
-6.491380 1.171181 53.879566 25 24 21
-6.491900 1.287430 53.883888 24 23 21
-6.492565 1.403729 53.889404 24 22 20
-6.493351 1.520081 53.895924 24 21 19
-6.494236 1.636485 53.903271 24 20 19
-6.495202 1.752943 53.911285 24 20 18
-6.496232 1.869454 53.919830 24 20 18
-6.497312 1.986017 53.928799 25 20 18
-6.498433 2.102632 53.938103 25 21 19
-6.499587 2.219299 53.947685 25 21 19
-6.500771 2.336017 53.957512 25 21 20
-6.501985 2.452790 53.967587 25 22 20
-6.503231 2.569618 53.977932 24 22 21
-6.504515 2.686506 53.988590 25 22 21
-6.505843 2.803460 53.999611 25 22 21
-6.507225 2.920485 54.011082 25 22 21
-6.508673 3.037591 54.023102 24 22 21
-6.510198 3.154785 54.035759 24 22 20
-6.511813 3.272079 54.049160 25 22 20
-6.513532 3.389486 54.063431 25 22 20
-6.515369 3.507017 54.078682 25 22 19
-6.517339 3.624688 54.095028 25 23 19
-6.519454 3.742513 54.112579 25 23 19
-6.521729 3.860508 54.131474 25 22 19
-6.524179 3.978691 54.151806 24 21 18
-6.526817 4.097080 54.173695 23 21 17
-6.529657 4.215694 54.197273 22 20 17
-6.532715 4.334554 54.222652 22 20 17
-6.536007 4.453683 54.249981 22 19 16
-6.539551 4.573106 54.279388 23 19 16
-6.543364 4.692849 54.311043 24 19 16
-6.547471 4.812944 54.345127 24 20 16
-6.551893 4.933424 54.381836 23 20 16
-6.556659 5.054327 54.421394 23 20 17
-6.561798 5.175694 54.464046 23 20 17
-6.567341 5.297572 54.510056 23 20 18
-6.573323 5.420010 54.559708 23 20 19
-6.579778 5.543059 54.613281 23 19 19
-6.586742 5.666779 54.671085 24 19 20
-6.594248 5.791223 54.733387 24 19 20
-6.602331 5.916453 54.800476 24 18 19
-6.611020 6.042526 54.872597 25 18 20
-6.620341 6.169500 54.949966 25 17 20
-6.630319 6.297430 55.032784 24 17 20
-6.755077 -8.727409 57.089771 26 24 19
-6.745878 -8.592626 57.012028 28 26 20
-6.736887 -8.458438 56.936039 28 26 20
-6.728090 -8.324819 56.861687 26 26 21
-6.719472 -8.191738 56.788857 26 25 20
-6.711019 -8.059168 56.717411 26 25 21
-6.702715 -7.927084 56.647232 25 24 22
-6.694547 -7.795460 56.578201 26 24 23
-6.686501 -7.664275 56.510204 26 24 23
-6.678568 -7.533509 56.443157 27 23 23
-6.670739 -7.403148 56.376995 27 23 23
-6.663011 -7.273183 56.311684 27 24 24
-6.655382 -7.143605 56.247208 28 24 24
-6.647852 -7.014410 56.183571 29 25 24
-6.640427 -6.885597 56.120811 31 25 24
-6.633108 -6.757164 56.058960 31 25 24
-6.625905 -6.629113 55.998077 31 25 23
-6.618822 -6.501443 55.938221 29 25 22
-6.611867 -6.374155 55.879444 29 25 22
-6.605044 -6.247244 55.821781 30 26 23
-6.598356 -6.120708 55.765259 31 27 23
-6.591806 -5.994539 55.709900 32 27 24
-6.585392 -5.868731 55.655693 32 27 25
-6.579113 -5.743276 55.602631 33 27 26
-6.572965 -5.618160 55.550671 33 27 27
-6.566943 -5.493374 55.499775 33 27 27
-6.561040 -5.368905 55.449886 33 27 27
-6.555252 -5.244742 55.400970 33 26 27
-6.549571 -5.120875 55.352955 33 26 28
-6.543993 -4.997293 55.305809 33 26 28
-6.538512 -4.873987 55.259495 34 27 28
-6.533124 -4.750947 55.213955 34 27 28
-6.527827 -4.628169 55.169186 33 27 27
-6.522616 -4.505643 55.125149 33 28 27
-6.517491 -4.383365 55.081833 34 29 27
-6.512448 -4.261328 55.039215 34 29 28
-6.507486 -4.139525 54.997280 35 30 28
-6.502604 -4.017953 54.956020 36 29 28
-6.497801 -3.896606 54.915424 38 31 29
-6.493074 -3.775479 54.875481 40 32 31
-6.488422 -3.654566 54.836166 39 32 31
-6.483845 -3.533862 54.797478 38 31 30
-6.479339 -3.413364 54.759396 38 31 29
-6.474904 -3.293065 54.721916 38 30 28
-6.470540 -3.172963 54.685036 37 30 28
-6.466245 -3.053053 54.648735 37 30 28
-6.462016 -2.933329 54.612995 37 30 29
-6.457851 -2.813787 54.577797 38 30 29
-6.453748 -2.694423 54.543121 38 31 29
-6.449703 -2.575231 54.508930 37 31 29
-6.445710 -2.456207 54.475185 37 31 29
-6.441764 -2.337344 54.441833 36 30 28
-6.437858 -2.218640 54.408825 35 30 26
-6.433985 -2.100089 54.376095 33 29 25
-6.430138 -1.981687 54.343582 31 27 24
-6.426310 -1.863431 54.311230 29 25 23
-6.422497 -1.745317 54.279003 27 23 22
-6.418694 -1.627346 54.246864 26 22 21
-6.414903 -1.509516 54.214821 25 21 21
-6.411123 -1.391827 54.182880 26 21 21
-6.407365 -1.274279 54.151115 26 21 21
-6.403636 -1.156874 54.119606 25 21 21
-6.399953 -1.039612 54.088478 26 21 21
-6.396332 -0.922493 54.057877 26 22 22
-6.392797 -0.805517 54.027996 27 22 22
-6.389370 -0.688682 53.999035 28 22 22
-6.386078 -0.571983 53.971218 28 23 23
-6.382947 -0.455416 53.944756 29 24 24
-6.380004 -0.338973 53.919880 29 24 24
-6.377273 -0.222645 53.896801 29 23 23
-6.374776 -0.106420 53.875698 28 23 23
-6.372532 0.009715 53.856731 28 23 23
-6.370555 0.125773 53.840019 28 23 24
-6.368855 0.241769 53.825657 29 24 25
-6.367437 0.357720 53.813675 30 25 26
-6.366300 0.473639 53.804062 29 24 25
-6.365439 0.589543 53.796787 28 24 24
-6.364843 0.705444 53.791748 28 24 23
-6.364497 0.821357 53.788818 27 25 23
-6.364382 0.937290 53.787849 28 25 23
-6.364479 1.053255 53.788670 27 25 23
-6.364764 1.169257 53.791080 27 24 22
-6.365214 1.285304 53.794880 26 23 21
-6.365805 1.401398 53.799881 25 22 20
-6.366514 1.517541 53.805874 25 21 20
-6.367321 1.633735 53.812695 25 20 19
-6.368207 1.749981 53.820179 25 20 18
-6.369154 1.866277 53.828182 25 21 19
-6.370151 1.982622 53.836605 25 21 19
-6.371187 2.099017 53.845360 25 21 19
-6.372256 2.215461 53.854397 25 22 19
-6.373354 2.331955 53.863682 25 22 20
-6.374483 2.448501 53.873222 25 22 20
-6.375645 2.565100 53.883038 25 21 21
-6.376845 2.681759 53.893181 25 22 22
-6.378090 2.798481 53.903706 25 22 21
-6.379392 2.915274 53.914703 25 22 21
-6.380759 3.032146 53.926266 25 22 21
-6.382205 3.149106 53.938488 25 22 20
-6.383744 3.266166 53.951485 26 22 20
-6.385387 3.383338 53.965378 26 22 20
-6.387151 3.500636 53.980286 26 22 19
-6.389049 3.618074 53.996319 26 23 20
-6.391093 3.735667 54.013592 26 23 20
-6.393298 3.853431 54.032234 26 22 20
-6.395679 3.971385 54.052353 25 21 19
-6.398249 4.089546 54.074078 23 20 18
-6.401022 4.207934 54.097511 22 19 16
-6.404014 4.326571 54.122791 21 19 15
-6.407239 4.445480 54.150055 22 19 15
-6.410716 4.564685 54.179440 23 20 15
-6.414464 4.684214 54.211109 24 20 16
-6.418502 4.804098 54.245243 24 20 16
-6.422857 4.924371 54.282047 24 21 16
-6.427554 5.045072 54.321743 24 21 17
-6.432621 5.166241 54.364567 24 22 18
-6.438090 5.287924 54.410789 24 21 18
-6.443994 5.410172 54.460682 24 20 19
-6.450366 5.533037 54.514538 24 20 19
-6.457241 5.656575 54.572639 24 20 20
-6.464653 5.780843 54.635284 25 19 20
-6.472634 5.905900 54.702736 24 19 20
-6.481214 6.031806 54.775246 25 18 20
-6.490418 6.158616 54.853027 25 18 20
-6.500268 6.286387 54.936279 24 18 20
-6.510782 6.415171 55.025139 23 18 20
-6.643456 -8.989029 57.188297 24 23 18
-6.633787 -8.852846 57.105061 25 24 19
-6.624339 -8.717314 57.023727 27 25 20
-6.615102 -8.582406 56.944218 28 26 20
-6.606067 -8.448098 56.866436 27 26 20
-6.597219 -8.314363 56.790276 27 25 20
-6.588548 -8.181174 56.715626 26 25 20
-6.580039 -8.048507 56.642380 25 24 20
-6.571677 -7.916333 56.570404 25 23 21
-6.563452 -7.784630 56.499599 25 23 22
-6.555352 -7.653379 56.429871 25 23 23
-6.547367 -7.522561 56.361134 26 23 23
-6.539491 -7.392163 56.293339 26 23 23
-6.531722 -7.262176 56.226460 26 23 23
-6.524057 -7.132590 56.160480 27 23 23
-6.516499 -7.003405 56.095417 28 24 24
-6.509053 -6.874617 56.031319 30 24 24
-6.501723 -6.746227 55.968220 31 25 24
-6.494516 -6.618235 55.906185 31 25 24
-6.487442 -6.490642 55.845287 30 25 24
-6.480505 -6.363446 55.785572 30 26 23
-6.473711 -6.236646 55.727089 30 27 23
-6.467063 -6.110237 55.669868 31 27 24
-6.460565 -5.984212 55.613926 31 27 24
-6.454216 -5.858564 55.559273 32 27 25
-6.448013 -5.733282 55.505871 33 27 26
-6.441953 -5.608354 55.453705 33 27 27
-6.436030 -5.483768 55.402725 33 27 28
-6.430238 -5.359511 55.352867 33 27 28
-6.424572 -5.235571 55.304089 33 27 27
-6.419023 -5.111935 55.256325 33 27 28
-6.413586 -4.988592 55.209518 33 26 28
-6.408255 -4.865531 55.163631 33 27 28
-6.403026 -4.742743 55.118614 34 27 28
-6.397892 -4.620219 55.074425 33 27 27
-6.392851 -4.497951 55.031033 33 28 27
-6.387900 -4.375931 54.988411 33 28 27
-6.383036 -4.254152 54.946537 34 29 27
-6.378254 -4.132608 54.905376 35 29 27
-6.373555 -4.011292 54.864922 36 29 28
-6.368933 -3.890200 54.825142 38 31 30
-6.364388 -3.769323 54.786015 40 32 31
-6.359918 -3.648659 54.747532 39 32 31
-6.355519 -3.528199 54.709663 39 31 30
-6.351189 -3.407940 54.672394 39 31 30
-6.346927 -3.287878 54.635708 38 31 29
-6.342732 -3.168006 54.599594 38 31 29
-6.338601 -3.048321 54.564030 37 31 30
-6.334530 -2.928817 54.528992 38 31 31
-6.330519 -2.809491 54.494465 38 31 31
-6.326562 -2.690336 54.460403 39 32 31
-6.322656 -2.571350 54.426777 39 32 31
-6.318795 -2.452525 54.393539 39 31 30
-6.314972 -2.333858 54.360630 38 31 30
-6.311181 -2.215344 54.327995 36 30 28
-6.307415 -2.096979 54.295578 34 30 26
-6.303666 -1.978759 54.263302 32 28 25
-6.299927 -1.860682 54.231117 30 26 23
-6.296192 -1.742744 54.198971 28 24 22
-6.292460 -1.624946 54.166843 27 22 22
-6.288730 -1.507286 54.134731 26 22 22
-6.285004 -1.389766 54.102657 26 22 22
-6.281289 -1.272386 54.070679 26 22 22
-6.277597 -1.155149 54.038898 26 21 21
-6.273941 -1.038054 54.007427 25 21 21
-6.270341 -0.921104 53.976440 26 22 22
-6.266819 -0.804297 53.946121 28 22 22
-6.263400 -0.687631 53.916683 28 22 22
-6.260108 -0.571105 53.888348 29 22 23
-6.256971 -0.454712 53.861347 30 23 23
-6.254016 -0.338445 53.835911 30 23 24
-6.251268 -0.222295 53.812252 29 23 24
-6.248749 -0.106251 53.790569 29 23 24
-6.246479 0.009699 53.771023 29 24 24
-6.244471 0.125571 53.753738 28 24 24
-6.242735 0.241379 53.738804 29 24 25
-6.241277 0.357138 53.726250 29 25 25
-6.240097 0.472865 53.716087 29 25 25
-6.239188 0.588573 53.708263 28 25 24
-6.238540 0.704277 53.702690 27 24 24
-6.238140 0.819989 53.699238 27 25 24
-6.237967 0.935720 53.697758 28 25 24
-6.238003 1.051481 53.698067 28 25 23
-6.238224 1.167277 53.699970 27 24 22
-6.238607 1.283115 53.703266 26 23 21
-6.239129 1.398998 53.707752 26 22 21
-6.239766 1.514928 53.713238 26 21 20
-6.240499 1.630908 53.719551 26 21 19
-6.241309 1.746935 53.726521 26 21 19
-6.242180 1.863012 53.734016 26 21 19
-6.243098 1.979135 53.741924 26 22 20
-6.244057 2.095306 53.750175 26 22 20
-6.245047 2.211524 53.758698 26 22 20
-6.246067 2.327790 53.767483 25 22 20
-6.247118 2.444106 53.776527 25 22 20
-6.248202 2.560474 53.785858 25 22 21
-6.249325 2.676899 53.795525 26 22 21
-6.250494 2.793387 53.805592 26 23 21
-6.251721 2.909945 53.816154 27 23 21
-6.253016 3.026581 53.827293 27 23 21
-6.254389 3.143305 53.839123 27 22 21
-6.255857 3.260128 53.851749 28 22 20
-6.257431 3.377064 53.865299 28 22 20
-6.259124 3.494125 53.879883 28 22 20
-6.260953 3.611327 53.895626 28 22 21
-6.262929 3.728684 53.912636 28 22 22
-6.265068 3.846215 53.931046 27 22 21
-6.267381 3.963935 53.950958 27 23 21
-6.269885 4.081865 53.972511 24 21 19
-6.272591 4.200023 53.995804 22 19 16
-6.275515 4.318432 54.020973 22 19 16
-6.278673 4.437115 54.048157 23 20 16
-6.282082 4.556097 54.077503 24 21 16
-6.285759 4.675405 54.109158 24 21 16
-6.289727 4.795071 54.143318 25 21 17
-6.294010 4.915130 54.180183 25 21 17
-6.298632 5.035620 54.219971 25 22 17
-6.303621 5.156581 54.262920 25 22 18
-6.309009 5.278061 54.309296 25 22 19
-6.314826 5.400108 54.359371 26 21 20
-6.321107 5.522777 54.413445 26 21 20
-6.327886 5.646122 54.471794 26 20 20
-6.335194 5.770201 54.534702 25 20 20
-6.343062 5.895072 54.602436 24 19 20
-6.351521 6.020795 54.675251 24 19 20
-6.360595 6.147426 54.753361 24 19 20
-6.370306 6.275022 54.836956 24 19 19
-6.380672 6.403635 54.926186 24 19 19
-6.391702 6.533311 55.021137 23 20 19
-6.522765 -9.115922 57.210983 23 23 18
-6.512873 -8.978958 57.124226 24 24 19
-6.503201 -8.842666 57.039391 25 25 20
-6.493740 -8.707022 56.956406 26 25 20
-6.484483 -8.572007 56.875217 27 25 20
-6.475422 -8.437595 56.795742 26 25 19
-6.466544 -8.303763 56.717876 26 24 19
-6.457837 -8.170483 56.641506 25 24 20
-6.449290 -8.037731 56.566544 25 23 20
-6.440890 -7.905482 56.492867 24 23 20
-6.432625 -7.773715 56.420376 24 23 21
-6.424487 -7.642410 56.348991 24 23 22
-6.416466 -7.511550 56.278637 24 23 22
-6.408557 -7.381124 56.209274 25 22 22
-6.400759 -7.251121 56.140873 26 23 22
-6.393071 -7.121537 56.073444 27 23 23
-6.385495 -6.992365 56.006996 28 23 24
-6.378038 -6.863609 55.941593 29 24 24
-6.370705 -6.735265 55.877274 30 24 24
-6.363505 -6.607336 55.814121 30 25 24
-6.356445 -6.479822 55.752197 31 25 24
-6.349532 -6.352723 55.691563 31 26 24
-6.342772 -6.226036 55.632278 31 27 25
-6.336170 -6.099755 55.574368 31 27 25
-6.329728 -5.973876 55.517864 31 27 25
-6.323446 -5.848388 55.462769 32 27 25
-6.317321 -5.723280 55.409046 33 27 26
-6.311351 -5.598541 55.356678 33 27 27
-6.305528 -5.474155 55.305611 33 27 28
-6.299848 -5.350111 55.255791 33 27 28
-6.294303 -5.226395 55.207157 33 27 28
-6.288885 -5.102990 55.159634 32 27 28
-6.283587 -4.979886 55.113167 32 26 28
-6.278405 -4.857071 55.067707 32 27 28
-6.273328 -4.734532 55.023182 33 27 27
-6.268355 -4.612261 54.979561 33 27 27
-6.263478 -4.490248 54.936787 33 27 27
-6.258695 -4.368484 54.894833 33 28 27
-6.254000 -4.246962 54.853661 34 28 27
-6.249391 -4.125672 54.813229 35 29 28
-6.244864 -4.004611 54.773525 36 30 28
-6.240415 -3.883769 54.734505 38 31 30
-6.236042 -3.763140 54.696140 39 31 31
-6.231740 -3.642719 54.658413 39 32 31
-6.227508 -3.522500 54.621292 39 31 30
-6.223342 -3.402478 54.584755 39 31 30
-6.219240 -3.282646 54.548779 38 30 30
-6.215200 -3.163002 54.513348 38 30 30
-6.211220 -3.043539 54.478432 37 31 31
-6.207295 -2.924253 54.444012 38 31 31
-6.203423 -2.805139 54.410046 38 32 32
-6.199599 -2.686192 54.376511 39 32 32
-6.195819 -2.567408 54.343353 39 32 32
-6.192077 -2.448782 54.310532 39 32 32
-6.188366 -2.330310 54.277985 39 31 31
-6.184679 -2.211986 54.245644 37 31 29
-6.181008 -2.093807 54.213448 35 30 27
-6.177347 -1.975770 54.181335 33 29 26
-6.173687 -1.857872 54.149235 30 26 24
-6.170025 -1.740112 54.117115 28 24 23
-6.166356 -1.622488 54.084934 27 23 22
-6.162681 -1.505002 54.052704 26 22 22
-6.159003 -1.387654 54.020439 27 22 23
-6.155328 -1.270446 53.988213 27 22 23
-6.151669 -1.153379 53.956112 26 21 22
-6.148039 -1.036456 53.924278 26 20 21
-6.144459 -0.919677 53.892872 27 22 22
-6.140948 -0.803044 53.862083 28 22 22
-6.137535 -0.686553 53.832146 28 22 21
-6.134243 -0.570203 53.803276 29 22 22
-6.131102 -0.453989 53.775719 29 22 23
-6.128137 -0.337903 53.749710 29 22 24
-6.125373 -0.221937 53.725471 29 23 24
-6.122833 -0.106079 53.703194 29 24 24
-6.120537 0.009684 53.683056 28 24 24
-6.118500 0.125364 53.665188 28 24 25
-6.116730 0.240979 53.649666 29 25 25
-6.115234 0.356542 53.636547 29 25 25
-6.114012 0.472070 53.625824 28 25 25
-6.113057 0.587577 53.617451 27 25 25
-6.112361 0.703079 53.611343 27 24 24
-6.111907 0.818586 53.607368 27 24 24
-6.111679 0.934110 53.605366 28 25 25
-6.111656 1.049662 53.605164 29 25 25
-6.111816 1.165247 53.606564 29 25 24
-6.112135 1.280871 53.609364 28 24 23
-6.112591 1.396539 53.613361 27 23 22
-6.113161 1.512252 53.618359 27 22 21
-6.113824 1.628012 53.624176 27 21 20
-6.114563 1.743819 53.630661 26 21 20
-6.115362 1.859671 53.637665 26 22 20
-6.116209 1.975569 53.645092 26 22 20
-6.117094 2.091513 53.652855 26 23 20
-6.118011 2.207501 53.660904 26 23 21
-6.118959 2.323536 53.669220 26 23 21
-6.119938 2.439619 53.677799 26 23 21
-6.120951 2.555753 53.686687 26 23 21
-6.122004 2.671943 53.695919 26 23 22
-6.123104 2.788194 53.705570 27 23 22
-6.124261 2.904514 53.715725 28 23 22
-6.125488 3.020912 53.726482 28 23 22
-6.126796 3.137398 53.737953 29 23 21
-6.128197 3.253983 53.750240 29 23 21
-6.129705 3.370680 53.763470 29 22 21
-6.131335 3.487503 53.777763 28 22 21
-6.133099 3.604466 53.793232 28 22 21
-6.135010 3.721586 53.809998 28 23 22
-6.137083 3.838879 53.828182 28 23 23
-6.139332 3.956363 53.847904 28 23 23
-6.141768 4.074058 53.869278 26 23 21
-6.144408 4.191982 53.892429 25 22 19
-6.147264 4.310159 53.917484 25 22 18
-6.150353 4.428611 53.944576 25 22 18
-6.153692 4.547364 53.973858 25 22 18
-6.157297 4.666446 54.005478 26 22 18
-6.161191 4.785889 54.039635 25 22 18
-6.165397 4.905726 54.076523 25 22 18
-6.169939 5.025997 54.116364 26 23 18
-6.174846 5.146743 54.159393 27 23 19
-6.180145 5.268010 54.205872 27 23 20
-6.185870 5.389847 54.256084 28 23 21
-6.192051 5.512309 54.310310 27 22 21
-6.198723 5.635449 54.368828 26 21 21
-6.205917 5.759326 54.431923 25 21 21
-6.213664 5.883998 54.499866 25 20 21
-6.221990 6.009524 54.572899 24 20 20
-6.230922 6.135960 54.651237 24 20 19
-6.240480 6.263363 54.735077 24 20 19
-6.250682 6.391786 54.824558 24 20 19
-6.261539 6.521277 54.919785 24 21 20
-6.273057 6.651878 55.020805 24 22 20
-6.402401 -9.243530 57.237488 24 23 19
-6.392315 -9.105777 57.147312 24 23 19
-6.382443 -8.968715 57.059059 24 24 20
-6.372782 -8.832325 56.972691 25 25 20
-6.363327 -8.696589 56.888157 26 25 20
-6.354068 -8.561481 56.805386 26 25 20
-6.344998 -8.426983 56.724304 25 24 19
-6.336108 -8.293068 56.644817 25 23 19
-6.327384 -8.159711 56.566833 24 23 19
-6.318817 -8.026889 56.490242 24 22 19
-6.310395 -7.894578 56.414944 23 22 19
-6.302108 -7.762759 56.340858 23 22 20
-6.293946 -7.631411 56.267891 23 22 21
-6.285903 -7.500519 56.195988 23 22 21
-6.277975 -7.370072 56.125111 24 22 21
-6.270160 -7.240062 56.055248 25 22 21
-6.262459 -7.110482 55.986401 26 22 22
-6.254877 -6.981331 55.918617 27 22 22
-6.247418 -6.852609 55.851936 28 23 23
-6.240091 -6.724315 55.786430 29 23 24
-6.232904 -6.596452 55.722179 30 24 24
-6.225865 -6.469019 55.659248 31 25 25
-6.218982 -6.342018 55.597717 32 26 25
-6.212262 -6.215445 55.537643 32 27 26
-6.205709 -6.089294 55.479057 32 27 26
-6.199327 -5.963560 55.421997 32 27 26
-6.193114 -5.838233 55.366459 32 27 25
-6.187070 -5.713300 55.312428 33 27 26
-6.181190 -5.588748 55.259857 33 27 27
-6.175470 -5.464565 55.208717 33 27 28
-6.169900 -5.340733 55.158928 33 27 29
-6.164476 -5.217238 55.110432 33 27 29
-6.159187 -5.094064 55.063152 32 27 28
-6.154027 -4.971198 55.017017 32 26 28
-6.148987 -4.848626 54.971958 32 27 28
-6.144060 -4.726335 54.927914 32 26 27
-6.139242 -4.604315 54.884834 32 26 26
-6.134523 -4.482553 54.842651 33 26 26
-6.129901 -4.361043 54.801331 34 27 27
-6.125369 -4.239773 54.760815 34 28 27
-6.120924 -4.118736 54.721073 36 29 27
-6.116560 -3.997923 54.682060 37 29 29
-6.112274 -3.877328 54.643742 38 30 30
-6.108061 -3.756944 54.606083 38 31 30
-6.103918 -3.636763 54.569042 38 31 30
-6.099842 -3.516780 54.532600 38 30 30
-6.095828 -3.396990 54.496716 38 30 30
-6.091875 -3.277386 54.461376 38 31 29
-6.087978 -3.157965 54.426540 37 30 29
-6.084136 -3.038721 54.392189 37 31 30
-6.080344 -2.919649 54.358292 37 31 31
-6.076599 -2.800744 54.324810 38 31 32
-6.072896 -2.682003 54.291706 38 31 33
-6.069231 -2.563420 54.258938 39 32 33
-6.065597 -2.444991 54.226448 39 32 33
-6.061986 -2.326711 54.194168 39 32 32
-6.058393 -2.208577 54.162048 38 31 30
-6.054808 -2.090585 54.130001 35 30 28
-6.051226 -1.972731 54.097977 33 29 26
-6.047638 -1.855013 54.065903 31 27 25
-6.044040 -1.737431 54.033737 29 25 23
-6.040429 -1.619984 54.001450 26 23 22
-6.036805 -1.502673 53.969048 26 22 22
-6.033170 -1.385499 53.936554 27 22 23
-6.029533 -1.268465 53.904041 28 22 23
-6.025904 -1.151572 53.871593 28 22 23
-6.022299 -1.034824 53.839367 28 22 23
-6.018736 -0.918221 53.807514 28 23 23
-6.015239 -0.801764 53.776249 28 22 22
-6.011832 -0.685452 53.745792 28 22 22
-6.008542 -0.569282 53.716377 28 22 22
-6.005396 -0.453251 53.688255 29 22 22
-6.002421 -0.337350 53.661663 29 22 23
-5.999644 -0.221571 53.636837 29 23 24
-5.997086 -0.105903 53.613964 28 24 24
-5.994767 0.009667 53.593227 28 24 25
-5.992702 0.125153 53.574772 28 24 25
-5.990901 0.240570 53.558666 28 25 25
-5.989369 0.355933 53.544979 28 25 25
-5.988107 0.471259 53.533691 27 25 25
-5.987110 0.586562 53.524773 27 24 25
-5.986366 0.701856 53.518131 26 23 24
-5.985863 0.817154 53.513626 27 24 24
-5.985581 0.932468 53.511112 29 25 25
-5.985503 1.047806 53.510414 29 25 26
-5.985604 1.163176 53.511314 29 25 25
-5.985863 1.278584 53.513626 29 24 24
-5.986255 1.394033 53.517136 28 23 23
-5.986760 1.509525 53.521652 28 22 22
-5.987359 1.625062 53.527000 27 22 22
-5.988030 1.740643 53.533009 27 22 21
-5.988762 1.856269 53.539551 26 22 21
-5.989541 1.971939 53.546509 27 23 21
-5.990358 2.087652 53.553822 27 23 21
-5.991209 2.203409 53.561420 27 23 21
-5.992090 2.319210 53.569294 27 23 22
-5.993001 2.435058 53.577450 27 23 22
-5.993948 2.550956 53.585915 27 23 23
-5.994936 2.666909 53.594746 27 24 23
-5.995973 2.782922 53.604012 28 24 24
-5.997067 2.899003 53.613796 29 24 24
-5.998231 3.015162 53.624207 30 24 24
-5.999477 3.131407 53.635345 30 24 23
-6.000817 3.247752 53.647324 30 23 22
-6.002264 3.364209 53.660259 29 22 22
-6.003833 3.480792 53.674282 29 22 22
-6.005535 3.597515 53.689503 28 23 22
-6.007385 3.714395 53.706032 28 23 23
-6.009395 3.831449 53.724007 28 24 23
-6.011580 3.948695 53.743542 28 24 23
-6.013952 4.066152 53.764748 27 24 23
-6.016525 4.183840 53.787750 27 23 22
-6.019314 4.301781 53.812683 27 24 21
-6.022333 4.419999 53.839676 27 23 21
-6.025600 4.538520 53.868877 27 23 20
-6.029130 4.657371 53.900444 27 23 20
-6.032948 4.776584 53.934570 26 23 19
-6.037073 4.896194 53.971451 26 23 19
-6.041531 5.016240 54.011303 27 23 20
-6.046348 5.136763 54.054367 28 24 21
-6.051554 5.257808 54.100906 29 24 22
-6.057179 5.379427 54.151196 29 24 22
-6.063254 5.501671 54.205505 28 24 22
-6.069811 5.624596 54.264122 27 23 22
-6.076881 5.748259 54.327328 26 22 22
-6.084494 5.872718 54.395390 25 22 21
-6.092677 5.998033 54.468548 25 21 20
-6.101454 6.124258 54.547012 25 21 20
-6.110847 6.251452 54.630985 25 21 19
-6.120871 6.379666 54.720600 24 21 19
-6.131538 6.508949 54.815964 24 22 20
-6.142855 6.639345 54.917137 25 23 21
-6.154822 6.770893 55.024124 25 23 21
-6.167434 6.903624 55.136875 25 23 22
-6.292820 -9.511162 57.363312 23 21 20
-6.282354 -9.371894 57.267910 24 22 20
-6.272100 -9.233348 57.174435 24 23 20
-6.262054 -9.095508 57.082863 24 23 20
-6.252218 -8.958363 56.993195 24 24 20
-6.242584 -8.821890 56.905380 25 24 20
-6.233149 -8.686073 56.819374 25 24 20
-6.223906 -8.550891 56.735115 25 24 20
-6.214845 -8.416319 56.652519 25 23 20
-6.205958 -8.282335 56.571510 24 22 19
-6.197234 -8.148913 56.491982 24 22 18
-6.188663 -8.016034 56.413853 23 21 19
-6.180235 -7.883674 56.337021 23 21 19
-6.171939 -7.751811 56.261402 22 21 20
-6.163769 -7.620430 56.186928 22 21 20
-6.155718 -7.489514 56.113537 22 21 20
-6.147783 -7.359054 56.041203 23 21 20
-6.139964 -7.229041 55.969921 24 22 21
-6.132261 -7.099472 55.899712 26 22 22
-6.124681 -6.970345 55.830616 27 23 23
-6.117231 -6.841660 55.762695 27 22 22
-6.109917 -6.713418 55.696026 28 23 23
-6.102750 -6.585621 55.630692 30 24 24
-6.095738 -6.458272 55.566776 31 25 25
-6.088891 -6.331368 55.504360 33 26 26
-6.082215 -6.204909 55.443504 33 27 27
-6.075715 -6.078888 55.384254 33 27 27
-6.069396 -5.953300 55.326645 33 27 27
-6.063255 -5.828133 55.270676 33 27 27
-6.057294 -5.703374 55.216331 34 27 27
-6.051506 -5.579010 55.163570 34 28 27
-6.045886 -5.455026 55.112343 34 27 28
-6.040428 -5.331404 55.062584 34 27 29
-6.035122 -5.208129 55.014221 34 27 29
-6.029960 -5.085184 54.967163 33 27 28
-6.024933 -4.962553 54.921341 33 26 28
-6.020033 -4.840221 54.876675 32 26 27
-6.015252 -4.718176 54.833096 32 26 27
-6.010582 -4.596403 54.790520 32 25 26
-6.006016 -4.474891 54.748901 33 25 26
-6.001548 -4.353629 54.708168 34 26 26
-5.997172 -4.232608 54.668278 35 27 27
-5.992881 -4.111818 54.629169 36 28 27
-5.988672 -3.991251 54.590801 37 29 29
-5.984540 -3.870899 54.553131 37 30 30
-5.980479 -3.750754 54.516109 37 30 30
-5.976484 -3.630808 54.479694 37 30 30
-5.972553 -3.511057 54.443859 37 30 30
-5.968681 -3.391495 54.408562 36 30 29
-5.964864 -3.272114 54.373768 36 30 29
-5.961100 -3.152912 54.339455 36 30 29
-5.957385 -3.033883 54.305592 35 30 30
-5.953714 -2.915021 54.272133 36 30 30
-5.950086 -2.796323 54.239056 37 30 32
-5.946493 -2.677784 54.206306 37 31 33
-5.942932 -2.559400 54.173840 39 32 33
-5.939394 -2.441166 54.141602 39 32 33
-5.935876 -2.323077 54.109524 38 32 33
-5.932367 -2.205131 54.077538 37 31 31
-5.928861 -2.087324 54.045582 35 30 28
-5.925350 -1.969653 54.013577 33 29 27
-5.921828 -1.852116 53.981464 31 27 25
-5.918289 -1.734713 53.949207 28 25 24
-5.914730 -1.617444 53.916767 26 23 22
-5.911152 -1.500309 53.884148 25 21 21
-5.907558 -1.383311 53.851387 26 22 22
-5.903956 -1.266453 53.818554 28 22 23
-5.900356 -1.149737 53.785740 29 23 24
-5.896775 -1.033166 53.753090 29 23 24
-5.893231 -0.916741 53.720783 28 23 23
-5.889747 -0.800463 53.689026 28 22 23
-5.886348 -0.684333 53.658047 28 22 22
-5.883061 -0.568347 53.628082 28 22 22
-5.879914 -0.452500 53.599396 28 22 22
-5.876933 -0.336787 53.572224 28 22 23
-5.874145 -0.221199 53.546806 28 23 24
-5.871571 -0.105724 53.523342 29 24 25
-5.869232 0.009651 53.502022 28 24 25
-5.867142 0.124939 53.482971 29 24 26
-5.865313 0.240155 53.466293 29 25 26
-5.863749 0.355316 53.452034 28 25 26
-5.862450 0.470436 53.440197 28 24 25
-5.861411 0.585531 53.430729 27 23 24
-5.860624 0.700616 53.423553 26 22 23
-5.860074 0.815702 53.418537 27 23 24
-5.859742 0.930802 53.415516 29 25 26
-5.859610 1.045924 53.414307 29 25 26
-5.859655 1.161077 53.414722 29 24 26
-5.859856 1.276264 53.416553 29 23 25
-5.860189 1.391492 53.419590 28 23 25
-5.860633 1.506760 53.423641 28 22 24
-5.861169 1.622072 53.428520 28 23 23
-5.861778 1.737427 53.434074 27 22 22
-5.862446 1.852823 53.440163 27 23 22
-5.863162 1.968263 53.446686 27 23 22
-5.863915 2.083744 53.453556 28 23 22
-5.864702 2.199266 53.460732 28 23 23
-5.865520 2.314833 53.468185 28 23 23
-5.866371 2.430444 53.475941 28 23 23
-5.867257 2.546105 53.484020 28 23 24
-5.868185 2.661819 53.492477 29 24 25
-5.869162 2.777593 53.501377 30 24 25
-5.870198 2.893435 53.510826 31 24 25
-5.871305 3.009353 53.520912 32 24 25
-5.872492 3.125359 53.531738 31 24 24
-5.873775 3.241463 53.543427 30 23 23
-5.875164 3.357679 53.556095 30 23 23
-5.876674 3.474020 53.569862 29 23 22
-5.878318 3.590503 53.584846 28 23 23
-5.880108 3.707142 53.601166 28 23 23
-5.882058 3.823956 53.618938 28 24 23
-5.884181 3.940962 53.638290 28 24 23
-5.886489 4.058179 53.659332 28 24 23
-5.888996 4.175629 53.682182 27 23 23
-5.891716 4.293332 53.706982 28 24 23
-5.894666 4.411313 53.733871 29 24 22
-5.897859 4.529597 53.762978 28 24 22
-5.901314 4.648214 53.794472 28 24 21
-5.905052 4.767194 53.828541 27 24 21
-5.909093 4.886572 53.865383 28 23 21
-5.913463 5.006387 53.905216 28 23 22
-5.918187 5.126681 53.948280 29 24 22
-5.923294 5.247499 53.994827 30 24 22
-5.928812 5.368891 54.045132 30 24 22
-5.934772 5.490909 54.099468 30 25 23
-5.941207 5.613609 54.158123 29 25 23
-5.948144 5.737047 54.221359 28 24 23
-5.955614 5.861281 54.289452 27 23 22
-5.963642 5.986369 54.362629 26 22 21
-5.972252 6.112369 54.441116 26 22 20
-5.981465 6.239336 54.525097 25 22 20
-5.991296 6.367321 54.614716 25 22 19
-6.001758 6.496376 54.710083 25 23 20
-6.012855 6.626543 54.811241 25 23 21
-6.024590 6.757861 54.918217 26 24 22
-6.036960 6.890364 55.030972 25 23 22
-6.049951 7.024076 55.149395 25 23 22
-6.173223 -9.641157 57.401054 21 17 18
-6.162621 -9.501075 57.302471 23 19 19
-6.152223 -9.361727 57.205784 24 20 20
-6.142028 -9.223102 57.110992 24 21 20
-6.132038 -9.085188 57.018093 24 22 20
-6.122249 -8.947969 56.927074 24 23 20
-6.112657 -8.811427 56.837891 24 24 20
-6.103259 -8.675544 56.750496 25 24 21
-6.094045 -8.540298 56.664825 25 24 21
-6.085009 -8.405665 56.580807 24 23 20
-6.076142 -8.271625 56.498360 24 22 19
-6.067434 -8.138153 56.417385 23 21 18
-6.058875 -8.005228 56.337799 22 21 18
-6.050454 -7.872826 56.259502 22 21 19
-6.042166 -7.740930 56.182430 23 21 20
-6.034000 -7.609522 56.106506 22 21 20
-6.025954 -7.478590 56.031685 22 21 20
-6.018023 -7.348121 55.957947 22 20 20
-6.010210 -7.218111 55.885292 24 21 20
-6.002516 -7.088555 55.813755 26 22 22
-5.994948 -6.959454 55.743385 27 23 23
-5.987513 -6.830808 55.674252 27 22 23
-5.980220 -6.702619 55.606438 28 23 23
-5.973079 -6.574890 55.540039 29 23 24
-5.966101 -6.447623 55.475151 32 25 25
-5.959294 -6.320817 55.411861 33 26 27
-5.952667 -6.194471 55.350235 33 27 27
-5.946224 -6.068579 55.290329 34 27 27
-5.939969 -5.943134 55.232166 34 27 27
-5.933904 -5.818125 55.175770 35 27 27
-5.928026 -5.693539 55.121113 35 27 27
-5.922330 -5.569360 55.068150 35 27 27
-5.916811 -5.445572 55.016834 35 27 28
-5.911462 -5.322159 54.967098 35 27 28
-5.906273 -5.199101 54.918850 34 27 28
-5.901236 -5.076381 54.872005 34 27 28
-5.896339 -4.953981 54.826473 34 26 28
-5.891575 -4.831887 54.782177 33 26 27
-5.886934 -4.710082 54.739025 33 26 26
-5.882407 -4.588551 54.696930 32 25 26
-5.877987 -4.467284 54.655830 33 25 26
-5.873666 -4.346267 54.615654 34 26 26
-5.869438 -4.225490 54.576340 35 27 27
-5.865295 -4.104943 54.537819 35 28 27
-5.861233 -3.984616 54.500046 37 29 28
-5.857244 -3.864501 54.462963 37 29 29
-5.853325 -3.744590 54.426514 36 29 29
-5.849469 -3.624875 54.390663 36 29 29
-5.845674 -3.505351 54.355370 35 29 29
-5.841932 -3.386011 54.320583 34 28 28
-5.838243 -3.266849 54.286278 35 29 29
-5.834601 -3.147861 54.252415 35 30 29
-5.831003 -3.029043 54.218960 33 29 29
-5.827445 -2.910388 54.185875 33 28 29
-5.823923 -2.791893 54.153126 35 29 30
-5.820431 -2.673553 54.120655 36 30 32
-5.816964 -2.555364 54.088417 38 31 33
-5.813517 -2.437322 54.056362 38 31 33
-5.810080 -2.319423 54.024410 37 31 32
-5.806649 -2.201664 53.992500 36 30 30
-5.803214 -2.084041 53.960567 34 29 28
-5.799768 -1.966551 53.928524 32 28 26
-5.796306 -1.849195 53.896328 30 27 25
-5.792820 -1.731971 53.863922 28 25 23
-5.789310 -1.614879 53.831287 26 22 21
-5.785776 -1.497922 53.798420 25 21 21
-5.782221 -1.381102 53.765366 26 22 22
-5.778652 -1.264421 53.732178 27 22 23
-5.775082 -1.147883 53.698978 29 23 24
-5.771524 -1.031490 53.665901 29 23 24
-5.768000 -0.915245 53.633133 29 23 24
-5.764531 -0.799149 53.600876 29 23 23
-5.761143 -0.683202 53.569374 29 23 23
-5.757863 -0.567401 53.538872 29 22 22
-5.754717 -0.451743 53.509624 29 22 22
-5.751733 -0.336219 53.481880 29 22 23
-5.748938 -0.220823 53.455883 28 23 24
-5.746353 -0.105543 53.431843 28 24 25
-5.743997 0.009634 53.409943 29 24 25
-5.741886 0.124722 53.390316 29 24 26
-5.740032 0.239736 53.373074 29 24 26
-5.738439 0.354692 53.358257 29 24 26
-5.737107 0.469606 53.345875 28 24 25
-5.736031 0.584492 53.335873 27 23 24
-5.735203 0.699365 53.328171 26 22 23
-5.734608 0.814238 53.322639 27 23 23
-5.734229 0.929122 53.319118 28 24 25
-5.734047 1.044027 53.317421 28 24 25
-5.734040 1.158960 53.317356 28 24 25
-5.734186 1.273927 53.318714 28 23 25
-5.734462 1.388931 53.321285 28 23 25
-5.734848 1.503975 53.324875 28 22 24
-5.735325 1.619060 53.329308 28 22 24
-5.735874 1.734186 53.334412 28 22 23
-5.736482 1.849353 53.340065 28 23 23
-5.737137 1.964560 53.346157 28 24 23
-5.737831 2.079808 53.352608 28 24 24
-5.738559 2.195097 53.359375 29 24 24
-5.739318 2.310427 53.366436 29 23 24
-5.740111 2.425802 53.373806 29 24 25
-5.740940 2.541225 53.381516 29 24 26
-5.741811 2.656701 53.389614 30 24 26
-5.742732 2.772236 53.398182 31 24 26
-5.743713 2.887837 53.407303 32 25 26
-5.744765 3.003515 53.417080 32 25 26
-5.745899 3.119280 53.427624 32 25 25
-5.747127 3.235144 53.439045 31 25 24
-5.748462 3.351118 53.451454 30 24 23
-5.749917 3.467219 53.464985 29 24 23
-5.751504 3.583460 53.479744 28 23 23
-5.753237 3.699859 53.495861 28 23 24
-5.755128 3.816432 53.513439 29 24 24
-5.757190 3.933198 53.532616 28 24 23
-5.759435 4.050175 53.553490 28 23 24
-5.761877 4.167385 53.576199 28 24 24
-5.764530 4.284849 53.600864 29 24 24
-5.767408 4.402591 53.627628 29 24 24
-5.770527 4.520638 53.656631 29 24 24
-5.773905 4.639017 53.688038 29 24 23
-5.777561 4.757761 53.722031 28 24 23
-5.781517 4.876904 53.758812 28 24 23
-5.785794 4.996484 53.798588 29 23 23
-5.790421 5.116544 53.841606 29 24 22
-5.795423 5.237129 53.888119 30 24 23
-5.800829 5.358287 53.938393 30 24 23
-5.806669 5.480072 53.992695 30 25 23
-5.812973 5.602537 54.051304 30 25 23
-5.819769 5.725740 54.114502 30 25 24
-5.827085 5.849737 54.182529 29 24 24
-5.834948 5.974587 54.255638 28 24 22
-5.843379 6.100346 54.334034 27 23 21
-5.852399 6.227069 54.417904 26 23 20
-5.862023 6.354809 54.507393 25 23 19
-5.872262 6.483614 54.602604 25 23 20
-5.883124 6.613529 54.703598 25 24 21
-5.894608 6.744591 54.810383 25 24 22
-5.906713 6.876837 54.922935 25 24 22
-5.919426 7.010289 55.041153 25 23 22
-5.932734 7.144966 55.164894 25 23 21
-6.053918 -9.772049 57.443111 20 16 17
-6.043201 -9.631142 57.341423 21 16 17
-6.032681 -9.490982 57.241604 23 18 19
-6.022360 -9.351561 57.143665 24 19 20
-6.012238 -9.212869 57.047623 24 21 20
-6.002314 -9.074889 56.953465 24 22 20
-5.992588 -8.937610 56.861172 24 23 20
-5.983052 -8.801010 56.770691 24 23 21
-5.973703 -8.665071 56.681988 24 23 21
-5.964535 -8.529773 56.594994 24 23 21
-5.955539 -8.395092 56.509632 24 23 21
-5.946707 -8.261006 56.425827 24 23 20
-5.938028 -8.127493 56.343483 23 22 19
-5.929495 -7.994530 56.262508 22 21 19
-5.921098 -7.862097 56.182831 23 21 19
-5.912828 -7.730174 56.104366 23 21 20
-5.904680 -7.598746 56.027050 23 21 20
-5.896649 -7.467801 55.950851 23 21 21
-5.888735 -7.337328 55.875759 24 21 21
-5.880938 -7.207324 55.801777 25 21 22
-5.873262 -7.077784 55.728947 26 22 23
-5.865715 -6.948709 55.657326 27 22 23
-5.858304 -6.820103 55.587006 27 23 23
-5.851038 -6.691967 55.518066 28 23 24
-5.843930 -6.564304 55.450623 29 24 24
-5.836990 -6.437118 55.384769 32 24 26
-5.830229 -6.310409 55.320618 33 26 27
-5.823653 -6.184174 55.258224 34 27 28
-5.817270 -6.058408 55.197655 34 27 28
-5.811083 -5.933104 55.138950 35 27 27
-5.805094 -5.808250 55.082119 35 27 27
-5.799300 -5.683833 55.027142 35 27 27
-5.793696 -5.559836 54.973976 35 27 27
-5.788278 -5.436242 54.922562 35 27 27
-5.783036 -5.313031 54.872826 35 27 28
-5.777962 -5.190186 54.824677 35 27 28
-5.773046 -5.067686 54.778027 35 26 28
-5.768275 -4.945513 54.732761 34 26 27
-5.763642 -4.823650 54.688801 33 26 27
-5.759135 -4.702080 54.646038 33 26 26
-5.754746 -4.580788 54.604393 33 25 26
-5.750466 -4.459760 54.563778 33 26 26
-5.746285 -4.338982 54.524109 34 26 26
-5.742197 -4.218443 54.485321 35 27 26
-5.738194 -4.098133 54.447338 35 28 27
-5.734270 -3.978040 54.410103 36 29 28
-5.730418 -3.858156 54.373550 36 29 28
-5.726632 -3.738474 54.337627 35 28 28
-5.722907 -3.618985 54.302280 34 28 28
-5.719237 -3.499682 54.267460 33 28 28
-5.715619 -3.380559 54.233128 32 27 28
-5.712047 -3.261612 54.199242 33 28 28
-5.708519 -3.142833 54.165756 33 28 28
-5.705029 -3.024221 54.132645 32 27 28
-5.701575 -2.905768 54.099869 32 27 27
-5.698150 -2.787472 54.067375 33 28 29
-5.694750 -2.669327 54.035114 35 30 31
-5.691371 -2.551331 54.003052 36 31 32
-5.688004 -2.433478 53.971107 37 31 33
-5.684645 -2.315766 53.939228 36 30 32
-5.681283 -2.198191 53.907337 35 30 30
-5.677914 -2.080750 53.875366 33 28 28
-5.674529 -1.963442 53.843246 31 27 25
-5.671122 -1.846264 53.810913 30 26 24
-5.667687 -1.729218 53.778324 28 25 23
-5.664223 -1.612305 53.745461 26 23 21
-5.660730 -1.495525 53.712315 25 21 21
-5.657212 -1.378881 53.678932 26 22 22
-5.653677 -1.262378 53.645390 28 22 23
-5.650136 -1.146019 53.611790 29 23 24
-5.646604 -1.029806 53.578278 29 23 24
-5.643101 -0.913742 53.545044 29 23 24
-5.639650 -0.797829 53.512299 30 23 24
-5.636276 -0.682066 53.480278 30 23 23
-5.633006 -0.566451 53.449245 30 23 23
-5.629866 -0.450981 53.419456 30 23 23
-5.626884 -0.335649 53.391159 29 23 23
-5.624085 -0.220446 53.364601 29 23 24
-5.621492 -0.105361 53.340000 29 23 24
-5.619125 0.009618 53.317543 29 24 25
-5.616999 0.124505 53.297367 30 25 26
-5.615124 0.239316 53.279572 30 25 26
-5.613505 0.354067 53.264217 29 25 25
-5.612145 0.468773 53.251308 28 23 24
-5.611036 0.583450 53.240788 27 23 23
-5.610171 0.698111 53.232578 27 22 23
-5.609535 0.812771 53.226543 27 23 24
-5.609112 0.927439 53.222530 28 24 25
-5.608883 1.042127 53.220360 29 24 25
-5.608826 1.156840 53.219818 29 24 25
-5.608920 1.271585 53.220707 28 23 25
-5.609143 1.386366 53.222820 28 23 25
-5.609474 1.501185 53.225960 28 22 24
-5.609894 1.616044 53.229950 27 23 24
-5.610386 1.730941 53.234623 28 23 23
-5.610937 1.845878 53.239849 29 23 23
-5.611535 1.960854 53.245518 29 24 24
-5.612172 2.075869 53.251564 29 24 24
-5.612844 2.190924 53.257938 30 24 25
-5.613546 2.306019 53.264610 31 24 25
-5.614284 2.421158 53.271610 31 24 26
-5.615059 2.536343 53.278961 31 24 26
-5.615877 2.651581 53.286716 31 25 27
-5.616745 2.766877 53.294960 32 25 26
-5.617674 2.882239 53.303772 32 25 26
-5.618675 2.997678 53.313267 32 25 26
-5.619756 3.113203 53.323528 32 25 25
-5.620933 3.228826 53.334690 31 25 24
-5.622215 3.344561 53.346863 30 25 23
-5.623617 3.460421 53.360161 29 24 24
-5.625150 3.576422 53.374710 28 23 24
-5.626827 3.692581 53.390621 28 24 24
-5.628661 3.808914 53.408020 29 24 25
-5.630663 3.925439 53.427021 29 24 25
-5.632846 4.042177 53.447735 29 24 25
-5.635223 4.159147 53.470291 29 24 25
-5.637809 4.276371 53.494823 29 24 24
-5.640616 4.393875 53.521458 29 24 24
-5.643661 4.511683 53.550346 29 24 24
-5.646959 4.629824 53.581646 29 24 23
-5.650532 4.748330 53.615547 29 24 23
-5.654398 4.867236 53.652233 29 24 23
-5.658582 4.986578 53.691933 29 24 23
-5.663107 5.106400 53.734867 30 23 23
-5.668000 5.226747 53.781296 30 24 23
-5.673289 5.347667 53.831482 30 24 23
-5.679003 5.469212 53.885696 30 24 23
-5.685169 5.591436 53.944206 30 25 23
-5.691816 5.714395 54.007278 30 25 24
-5.698971 5.838146 54.075165 29 25 24
-5.706658 5.962746 54.148102 28 25 23
-5.714899 6.088250 54.226299 27 25 22
-5.723713 6.214714 54.309933 26 24 20
-5.733116 6.342190 54.399155 25 24 20
-5.743118 6.470726 54.494061 26 24 21
-5.753726 6.600365 54.594715 26 24 22
-5.764941 6.731148 54.701130 26 24 23
-5.776761 6.863108 54.813286 26 24 23
-5.789176 6.996269 54.931080 26 23 22
-5.802169 7.130651 55.054371 26 23 22
-5.815722 7.266262 55.182964 25 22 21
-5.934907 -9.903915 57.489773 22 18 18
-5.924098 -9.762174 57.385059 21 17 17
-5.913477 -9.621191 57.282181 21 17 17
-5.903048 -9.480961 57.181164 23 19 19
-5.892815 -9.341476 57.082039 24 20 20
-5.882777 -9.202723 56.984802 24 21 21
-5.872933 -9.064689 56.889446 25 22 21
-5.863281 -8.927358 56.795948 25 23 21
-5.853815 -8.790710 56.704254 25 23 22
-5.844531 -8.654727 56.614319 26 23 22
-5.835422 -8.519386 56.526085 26 24 22
-5.826479 -8.384666 56.439457 25 24 22
-5.817695 -8.250545 56.354370 25 23 22
-5.809060 -8.116999 56.270729 24 23 21
-5.800566 -7.984006 56.188446 23 22 20
-5.792203 -7.851546 56.107437 24 22 20
-5.783966 -7.719604 56.027645 24 21 20
-5.775847 -7.588161 55.948997 24 21 20
-5.767844 -7.457206 55.871479 25 22 21
-5.759956 -7.326733 55.795067 26 22 22
-5.752185 -7.196734 55.719791 27 22 23
-5.744536 -7.067211 55.645699 27 23 24
-5.737017 -6.938165 55.572861 28 23 24
-5.729636 -6.809597 55.501369 28 23 24
-5.722405 -6.681512 55.431332 28 24 24
-5.715336 -6.553914 55.362846 29 24 25
-5.708440 -6.426806 55.296047 32 25 26
-5.701727 -6.300189 55.231026 33 26 27
-5.695208 -6.174062 55.167873 34 27 28
-5.688887 -6.048419 55.106644 35 28 28
-5.682770 -5.923251 55.047386 35 28 27
-5.676857 -5.798548 54.990116 35 27 27
-5.671147 -5.674295 54.934807 35 26 26
-5.665636 -5.550475 54.881416 35 27 26
-5.660316 -5.427068 54.829887 35 27 26
-5.655180 -5.304057 54.780136 35 27 27
-5.650218 -5.181418 54.732063 35 27 27
-5.645418 -5.059133 54.685574 35 27 27
-5.640769 -4.937181 54.640545 34 27 27
-5.636262 -4.815543 54.596886 33 26 27
-5.631886 -4.694203 54.554489 33 26 27
-5.627628 -4.573142 54.513245 33 26 27
-5.623480 -4.452345 54.473064 34 27 27
-5.619433 -4.331800 54.433861 35 27 27
-5.615478 -4.211493 54.395550 36 28 27
-5.611607 -4.091412 54.358047 36 28 27
-5.607812 -3.971547 54.321301 36 29 28
-5.604088 -3.851889 54.285221 35 29 28
-5.600428 -3.732429 54.249763 34 28 28
-5.596825 -3.613159 54.214863 33 27 28
-5.593273 -3.494071 54.180462 32 27 28
-5.589770 -3.375161 54.146523 31 26 27
-5.586308 -3.256421 54.112991 31 27 27
-5.582885 -3.137848 54.079834 31 27 27
-5.579496 -3.019436 54.047009 31 26 27
-5.576138 -2.901182 54.014477 30 26 26
-5.572803 -2.783080 53.982178 32 28 28
-5.569490 -2.665127 53.950081 34 29 30
-5.566191 -2.547319 53.918121 35 30 31
-5.562901 -2.429652 53.886250 35 31 32
-5.559611 -2.312123 53.854382 35 30 32
-5.556315 -2.194730 53.822460 34 29 30
-5.553007 -2.077469 53.790409 33 27 28
-5.549677 -1.960339 53.758160 31 26 26
-5.546322 -1.843339 53.725655 30 25 25
-5.542935 -1.726470 53.692848 29 24 24
-5.539515 -1.609733 53.659721 28 23 22
-5.536063 -1.493129 53.626282 27 23 22
-5.532582 -1.376663 53.592560 28 22 22
-5.529080 -1.260337 53.558643 28 23 23
-5.525570 -1.144156 53.524639 29 23 25
-5.522066 -1.028122 53.490696 30 23 25
-5.518588 -0.912239 53.457005 30 24 25
-5.515158 -0.796509 53.423782 31 24 24
-5.511802 -0.680931 53.391270 31 24 24
-5.508545 -0.565503 53.359726 30 24 24
-5.505416 -0.450221 53.329411 30 24 24
-5.502440 -0.335080 53.300591 30 24 24
-5.499644 -0.220070 53.273506 30 24 25
-5.497050 -0.105180 53.248371 30 24 25
-5.494676 0.009601 53.225380 30 24 26
-5.492539 0.124289 53.204678 31 25 26
-5.490648 0.238898 53.186363 31 26 26
-5.489010 0.353444 53.170490 30 25 26
-5.487624 0.467944 53.157070 28 24 24
-5.486487 0.582412 53.146057 27 23 23
-5.485589 0.696863 53.137356 28 23 24
-5.484917 0.811309 53.130844 28 24 25
-5.484454 0.925763 53.126358 29 24 26
-5.484180 1.040234 53.123711 30 25 26
-5.484077 1.154729 53.122715 29 24 25
-5.484123 1.269254 53.123154 28 24 25
-5.484295 1.383813 53.124821 27 23 24
-5.484574 1.498409 53.127518 27 23 24
-5.484940 1.613042 53.131069 27 23 23
-5.485378 1.727712 53.135311 28 24 23
-5.485874 1.842421 53.140118 29 24 24
-5.486417 1.957167 53.145378 30 24 24
-5.487000 2.071950 53.151024 30 24 25
-5.487617 2.186772 53.157001 31 24 26
-5.488267 2.301633 53.163300 32 24 27
-5.488952 2.416536 53.169930 32 24 27
-5.489675 2.531486 53.176933 32 25 27
-5.490441 2.646487 53.184357 32 25 26
-5.491260 2.761546 53.192284 32 26 26
-5.492138 2.876671 53.200794 32 26 25
-5.493089 2.991872 53.210003 31 26 25
-5.494121 3.107158 53.219997 31 25 24
-5.495247 3.222543 53.230907 30 25 23
-5.496479 3.338039 53.242840 30 25 24
-5.497829 3.453661 53.255920 29 24 24
-5.499310 3.569424 53.270260 29 24 25
-5.500932 3.685343 53.285976 28 24 25
-5.502709 3.801438 53.303188 29 24 25
-5.504653 3.917724 53.322018 29 24 25
-5.506775 4.034224 53.342575 29 24 25
-5.509088 4.150955 53.364983 29 24 25
-5.511605 4.267941 53.389366 29 24 24
-5.514342 4.385207 53.415871 29 24 24
-5.517311 4.502777 53.444637 29 24 23
-5.520530 4.620680 53.475819 29 24 23
-5.524017 4.738947 53.509602 29 24 23
-5.527794 4.857615 53.546181 30 24 24
-5.531880 4.976718 53.585766 30 23 24
-5.536302 5.096301 53.628593 30 23 24
-5.541082 5.216407 53.674896 30 23 24
-5.546249 5.337084 53.724957 30 23 24
-5.551831 5.458385 53.779018 30 24 24
-5.557854 5.580361 53.837364 30 24 23
-5.564344 5.703069 53.900234 30 24 23
-5.571329 5.826564 53.967892 29 25 23
-5.578831 5.950904 54.040565 28 25 22
-5.586872 6.076141 54.118450 27 25 21
-5.595469 6.202333 54.201736 26 25 21
-5.604639 6.329528 54.290554 26 25 21
-5.614389 6.457777 54.385010 27 25 22
-5.624729 6.587121 54.485161 27 25 23
-5.635658 6.717599 54.591026 28 25 24
-5.647174 6.849247 54.702583 28 25 24
-5.659269 6.982089 54.819740 28 24 23
-5.671926 7.116142 54.942352 27 23 22
-5.685128 7.251419 55.070232 26 22 22
-5.698846 7.387915 55.203114 25 22 21
-5.827239 -10.180180 57.650639 25 21 20
-5.816190 -10.036837 57.541328 24 21 20
-5.805309 -9.894253 57.433681 23 19 19
-5.794608 -9.752435 57.327812 22 18 18
-5.784093 -9.611382 57.223785 21 18 17
-5.773767 -9.471089 57.121628 23 19 18
-5.763633 -9.331547 57.021370 24 21 19
-5.753691 -9.192743 56.923004 25 21 21
-5.743937 -9.054662 56.826515 25 22 22
-5.734372 -8.917288 56.731880 26 23 22
-5.724988 -8.780601 56.639042 27 23 23
-5.715781 -8.644581 56.547955 27 23 23
-5.706743 -8.509207 56.458538 27 24 23
-5.697867 -8.374455 56.370728 27 24 23
-5.689144 -8.240305 56.284428 26 24 23
-5.680566 -8.106732 56.199558 26 23 22
-5.672123 -7.973717 56.116035 25 23 21
-5.663808 -7.841238 56.033772 25 22 20
-5.655613 -7.709278 55.952702 25 22 20
-5.647536 -7.577823 55.872780 25 22 20
-5.639570 -7.446862 55.793972 26 22 21
-5.631718 -7.316388 55.716293 27 23 22
-5.623982 -7.186398 55.639759 28 23 23
-5.616368 -7.056890 55.564434 29 24 24
-5.608885 -6.927870 55.490402 29 24 24
-5.601542 -6.799338 55.417759 29 25 25
-5.594352 -6.671301 55.346619 29 25 25
-5.587327 -6.543765 55.277115 30 25 25
-5.580479 -6.416732 55.209370 32 26 26
-5.573820 -6.290204 55.143490 33 27 27
-5.567359 -6.164180 55.079567 34 28 28
-5.561103 -6.038653 55.017677 35 29 28
-5.555057 -5.913618 54.957859 35 28 27
-5.549222 -5.789060 54.900135 34 27 26
-5.543596 -5.664965 54.844475 33 26 24
-5.538176 -5.541315 54.790848 33 26 24
-5.532953 -5.418091 54.739185 33 26 25
-5.527920 -5.295270 54.689388 34 26 26
-5.523066 -5.172832 54.641361 35 27 27
-5.518379 -5.050754 54.594997 35 27 27
-5.513848 -4.929015 54.550175 34 27 27
-5.509462 -4.807596 54.506775 33 26 27
-5.505208 -4.686476 54.464687 33 27 27
-5.501075 -4.565639 54.423805 34 28 27
-5.497053 -4.445067 54.384010 35 28 27
-5.493132 -4.324747 54.345222 36 29 27
-5.489303 -4.204663 54.307339 37 29 28
-5.485557 -4.084805 54.270275 37 30 28
-5.481885 -3.965161 54.233952 36 30 28
-5.478281 -3.845721 54.198299 35 29 28
-5.474739 -3.726476 54.163250 33 28 28
-5.471250 -3.607419 54.128738 32 27 28
-5.467810 -3.488541 54.094704 31 27 28
-5.464413 -3.369836 54.061096 30 26 27
-5.461055 -3.251299 54.027870 30 26 27
-5.457731 -3.132925 53.994987 30 26 27
-5.454436 -3.014709 53.962391 30 25 26
-5.451167 -2.896647 53.930050 29 26 26
-5.447918 -2.778735 53.897907 31 27 27
-5.444685 -2.660969 53.865913 32 28 29
-5.441461 -2.543345 53.834019 34 29 30
-5.438240 -2.425861 53.802158 34 29 30
-5.435016 -2.308512 53.770264 34 29 30
-5.431782 -2.191297 53.738270 33 28 29
-5.428531 -2.074213 53.706100 32 27 28
-5.425255 -1.957259 53.673691 31 26 27
-5.421949 -1.840434 53.640980 30 26 26
-5.418608 -1.723739 53.607929 29 25 25
-5.415231 -1.607177 53.574524 29 24 23
-5.411819 -1.490748 53.540768 29 23 23
-5.408376 -1.374457 53.506706 29 23 23
-5.404910 -1.258308 53.472408 29 23 24
-5.401432 -1.142304 53.438000 30 24 25
-5.397958 -1.026449 53.403633 31 25 25
-5.394507 -0.910746 53.369495 32 25 25
-5.391103 -0.795197 53.335815 32 25 25
-5.387769 -0.679803 53.302826 31 25 24
-5.384531 -0.564560 53.270798 30 25 24
-5.381418 -0.449466 53.239994 31 25 24
-5.378454 -0.334514 53.210678 31 25 24
-5.375666 -0.219696 53.183094 31 25 25
-5.373075 -0.105001 53.157463 32 25 26
-5.370701 0.009585 53.133976 32 25 26
-5.368559 0.124074 53.112785 32 25 26
-5.366659 0.238483 53.093983 31 26 27
-5.365006 0.352827 53.077633 30 25 26
-5.363602 0.467122 53.063736 29 24 25
