ply
format ascii 1.0
element vertex 1166
property float x
property float y
property float z
property uchar red
property uchar green
property uchar blue
end_header
-4.191510 -1.743160 40.601974 198 200 200
-4.189459 -1.654825 40.582108 203 205 204
-4.187441 -1.566589 40.562561 174 179 175
-4.185450 -1.478446 40.543270 175 179 176
-4.183482 -1.390395 40.524212 195 199 197
-4.181541 -1.302434 40.505413 177 181 180
-4.179634 -1.214563 40.486935 156 161 159
-4.177770 -1.126785 40.468880 192 197 195
-4.175964 -1.039098 40.451385 234 238 237
-4.174231 -0.951503 40.434597 241 244 243
-4.172589 -0.864000 40.418697 206 208 207
-4.171057 -0.776586 40.403858 126 127 127
-4.169654 -0.689257 40.390259 82 84 84
-4.168396 -0.602007 40.378078 139 141 140
-4.167301 -0.514830 40.367470 200 203 202
-4.166383 -0.427717 40.358574 199 202 201
-4.165652 -0.340658 40.351501 209 211 210
-4.165119 -0.253641 40.346329 240 242 241
-4.164788 -0.166655 40.343128 242 243 243
-4.164662 -0.079687 40.341911 206 209 210
-4.164742 0.007277 40.342678 178 182 183
-4.165023 0.094249 40.345406 178 183 185
-4.165501 0.181241 40.350033 162 166 172
-4.166167 0.268265 40.356487 144 147 158
-4.167012 0.355332 40.364670 171 172 185
-4.168025 0.442452 40.374477 210 205 219
-4.169192 0.529634 40.385788 223 215 225
-4.170503 0.616886 40.398483 197 187 193
-4.171944 0.704215 40.412441 158 138 143
-4.173503 0.791626 40.427544 150 120 126
-4.175169 0.879125 40.443687 174 140 147
-4.176935 0.966717 40.460789 202 167 176
-4.178791 1.054405 40.478767 201 166 180
-4.180732 1.142194 40.497578 175 140 159
-4.182757 1.230088 40.517193 169 135 159
-4.184866 1.318094 40.537617 196 167 192
-4.187061 1.406217 40.558876 208 188 210
-4.189348 1.494464 40.581036 184 165 186
-4.191737 1.582845 40.604172 156 138 159
-4.194237 1.671370 40.628387 162 149 170
-4.196862 1.760052 40.653816 173 166 187
-4.199626 1.848905 40.680595 158 156 179
-4.202545 1.937945 40.708870 131 131 156
-4.205634 2.027188 40.738792 119 120 146
-4.208908 2.116654 40.770508 164 165 185
-4.212380 2.206360 40.804142 214 213 225
-4.216063 2.296326 40.839817 221 217 228
-4.219966 2.386570 40.877625 229 221 233
-4.224094 2.477109 40.917614 208 191 208
-4.228451 2.567959 40.959808 147 121 144
-4.233034 2.659134 41.004204 126 92 121
-4.237839 2.750644 41.050747 151 114 147
-4.242855 2.842496 41.099342 184 147 180
-4.248071 2.934695 41.149864 207 170 204
-4.253469 3.027243 41.202156 223 184 220
-4.259032 3.120136 41.256046 233 195 231
-4.264740 3.213371 41.311333 216 180 216
-4.270570 3.306939 41.367813 173 135 175
-4.276504 3.400833 41.425285 154 117 156
-4.282519 3.495041 41.483555 177 145 177
-4.288599 3.589555 41.542454 186 160 181
-4.294732 3.684367 41.601852 167 144 159
-4.300905 3.779471 41.661652 156 138 144
-4.307115 3.874866 41.721806 145 127 126
-4.313360 3.970554 41.782303 148 130 123
-4.319648 4.066542 41.843212 197 179 171
-4.325987 4.162842 41.904617 242 232 225
-4.332394 4.259472 41.966675 254 251 245
-4.338886 4.356457 42.029564 254 252 245
-4.345486 4.453823 42.093494 223 207 204
-4.352216 4.551601 42.158688 166 131 133
-4.359098 4.649823 42.225361 152 104 113
-4.366155 4.748521 42.293713 174 123 137
-4.373404 4.847727 42.363930 195 140 157
-4.380859 4.947468 42.436146 202 146 164
-4.388528 5.047768 42.510433 196 138 153
-4.396413 5.148640 42.586815 189 134 143
-4.404510 5.250094 42.665249 180 132 131
-4.412808 5.352130 42.745625 170 131 121
-4.421288 5.454737 42.827770 184 158 142
-4.429927 5.557899 42.911457 199 185 166
-4.438697 5.661588 42.996410 176 170 151
-4.447567 5.765773 43.082333 164 161 147
-4.456503 5.870414 43.168888 196 194 189
-4.465470 5.975471 43.255753 235 235 235
-4.474436 6.080902 43.342606 228 224 227
-4.483371 6.186662 43.429150 171 157 170
-4.492247 6.292715 43.515133 135 110 129
-4.501044 6.399025 43.600349 140 109 127
-4.509747 6.505567 43.684643 155 119 135
-4.518344 6.612318 43.767925 167 130 143
-4.526834 6.719267 43.850159 177 140 150
-4.535217 6.826412 43.931366 176 142 149
-4.543501 6.933756 44.011612 167 138 140
-4.551698 7.041311 44.091019 159 135 136
-4.559822 7.149093 44.169708 155 137 135
-4.567889 7.257124 44.247852 145 133 129
-4.575918 7.365431 44.325623 130 121 115
-4.583922 7.474034 44.403164 126 120 113
-4.591919 7.582957 44.480625 137 134 129
-4.599918 7.692218 44.558105 146 144 141
-4.607926 7.801830 44.635681 144 141 140
-4.615947 7.911797 44.713375 147 143 144
-4.623978 8.022118 44.791172 165 160 163
-4.632012 8.132778 44.868996 183 178 183
-4.640038 8.243759 44.946735 175 168 175
-4.648038 8.355031 45.024239 140 132 142
-4.655995 8.466556 45.101311 112 105 115
-4.663884 8.578289 45.177727 97 92 101
-4.671681 8.690182 45.253258 85 82 88
-4.679362 8.802180 45.327656 116 113 117
-4.686901 8.914229 45.400684 200 198 200
-4.694275 9.026278 45.472115 250 250 251
-4.701464 9.138274 45.541756 251 248 251
-4.708451 9.250174 45.609440 222 212 219
-4.715224 9.361940 45.675049 154 132 148
-4.721776 9.473545 45.738514 101 68 89
-4.728106 9.584973 45.799824 99 59 81
-4.734215 9.696217 45.859009 118 74 94
-4.740116 9.807281 45.916164 130 83 100
-4.745820 9.918180 45.971413 139 90 105
-4.751346 10.028944 46.024948 146 96 109
-4.756716 10.139606 46.076965 141 90 103
-4.761952 10.250203 46.127693 128 78 90
-4.767081 10.360785 46.177372 123 73 85
-4.320048 -6.257271 42.739548 168 94 110
-4.313655 -6.156014 42.676296 170 95 113
-4.307179 -6.054915 42.612232 171 95 115
-4.300656 -5.954027 42.547691 173 96 117
-4.294118 -5.853397 42.483017 174 98 118
-4.287601 -5.753073 42.418537 174 99 120
-4.281133 -5.653092 42.354546 175 101 122
-4.274742 -5.553487 42.291317 176 103 122
-4.268450 -5.454281 42.229069 176 104 122
-4.262274 -5.355490 42.167973 176 106 121
-4.256227 -5.257120 42.108139 177 107 120
-4.250312 -5.159170 42.049629 178 108 119
-4.244532 -5.061632 41.992439 178 108 118
-4.238880 -4.964491 41.936527 178 108 117
-4.233347 -4.867728 41.881790 177 109 117
-4.227919 -4.771319 41.828083 177 109 117
-4.222579 -4.675239 41.775249 178 110 118
-4.217306 -4.579461 41.723087 179 111 119
-4.212083 -4.483959 41.671413 181 111 120
-4.206890 -4.388712 41.620037 181 112 120
-4.201710 -4.293700 41.568790 180 112 120
-4.196530 -4.198908 41.517540 180 113 123
-4.191339 -4.104328 41.466187 178 114 125
-4.186133 -4.009954 41.414688 175 115 128
-4.180914 -3.915790 41.363049 172 116 132
-4.175687 -3.821841 41.311340 171 118 136
-4.170465 -3.728119 41.259666 171 121 139
-4.165263 -3.634639 41.208214 172 124 140
-4.160106 -3.541417 41.157185 181 136 146
-4.155016 -3.448471 41.106831 188 147 147
-4.150020 -3.355819 41.057407 172 135 124
-4.145147 -3.263477 41.009193 140 107 87
-4.140422 -3.171456 40.962456 134 108 80
-4.135872 -3.079766 40.917439 182 164 137
-4.131518 -2.988413 40.874359 233 227 204
-4.127377 -2.897394 40.833393 245 243 227
-4.123463 -2.806707 40.794670 213 211 200
-4.119782 -2.716341 40.758255 162 159 152
-4.116337 -2.626281 40.724167 134 131 128
-4.113122 -2.536511 40.692364 111 110 112
-4.110128 -2.447010 40.662743 84 84 91
-4.107341 -2.357755 40.635170 89 90 100
-4.104742 -2.268723 40.609459 134 136 145
-4.102310 -2.179890 40.585400 176 178 187
-4.100022 -2.091234 40.562756 185 189 197
-4.097853 -2.002735 40.541302 184 187 193
-4.095780 -1.914373 40.520794 168 170 173
-4.093783 -1.826132 40.501034 148 149 151
-4.091841 -1.738001 40.481819 176 178 179
-4.089939 -1.649969 40.463005 213 215 214
-4.088067 -1.562029 40.444481 190 193 191
-4.086217 -1.474177 40.426186 160 164 161
-4.084388 -1.386411 40.408089 175 179 177
-4.082583 -1.298730 40.390232 174 178 176
-4.080810 -1.211136 40.372688 147 153 150
-4.079079 -1.123629 40.355564 169 175 173
-4.077405 -1.036211 40.339005 212 218 216
-4.075806 -0.948881 40.323181 232 237 236
-4.074299 -0.861640 40.308281 220 223 222
-4.072905 -0.774483 40.294483 150 152 151
-4.071642 -0.687409 40.281986 88 90 89
-4.070529 -0.600410 40.270969 124 127 126
-4.069582 -0.513480 40.261608 189 192 190
-4.068816 -0.426609 40.254032 205 208 207
-4.068243 -0.339787 40.248363 218 220 219
-4.067871 -0.253002 40.244678 243 245 244
-4.067706 -0.166242 40.243046 246 250 248
-4.067749 -0.079492 40.243465 224 228 228
-4.067998 0.007260 40.245941 194 198 200
-4.068451 0.094027 40.250423 184 187 193
-4.069100 0.180822 40.256844 174 175 185
-4.069935 0.267657 40.265102 149 147 163
-4.070945 0.354543 40.275089 150 143 163
-4.072115 0.441489 40.286671 178 163 183
-4.073433 0.528505 40.299706 208 190 207
-4.074883 0.615597 40.314056 215 196 207
-4.076452 0.702771 40.329575 184 155 164
-4.078125 0.790032 40.346123 160 120 130
-4.079889 0.877384 40.363575 176 134 143
-4.081734 0.964830 40.381832 200 158 168
-4.083652 1.052374 40.400806 197 157 170
-4.085637 1.140018 40.420441 181 141 157
-4.087684 1.227766 40.440701 183 145 164
-4.089796 1.315622 40.461590 212 181 198
-4.091975 1.403591 40.483143 233 213 224
-4.094227 1.491679 40.505428 208 188 198
-4.096562 1.579896 40.528530 159 136 149
-4.098992 1.668251 40.552570 155 136 151
-4.101532 1.756756 40.577694 175 163 181
-4.104197 1.845426 40.604057 165 158 181
-4.107004 1.934277 40.631828 129 126 151
-4.109971 2.023326 40.661182 109 107 136
-4.113112 2.112592 40.692268 157 155 178
-4.116446 2.202094 40.725246 202 200 215
-4.119984 2.291852 40.760250 188 183 201
-4.123737 2.381885 40.797379 197 189 208
-4.127712 2.472211 40.836700 210 197 215
-4.131911 2.562846 40.878250 161 142 167
-4.136336 2.653805 40.922028 108 83 116
-4.140980 2.745097 40.967972 128 100 134
-4.145834 2.836732 41.015995 197 174 199
-4.150886 2.928713 41.065971 235 216 236
-4.156119 3.021041 41.117744 241 218 241
-4.161514 3.113714 41.171116 246 223 248
-4.167049 3.206725 41.225883 231 212 235
-4.172706 3.300067 41.281845 171 147 180
-4.178461 3.393731 41.338779 129 103 140
-4.184295 3.487706 41.396492 167 147 174
-4.190188 3.581981 41.454803 192 179 193
-4.196130 3.676549 41.513580 160 149 158
-4.202107 3.771404 41.572723 148 138 144
-4.208118 3.866543 41.632187 149 141 140
-4.214161 3.961970 41.691975 164 155 150
-4.220243 4.057692 41.752148 216 208 203
-4.226376 4.153722 41.812817 251 247 243
-4.232574 4.250080 41.874134 254 253 250
-4.238857 4.346790 41.936302 254 252 250
-4.245250 4.443882 41.999542 236 226 225
-4.251774 4.541388 42.064095 190 163 167
-4.258455 4.639342 42.130188 152 111 122
-4.265314 4.737779 42.198040 161 114 130
-4.272369 4.836731 42.267845 199 148 168
-4.279637 4.936230 42.339748 214 160 180
-4.287126 5.036298 42.413837 202 147 163
-4.294839 5.136953 42.490147 192 140 148
-4.302773 5.238205 42.568634 184 137 135
-4.310916 5.340057 42.649204 173 134 122
-4.319254 5.442500 42.731686 175 147 126
-4.327762 5.545516 42.815857 180 162 136
-4.336413 5.649084 42.901447 177 167 143
-4.345177 5.753169 42.988155 185 179 162
-4.354022 5.857736 43.075653 209 205 199
-4.362912 5.962742 43.163609 233 231 232
-4.371817 6.068149 43.251705 219 212 219
-4.380704 6.173911 43.339638 169 151 169
-4.389550 6.279991 43.427147 145 115 140
-4.398330 6.386354 43.514011 150 113 138
-4.407028 6.492971 43.600067 158 117 139
-4.415634 6.599821 43.685204 163 122 139
-4.424141 6.706888 43.769371 165 124 138
-4.432550 6.814168 43.852566 162 125 135
-4.440866 6.921659 43.934830 158 127 134
-4.449095 7.029370 44.016251 153 129 135
-4.457251 7.137314 44.096931 143 128 134
-4.465345 7.245507 44.177017 132 123 130
-4.473393 7.353968 44.256638 127 123 130
-4.481407 7.462715 44.335918 126 125 134
-4.489397 7.571764 44.414967 125 125 134
-4.497373 7.681129 44.493874 125 125 132
-4.505338 7.790817 44.572674 138 135 142
-4.513293 7.900827 44.651379 168 164 171
-4.521235 8.011151 44.729946 208 204 209
-4.529153 8.121774 44.808289 229 225 229
-4.537036 8.232669 44.886272 206 199 204
-4.544867 8.343805 44.963745 147 136 145
-4.552625 8.455141 45.040501 100 88 98
-4.560289 8.566629 45.116318 87 76 85
-4.567833 8.678219 45.190960 86 76 85
-4.575236 8.789856 45.264194 116 107 116
-4.582472 8.901487 45.335785 189 182 189
-4.589521 9.013059 45.405521 236 230 238
-4.596365 9.124524 45.473232 231 221 235
-4.602989 9.235841 45.538769 193 176 196
-4.609385 9.346975 45.602039 135 108 131
-4.615547 9.457906 45.663006 95 58 83
-4.621479 9.568622 45.721691 97 54 78
-4.627187 9.679123 45.778168 114 67 88
-4.632685 9.789423 45.832558 122 73 90
-4.637990 9.899545 45.885040 127 77 90
-4.643125 10.009526 45.935837 130 81 91
-4.648114 10.119412 45.985203 127 76 86
-4.652986 10.229251 46.033401 120 69 79
-4.657768 10.339099 46.080711 117 67 77
-4.215540 -6.238954 42.614437 168 93 108
-4.209256 -6.137928 42.550911 170 94 111
-4.202888 -6.037055 42.486538 172 95 113
-4.196469 -5.936388 42.421646 173 97 115
-4.190032 -5.835976 42.356579 174 98 117
-4.183610 -5.735865 42.291656 174 99 119
-4.177232 -5.636093 42.227188 174 101 120
-4.170926 -5.536695 42.163441 176 103 122
-4.164714 -5.437694 42.100647 177 105 123
-4.158613 -5.339106 42.038967 176 106 121
-4.152634 -5.240938 41.978527 176 107 119
-4.146785 -5.143192 41.919403 176 109 119
-4.141066 -5.045859 41.861584 175 109 119
-4.135472 -4.948926 41.805042 174 109 119
-4.129995 -4.852374 41.749680 174 110 120
-4.124623 -4.756180 41.695366 174 111 120
-4.119338 -4.660319 41.641937 175 112 121
-4.114122 -4.564767 41.589214 176 113 122
-4.108959 -4.469498 41.537018 178 115 122
-4.103828 -4.374490 41.485157 179 116 123
-4.098716 -4.279724 41.433479 178 117 123
-4.093609 -4.185185 41.381851 176 118 124
-4.088498 -4.090867 41.330185 173 118 126
-4.083379 -3.996762 41.278435 168 117 127
-4.078253 -3.902874 41.226624 162 116 129
-4.073128 -3.809210 41.174809 161 118 134
-4.068015 -3.715781 41.123123 161 121 138
-4.062932 -3.622601 41.071735 164 126 142
-4.057899 -3.529686 41.020859 185 152 161
-4.052942 -3.437056 40.970749 204 175 176
-4.048087 -3.344725 40.921669 180 154 146
-4.043360 -3.252709 40.873886 133 111 95
-4.038788 -3.161021 40.827671 117 101 77
-4.034396 -3.069668 40.783268 145 135 109
-4.030204 -2.978655 40.740902 190 187 163
-4.026231 -2.887981 40.700729 224 224 207
-4.022486 -2.797640 40.662880 230 230 218
-4.018978 -2.707621 40.627415 217 217 208
-4.015706 -2.617909 40.594337 201 200 195
-4.012665 -2.528485 40.563599 152 152 153
-4.009846 -2.439328 40.535099 89 90 95
-4.007232 -2.350415 40.508671 72 75 85
-4.004805 -2.261721 40.484135 93 97 110
-4.002542 -2.173223 40.461262 105 110 124
-4.000419 -2.084896 40.439804 123 128 141
-3.998414 -1.996719 40.419529 171 174 183
-3.996500 -1.908675 40.400188 186 188 193
-3.994658 -1.820746 40.381565 144 147 150
-3.992868 -1.732920 40.363472 145 148 149
-3.991115 -1.645187 40.345745 198 200 199
-3.989387 -1.557541 40.328281 206 208 206
-3.987679 -1.469977 40.311020 178 180 178
-3.985990 -1.382494 40.293938 184 187 185
-3.984323 -1.295092 40.277084 185 188 186
-3.982686 -1.207772 40.260536 147 151 149
-3.981091 -1.120535 40.244415 148 153 151
-3.979554 -1.033382 40.228878 196 201 199
-3.978092 -0.946315 40.214100 229 233 232
-3.976725 -0.859331 40.200279 228 230 229
-3.975471 -0.772429 40.187611 169 172 170
-3.974353 -0.685605 40.176300 96 99 97
-3.973387 -0.598853 40.166538 102 106 105
-3.972591 -0.512165 40.158493 173 177 175
-3.971980 -0.425531 40.152313 223 226 224
-3.971565 -0.338941 40.148117 241 242 242
-3.971353 -0.252382 40.145977 248 250 250
-3.971350 -0.165841 40.145950 243 248 247
-3.971558 -0.079304 40.148052 228 232 233
-3.971974 0.007243 40.152252 202 204 209
-3.972591 0.093812 40.158497 178 177 188
-3.973403 0.180417 40.166702 167 161 177
-3.974398 0.267070 40.176758 153 142 162
-3.975561 0.353781 40.188519 147 131 153
-3.976880 0.440560 40.201847 161 137 160
-3.978337 0.527415 40.216572 188 158 179
-3.979915 0.614352 40.232529 214 180 197
-3.981600 0.701376 40.249557 206 165 178
-3.983374 0.788492 40.267498 177 132 141
-3.985225 0.875702 40.286209 174 129 136
-3.987141 0.963008 40.305573 191 149 156
-3.989111 1.050412 40.325489 199 159 167
-3.991129 1.137916 40.345890 196 159 168
-3.993192 1.225521 40.366745 203 168 178
-3.995300 1.313231 40.388058 225 195 204
-3.997456 1.401050 40.409851 242 220 226
-3.999668 1.488983 40.432213 221 200 205
-4.001945 1.577039 40.455235 164 139 147
-4.004302 1.665226 40.479050 152 130 141
-4.006752 1.753558 40.503822 184 169 183
-4.009314 1.842048 40.529720 177 164 185
-4.012006 1.930712 40.556934 131 121 147
-4.014847 2.019567 40.585648 111 102 132
-4.017853 2.108634 40.616043 159 153 178
-4.021044 2.197933 40.648293 192 189 206
-4.024432 2.287483 40.682545 157 151 174
-4.028029 2.377304 40.718914 162 154 178
-4.031845 2.467415 40.757481 213 205 221
-4.035882 2.557833 40.798290 185 174 193
-4.040140 2.648572 40.841343 102 84 113
-4.044616 2.739644 40.886585 112 93 121
-4.049300 2.831057 40.933937 204 191 207
-4.054179 2.922814 40.983261 237 225 239
-4.059237 3.014917 41.034393 227 213 229
-4.064456 3.107362 41.087139 241 229 243
-4.069812 3.200145 41.141293 237 228 242
-4.075286 3.293255 41.196629 168 154 179
-4.080856 3.386683 41.252937 105 91 120
-4.086501 3.480419 41.309998 148 138 158
-4.092204 3.574450 41.367645 192 186 196
-4.097950 3.668769 41.425732 160 156 164
-4.103731 3.763370 41.484169 155 151 158
-4.109541 3.858251 41.542908 176 172 175
-4.115382 3.953415 41.601952 193 189 189
-4.121261 4.048871 41.661381 230 227 226
-4.127189 4.144631 41.721306 254 251 251
-4.133183 4.240719 41.781902 254 252 252
-4.139265 4.337158 41.843376 254 252 252
-4.145456 4.433981 41.905964 248 243 244
-4.151783 4.531220 41.969917 216 198 204
-4.158268 4.628913 42.035480 161 127 140
-4.164936 4.727096 42.102886 155 112 130
-4.171806 4.825803 42.172340 206 161 182
-4.178894 4.925066 42.243988 226 177 197
-4.186210 5.024910 42.317940 206 154 170
-4.193756 5.125356 42.394222 194 144 152
-4.201530 5.226414 42.472813 187 141 139
-4.209523 5.328088 42.553612 175 136 125
-4.217718 5.430371 42.636456 167 137 117
-4.226094 5.533247 42.721130 164 141 118
-4.234625 5.636695 42.807362 172 156 135
-4.243279 5.740682 42.894852 184 173 159
-4.252026 5.845172 42.983269 195 184 183
-4.260832 5.950127 43.072285 204 193 202
-4.269665 6.055504 43.161579 184 169 186
-4.278494 6.161260 43.250835 149 124 150
-4.287294 6.267358 43.339790 145 110 141
-4.296041 6.373762 43.428215 157 116 145
-4.304718 6.480442 43.515934 162 117 141
-4.313314 6.587374 43.602821 163 119 136
-4.321819 6.694542 43.688801 162 118 131
-4.330233 6.801938 43.773857 163 124 132
-4.338557 6.909555 43.858002 168 137 143
-4.346797 7.017402 43.941303 159 138 143
-4.354961 7.125483 44.023834 130 120 127
-4.363060 7.233810 44.105705 110 108 119
-4.371105 7.342400 44.187023 116 119 134
-4.379104 7.451263 44.267887 130 135 153
-4.387065 7.560410 44.348366 146 149 167
-4.394995 7.669849 44.428532 173 175 187
-4.402895 7.779582 44.508392 205 205 211
-4.410764 7.889601 44.587936 229 226 231
-4.418595 7.999896 44.667099 242 238 243
-4.426378 8.110443 44.745773 244 236 243
-4.434099 8.221216 44.823830 219 205 214
-4.441741 8.332176 44.901077 158 140 150
-4.449283 8.443279 44.977314 101 82 93
-4.456703 8.554478 45.052322 88 71 82
-4.463978 8.665718 45.125866 94 77 89
-4.471085 8.776945 45.197708 110 94 107
-4.478002 8.888105 45.267632 153 136 150
-4.484709 8.999147 45.335438 185 168 183
-4.491192 9.110024 45.400970 173 151 173
-4.497437 9.220698 45.464108 137 109 136
-4.503440 9.331141 45.524784 107 72 100
-4.509198 9.441334 45.582996 96 55 82
-4.514718 9.551273 45.638794 103 57 81
-4.520010 9.660967 45.692299 112 64 83
-4.525092 9.770436 45.743668 115 66 80
-4.529985 9.879717 45.793133 116 67 77
-4.534716 9.988852 45.840954 116 67 76
-4.539314 10.097898 45.887436 115 65 73
-4.543810 10.206916 45.932888 113 63 71
-4.548237 10.315970 45.977631 111 62 70
-4.111716 -6.220857 42.490829 168 92 106
-4.105544 -6.120059 42.427040 169 93 108
-4.099284 -6.019410 42.362350 171 95 111
-4.092971 -5.918961 42.297112 172 96 113
-4.086637 -5.818763 42.231651 173 97 114
-4.080312 -5.718863 42.166298 173 98 116
-4.074028 -5.619298 42.101353 173 100 118
-4.067810 -5.520103 42.037090 174 102 120
-4.061679 -5.421303 41.973740 176 104 121
-4.055655 -5.322915 41.911484 174 106 120
-4.049748 -5.224947 41.850445 173 107 119
-4.043966 -5.127401 41.790695 172 109 119
-4.038311 -5.030269 41.732250 170 111 121
-4.032778 -4.933540 41.675072 169 112 122
-4.027360 -4.837195 41.619080 167 113 123
-4.022045 -4.741213 41.564156 166 113 123
-4.016818 -4.645569 41.510139 166 113 123
-4.011662 -4.550240 41.456863 167 113 122
-4.006561 -4.455200 41.404144 169 115 123
-4.001497 -4.360428 41.351810 171 119 124
-3.996455 -4.265907 41.299713 172 123 126
-3.991425 -4.171620 41.247723 173 126 129
-3.986396 -4.077561 41.195763 171 128 131
-3.981368 -3.983725 41.143795 160 121 127
-3.976340 -3.890114 41.091835 147 112 121
-3.971320 -3.796735 41.039959 144 111 124
-3.966321 -3.703598 40.988297 145 114 129
-3.961359 -3.610719 40.937019 149 120 134
-3.956456 -3.518113 40.886353 173 149 158
-3.951635 -3.425797 40.836536 198 179 180
-3.946924 -3.333787 40.787849 178 162 156
-3.942348 -3.242099 40.740559 138 124 113
-3.937932 -3.150743 40.694923 115 107 89
-3.933700 -3.059727 40.651196 106 102 81
-3.929674 -2.969054 40.609585 120 120 99
-3.925868 -2.878723 40.570259 164 166 149
-3.922294 -2.788726 40.533325 204 206 193
-3.918958 -2.699052 40.498844 230 232 221
-3.915859 -2.609685 40.466816 238 238 233
-3.912991 -2.520605 40.437180 197 198 197
-3.910343 -2.431789 40.409817 119 121 123
-3.907899 -2.343214 40.384560 70 75 81
-3.905640 -2.254854 40.361214 68 75 85
-3.903542 -2.166685 40.339539 70 77 90
-3.901582 -2.078682 40.319283 96 101 115
-3.899735 -1.990824 40.300198 164 168 178
-3.897978 -1.903093 40.282036 192 195 201
-3.896288 -1.815471 40.264572 142 145 151
-3.894646 -1.727946 40.247608 123 126 129
-3.893039 -1.640508 40.230999 177 179 180
-3.891455 -1.553151 40.214630 219 220 219
-3.889888 -1.465872 40.198437 219 220 218
-3.888338 -1.378668 40.182423 215 218 216
-3.886810 -1.291540 40.166626 194 198 196
-3.885311 -1.204490 40.151134 142 146 144
-3.883854 -1.117518 40.136086 138 143 141
-3.882456 -1.030627 40.121632 197 200 199
-3.881135 -0.943817 40.107979 236 239 238
-3.879909 -0.857087 40.095310 240 242 241
-3.878801 -0.770435 40.083858 203 206 205
-3.877828 -0.683856 40.073807 127 131 129
-3.877012 -0.597345 40.065369 90 95 93
-3.876368 -0.510893 40.058712 143 147 146
-3.875910 -0.424489 40.053986 212 216 214
-3.875651 -0.338124 40.051304 242 244 243
-3.875597 -0.251783 40.050751 244 246 246
-3.875753 -0.165454 40.052368 226 231 230
-3.876120 -0.079122 40.056152 204 208 210
-3.876693 0.007227 40.062080 193 192 200
-3.877468 0.093606 40.070080 170 163 177
-3.878433 0.180028 40.080051 143 131 150
-3.879575 0.266506 40.091866 142 123 146
-3.880882 0.353049 40.105362 155 130 154
-3.882334 0.439667 40.120377 166 134 158
-3.883917 0.526368 40.136730 181 142 163
-3.885610 0.613156 40.154228 206 163 178
-3.887398 0.700037 40.172699 215 170 181
-3.889261 0.787013 40.191959 190 144 150
-3.891186 0.874086 40.211853 167 123 126
-3.893160 0.961256 40.232246 177 138 140
-3.895171 1.048525 40.253036 202 168 170
-3.897214 1.135892 40.274139 217 187 189
-3.899283 1.223359 40.295521 226 197 201
-3.901379 1.310926 40.317181 230 202 206
-3.903506 1.398599 40.339161 230 208 210
-3.905670 1.486380 40.361530 222 205 205
-3.907885 1.574278 40.384415 182 161 163
-3.910162 1.662301 40.407948 160 138 144
-3.912519 1.750462 40.432304 188 172 182
-3.914974 1.838773 40.457672 189 173 189
-3.917547 1.927252 40.484261 143 126 147
-3.920257 2.015916 40.512272 122 107 132
-3.923125 2.104785 40.541904 165 154 176
-3.926167 2.193880 40.573349 201 196 212
-3.929401 2.283222 40.606762 166 161 181
-3.932838 2.372830 40.642284 150 143 166
-3.936488 2.462725 40.680004 203 196 213
-3.940356 2.552923 40.719975 195 187 203
-3.944442 2.643440 40.762203 113 101 123
-3.948743 2.734288 40.806648 123 109 131
-3.953249 2.825474 40.853214 205 192 207
-3.957949 2.917003 40.901779 213 199 216
-3.962825 3.008876 40.952168 198 185 200
-3.967859 3.101089 41.004192 230 224 231
-3.973029 3.193637 41.057625 239 236 244
-3.978315 3.286510 41.112251 170 164 182
-3.983695 3.379698 41.167839 100 93 115
-3.989147 3.473189 41.224186 136 133 149
-3.994655 3.566973 41.281109 188 186 195
-4.000205 3.661040 41.338459 164 162 173
-4.005788 3.755386 41.396152 163 159 172
-4.011399 3.850007 41.454140 200 196 204
-4.017040 3.944908 41.512436 224 220 225
-4.022719 4.040099 41.571129 243 242 243
-4.028449 4.135594 41.630333 254 252 252
-4.034245 4.231415 41.690235 254 249 251
-4.040131 4.327590 41.751060 254 248 252
-4.046130 4.424150 41.813049 252 246 250
-4.052267 4.521132 41.876469 228 212 220
-4.058567 4.618572 41.941574 173 142 156
-4.065053 4.716510 42.008598 158 119 138
-4.071746 4.814981 42.077766 209 168 189
-4.078661 4.914019 42.149239 227 183 202
-4.085810 5.013650 42.223114 202 154 170
-4.093195 5.113896 42.299431 191 143 153
-4.100816 5.214770 42.378181 186 142 143
-4.108661 5.316274 42.459259 175 137 130
-4.116717 5.418405 42.542503 166 135 121
-4.124961 5.521146 42.627697 162 136 120
-4.133368 5.624477 42.714577 168 147 134
-4.141909 5.728368 42.802841 171 153 146
-4.150551 5.832782 42.892155 164 144 149
-4.159265 5.937681 42.982193 157 136 151
-4.168015 6.043024 43.072624 142 116 140
-4.176774 6.148767 43.163136 132 100 130
-4.185513 6.254873 43.253452 148 110 141
-4.194211 6.361306 43.343342 161 118 146
-4.202850 6.468033 43.432610 160 113 135
-4.211414 6.575030 43.521114 157 110 124
-4.219897 6.682280 43.608776 152 108 113
-4.228293 6.789768 43.695541 162 126 126
-4.236603 6.897490 43.781414 190 166 163
-4.244830 7.005445 43.866432 179 165 163
-4.252978 7.113636 43.950642 123 120 121
-4.261057 7.222071 44.034126 91 96 105
-4.269073 7.330759 44.116966 99 110 125
-4.277034 7.439707 44.199230 116 128 148
-4.284943 7.548920 44.280968 147 154 175
-4.292804 7.658400 44.362209 198 199 213
-4.300617 7.768142 44.442947 231 228 236
-4.308378 7.878136 44.523140 228 219 228
-4.316077 7.988364 44.602711 212 196 209
-4.323704 8.098799 44.681530 207 184 201
-4.331244 8.209408 44.759449 193 167 183
-4.338679 8.320151 44.836277 148 120 134
-4.345987 8.430981 44.911800 103 76 88
-4.353147 8.541845 44.985794 94 69 80
-4.360136 8.652689 45.058022 100 75 88
-4.366933 8.763458 45.128258 102 76 91
-4.373516 8.874098 45.196289 113 86 103
-4.379869 8.984557 45.261936 124 95 113
-4.385976 9.094791 45.325054 118 84 107
-4.391831 9.204767 45.385555 104 66 92
-4.397428 9.314458 45.443394 99 58 83
-4.402770 9.423854 45.498600 102 58 81
-4.407867 9.532956 45.551270 106 59 79
-4.412732 9.641780 45.601551 109 60 76
-4.417387 9.750357 45.649658 110 60 73
-4.421858 9.858730 45.695858 110 60 69
-4.426176 9.966958 45.740479 109 60 67
-4.430373 10.075103 45.783852 109 59 66
-4.434485 10.183240 45.826344 108 58 66
-4.438548 10.291447 45.868328 106 57 65
-4.008621 -6.203063 42.369286 166 90 103
-4.002562 -6.102490 42.305237 166 91 104
-3.996414 -6.002062 42.240265 167 93 106
-3.990210 -5.901830 42.174690 168 94 108
-3.983982 -5.801845 42.108856 169 95 110
-3.977759 -5.702152 42.043091 170 96 113
-3.971572 -5.602793 41.977692 170 99 115
-3.965445 -5.503799 41.912937 171 101 117
-3.959402 -5.405199 41.849056 172 104 118
-3.953458 -5.307008 41.786240 170 106 119
-3.947628 -5.209238 41.724617 168 108 119
-3.941918 -5.111888 41.664261 165 111 121
-3.936330 -5.014956 41.605202 163 115 123
-3.930862 -4.918427 41.547405 160 116 126
-3.925507 -4.822286 41.490803 156 116 127
-3.920253 -4.726511 41.435276 153 114 126
-3.915088 -4.631081 41.380680 151 112 124
-3.909995 -4.535971 41.326855 150 110 121
-3.904959 -4.441156 41.273628 147 108 115
-3.899965 -4.346618 41.220837 147 110 114
-3.894997 -4.252337 41.168335 154 120 121
-3.890046 -4.158299 41.116001 161 129 129
-3.885104 -4.064497 41.063766 163 134 134
-3.880169 -3.970926 41.011604 156 130 132
-3.875242 -3.877589 40.959530 145 121 127
-3.870332 -3.784492 40.907627 137 115 124
-3.865449 -3.691647 40.856022 128 106 118
-3.860612 -3.599066 40.804901 125 104 115
-3.855842 -3.506766 40.754482 143 125 133
-3.851162 -3.414762 40.705009 165 149 153
-3.846597 -3.323073 40.656765 167 154 152
-3.842173 -3.231709 40.610004 163 155 149
-3.837915 -3.140683 40.564995 149 146 135
-3.833845 -3.050001 40.521984 108 108 93
-3.829984 -2.959666 40.481174 76 78 61
-3.826347 -2.869674 40.442726 92 95 79
-3.822942 -2.780018 40.406742 148 151 137
-3.819776 -2.690684 40.373280 212 214 204
-3.816847 -2.601656 40.342319 245 246 243
-3.814148 -2.512914 40.313797 231 231 231
-3.811668 -2.424433 40.287582 165 166 167
-3.809390 -2.336190 40.263508 89 91 96
-3.807294 -2.248158 40.241352 65 68 79
-3.805357 -2.160311 40.220879 74 78 93
-3.803555 -2.072626 40.201824 104 108 124
-3.801862 -1.985081 40.183933 167 169 182
-3.800256 -1.897656 40.166954 194 195 204
-3.798713 -1.810334 40.150658 144 146 154
-3.797217 -1.723104 40.134846 108 110 115
-3.795753 -1.635956 40.119362 148 150 152
-3.794309 -1.548883 40.104107 209 210 210
-3.792882 -1.461882 40.089027 239 240 239
-3.791471 -1.374952 40.074108 234 235 234
-3.790081 -1.288093 40.059414 183 186 183
-3.788720 -1.201307 40.045033 117 120 117
-3.787403 -1.114596 40.031109 126 129 127
-3.786145 -1.027960 40.017815 198 201 199
-3.784965 -0.941402 40.005344 237 239 237
-3.783883 -0.854920 39.993908 244 245 243
-3.782920 -0.768511 39.983727 229 231 229
-3.782094 -0.682170 39.975002 164 166 165
-3.781427 -0.595892 39.967949 98 101 100
-3.780934 -0.509668 39.962734 110 114 114
-3.780628 -0.423488 39.959503 170 174 173
-3.780521 -0.337339 39.958378 212 215 214
-3.780621 -0.251209 39.959423 226 229 228
-3.780929 -0.165084 39.962688 205 209 209
-3.781447 -0.078948 39.968163 179 182 184
-3.782170 0.007211 39.975796 188 186 192
-3.783090 0.093408 39.985519 176 168 180
-3.784196 0.179656 39.997211 132 117 134
-3.785475 0.265966 40.010727 127 106 126
-3.786910 0.352349 40.025894 155 127 150
-3.788483 0.438814 40.042530 173 139 160
-3.790176 0.525367 40.060425 180 140 158
-3.791970 0.612013 40.079384 197 155 168
-3.793845 0.698756 40.099201 219 179 186
-3.795784 0.785598 40.119690 204 163 165
-3.797769 0.872538 40.140675 162 121 120
-3.799788 0.959578 40.162010 164 129 126
-3.801828 1.046715 40.183578 207 179 177
-3.803883 1.133950 40.205299 236 213 211
-3.805948 1.221282 40.227127 243 221 220
-3.808023 1.308711 40.249058 227 204 203
-3.810113 1.396240 40.271145 202 182 180
-3.812224 1.483873 40.293457 207 193 190
-3.814369 1.571616 40.316128 202 187 186
-3.816561 1.659477 40.339302 169 150 151
-3.818820 1.747469 40.363174 178 162 165
-3.821163 1.835604 40.387943 196 180 187
-3.823613 1.923899 40.413830 160 139 149
-3.826190 2.012373 40.441067 137 116 128
-3.828913 2.101045 40.469856 181 163 177
-3.831804 2.189936 40.500408 224 214 227
-3.834879 2.279069 40.532909 199 194 207
-3.838151 2.368464 40.567493 159 150 167
-3.841631 2.458140 40.604271 181 169 186
-3.845324 2.548116 40.643307 191 177 193
-3.849232 2.638408 40.684616 145 130 148
-3.853351 2.729028 40.728153 156 139 157
-3.857674 2.819984 40.773842 197 180 194
-3.862187 2.911281 40.821545 174 155 170
-3.866876 3.002919 40.871101 167 152 164
-3.871720 3.094896 40.922306 222 217 221
-3.876700 3.187205 40.974937 245 243 247
-3.881793 3.279836 41.028770 186 181 193
-3.886978 3.372780 41.083580 115 109 126
-3.892236 3.466024 41.139149 137 132 148
-3.897548 3.559558 41.195297 185 181 194
-3.902902 3.653373 41.251881 164 159 177
-3.908288 3.747462 41.308815 157 150 169
-3.913703 3.841826 41.366051 201 195 208
-3.919150 3.936468 41.423615 238 235 240
-3.924635 4.031397 41.481590 252 251 252
-3.930172 4.126632 41.540115 254 252 253
-3.935779 4.222193 41.599380 249 241 246
-3.941478 4.318111 41.659611 242 228 237
-3.947293 4.414418 41.721073 235 219 229
-3.953250 4.511152 41.784035 217 193 206
-3.959373 4.608352 41.848759 177 144 160
-3.965688 4.706057 41.915497 165 128 146
-3.972213 4.804305 41.984467 202 163 182
-3.978965 4.903130 42.055840 213 170 189
-3.985955 5.002560 42.129715 192 148 163
-3.993186 5.102618 42.206146 183 140 150
-4.000657 5.203317 42.285110 179 139 144
-4.008359 5.304662 42.366512 172 136 136
-4.016276 5.406648 42.450195 166 135 131
-4.024388 5.509261 42.535934 163 135 131
-4.032670 5.612481 42.623470 163 140 138
-4.041093 5.716277 42.712498 157 136 139
-4.049626 5.820615 42.802685 142 120 132
-4.058237 5.925457 42.893700 132 108 128
-4.066895 6.030759 42.985210 130 102 128
-4.075569 6.136482 43.076897 145 113 141
-4.084234 6.242585 43.168480 169 131 159
-4.092866 6.349032 43.259716 166 123 148
-4.101446 6.455791 43.350403 149 103 120
-4.109960 6.562835 43.440392 140 93 102
-4.118397 6.670143 43.529572 134 89 89
-4.126753 6.777700 43.617882 155 121 114
-4.135024 6.885499 43.705307 202 184 173
-4.143212 6.993535 43.791851 190 180 171
-4.151320 7.101806 43.877556 119 117 112
-4.159353 7.210317 43.962456 82 88 91
-4.167316 7.319070 44.046619 85 96 108
-4.175213 7.428069 44.130089 92 101 123
-4.183046 7.537312 44.212875 119 124 148
-4.190815 7.646796 44.294991 168 166 186
-4.198518 7.756511 44.376404 188 176 196
-4.206148 7.866442 44.457054 163 141 166
-4.213696 7.976564 44.536831 137 107 132
-4.221148 8.086848 44.615601 135 99 123
-4.228489 8.197255 44.693188 135 98 117
-4.235699 8.307740 44.769398 119 82 97
-4.242758 8.418254 44.844002 102 67 80
-4.249643 8.528741 44.916779 100 66 80
-4.256333 8.639145 44.987492 103 69 84
-4.262807 8.749411 45.055916 103 67 85
-4.269045 8.859482 45.121849 102 65 86
-4.275032 8.969309 45.185123 103 64 87
-4.280755 9.078851 45.245613 102 61 85
-4.286208 9.188075 45.303253 101 59 82
-4.291391 9.296962 45.358032 103 58 79
-4.296309 9.405504 45.410011 104 58 76
-4.300973 9.513712 45.459316 105 57 72
-4.305405 9.621610 45.506153 106 57 69
-4.309626 9.729235 45.550770 106 57 67
-4.313668 9.836644 45.593491 106 56 64
-4.317565 9.943904 45.634682 106 56 63
-4.321355 10.051091 45.674736 105 55 62
-4.325077 10.158292 45.714073 104 54 62
-4.328770 10.265594 45.753105 102 53 61
-3.906283 -6.185637 42.250263 163 90 102
-3.900341 -6.085289 42.185993 163 90 103
-3.894310 -5.985081 42.120758 164 91 103
-3.888219 -5.885065 42.054890 165 92 105
-3.882102 -5.785292 41.988720 166 93 107
-3.875986 -5.685808 41.922577 166 95 109
-3.869902 -5.586652 41.856762 167 97 111
-3.863873 -5.487861 41.791553 167 100 114
-3.857921 -5.389458 41.727188 168 103 117
-3.852065 -5.291464 41.663849 167 107 119
-3.846317 -5.193889 41.601677 164 111 121
-3.840684 -5.096735 41.540752 160 115 124
-3.835170 -4.999998 41.481110 156 118 127
-3.829772 -4.903667 41.422726 151 120 130
-3.824485 -4.807726 41.365536 143 117 130
-3.819298 -4.712157 41.309433 136 114 127
-3.814199 -4.616936 41.254284 141 118 132
-3.809174 -4.522039 41.199932 146 124 136
-3.804207 -4.427446 41.146217 133 110 118
-3.799285 -4.333136 41.092979 116 95 99
-3.794396 -4.239090 41.040096 121 102 103
-3.789528 -4.145297 40.987442 132 116 114
-3.784675 -4.051747 40.934956 137 124 121
-3.779836 -3.958437 40.882622 153 142 140
-3.775014 -3.865370 40.830460 174 163 166
-3.770215 -3.772552 40.778557 169 157 163
-3.765452 -3.679992 40.727043 133 120 127
-3.760743 -3.587706 40.676109 103 89 96
-3.756108 -3.495708 40.625973 105 91 98
-3.751569 -3.404014 40.576885 121 108 112
-3.747153 -3.312639 40.529114 145 135 136
-3.742882 -3.221597 40.482925 188 182 180
-3.738782 -3.130896 40.438583 203 201 197
-3.734875 -3.040543 40.396317 156 156 149
-3.731179 -2.950539 40.356339 86 87 76
-3.727707 -2.860880 40.318794 58 60 47
-3.724470 -2.771558 40.283783 107 109 97
-3.721471 -2.682558 40.251347 196 197 190
-3.718709 -2.593863 40.221470 247 247 245
-3.716176 -2.505450 40.194065 247 247 247
-3.713858 -2.417297 40.169003 204 203 203
-3.711740 -2.329378 40.146099 127 125 128
-3.709802 -2.241665 40.125130 80 77 87
-3.708019 -2.154133 40.105846 89 86 102
-3.706368 -2.066757 40.087986 121 118 137
-3.704823 -1.979516 40.071278 162 159 175
-3.703362 -1.892389 40.055477 180 177 191
-3.701963 -1.805360 40.040340 153 152 164
-3.700607 -1.718418 40.025681 131 132 140
-3.699281 -1.631551 40.011341 148 150 152
-3.697976 -1.544755 39.997215 175 177 176
-3.696685 -1.458025 39.983261 200 201 199
-3.695411 -1.371362 39.969475 213 214 212
-3.694157 -1.284765 39.955914 169 170 168
-3.692934 -1.198237 39.942688 99 102 99
-3.691756 -1.111779 39.929943 118 120 118
-3.690638 -1.025393 39.917854 199 200 198
-3.689600 -0.939079 39.906624 239 240 238
-3.688661 -0.852837 39.896469 245 246 245
-3.687842 -0.766663 39.887615 240 240 239
-3.687163 -0.680554 39.880268 191 191 190
-3.686643 -0.594501 39.874641 121 121 120
-3.686297 -0.508497 39.870903 102 102 103
-3.686139 -0.422531 39.869194 134 135 136
-3.686180 -0.336590 39.869637 173 174 174
-3.686426 -0.250661 39.872295 201 202 202
-3.686879 -0.164730 39.877197 199 199 200
-3.687539 -0.078783 39.884331 188 187 188
-3.688399 0.007196 39.893639 204 200 203
-3.689453 0.093220 39.905037 198 190 198
-3.690688 0.179302 39.918392 148 134 147
-3.692088 0.265453 39.933537 126 106 123
-3.693637 0.351684 39.950291 155 130 148
-3.695316 0.438002 39.968445 177 146 163
-3.697104 0.524414 39.987793 173 138 151
-3.698982 0.610925 40.008106 188 153 161
-3.700930 0.697536 40.029167 224 195 197
-3.702928 0.784248 40.050777 217 187 185
-3.704959 0.871062 40.072750 162 127 122
-3.707009 0.957975 40.094917 152 119 113
-3.709066 1.044986 40.117165 200 173 167
-3.711122 1.132092 40.139400 233 211 205
-3.713172 1.219292 40.161579 239 220 214
-3.715217 1.306586 40.183697 223 205 200
-3.717260 1.393975 40.205799 188 173 168
-3.719311 1.481462 40.227974 194 182 178
-3.721379 1.569052 40.250351 210 201 197
-3.723482 1.656754 40.273090 175 160 157
-3.725637 1.744578 40.296398 162 146 142
-3.727864 1.832538 40.320492 191 177 174
-3.730186 1.920651 40.345608 174 155 153
-3.732625 2.008935 40.371983 157 131 130
-3.735202 2.097411 40.399849 202 179 180
-3.737936 2.186099 40.429432 243 227 229
-3.740848 2.275022 40.460926 228 216 220
-3.743951 2.364201 40.494484 176 160 168
-3.747256 2.453658 40.530235 163 143 154
-3.750770 2.543410 40.568241 188 168 179
-3.754495 2.633475 40.608532 182 162 174
-3.758429 2.723863 40.651077 179 157 168
-3.762563 2.814586 40.695789 180 156 167
-3.766886 2.905647 40.742550 145 122 131
-3.771382 2.997047 40.791180 151 132 139
-3.776033 3.088784 40.841484 214 202 208
-3.780819 3.180851 40.893246 244 235 241
-3.785717 3.273238 40.946224 200 187 199
-3.790707 3.365935 41.000198 134 121 137
-3.795770 3.458931 41.054955 140 128 147
-3.800887 3.552214 41.110302 178 165 186
-3.806046 3.645776 41.166111 163 149 175
-3.811240 3.739612 41.222279 150 135 162
-3.816464 3.833721 41.278782 189 176 195
-3.821721 3.928108 41.335644 232 223 233
-3.827019 4.022783 41.392948 246 240 245
-3.832373 4.117764 41.450855 243 234 241
-3.837799 4.213076 41.509548 228 211 223
-3.843321 4.308746 41.569271 208 184 199
-3.848963 4.404812 41.630291 199 170 186
-3.854750 4.501311 41.692883 191 160 175
-3.860708 4.598283 41.757324 175 140 156
-3.866860 4.695769 41.823872 174 136 152
-3.873228 4.793808 41.892735 192 152 167
-3.879825 4.892434 41.964096 194 154 168
-3.886664 4.991677 42.038063 182 142 154
-3.893747 5.091560 42.114677 175 138 147
-3.901075 5.192097 42.193932 171 136 143
-3.908636 5.293293 42.275711 165 134 140
-3.916416 5.395143 42.359867 159 134 138
-3.924396 5.497635 42.446175 155 133 139
-3.932551 5.600749 42.534374 151 133 141
-3.940851 5.704454 42.624153 147 131 142
-3.949267 5.808716 42.715183 147 129 148
-3.957768 5.913496 42.807121 154 134 157
-3.966322 6.018754 42.899643 165 141 168
-3.974899 6.124448 42.992416 189 163 189
-3.983474 6.230536 43.085159 205 177 198
-3.992022 6.336983 43.177612 176 140 158
-4.000525 6.443755 43.269581 135 92 103
-4.008966 6.550824 43.360886 118 74 77
-4.017337 6.658167 43.451420 119 77 70
-4.025628 6.765769 43.541092 152 118 106
-4.033835 6.873615 43.629871 201 178 164
-4.041960 6.981699 43.717743 184 170 155
-4.050002 7.090018 43.804722 118 111 100
-4.057963 7.198570 43.890839 86 86 83
-4.065847 7.307353 43.976105 85 89 96
-4.073655 7.416365 44.060558 84 87 104
-4.081387 7.525600 44.144180 97 95 119
-4.089040 7.635052 44.226959 124 115 141
-4.096610 7.744701 44.308838 130 111 140
-4.104089 7.854530 44.389732 112 82 114
-4.111465 7.964508 44.469509 99 61 91
-4.118724 8.074600 44.548027 101 60 85
-4.125849 8.184765 44.625088 107 63 83
-4.132820 8.294952 44.700481 106 64 79
-4.139616 8.405110 44.773987 104 64 77
-4.146214 8.515180 44.845360 104 65 78
-4.152595 8.625103 44.914364 104 66 80
-4.158735 8.734820 44.980785 104 66 81
-4.164620 8.844281 45.044430 104 65 83
-4.170233 8.953433 45.105141 104 64 82
-4.175565 9.062236 45.162811 104 62 81
-4.180612 9.170663 45.217396 104 60 78
-4.185375 9.278697 45.268921 103 58 74
-4.189864 9.386337 45.317471 104 57 70
-4.194094 9.493600 45.363216 103 55 67
-4.198086 9.600518 45.406399 103 54 64
-4.201870 9.707141 45.447327 104 54 62
-4.205479 9.813531 45.486359 104 53 60
-4.208952 9.919770 45.523930 103 52 59
-4.212331 10.025948 45.560474 102 51 59
-4.215659 10.132158 45.596466 101 50 58
-4.218979 10.238507 45.632381 99 50 57
-3.804717 -6.168632 42.134109 164 91 103
-3.798896 -6.068506 42.069649 163 91 103
-3.792986 -5.968518 42.004196 163 91 104
-3.787015 -5.868719 41.938080 163 92 105
-3.781015 -5.769158 41.871628 163 92 105
-3.775013 -5.669883 41.805164 163 93 107
-3.769038 -5.570933 41.738991 164 95 109
-3.763114 -5.472343 41.673389 163 98 112
-3.757262 -5.374140 41.608589 164 102 115
-3.751501 -5.276343 41.544785 163 107 120
-3.745842 -5.178963 41.482121 160 113 124
-3.740294 -5.082003 41.420681 156 118 128
-3.734860 -4.985461 41.360504 150 122 132
-3.729539 -4.889325 41.301579 142 122 134
-3.724325 -4.793582 41.243843 126 113 126
-3.719211 -4.698214 41.187202 114 104 119
-3.714184 -4.603198 41.131531 135 125 140
-3.709231 -4.508512 41.076683 170 161 173
-3.704339 -4.414135 41.022507 160 152 158
-3.699495 -4.320047 40.968857 121 112 115
-3.694686 -4.226232 40.915611 107 99 100
-3.689904 -4.132677 40.862656 102 97 95
-3.685145 -4.039373 40.809948 97 96 92
-3.680406 -3.946319 40.757462 133 133 129
-3.675690 -3.853516 40.705238 196 194 193
-3.671005 -3.760969 40.653358 215 211 212
-3.666364 -3.668691 40.601971 171 166 167
-3.661785 -3.576694 40.551254 114 106 109
-3.657286 -3.484992 40.501431 87 79 81
-3.652890 -3.393600 40.452755 86 78 79
-3.648622 -3.302535 40.405487 119 112 111
-3.644506 -3.211807 40.359901 189 184 184
-3.640564 -3.121424 40.316246 231 230 229
-3.636817 -3.031393 40.274754 205 204 201
-3.633283 -2.941713 40.235622 131 131 124
-3.629976 -2.852380 40.198994 70 70 62
-3.626903 -2.763383 40.164963 98 97 89
-3.624067 -2.674708 40.133560 190 189 184
-3.621466 -2.586336 40.104755 245 245 243
-3.619092 -2.498245 40.078468 250 249 249
-3.616931 -2.410409 40.054539 228 225 225
-3.614968 -2.322803 40.032795 171 163 166
-3.613180 -2.235400 40.012993 112 100 108
-3.611544 -2.148173 39.994881 106 93 107
-3.610037 -2.061097 39.978191 133 121 139
-3.608634 -1.974150 39.962650 148 137 156
-3.607311 -1.887312 39.948002 147 137 156
-3.606048 -1.800567 39.934021 153 146 161
-3.604828 -1.713902 39.920506 176 173 182
-3.603636 -1.627308 39.907303 175 174 178
-3.602463 -1.540780 39.894318 136 137 137
-3.601306 -1.454314 39.881504 135 136 135
-3.600165 -1.367910 39.868870 183 184 183
-3.599046 -1.281567 39.856476 176 176 176
-3.597959 -1.195289 39.844433 116 116 116
-3.596917 -1.109077 39.832901 126 125 125
-3.595938 -1.022932 39.822056 201 200 199
-3.595040 -0.936855 39.812107 243 243 242
-3.594242 -0.850845 39.803276 246 246 245
-3.593565 -0.764898 39.795784 240 238 238
-3.593030 -0.679011 39.789848 204 200 200
-3.592652 -0.593175 39.785667 142 136 138
-3.592450 -0.507382 39.783424 114 108 110
-3.592434 -0.421620 39.783253 127 122 124
-3.592615 -0.335878 39.785255 146 141 143
-3.592999 -0.250141 39.789505 167 163 165
-3.593587 -0.164395 39.796021 192 189 190
-3.594378 -0.078626 39.804775 213 209 210
-3.595365 0.007182 39.815704 229 225 225
-3.596539 0.093042 39.828709 220 214 217
-3.597887 0.178966 39.843639 169 158 166
-3.599394 0.264966 39.860329 137 121 134
-3.601041 0.351052 39.878571 169 148 162
-3.602809 0.437232 39.898148 182 157 171
-3.604676 0.523510 39.918827 156 126 138
-3.606622 0.609891 39.940376 172 144 150
-3.608626 0.696375 39.962570 223 204 205
-3.610668 0.782964 39.985180 224 206 203
-3.612731 0.869655 40.008018 168 140 133
-3.614798 0.956446 40.030910 145 111 103
-3.616858 1.043333 40.053730 174 143 134
-3.618903 1.130314 40.076374 196 171 162
-3.620928 1.217386 40.098801 211 192 182
-3.622933 1.304548 40.121002 223 208 199
-3.624922 1.391799 40.143028 206 195 187
-3.626904 1.479142 40.164974 199 189 183
-3.628890 1.566581 40.186974 212 204 200
-3.630897 1.654125 40.209198 184 173 166
-3.632944 1.741784 40.231865 157 141 130
-3.635051 1.829571 40.255199 187 172 161
-3.637242 1.917503 40.279461 193 175 166
-3.639539 2.005597 40.304901 173 146 135
-3.641965 2.093876 40.331768 200 170 159
-3.644542 2.182360 40.360298 237 209 201
-3.647287 2.271073 40.390701 239 211 209
-3.650217 2.360036 40.423153 196 168 171
-3.653345 2.449272 40.457787 168 139 145
-3.656676 2.538798 40.494682 199 170 177
-3.660215 2.628633 40.533871 208 178 187
-3.663960 2.718788 40.575336 187 155 163
-3.667902 2.809275 40.618996 173 141 149
-3.672031 2.900097 40.664726 154 121 129
-3.676333 2.991257 40.712368 158 126 135
-3.680789 3.082751 40.761707 197 171 180
-3.685379 3.174573 40.812538 225 201 211
-3.690082 3.266714 40.864620 200 176 189
-3.694877 3.359164 40.917728 153 129 146
-3.699746 3.451912 40.971645 152 128 149
-3.704671 3.544946 41.026188 174 151 176
-3.709641 3.638258 41.081219 169 144 173
-3.714646 3.731844 41.136654 160 134 165
-3.719686 3.825704 41.192455 179 155 182
-3.724761 3.919842 41.248665 207 185 206
-3.729882 4.014271 41.305370 220 198 216
-3.735060 4.109009 41.362720 212 188 206
-3.740317 4.204081 41.420929 193 163 183
-3.745672 4.299518 41.480236 178 145 164
-3.751151 4.395356 41.540916 176 141 158
-3.756780 4.491633 41.603249 176 140 154
-3.762583 4.588393 41.667511 177 140 151
-3.768584 4.685675 41.733967 181 143 153
-3.774802 4.783520 41.802834 185 146 154
-3.781255 4.881963 41.874283 181 143 151
-3.787950 4.981034 41.948425 175 139 145
-3.794892 5.080755 42.025311 169 136 142
-3.802080 5.181142 42.104904 162 134 140
-3.809504 5.282200 42.187119 155 131 139
-3.817149 5.383925 42.271786 148 131 141
-3.824996 5.486304 42.358688 143 129 142
-3.833020 5.589315 42.447544 138 128 143
-3.841194 5.692932 42.538059 149 141 157
-3.849486 5.797118 42.629894 179 168 188
-3.857867 5.901834 42.722702 200 186 209
-3.866305 6.007041 42.816151 212 194 218
-3.874772 6.112694 42.909908 230 216 232
-3.883240 6.218755 43.003689 236 220 233
-3.891687 6.325185 43.097233 191 161 175
-3.900093 6.431951 43.190319 127 87 97
-3.908441 6.539022 43.282772 104 63 66
-3.916721 6.646375 43.374462 116 74 69
-3.924923 6.753990 43.465294 149 110 102
-3.933043 6.861854 43.555218 182 150 139
-3.941078 6.969954 43.644196 167 141 129
-3.949028 7.078285 43.732231 122 104 94
-3.956891 7.186840 43.819317 100 87 83
-3.964670 7.295614 43.905464 97 86 92
-3.972365 7.404602 43.990669 94 82 97
-3.979971 7.513790 44.074902 97 80 103
-3.987485 7.623167 44.158115 105 81 109
-3.994901 7.732711 44.240242 108 76 106
-4.002209 7.842398 44.321167 106 67 97
-4.009395 7.952193 44.400753 106 62 89
-4.016444 8.062056 44.478813 108 62 84
-4.023338 8.171939 44.555161 109 63 80
-4.030057 8.281792 44.629562 108 63 77
-4.036578 8.391555 44.701778 107 63 75
-4.042881 8.501170 44.771576 105 63 74
-4.048943 8.610575 44.838711 104 63 75
-4.054745 8.719709 44.902966 104 63 76
-4.060271 8.828521 44.964161 104 63 76
-4.065507 8.936959 45.022152 104 62 76
-4.070446 9.044986 45.076843 103 61 74
-4.075085 9.152575 45.128216 103 59 71
-4.079429 9.259716 45.176319 102 57 68
-4.083488 9.366412 45.221272 101 55 65
-4.087283 9.472688 45.263294 100 53 62
-4.090837 9.578584 45.302658 101 52 60
-4.094184 9.684157 45.339725 101 51 59
-4.097361 9.789485 45.374905 101 51 58
-4.100411 9.894657 45.408676 101 50 57
-4.103379 9.999776 45.441544 100 49 56
-4.106312 10.104952 45.474033 98 48 55
-4.109260 10.210301 45.506672 97 48 55
-3.703921 -6.152074 42.021015 165 93 105
-3.698227 -6.052173 41.956417 164 93 105
-3.692444 -5.952406 41.890808 163 92 105
