ply
format ascii 1.0
element vertex 1219
property float x
property float y
property float z
property uchar red
property uchar green
property uchar blue
end_header
11.030161 6.483786 52.690929 114 83 94
11.034507 6.599969 52.711693 89 60 69
11.039027 6.716349 52.733284 71 45 51
11.043616 6.832863 52.755207 64 39 43
11.048159 6.949443 52.776905 61 37 40
11.052537 7.066011 52.797821 59 34 37
11.056629 7.182484 52.817371 58 33 36
11.060316 7.298773 52.834984 60 34 36
11.736948 -4.894827 55.495773 75 41 46
11.721759 -4.769017 55.423954 75 42 46
11.706520 -4.643497 55.351898 76 42 47
11.691214 -4.518261 55.279526 77 43 47
11.675839 -4.393312 55.206829 78 44 48
11.660398 -4.268652 55.133820 80 46 49
11.644904 -4.144288 55.060558 81 47 50
11.629380 -4.020230 54.987156 83 48 51
11.613856 -3.896488 54.913757 85 50 53
11.598374 -3.773076 54.840557 86 50 54
11.582981 -3.650007 54.767769 86 50 54
11.567728 -3.527295 54.695648 86 50 54
11.552676 -3.404954 54.624481 86 51 54
11.537885 -3.282993 54.554543 86 51 55
11.523415 -3.161422 54.486122 86 51 56
11.509326 -3.040246 54.419506 87 51 56
11.495673 -2.919469 54.354950 88 50 56
11.482502 -2.799088 54.292675 88 50 56
11.469851 -2.679096 54.232857 88 49 55
11.457749 -2.559485 54.175640 87 49 53
11.446210 -2.440240 54.121075 88 49 52
11.435235 -2.321346 54.069183 88 50 53
11.424811 -2.202781 54.019897 88 50 53
11.414916 -2.084525 53.973110 88 51 55
11.405515 -1.966556 53.928654 90 54 58
11.396562 -1.848852 53.886322 91 56 61
11.388005 -1.731390 53.845867 94 59 65
11.379792 -1.614152 53.807034 97 60 68
11.371863 -1.497118 53.769543 99 61 69
11.364165 -1.380274 53.733147 100 61 69
11.356647 -1.263607 53.697598 101 62 68
11.349263 -1.147107 53.662682 101 62 68
11.341978 -1.030766 53.628239 101 62 67
11.334763 -0.914579 53.594120 102 62 68
11.327600 -0.798544 53.560253 103 63 69
11.320482 -0.682657 53.526600 103 64 69
11.313408 -0.566917 53.493149 101 63 68
11.306381 -0.451323 53.459927 98 60 65
11.299416 -0.335874 53.426991 94 57 63
11.292527 -0.220569 53.394417 92 54 60
11.285737 -0.105405 53.362312 91 53 57
11.279067 0.009620 53.330772 92 53 56
11.272537 0.124511 53.299900 95 56 57
11.266171 0.239272 53.269794 99 59 60
11.259982 0.353910 53.240536 101 62 62
11.253991 0.468429 53.212208 103 64 64
11.248212 0.582837 53.184879 103 66 65
11.242656 0.697141 53.158607 103 67 66
11.237333 0.811349 53.133442 104 68 67
11.232257 0.925469 53.109444 104 68 67
11.227436 1.039508 53.086647 104 66 67
11.222883 1.153477 53.065121 104 64 68
11.218607 1.267385 53.044903 104 62 69
11.214619 1.381240 53.026047 105 62 69
11.210930 1.495055 53.008602 106 62 71
11.207546 1.608838 52.992603 108 63 73
11.204475 1.722600 52.978085 110 65 76
11.201715 1.836350 52.965034 112 67 77
11.199263 1.950098 52.953434 114 68 78
11.197098 2.063848 52.943199 116 69 79
11.195198 2.177607 52.934216 117 69 78
11.193525 2.291373 52.926308 115 68 76
11.192034 2.405143 52.919254 113 64 73
11.190666 2.518912 52.912788 112 62 71
11.189354 2.632665 52.906586 113 62 72
11.188025 2.746388 52.900303 115 63 74
11.186606 2.860060 52.893597 117 65 77
11.185022 2.973660 52.886101 119 67 80
11.183206 3.087163 52.877514 119 68 81
11.181097 3.200545 52.867542 116 66 78
11.178654 3.313786 52.855991 114 65 76
11.175848 3.426865 52.842724 115 66 77
11.172677 3.539772 52.827728 116 68 78
11.169148 3.652496 52.811047 119 69 79
11.165299 3.765041 52.792847 122 72 81
11.161180 3.877414 52.773369 125 74 83
11.156855 3.989629 52.752918 126 75 83
11.152400 4.101708 52.731857 123 72 80
11.147902 4.213679 52.710583 121 71 77
11.143444 4.325576 52.689510 120 72 77
11.139115 4.437432 52.669041 119 72 78
11.134993 4.549284 52.649548 117 73 79
11.131154 4.661172 52.631397 116 74 81
11.127664 4.773130 52.614895 118 77 84
11.124578 4.885195 52.600307 120 80 88
11.121946 4.997401 52.587860 123 83 94
11.119804 5.109779 52.577736 127 87 100
11.118186 5.222358 52.570080 130 90 106
11.117112 5.335166 52.565002 132 93 109
11.116603 5.448229 52.562595 131 92 110
11.116666 5.561568 52.562897 128 90 110
11.117311 5.675205 52.565941 128 90 110
11.118531 5.789155 52.571712 129 92 111
11.120320 5.903431 52.580173 131 94 113
11.122659 6.018042 52.591232 133 96 114
11.125518 6.132987 52.604748 135 98 115
11.128855 6.248258 52.620525 136 100 116
11.132617 6.363841 52.638313 134 99 113
11.136735 6.479707 52.657784 118 84 97
11.141130 6.595822 52.678570 91 61 71
11.145711 6.712138 52.700230 72 44 52
11.150373 6.828597 52.722271 65 39 44
11.155005 6.945132 52.744171 63 37 41
11.159491 7.061670 52.765381 62 35 38
11.828147 -4.763746 55.362694 74 42 46
11.812970 -4.638443 55.291660 75 43 47
11.797748 -4.513430 55.220413 77 44 48
11.782472 -4.388703 55.148911 78 45 48
11.767145 -4.264266 55.077175 80 46 49
11.751780 -4.140125 55.005253 81 47 49
11.736394 -4.016287 54.933239 82 47 50
11.721019 -3.892764 54.861275 84 49 52
11.705693 -3.769566 54.789539 85 49 52
11.690462 -3.646707 54.718250 84 50 53
11.675379 -3.524200 54.647652 84 50 53
11.660501 -3.402057 54.578011 84 50 54
11.645886 -3.280289 54.509609 85 51 55
11.631597 -3.158904 54.442726 86 51 56
11.617690 -3.037907 54.377632 87 50 56
11.604222 -2.917302 54.314598 87 50 56
11.591235 -2.797084 54.253811 87 49 54
11.578772 -2.677249 54.195473 86 48 53
11.566854 -2.557787 54.139694 85 48 52
11.555500 -2.438683 54.086548 86 48 52
11.544705 -2.319922 54.036022 87 49 52
11.534460 -2.201483 53.988068 87 50 54
11.524738 -2.083345 53.942566 88 52 56
11.515503 -1.965487 53.899338 90 55 59
11.506709 -1.847886 53.858177 92 58 63
11.498305 -1.730521 53.818844 95 60 66
11.490232 -1.613372 53.781059 97 61 69
11.482434 -1.496422 53.744556 100 62 70
11.474854 -1.379656 53.709076 101 62 70
11.467442 -1.263061 53.674381 102 63 70
11.460149 -1.146627 53.640247 102 63 69
11.452941 -1.030348 53.606510 102 62 68
11.445790 -0.914220 53.573044 103 63 68
11.438679 -0.798238 53.539757 104 64 69
11.431600 -0.682402 53.506622 104 65 69
11.424550 -0.566710 53.473625 101 62 66
11.417539 -0.451162 53.440807 97 58 62
11.410578 -0.335756 53.408226 93 54 60
11.403682 -0.220493 53.375950 90 52 57
11.396879 -0.105369 53.344109 89 51 55
11.390186 0.009617 53.312782 90 51 55
11.383630 0.124469 53.282093 94 54 56
11.377229 0.239193 53.252136 98 57 59
11.371005 0.353793 53.223003 101 61 62
11.364971 0.468275 53.194763 104 64 65
11.359148 0.582647 53.167503 104 66 67
11.353543 0.696914 53.141273 105 67 68
11.348173 0.811085 53.116135 106 69 69
11.343045 0.925167 53.092136 106 68 69
11.338173 1.039169 53.069328 106 66 68
11.333566 1.153100 53.047768 105 62 68
11.329235 1.266969 53.027496 105 61 68
11.325194 1.380786 53.008583 105 60 68
11.321450 1.494560 52.991058 106 61 71
11.318015 1.608303 52.974979 109 63 73
11.314893 1.722024 52.960361 110 66 75
11.312083 1.835732 52.947212 111 67 76
11.309582 1.949438 52.935505 113 68 77
11.307372 2.063145 52.925163 115 70 78
11.305429 2.176860 52.916065 116 69 77
11.303714 2.290582 52.908043 114 67 75
11.302178 2.404307 52.900856 112 63 72
11.300765 2.518029 52.894241 112 61 70
11.299402 2.631733 52.887863 112 61 71
11.298017 2.745405 52.881374 114 62 73
11.296531 2.859024 52.874420 116 63 75
11.294867 2.972565 52.866627 118 65 78
11.292952 3.086004 52.857666 117 67 79
11.290730 3.199318 52.847267 115 66 77
11.288155 3.312483 52.835213 113 65 76
11.285196 3.425480 52.821369 114 67 77
11.281853 3.538297 52.805717 116 68 78
11.278136 3.650925 52.788322 118 69 79
11.274082 3.763366 52.769348 121 72 80
11.269746 3.875627 52.749050 124 74 82
11.265198 3.987726 52.727764 126 75 83
11.260519 4.099686 52.705864 124 73 80
11.255798 4.211536 52.683769 121 70 77
11.251126 4.323309 52.661900 120 70 77
11.246594 4.435043 52.640690 119 71 77
11.242288 4.546777 52.620529 117 71 78
11.238283 4.658549 52.601788 115 72 79
11.234648 4.770397 52.584770 116 73 82
11.231441 4.882359 52.569763 117 76 86
11.228711 4.994467 52.556984 121 80 92
11.226494 5.106753 52.546604 125 85 99
11.224819 5.219247 52.538765 129 89 105
11.223709 5.331976 52.533569 132 93 110
11.223178 5.444963 52.531086 132 94 112
11.223235 5.558230 52.531349 129 92 111
11.223881 5.671797 52.534374 127 91 110
11.225114 5.785678 52.540146 128 92 111
11.226920 5.899887 52.548603 130 94 113
11.229281 6.014429 52.559650 132 96 115
11.232166 6.129303 52.573154 134 98 116
11.235534 6.244505 52.588917 136 99 117
11.239329 6.360017 52.606686 134 98 115
11.243489 6.475815 52.626156 119 86 100
11.247933 6.591864 52.646954 93 62 74
11.252572 6.708118 52.668667 74 45 55
11.257305 6.824524 52.690823 67 40 47
11.262022 6.941014 52.712894 66 38 43
11.266608 7.057518 52.734367 64 37 39
11.919355 -4.633466 55.232327 75 42 47
11.904222 -4.508672 55.162197 76 43 48
11.889051 -4.384166 55.091900 78 44 49
11.873846 -4.259952 55.021439 80 46 49
11.858615 -4.136032 54.950863 81 46 49
11.843376 -4.012413 54.880245 82 47 50
11.828157 -3.889106 54.809727 84 48 51
11.812997 -3.766121 54.739475 84 48 51
11.797938 -3.643471 54.669697 83 48 52
11.783031 -3.521167 54.600624 84 49 53
11.768336 -3.399222 54.532524 84 50 54
11.753908 -3.277645 54.465672 85 50 55
11.739808 -3.156444 54.400330 86 51 56
11.726093 -3.035625 54.336777 87 51 57
11.712817 -2.915189 54.275257 87 51 57
11.700025 -2.795133 54.215981 86 49 54
11.687753 -2.675453 54.159119 85 47 52
11.676028 -2.556137 54.104786 85 48 52
11.664863 -2.437173 54.053047 86 48 52
11.654255 -2.318542 54.003891 86 49 53
11.644192 -2.200227 53.957260 87 51 54
11.634645 -2.082205 53.913025 88 53 57
11.625581 -1.964455 53.871021 92 57 61
11.616948 -1.846954 53.831017 96 61 66
11.608694 -1.729683 53.792770 97 63 69
11.600761 -1.612621 53.756012 98 62 70
11.593093 -1.495752 53.720478 99 62 71
11.585628 -1.379060 53.685886 101 63 71
11.578316 -1.262534 53.652004 103 64 71
11.571113 -1.146165 53.618626 104 65 71
11.563979 -1.029946 53.585571 103 64 69
11.556890 -0.913873 53.552719 103 64 68
11.549825 -0.797943 53.519981 104 65 69
11.542779 -0.682156 53.487331 104 64 68
11.535750 -0.566510 53.454762 101 62 65
11.528749 -0.451006 53.422321 96 57 61
11.521789 -0.335642 53.390064 92 53 58
11.514884 -0.220419 53.358070 91 51 56
11.508060 -0.105335 53.326454 90 50 55
11.501344 0.009614 53.295330 92 51 56
11.494756 0.124429 53.264801 95 53 57
11.488319 0.239116 53.234974 98 56 60
11.482054 0.353680 53.205940 102 60 64
11.475977 0.468126 53.177780 105 63 68
11.470104 0.582461 53.150570 107 65 70
11.464450 0.696692 53.124367 108 67 72
11.459026 0.810827 53.099236 110 70 73
11.453843 0.924872 53.075218 110 69 73
11.448915 1.038837 53.052376 108 65 70
11.444248 1.152730 53.030758 106 61 68
11.439859 1.266561 53.010422 106 59 68
11.435759 1.380338 52.991413 106 59 69
11.431954 1.494073 52.973789 108 61 71
11.428459 1.607775 52.957588 110 64 74
11.425278 1.721454 52.942852 111 67 76
11.422413 1.835121 52.929573 112 68 76
11.419856 1.948783 52.917728 113 69 76
11.417595 2.062447 52.907246 114 70 76
11.415599 2.176117 52.898003 114 69 75
11.413836 2.289793 52.889828 113 66 73
11.412252 2.403473 52.882492 112 63 71
11.410787 2.517146 52.875702 111 61 69
11.409372 2.630802 52.869144 112 60 69
11.407927 2.744422 52.862446 113 61 71
11.406372 2.857986 52.855244 114 62 73
11.404628 2.971470 52.847164 115 64 75
11.402621 3.084848 52.837864 115 65 76
11.400290 3.198095 52.827065 114 66 77
11.397590 3.311188 52.814548 114 66 76
11.394489 3.424106 52.800182 114 67 77
11.390985 3.536837 52.783939 115 68 78
11.387090 3.649374 52.765892 117 69 79
11.382843 3.761716 52.746216 120 71 81
11.378305 3.873874 52.725185 124 74 83
11.373547 3.985864 52.703136 126 74 83
11.368654 4.097711 52.680466 125 73 81
11.363723 4.209445 52.657612 121 70 78
11.358847 4.321103 52.635021 120 70 77
11.354124 4.432722 52.613136 118 70 77
11.349641 4.544343 52.592361 117 70 78
11.345479 4.656006 52.573074 115 70 79
11.341709 4.767752 52.555611 115 70 81
11.338389 4.879615 52.540226 115 72 85
11.335567 4.991632 52.527149 119 77 92
11.333282 5.103833 52.516556 123 83 99
11.331557 5.216247 52.508568 127 88 105
11.330418 5.328902 52.503284 131 92 110
11.329872 5.441819 52.500755 132 94 112
11.329927 5.555020 52.501011 130 93 111
11.330583 5.668523 52.504051 128 93 111
11.331833 5.782341 52.509842 129 94 112
11.333663 5.896487 52.518322 130 95 114
11.336052 6.010966 52.529392 132 97 115
11.338969 6.125777 52.542912 134 98 117
11.342373 6.240915 52.558681 137 100 119
11.346209 6.356363 52.576458 137 100 118
11.350413 6.472097 52.595940 124 89 104
11.354909 6.588085 52.616772 98 66 79
11.359607 6.704281 52.638542 77 48 58
11.364408 6.820634 52.660789 69 40 48
11.369206 6.937081 52.683025 67 39 44
11.995548 -4.379689 55.035641 78 44 49
11.980469 -4.255694 54.966454 79 46 50
11.965377 -4.131993 54.897213 81 46 49
11.950289 -4.008593 54.827988 82 47 50
11.935234 -3.885501 54.758915 83 47 51
11.920243 -3.762727 54.690140 83 47 51
11.905364 -3.640284 54.621876 83 48 52
11.890643 -3.518182 54.554337 84 49 53
11.876136 -3.396432 54.487774 85 50 55
11.861902 -3.275045 54.422470 85 50 56
11.847999 -3.154027 54.358681 86 51 57
11.834482 -3.033384 54.296669 87 51 57
11.821406 -2.913116 54.236671 87 51 57
11.808813 -2.793222 54.178898 85 50 55
11.796741 -2.673694 54.123508 84 49 53
11.785213 -2.554523 54.070621 85 48 53
11.774242 -2.435696 54.020287 86 49 54
11.763825 -2.317194 53.972492 86 50 55
11.753946 -2.198999 53.927166 87 51 55
11.744579 -2.081091 53.884190 89 54 58
11.735684 -1.963447 53.843384 94 59 63
11.727213 -1.846045 53.804516 98 63 69
11.719110 -1.728865 53.767338 98 64 71
11.711317 -1.611888 53.731586 97 62 70
11.703773 -1.495097 53.696976 98 61 70
11.696422 -1.378478 53.663242 101 63 71
11.689210 -1.262020 53.630157 104 65 72
11.682092 -1.145713 53.597500 104 66 72
11.675028 -1.029552 53.565090 104 66 71
11.667994 -0.913533 53.532822 104 65 70
11.660973 -0.797654 53.500603 104 65 70
11.653955 -0.681914 53.468410 104 64 68
11.646945 -0.566314 53.436245 101 62 65
11.639951 -0.450852 53.404156 96 57 60
11.632984 -0.335530 53.372192 92 52 57
11.626066 -0.220346 53.340450 91 51 56
11.619223 -0.105300 53.309055 92 51 56
11.612477 0.009611 53.278107 93 51 56
11.605855 0.124389 53.247723 95 51 57
11.599378 0.239040 53.218006 98 54 61
11.593068 0.353568 53.189056 103 58 66
11.586943 0.467978 53.160957 107 62 71
11.581019 0.582277 53.133781 109 64 73
11.575313 0.696472 53.107594 111 66 75
11.569831 0.810570 53.082447 113 69 77
11.564590 0.924579 53.058399 114 69 77
11.559598 1.038507 53.035500 111 65 73
11.554871 1.152362 53.013805 108 60 70
11.550416 1.266153 52.993370 108 58 69
11.546249 1.379891 52.974251 107 58 69
11.542380 1.493585 52.956501 109 60 71
11.538818 1.607246 52.940163 112 65 75
11.535572 1.720882 52.925266 113 69 77
11.532642 1.834505 52.911823 113 70 76
11.530024 1.948123 52.899807 113 70 75
11.527700 2.061742 52.889149 113 69 74
11.525647 2.175365 52.879730 112 68 72
11.523828 2.288995 52.871380 111 65 71
11.522188 2.402626 52.863857 110 62 69
11.520668 2.516250 52.856884 109 59 67
11.519195 2.629856 52.850124 110 59 67
11.517687 2.743424 52.843208 112 59 69
11.516064 2.856933 52.835762 113 61 70
11.514243 2.970360 52.827408 113 63 72
11.512148 3.083676 52.817795 114 64 74
11.509714 3.196858 52.806629 114 65 75
11.506896 3.309880 52.793701 113 66 76
11.503662 3.422724 52.778866 114 66 77
11.500007 3.535373 52.762093 116 67 78
11.495947 3.647822 52.743465 117 69 79
11.491523 3.760072 52.723167 120 70 81
11.486795 3.872132 52.701481 123 73 84
11.481841 3.984019 52.678745 126 73 85
11.476751 4.095760 52.655396 126 73 84
11.471622 4.207387 52.631866 123 71 81
11.466558 4.318936 52.608631 120 69 78
11.461656 4.430447 52.586136 117 68 77
11.457007 4.541963 52.564808 116 69 78
11.452699 4.653524 52.545044 115 68 80
11.448803 4.765172 52.527172 114 69 82
11.445378 4.876944 52.511459 114 71 86
11.442474 4.988874 52.498135 117 75 92
11.440128 5.100996 52.487370 121 81 99
11.438365 5.213338 52.479279 125 86 105
11.437202 5.325924 52.473946 129 91 109
11.436651 5.438778 52.471416 130 95 113
11.436712 5.551919 52.471699 130 96 114
11.437387 5.665364 52.474789 130 97 114
11.438663 5.779126 52.480644 131 97 115
11.440525 5.893216 52.489189 132 98 115
11.442951 6.007639 52.500320 134 99 116
11.445909 6.122394 52.513889 136 100 118
11.449356 6.237474 52.529705 138 102 120
11.453238 6.352864 52.547520 139 103 120
11.457494 6.468541 52.567043 128 93 109
11.462045 6.584473 52.587921 104 71 85
11.466804 6.700615 52.609756 82 51 62
12.086991 -4.251485 54.912090 79 46 49
12.072041 -4.128001 54.844166 80 46 49
12.057109 -4.004816 54.776329 81 47 50
12.042219 -3.881937 54.708687 82 47 51
12.027406 -3.759373 54.641384 83 47 51
12.012708 -3.637134 54.574612 83 48 52
11.998178 -3.515233 54.508602 84 48 54
11.983866 -3.393678 54.443584 85 49 55
11.969831 -3.272479 54.379822 86 51 57
11.956129 -3.151642 54.317574 86 51 58
11.942818 -3.031173 54.257095 86 51 58
11.929946 -2.911072 54.198620 86 51 57
11.917560 -2.791337 54.142345 85 51 56
11.905690 -2.671961 54.088421 85 51 55
11.894364 -2.552933 54.036972 86 51 55
11.883591 -2.434241 53.988026 86 51 56
11.873367 -2.315867 53.941578 87 52 56
11.863675 -2.197792 53.897549 88 53 57
11.854487 -2.079995 53.855804 90 55 60
11.845763 -1.962454 53.816170 94 59 65
11.837453 -1.845150 53.778419 98 62 69
11.829499 -1.728059 53.742283 97 61 69
11.821844 -1.611166 53.707504 95 59 68
11.814424 -1.494452 53.673798 97 60 69
11.807183 -1.377904 53.640900 101 62 72
11.800066 -1.261512 53.608566 104 64 73
11.793029 -1.145266 53.576595 105 66 73
11.786032 -1.029162 53.544807 105 66 73
11.779049 -0.913197 53.513084 105 66 72
11.772066 -0.797367 53.481361 105 65 71
11.765076 -0.681675 53.449604 103 64 69
11.758079 -0.566118 53.417812 101 61 65
11.751085 -0.450699 53.386044 96 56 61
11.744111 -0.335418 53.354359 91 52 56
11.737177 -0.220274 53.322857 91 52 56
11.730308 -0.105266 53.291649 93 52 56
11.723532 0.009607 53.260864 93 51 56
11.716872 0.124349 53.230610 95 51 58
11.710352 0.238963 53.200989 98 53 62
11.703995 0.353455 53.172108 103 56 67
11.697820 0.467829 53.144054 107 59 71
11.691842 0.582092 53.116898 109 62 74
11.686076 0.696251 53.090702 112 65 77
11.680536 0.810312 53.065533 115 68 80
11.675232 0.924284 53.041439 117 68 80
11.670176 1.038173 53.018463 113 63 75
11.665380 1.151990 52.996681 109 59 71
11.660856 1.265741 52.976128 108 57 70
11.656619 1.379439 52.956875 108 57 69
11.652678 1.493091 52.938969 109 60 71
11.649042 1.606708 52.922455 112 65 74
11.645724 1.720301 52.907379 115 70 77
11.642721 1.833878 52.893738 114 71 76
11.640033 1.947450 52.881527 113 71 74
11.637642 2.061021 52.870663 113 69 72
11.635523 2.174596 52.861034 111 67 70
11.633638 2.288176 52.852474 110 65 69
11.631938 2.401757 52.844746 108 61 67
11.630356 2.515330 52.837559 108 59 65
11.628819 2.628883 52.830582 109 59 65
11.627249 2.742398 52.823444 111 59 67
11.625557 2.855851 52.815758 112 61 69
11.623660 2.969220 52.807140 112 62 71
11.621480 3.082476 52.797237 113 63 73
11.618952 3.195594 52.785748 113 64 74
11.616023 3.308548 52.772446 112 65 75
11.612667 3.421319 52.757198 113 66 76
11.608873 3.533891 52.739964 115 67 79
11.604662 3.646257 52.720833 117 69 81
11.600076 3.758419 52.699997 119 70 82
11.595174 3.870387 52.677727 123 72 85
11.590039 3.982178 52.654400 126 74 87
11.584765 4.093820 52.630444 126 74 87
11.579456 4.205345 52.606319 124 73 84
11.574215 4.316792 52.582508 121 70 81
11.569148 4.428202 52.559486 118 69 79
11.564348 4.539618 52.537682 117 69 80
11.559906 4.651084 52.517502 115 69 81
11.555895 4.762641 52.499279 115 69 84
11.552376 4.874328 52.483292 115 72 88
11.549399 4.986179 52.469769 117 76 94
11.547002 5.098227 52.458874 120 81 101
11.545207 5.210501 52.450726 124 86 105
11.544031 5.323025 52.445381 126 91 109
11.543484 5.435822 52.442894 129 95 113
11.543563 5.548909 52.443256 130 98 115
11.544265 5.662303 52.446445 131 100 116
11.545577 5.776017 52.452404 132 101 116
11.547483 5.890059 52.461063 133 101 117
11.549958 6.004434 52.472309 135 101 117
11.552967 6.119140 52.485977 137 102 119
11.556467 6.234170 52.501881 140 104 121
11.560407 6.349510 52.519775 141 106 122
11.564719 6.465136 52.539368 131 96 111
11.569333 6.581017 52.560329 108 75 88
12.178596 -4.124049 54.791664 79 47 49
12.163819 -4.001076 54.725182 81 47 50
12.149096 -3.878407 54.658947 82 48 51
12.134459 -3.756050 54.593094 82 48 51
12.119948 -3.634015 54.527805 83 48 53
12.105610 -3.512311 54.463299 84 48 54
12.091497 -3.390949 54.399807 85 49 55
12.077665 -3.269936 54.337574 86 51 57
12.064171 -3.149280 54.276863 87 52 59
12.051067 -3.028984 54.217907 87 52 59
12.038404 -2.909049 54.160938 87 52 58
12.026226 -2.789471 54.106148 87 52 57
12.014565 -2.670245 54.053688 87 52 57
12.003444 -2.551359 54.003651 87 52 57
11.992870 -2.432801 53.956081 88 53 58
11.982841 -2.314552 53.910957 89 53 59
11.973338 -2.196595 53.868206 91 54 60
11.964330 -2.078908 53.827675 92 55 61
11.955775 -1.961470 53.789188 94 57 64
11.947623 -1.844261 53.752514 96 58 66
11.939818 -1.727259 53.717396 95 57 67
11.932297 -1.610448 53.683559 95 57 67
11.924999 -1.493810 53.650726 99 60 70
11.917864 -1.377332 53.618626 102 62 73
11.910838 -1.261005 53.587017 104 64 74
11.903877 -1.144820 53.555702 105 65 75
11.896943 -1.028772 53.524502 106 66 74
11.890009 -0.912859 53.493305 106 66 73
11.883060 -0.797079 53.462040 104 64 71
11.876091 -0.681433 53.430687 102 63 69
11.869102 -0.565922 53.399250 99 60 65
11.862108 -0.450545 53.367783 96 57 61
11.855124 -0.335305 53.336357 93 53 58
11.848168 -0.220200 53.305065 93 52 57
11.841271 -0.105231 53.274036 94 52 57
11.834460 0.009604 53.243393 95 52 58
11.827761 0.124309 53.213249 97 52 60
11.821197 0.238886 53.183716 100 54 63
11.814789 0.353340 53.154892 103 55 67
11.808560 0.467678 53.126869 106 58 70
11.802526 0.581904 53.099720 109 61 73
11.796700 0.696025 53.073509 112 63 76
11.791098 0.810049 53.048306 116 67 80
11.785728 0.923982 53.024143 118 67 81
11.780602 1.037833 53.001087 114 62 76
11.775735 1.151609 52.979183 110 58 72
11.771138 1.265321 52.958508 109 57 71
11.766824 1.378976 52.939095 109 58 70
11.762804 1.492584 52.921009 110 60 71
11.759091 1.606157 52.904308 112 65 73
11.755693 1.719704 52.889019 115 70 76
11.752612 1.833234 52.875156 116 72 76
11.749846 1.946757 52.862709 115 71 73
11.747379 2.060278 52.851612 113 69 70
11.745187 2.173803 52.841751 110 66 68
11.743231 2.287331 52.832951 109 64 67
11.741461 2.400859 52.824989 108 61 65
11.739814 2.514379 52.817577 107 59 64
11.738212 2.627877 52.810368 109 59 64
11.736574 2.741336 52.803001 110 60 66
11.734813 2.854733 52.795074 111 61 68
11.732842 2.968043 52.786213 111 61 70
11.730582 3.081239 52.776043 112 62 72
11.727964 3.194293 52.764267 111 63 74
11.724935 3.307181 52.750637 111 64 75
11.721466 3.419881 52.735031 112 66 77
11.717548 3.532379 52.717403 114 67 80
11.713201 3.644667 52.697842 116 69 82
11.708465 3.756746 52.676533 119 71 84
11.703406 3.868627 52.653778 122 72 87
11.698108 3.980328 52.629940 125 74 90
11.692668 4.091877 52.605465 128 76 91
11.687193 4.203307 52.580833 126 75 89
11.681790 4.314659 52.556530 123 72 85
11.676571 4.425974 52.533047 120 70 82
11.671634 4.537299 52.510834 118 69 82
11.667069 4.648675 52.490299 117 70 84
11.662954 4.760147 52.471783 116 70 87
11.659353 4.871754 52.455582 117 73 91
11.656314 4.983531 52.441910 119 77 96
11.653875 5.095512 52.430939 120 81 101
11.652060 5.207724 52.422768 123 87 106
11.650882 5.320192 52.417469 126 92 111
11.650348 5.432937 52.415066 129 97 115
11.650455 5.545978 52.415554 131 101 116
11.651197 5.659328 52.418892 131 102 117
11.652559 5.773001 52.425014 133 103 117
11.654520 5.887002 52.433838 134 103 117
11.657054 6.001336 52.445240 136 104 118
11.660127 6.116002 52.459061 138 104 119
11.663692 6.230991 52.475105 140 105 121
11.667699 6.346289 52.493130 142 107 121
11.672081 6.461873 52.512848 134 100 113
11.676766 6.577712 52.533928 110 78 90
12.255857 -3.874909 54.609642 81 48 51
12.241397 -3.752756 54.545208 82 49 52
12.227073 -3.630921 54.481380 83 49 53
12.212929 -3.509413 54.418358 84 49 54
12.199017 -3.388241 54.356365 85 49 55
12.185390 -3.267413 54.295650 86 51 57
12.172104 -3.146935 54.236450 88 52 59
12.159210 -3.026810 54.179001 88 52 59
12.146760 -2.907039 54.123520 88 53 59
12.134791 -2.787617 54.070194 88 53 58
12.123340 -2.668540 54.019165 88 53 58
12.112425 -2.549795 53.970535 89 53 58
12.102053 -2.431369 53.924316 90 54 60
12.092218 -2.313245 53.880497 92 55 61
12.082903 -2.195404 53.838989 93 56 62
12.074074 -2.077826 53.799648 94 55 62
12.065688 -1.960489 53.762283 94 55 63
12.057694 -1.843374 53.726665 95 54 64
12.050034 -1.726460 53.692528 94 54 65
12.042643 -1.609729 53.659599 96 55 67
12.035461 -1.493166 53.627598 101 59 71
12.028429 -1.376758 53.596264 104 62 74
12.021491 -1.260495 53.565350 106 64 75
12.014604 -1.144370 53.534660 106 64 75
12.007728 -1.028378 53.504021 106 65 74
12.000835 -0.912518 53.473312 105 65 73
11.993916 -0.796788 53.442482 104 63 71
11.986965 -0.681189 53.411510 101 61 69
11.979982 -0.565722 53.380398 99 59 66
11.972983 -0.450388 53.349209 96 56 62
11.965983 -0.335189 53.318020 94 54 60
11.959004 -0.220125 53.286922 94 53 59
11.952078 -0.105196 53.256058 95 52 58
11.945230 0.009601 53.225540 96 53 59
11.938486 0.124267 53.195496 98 53 61
11.931874 0.238806 53.166035 100 54 64
11.925416 0.353223 53.137257 103 55 66
11.919132 0.467523 53.109257 105 57 69
11.913038 0.581711 53.082104 107 59 71
11.907150 0.695794 53.055874 110 62 74
11.901482 0.809779 53.030613 114 65 78
11.896044 0.923673 53.006382 116 65 80
11.890848 1.037483 52.983231 114 62 77
11.885906 1.151219 52.961212 111 59 73
11.881231 1.264887 52.940380 110 59 72
11.876836 1.378499 52.920795 109 59 71
11.872735 1.492063 52.902523 110 61 70
11.868937 1.605589 52.885601 112 65 71
11.865455 1.719088 52.870083 114 68 73
11.862289 1.832569 52.855976 115 70 73
11.859439 1.946041 52.843277 114 70 71
11.856890 2.059511 52.831917 112 67 69
11.854617 2.172982 52.821793 110 66 67
11.852583 2.286456 52.812733 109 64 66
11.850739 2.399929 52.804516 108 62 65
11.849020 2.513392 52.796852 107 60 64
11.847349 2.626834 52.789410 109 60 64
11.845642 2.740236 52.781803 110 60 66
11.843812 2.853575 52.773647 110 60 68
11.841769 2.966825 52.764545 110 61 69
11.839432 3.079959 52.754131 110 62 71
11.836731 3.192951 52.742096 110 62 73
11.833611 3.305773 52.728191 110 63 75
11.830039 3.418406 52.712280 111 65 77
11.826010 3.530833 52.694324 112 67 80
11.821538 3.643046 52.674400 115 69 83
11.816669 3.755047 52.652706 119 71 86
11.811470 3.866846 52.629536 122 72 89
11.806025 3.978462 52.605274 125 74 92
11.800435 4.089924 52.580368 128 76 93
11.794809 4.201266 52.555302 127 76 92
11.789264 4.312529 52.530590 123 73 88
11.783906 4.423756 52.506718 121 71 86
11.778845 4.534994 52.484165 119 71 86
11.774171 4.646288 52.463341 118 71 87
11.769963 4.757681 52.444595 118 72 90
11.766290 4.869213 52.428226 118 74 93
11.763200 4.980923 52.414455 119 77 96
11.760729 5.092840 52.403446 120 81 100
11.758904 5.204997 52.395313 122 87 105
11.757734 5.317414 52.390102 126 93 110
11.757225 5.430115 52.387836 131 99 116
11.757373 5.543115 52.388489 132 103 116
11.758165 5.656428 52.392021 132 103 116
11.759589 5.770066 52.398365 133 104 117
11.761619 5.884035 52.407410 134 104 117
11.764227 5.998337 52.419033 136 104 117
11.767376 6.112971 52.433064 138 105 118
11.771021 6.227927 52.449306 140 106 118
11.775108 6.343192 52.467518 142 107 120
11.779572 6.458742 52.487404 133 100 111
12.348223 -3.749490 54.497738 81 48 51
12.334082 -3.627852 54.435329 83 48 52
12.320130 -3.506536 54.373756 84 49 53
12.306418 -3.385553 54.313236 86 50 55
12.292995 -3.264907 54.253998 88 51 57
12.279918 -3.144605 54.196281 89 52 58
12.267237 -3.024649 54.140316 90 52 59
12.254999 -2.905040 54.086308 90 53 59
12.243243 -2.785773 54.034420 90 54 59
12.232000 -2.666842 53.984802 90 54 60
12.221291 -2.548236 53.937534 91 54 59
12.211121 -2.429941 53.892651 92 55 60
12.201481 -2.311940 53.850105 94 56 62
12.192350 -2.194214 53.809811 95 57 62
12.183698 -2.076743 53.771626 95 56 63
12.175479 -1.959507 53.735348 96 55 63
12.167640 -1.842485 53.700752 95 52 63
12.160119 -1.725657 53.667561 94 51 64
12.152856 -1.609006 53.635506 97 53 67
12.145786 -1.492517 53.604301 102 58 72
12.138851 -1.376178 53.573696 105 61 75
12.131997 -1.259979 53.543446 106 62 75
12.125176 -1.143914 53.513344 106 63 75
12.118353 -1.027979 53.483231 106 63 74
12.111501 -0.912171 53.452988 104 63 73
12.104608 -0.796491 53.422565 103 62 71
12.097668 -0.680939 53.391941 100 60 68
12.090688 -0.565518 53.361130 98 57 66
12.083680 -0.450228 53.330208 96 55 63
12.076662 -0.335071 53.299229 95 54 61
12.069658 -0.220048 53.268318 95 53 59
12.062697 -0.105159 53.237598 96 52 59
12.055810 0.009598 53.207203 97 53 60
12.049021 0.124225 53.177242 98 54 62
12.042361 0.238725 53.147846 100 55 64
12.035849 0.353103 53.119106 102 56 65
12.029508 0.467363 53.091122 104 57 67
12.023354 0.581512 53.063957 105 58 69
12.017403 0.695556 53.037697 107 61 72
12.011667 0.809500 53.012383 110 63 76
12.006159 0.923354 52.988071 113 63 77
12.000890 1.037123 52.964813 113 62 76
11.995870 1.150815 52.942661 111 61 74
11.991116 1.264441 52.921677 110 60 73
11.986638 1.378007 52.901920 109 60 71
11.982450 1.491525 52.883434 110 62 69
11.978565 1.605003 52.866291 110 63 69
11.974993 1.718452 52.850521 111 65 69
11.971737 1.831882 52.836155 112 66 69
11.968796 1.945301 52.823174 112 66 68
11.966160 2.058716 52.811539 111 65 67
11.963800 2.172132 52.801128 110 65 66
11.961684 2.285549 52.791786 110 64 66
11.959761 2.398964 52.783298 109 63 65
11.957965 2.512370 52.775372 109 62 65
11.956222 2.625753 52.767677 110 61 65
11.954444 2.739095 52.759830 110 60 66
11.952543 2.852374 52.751442 110 61 67
11.950431 2.965564 52.742119 110 61 68
11.948021 3.078637 52.731483 110 61 70
11.945243 3.191566 52.719227 109 62 73
11.942039 3.304325 52.705090 109 63 75
11.938378 3.416891 52.688927 109 64 77
11.934248 3.529249 52.670700 111 66 80
11.929668 3.641392 52.650490 113 69 84
11.924682 3.753319 52.628479 117 70 87
11.919356 3.865041 52.604977 120 71 90
11.913780 3.976579 52.580368 123 73 92
11.908056 4.087959 52.555103 125 74 93
11.902297 4.199219 52.529690 124 73 91
11.896621 4.310398 52.504635 122 72 89
11.891142 4.421544 52.480457 120 72 88
11.885968 4.532701 52.457619 120 72 89
11.881196 4.643917 52.436562 120 72 90
11.876910 4.755236 52.417645 120 73 92
11.873175 4.866700 52.401161 119 75 95
11.870044 4.978345 52.387341 119 78 97
11.867553 5.090207 52.376347 119 82 100
11.865726 5.202312 52.368286 120 85 103
11.864575 5.314684 52.363209 124 91 108
11.864102 5.427345 52.361118 130 98 113
11.864302 5.540311 52.361996 132 103 116
11.865158 5.653594 52.365780 133 104 116
11.866655 5.767205 52.372387 134 105 116
11.868768 5.881149 52.381710 135 104 116
11.871464 5.995428 52.393608 136 104 116
11.874703 6.110038 52.407906 137 103 115
11.878444 6.224971 52.424412 137 102 114
11.882624 6.340211 52.442860 138 103 114
12.440987 -3.624810 54.389690 83 48 51
12.427226 -3.503685 54.329533 85 49 53
12.413711 -3.382885 54.270443 87 49 54
12.400491 -3.262419 54.212650 89 50 56
12.387621 -3.142290 54.156387 90 51 57
12.375150 -3.022501 54.101864 91 52 58
12.363123 -2.903051 54.049286 91 53 59
12.351579 -2.783937 53.998814 92 54 60
12.340544 -2.665151 53.950569 93 56 60
12.330039 -2.546682 53.904648 93 56 60
12.320067 -2.428516 53.861053 95 56 61
12.310619 -2.310637 53.819748 96 57 63
12.301673 -2.193024 53.780636 97 57 63
12.293193 -2.075660 53.743565 97 56 63
12.285136 -1.958522 53.708340 97 55 64
12.277446 -1.841592 53.674721 97 53 64
12.270061 -1.724849 53.642437 96 52 64
12.262921 -1.608278 53.611221 99 54 67
12.255960 -1.491862 53.580784 103 57 71
12.249117 -1.375592 53.550873 106 60 73
12.242339 -1.259457 53.521240 106 61 73
12.235581 -1.143452 53.491695 106 61 73
12.228806 -1.027572 53.462074 104 61 72
12.221988 -0.911817 53.432266 103 61 70
12.215115 -0.796187 53.402222 101 60 69
12.208186 -0.680684 53.371929 100 58 67
12.201202 -0.565308 53.341400 99 57 66
12.194182 -0.450063 53.310707 97 56 64
12.187143 -0.334950 53.279934 96 54 62
12.180111 -0.219969 53.249191 95 53 61
12.173116 -0.105122 53.218605 96 53 60
12.166185 0.009594 53.188313 97 53 61
12.159352 0.124181 53.158436 99 54 63
12.152639 0.238640 53.129089 100 55 64
12.146074 0.352978 53.100388 101 56 64
12.139675 0.467198 53.072411 102 57 65
12.133459 0.581307 53.045238 104 59 68
12.127444 0.695310 53.018944 106 60 71
12.121640 0.809213 52.993568 108 62 73
12.116061 0.923024 52.969177 110 62 75
12.110718 1.036751 52.945812 111 62 75
12.105620 1.150400 52.923531 111 62 74
12.100785 1.263980 52.902390 110 62 72
12.096223 1.377500 52.882446 109 62 70
12.091947 1.490969 52.863750 109 62 68
12.087971 1.604398 52.846371 109 62 67
12.084306 1.717796 52.830345 109 62 66
12.080957 1.831173 52.815708 110 64 66
12.077923 1.944537 52.802441 111 65 68
12.075192 2.057896 52.790504 112 66 68
12.072743 2.171254 52.779797 111 65 67
12.070539 2.284613 52.770161 111 64 67
12.068531 2.397968 52.761383 110 63 66
12.066655 2.511314 52.753181 110 62 66
12.064836 2.624636 52.745224 111 61 66
12.062985 2.737917 52.737141 111 61 66
12.061015 2.851135 52.728523 111 61 67
12.058835 2.964263 52.718990 111 61 68
12.056355 3.077275 52.708157 110 62 70
12.053506 3.190142 52.695698 109 62 72
12.050227 3.302837 52.681358 108 63 73
12.046484 3.415339 52.664997 108 64 76
12.042266 3.527632 52.646557 110 65 79
12.037591 3.639707 52.626122 112 68 82
12.032501 3.751564 52.603867 116 69 86
12.027066 3.863214 52.580105 118 71 88
12.021375 3.974677 52.555222 121 72 90
12.015532 4.085982 52.529678 122 72 91
12.009655 4.197164 52.503986 122 71 89
12.003863 4.308267 52.478668 120 71 88
11.998275 4.419334 52.454235 120 72 89
11.993004 4.530417 52.431190 121 73 90
11.988147 4.641560 52.409958 121 74 92
11.983790 4.752810 52.390911 121 75 94
11.980004 4.864211 52.374359 120 77 96
11.976842 4.975799 52.360535 120 79 99
11.974340 5.087607 52.349598 120 82 101
11.972522 5.199666 52.341652 121 86 103
11.971400 5.311999 52.336746 125 91 107
11.970974 5.424626 52.334881 129 97 111
11.971235 5.537563 52.336025 133 102 115
11.972169 5.650823 52.340107 134 105 116
11.973754 5.764413 52.347034 135 105 116
11.975962 5.878340 52.356686 135 104 116
11.978760 5.992603 52.368919 135 102 114
11.982107 6.107199 52.383553 135 100 112
11.985953 6.222116 52.400368 133 97 109
12.520912 -3.380243 54.228058 88 49 54
12.507893 -3.259952 54.171669 90 50 55
12.495227 -3.139994 54.116814 92 52 57
12.482962 -3.020368 54.063690 93 52 58
12.471144 -2.901076 54.012508 93 53 59
12.459805 -2.782112 53.963402 95 55 60
12.448977 -2.663468 53.916504 96 57 60
12.438673 -2.545134 53.871880 96 57 60
12.428896 -2.427095 53.829536 96 57 61
12.419637 -2.309335 53.789433 97 57 62
12.410870 -2.191835 53.751465 98 57 63
12.402559 -2.074575 53.715469 99 57 64
12.394659 -1.957534 53.681252 99 56 64
12.387112 -1.840694 53.648567 99 55 64
12.379859 -1.724036 53.617153 99 54 64
12.372834 -1.607543 53.586727 100 54 66
12.365973 -1.491201 53.557014 104 57 69
12.359217 -1.374998 53.527756 106 60 71
12.352511 -1.258927 53.498714 106 60 71
12.345809 -1.142981 53.469685 104 60 70
12.339076 -1.027158 53.440525 102 59 68
12.332287 -0.911457 53.411121 101 59 67
12.325431 -0.795877 53.381428 100 58 67
12.318507 -0.680423 53.351440 100 58 66
12.311518 -0.565094 53.321167 99 57 66
12.304482 -0.449894 53.290699 99 56 65
12.297421 -0.334825 53.260113 97 55 63
12.290357 -0.219888 53.229519 96 53 62
12.283322 -0.105083 53.199055 96 53 61
12.276350 0.009591 53.168858 97 54 62
12.269469 0.124135 53.139057 99 55 63
12.262706 0.238554 53.109764 100 56 63
12.256084 0.352850 53.081085 100 56 63
12.249626 0.467028 53.053116 101 58 65
12.243350 0.581095 53.025936 103 60 68
12.237271 0.695056 52.999607 105 61 70
12.231400 0.808917 52.974182 107 63 72
12.225750 0.922685 52.949711 108 63 73
12.220332 1.036367 52.926243 110 63 74
12.215158 1.149971 52.903835 111 64 74
12.210240 1.263505 52.882538 111 64 72
12.205592 1.376978 52.862404 110 64 69
12.201228 1.490398 52.843506 109 63 66
12.197161 1.603776 52.825890 108 61 64
12.193401 1.717122 52.809605 107 60 63
12.189957 1.830444 52.794685 109 62 65
12.186826 1.943752 52.781128 113 66 69
12.184000 2.057054 52.768890 114 67 70
12.181457 2.170352 52.757874 113 66 69
12.179161 2.283650 52.747929 112 65 68
12.177065 2.396944 52.738853 112 63 67
12.175106 2.510228 52.730370 111 62 67
12.173207 2.623487 52.722145 111 61 67
12.171284 2.736706 52.713818 112 61 67
12.169244 2.849861 52.704979 112 61 67
12.166995 2.962928 52.695240 111 62 68
12.164450 3.075878 52.684219 110 62 69
12.161533 3.188683 52.671589 109 62 70
12.158187 3.301316 52.657093 107 63 72
12.154371 3.413755 52.640568 107 64 74
12.150077 3.525984 52.621971 109 65 76
12.145318 3.637994 52.601360 111 67 79
12.140140 3.749785 52.578930 114 68 82
12.134608 3.861368 52.554974 117 70 85
12.128816 3.972761 52.529888 120 72 88
12.122869 4.083995 52.504135 122 72 90
12.116889 4.195105 52.478230 122 71 89
12.110996 4.306136 52.452709 120 70 89
12.105312 4.417132 52.428093 120 71 89
12.099956 4.528144 52.404892 121 72 91
12.095024 4.639220 52.383537 123 75 94
12.090610 4.750407 52.364414 122 77 96
12.086782 4.861748 52.347839 121 78 98
12.083596 4.973281 52.334042 122 81 101
12.081093 5.085042 52.323200 122 83 103
12.079295 5.197059 52.315411 123 86 104
12.078210 5.309357 52.310715 127 93 109
12.077840 5.421955 52.309113 133 100 114
12.078176 5.534869 52.310562 135 103 116
12.079196 5.648110 52.314983 137 104 117
12.080880 5.761687 52.322277 137 104 116
12.083198 5.875603 52.332314 136 102 115
12.086113 5.989859 52.344940 136 100 112
12.089580 6.104447 52.359955 134 96 109
12.615228 -3.257514 54.131157 91 50 56
12.602759 -3.137722 54.077660 93 52 57
12.590698 -3.018257 54.025902 95 53 58
12.579082 -2.899118 53.976055 96 54 59
12.567946 -2.780301 53.928280 97 55 60
12.557319 -2.661797 53.882675 98 57 60
12.547211 -2.543595 53.839298 97 57 59
12.537624 -2.425681 53.798164 96 57 60
12.528546 -2.308038 53.759216 97 57 62
12.519953 -2.190647 53.722340 99 57 63
12.511806 -2.073490 53.687378 99 57 64
12.504055 -1.956545 53.654121 100 57 64
12.496646 -1.839794 53.622330 100 56 64
12.489515 -1.723219 53.591736 100 54 63
12.482599 -1.606803 53.562057 100 54 64
12.475834 -1.490533 53.533028 104 57 67
12.469157 -1.374398 53.504379 106 59 69
12.462516 -1.258390 53.475883 105 59 69
12.455865 -1.142503 53.447342 103 58 66
12.449168 -1.026737 53.418606 100 56 64
12.442403 -0.911089 53.389576 99 56 63
12.435557 -0.795561 53.360207 99 57 63
12.428633 -0.680155 53.330494 100 57 65
12.421636 -0.564875 53.300468 100 57 65
12.414582 -0.449721 53.270203 100 57 65
12.407494 -0.334697 53.239784 99 56 64
12.400397 -0.219805 53.209332 97 54 63
12.393324 -0.105043 53.178986 96 53 62
12.386309 0.009587 53.148880 97 54 62
12.379379 0.124089 53.119148 99 55 63
12.372564 0.238464 53.089905 99 55 63
12.365888 0.352718 53.061253 99 56 63
12.359371 0.466854 53.033295 101 58 65
12.353035 0.580878 53.006104 103 60 67
12.346893 0.694796 52.979752 104 62 69
12.340956 0.808613 52.954273 106 63 71
12.335237 0.922337 52.929733 108 64 72
12.329745 1.035974 52.906170 111 65 73
12.324496 1.149533 52.883648 113 67 73
12.319498 1.263019 52.862198 113 68 72
12.314767 1.376444 52.841900 113 67 69
12.310313 1.489814 52.822792 110 65 66
12.306156 1.603141 52.804951 108 63 63
12.302301 1.716433 52.788414 107 60 62
12.298761 1.829700 52.773220 109 62 64
12.295531 1.942951 52.759361 113 67 69
12.292607 2.056193 52.746815 115 68 71
12.289968 2.169431 52.735485 114 66 70
12.287579 2.282668 52.725239 112 65 69
12.285393 2.395899 52.715855 112 63 68
12.283348 2.509119 52.707081 111 62 67
12.281369 2.622315 52.698589 111 61 67
12.279368 2.735470 52.690006 112 61 67
12.277258 2.848562 52.680950 112 62 68
12.274943 2.961566 52.671017 111 62 68
12.272334 3.074454 52.659824 110 63 69
12.269355 3.187196 52.647041 108 62 69
12.265946 3.299769 52.632412 107 63 70
12.262067 3.412147 52.615765 107 64 71
12.257703 3.524314 52.597042 108 65 73
12.252872 3.636262 52.576313 111 66 76
12.247614 3.747990 52.553753 114 68 79
12.242002 3.859508 52.529667 116 69 82
12.236122 3.970837 52.504440 119 71 85
12.230086 4.082004 52.478542 122 72 88
12.224015 4.193048 52.452488 122 72 89
12.218035 4.304011 52.426830 121 70 88
12.212269 4.414941 52.402084 120 70 88
12.206836 4.525888 52.378777 121 72 90
12.201842 4.636901 52.357346 124 76 95
12.197378 4.748028 52.338192 123 78 97
12.193519 4.859313 52.321629 123 79 98
12.190320 4.970797 52.307907 124 82 102
12.187822 5.082514 52.297188 124 84 103
12.186049 5.194493 52.289581 124 86 104
12.185012 5.306760 52.285130 130 93 110
12.184709 5.419334 52.283829 135 101 116
12.185125 5.532229 52.285614 138 103 117
12.186245 5.645458 52.290421 138 103 117
12.188040 5.759027 52.298122 138 102 116
12.190479 5.872939 52.308586 137 100 113
12.193523 5.987194 52.321651 135 96 110
12.698390 -3.016174 53.988617 96 54 60
12.686972 -2.897185 53.940071 97 55 60
12.676031 -2.778511 53.893559 98 56 60
12.665597 -2.660143 53.849194 98 57 59
12.655678 -2.542070 53.807022 97 57 59
12.646275 -2.424277 53.767040 96 57 59
12.637372 -2.306749 53.729195 97 57 61
12.628942 -2.189465 53.693352 98 57 63
12.620949 -2.072408 53.659367 98 57 63
12.613341 -1.955557 53.627026 99 57 63
12.606061 -1.838893 53.596069 100 56 63
12.599046 -1.722399 53.566246 100 54 61
12.592232 -1.606059 53.537273 101 55 62
12.585551 -1.489860 53.508869 106 59 67
12.578947 -1.373792 53.480789 108 62 69
12.572364 -1.257846 53.452805 106 60 68
12.565756 -1.142020 53.424709 102 58 64
12.559091 -1.026309 53.396370 99 55 61
12.552342 -0.910715 53.367683 98 55 61
12.545504 -0.795239 53.338604 98 57 61
12.538575 -0.679883 53.309147 100 58 63
12.531566 -0.564651 53.279346 101 59 65
12.524489 -0.449545 53.249260 101 58 65
12.517372 -0.334567 53.219002 100 57 65
12.510242 -0.219719 53.188683 98 54 64
12.503128 -0.105003 53.158440 96 53 62
12.496068 0.009584 53.128422 97 54 63
12.489091 0.124041 53.098759 99 56 64
12.482224 0.238373 53.069569 100 56 64
12.475494 0.352583 53.040951 100 57 64
12.468922 0.466675 53.013008 101 59 65
12.462526 0.580656 52.985817 102 61 66
12.456323 0.694529 52.959442 104 62 67
12.450321 0.808302 52.933926 106 63 68
12.444536 0.921981 52.909332 108 64 70
12.438975 1.035573 52.885689 112 66 72
12.433652 1.149085 52.863056 115 69 73
12.428577 1.262524 52.841480 115 70 72
12.423763 1.375900 52.821011 115 69 69
12.419227 1.489220 52.801723 113 67 66
12.414979 1.602494 52.783665 110 64 63
12.411033 1.715733 52.766888 108 61 61
12.407395 1.828944 52.751419 110 63 64
12.404070 1.942138 52.737282 113 66 68
12.401047 2.055321 52.724430 114 66 69
12.398310 2.168498 52.712795 113 65 69
12.395824 2.281672 52.702229 111 64 68
12.393547 2.394840 52.692547 111 62 68
12.391413 2.507995 52.683472 111 62 68
12.389351 2.621126 52.674702 112 62 68
12.387274 2.734217 52.665874 112 62 67
12.385091 2.847245 52.656593 112 62 67
12.382710 2.960186 52.646465 111 63 68
12.380038 3.073011 52.635113 110 63 68
12.377000 3.185692 52.622192 108 62 68
12.373533 3.298204 52.607452 106 62 67
12.369595 3.410522 52.590706 106 63 68
12.365172 3.522630 52.571903 108 65 69
12.360277 3.634518 52.551094 111 67 73
12.354953 3.746186 52.528458 115 70 77
12.349270 3.857644 52.504292 117 71 80
12.343315 3.968911 52.478977 119 70 82
12.337203 4.080017 52.452991 121 71 84
12.331055 4.190998 52.426853 122 72 87
12.324999 4.301899 52.401104 122 71 87
12.319160 4.412767 52.376282 121 71 88
12.313663 4.523653 52.352913 122 73 90
12.308617 4.634608 52.331451 124 76 94
12.304113 4.745680 52.312305 124 78 96
12.300229 4.856914 52.295795 124 80 99
12.297026 4.968352 52.282173 125 83 102
12.294542 5.080028 52.271614 126 85 105
12.292804 5.191974 52.264221 127 88 107
12.291820 5.304213 52.260036 131 93 111
12.291589 5.416767 52.259056 135 98 116
12.292097 5.529648 52.261219 137 100 117
12.293324 5.642869 52.266434 138 100 117
12.295242 5.756436 52.274590 138 99 115
12.794851 -2.895285 53.904697 97 56 61
12.784099 -2.776750 53.859394 97 57 60
12.773848 -2.658513 53.816208 97 58 60
12.764110 -2.540565 53.775181 97 58 60
12.754879 -2.422891 53.736290 97 58 61
12.746141 -2.305473 53.699482 98 58 62
12.737867 -2.188294 53.664623 98 58 63
12.730019 -2.071334 53.631554 98 57 63
12.722544 -1.954574 53.600063 99 56 62
12.715384 -1.837995 53.569897 99 56 61
12.708474 -1.721581 53.540787 99 55 60
12.701751 -1.605315 53.512463 103 58 63
12.695148 -1.489186 53.484650 110 64 70
12.688607 -1.373183 53.457088 114 68 74
12.682074 -1.257300 53.429562 109 64 70
12.675502 -1.141532 53.401875 103 59 64
12.668859 -1.025877 53.373890 99 56 61
12.662124 -0.910337 53.345512 99 56 60
12.655287 -0.794913 53.316708 100 58 62
12.648351 -0.679607 53.287487 101 59 64
12.641322 -0.564423 53.257877 102 60 65
12.634224 -0.449365 53.227970 102 60 66
12.627076 -0.334434 53.197857 101 58 66
12.619908 -0.219633 53.167660 99 55 64
12.612755 -0.104961 53.137524 97 52 62
12.605651 0.009580 53.107594 98 53 62
12.598626 0.123993 53.077999 101 57 64
12.591709 0.238280 53.048859 102 59 65
12.584927 0.352446 53.020283 102 59 65
12.578300 0.466494 52.992367 102 60 65
12.571849 0.580429 52.965183 102 62 65
12.565586 0.694259 52.938801 104 62 65
12.559525 0.807987 52.913269 106 63 66
12.553677 0.921621 52.888626 108 64 68
12.548050 1.035167 52.864922 112 66 71
12.542656 1.148632 52.842197 115 69 72
12.537509 1.262023 52.820515 116 69 70
12.532619 1.375350 52.799908 115 69 68
12.528000 1.488620 52.780453 115 68 66
12.523666 1.601843 52.762196 112 65 64
12.519629 1.715027 52.745186 110 62 61
12.515900 1.828183 52.729473 111 62 64
12.512478 1.941319 52.715057 113 65 68
12.509358 2.054443 52.701912 113 64 68
12.506524 2.167559 52.689972 111 63 68
12.503942 2.280670 52.679096 110 62 68
12.501570 2.393774 52.669102 110 61 69
12.499347 2.506865 52.659733 111 62 69
12.497199 2.619931 52.650688 112 63 69
12.495044 2.732957 52.641605 112 62 67
12.492787 2.845921 52.632099 111 62 67
12.490337 2.958797 52.621777 111 62 67
12.487604 3.071560 52.610264 109 62 66
12.484508 3.184180 52.597218 106 62 65
12.480984 3.296631 52.582375 105 61 64
12.476994 3.408891 52.565559 104 61 65
12.472516 3.520941 52.546696 107 63 66
12.467566 3.632771 52.525845 110 66 70
12.462185 3.744382 52.503170 114 69 74
12.456440 3.855783 52.478966 117 71 78
12.450423 3.966993 52.453621 118 70 79
12.444245 4.078041 52.427593 119 70 81
12.438031 4.188964 52.401413 122 71 84
12.431911 4.299808 52.375629 122 71 86
12.426014 4.410618 52.350780 121 71 86
12.420462 4.521448 52.327393 122 72 88
12.415371 4.632349 52.305943 124 74 91
12.410836 4.743370 52.286839 125 77 95
12.406938 4.854557 52.270416 125 80 98
12.403733 4.965951 52.256916 125 82 101
12.401270 5.077591 52.246540 127 86 106
12.399572 5.189507 52.239384 128 89 109
12.398649 5.301723 52.235497 131 92 111
12.398499 5.414259 52.234863 133 95 114
12.399106 5.527130 52.237423 134 98 116
12.882114 -2.656916 53.783878 97 58 62
12.872543 -2.539089 53.743919 98 59 63
12.863476 -2.421528 53.706062 98 60 64
12.854892 -2.304217 53.670223 99 60 64
12.846764 -2.187138 53.636284 99 59 64
12.839046 -2.070272 53.604065 99 58 64
12.831692 -1.953600 53.573360 98 57 62
12.824639 -1.837104 53.543915 98 55 60
12.817826 -1.720766 53.515469 98 55 60
12.811183 -1.604573 53.487736 105 61 65
12.804647 -1.488512 53.460449 115 70 75
12.798161 -1.372573 53.433365 118 73 79
12.791667 -1.256751 53.406254 111 67 73
12.785123 -1.141041 53.378933 104 60 66
12.778499 -1.025443 53.351276 101 58 62
12.771770 -0.909956 53.323177 101 58 62
12.764928 -0.794583 53.294617 102 60 63
12.757979 -0.679328 53.265606 103 61 65
12.750933 -0.564193 53.236183 104 62 66
12.743807 -0.449183 53.206432 104 61 67
12.736627 -0.334299 53.176456 102 59 66
12.729423 -0.219545 53.146378 100 56 65
12.722229 -0.104920 53.116344 99 54 63
12.715080 0.009576 53.086498 100 55 63
12.708008 0.123944 53.056973 103 58 64
12.701044 0.238186 53.027897 104 60 65
12.694212 0.352307 52.999371 104 61 65
12.687533 0.466310 52.971489 103 62 64
12.681029 0.580201 52.944332 103 62 64
12.674712 0.693985 52.917957 104 63 65
12.668596 0.807669 52.892422 106 63 66
