ply
format ascii 1.0
element vertex 1215
property float x
property float y
property float z
property uchar red
property uchar green
property uchar blue
end_header
13.008629 1.101289 50.664234 132 100 113
13.053179 1.214650 50.837742 163 128 142
13.030866 1.321975 50.750843 178 140 155
13.075569 1.436287 50.924942 160 120 134
13.098036 1.548721 51.012444 137 96 109
13.120580 1.661541 51.100246 128 89 98
13.098036 1.768652 51.012444 122 85 91
13.098036 1.878618 51.012444 127 92 97
13.098036 1.988583 51.012444 145 114 116
13.053179 2.091362 50.837742 153 125 126
13.053179 2.200951 50.837742 152 126 127
13.053179 2.310540 50.837742 156 133 135
13.030866 2.415992 50.750843 169 147 152
13.008629 2.630299 50.664234 180 160 176
13.030866 2.744197 50.750843 174 153 175
13.008629 2.848729 50.664234 167 145 173
13.030866 2.963001 50.750843 164 140 173
13.053179 3.077663 50.837742 163 139 174
13.053179 3.187253 50.837742 162 138 172
13.075569 3.302496 50.924942 159 136 168
13.120580 3.424020 51.100246 148 126 154
13.098036 3.528102 51.012444 136 114 138
13.120580 3.644330 51.100246 143 120 141
13.098036 3.748034 51.012444 171 148 165
13.098036 3.857999 51.012444 194 169 184
13.075569 3.961159 50.924942 183 156 170
13.053179 4.392732 50.837742 170 137 142
13.053179 4.502321 50.837742 169 137 142
13.030866 4.604026 50.750843 165 134 139
13.053179 4.721499 50.837742 156 126 134
13.053179 4.831088 50.837742 141 112 124
13.075569 4.949152 50.924942 128 101 118
13.120580 5.076344 51.100246 123 96 118
13.098036 5.177587 51.012444 124 97 123
13.120580 5.296653 51.100246 135 107 134
13.120580 5.406808 51.100246 152 122 149
13.120580 5.516963 51.100246 155 124 149
13.120580 5.627118 51.100246 141 109 131
13.143201 5.747165 51.188347 128 95 115
13.120580 5.847428 51.100246 126 92 109
13.075569 5.937145 50.924942 130 97 112
13.143201 7.291992 51.188347 129 81 104
13.143201 7.402337 51.188347 127 79 101
13.098036 7.486865 51.012444 123 75 96
13.008629 9.183201 50.664234 107 57 70
13.075569 9.340232 50.924942 104 53 66
19.748852 20.739264 76.915138 67 38 44
19.397091 20.532711 75.545143 66 38 43
14.116772 15.891399 54.980080 63 38 40
13.280586 15.284592 51.723419 60 36 38
13.327023 15.673698 51.904270 60 35 37
13.516058 16.122971 52.640499 61 35 38
10.371506 12.807286 40.393528 56 35 36
8.874338 11.480042 34.562565 49 34 33
8.752074 11.395356 34.086388 48 33 33
8.692197 11.828227 33.853184 47 32 30
13.117844 1.101289 50.664234 135 98 115
13.162768 1.214650 50.837742 159 120 137
13.162768 1.324239 50.837742 169 128 145
13.185346 1.436287 50.924942 154 111 126
13.208001 1.548721 51.012444 134 91 104
13.230734 1.661541 51.100246 124 83 92
13.208001 1.768652 51.012444 119 80 87
13.208001 1.878618 51.012444 126 90 95
13.208001 1.988583 51.012444 143 110 114
13.185346 2.094949 50.924942 154 123 128
13.162768 2.200951 50.837742 155 127 132
13.162768 2.310540 50.837742 158 131 138
13.140267 2.415992 50.750843 174 147 158
13.162768 2.529718 50.837742 188 161 177
13.140267 2.634796 50.750843 174 149 169
13.162768 2.748896 50.837742 156 130 156
13.140267 2.853599 50.750843 158 130 163
13.140267 2.963001 50.750843 172 144 181
13.185346 3.082942 50.924942 177 149 188
13.162768 3.187253 50.837742 162 135 173
13.185346 3.302496 50.924942 148 122 157
13.230734 3.424020 51.100246 142 117 147
13.208001 3.528102 51.012444 133 108 133
13.230734 3.644330 51.100246 139 115 135
13.208001 3.748034 51.012444 167 142 159
13.208001 3.857999 51.012444 185 160 174
13.185346 3.961159 50.924942 169 141 154
13.185346 4.070936 50.924942 141 111 123
13.162768 4.392732 50.837742 165 132 139
13.162768 4.502321 50.837742 164 130 137
13.162768 4.611910 50.837742 159 127 135
13.185346 4.729598 50.924942 150 118 129
13.185346 4.839375 50.924942 134 104 117
13.208001 4.957655 51.012444 123 93 110
13.253546 5.085095 51.188347 120 90 111
13.208001 5.177587 51.012444 121 91 115
13.230734 5.296653 51.100246 131 99 125
13.230734 5.406808 51.100246 145 113 136
13.230734 5.516963 51.100246 148 115 137
13.230734 5.627118 51.100246 138 104 123
13.230734 5.737273 51.100246 128 93 110
13.208001 5.837380 51.012444 126 90 106
13.185346 5.937145 50.924942 130 95 109
13.850553 15.577217 53.494129 61 37 39
13.678037 16.180347 52.827831 59 35 38
10.515809 12.789816 40.614559 58 35 37
10.401971 12.737964 40.174889 56 35 37
8.907366 11.426831 34.402367 49 34 34
8.795259 11.356242 33.969383 49 33 33
8.493985 11.250116 32.805794 47 31 30
6.337227 9.290483 24.475880 40 29 28
13.204526 1.099413 50.577927 134 94 115
13.249669 1.212573 50.750843 148 106 125
13.249669 1.321975 50.750843 152 108 125
13.295123 1.436287 50.924942 141 95 111
13.295123 1.546064 50.924942 128 83 96
13.317966 1.658686 51.012444 123 79 90
13.295123 1.765618 50.924942 124 83 91
13.295123 1.875395 50.924942 129 92 98
13.295123 1.985172 50.924942 138 104 110
13.272357 2.091362 50.837742 151 120 126
13.249669 2.197189 50.750843 160 130 138
13.272357 2.310540 50.837742 164 135 145
13.249669 2.415992 50.750843 180 151 164
13.272357 2.529718 50.837742 189 159 177
13.249669 2.634796 50.750843 164 135 157
13.272357 2.748896 50.837742 140 110 138
13.249669 2.853599 50.750843 147 117 148
13.272357 2.968074 50.837742 170 139 174
13.295123 3.082942 50.924942 177 147 184
13.272357 3.187253 50.837742 160 132 169
13.295123 3.302496 50.924942 144 116 150
13.317966 3.418137 51.012444 137 110 140
13.317966 3.528102 51.012444 130 104 129
13.340889 3.644330 51.100246 138 112 133
13.317966 3.748034 51.012444 162 136 154
13.295123 3.851382 50.924942 170 144 159
13.295123 3.961159 50.924942 147 118 133
13.295123 4.290490 50.924942 151 116 127
13.295123 4.400267 50.924942 156 121 131
13.272357 4.502321 50.837742 155 119 129
13.295123 4.619821 50.924942 152 116 127
13.317966 4.737724 51.012444 143 109 121
13.295123 4.839375 50.924942 130 96 111
13.340889 4.966188 51.100246 121 87 104
13.363891 5.085095 51.188347 118 85 105
13.340889 5.186498 51.100246 120 86 107
13.340889 5.296653 51.100246 125 92 113
13.340889 5.406808 51.100246 136 102 121
13.317966 5.507483 51.012444 139 105 122
13.317966 5.617449 51.012444 135 98 114
13.317966 5.727415 51.012444 130 92 107
13.295123 5.827368 50.924942 129 91 105
13.295123 5.937145 50.924942 133 94 108
13.249669 6.135650 50.750843 132 94 112
14.353808 15.891399 54.980080 60 38 40
13.965868 15.577217 53.494129 60 38 40
10.603361 12.789816 40.614559 58 35 38
10.460265 12.703584 40.066452 57 35 38
8.971130 11.413606 34.362549 50 34 34
8.858351 11.343264 33.930561 49 33 33
8.536406 11.212947 32.697403 47 31 30
8.527015 11.271018 32.661434 47 30 30
6.384726 9.282830 24.455719 39 29 28
6.353325 9.289636 24.335443 39 30 28
13.290913 1.097543 50.491909 133 90 113
13.336274 1.210504 50.664234 137 92 112
13.313555 1.317471 50.577927 135 89 107
13.359071 1.431377 50.750843 128 80 97
13.381947 1.543417 50.837742 122 75 88
13.381947 1.653006 50.837742 125 81 92
13.359071 1.759582 50.750843 134 92 101
13.359071 1.868984 50.750843 133 95 103
13.359071 1.978385 50.750843 132 97 105
13.359071 2.087787 50.750843 149 117 126
13.336274 2.193439 50.664234 167 136 147
13.359071 2.306591 50.750843 173 143 155
13.336274 2.411869 50.664234 186 156 170
13.381947 2.529718 50.837742 184 153 172
13.336274 2.630299 50.664234 152 121 143
13.359071 2.744197 50.750843 131 99 123
13.359071 2.853599 50.750843 140 108 136
13.381947 2.968074 50.837742 160 127 158
13.404900 3.082942 50.924942 163 132 165
13.404900 3.192719 50.924942 150 119 153
13.404900 3.302496 50.924942 139 109 142
13.427933 3.418137 51.012444 135 105 134
13.427933 3.528102 51.012444 130 102 127
13.427933 3.638068 51.012444 139 112 134
13.404900 3.741605 50.924942 157 130 149
13.404900 3.851382 50.924942 157 128 146
13.404900 3.961159 50.924942 132 102 119
13.404900 4.180713 50.924942 130 95 110
13.381947 4.283143 50.837742 144 108 121
13.404900 4.400267 50.924942 148 110 123
13.381947 4.502321 50.837742 147 108 121
13.404900 4.619821 50.924942 145 105 118
13.451044 4.745879 51.100246 139 99 114
13.404900 4.839375 50.924942 128 90 106
13.451044 4.966188 51.100246 121 83 100
13.474236 5.085095 51.188347 120 82 101
13.427933 5.177587 51.012444 121 83 103
13.427933 5.287552 51.012444 124 86 106
13.427933 5.397518 51.012444 130 93 109
13.427933 5.507483 51.012444 133 95 110
13.451044 5.627118 51.100246 131 93 107
13.451044 5.737273 51.100246 131 91 105
13.427933 5.837380 51.012444 132 92 105
13.404900 5.937145 50.924942 134 93 108
13.359071 6.135650 50.750843 130 89 108
13.381947 6.474924 50.837742 116 74 101
13.381947 6.584513 50.837742 116 73 101
16.113520 17.165682 61.214931 63 38 42
15.949095 17.121134 60.590290 62 38 41
14.499177 15.920882 55.082081 60 38 40
10.690912 12.789816 40.614559 58 36 40
10.560887 12.720751 40.120598 57 36 39
9.055686 11.426831 34.402367 51 34 34
8.931494 11.343264 33.930561 50 33 33
8.578547 11.246274 32.589729 47 29 30
8.578547 11.316526 32.589729 46 29 30
6.432146 9.275189 24.435591 39 29 27
6.400538 9.282027 24.315514 39 29 28
13.377007 1.095680 50.406185 130 85 110
13.422584 1.208442 50.577927 128 82 103
13.399756 1.315230 50.491909 123 76 95
13.445489 1.428934 50.664234 119 71 88
13.468472 1.540779 50.750843 120 74 87
13.445489 1.647364 50.664234 132 90 101
13.445489 1.756579 50.664234 145 106 116
13.445489 1.865794 50.664234 134 98 109
13.422584 1.971645 50.577927 124 91 102
13.422584 2.080674 50.577927 147 115 126
13.399756 2.185979 50.491909 170 139 152
13.445489 2.302654 50.664234 181 150 164
13.445489 2.411869 50.664234 192 161 176
13.468472 2.525394 50.750843 178 144 162
13.445489 2.630299 50.664234 143 108 128
13.445489 2.739514 50.664234 129 92 115
13.468472 2.853599 50.750843 137 99 125
13.468472 2.963001 50.750843 148 110 138
13.514677 3.082942 50.924942 147 111 140
13.491535 3.187253 50.837742 137 102 133
13.514677 3.302496 50.924942 134 100 130
13.514677 3.412274 50.924942 132 99 127
13.491535 3.516020 50.837742 130 98 124
13.514677 3.631828 50.924942 138 108 131
13.491535 3.735198 50.837742 151 120 142
13.491535 3.844787 50.837742 146 114 135
13.491535 3.954376 50.837742 126 93 113
13.514677 4.070936 50.924942 119 84 102
13.514677 4.180713 50.924942 129 91 109
13.491535 4.283143 50.837742 139 99 115
13.514677 4.400267 50.924942 142 100 115
13.491535 4.502321 50.837742 142 98 114
13.537898 4.627759 51.012444 140 96 111
13.584580 4.754061 51.188347 135 91 107
13.537898 4.847690 51.012444 127 84 100
13.584580 4.974751 51.188347 123 80 97
13.584580 5.085095 51.188347 123 81 99
13.537898 5.177587 51.012444 123 82 101
13.537898 5.287552 51.012444 124 83 102
13.537898 5.397518 51.012444 127 86 103
13.537898 5.507483 51.012444 129 89 103
13.561199 5.627118 51.100246 129 89 103
13.537898 5.727415 51.012444 131 90 103
13.514677 5.827368 50.924942 133 90 105
13.514677 5.937145 50.924942 133 89 106
16.212051 17.130362 61.088974 63 38 43
16.046959 17.086264 60.466888 63 38 42
14.950771 16.161964 56.336323 60 37 40
14.590846 15.891399 54.980080 59 37 40
14.273653 15.661876 53.784859 59 37 40
14.483560 16.598080 54.575813 56 35 40
14.299559 16.503368 53.882473 57 35 40
10.793228 12.807336 40.670197 58 37 41
10.647374 12.720751 40.120598 57 36 40
9.004636 11.343264 33.930561 50 33 34
8.648800 11.246274 32.589729 47 29 31
6.484820 9.275189 24.435591 39 29 28
6.447673 9.274431 24.295616 38 29 28
6.233431 9.067528 23.488325 38 29 28
13.462808 1.093823 50.320751 122 79 104
13.508599 1.206387 50.491909 118 75 96
13.485665 1.312997 50.406185 114 70 89
13.531612 1.426500 50.577927 114 71 86
13.554704 1.538149 50.664234 122 80 92
13.531612 1.644558 50.577927 142 102 113
13.531612 1.753587 50.577927 155 118 129
13.531612 1.862616 50.577927 134 99 111
13.508599 1.968292 50.491909 118 84 97
13.508599 2.077135 50.491909 144 112 125
13.508599 2.185979 50.491909 171 140 154
13.554704 2.302654 50.664234 182 151 166
13.554704 2.411869 50.664234 185 153 168
13.577874 2.525394 50.750843 167 133 149
13.531612 2.625818 50.577927 139 103 121
13.531612 2.734848 50.577927 129 92 111
13.554704 2.848729 50.664234 132 92 114
13.554704 2.957944 50.664234 136 96 119
13.601125 3.077663 50.837742 136 96 121
13.601125 3.187253 50.837742 132 94 121
13.601125 3.296842 50.837742 133 95 123
13.601125 3.406430 50.837742 132 95 122
13.577874 3.510009 50.750843 131 94 121
13.601125 3.625609 50.837742 136 101 126
13.577874 3.728813 50.750843 142 107 132
13.577874 3.838214 50.750843 137 101 124
13.601125 3.954376 50.837742 126 88 110
13.624454 4.070936 50.924942 124 84 105
13.624454 4.180713 50.924942 130 87 108
13.601125 4.283143 50.837742 136 91 109
13.624454 4.400267 50.924942 138 91 109
13.624454 4.510044 50.924942 138 90 107
13.671354 4.635724 51.100246 137 89 105
13.718578 4.762272 51.276756 133 85 101
13.671354 4.856033 51.100246 126 79 95
13.694925 4.974751 51.188347 123 77 93
13.694925 5.085095 51.188347 124 79 96
13.647863 5.177587 51.012444 124 80 97
13.624454 5.278483 50.924942 124 80 97
13.624454 5.388260 50.924942 124 81 97
13.647863 5.507483 51.012444 125 83 98
13.647863 5.617449 51.012444 127 84 99
13.647863 5.727415 51.012444 130 86 101
13.624454 5.827368 50.924942 132 87 103
13.624454 5.937145 50.924942 130 84 102
13.601125 6.474924 50.837742 114 68 92
16.177305 17.086264 60.466888 63 38 42
15.015230 16.100861 56.123333 60 37 41
14.655087 15.832759 54.777199 60 37 41
14.337647 15.605335 53.590691 59 36 41
14.108449 15.469548 52.734001 58 36 41
14.389595 16.357529 53.784859 56 36 41
14.363574 16.443682 53.687599 56 36 41
14.234869 16.411032 53.206528 57 35 41
10.690520 12.669388 39.958603 56 35 40
9.077779 11.343264 33.930561 51 33 34
8.719052 11.246274 32.589729 47 29 32
13.617443 1.206387 50.491909 113 72 92
13.594324 1.312997 50.406185 111 71 87
13.640641 1.426500 50.577927 115 75 89
13.663919 1.538149 50.664234 127 88 100
13.640641 1.644558 50.577927 150 114 125
13.640641 1.753587 50.577927 158 123 135
13.640641 1.862616 50.577927 128 94 107
13.617443 1.968292 50.491909 112 79 94
13.617443 2.077135 50.491909 142 111 126
13.617443 2.185979 50.491909 170 139 155
13.640641 2.298732 50.577927 173 141 157
13.640641 2.407761 50.577927 167 134 150
13.687276 2.525394 50.750843 154 118 135
13.640641 2.625818 50.577927 140 102 120
13.640641 2.734848 50.577927 133 92 111
13.663919 2.848729 50.664234 130 87 107
13.663919 2.957944 50.664234 131 88 109
13.687276 3.072402 50.750843 133 89 112
13.710713 3.187253 50.837742 135 91 116
13.710713 3.296842 50.837742 138 94 121
13.710713 3.406430 50.837742 136 93 120
13.687276 3.510009 50.750843 133 91 118
13.687276 3.619411 50.750843 135 94 121
13.663919 3.722450 50.664234 136 96 122
13.687276 3.838214 50.750843 132 91 116
13.710713 3.954376 50.837742 127 84 109
13.734231 4.070936 50.924942 128 83 107
13.734231 4.180713 50.924942 131 84 106
13.734231 4.290490 50.924942 134 84 105
13.757830 4.407827 51.012444 135 84 104
13.734231 4.510044 50.924942 135 83 101
13.781508 4.635724 51.100246 135 82 99
13.829113 4.762272 51.276756 132 79 96
13.781508 4.856033 51.100246 126 74 91
13.805270 4.974751 51.188347 123 73 90
13.805270 5.085095 51.188347 124 76 93
13.757830 5.177587 51.012444 123 76 93
13.734231 5.278483 50.924942 121 75 93
13.734231 5.388260 50.924942 121 76 92
13.734231 5.498037 50.924942 122 78 93
13.757830 5.617449 51.012444 124 80 95
13.734231 5.717591 50.924942 128 82 98
13.734231 5.827368 50.924942 130 82 100
13.734231 5.937145 50.924942 127 78 98
14.718854 15.774550 54.575813 60 36 41
14.453171 15.605335 53.590691 59 36 41
14.247432 15.497074 52.827831 58 35 41
14.479307 15.980751 53.687599 57 36 41
14.349564 15.952250 53.206528 56 37 41
14.375326 16.095791 53.302052 56 36 41
14.453171 16.298475 53.590691 56 36 41
14.453171 16.414000 53.590691 56 36 41
14.375326 16.440495 53.302052 56 35 41
14.222125 16.378962 52.734001 56 35 40
10.661860 12.619648 39.532948 55 34 38
9.150922 11.343264 33.930561 51 32 34
8.779667 11.093592 32.553993 49 30 32
8.789305 11.246274 32.589729 47 29 32
13.757830 17.933601 51.012444 47 29 33
14.401181 20.268625 53.397919 39 28 27
14.427129 20.420460 53.494129 38 28 27
14.427129 20.535776 53.494129 37 28 27
14.453171 20.688368 53.590691 37 27 27
13.726287 1.206387 50.491909 110 72 89
13.702982 1.312997 50.406185 109 72 87
13.749671 1.426500 50.577927 115 79 91
13.773134 1.538149 50.664234 129 93 104
13.749671 1.644558 50.577927 149 115 124
13.749671 1.753587 50.577927 149 116 126
13.749671 1.862616 50.577927 120 87 100
13.749671 1.971645 50.577927 113 80 95
13.726287 2.077135 50.491909 147 115 130
13.726287 2.185979 50.491909 169 137 153
13.773134 2.302654 50.664234 164 132 148
13.773134 2.411869 50.664234 154 120 137
13.796678 2.525394 50.750843 145 108 126
13.749671 2.625818 50.577927 140 100 119
13.749671 2.734848 50.577927 135 91 112
13.749671 2.843876 50.577927 129 83 104
13.749671 2.952905 50.577927 130 83 105
13.796678 3.072402 50.750843 133 84 108
13.820302 3.187253 50.837742 136 87 112
13.820302 3.296842 50.837742 139 90 117
13.820302 3.406430 50.837742 137 89 116
13.796678 3.510009 50.750843 136 88 116
13.796678 3.619411 50.750843 135 89 116
13.773134 3.722450 50.664234 134 88 115
13.796678 3.838214 50.750843 131 86 111
13.844007 4.180713 50.924942 132 80 105
13.844007 4.290490 50.924942 133 80 103
13.844007 4.400267 50.924942 134 79 101
13.844007 4.510044 50.924942 134 78 97
13.891664 4.635724 51.100246 133 77 94
13.915615 4.754061 51.188347 130 75 92
13.915615 4.864406 51.188347 126 72 89
13.915615 4.974751 51.188347 123 71 88
13.915615 5.085095 51.188347 121 71 89
13.867795 5.177587 51.012444 120 71 89
13.844007 5.278483 50.924942 118 70 89
13.844007 5.388260 50.924942 118 71 89
13.844007 5.498037 50.924942 119 73 90
13.844007 5.607814 50.924942 121 75 91
13.820302 5.707800 50.837742 123 76 93
13.820302 5.817389 50.837742 125 76 94
14.836501 15.774550 54.575813 60 35 40
14.568694 15.605335 53.590691 59 35 40
14.412601 15.895278 53.016502 56 36 41
14.412601 16.009563 53.016502 55 36 40
14.516289 16.239847 53.397919 55 36 40
14.542444 16.384424 53.494129 55 35 40
14.490228 16.440495 53.302052 55 35 40
14.361311 16.408106 52.827831 55 34 39
14.438384 16.610653 53.111347 55 34 38
14.464259 16.755117 53.206528 55 34 38
13.891664 17.964468 51.100246 47 30 33
13.820302 17.981773 50.837742 48 32 34
13.820302 18.091362 50.837742 48 32 34
14.386910 19.859814 52.922001 40 30 29
14.438384 20.045359 53.111347 40 29 28
14.412601 20.123850 53.016502 39 28 27
14.438384 20.274340 53.111347 38 28 26
14.438384 20.388828 53.111347 37 27 26
14.464259 20.540064 53.206528 37 27 26
14.490228 20.691841 53.302052 37 26 26
14.464259 20.769455 53.206528 36 26 26
14.490228 20.921644 53.302052 36 25 26
13.835131 1.206387 50.491909 109 72 87
13.811641 1.312997 50.406185 109 73 86
13.858700 1.426500 50.577927 113 77 89
13.882349 1.538149 50.664234 124 89 99
13.882349 1.647364 50.664234 138 104 113
13.882349 1.756579 50.664234 135 100 110
13.882349 1.865794 50.664234 114 79 92
13.858700 1.971645 50.577927 116 83 97
13.858700 2.080674 50.577927 151 117 132
13.858700 2.189703 50.577927 169 136 151
13.882349 2.302654 50.664234 159 125 142
13.882349 2.411869 50.664234 145 109 127
13.906079 2.525394 50.750843 137 98 118
13.858700 2.625818 50.577927 134 93 113
13.858700 2.734848 50.577927 132 87 108
13.858700 2.843876 50.577927 127 80 102
13.858700 2.952905 50.577927 129 80 102
13.906079 3.072402 50.750843 132 81 105
13.929892 3.187253 50.837742 134 82 108
13.953785 3.302496 50.924942 137 84 111
13.929892 3.406430 50.837742 136 84 111
13.906079 3.510009 50.750843 136 85 111
13.882349 3.613235 50.664234 136 85 111
13.882349 3.722450 50.664234 134 84 110
13.953785 4.180713 50.924942 132 77 102
13.929892 4.283143 50.837742 133 76 100
13.953785 4.400267 50.924942 134 75 98
13.929892 4.502321 50.837742 134 75 95
14.001819 4.635724 51.100246 133 73 92
14.001819 4.745879 51.100246 129 71 88
14.025960 4.864406 51.188347 125 69 85
14.025960 4.974751 51.188347 121 68 84
14.001819 5.076344 51.100246 118 67 85
14.001819 5.186498 51.100246 116 66 85
13.953785 5.278483 50.924942 115 66 85
13.953785 5.388260 50.924942 115 68 86
13.953785 5.498037 50.924942 116 70 87
13.953785 5.607814 50.924942 118 71 87
13.953785 5.717591 50.924942 118 71 86
13.929892 5.817389 50.837742 119 70 85
14.449479 15.810578 52.734001 55 35 40
14.398331 15.867886 52.547333 55 36 39
14.578955 16.181641 53.206528 55 36 39
14.605128 16.325594 53.302052 55 36 39
14.526887 16.352421 53.016502 55 35 39
14.398331 16.320984 52.547333 54 34 38
14.074492 18.057709 51.365471 47 31 32
14.500992 19.745731 52.922001 41 30 29
14.475190 19.824476 52.827831 41 30 29
14.526887 20.009563 53.016502 40 29 28
14.500992 20.087978 52.922001 39 29 27
14.475190 20.166113 52.827831 38 28 26
14.500992 20.316141 52.922001 38 27 25
14.526887 20.466705 53.016502 38 27 25
14.552875 20.617809 53.111347 37 26 25
14.552875 20.732300 53.111347 36 25 25
14.552875 20.846790 53.111347 36 25 25
13.920300 1.204339 50.406185 112 71 85
13.896707 1.310772 50.320751 109 71 83
13.967729 1.426500 50.577927 110 73 83
13.967729 1.535529 50.577927 117 81 90
13.991564 1.647364 50.664234 127 92 101
13.991564 1.756579 50.664234 126 90 100
13.991564 1.865794 50.664234 113 77 88
13.967729 1.971645 50.577927 121 84 97
13.967729 2.080674 50.577927 148 111 126
13.967729 2.189703 50.577927 160 124 139
14.015481 2.306591 50.750843 152 114 131
14.015481 2.415992 50.750843 138 99 117
14.039480 2.529718 50.837742 129 89 109
13.991564 2.630299 50.664234 128 85 106
14.015481 2.744197 50.750843 126 81 102
13.991564 2.848729 50.664234 125 77 99
13.991564 2.957944 50.664234 128 78 101
14.039480 3.077663 50.837742 131 79 104
14.111974 3.203710 51.100246 133 79 105
14.087727 3.308171 51.012444 135 81 107
14.039480 3.406430 50.837742 134 81 107
14.015481 3.510009 50.750843 135 81 106
14.063562 4.290490 50.924942 131 72 97
14.063562 4.400267 50.924942 132 72 95
14.063562 4.510044 50.924942 133 72 93
14.136305 4.643716 51.188347 132 72 91
14.111974 4.745879 51.100246 128 69 86
14.136305 4.864406 51.188347 122 66 83
14.136305 4.974751 51.188347 118 65 82
14.136305 5.085095 51.188347 115 64 82
14.111974 5.186498 51.100246 113 64 83
14.087727 5.287552 51.012444 114 65 85
14.087727 5.397518 51.012444 115 67 86
14.087727 5.507483 51.012444 117 69 87
14.087727 5.617449 51.012444 117 69 85
14.063562 5.717591 50.924942 115 66 81
14.063562 5.827368 50.924942 114 65 79
14.039480 6.474924 50.837742 115 67 79
14.615074 15.981026 52.922001 55 36 39
14.720030 16.210691 53.302052 55 36 38
14.720030 16.325594 53.302052 55 36 38
14.641172 16.352421 53.016502 54 35 38
14.284071 18.183546 51.723419 46 31 31
14.136305 18.105785 51.188347 46 31 31
14.063562 18.122393 50.924942 46 31 31
14.087727 18.263498 51.012444 45 31 31
14.111974 18.405087 51.100246 43 31 31
14.615074 19.745731 52.922001 41 30 30
14.563156 19.789263 52.734001 41 30 29
14.641172 20.009563 53.016502 41 30 29
14.615074 20.087978 52.922001 40 29 28
14.589068 20.166113 52.827831 40 28 26
14.589068 20.279991 52.827831 40 28 25
14.615074 20.430223 52.922001 40 28 25
14.641172 20.580992 53.016502 38 27 25
14.667364 20.732300 53.111347 37 26 24
14.667364 20.846790 53.111347 35 25 24
14.028958 1.204339 50.406185 114 71 85
14.005180 1.310772 50.320751 110 69 82
14.052817 1.424074 50.491909 111 70 81
14.076757 1.535529 50.577927 113 74 84
14.076757 1.644558 50.577927 119 82 91
14.100780 1.756579 50.664234 121 83 92
14.100780 1.865794 50.664234 119 80 90
14.076757 1.971645 50.577927 128 89 101
14.076757 2.080674 50.577927 143 103 116
14.100780 2.193439 50.664234 147 108 122
14.124883 2.306591 50.750843 143 101 118
14.149070 2.420129 50.837742 132 91 108
14.173339 2.534057 50.924942 125 83 102
14.124883 2.634796 50.750843 124 80 100
14.173339 2.753611 50.924942 122 77 97
14.124883 2.853599 50.750843 122 75 97
14.100780 2.957944 50.664234 127 78 101
14.173339 3.082942 50.924942 129 78 102
14.295946 3.220338 51.365471 131 77 103
14.246650 3.319578 51.188347 133 79 105
14.173339 3.412274 50.924942 132 78 102
14.149070 3.516020 50.837742 132 77 101
14.197692 4.297862 51.012444 127 67 93
14.197692 4.407827 51.012444 130 69 93
14.197692 4.517793 51.012444 132 71 93
14.246650 4.643716 51.188347 132 72 91
14.222129 4.745879 51.100246 127 69 87
14.246650 4.864406 51.188347 122 66 83
14.246650 4.974751 51.188347 117 64 82
14.246650 5.085095 51.188347 114 63 82
14.222129 5.186498 51.100246 113 63 84
14.197692 5.287552 51.012444 115 66 87
14.197692 5.397518 51.012444 117 69 88
14.197692 5.507483 51.012444 119 70 87
14.197692 5.617449 51.012444 117 69 84
14.173339 5.717591 50.924942 113 65 77
14.173339 5.827368 50.924942 112 63 74
15.106136 15.688036 54.276493 57 35 38
14.781855 16.381674 53.111347 54 35 37
10.773216 12.189511 38.708267 51 31 33
10.843906 12.353485 38.962261 52 31 33
10.843906 12.437474 38.962261 52 31 33
10.815519 12.488686 38.860264 52 31 33
14.445903 18.247126 51.904270 44 30 30
14.271255 18.137056 51.276756 44 30 30
14.222129 18.184776 51.100246 44 31 30
14.246650 18.326475 51.188347 43 30 30
14.246650 18.436819 51.188347 42 30 30
14.197692 18.483429 51.012444 42 30 30
14.808345 19.851892 53.206528 41 29 30
14.702948 19.824476 52.827831 42 29 30
14.781855 20.045359 53.111347 42 30 29
14.729156 20.087978 52.922001 43 30 29
14.702948 20.166113 52.827831 43 30 28
14.702948 20.279991 52.827831 43 30 28
14.729156 20.430223 52.922001 43 30 27
14.781855 20.617809 53.111347 41 29 26
14.781855 20.732300 53.111347 38 27 24
14.137617 1.204339 50.406185 117 70 84
14.113655 1.310772 50.320751 113 69 81
14.161661 1.424074 50.491909 113 70 80
14.161661 1.532917 50.491909 113 70 80
14.161661 1.641761 50.491909 115 73 83
14.209994 1.756579 50.664234 118 76 85
14.209994 1.865794 50.664234 124 83 92
14.185786 1.971645 50.577927 136 93 104
14.185786 2.080674 50.577927 143 99 111
14.185786 2.189703 50.577927 142 98 111
14.234284 2.306591 50.750843 137 92 108
14.258658 2.420129 50.837742 129 85 101
14.283116 2.534057 50.924942 123 79 96
14.258658 2.639307 50.837742 121 77 94
14.332283 2.763090 51.100246 119 75 93
14.258658 2.858485 50.837742 121 75 94
14.209994 2.957944 50.664234 125 77 97
14.283116 3.082942 50.924942 126 76 99
14.431641 3.225919 51.454491 127 76 99
14.381790 3.325312 51.276756 130 77 101
14.283116 3.412274 50.924942 129 76 98
14.258658 3.516020 50.837742 129 75 97
14.332283 4.195104 51.100246 122 63 88
14.307657 4.297862 51.012444 123 63 88
14.307657 4.407827 51.012444 127 68 91
14.307657 4.517793 51.012444 132 72 94
14.332283 4.635724 51.100246 132 74 93
14.332283 4.745879 51.100246 127 70 88
14.356995 4.864406 51.188347 121 66 84
14.356995 4.974751 51.188347 115 63 82
14.332283 5.076344 51.100246 112 61 81
14.332283 5.186498 51.100246 113 63 83
14.307657 5.287552 51.012444 118 68 89
14.283116 5.388260 50.924942 121 72 91
14.283116 5.498037 50.924942 120 70 88
14.283116 5.607814 50.924942 117 67 81
14.283116 5.717591 50.924942 113 63 74
14.283116 5.827368 50.924942 111 62 72
14.843238 16.323273 52.922001 54 35 36
10.800333 12.126271 38.507446 51 31 34
10.870831 12.288976 38.758801 51 31 33
10.899289 12.404916 38.860264 51 30 32
14.307657 18.153532 51.012444 43 30 30
14.356995 18.326475 51.188347 42 30 30
14.332283 18.405087 51.100246 42 30 30
14.949832 19.887533 53.302052 42 29 30
14.843238 19.859814 52.922001 43 29 30
14.896344 20.045359 53.111347 44 30 30
14.869744 20.123850 53.016502 44 30 30
14.843238 20.202059 52.922001 44 31 29
14.843238 20.316141 52.922001 46 32 30
14.843238 20.430223 52.922001 46 34 31
14.896344 20.617809 53.111347 44 32 28
14.923040 20.769455 53.206528 39 29 25
14.246276 1.204339 50.406185 117 68 83
14.222130 1.310772 50.320751 115 67 81
14.270505 1.424074 50.491909 114 67 80
14.246276 1.530315 50.406185 113 67 78
14.270505 1.641761 50.491909 112 68 78
14.294815 1.753587 50.577927 116 72 81
14.294815 1.862616 50.577927 124 79 89
14.270505 1.968292 50.491909 134 89 99
14.270505 2.077135 50.491909 143 97 107
14.294815 2.189703 50.577927 142 96 108
14.319209 2.302654 50.664234 135 87 101
14.343686 2.415992 50.750843 126 79 93
14.368248 2.529718 50.837742 120 75 90
14.343686 2.634796 50.750843 118 73 88
14.417624 2.758343 51.012444 117 72 88
14.343686 2.853599 50.750843 119 73 90
14.294815 2.952905 50.577927 122 75 93
14.368248 3.077663 50.837742 123 75 94
14.542560 3.225919 51.454491 124 75 95
14.492326 3.325312 51.276756 126 75 96
14.417624 3.418137 51.012444 127 75 95
14.392893 3.522051 50.924942 130 76 96
14.368248 3.625609 50.837742 133 79 98
14.467339 4.202337 51.188347 118 61 84
14.442438 4.305259 51.100246 120 62 85
14.442438 4.415414 51.100246 126 67 89
14.417624 4.517793 51.012444 131 73 94
14.417624 4.627759 51.012444 130 73 93
14.442438 4.745879 51.100246 124 69 87
14.442438 4.856033 51.100246 118 64 83
14.442438 4.966188 51.100246 113 62 82
14.417624 5.067621 51.012444 111 61 81
14.417624 5.177587 51.012444 114 64 84
14.392893 5.278483 50.924942 121 71 91
14.392893 5.388260 50.924942 126 75 94
14.368248 5.488622 50.837742 122 71 88
14.368248 5.598211 50.837742 116 66 80
14.368248 5.707800 50.837742 111 61 73
14.368248 7.242047 50.837742 91 50 59
14.294815 7.968237 50.577927 98 50 64
14.294815 8.077267 50.577927 98 49 62
14.319209 8.200265 50.664234 97 49 61
14.222130 8.253145 50.320751 97 49 60
14.174082 8.333371 50.150745 96 50 60
15.481654 15.596597 54.777199 58 35 38
15.368236 15.599552 54.375900 57 35 37
14.851428 15.981160 52.547333 53 35 36
14.825189 16.066000 52.454491 52 35 35
14.851428 16.207708 52.547333 53 35 36
10.869245 12.110564 38.457569 53 33 36
10.897476 12.225137 38.557457 52 32 34
10.983058 12.404916 38.860264 51 31 33
15.119021 19.959200 53.494129 42 29 30
14.984030 19.895277 53.016502 43 29 30
15.037736 20.081282 53.206528 44 30 30
14.984030 20.123850 53.016502 44 31 30
14.984030 20.238134 53.016502 45 31 30
14.957320 20.316141 52.922001 48 35 33
14.957320 20.430223 52.922001 50 37 34
15.010835 20.617809 53.111347 47 36 32
15.037736 20.769455 53.206528 41 31 27
14.354935 1.312997 50.406185 114 65 79
14.403845 1.426500 50.577927 113 65 78
14.354935 1.530315 50.406185 112 64 76
14.403845 1.644558 50.577927 112 65 77
14.428424 1.756579 50.664234 114 68 78
14.403845 1.862616 50.577927 117 71 81
14.403845 1.971645 50.577927 126 80 89
14.403845 2.080674 50.577927 140 93 103
14.403845 2.189703 50.577927 144 96 107
14.428424 2.302654 50.664234 134 85 97
14.453088 2.415992 50.750843 123 73 87
14.477837 2.529718 50.837742 117 70 83
14.477837 2.639307 50.837742 116 69 83
14.552593 2.763090 51.100246 116 69 83
14.453088 2.853599 50.750843 117 71 84
14.354935 2.942878 50.406185 120 73 87
14.453088 3.072402 50.750843 121 73 89
14.628126 3.220338 51.365471 122 73 90
14.628126 3.331065 51.365471 123 74 92
14.552593 3.424020 51.100246 125 74 93
14.527589 3.528102 51.012444 130 77 96
14.477837 3.625609 50.837742 133 80 98
14.527589 3.857999 51.012444 126 71 90
14.527589 3.967965 51.012444 122 67 86
14.577683 4.091992 51.188347 119 63 83
14.602861 4.209595 51.276756 117 61 82
14.552593 4.305259 51.100246 119 62 83
14.552593 4.415414 51.100246 124 66 88
14.527589 4.517793 51.012444 128 71 92
14.527589 4.627759 51.012444 126 70 90
14.527589 4.737724 51.012444 120 65 85
14.527589 4.847690 51.012444 115 61 81
14.527589 4.957655 51.012444 113 60 81
14.527589 5.067621 51.012444 113 61 82
14.502670 5.168706 50.924942 115 65 85
14.502670 5.278483 50.924942 121 71 89
14.477837 5.379034 50.837742 124 74 91
14.477837 5.488622 50.837742 122 70 86
14.477837 5.598211 50.837742 117 66 80
14.477837 5.707800 50.837742 114 64 76
14.453088 7.229668 50.750843 90 49 57
14.453088 7.339069 50.750843 90 50 58
14.453088 7.448471 50.750843 92 50 60
14.428424 7.544975 50.664234 94 51 62
14.428424 7.763405 50.664234 97 52 65
14.502670 7.913131 50.924942 97 52 66
14.428424 7.981835 50.664234 97 51 65
14.379348 8.063530 50.491909 97 50 63
14.428424 8.200265 50.664234 97 49 61
14.306356 8.239181 50.235603 97 49 60
14.234102 8.305312 49.981888 95 49 60
14.162574 8.370780 49.730724 94 49 59
14.210179 8.506480 49.897884 92 48 60
15.715718 15.593597 55.184464 58 35 38
15.571007 15.567874 54.676319 57 34 37
14.859502 15.868814 52.177929 52 34 36
14.859502 15.981293 52.177929 51 33 34
14.911917 16.150539 52.361980 53 34 35
10.937978 12.094897 38.407818 54 34 37
15.234336 19.959200 53.494129 41 28 30
15.098315 19.895277 53.016502 42 29 30
15.152431 20.081282 53.206528 43 30 30
15.098315 20.123850 53.016502 43 31 30
15.071403 20.202059 52.922001 44 31 30
15.071403 20.316141 52.922001 48 35 33
15.071403 20.430223 52.922001 51 39 36
15.125325 20.617809 53.111347 50 38 35
15.125325 20.732300 53.111347 43 33 30
14.488192 1.315230 50.491909 112 62 76
14.512874 1.426500 50.577927 111 62 75
14.488192 1.532917 50.491909 111 62 74
14.537640 1.647364 50.664234 111 63 75
14.562490 1.759582 50.750843 112 65 76
14.537640 1.865794 50.664234 113 66 76
14.512874 1.971645 50.577927 121 74 83
14.537640 2.084224 50.664234 138 90 100
14.537640 2.193439 50.664234 145 95 106
14.562490 2.306591 50.750843 132 82 93
14.587426 2.420129 50.837742 120 68 81
14.587426 2.529718 50.837742 116 65 79
14.587426 2.639307 50.837742 115 66 79
14.662748 2.763090 51.100246 115 67 79
14.537640 2.848729 50.664234 116 68 80
14.439079 2.937891 50.320751 118 70 83
14.537640 3.067159 50.664234 119 71 85
14.688028 3.209234 51.188347 120 71 87
14.738853 3.331065 51.365471 122 72 88
14.662748 3.424020 51.100246 124 73 90
14.637554 3.528102 51.012444 128 76 94
14.587426 3.625609 50.837742 131 78 95
14.612447 3.741605 50.924942 128 75 92
14.637554 3.857999 51.012444 124 70 87
14.637554 3.967965 51.012444 122 67 84
14.688028 4.091992 51.188347 119 64 82
14.713397 4.209595 51.276756 118 62 81
14.662748 4.305259 51.100246 119 62 83
14.662748 4.415414 51.100246 122 65 87
14.612447 4.510044 50.924942 123 67 88
14.612447 4.619821 50.924942 121 65 87
14.637554 4.737724 51.012444 116 61 83
14.637554 4.847690 51.012444 113 59 80
14.637554 4.957655 51.012444 112 60 81
14.637554 5.067621 51.012444 114 63 84
14.612447 5.168706 50.924942 117 66 86
14.587426 5.269444 50.837742 121 70 88
14.587426 5.379034 50.837742 122 71 88
14.587426 5.488622 50.837742 121 69 85
14.587426 5.598211 50.837742 119 67 81
14.587426 5.707800 50.837742 118 68 80
14.587426 5.817389 50.837742 118 68 80
14.562490 7.448471 50.750843 92 51 60
14.537640 7.544975 50.664234 94 52 62
14.512874 7.641151 50.577927 95 52 65
14.688028 7.954061 51.188347 97 52 66
14.587426 8.009171 50.837742 97 51 65
14.414647 8.239181 50.235603 96 50 60
14.317742 8.291354 49.897884 95 49 59
14.245914 8.356782 49.647564 93 49 59
14.317742 8.506480 49.897884 92 48 59
11.049360 7.062718 38.507446 91 51 64
21.139099 19.387980 73.670578 63 36 41
23.468475 22.229630 81.788544 59 33 38
22.778227 21.746941 79.383003 57 33 37
14.104399 18.022112 49.154373 40 29 30
15.322044 19.923302 53.397919 40 28 30
15.185484 19.859814 52.922001 41 29 30
15.239815 20.045359 53.111347 41 29 29
15.212601 20.123850 53.016502 42 30 30
15.185484 20.202059 52.922001 43 31 30
15.158463 20.279991 52.827831 45 33 31
15.158463 20.393871 52.827831 47 36 33
15.212601 20.580992 53.016502 47 37 33
15.212601 20.695278 53.016502 43 33 30
14.646854 1.428934 50.664234 108 58 71
14.597035 1.532917 50.491909 109 60 71
14.671892 1.650180 50.750843 110 62 74
14.671892 1.759582 50.750843 112 65 75
14.646854 1.865794 50.664234 113 66 76
14.646854 1.975009 50.664234 121 72 83
14.671892 2.087787 50.750843 136 87 98
14.671892 2.197189 50.750843 142 91 103
14.671892 2.306591 50.750843 129 78 91
14.697015 2.420129 50.837742 117 65 79
14.697015 2.529718 50.837742 116 63 78
14.697015 2.639307 50.837742 117 64 79
14.772903 2.763090 51.100246 116 65 79
14.646854 2.848729 50.664234 116 66 80
14.547554 2.937891 50.320751 117 67 82
14.646854 3.067159 50.664234 118 69 83
14.747520 3.198205 51.012444 120 71 85
14.849579 3.331065 51.365471 122 72 87
14.772903 3.424020 51.100246 123 72 89
14.747520 3.528102 51.012444 125 74 90
14.722224 3.631828 50.924942 126 74 90
14.722224 3.741605 50.924942 125 72 88
14.747520 3.857999 51.012444 123 70 85
14.772903 3.974794 51.100246 122 68 83
14.823932 4.099060 51.276756 120 66 81
14.823932 4.209595 51.276756 119 64 81
14.772903 4.305259 51.100246 119 64 83
14.772903 4.415414 51.100246 120 64 85
14.722224 4.510044 50.924942 120 63 85
14.722224 4.619821 50.924942 118 62 85
14.722224 4.729598 50.924942 115 60 83
14.747520 4.847690 51.012444 113 59 81
14.747520 4.957655 51.012444 113 60 82
14.747520 5.067621 51.012444 116 63 85
14.722224 5.168706 50.924942 120 68 88
14.722224 5.278483 50.924942 124 72 90
14.697015 5.379034 50.837742 124 72 89
14.697015 5.488622 50.837742 121 69 85
14.697015 5.598211 50.837742 119 68 82
14.697015 5.707800 50.837742 118 68 81
14.697015 5.817389 50.837742 116 66 79
14.697015 5.926979 50.837742 114 63 76
14.671892 7.557873 50.750843 93 52 61
14.646854 7.654190 50.664234 93 52 63
15.005343 8.065307 51.904270 95 52 64
14.849579 8.092311 51.365471 95 51 63
11.103566 7.044445 38.407818 90 51 63
10.975776 7.208894 37.965782 82 45 54
21.297907 19.387980 73.670578 63 35 40
23.579826 22.168558 81.563850 58 33 37
15.605557 17.697010 53.980442 49 29 33
15.865170 18.937811 54.878452 46 31 33
14.305095 18.248926 49.482071 41 29 30
15.409437 19.887533 53.302052 40 29 29
15.272343 19.824476 52.827831 40 28 29
15.354305 20.045359 53.111347 40 29 28
15.299566 20.087978 52.922001 40 29 28
15.272343 20.166113 52.827831 40 29 28
15.245216 20.243971 52.734001 41 30 28
15.245216 20.357647 52.734001 41 31 28
15.299566 20.544306 52.922001 41 31 28
15.326887 20.695278 53.016502 39 29 27
14.756069 1.428934 50.664234 104 55 66
14.705878 1.532917 50.491909 105 56 66
14.781294 1.650180 50.750843 110 61 72
14.781294 1.759582 50.750843 114 65 75
14.781294 1.868984 50.750843 114 66 76
14.781294 1.978385 50.750843 121 71 82
14.781294 2.087787 50.750843 132 82 94
14.806603 2.200951 50.837742 136 84 97
14.806603 2.310540 50.837742 126 73 88
14.806603 2.420129 50.837742 117 63 79
14.806603 2.529718 50.837742 116 61 80
14.806603 2.639307 50.837742 118 63 81
14.883058 2.763090 51.100246 117 63 81
14.730931 2.843876 50.577927 116 64 82
14.656028 2.937891 50.320751 117 66 83
14.756069 3.067159 50.664234 118 68 83
14.883058 3.203710 51.100246 120 70 85
14.960305 3.331065 51.365471 121 72 87
14.908718 3.429923 51.188347 122 72 88
14.883058 3.534175 51.100246 122 72 87
14.857486 3.638068 51.012444 122 72 86
14.857486 3.748034 51.012444 122 71 85
14.883058 3.864639 51.100246 122 70 84
14.883058 3.974794 51.100246 122 68 83
14.934467 4.099060 51.276756 120 67 82
14.934467 4.209595 51.276756 119 66 82
14.883058 4.305259 51.100246 119 65 83
14.857486 4.407827 51.012444 119 64 84
14.832001 4.510044 50.924942 118 63 85
14.832001 4.619821 50.924942 117 61 85
14.832001 4.729598 50.924942 115 60 84
14.832001 4.839375 50.924942 114 58 83
14.857486 4.957655 51.012444 115 60 83
14.832001 5.058929 50.924942 119 65 86
14.832001 5.168706 50.924942 123 70 90
14.806603 5.269444 50.837742 124 72 90
14.806603 5.379034 50.837742 122 70 87
14.806603 5.488622 50.837742 120 67 84
14.806603 5.598211 50.837742 117 65 81
14.806603 5.707800 50.837742 114 64 78
14.806603 5.817389 50.837742 111 61 76
14.781294 5.916847 50.750843 109 59 73
14.781294 7.557873 50.750843 91 51 60
15.250541 8.136430 52.361980 93 51 63
15.090849 8.162924 51.813686 93 50 61
15.693388 17.548740 53.882473 47 28 31
15.721921 17.697010 53.980442 47 28 31
14.705878 17.859447 50.491909 42 30 31
15.524339 19.887533 53.302052 39 28 29
15.386222 19.824476 52.827831 39 28 28
15.468796 20.045359 53.111347 39 28 28
15.413649 20.087978 52.922001 39 28 28
15.386222 20.166113 52.827831 38 28 27
15.358892 20.243971 52.734001 38 28 27
15.358892 20.357647 52.734001 38 28 27
15.413649 20.544306 52.922001 38 28 27
15.441173 20.695278 53.016502 38 28 27
14.839960 1.426500 50.577927 103 52 62
14.814722 1.532917 50.491909 104 53 63
14.890696 1.650180 50.750843 110 60 70
14.890696 1.759582 50.750843 115 65 75
14.865284 1.865794 50.664234 116 66 76
14.865284 1.975009 50.664234 120 69 81
14.890696 2.087787 50.750843 126 75 88
14.916193 2.200951 50.837742 128 74 89
14.916193 2.310540 50.837742 123 68 85
14.941778 2.424280 50.924942 118 62 81
14.916193 2.529718 50.837742 117 60 81
14.941778 2.643834 50.924942 117 61 82
15.019063 2.767854 51.188347 116 62 82
14.865284 2.848729 50.664234 116 63 83
14.764503 2.937891 50.320751 116 66 83
14.916193 3.077663 50.837742 117 67 84
15.019063 3.209234 51.188347 118 69 84
15.071033 3.331065 51.365471 119 70 85
15.019063 3.429923 51.188347 120 71 85
14.993213 3.534175 51.100246 120 71 85
14.993213 3.644330 51.100246 120 70 84
14.993213 3.754484 51.100246 120 70 82
15.019063 3.871303 51.188347 120 69 81
15.019063 3.981647 51.188347 120 68 80
15.045003 4.099060 51.276756 119 67 80
15.045003 4.209595 51.276756 119 65 81
14.993213 4.305259 51.100246 119 64 83
14.967451 4.407827 51.012444 118 63 84
14.941778 4.510044 50.924942 117 62 85
14.916193 4.611910 50.837742 116 60 85
14.916193 4.721499 50.837742 115 59 85
14.916193 4.831088 50.837742 114 58 84
14.941778 4.949152 50.924942 116 61 85
14.916193 5.050266 50.837742 121 67 89
14.916193 5.159855 50.837742 125 72 93
14.916193 5.269444 50.837742 123 70 89
14.890696 5.369838 50.750843 117 65 83
14.890696 5.479240 50.750843 115 62 80
14.890696 5.588642 50.750843 113 61 78
14.916193 5.707800 50.837742 109 59 75
14.916193 5.817389 50.837742 106 57 72
14.890696 5.916847 50.750843 105 55 70
14.941778 7.583800 50.924942 90 50 59
15.780900 8.241586 53.784859 91 51 62
15.390559 8.150805 52.454491 92 50 61
15.229120 8.177195 51.904270 91 50 60
15.255791 18.166998 51.995171 43 30 30
14.941778 17.902840 50.924942 42 30 30
14.865284 17.920403 50.664234 42 30 30
15.583285 20.045359 53.111347 39 28 27
15.555458 20.123850 53.016502 38 27 27
15.527730 20.202059 52.922001 38 27 27
15.472569 20.243971 52.734001 37 27 27
15.472569 20.357647 52.734001 38 28 27
15.527730 20.544306 52.922001 38 27 27
14.898229 1.530315 50.406185 105 52 62
14.974500 1.647364 50.664234 110 58 68
15.000097 1.759582 50.750843 115 63 73
14.974500 1.865794 50.664234 117 65 76
14.974500 1.975009 50.664234 120 67 79
15.000097 2.087787 50.750843 122 68 83
15.025782 2.200951 50.837742 122 67 83
15.025782 2.310540 50.837742 120 64 82
15.051555 2.424280 50.924942 118 62 81
15.025782 2.529718 50.837742 116 60 81
15.051555 2.643834 50.924942 115 60 82
15.129408 2.767854 51.188347 115 61 83
15.000097 2.853599 50.750843 115 62 83
14.948989 2.952905 50.577927 116 65 84
15.025782 3.077663 50.837742 116 66 84
15.077417 3.198205 51.012444 116 68 83
15.155539 3.325312 51.276756 117 69 83
15.103368 3.424020 51.100246 118 69 83
15.077417 3.528102 51.012444 118 69 83
15.077417 3.638068 51.012444 118 69 81
15.077417 3.748034 51.012444 118 68 79
15.103368 3.864639 51.100246 117 66 77
15.129408 3.981647 51.188347 116 65 76
15.155539 4.099060 51.276756 116 65 77
15.129408 4.202337 51.188347 117 65 80
15.103368 4.305259 51.100246 118 64 82
15.077417 4.407827 51.012444 117 62 84
15.051555 4.510044 50.924942 117 61 85
15.025782 4.611910 50.837742 116 60 86
15.025782 4.721499 50.837742 116 60 86
15.025782 4.831088 50.837742 115 60 85
15.025782 4.940677 50.837742 116 62 86
15.025782 5.050266 50.837742 120 67 90
15.000097 5.151035 50.750843 123 71 91
15.000097 5.260437 50.750843 118 66 85
14.974500 5.360675 50.664234 112 60 79
15.000097 5.479240 50.750843 111 59 77
15.000097 5.588642 50.750843 109 58 75
15.000097 5.698043 50.750843 106 56 73
15.025782 5.817389 50.837742 103 54 70
14.974500 5.906750 50.664234 101 52 67
14.822731 5.954992 50.150745 100 51 65
25.361435 11.483686 85.807060 94 49 62
24.649036 11.520661 83.396751 89 48 59
15.129408 7.623027 51.188347 88 50 58
15.782476 8.182294 53.397919 90 50 61
15.503633 8.150805 52.454491 90 50 60
15.341008 8.177195 51.904270 90 49 59
15.103368 8.160681 51.100246 90 49 58
9.600718 10.439119 32.482761 49 30 32
15.341008 18.135237 51.904270 43 30 30
15.051555 17.902840 50.924942 42 30 30
15.000097 17.951035 50.750843 42 30 30
15.025782 18.091362 50.837742 42 30 31
15.558611 20.321552 52.640499 37 27 28
15.613979 20.507750 52.827831 37 27 28
15.006887 1.530315 50.406185 107 52 63
15.083714 1.647364 50.664234 111 56 66
15.083714 1.756579 50.664234 115 60 71
15.058018 1.862616 50.577927 116 62 74
15.083714 1.975009 50.664234 118 64 77
15.109499 2.087787 50.750843 119 64 79
15.109499 2.197189 50.750843 118 63 79
15.135371 2.310540 50.837742 117 61 79
15.161332 2.424280 50.924942 116 60 79
15.135371 2.529718 50.837742 115 60 81
15.187383 2.648377 51.012444 114 60 82
15.239753 2.767854 51.188347 114 61 82
15.109499 2.853599 50.750843 112 60 81
15.083714 2.957944 50.664234 114 63 82
15.135371 3.077663 50.837742 115 65 82
15.083714 3.176374 50.664234 115 67 82
15.187383 3.308171 51.012444 117 69 82
15.161332 3.412274 50.924942 118 69 83
15.135371 3.516020 50.837742 118 69 82
15.135371 3.625609 50.837742 117 68 80
15.109499 3.728813 50.750843 116 66 78
15.213523 4.084949 51.100246 113 62 75
15.187383 4.407827 51.012444 116 62 82
15.135371 4.502321 50.837742 116 61 84
15.109499 4.604026 50.750843 116 60 86
15.109499 4.713428 50.750843 116 60 86
15.109499 4.822830 50.750843 116 61 86
15.135371 4.940677 50.837742 116 62 86
15.109499 5.041633 50.750843 118 64 87
15.083714 5.142245 50.664234 118 65 86
15.083714 5.251460 50.664234 114 62 81
15.058018 5.351542 50.577927 109 57 76
15.083714 5.469890 50.664234 108 57 74
15.083714 5.579105 50.664234 107 56 73
15.109499 5.698043 50.750843 104 53 71
15.109499 5.807445 50.750843 102 52 68
15.032410 5.886659 50.491909 100 50 65
14.880567 5.934942 49.981888 98 49 63
25.472786 11.081716 85.559776 94 49 62
25.472786 11.266154 85.559776 94 50 63
25.399588 11.417688 85.313911 93 50 62
25.182497 11.502438 84.584732 90 48 60
24.828812 11.520661 83.396751 88 47 58
15.840603 8.152966 53.206528 89 49 60
15.616708 8.150805 52.454491 90 49 60
15.425928 8.162924 51.813686 89 49 59
15.135371 8.118759 50.837742 89 48 58
9.691948 10.321662 32.553993 51 32 34
9.670740 10.369098 32.482761 50 31 33
9.639102 10.404968 32.376492 49 30 32
9.618125 10.451964 32.306030 48 30 31
15.644348 18.246647 52.547333 44 29 30
15.399054 18.072048 51.723419 42 29 29
15.161332 17.902840 50.924942 42 30 30
15.109499 17.951035 50.750843 42 30 30
15.161332 18.122393 50.924942 41 30 30
15.058018 18.107931 50.577927 41 30 31
15.167048 1.644558 50.577927 111 55 66
15.192929 1.756579 50.664234 114 57 69
15.167048 1.862616 50.577927 115 59 72
15.192929 1.975009 50.664234 116 61 74
15.218901 2.087787 50.750843 116 61 76
15.218901 2.197189 50.750843 115 60 76
15.244960 2.310540 50.837742 115 60 76
15.244960 2.420129 50.837742 114 59 77
15.218901 2.525394 50.750843 114 60 78
15.297348 2.648377 51.012444 113 61 80
15.376609 2.772635 51.276756 112 61 80
15.244960 2.858485 50.837742 110 60 78
15.218901 2.963001 50.750843 111 62 78
15.244960 3.077663 50.837742 113 64 79
15.167048 3.170963 50.577927 114 66 80
15.244960 3.406430 50.837742 116 68 81
15.218901 3.510009 50.750843 116 68 82
15.192929 3.613235 50.664234 115 67 80
15.271110 4.400267 50.924942 114 61 80
15.218901 4.494625 50.750843 114 60 82
15.192929 4.596170 50.664234 115 60 85
15.192929 4.705385 50.664234 115 60 85
15.192929 4.814600 50.664234 115 61 86
15.218901 4.932231 50.750843 115 61 86
15.192929 5.033030 50.664234 115 61 84
15.167048 5.133485 50.577927 114 61 82
15.167048 5.242514 50.577927 111 59 79
15.141253 5.342441 50.491909 108 57 75
15.167048 5.460571 50.577927 107 56 73
15.167048 5.569601 50.577927 105 55 71
15.192929 5.688320 50.664234 103 52 69
15.192929 5.797535 50.664234 100 50 66
15.141253 5.886659 50.491909 98 48 63
14.988311 5.934942 49.981888 96 47 61
25.437305 10.986730 84.826408 93 50 63
25.583496 11.233780 85.313911 94 52 65
25.510191 11.384973 85.069466 93 51 64
25.292774 11.469760 84.344437 91 49 62
25.079033 11.553114 83.631668 88 47 59
25.079033 11.733396 83.631668 85 46 56
15.983944 8.052703 53.302052 86 47 57
15.869976 8.109368 52.922001 87 47 58
15.729782 8.150805 52.454491 88 47 58
15.271110 8.132686 50.924942 87 47 57
18.743277 15.506012 62.503666 62 35 39
19.917353 17.050013 66.418884 60 35 39
19.697027 17.002998 65.684166 60 35 38
