ply
format ascii 1.0
element vertex 1227
property float x
property float y
property float z
property uchar red
property uchar green
property uchar blue
end_header
9.554387 1.875779 48.118706 146 81 100
9.523517 1.973111 47.963234 141 76 95
9.523517 2.076503 47.963234 138 72 93
9.508156 2.176380 47.885876 138 73 94
9.508156 2.279606 47.885876 138 73 96
9.523517 2.386681 47.963234 140 75 99
9.508156 2.486057 47.885876 145 80 104
9.508156 2.589283 47.885876 147 83 105
9.462370 2.679543 47.655285 143 80 101
9.417024 2.768939 47.426903 139 76 97
9.417024 2.871175 47.426903 137 75 95
9.387033 2.963942 47.275864 138 77 96
9.387033 3.065853 47.275864 138 78 96
9.357233 3.157707 47.125782 138 77 97
9.357233 3.259295 47.125782 138 78 97
9.357233 3.360882 47.125782 138 79 98
9.357233 3.462469 47.125782 138 81 100
9.372109 3.569722 47.200703 140 84 103
9.387033 3.677318 47.275864 141 87 107
9.402004 3.785256 47.351265 139 85 105
9.417024 3.893539 47.426903 133 81 100
9.462370 4.015017 47.655285 131 79 99
9.477583 4.124366 47.731899 131 82 101
9.492845 4.234067 47.808765 131 85 104
9.492845 4.337126 47.808765 134 91 108
9.492845 4.440186 47.808765 134 96 111
9.492845 4.543245 47.808765 130 96 111
9.477583 4.638835 47.731899 132 102 115
9.492845 4.749365 47.808765 151 122 134
9.477583 4.844623 47.731899 182 152 164
9.492845 4.955484 47.808765 211 179 190
9.477583 5.050411 47.731899 225 188 198
9.447206 5.136787 47.578915 203 160 170
9.432091 5.230969 47.502789 152 102 112
9.447206 5.341916 47.578915 112 57 68
9.447206 5.444480 47.578915 104 48 58
9.432091 5.538169 47.502789 108 53 63
9.432091 5.640569 47.502789 107 56 65
9.462370 5.761405 47.655285 104 56 65
10.008585 6.311300 50.406185 92 53 61
10.042686 6.441832 50.577927 87 51 59
10.025606 6.539720 50.491909 81 49 56
10.059824 6.671255 50.664234 77 46 53
10.059824 6.780470 50.664234 73 44 51
10.042686 6.877948 50.577927 71 43 49
10.059824 6.998900 50.664234 72 43 48
10.199059 7.427951 51.365471 77 46 50
10.288057 7.604460 51.813686 79 46 50
10.342205 7.756764 52.086391 80 47 51
10.360381 7.882874 52.177929 80 48 51
10.378621 8.009429 52.269794 78 47 51
10.378621 8.122105 52.269794 75 44 49
10.342205 8.205887 52.086391 72 42 47
10.288057 8.274617 51.813686 70 40 45
10.216736 8.328173 51.454491 69 37 43
10.146397 8.380990 51.100246 68 35 42
9.974715 8.455762 50.235603 72 34 41
9.891035 8.492208 49.814163 76 33 40
9.825094 8.542259 49.482071 80 32 40
9.776214 8.605896 49.235889 85 32 41
9.776214 8.712032 49.235889 90 33 42
9.776214 8.818169 49.235889 94 35 45
9.664027 8.821895 48.670887 99 37 49
9.569897 8.839863 48.196823 102 39 53
9.432091 8.814969 47.502789 103 42 57
9.477583 8.960379 47.731899 104 44 61
9.432091 9.019769 47.502789 106 47 65
9.402004 9.093071 47.351265 113 56 75
9.432091 9.224568 47.502789 129 73 94
9.417024 9.312070 47.426903 142 88 108
9.417024 9.414306 47.426903 140 86 106
9.402004 9.501365 47.351265 132 77 95
9.387033 9.588145 47.275864 129 74 91
9.387033 9.690057 47.275864 128 73 89
9.342403 11.063954 47.051098 121 62 74
9.342403 11.165381 47.051098 118 58 71
9.357233 11.284691 47.125782 116 55 69
9.327621 11.350246 46.976650 114 53 68
9.931761 -3.511074 49.482071 120 59 75
9.931761 -3.404408 49.482071 123 60 76
9.915236 -3.292254 49.399738 122 60 75
9.915236 -3.185765 49.399738 122 60 75
9.882349 -3.069062 49.235889 126 65 78
9.882349 -2.962926 49.235889 131 70 81
9.865988 -2.852061 49.154373 132 70 80
9.849680 -2.741561 49.073128 133 70 80
9.817226 -2.627091 48.911438 132 68 79
9.768946 -2.509253 48.670887 124 60 73
9.784986 -2.408283 48.750809 120 56 71
9.784986 -2.303193 48.750809 121 58 75
9.752956 -2.190907 48.591232 121 60 78
9.768946 -2.089581 48.670887 122 60 80
9.784986 -1.987922 48.750809 122 60 82
9.784986 -1.882832 48.750809 121 60 82
9.768946 -1.774827 48.670887 123 63 85
9.801080 -1.675402 48.830990 130 70 92
9.784986 -1.567561 48.750809 136 77 97
9.784986 -1.462471 48.750809 133 74 93
9.784986 -1.357380 48.750809 121 63 80
9.768946 -1.250237 48.670887 115 55 73
9.752956 -1.143444 48.591232 119 59 77
9.752956 -1.038698 48.591232 129 67 87
9.752956 -0.933952 48.591232 136 71 92
9.737020 -0.827851 48.511833 141 75 97
9.737020 -0.723275 48.511833 142 77 98
9.721136 -0.617691 48.432693 132 67 89
9.689523 -0.511617 48.275192 122 57 78
9.689523 -0.407552 48.275192 122 59 79
9.689523 -0.303487 48.275192 128 65 83
9.689523 -0.199422 48.275192 130 67 85
9.673793 -0.095202 48.196823 131 67 85
9.673793 0.008694 48.196823 130 66 85
9.673793 0.112590 48.196823 129 65 86
9.673793 0.216486 48.196823 130 64 87
9.673793 0.320382 48.196823 132 65 90
9.673793 0.424278 48.196823 134 66 91
9.721136 0.530759 48.432693 134 64 90
9.721136 0.635164 48.432693 133 64 89
9.737020 0.740777 48.511833 134 66 89
9.721136 0.843973 48.432693 132 68 90
9.721136 0.948378 48.432693 128 69 89
9.721136 1.052782 48.432693 127 70 90
9.705304 1.155302 48.353813 130 75 95
9.689523 1.257489 48.275192 138 85 105
9.689523 1.361554 48.275192 150 96 118
9.673793 1.463239 48.196823 157 101 123
9.673793 1.567135 48.196823 152 92 115
9.658114 1.668323 48.118706 145 83 105
9.658114 1.772051 48.118706 148 83 104
9.658114 1.875779 48.118706 148 82 103
9.626909 1.973111 47.963234 143 76 97
9.611382 2.073154 47.885876 139 72 94
9.611382 2.176380 47.885876 139 72 95
9.611382 2.279606 47.885876 139 73 96
9.611382 2.382831 47.885876 140 74 98
9.595904 2.482054 47.808765 142 76 100
9.595904 2.585114 47.808765 142 77 99
9.549770 2.675249 47.578915 138 75 95
9.504078 2.764522 47.351265 134 72 92
9.504078 2.866596 47.351265 132 72 91
9.473858 2.959230 47.200703 133 74 93
9.488944 3.065853 47.275864 134 76 95
9.458820 3.157707 47.125782 134 77 96
9.458820 3.259295 47.125782 135 78 98
9.458820 3.360882 47.125782 136 80 99
9.458820 3.462469 47.125782 136 81 100
9.473858 3.569722 47.200703 137 83 102
9.488944 3.677318 47.275864 136 84 103
9.488944 3.779228 47.275864 132 82 100
9.504078 3.887329 47.351265 129 80 97
9.534491 4.002169 47.502789 130 83 100
9.565099 4.117745 47.655285 133 88 104
9.580477 4.227260 47.731899 134 92 107
9.580477 4.330153 47.731899 135 95 110
9.580477 4.433047 47.731899 134 98 111
9.565099 4.528660 47.655285 131 98 112
9.565099 4.631389 47.655285 142 111 124
9.565099 4.734118 47.655285 175 147 158
9.565099 4.836847 47.655285 212 186 195
9.565099 4.939575 47.655285 232 203 213
9.549770 5.034224 47.578915 225 188 200
9.534491 5.128569 47.502789 184 138 150
9.519259 5.222612 47.426903 132 79 91
9.519259 5.324849 47.426903 105 50 60
9.534491 5.435769 47.502789 105 50 59
9.504078 5.520503 47.351265 107 55 62
9.519259 5.631558 47.426903 104 56 63
10.151715 6.332803 50.577927 88 53 60
10.169039 6.452825 50.664234 83 51 58
10.134450 6.539720 50.491909 78 48 55
10.186421 6.682659 50.750843 75 45 53
10.186421 6.792061 50.750843 72 44 51
10.186421 6.901463 50.750843 71 44 50
10.221367 7.034915 50.924942 72 44 49
10.291981 7.304586 51.276756 76 46 50
10.363577 7.466705 51.633465 77 46 50
10.454485 7.644483 52.086391 78 47 50
10.472858 7.770396 52.177929 78 47 50
10.491297 7.896752 52.269794 77 46 49
10.509800 8.023555 52.361980 75 44 48
10.491297 8.122105 52.269794 72 42 47
10.454485 8.205887 52.086391 70 40 45
10.381632 8.260201 51.723419 68 37 44
10.291981 8.299405 51.276756 68 36 43
10.238929 8.366590 51.012444 69 34 42
10.169039 8.418695 50.664234 70 34 41
9.998417 8.384825 49.814163 73 33 41
9.931761 8.435593 49.482071 77 33 41
9.865988 8.591648 49.154373 86 33 42
9.849680 8.683232 49.073128 91 33 43
9.849680 8.789018 49.073128 95 35 46
9.721136 8.778720 48.432693 99 38 50
9.626909 8.797020 47.963234 102 41 54
9.519259 8.800887 47.426903 103 43 58
9.565099 8.945996 47.655285 104 45 62
9.534491 9.019769 47.502789 107 49 68
9.488944 9.078591 47.275864 116 60 80
9.504078 9.195145 47.351265 131 76 98
9.488944 9.282413 47.275864 141 88 109
9.488944 9.384324 47.275864 139 85 106
9.488944 9.486235 47.275864 132 78 98
9.473858 9.572902 47.200703 128 73 92
9.473858 9.674651 47.200703 128 73 89
9.473858 9.776400 47.200703 128 72 86
9.428887 11.147715 46.976650 117 57 69
9.443830 11.266808 47.051098 114 54 67
9.413992 11.332315 46.902435 113 53 66
9.443830 11.469660 47.051098 113 53 67
9.428887 11.552777 46.976650 113 54 69
10.038427 -3.511074 49.482071 121 59 75
10.038427 -3.404408 49.482071 125 62 78
10.021725 -3.292254 49.399738 124 60 76
10.021725 -3.185765 49.399738 124 60 75
9.971948 -3.063981 49.154373 129 66 80
9.971948 -2.958021 49.154373 134 70 83
9.955465 -2.847346 49.073128 133 70 81
9.939037 -2.737037 48.992149 133 69 80
9.906343 -2.622771 48.830990 129 66 77
9.873863 -2.509253 48.670887 122 58 69
9.873863 -2.404335 48.670887 119 54 68
9.873863 -2.299417 48.670887 121 57 72
9.857703 -2.190907 48.591232 122 59 75
9.857703 -2.086161 48.591232 121 58 78
9.890077 -1.987922 48.750809 120 56 79
9.873863 -1.879745 48.670887 120 57 81
9.857703 -1.771922 48.591232 124 61 86
9.890077 -1.672651 48.750809 132 70 95
9.873863 -1.564991 48.670887 137 76 99
9.873863 -1.460073 48.670887 132 73 94
9.873863 -1.355155 48.670887 123 64 84
9.857703 -1.248191 48.591232 117 58 77
9.857703 -1.143444 48.591232 121 60 79
9.857703 -1.038698 48.591232 129 67 87
9.857703 -0.933952 48.591232 136 71 92
9.825541 -0.826500 48.432693 140 74 95
9.841596 -0.723275 48.511833 138 73 95
9.825541 -0.617691 48.432693 129 64 86
9.793588 -0.511617 48.275192 121 57 79
9.793588 -0.407552 48.275192 125 62 82
9.793588 -0.303487 48.275192 129 67 86
9.793588 -0.199422 48.275192 130 67 87
9.777689 -0.095202 48.196823 130 66 87
9.777689 0.008694 48.196823 129 65 86
9.793588 0.112773 48.275192 127 63 86
9.777689 0.216486 48.196823 128 62 88
9.777689 0.320382 48.196823 132 66 93
9.793588 0.424968 48.275192 135 68 95
9.825541 0.530759 48.432693 133 65 92
9.841596 0.636202 48.511833 131 64 91
9.857703 0.741989 48.591232 134 69 94
9.841596 0.845352 48.511833 133 71 95
9.841596 0.949927 48.511833 128 69 92
9.841596 1.054502 48.511833 126 69 93
9.825541 1.157187 48.432693 134 80 103
9.809539 1.259537 48.353813 145 91 115
9.809539 1.363771 48.353813 150 95 119
9.793588 1.465619 48.275192 150 93 117
9.777689 1.567135 48.196823 148 89 112
9.761842 1.668323 48.118706 147 86 108
9.761842 1.772051 48.118706 148 85 107
9.746046 1.872743 48.040844 145 81 103
9.714607 1.969928 47.885876 140 74 97
9.714607 2.073154 47.885876 138 71 95
9.698964 2.172875 47.808765 139 72 96
9.698964 2.275935 47.808765 139 72 96
9.698964 2.378994 47.808765 138 72 95
9.683371 2.478063 47.731899 137 72 94
9.698964 2.585114 47.808765 136 72 93
9.652334 2.675249 47.578915 134 72 91
9.606151 2.764522 47.351265 132 72 90
9.606151 2.866596 47.351265 131 73 90
9.590855 2.963942 47.275864 131 74 92
9.590855 3.065853 47.275864 132 76 94
9.560408 3.157707 47.125782 133 77 97
9.560408 3.259295 47.125782 135 79 99
9.575606 3.366225 47.200703 135 80 101
9.575606 3.467974 47.200703 134 81 100
9.590855 3.575407 47.275864 133 81 101
9.590855 3.677318 47.275864 131 81 100
9.590855 3.779228 47.275864 127 79 96
9.606151 3.887329 47.351265 126 81 97
9.636890 4.002169 47.502789 131 88 103
9.667828 4.117745 47.655285 135 95 108
9.683371 4.227260 47.731899 137 98 111
9.683371 4.330153 47.731899 137 101 112
9.667828 4.425932 47.655285 135 101 113
9.667828 4.528660 47.655285 135 104 116
9.652334 4.623967 47.578915 157 128 141
9.667828 4.734118 47.655285 201 177 187
9.667828 4.836847 47.655285 235 217 223
9.667828 4.939575 47.655285 239 215 223
9.652334 5.034224 47.578915 208 170 184
9.636890 5.128569 47.502789 155 106 121
9.621496 5.222612 47.426903 116 61 75
9.621496 5.324849 47.426903 104 49 60
9.636890 5.435769 47.502789 106 52 61
9.621496 5.529322 47.426903 105 55 62
10.331143 6.266476 50.924942 90 55 59
10.278254 6.343610 50.664234 85 53 57
10.260744 6.441832 50.577927 79 51 56
10.243294 6.539720 50.491909 75 48 54
10.331143 6.705584 50.924942 72 45 53
10.331143 6.815361 50.924942 71 44 52
10.348894 6.937037 51.012444 71 44 51
10.402515 7.083516 51.276756 72 45 50
10.402515 7.194051 51.276756 75 46 50
10.456696 7.342631 51.543823 76 47 51
10.529819 7.505866 51.904270 77 47 51
10.585337 7.657918 52.177929 78 47 50
10.603973 7.784077 52.269794 77 46 49
10.622675 7.910680 52.361980 74 44 48
10.622675 8.023555 52.361980 72 42 47
10.603973 8.122105 52.269794 70 40 45
10.548261 8.191516 51.995171 67 38 45
10.456696 8.231520 51.543823 67 36 44
10.366707 8.270836 51.100246 67 35 43
10.313453 8.337937 50.837742 69 34 42
10.260744 8.404353 50.577927 71 33 41
10.072001 8.356782 49.647564 74 33 41
9.988485 8.499761 49.235889 83 33 41
9.906343 8.535124 48.830990 88 34 42
9.873863 8.612058 48.670887 92 34 44
9.890077 8.731290 48.750809 96 36 46
9.793588 8.750172 48.275192 99 39 50
9.714607 8.782831 47.885876 101 41 54
9.636890 8.814969 47.502789 102 44 59
9.683371 8.960379 47.731899 103 47 63
9.636890 9.019769 47.502789 108 53 71
9.590855 9.078591 47.275864 119 66 85
9.606151 9.195145 47.351265 131 79 98
9.590855 9.282413 47.275864 136 84 104
9.590855 9.384324 47.275864 136 85 105
9.575606 9.471153 47.200703 134 82 101
9.560408 9.557707 47.125782 129 76 94
9.560408 9.659294 47.125782 128 73 90
9.560408 9.760881 47.125782 129 74 89
9.515098 11.130103 46.902435 115 56 66
9.530153 11.248981 46.976650 111 52 64
9.500090 11.314441 46.828457 111 52 65
9.530153 11.451511 46.976650 112 53 67
9.515098 11.534527 46.902435 112 55 69
10.145095 -3.617741 49.482071 116 56 71
10.145095 -3.511074 49.482071 121 60 76
10.145095 -3.404408 49.482071 126 64 80
10.128214 -3.292254 49.399738 127 63 79
10.128214 -3.185765 49.399738 127 64 79
10.077909 -3.063981 49.154373 130 67 82
10.077909 -2.958021 49.154373 131 69 81
10.044648 -2.842648 48.992149 130 68 79
10.028100 -2.732528 48.911438 129 67 78
9.995167 -2.618464 48.750809 124 62 72
9.978782 -2.509253 48.670887 119 57 68
9.962449 -2.400400 48.591232 120 58 69
9.962449 -2.295654 48.591232 125 63 76
9.946171 -2.187328 48.511833 125 63 79
9.946171 -2.082752 48.511833 122 58 77
9.978782 -1.984663 48.670887 118 53 76
9.962449 -1.876669 48.591232 119 54 79
9.962449 -1.771922 48.591232 126 61 88
9.995167 -1.672651 48.750809 135 72 97
9.978782 -1.564991 48.670887 137 76 99
9.978782 -1.460073 48.670887 132 71 93
9.978782 -1.355155 48.670887 124 65 85
9.962449 -1.248191 48.591232 120 60 79
9.962449 -1.143444 48.591232 122 61 80
9.962449 -1.038698 48.591232 130 68 87
9.946171 -0.932426 48.511833 136 72 91
9.929946 -0.826500 48.432693 137 72 92
9.946171 -0.723275 48.511833 134 69 90
9.929946 -0.617691 48.432693 127 62 83
9.897653 -0.511617 48.275192 124 59 81
9.897653 -0.407552 48.275192 128 65 86
9.897653 -0.303487 48.275192 133 70 90
9.897653 -0.199422 48.275192 131 69 90
9.881585 -0.095202 48.196823 129 65 88
9.881585 0.008694 48.196823 126 62 86
9.897653 0.112773 48.275192 125 60 85
9.881585 0.216486 48.196823 126 60 87
9.881585 0.320382 48.196823 131 65 93
9.897653 0.424968 48.275192 134 68 97
9.929946 0.530759 48.432693 133 66 94
9.946171 0.636202 48.511833 131 66 94
9.946171 0.740777 48.511833 133 69 97
9.946171 0.845352 48.511833 131 70 97
9.946171 0.949927 48.511833 127 68 95
9.946171 1.054502 48.511833 129 71 98
9.929946 1.157187 48.432693 141 84 111
9.913773 1.259537 48.353813 148 92 119
9.913773 1.363771 48.353813 146 89 117
9.897653 1.465619 48.275192 144 86 113
9.881585 1.567135 48.196823 145 86 112
9.865570 1.668323 48.118706 146 86 111
9.849607 1.769184 48.040844 144 83 107
9.849607 1.872743 48.040844 138 76 101
9.817833 1.969928 47.885876 134 72 96
9.817833 2.073154 47.885876 135 71 96
9.802024 2.172875 47.808765 137 71 96
9.802024 2.275935 47.808765 136 71 95
9.802024 2.378994 47.808765 135 69 93
9.786264 2.478063 47.731899 132 68 90
9.802024 2.585114 47.808765 131 68 88
9.754898 2.675249 47.578915 131 70 88
9.708224 2.764522 47.351265 131 71 88
9.708224 2.866596 47.351265 131 73 89
9.692765 2.963942 47.275864 132 75 90
9.708224 3.070742 47.351265 133 77 92
9.677356 3.162727 47.200703 135 78 95
9.677356 3.264476 47.200703 137 81 100
9.692765 3.371585 47.275864 136 81 101
9.692765 3.473496 47.275864 131 78 98
9.708224 3.581109 47.351265 128 76 97
9.708224 3.683182 47.351265 127 77 96
9.692765 3.779228 47.275864 125 78 95
9.708224 3.887329 47.351265 127 84 98
9.754898 4.008583 47.578915 134 93 105
9.770556 4.117745 47.655285 138 100 111
9.786264 4.227260 47.731899 140 104 114
9.786264 4.330153 47.731899 139 105 115
9.754898 4.418839 47.578915 136 104 114
9.754898 4.521403 47.578915 142 111 123
9.754898 4.623967 47.578915 175 145 159
9.770556 4.734118 47.655285 221 198 210
9.754898 4.829095 47.578915 244 229 237
9.770556 4.939575 47.655285 227 203 214
9.754898 5.034224 47.578915 175 133 151
9.739290 5.128569 47.502789 123 70 89
9.739290 5.230969 47.502789 105 49 65
9.739290 5.333369 47.502789 106 50 63
9.739290 5.435769 47.502789 105 53 63
9.754898 5.547044 47.578915 102 54 61
10.531240 6.209958 51.365471 93 54 59
10.440921 6.266476 50.924942 87 53 57
10.369773 6.441832 50.577927 77 49 54
10.369773 6.550861 50.577927 73 47 53
10.458860 6.717105 51.012444 71 45 52
10.494925 6.850613 51.188347 71 45 52
10.549492 6.997150 51.454491 71 45 52
10.604629 7.145218 51.723419 73 46 52
10.623136 7.269381 51.813686 75 47 52
10.641707 7.393978 51.904270 76 47 52
10.697815 7.545440 52.177929 76 47 52
10.735550 7.684930 52.361980 76 47 51
10.735550 7.797805 52.361980 74 45 49
10.735550 7.910680 52.361980 72 43 47
10.735550 8.023555 52.361980 70 41 46
10.697815 8.107830 52.177929 68 39 45
10.641707 8.177195 51.904270 66 37 44
10.531240 8.203037 51.365471 66 35 44
10.458860 8.256624 51.012444 67 34 43
10.405225 8.323685 50.750843 69 34 42
10.299588 8.347471 50.235603 72 33 41
10.094622 8.393624 49.235889 80 33 41
10.044648 8.457683 48.992149 84 34 42
9.913773 8.451719 48.353813 89 34 43
9.865570 8.514353 48.118706 93 36 45
9.881585 8.632071 48.196823 96 37 48
9.865570 8.721807 48.118706 99 40 52
9.754898 8.726531 47.578915 100 42 56
9.723733 8.800887 47.426903 100 45 60
9.786264 8.960379 47.731899 102 49 66
9.723733 9.005361 47.426903 111 59 77
9.677356 9.064158 47.200703 123 74 92
9.692765 9.180502 47.275864 133 83 102
9.677356 9.267655 47.200703 134 85 104
9.677356 9.369405 47.200703 135 86 105
9.661995 9.456120 47.125782 134 83 104
9.661995 9.557707 47.125782 128 75 96
9.646683 9.643987 47.051098 126 71 91
9.601036 10.809709 46.828457 126 69 75
9.601036 10.910655 46.828457 129 72 79
9.616203 11.028997 46.902435 122 64 73
9.616203 11.130103 46.902435 113 55 65
9.616203 11.231209 46.902435 109 51 62
9.601036 11.314441 46.828457 109 52 64
9.616203 11.433421 46.902435 111 54 67
9.601036 11.516334 46.828457 112 56 70
9.601036 11.617280 46.828457 112 58 74
10.251761 -3.617741 49.482071 116 59 74
10.251761 -3.511074 49.482071 119 60 75
10.251761 -3.404408 49.482071 124 63 80
10.251761 -3.297741 49.482071 132 70 86
10.234703 -3.185765 49.399738 138 75 91
10.183868 -3.063981 49.154373 133 72 86
10.183868 -2.958021 49.154373 126 66 78
10.150258 -2.842648 48.992149 127 67 78
10.100257 -2.723554 48.750809 126 66 78
10.067196 -2.609893 48.591232 121 61 73
10.067196 -2.505147 48.591232 119 59 70
10.067196 -2.400400 48.591232 124 63 75
10.067196 -2.295654 48.591232 131 69 82
10.050746 -2.187328 48.511833 129 66 83
10.050746 -2.082752 48.511833 122 58 78
10.067196 -1.981415 48.591232 118 53 75
10.067196 -1.876669 48.591232 120 54 79
10.050746 -1.769027 48.511833 128 63 88
10.083699 -1.669909 48.670887 136 73 97
10.067196 -1.562430 48.591232 137 76 98
10.083699 -1.460073 48.670887 132 72 92
10.083699 -1.355155 48.670887 126 66 85
10.067196 -1.248191 48.591232 122 62 79
10.067196 -1.143444 48.591232 125 63 80
10.050746 -1.037001 48.511833 132 69 87
10.050746 -0.932426 48.511833 137 72 91
10.034350 -0.826500 48.432693 136 70 90
10.050746 -0.723275 48.511833 131 67 87
10.034350 -0.617691 48.432693 127 63 83
10.001719 -0.511617 48.275192 126 62 83
10.001719 -0.407552 48.275192 131 67 88
10.001719 -0.303487 48.275192 134 71 91
9.985481 -0.199098 48.196823 132 69 90
9.969297 -0.095048 48.118706 127 64 87
9.985481 0.008694 48.196823 123 58 84
9.985481 0.112590 48.196823 122 57 84
9.969297 0.216135 48.118706 124 60 87
9.985481 0.320382 48.196823 128 64 93
10.001719 0.424968 48.275192 132 66 96
10.018007 0.529895 48.353813 132 67 97
10.034350 0.635164 48.432693 131 67 97
10.034350 0.739568 48.432693 131 67 98
10.034350 0.843973 48.432693 128 67 98
10.050746 0.949927 48.511833 126 66 98
10.050746 1.054502 48.511833 132 72 105
10.034350 1.157187 48.432693 142 82 115
10.018007 1.259537 48.353813 145 86 118
10.018007 1.363771 48.353813 142 83 114
10.001719 1.465619 48.275192 141 82 112
9.985481 1.567135 48.196823 143 85 112
9.969297 1.668323 48.118706 144 85 111
9.953166 1.769184 48.040844 140 80 106
9.953166 1.872743 48.040844 133 73 99
9.921059 1.969928 47.885876 131 69 97
9.921059 2.073154 47.885876 132 70 98
9.905083 2.172875 47.808765 135 71 99
9.905083 2.275935 47.808765 136 72 100
9.905083 2.378994 47.808765 134 69 95
9.889158 2.478063 47.731899 128 65 88
9.905083 2.585114 47.808765 127 65 85
9.857463 2.675249 47.578915 129 68 87
9.810298 2.764522 47.351265 131 72 89
9.825969 2.871175 47.426903 133 75 90
9.810298 2.968669 47.351265 134 77 91
9.825969 3.075648 47.426903 135 78 92
9.779104 3.162727 47.200703 137 79 95
9.779104 3.264476 47.200703 138 81 98
9.794676 3.371585 47.275864 136 80 99
9.794676 3.473496 47.275864 130 76 95
9.794676 3.575407 47.275864 126 74 93
9.794676 3.677318 47.275864 125 77 93
9.779104 3.773220 47.200703 125 80 94
9.810298 3.887329 47.351265 128 87 98
9.857463 4.008583 47.578915 134 95 105
9.873285 4.117745 47.655285 139 103 111
9.873285 4.220474 47.655285 142 108 115
9.857463 4.316275 47.578915 140 107 115
9.841691 4.411769 47.502789 138 106 115
9.841691 4.514169 47.502789 154 124 135
9.841691 4.616569 47.502789 195 164 180
9.841691 4.718969 47.502789 232 204 221
9.841691 4.821369 47.502789 236 210 226
9.857463 4.931659 47.578915 200 165 185
9.841691 5.026169 47.502789 142 92 116
9.825969 5.120376 47.426903 106 48 71
9.825969 5.222612 47.426903 104 46 64
9.810298 5.316356 47.351265 108 52 66
9.825969 5.427085 47.426903 105 52 63
9.841691 5.538169 47.502789 100 52 61
10.660410 6.220720 51.454491 90 52 57
10.550697 6.266476 50.924942 84 51 55
10.496684 6.562040 50.664234 73 46 51
10.605270 6.740268 51.188347 72 45 51
10.660410 6.886231 51.454491 72 45 51
10.734828 7.045996 51.813686 71 46 51
10.772429 7.182759 51.995171 74 48 54
10.791327 7.307641 52.086391 77 50 56
10.810293 7.432962 52.177929 77 49 54
10.829325 7.558724 52.269794 74 47 51
10.867591 7.698508 52.454491 73 46 50
10.867591 7.811582 52.454491 72 45 49
10.867591 7.924656 52.454491 69 42 46
10.848424 8.023555 52.361980 67 39 45
10.791327 8.093606 52.086391 66 37 45
10.734828 8.162924 51.813686 65 36 44
10.623587 8.188869 51.276756 65 35 44
10.550697 8.242462 50.924942 67 34 43
10.478802 8.295324 50.577927 70 33 42
10.286048 8.249759 49.647564 73 33 41
10.116870 8.324597 48.830990 80 34 42
10.034350 8.361102 48.432693 85 34 43
9.969297 8.410625 48.118706 90 35 44
9.905083 8.459510 47.808765 94 37 47
9.921059 8.576380 47.885876 97 39 50
9.889158 8.651697 47.731899 98 42 54
9.794676 8.670948 47.275864 100 45 58
9.810298 8.786851 47.351265 100 48 63
9.873285 8.945996 47.655285 103 53 70
9.810298 8.990997 47.351265 114 66 83
9.763582 9.049770 47.125782 129 82 99
9.763582 9.151358 47.125782 138 92 109
9.748109 9.238281 47.051098 138 92 109
9.748109 9.339707 47.051098 136 88 106
9.748109 9.441133 47.051098 132 83 102
9.748109 9.542561 47.051098 125 74 95
9.717309 10.624575 46.902435 116 62 68
9.701982 10.809709 46.828457 130 73 79
9.701982 10.910655 46.828457 132 75 81
9.701982 11.011601 46.828457 123 65 73
9.701982 11.112548 46.828457 111 55 64
9.717309 11.231209 46.902435 107 51 61
9.686704 11.296623 46.754711 107 51 63
9.717309 11.433421 46.902435 108 53 66
9.701982 11.516334 46.828457 109 56 70
9.701982 11.617280 46.828457 111 58 75
9.686704 11.699773 46.754711 113 61 78
10.358428 -3.617741 49.482071 116 59 72
10.358428 -3.511074 49.482071 117 59 72
10.358428 -3.404408 49.482071 124 63 78
10.358428 -3.297741 49.482071 138 76 91
10.341192 -3.185765 49.399738 145 83 99
10.289829 -3.063981 49.154373 133 73 88
10.289829 -2.958021 49.154373 123 63 77
10.238973 -2.837965 48.911438 124 64 78
10.205347 -2.723554 48.750809 124 66 79
10.171942 -2.609893 48.591232 122 64 78
10.171942 -2.505147 48.591232 123 65 78
10.171942 -2.400400 48.591232 130 71 84
10.171942 -2.295654 48.591232 133 72 87
10.155321 -2.187328 48.511833 127 64 83
10.155321 -2.082752 48.511833 120 55 77
10.171942 -1.981415 48.591232 118 53 75
10.171942 -1.876669 48.591232 123 58 81
10.155321 -1.769027 48.511833 131 67 89
10.188618 -1.669909 48.670887 135 73 93
10.188618 -1.564991 48.670887 135 74 92
10.188618 -1.460073 48.670887 132 72 88
10.188618 -1.355155 48.670887 128 67 82
10.171942 -1.248191 48.591232 124 62 77
10.171942 -1.143444 48.591232 126 64 79
10.155321 -1.037001 48.511833 134 70 86
10.155321 -0.932426 48.511833 138 73 90
10.138755 -0.826500 48.432693 136 70 88
10.138755 -0.722095 48.432693 132 67 85
10.138755 -0.617691 48.432693 129 65 82
10.105783 -0.511617 48.275192 128 65 83
10.089377 -0.406890 48.196823 131 68 86
10.089377 -0.302994 48.196823 133 70 88
10.089377 -0.199098 48.196823 131 68 87
10.056726 -0.094894 48.040844 125 63 83
10.073026 0.008680 48.118706 120 57 79
10.089377 0.112590 48.196823 120 57 81
10.073026 0.216135 48.118706 124 60 87
10.089377 0.320382 48.196823 128 63 92
10.089377 0.424278 48.196823 130 65 95
10.105783 0.529033 48.275192 131 67 97
10.122242 0.634129 48.353813 130 67 97
10.122242 0.738364 48.353813 129 66 97
10.138755 0.843973 48.432693 126 65 96
10.138755 0.948378 48.432693 127 65 98
10.155321 1.054502 48.511833 132 71 105
10.138755 1.157187 48.432693 140 78 113
10.122242 1.259537 48.353813 141 79 114
10.122242 1.363771 48.353813 139 78 111
10.105783 1.465619 48.275192 140 80 112
10.089377 1.567135 48.196823 141 82 112
10.056726 1.665624 48.040844 140 81 110
10.040480 1.766325 47.963234 134 76 104
10.056726 1.872743 48.040844 129 71 99
10.024285 1.969928 47.885876 128 69 98
10.008142 2.069816 47.808765 129 69 99
10.008142 2.172875 47.808765 132 71 101
10.008142 2.275935 47.808765 137 75 103
9.992052 2.375170 47.731899 135 73 99
9.992052 2.478063 47.731899 127 65 89
9.992052 2.580957 47.731899 125 64 85
9.960027 2.675249 47.578915 129 68 87
9.912371 2.764522 47.351265 132 73 90
9.912371 2.866596 47.351265 134 76 91
9.912371 2.968669 47.351265 135 77 91
9.928205 3.075648 47.426903 136 78 91
9.880853 3.162727 47.200703 138 79 93
9.880853 3.264476 47.200703 138 80 94
9.896587 3.371585 47.275864 134 79 94
9.896587 3.473496 47.275864 129 76 91
9.896587 3.575407 47.275864 126 76 90
9.880853 3.671471 47.200703 125 78 91
9.865170 3.767231 47.125782 123 81 92
9.912371 3.887329 47.351265 126 87 96
9.960027 4.008583 47.578915 134 98 105
9.960027 4.111146 47.578915 141 108 113
9.960027 4.213711 47.578915 145 113 117
9.944091 4.309369 47.502789 142 111 116
9.944091 4.411769 47.502789 145 115 121
9.944091 4.514169 47.502789 175 148 157
9.928205 4.609194 47.426903 217 191 205
9.928205 4.711431 47.426903 232 200 219
9.928205 4.813667 47.426903 209 169 191
9.960027 4.931659 47.578915 163 114 140
9.944091 5.026169 47.502789 121 64 92
9.912371 5.112210 47.351265 105 46 71
9.912371 5.214283 47.351265 109 50 70
9.912371 5.316356 47.351265 109 53 68
9.928205 5.427085 47.426903 104 52 64
9.944091 5.538169 47.502789 99 51 61
10.827625 6.141734 51.723419 94 51 58
10.752693 6.209958 51.365471 89 51 55
10.642220 6.255746 50.837742 83 49 53
10.771329 6.775313 51.454491 73 46 50
10.846521 6.934303 51.813686 72 46 51
10.903608 7.083080 52.086391 72 47 52
10.922771 7.208006 52.177929 75 50 55
10.942001 7.333372 52.269794 79 54 58
10.961299 7.459181 52.361980 76 51 54
10.961299 7.572055 52.361980 71 46 49
10.980665 7.698508 52.454491 70 45 49
10.980665 7.811582 52.454491 70 44 48
10.980665 7.924656 52.454491 67 41 46
10.942001 8.009429 52.269794 65 38 44
10.884513 8.079432 51.995171 65 36 44
10.790029 8.120409 51.543823 65 36 44
10.697171 8.160681 51.100246 66 35 43
10.624028 8.214283 50.750843 68 34 43
10.480702 8.211392 50.066177 71 34 43
10.222133 8.219335 48.830990 77 34 42
10.122242 8.243250 48.353813 81 34 43
10.040480 8.383450 47.963234 91 37 46
9.928205 8.391942 47.426903 94 39 49
9.976014 8.535081 47.655285 97 42 52
9.944091 8.610168 47.502789 99 45 56
9.880853 8.657163 47.200703 100 48 61
9.912371 8.786851 47.351265 101 53 67
9.976014 8.945996 47.655285 106 59 75
9.912371 8.990997 47.351265 118 73 90
9.865170 9.049770 47.125782 133 89 105
9.849535 9.136855 47.051098 142 98 114
9.849535 9.238281 47.051098 144 100 116
9.849535 9.339707 47.051098 139 93 111
9.849535 9.441133 47.051098 131 84 103
9.833950 9.527461 46.976650 125 75 95
9.818415 10.624575 46.902435 119 64 72
9.818415 10.725680 46.902435 123 68 75
9.802929 10.809709 46.828457 134 77 83
9.802929 10.910655 46.828457 135 78 84
9.818415 11.028997 46.902435 124 67 74
9.818415 11.130103 46.902435 110 54 62
9.818415 11.231209 46.902435 104 50 59
9.802929 11.314441 46.828457 105 51 61
9.818415 11.433421 46.902435 106 53 65
9.802929 11.516334 46.828457 107 55 70
9.787491 11.598985 46.754711 108 57 74
9.787491 11.699773 46.754711 109 60 78
9.802929 11.819173 46.828457 112 64 83
9.802929 11.920119 46.828457 112 64 85
9.802929 12.021066 46.828457 108 61 82
10.465095 -3.724407 49.482071 117 62 72
10.465095 -3.617741 49.482071 116 60 72
10.447681 -3.505232 49.399738 116 59 72
10.465095 -3.404408 49.482071 123 64 78
10.465095 -3.297741 49.482071 135 76 91
10.447681 -3.185765 49.399738 140 80 96
10.395789 -3.063981 49.154373 128 69 86
10.395789 -2.958021 49.154373 118 59 76
10.361480 -2.842648 48.992149 119 61 77
10.327395 -2.728034 48.830990 121 64 80
10.276689 -2.609893 48.591232 124 67 83
10.276689 -2.505147 48.591232 130 73 88
10.276689 -2.400400 48.591232 134 76 91
10.276689 -2.295654 48.591232 131 71 88
10.259896 -2.187328 48.511833 123 60 80
10.259896 -2.082752 48.511833 117 53 74
10.276689 -1.981415 48.591232 117 53 75
10.276689 -1.876669 48.591232 124 60 81
10.276689 -1.771922 48.591232 132 70 89
10.293535 -1.669909 48.670887 134 72 90
10.293535 -1.564991 48.670887 132 71 86
10.310438 -1.462471 48.750809 129 69 82
10.293535 -1.355155 48.670887 126 65 77
10.276689 -1.248191 48.591232 123 62 73
10.276689 -1.143444 48.591232 125 63 75
10.259896 -1.037001 48.511833 133 69 83
10.259896 -0.932426 48.511833 137 72 87
10.243159 -0.826500 48.432693 136 70 85
10.243159 -0.722095 48.432693 133 67 83
10.243159 -0.617691 48.432693 130 66 81
10.209848 -0.511617 48.275192 130 67 81
10.193274 -0.406890 48.196823 130 68 82
10.176753 -0.302503 48.118706 130 68 83
10.176753 -0.198776 48.118706 128 66 83
10.160286 -0.094894 48.040844 124 62 81
10.176753 0.008680 48.118706 121 59 79
10.176753 0.112408 48.118706 122 59 82
10.176753 0.216135 48.118706 126 63 87
10.176753 0.319863 48.118706 129 65 92
10.193274 0.424278 48.196823 132 68 95
10.209848 0.529033 48.275192 132 69 96
10.209848 0.633098 48.275192 131 68 96
10.209848 0.737163 48.275192 129 66 95
10.226477 0.842598 48.353813 127 65 95
10.226477 0.946833 48.353813 129 66 98
10.243159 1.052782 48.432693 132 69 103
10.243159 1.157187 48.432693 137 73 108
10.226477 1.259537 48.353813 137 74 109
10.226477 1.363771 48.353813 137 74 108
10.209848 1.465619 48.275192 139 78 111
10.193274 1.567135 48.196823 140 80 111
10.176753 1.668323 48.118706 137 78 108
10.160286 1.769184 48.040844 133 75 103
10.160286 1.872743 48.040844 130 72 100
10.127511 1.969928 47.885876 129 70 100
10.127511 2.073154 47.885876 131 71 101
10.127511 2.176380 47.885876 133 72 102
10.111202 2.275935 47.808765 136 74 102
10.094946 2.375170 47.731899 134 73 98
10.078743 2.474086 47.655285 128 67 90
10.078743 2.576815 47.655285 126 66 87
10.062591 2.675249 47.578915 129 70 89
10.014444 2.764522 47.351265 132 73 90
10.014444 2.866596 47.351265 134 76 90
10.014444 2.968669 47.351265 134 76 89
10.030442 3.075648 47.426903 136 77 89
9.982602 3.162727 47.200703 138 79 90
9.982602 3.264476 47.200703 137 79 90
9.982602 3.366225 47.200703 133 77 88
9.998498 3.473496 47.275864 129 77 87
9.982602 3.569722 47.200703 126 78 88
9.982602 3.671471 47.200703 123 79 88
9.950961 3.761261 47.051098 121 82 88
10.030442 3.893539 47.426903 125 89 95
10.062591 4.008583 47.578915 136 103 107
10.062591 4.111146 47.578915 145 114 117
10.062591 4.213711 47.578915 151 120 122
10.046491 4.309369 47.502789 155 125 128
10.046491 4.411769 47.502789 170 140 145
10.030442 4.506958 47.426903 205 182 188
10.030442 4.609194 47.426903 234 211 221
10.030442 4.711431 47.426903 222 185 204
10.030442 4.813667 47.426903 174 123 149
10.062591 4.931659 47.578915 128 70 100
10.030442 5.018140 47.426903 111 50 79
10.014444 5.112210 47.351265 112 51 77
10.014444 5.214283 47.351265 113 54 74
10.014444 5.316356 47.351265 109 53 69
10.046491 5.435769 47.502789 104 52 64
10.939123 6.141734 51.723419 94 51 59
10.844657 6.199232 51.276756 88 51 56
10.958214 6.822610 51.813686 73 47 51
11.015889 6.970799 52.086391 74 48 52
11.054677 7.108020 52.269794 75 49 54
11.054677 7.220696 52.269794 77 52 56
11.074174 7.346306 52.361980 79 54 58
11.093740 7.472360 52.454491 75 52 55
11.093740 7.585433 52.454491 70 47 49
11.113375 7.712133 52.547333 68 44 47
11.113375 7.825408 52.547333 68 43 47
11.074174 7.910680 52.361980 66 40 45
11.035249 7.995352 52.177929 64 38 43
10.958214 8.051231 51.813686 64 36 43
10.844657 8.078334 51.276756 65 35 43
10.788757 8.146659 51.012444 66 35 43
10.715114 8.200265 50.664234 69 35 43
10.517683 8.156374 49.730724 72 34 43
10.193274 8.112590 48.196823 78 35 43
10.160286 8.293455 48.040844 87 36 44
10.127511 8.369928 47.885876 91 38 47
9.982602 8.351916 47.200703 94 41 50
10.046491 8.507769 47.502789 97 44 53
10.030442 8.596415 47.426903 99 48 58
9.982602 8.657163 47.200703 100 51 63
10.030442 8.800887 47.426903 103 57 70
10.078743 8.945996 47.655285 113 69 82
10.014444 8.990997 47.351265 127 85 100
9.966757 9.049770 47.125782 139 96 112
9.950961 9.136855 47.051098 144 102 118
9.950961 9.238281 47.051098 146 103 120
9.950961 9.339707 47.051098 140 95 113
9.950961 9.441133 47.051098 130 84 103
9.935216 9.527461 46.976650 124 76 97
9.888278 10.288749 46.754711 127 71 91
9.903874 10.405924 46.828457 130 75 92
9.919520 10.523468 46.902435 127 72 85
9.919520 10.624575 46.902435 122 66 77
9.919520 10.725680 46.902435 127 70 79
9.903874 10.809709 46.828457 137 79 86
9.903874 10.910655 46.828457 137 79 85
9.919520 11.028997 46.902435 123 67 72
9.919520 11.130103 46.902435 109 54 61
9.919520 11.231209 46.902435 103 50 58
9.903874 11.314441 46.828457 103 51 61
9.919520 11.433421 46.902435 104 53 65
9.903874 11.516334 46.828457 105 55 69
9.888278 11.598985 46.754711 106 57 73
9.872730 11.681376 46.681198 107 59 77
9.888278 11.800560 46.754711 110 62 82
9.903874 11.920119 46.828457 111 64 84
9.903874 12.021066 46.828457 110 64 84
10.536639 -3.712034 49.317677 118 64 73
10.554171 -3.611721 49.399738 117 62 72
10.536639 -3.499409 49.317677 117 60 72
10.554171 -3.398743 49.399738 121 63 76
10.554171 -3.292254 49.399738 129 70 86
10.554171 -3.185765 49.399738 132 73 90
10.501749 -3.063981 49.154373 122 63 83
10.501749 -2.958021 49.154373 116 57 77
10.467091 -2.842648 48.992149 117 59 78
10.415528 -2.723554 48.750809 120 61 81
10.398454 -2.614171 48.670887 124 66 85
10.398454 -2.509253 48.670887 131 72 91
10.398454 -2.404335 48.670887 133 73 91
10.398454 -2.299417 48.670887 127 66 86
10.381434 -2.190907 48.591232 119 57 78
10.381434 -2.086161 48.591232 114 50 72
10.398454 -1.984663 48.670887 116 52 73
10.398454 -1.879745 48.670887 125 61 81
10.381434 -1.771922 48.591232 133 71 88
10.398454 -1.669909 48.670887 132 72 87
10.398454 -1.564991 48.670887 129 70 81
10.415528 -1.462471 48.750809 126 67 77
10.398454 -1.355155 48.670887 123 64 73
10.381434 -1.248191 48.591232 122 61 71
10.364471 -1.141576 48.511833 125 63 73
10.364471 -1.037001 48.511833 132 67 80
10.347564 -0.930905 48.432693 134 69 83
10.347564 -0.826500 48.432693 134 68 82
10.347564 -0.722095 48.432693 132 67 80
10.330711 -0.616685 48.353813 130 66 78
10.297170 -0.510787 48.196823 129 66 77
10.297170 -0.406890 48.196823 129 66 77
10.280480 -0.302503 48.118706 128 66 78
10.263845 -0.198454 48.040844 127 65 79
10.247264 -0.094741 47.963234 125 63 79
10.263845 0.008666 48.040844 124 61 81
10.280480 0.112408 48.118706 126 63 84
10.263845 0.215786 48.040844 128 64 87
10.263845 0.319345 48.040844 131 67 92
10.280480 0.423591 48.118706 135 71 96
10.297170 0.528174 48.196823 135 71 96
10.297170 0.632071 48.196823 133 69 95
10.297170 0.735967 48.196823 131 67 93
10.313913 0.841228 48.275192 130 67 94
10.313913 0.945293 48.275192 132 67 98
10.330711 1.051068 48.353813 135 70 101
10.330711 1.155302 48.353813 137 72 104
10.330711 1.259537 48.353813 136 71 105
10.330711 1.363771 48.353813 137 72 106
10.313913 1.465619 48.275192 138 74 108
10.297170 1.567135 48.196823 138 75 108
10.280480 1.668323 48.118706 137 74 106
10.263845 1.769184 48.040844 134 73 103
10.280480 1.875779 48.118706 131 70 100
10.247264 1.973111 47.963234 130 68 99
10.247264 2.076503 47.963234 133 70 101
10.247264 2.179896 47.963234 134 71 101
10.230737 2.279606 47.885876 133 70 98
10.197841 2.375170 47.731899 132 69 94
10.181471 2.474086 47.655285 129 67 90
10.181471 2.576815 47.655285 128 68 88
10.165154 2.675249 47.578915 130 71 89
10.116518 2.764522 47.351265 132 73 90
10.116518 2.866596 47.351265 133 74 89
10.116518 2.968669 47.351265 134 75 88
10.116518 3.070742 47.351265 135 76 88
10.084351 3.162727 47.200703 137 78 88
10.084351 3.264476 47.200703 136 79 88
10.084351 3.366225 47.200703 133 78 87
10.084351 3.467974 47.200703 130 80 87
10.068344 3.564056 47.125782 127 83 88
10.068344 3.665644 47.125782 125 85 89
10.068344 3.767231 47.125782 123 88 92
10.132678 3.893539 47.426903 129 97 100
10.165154 4.008583 47.578915 140 111 113
10.148890 4.104569 47.502789 148 120 121
10.132678 4.200248 47.426903 159 130 131
10.132678 4.302485 47.426903 179 151 152
10.132678 4.404721 47.426903 205 179 182
10.116518 4.499770 47.351265 231 209 215
10.116518 4.601843 47.351265 237 211 221
10.116518 4.703916 47.351265 202 158 178
10.132678 4.813667 47.426903 145 87 115
10.148890 4.923769 47.502789 111 49 79
10.116518 5.010136 47.351265 112 48 77
10.100409 5.104069 47.275864 116 54 80
10.116518 5.214283 47.351265 114 54 75
10.132678 5.324849 47.426903 108 53 69
10.148890 5.435769 47.502789 103 52 64
10.993166 6.109801 51.454491 93 53 59
10.898723 6.167277 51.012444 87 52 56
11.108681 6.846507 51.995171 74 48 52
11.147727 6.983050 52.177929 75 49 53
11.187049 7.120556 52.361980 76 51 55
11.187049 7.233431 52.361980 78 54 58
11.206814 7.359285 52.454491 79 55 59
11.206814 7.472360 52.454491 75 51 55
11.206814 7.585433 52.454491 69 46 49
11.226649 7.712133 52.547333 66 42 45
11.226649 7.825408 52.547333 66 42 45
11.187049 7.910680 52.361980 65 40 44
11.147727 7.995352 52.177929 63 37 42
11.012251 8.009297 51.543823 64 36 42
10.936304 8.064406 51.188347 66 35 42
10.880029 8.132686 50.924942 68 35 42
10.787511 8.172373 50.491909 70 35 43
10.589410 8.129141 49.564678 73 34 43
10.398454 8.087468 48.670887 76 34 43
10.263845 8.189896 48.040844 83 35 44
10.247264 8.280057 47.963234 87 37 45
10.197841 8.343016 47.731899 91 40 48
10.068344 8.338659 47.125782 95 43 51
10.132678 8.494178 47.426903 98 47 55
10.132678 8.596415 47.426903 98 51 58
10.100409 8.670948 47.275864 99 54 63
10.132678 8.800887 47.426903 106 63 74
10.165154 8.931660 47.578915 124 82 94
10.132678 9.005361 47.426903 139 100 112
10.068344 9.049770 47.125782 143 104 117
10.052387 9.136855 47.051098 143 105 120
10.052387 9.238281 47.051098 144 104 120
10.052387 9.339707 47.051098 136 94 111
10.052387 9.441133 47.051098 125 81 99
10.020627 9.512410 46.902435 122 76 95
10.004821 10.204031 46.828457 126 69 92
9.989065 10.288749 46.754711 128 71 93
10.004821 10.405924 46.828457 131 75 94
10.004821 10.506870 46.828457 129 72 88
10.004821 10.607816 46.828457 123 66 80
10.004821 10.708762 46.828457 128 70 81
10.004821 10.809709 46.828457 137 79 87
10.004821 10.910655 46.828457 135 77 84
10.004821 11.011601 46.828457 123 66 71
10.004821 11.112548 46.828457 111 56 61
10.020627 11.231209 46.902435 105 52 59
10.004821 11.314441 46.828457 104 53 61
10.004821 11.415387 46.828457 104 54 65
9.989065 11.498198 46.754711 105 56 69
9.989065 11.598985 46.754711 106 57 73
9.957703 11.663038 46.607914 108 60 78
9.973359 11.782005 46.681198 109 61 82
9.989065 11.901347 46.754711 112 65 86
9.989065 12.002134 46.754711 111 65 85
9.973359 12.083892 46.681198 109 62 80
10.625301 -3.705878 49.235889 119 65 73
10.625301 -3.599742 49.235889 117 63 71
10.607710 -3.487822 49.154373 117 60 71
10.625301 -3.387470 49.235889 118 62 74
10.642951 -3.286785 49.317677 123 65 81
10.642951 -3.180473 49.317677 125 66 85
10.590177 -3.058917 49.073128 120 61 81
10.590177 -2.953131 49.073128 116 57 78
10.555283 -2.837965 48.911438 117 58 79
10.520618 -2.723554 48.750809 120 62 83
10.486181 -2.609893 48.591232 126 67 88
10.503371 -2.509253 48.670887 131 71 91
10.503371 -2.404335 48.670887 130 70 89
10.503371 -2.299417 48.670887 125 63 84
10.486181 -2.190907 48.591232 118 55 76
10.486181 -2.086161 48.591232 114 51 71
10.503371 -1.984663 48.670887 116 53 72
10.503371 -1.879745 48.670887 125 62 79
10.486181 -1.771922 48.591232 131 70 85
10.520618 -1.672651 48.750809 130 71 83
10.503371 -1.564991 48.670887 127 68 78
10.520618 -1.462471 48.750809 124 65 75
10.503371 -1.355155 48.670887 122 62 71
10.486181 -1.248191 48.591232 122 61 70
10.469047 -1.141576 48.511833 127 63 74
10.469047 -1.037001 48.511833 132 67 78
10.434946 -0.929388 48.353813 133 68 79
10.434946 -0.825154 48.353813 133 68 79
10.434946 -0.720919 48.353813 133 68 78
10.417978 -0.615682 48.275192 130 66 76
10.401066 -0.510787 48.196823 129 66 75
10.384209 -0.406231 48.118706 128 67 75
10.367406 -0.302014 48.040844 128 67 76
10.350657 -0.198133 47.963234 127 66 77
10.333962 -0.094588 47.885876 126 65 78
10.367406 0.008666 48.040844 127 65 81
10.367406 0.112226 48.040844 129 66 85
10.350657 0.215437 47.963234 128 65 85
10.367406 0.319345 48.040844 130 67 88
10.367406 0.422905 48.040844 136 73 94
10.367406 0.526465 48.040844 137 74 94
10.384209 0.631046 48.118706 135 71 92
10.384209 0.734774 48.118706 132 68 90
10.401066 0.839863 48.196823 132 68 90
10.401066 0.943759 48.196823 134 69 95
10.417978 1.049358 48.275192 137 72 99
10.417978 1.153424 48.275192 137 72 100
10.417978 1.257489 48.275192 135 70 100
10.417978 1.361554 48.275192 136 71 102
10.417978 1.465619 48.275192 136 71 102
10.401066 1.567135 48.196823 136 71 102
10.384209 1.668323 48.118706 135 71 101
10.384209 1.772051 48.118706 134 71 100
10.384209 1.875779 48.118706 132 68 98
10.367406 1.976303 48.040844 131 67 96
10.367406 2.079863 48.040844 132 67 96
10.367406 2.183423 48.040844 132 67 94
10.350657 2.283288 47.963234 131 67 91
10.317322 2.378994 47.808765 129 67 88
10.300735 2.478063 47.731899 129 68 87
10.284200 2.576815 47.655285 128 69 86
10.267719 2.675249 47.578915 129 70 86
10.218591 2.764522 47.351265 130 72 87
10.218591 2.866596 47.351265 132 74 88
10.218591 2.968669 47.351265 134 75 89
10.234915 3.075648 47.426903 135 76 88
10.186100 3.162727 47.200703 135 76 87
10.202319 3.269674 47.275864 135 78 87
10.202319 3.371585 47.275864 133 80 87
10.218591 3.479036 47.351265 131 84 88
10.186100 3.569722 47.200703 131 89 92
10.186100 3.671471 47.200703 129 94 95
10.186100 3.773220 47.200703 127 98 98
10.267719 3.906018 47.578915 132 106 105
10.267719 4.008583 47.578915 143 119 118
10.234915 4.098012 47.426903 155 130 130
10.234915 4.200248 47.426903 175 149 150
10.234915 4.302485 47.426903 207 184 185
10.234915 4.404721 47.426903 233 212 215
10.218591 4.499770 47.351265 240 213 222
10.218591 4.601843 47.351265 221 183 199
10.218591 4.703916 47.351265 174 121 145
10.234915 4.813667 47.426903 126 63 93
10.251290 4.923769 47.502789 110 45 75
10.218591 5.010136 47.351265 116 51 79
10.218591 5.112210 47.351265 118 55 80
10.234915 5.222612 47.426903 113 55 74
10.251290 5.333369 47.502789 108 54 68
10.284200 5.453219 47.655285 101 53 64
11.027637 6.067738 51.100246 91 53 59
10.914918 6.441832 50.577927 76 47 51
11.027637 6.618512 51.100246 76 48 52
11.220765 6.846507 51.995171 77 49 53
11.260205 6.983050 52.177929 78 50 54
11.299924 7.120556 52.361980 79 52 56
11.319888 7.246211 52.454491 80 55 59
11.319888 7.359285 52.454491 80 55 60
11.319888 7.472360 52.454491 76 51 56
11.319888 7.585433 52.454491 69 45 49
11.339923 7.712133 52.547333 66 41 45
11.319888 7.811582 52.454491 66 40 44
11.280029 7.896752 52.269794 65 38 43
11.240450 7.981325 52.086391 64 36 41
11.065728 7.967799 51.276756 65 35 41
11.008688 8.036694 51.012444 66 35 41
10.877855 8.158498 50.406185 72 35 42
10.434946 8.034781 48.353813 78 35 43
10.350657 8.073272 47.963234 81 35 44
10.350657 8.176664 47.963234 85 36 45
10.317322 8.253390 47.808765 88 38 47
10.251290 8.302969 47.502789 92 41 49
10.153814 8.325444 47.051098 95 45 53
10.218591 8.480631 47.351265 98 48 56
10.218591 8.582705 47.351265 97 52 59
10.186100 8.657163 47.200703 98 55 63
10.218591 8.786851 47.351265 113 72 80
10.234915 8.903124 47.426903 140 101 110
10.202319 8.976681 47.275864 152 114 125
10.153814 9.035429 47.051098 147 109 121
10.137748 9.122397 46.976650 144 106 119
10.137748 9.223663 46.976650 143 104 120
10.137748 9.324929 46.976650 135 93 111
10.137748 9.426195 46.976650 123 80 98
10.121733 9.512410 46.902435 120 74 93
10.105767 9.699299 46.828457 129 79 97
10.089853 10.187962 46.754711 129 72 94
10.073988 10.272572 46.681198 129 71 93
10.089853 10.389536 46.754711 131 74 94
10.089853 10.490324 46.754711 130 72 90
10.089853 10.591111 46.754711 124 66 81
10.089853 10.691898 46.754711 127 69 81
10.089853 10.792686 46.754711 135 77 86
10.089853 10.893474 46.754711 133 75 82
10.105767 11.011601 46.828457 122 65 71
10.105767 11.112548 46.828457 112 57 62
10.105767 11.213494 46.828457 107 55 60
10.089853 11.296623 46.754711 105 55 62
10.089853 11.397410 46.754711 105 56 66
10.089853 11.498198 46.754711 106 58 69
10.073988 11.580748 46.681198 107 59 74
10.042409 11.644758 46.534863 108 60 78
10.058174 11.763510 46.607914 111 64 83
10.073988 11.882634 46.681198 116 68 89
10.073988 11.983263 46.681198 115 68 88
10.058174 12.064922 46.607914 110 62 80
10.058174 12.165393 46.607914 108 59 75
10.695961 -3.799412 49.073128 118 65 72
10.731438 -3.705878 49.235889 117 64 72
10.713670 -3.593782 49.154373 117 62 71
10.695961 -3.482057 49.073128 116 61 72
10.713670 -3.381862 49.154373 117 61 75
10.731438 -3.281334 49.235889 119 62 79
10.731438 -3.175198 49.235889 120 62 81
10.660719 -3.048838 48.911438 118 59 80
10.678311 -2.948258 48.992149 116 57 78
10.643186 -2.833297 48.830990 117 57 79
10.608290 -2.719090 48.670887 121 61 83
10.608290 -2.614171 48.670887 127 67 88
10.608290 -2.509253 48.670887 130 70 90
10.608290 -2.404335 48.670887 129 68 87
10.608290 -2.299417 48.670887 125 63 82
10.608290 -2.194499 48.670887 119 57 75
10.608290 -2.089581 48.670887 116 53 70
10.608290 -1.984663 48.670887 117 54 71
10.608290 -1.879745 48.670887 123 61 76
10.590927 -1.771922 48.591232 129 68 81
10.608290 -1.669909 48.670887 128 68 79
10.590927 -1.562430 48.591232 125 65 76
10.608290 -1.460073 48.670887 124 64 74
10.590927 -1.352937 48.591232 122 61 71
10.573622 -1.246151 48.511833 123 60 71
10.556373 -1.139714 48.432693 128 64 75
10.539180 -1.033623 48.353813 132 67 79
10.522043 -0.927877 48.275192 132 67 79
10.522043 -0.823812 48.275192 132 67 78
10.522043 -0.719747 48.275192 131 67 77
10.504962 -0.614683 48.196823 129 66 75
10.487936 -0.509959 48.118706 128 66 75
10.470965 -0.405574 48.040844 129 67 76
10.454049 -0.301526 47.963234 128 67 78
10.454049 -0.198133 47.963234 127 66 78
10.437188 -0.094588 47.885876 127 65 79
10.454049 0.008652 47.963234 130 68 85
10.454049 0.112044 47.963234 131 68 86
10.454049 0.215437 47.963234 127 63 82
10.470965 0.319345 48.040844 130 66 85
10.470965 0.422905 48.040844 136 72 91
10.470965 0.526465 48.040844 137 73 90
10.487936 0.631046 48.118706 135 70 87
10.487936 0.734774 48.118706 132 67 85
