ply
format ascii 1.0
element vertex 1167
property float x
property float y
property float z
property uchar red
property uchar green
property uchar blue
end_header
11.447634 6.723534 48.670887 240 151 174
11.485291 6.850914 48.830990 236 150 174
11.466432 6.944755 48.750809 244 166 190
11.428898 7.026768 48.591232 250 178 202
11.466432 7.154935 48.750809 244 170 194
11.447634 7.248124 48.670887 233 155 177
11.466432 7.365116 48.750809 231 156 177
11.428898 7.445754 48.591232 240 180 199
11.410223 7.538163 48.511833 251 208 227
11.410223 7.642738 48.511833 255 218 236
11.391609 7.734674 48.432693 254 211 229
11.410223 7.851888 48.511833 254 205 224
11.354564 7.917651 48.275192 254 208 226
11.373056 8.034781 48.353813 254 212 231
11.391609 8.152293 48.432693 254 206 224
11.373056 8.243250 48.353813 254 191 208
11.336131 8.320382 48.196823 254 184 199
11.354564 8.437977 48.275192 254 183 196
11.336131 8.528174 48.196823 254 181 193
11.336131 8.632071 48.196823 253 174 186
11.336131 8.735967 48.196823 250 171 180
11.354564 8.854237 48.275192 250 183 191
11.354564 8.958302 48.275192 252 201 209
11.373056 9.077127 48.353813 254 200 210
11.354564 9.166431 48.275192 254 183 195
11.354564 9.270496 48.275192 252 166 180
11.373056 9.389830 48.353813 248 155 173
11.373056 9.494064 48.353813 244 148 169
11.373056 9.598299 48.353813 242 147 169
11.373056 9.702534 48.353813 247 153 175
11.391609 9.822766 48.432693 250 156 178
11.373056 9.911002 48.353813 244 149 170
11.391609 10.031575 48.432693 234 137 157
11.410223 10.152541 48.511833 229 134 153
11.391609 10.240384 48.432693 233 141 158
11.428898 10.378651 48.591232 231 142 158
11.410223 10.466267 48.511833 220 135 151
11.410223 10.570843 48.511833 215 132 148
11.428898 10.692889 48.591232 221 140 157
11.447634 10.815337 48.670887 233 154 172
11.447634 10.920255 48.670887 239 161 179
11.428898 11.007129 48.591232 236 156 174
11.466432 11.148367 48.750809 233 153 169
11.428898 11.216621 48.591232 239 164 177
11.428898 11.321367 48.591232 244 171 182
11.447634 11.444845 48.670887 230 151 159
11.447634 11.549763 48.670887 205 119 124
11.428898 11.635607 48.591232 199 114 118
11.447634 11.759599 48.670887 216 135 139
11.447634 11.864517 48.670887 230 153 158
11.410223 11.930320 48.511833 226 151 161
11.410223 12.034895 48.511833 200 128 141
11.428898 12.159338 48.591232 176 106 121
11.410223 12.244045 48.511833 182 114 130
11.410223 12.348620 48.511833 208 140 157
11.391609 12.432880 48.432693 227 160 177
11.354564 12.496513 48.275192 231 166 182
11.354564 12.600578 48.275192 230 166 182
11.373056 12.725334 48.353813 216 148 164
11.373056 12.829569 48.353813 203 130 146
11.373056 12.933804 48.353813 191 116 132
11.391609 13.059307 48.432693 177 100 116
11.391609 13.163712 48.432693 176 98 113
11.373056 13.246508 48.353813 182 103 120
11.373056 13.350741 48.353813 182 104 120
11.373056 13.454976 48.353813 169 94 110
11.373056 13.559211 48.353813 154 83 100
11.410223 13.708097 48.511833 142 75 92
11.354564 13.745294 48.275192 129 68 83
11.317758 13.804466 48.118706 117 60 75
11.244858 13.818608 47.808765 108 55 69
11.155043 13.810472 47.426903 103 51 64
11.244858 14.024727 47.808765 97 46 57
11.317758 14.219377 48.118706 91 40 50
11.317758 14.323105 48.118706 88 35 44
11.317758 14.426832 48.118706 88 30 39
11.336131 14.554149 48.196823 88 26 35
11.391609 14.729780 48.432693 90 23 32
11.410223 14.858424 48.511833 95 22 33
11.466432 15.036709 48.750809 102 25 36
11.466432 15.141799 48.750809 109 27 40
11.504212 15.297126 48.911438 114 29 43
11.580525 15.504735 49.235889 118 30 44
11.561352 15.585026 49.154373 121 32 45
11.580525 15.717008 49.235889 123 32 45
11.599762 15.849427 49.317677 127 34 47
11.599762 15.955740 49.317677 130 35 48
11.580525 16.035416 49.235889 132 37 49
11.619062 16.195267 49.399738 134 38 50
11.619062 16.301756 49.399738 136 40 52
11.619062 16.408245 49.399738 140 43 55
11.638428 16.542259 49.482071 149 51 64
11.638428 16.648926 49.482071 152 55 67
11.638428 16.755592 49.482071 147 50 63
11.638428 16.862259 49.482071 142 46 59
11.638428 16.968925 49.482071 140 45 57
11.657858 17.104099 49.564678 140 46 58
11.638428 17.182259 49.482071 140 46 59
11.619062 17.260159 49.399738 139 47 59
11.883738 2.275473 50.066177 230 116 139
11.843793 2.375387 49.897884 222 102 126
11.843793 2.482950 49.897884 222 101 127
11.823920 2.586167 49.814163 218 99 126
11.804115 2.689038 49.730724 213 97 125
11.804115 2.796240 49.730724 223 111 142
11.764702 2.893749 49.564678 243 141 173
11.745094 2.995592 49.482071 253 165 198
11.725552 3.097097 49.399738 252 168 201
11.725552 3.203587 49.399738 246 152 185
11.725552 3.310076 49.399738 242 149 182
11.725552 3.416565 49.399738 249 169 203
11.725552 3.523054 49.399738 254 180 216
11.745094 3.635592 49.482071 254 167 206
11.745094 3.742259 49.482071 254 150 191
11.745094 3.848926 49.482071 253 138 180
11.706074 3.942451 49.317677 246 125 165
11.706074 4.048763 49.317677 236 111 150
11.706074 4.155076 49.317677 235 108 145
11.686661 4.254321 49.235889 241 113 148
11.686661 4.360457 49.235889 246 119 152
11.686661 4.466593 49.235889 250 130 162
11.686661 4.572729 49.235889 250 135 166
11.686661 4.678865 49.235889 238 116 145
11.667313 4.777079 49.154373 228 101 129
11.648027 4.874968 49.073128 235 109 134
11.667313 4.988999 49.154373 240 115 140
11.667313 5.094959 49.154373 241 118 142
11.648027 5.192323 49.073128 248 131 156
11.667313 5.306880 49.154373 254 143 167
11.667313 5.412840 49.154373 254 140 163
11.667313 5.518800 49.154373 254 130 153
11.667313 5.624761 49.154373 252 122 145
11.667313 5.730721 49.154373 249 116 138
11.686661 5.846361 49.235889 248 116 138
11.686661 5.952497 49.235889 250 123 145
11.628806 6.028639 48.992149 249 125 147
11.648027 6.144389 49.073128 244 123 145
11.590553 6.219335 48.830990 241 124 146
11.628806 6.345471 48.992149 241 130 151
11.609649 6.440454 48.911438 245 138 159
11.609649 6.545890 48.911438 249 147 169
11.590553 6.640387 48.830990 249 151 173
11.552552 6.723534 48.670887 241 145 167
11.571522 6.839664 48.750809 238 145 167
11.552552 6.933370 48.670887 244 158 179
11.533645 7.026768 48.591232 250 169 191
11.571522 7.154935 48.750809 247 166 187
11.552552 7.248124 48.670887 238 155 175
11.552552 7.353042 48.670887 236 157 175
11.533645 7.445754 48.591232 243 181 199
11.514798 7.538163 48.511833 252 210 228
11.514798 7.642738 48.511833 254 216 235
11.496014 7.734674 48.432693 254 203 223
11.514798 7.851888 48.511833 253 192 212
11.458629 7.917651 48.275192 253 193 214
11.477291 8.034781 48.353813 253 203 223
11.496014 8.152293 48.432693 254 202 221
11.458629 8.229846 48.275192 252 185 203
11.440027 8.320382 48.196823 251 175 192
11.458629 8.437977 48.275192 252 175 190
11.440027 8.528174 48.196823 253 175 189
11.440027 8.632071 48.196823 253 173 185
11.440027 8.735967 48.196823 251 177 188
11.458629 8.854237 48.275192 252 196 206
11.458629 8.958302 48.275192 254 209 219
11.477291 9.077127 48.353813 254 199 210
11.458629 9.166431 48.275192 254 178 191
11.458629 9.270496 48.275192 252 163 180
11.458629 9.374561 48.275192 251 158 177
11.458629 9.478627 48.275192 248 154 176
11.458629 9.582692 48.275192 247 151 174
11.477291 9.702534 48.353813 248 152 175
11.496014 9.822766 48.432693 250 153 176
11.477291 9.911002 48.353813 244 146 169
11.496014 10.031575 48.432693 235 137 159
11.514798 10.152541 48.511833 231 135 154
11.496014 10.240384 48.432693 232 139 156
11.533645 10.378651 48.591232 228 138 154
11.514798 10.466267 48.511833 219 133 147
11.514798 10.570843 48.511833 216 132 146
11.533645 10.692889 48.591232 223 141 156
11.552552 10.815337 48.670887 232 152 169
11.552552 10.920255 48.670887 236 157 174
11.533645 11.007129 48.591232 235 154 172
11.571522 11.148367 48.750809 236 155 172
11.533645 11.216621 48.591232 241 163 178
11.533645 11.321367 48.591232 243 165 177
11.552552 11.444845 48.670887 229 146 155
11.533645 11.530860 48.591232 205 119 124
11.533645 11.635607 48.591232 200 116 120
11.552552 11.759599 48.670887 219 138 142
11.533645 11.845098 48.591232 232 155 159
11.514798 11.930320 48.511833 221 148 155
11.514798 12.034895 48.511833 194 124 134
11.514798 12.139470 48.511833 174 106 119
11.496014 12.224071 48.432693 180 113 129
11.514798 12.348620 48.511833 202 137 153
11.477291 12.412631 48.353813 220 155 171
11.440027 12.476227 48.196823 228 163 179
11.458629 12.600578 48.275192 228 165 180
11.458629 12.704643 48.275192 214 147 162
11.477291 12.829569 48.353813 200 129 144
11.477291 12.933804 48.353813 186 113 128
11.496014 13.059307 48.432693 175 100 114
11.496014 13.163712 48.432693 177 101 114
11.477291 13.246508 48.353813 184 107 120
11.477291 13.350741 48.353813 181 105 118
11.477291 13.454976 48.353813 168 95 107
11.477291 13.559211 48.353813 155 84 97
11.496014 13.685735 48.432693 142 76 88
11.458629 13.745294 48.275192 127 67 79
11.421486 13.804466 48.118706 114 58 70
11.329673 13.796391 47.731899 106 53 65
11.257279 13.810472 47.426903 101 49 61
11.311487 13.979704 47.655285 96 44 55
11.384583 14.173433 47.963234 92 39 49
11.403005 14.299928 48.040844 91 34 44
11.403005 14.403488 48.040844 90 30 39
11.421486 14.530560 48.118706 91 25 35
11.440027 14.658045 48.196823 93 22 33
11.440027 14.761941 48.196823 99 23 34
11.514798 14.962999 48.511833 106 25 37
11.514798 15.067575 48.511833 112 28 41
11.552552 15.221894 48.670887 117 31 44
11.648027 15.453480 49.073128 120 32 45
11.628806 15.533590 48.992149 123 33 46
11.628806 15.639200 48.992149 124 33 46
11.667313 15.796947 49.154373 127 34 47
11.667313 15.902906 49.154373 129 35 48
11.686661 16.035416 49.235889 131 37 49
11.706074 16.168365 49.317677 133 38 50
11.706074 16.274677 49.317677 135 40 52
11.745094 16.435593 49.482071 139 43 54
11.764702 16.569876 49.564678 147 51 62
11.764702 16.676720 49.564678 151 54 65
11.764702 16.783566 49.564678 146 50 61
11.784375 16.918655 49.647564 142 46 57
11.784375 17.025679 49.647564 140 45 56
11.804115 17.161400 49.730724 141 47 58
11.823920 17.297577 49.814163 141 48 59
11.823920 17.404959 49.814163 140 48 59
11.971476 2.379386 49.981888 221 104 125
11.951356 2.482950 49.897884 219 104 127
11.951356 2.590513 49.897884 215 100 127
11.911318 2.689038 49.730724 214 101 131
11.911318 2.796240 49.730724 230 125 156
11.871547 2.893749 49.564678 248 160 194
11.851761 2.995592 49.482071 254 182 217
11.832041 3.097097 49.399738 250 172 208
11.832041 3.203587 49.399738 244 147 183
11.832041 3.310076 49.399738 244 145 181
11.832041 3.416565 49.399738 251 164 200
11.832041 3.523054 49.399738 254 167 204
11.851761 3.635592 49.482071 254 152 191
11.851761 3.742259 49.482071 254 139 180
11.832041 3.842522 49.399738 252 132 173
11.812387 3.942451 49.317677 244 120 160
11.812387 4.048763 49.317677 234 106 146
11.792797 4.148185 49.235889 234 105 142
11.773273 4.247277 49.154373 240 111 146
11.792797 4.360457 49.235889 245 117 151
11.792797 4.466593 49.235889 250 130 162
11.773273 4.565158 49.154373 247 129 160
11.773273 4.671118 49.154373 232 108 137
11.773273 4.777079 49.154373 228 100 127
11.753813 4.874968 49.073128 236 110 134
11.753813 4.980753 49.073128 239 114 139
11.773273 5.094959 49.154373 242 120 144
11.753813 5.192323 49.073128 250 132 154
11.773273 5.306880 49.154373 254 136 158
11.773273 5.412840 49.154373 253 130 152
11.753813 5.509678 49.073128 252 124 145
11.753813 5.615464 49.073128 251 118 140
11.753813 5.721249 49.073128 247 112 135
11.773273 5.836681 49.154373 245 111 134
11.773273 5.942642 49.154373 248 117 141
11.715085 6.018708 48.911438 248 122 145
11.734417 6.134250 48.992149 244 122 145
11.695817 6.219335 48.830990 241 123 146
11.715085 6.335017 48.911438 241 127 150
11.695817 6.429861 48.830990 244 134 156
11.695817 6.535124 48.830990 248 142 164
11.676612 6.629484 48.750809 248 145 166
11.657470 6.723534 48.670887 240 139 159
11.676612 6.839664 48.750809 235 137 156
11.657470 6.933370 48.670887 242 147 166
11.638391 7.026768 48.591232 248 158 176
11.676612 7.154935 48.750809 247 159 177
11.657470 7.248124 48.670887 241 153 170
11.638391 7.341007 48.591232 238 156 172
11.619373 7.433588 48.511833 244 176 192
11.619373 7.538163 48.511833 252 202 219
11.619373 7.642738 48.511833 254 209 227
11.600419 7.734674 48.432693 254 197 217
11.619373 7.851888 48.511833 252 184 205
11.562694 7.917651 48.275192 250 182 204
11.581526 8.034781 48.353813 252 195 217
11.600419 8.152293 48.432693 253 197 218
11.581526 8.243250 48.353813 249 179 199
11.562694 8.333911 48.275192 247 169 188
11.581526 8.451719 48.353813 249 170 187
11.562694 8.542042 48.275192 252 171 187
11.562694 8.646107 48.275192 252 173 187
11.543923 8.735967 48.196823 253 184 197
11.581526 8.868657 48.353813 253 201 214
11.562694 8.958302 48.275192 254 206 220
11.581526 9.077127 48.353813 254 192 206
11.562694 9.166431 48.275192 253 173 189
11.562694 9.270496 48.275192 252 162 181
11.562694 9.374561 48.275192 251 159 179
11.562694 9.478627 48.275192 248 155 177
11.562694 9.582692 48.275192 246 150 173
11.562694 9.686757 48.275192 247 151 174
11.581526 9.806767 48.353813 249 153 176
11.581526 9.911002 48.353813 246 149 171
11.581526 10.015237 48.353813 238 140 161
11.619373 10.152541 48.511833 232 136 154
11.600419 10.240384 48.432693 231 137 153
11.619373 10.361691 48.511833 227 136 150
11.600419 10.449193 48.432693 220 132 146
11.619373 10.570843 48.511833 217 132 146
11.619373 10.675418 48.511833 223 140 153
11.657470 10.815337 48.670887 230 149 164
11.638391 10.902382 48.591232 234 153 170
11.619373 10.989143 48.511833 236 155 172
11.676612 11.148367 48.750809 239 158 175
11.638391 11.216621 48.591232 243 162 178
11.638391 11.321367 48.591232 240 159 172
11.657470 11.444845 48.670887 224 140 151
11.638391 11.530860 48.591232 203 117 125
11.638391 11.635607 48.591232 204 119 125
11.638391 11.740353 48.591232 223 142 145
11.638391 11.845098 48.591232 233 155 160
11.619373 11.930320 48.511833 218 144 150
11.619373 12.034895 48.511833 189 118 127
11.619373 12.139470 48.511833 172 105 117
11.600419 12.224071 48.432693 178 113 128
11.600419 12.328476 48.432693 197 133 150
11.562694 12.392447 48.275192 212 148 166
11.543923 12.476227 48.196823 220 156 174
11.543923 12.580123 48.196823 221 156 173
11.562694 12.704643 48.275192 208 141 158
11.581526 12.829569 48.353813 195 126 142
11.581526 12.933804 48.353813 182 111 126
11.600419 13.059307 48.432693 175 102 116
11.600419 13.163712 48.432693 179 106 118
11.600419 13.268117 48.432693 186 112 123
11.600419 13.372521 48.432693 181 108 117
11.581526 13.454976 48.353813 166 95 103
11.581526 13.559211 48.353813 154 86 94
11.600419 13.685735 48.432693 143 79 87
11.543923 13.722980 48.196823 127 68 77
11.506564 13.782128 48.040844 113 58 67
11.432567 13.796391 47.731899 104 52 62
11.359515 13.810472 47.426903 98 47 57
11.414216 13.979704 47.655285 94 42 52
11.469446 14.150574 47.885876 93 38 48
11.487975 14.276826 47.963234 94 36 46
11.487975 14.380219 47.963234 94 31 41
11.506564 14.507048 48.040844 93 25 35
11.525213 14.634288 48.118706 96 23 34
11.525213 14.738015 48.118706 102 24 36
11.581526 14.914260 48.353813 108 26 39
11.581526 15.018495 48.353813 114 29 42
11.619373 15.172150 48.511833 119 31 44
11.734417 15.427979 48.992149 122 33 46
11.695817 15.482492 48.830990 124 33 46
11.715085 15.613436 48.911438 126 34 47
11.753813 15.770836 49.073128 128 35 48
11.753813 15.876620 49.073128 129 36 48
11.792797 16.035416 49.235889 131 37 49
11.812387 16.168365 49.317677 133 38 50
11.812387 16.274677 49.317677 134 39 51
11.832041 16.408245 49.399738 137 42 53
11.871547 16.569876 49.564678 143 47 58
11.871547 16.676720 49.564678 146 50 61
11.871547 16.783566 49.564678 144 48 59
11.911318 16.946995 49.730724 141 46 56
11.931303 17.082811 49.814163 140 46 55
11.931303 17.190193 49.814163 142 48 58
11.971476 17.355818 49.981888 142 48 58
12.052638 17.581959 50.320751 141 48 59
12.058919 2.375387 49.897884 216 104 124
12.058919 2.482950 49.897884 215 104 127
12.038686 2.586167 49.814163 213 104 128
12.018520 2.689038 49.730724 218 110 137
11.998423 2.791564 49.647564 235 140 170
11.958427 2.888926 49.482071 250 180 211
11.958427 2.995592 49.482071 254 194 226
11.938530 3.097097 49.399738 247 167 202
11.938530 3.203587 49.399738 241 140 176
11.958427 3.315593 49.482071 246 144 180
11.938530 3.416565 49.399738 253 158 194
11.958427 3.528926 49.482071 254 157 194
11.958427 3.635592 49.482071 254 145 184
11.958427 3.742259 49.482071 253 134 175
11.958427 3.848926 49.482071 250 125 167
11.918698 3.942451 49.317677 242 114 155
11.918698 4.048763 49.317677 235 105 146
11.898933 4.148185 49.235889 236 105 144
11.879232 4.247277 49.154373 240 110 146
11.898933 4.360457 49.235889 246 117 152
11.898933 4.466593 49.235889 250 126 159
11.879232 4.565158 49.154373 243 120 151
11.879232 4.671118 49.154373 230 102 132
11.859598 4.769183 49.073128 229 101 128
11.840028 4.866923 48.992149 235 109 134
11.859598 4.980753 49.073128 237 113 137
11.859598 5.086538 49.073128 244 123 146
11.840028 5.183755 48.992149 251 132 154
11.859598 5.298108 49.073128 254 131 152
11.840028 5.394976 48.992149 253 125 145
11.840028 5.500587 48.992149 251 118 139
11.840028 5.606197 48.992149 249 114 135
11.840028 5.711808 48.992149 245 110 132
11.859598 5.827034 49.073128 243 108 132
11.859598 5.932819 49.073128 245 113 137
11.801080 6.008808 48.830990 246 119 143
11.820521 6.124144 48.911438 245 121 146
11.801080 6.219335 48.830990 242 123 148
11.820521 6.335017 48.911438 241 126 150
11.801080 6.429861 48.830990 243 131 155
11.801080 6.535124 48.830990 247 140 162
11.781702 6.629484 48.750809 246 142 162
11.762388 6.723534 48.670887 237 135 153
11.781702 6.839664 48.750809 232 131 148
11.762388 6.933370 48.670887 240 141 157
11.743137 7.026768 48.591232 247 152 166
11.781702 7.154935 48.750809 247 153 168
11.762388 7.248124 48.670887 243 152 166
11.743137 7.341007 48.591232 241 154 168
11.723948 7.433588 48.511833 245 166 181
11.723948 7.538163 48.511833 251 185 201
11.723948 7.642738 48.511833 254 196 214
11.723948 7.747313 48.511833 254 193 213
11.723948 7.851888 48.511833 252 185 207
11.685760 7.930546 48.353813 250 183 206
11.704823 8.047888 48.432693 251 191 214
11.704823 8.152293 48.432693 250 189 211
11.704823 8.256698 48.432693 246 173 195
11.685760 8.347485 48.353813 245 166 186
11.685760 8.451719 48.353813 248 169 187
11.685760 8.555954 48.353813 251 170 188
11.666759 8.646107 48.275192 252 175 192
11.666759 8.750172 48.275192 253 189 205
11.685760 8.868657 48.353813 254 201 217
11.685760 8.972892 48.353813 254 197 215
11.685760 9.077127 48.353813 252 181 199
11.666759 9.166431 48.275192 251 167 185
11.666759 9.270496 48.275192 250 160 180
11.666759 9.374561 48.275192 249 157 179
11.666759 9.478627 48.275192 247 153 176
11.647820 9.567136 48.196823 245 149 172
11.647820 9.671032 48.196823 245 149 171
11.685760 9.806767 48.353813 249 153 174
11.666759 9.894887 48.275192 247 151 172
11.685760 10.015237 48.353813 239 142 162
11.704823 10.135980 48.432693 233 136 153
11.685760 10.223706 48.353813 230 135 150
11.704823 10.344789 48.432693 227 135 148
11.685760 10.432175 48.353813 222 133 145
11.704823 10.553597 48.432693 219 133 144
11.723948 10.675418 48.511833 221 137 149
11.743137 10.797636 48.591232 227 144 157
11.743137 10.902382 48.591232 233 151 165
11.723948 10.989143 48.511833 238 157 172
11.762388 11.130091 48.670887 243 163 178
11.723948 11.198294 48.511833 244 164 178
11.743137 11.321367 48.591232 235 153 165
11.743137 11.426114 48.591232 216 131 143
11.743137 11.530860 48.591232 203 117 125
11.743137 11.635607 48.591232 208 124 130
11.743137 11.740353 48.591232 228 147 151
11.743137 11.845098 48.591232 236 159 163
11.723948 11.930320 48.511833 216 142 147
11.723948 12.034895 48.511833 185 115 121
11.723948 12.139470 48.511833 171 105 114
11.685760 12.204162 48.353813 182 118 131
11.685760 12.308396 48.353813 200 138 154
11.666759 12.392447 48.275192 211 149 168
11.628942 12.456006 48.118706 215 152 172
11.647820 12.580123 48.196823 209 145 165
11.666759 12.704643 48.275192 199 132 153
11.685760 12.829569 48.353813 190 122 141
11.685760 12.933804 48.353813 180 110 128
11.685760 13.038038 48.353813 176 104 121
11.704823 13.163712 48.432693 181 109 124
11.685760 13.246508 48.353813 187 114 127
11.704823 13.372521 48.432693 180 107 118
11.666759 13.433099 48.275192 164 94 103
11.666759 13.537164 48.275192 152 86 93
11.685760 13.663445 48.353813 141 79 86
11.628942 13.700738 48.118706 126 68 75
11.591368 13.759864 47.963234 112 58 65
11.535460 13.796391 47.731899 103 51 59
11.461752 13.810472 47.426903 97 45 53
11.516945 13.979704 47.655285 94 41 50
11.554036 14.127787 47.808765 95 40 49
11.572672 14.253799 47.885876 99 40 49
11.572672 14.357025 47.885876 98 33 43
11.591368 14.483611 47.963234 95 25 36
11.610124 14.610607 48.040844 98 23 34
11.610124 14.714168 48.040844 105 24 37
11.666759 14.890009 48.275192 111 26 40
11.666759 14.994074 48.275192 117 29 43
11.704823 15.147399 48.432693 121 31 45
11.820521 15.402562 48.911438 124 33 46
11.781702 15.457069 48.750809 127 34 47
11.801080 15.587756 48.830990 129 36 49
11.840028 15.744811 48.992149 131 37 50
11.859598 15.876620 49.073128 132 38 50
11.879232 16.008867 49.154373 133 38 50
11.898933 16.141552 49.235889 133 38 50
11.898933 16.247688 49.235889 134 38 50
11.938530 16.408245 49.399738 136 41 52
11.978392 16.569876 49.564678 139 44 55
11.978392 16.676720 49.564678 142 47 57
11.978392 16.783566 49.564678 142 47 57
12.038686 16.975430 49.814163 140 46 56
12.058919 17.111523 49.897884 141 46 56
12.058919 17.219086 49.897884 141 49 58
12.146069 2.478784 49.814163 212 106 126
12.125723 2.581835 49.730724 214 110 132
12.105446 2.684541 49.647564 224 122 147
12.085237 2.786904 49.564678 240 155 181
12.065094 2.888926 49.482071 252 187 215
12.045019 2.990608 49.399738 252 185 214
12.045019 3.097097 49.399738 245 154 186
12.045019 3.203587 49.399738 242 136 169
12.065094 3.315593 49.482071 249 146 179
12.065094 3.422259 49.482071 254 156 190
12.065094 3.528926 49.482071 254 151 186
12.065094 3.635592 49.482071 254 143 179
12.065094 3.742259 49.482071 253 134 172
12.065094 3.848926 49.482071 247 121 161
12.025011 3.942451 49.317677 239 109 149
12.025011 4.048763 49.317677 238 106 145
12.005069 4.148185 49.235889 240 107 145
11.985193 4.247277 49.154373 244 111 148
12.005069 4.360457 49.235889 248 118 153
11.985193 4.459198 49.154373 248 120 154
11.985193 4.565158 49.154373 238 110 141
11.985193 4.671118 49.154373 230 100 130
11.945638 4.761312 48.992149 230 103 130
11.925959 4.858905 48.911438 235 108 135
11.945638 4.972534 48.992149 240 115 140
11.945638 5.078145 48.992149 248 126 149
11.925959 5.175215 48.911438 253 131 154
11.945638 5.289365 48.992149 254 128 149
11.925959 5.386088 48.911438 253 122 143
11.925959 5.491525 48.911438 250 117 138
11.925959 5.596961 48.911438 249 114 135
11.945638 5.711808 48.992149 246 111 134
11.945638 5.817418 48.992149 244 110 134
11.965383 5.932819 49.073128 244 112 137
11.886792 5.998941 48.750809 245 117 142
11.925959 6.124144 48.911438 245 122 147
11.906343 6.219335 48.830990 244 125 150
11.925959 6.335017 48.911438 244 128 153
11.906343 6.429861 48.830990 245 133 158
11.906343 6.535124 48.830990 248 141 164
11.867306 6.618616 48.670887 248 143 165
11.867306 6.723534 48.670887 238 134 154
11.867306 6.828452 48.670887 233 129 147
11.847883 6.922022 48.591232 239 137 153
11.847883 7.026768 48.591232 245 146 161
11.886792 7.154935 48.750809 245 149 163
11.847883 7.236261 48.591232 244 150 164
11.847883 7.341007 48.591232 243 152 166
11.828524 7.433588 48.511833 245 158 173
11.828524 7.538163 48.511833 249 171 187
11.828524 7.642738 48.511833 253 183 201
11.828524 7.747313 48.511833 254 187 208
11.828524 7.851888 48.511833 254 190 213
11.809228 7.943484 48.432693 253 196 219
11.809228 8.047888 48.432693 250 193 216
11.809228 8.152293 48.432693 244 178 201
11.809228 8.256698 48.432693 242 167 189
11.789994 8.347485 48.353813 245 166 187
11.789994 8.451719 48.353813 250 170 190
11.789994 8.555954 48.353813 251 172 191
11.770823 8.646107 48.275192 252 176 195
11.770823 8.750172 48.275192 253 188 207
11.789994 8.868657 48.353813 254 194 214
11.789994 8.972892 48.353813 253 187 207
11.789994 9.077127 48.353813 251 172 193
11.751716 9.151551 48.196823 249 162 183
11.751716 9.255447 48.196823 249 159 180
11.751716 9.359344 48.196823 248 157 179
11.751716 9.463240 48.196823 246 151 174
11.732669 9.551630 48.118706 244 148 170
11.732669 9.655357 48.118706 245 147 168
11.770823 9.790822 48.275192 245 149 169
11.751716 9.878824 48.196823 245 148 167
11.770823 9.998952 48.275192 239 142 159
11.770823 10.103017 48.275192 233 136 151
11.770823 10.207082 48.275192 230 134 148
11.789994 10.327941 48.353813 227 134 146
11.789994 10.432175 48.353813 224 133 144
11.789994 10.536409 48.353813 220 132 142
11.809228 10.658003 48.432693 220 135 144
11.828524 10.779993 48.511833 226 142 153
11.828524 10.884568 48.511833 234 152 164
11.828524 10.989143 48.511833 242 161 173
11.867306 11.130091 48.670887 246 166 179
11.828524 11.198294 48.511833 242 163 176
11.847883 11.321367 48.591232 227 146 159
11.847883 11.426114 48.591232 210 126 138
11.847883 11.530860 48.591232 202 116 127
11.847883 11.635607 48.591232 212 128 136
11.847883 11.740353 48.591232 232 152 158
11.828524 11.825745 48.511833 237 161 166
11.809228 11.910857 48.432693 213 139 144
11.809228 12.015262 48.432693 182 112 116
11.809228 12.119666 48.432693 175 108 115
11.770823 12.184318 48.275192 193 129 140
11.789994 12.308396 48.353813 212 149 164
11.751716 12.372331 48.196823 217 155 174
11.732669 12.456006 48.118706 214 152 173
11.732669 12.559733 48.118706 200 137 159
11.770823 12.704643 48.275192 188 124 146
11.770823 12.808708 48.275192 183 116 138
11.770823 12.912773 48.275192 176 107 128
11.789994 13.038038 48.353813 173 104 122
11.789994 13.142273 48.353813 178 108 124
11.789994 13.246508 48.353813 183 112 127
11.789994 13.350741 48.353813 178 107 119
11.770823 13.433099 48.275192 164 96 105
11.770823 13.537164 48.275192 152 87 95
11.770823 13.641229 48.275192 138 77 83
11.713684 13.678569 48.040844 123 66 72
11.694760 13.759864 47.963234 111 57 63
11.638354 13.796391 47.731899 102 49 56
11.582491 13.832569 47.502789 97 44 52
11.619674 13.979704 47.655285 97 43 51
11.657096 14.127787 47.808765 102 46 54
11.657096 14.230846 47.808765 108 47 55
11.657096 14.333906 47.808765 102 36 46
11.694760 14.483611 47.963234 96 26 36
11.713684 14.610607 48.040844 98 21 33
11.713684 14.714168 48.040844 105 23 36
11.751716 14.865837 48.196823 112 26 40
11.751716 14.969733 48.196823 118 29 43
11.809228 15.147399 48.432693 123 31 46
11.925959 15.402562 48.911438 126 33 47
11.886792 15.457069 48.750809 129 35 49
11.925959 15.613436 48.911438 134 39 52
11.945638 15.744811 48.992149 136 42 55
11.965383 15.876620 49.073128 137 42 55
11.985193 16.008867 49.154373 136 40 53
12.005069 16.141552 49.235889 134 38 51
12.005069 16.247688 49.235889 134 38 50
12.025011 16.380989 49.317677 136 40 52
12.065094 16.542259 49.482071 139 43 55
12.065094 16.648926 49.482071 142 46 56
12.065094 16.755592 49.482071 142 47 56
12.146069 16.975430 49.814163 140 46 55
12.166482 17.111523 49.897884 140 46 55
12.166482 17.219086 49.897884 141 48 57
12.232925 2.474632 49.730724 210 108 128
12.232925 2.581835 49.730724 214 114 135
12.192081 2.680059 49.564678 229 135 157
12.192081 2.786904 49.564678 246 167 190
12.171762 2.888926 49.482071 253 180 204
12.151508 2.990608 49.399738 250 164 191
12.151508 3.097097 49.399738 245 144 171
12.151508 3.203587 49.399738 245 138 166
12.151508 3.310076 49.399738 250 149 177
12.151508 3.416565 49.399738 254 155 184
12.151508 3.523054 49.399738 254 148 179
12.171762 3.635592 49.482071 254 138 172
12.171762 3.742259 49.482071 252 131 165
12.151508 3.842522 49.399738 246 119 155
12.131323 3.942451 49.317677 240 108 146
12.131323 4.048763 49.317677 241 107 144
12.111205 4.148185 49.235889 241 107 144
12.091153 4.247277 49.154373 245 110 147
12.091153 4.353238 49.154373 249 116 151
12.091153 4.459198 49.154373 246 114 148
12.071168 4.557612 49.073128 236 105 136
12.071168 4.663397 49.073128 231 100 130
12.051249 4.761312 48.992149 231 103 131
12.031395 4.858905 48.911438 235 109 135
12.051249 4.972534 48.992149 244 118 144
12.031395 5.069778 48.911438 251 128 153
12.011606 5.166703 48.830990 254 130 154
12.051249 5.289365 48.992149 253 126 149
12.011606 5.377229 48.830990 251 120 142
12.011606 5.482492 48.830990 249 116 139
12.011606 5.587756 48.830990 250 118 140
12.031395 5.702398 48.911438 249 119 141
12.051249 5.817418 48.992149 246 115 139
12.051249 5.923029 48.992149 243 113 137
11.991883 5.998941 48.750809 244 117 141
12.031395 6.124144 48.911438 245 123 146
12.011606 6.219335 48.830990 245 126 150
12.031395 6.335017 48.911438 245 129 153
12.011606 6.429861 48.830990 246 136 159
12.011606 6.535124 48.830990 250 145 168
11.972224 6.618616 48.670887 251 148 170
11.972224 6.723534 48.670887 243 140 161
11.972224 6.828452 48.670887 237 132 151
11.952629 6.922022 48.591232 239 135 153
11.952629 7.026768 48.591232 243 141 157
11.972224 7.143206 48.670887 243 144 159
11.952629 7.236261 48.591232 243 146 161
11.952629 7.341007 48.591232 244 150 165
11.933099 7.433588 48.511833 245 155 171
11.933099 7.538163 48.511833 248 163 180
11.933099 7.642738 48.511833 252 173 191
11.933099 7.747313 48.511833 254 180 200
11.913632 7.839079 48.432693 254 192 214
11.894229 7.930546 48.353813 255 206 228
11.913632 8.047888 48.432693 249 195 217
11.913632 8.152293 48.432693 240 171 193
11.913632 8.256698 48.432693 240 162 184
11.894229 8.347485 48.353813 247 166 189
11.894229 8.451719 48.353813 251 171 193
11.894229 8.555954 48.353813 253 173 194
11.894229 8.868657 48.353813 254 184 205
11.894229 8.972892 48.353813 253 177 199
11.874888 9.062366 48.275192 250 166 188
11.855612 9.151551 48.196823 249 163 185
11.836396 9.240446 48.118706 251 166 187
11.836396 9.344174 48.118706 250 164 184
11.836396 9.447902 48.118706 247 154 174
11.836396 9.551630 48.118706 244 146 166
11.817244 9.639733 48.040844 243 144 164
11.855612 9.774928 48.196823 242 145 162
11.855612 9.878824 48.196823 242 143 160
11.855612 9.982720 48.196823 238 140 155
11.855612 10.086616 48.196823 234 137 150
11.855612 10.190512 48.196823 231 134 146
11.874888 10.311147 48.275192 228 134 144
11.874888 10.415212 48.275192 225 133 142
11.874888 10.519278 48.275192 222 132 140
11.913632 10.658003 48.432693 221 133 141
11.933099 10.779993 48.511833 227 142 150
11.913632 10.866812 48.432693 237 156 165
11.933099 10.989143 48.511833 245 166 176
11.972224 11.130091 48.670887 246 165 176
11.933099 11.198294 48.511833 237 155 168
11.952629 11.321367 48.591232 221 138 151
11.933099 11.407444 48.511833 207 123 136
11.933099 11.512019 48.511833 204 119 131
11.933099 11.616594 48.511833 215 130 141
11.933099 11.721169 48.511833 234 152 161
11.913632 11.806453 48.432693 237 158 164
11.913632 11.910857 48.432693 211 135 140
11.913632 12.015262 48.432693 183 109 113
11.894229 12.099928 48.353813 183 113 118
11.874888 12.184318 48.275192 208 141 150
11.874888 12.288383 48.275192 222 158 171
11.836396 12.352278 48.118706 219 155 173
11.836396 12.456006 48.118706 211 148 170
11.836396 12.559733 48.118706 193 129 153
11.855612 12.684019 48.196823 179 115 140
11.874888 12.808708 48.275192 175 110 134
11.874888 12.912773 48.275192 171 104 128
11.874888 13.016838 48.275192 168 101 122
11.894229 13.142273 48.353813 172 104 122
11.894229 13.246508 48.353813 178 109 125
11.894229 13.350741 48.353813 175 106 120
11.855612 13.411291 48.196823 163 96 107
11.855612 13.515187 48.196823 150 85 94
11.874888 13.641229 48.275192 135 74 81
11.798153 13.656471 47.963234 122 64 69
11.779123 13.737670 47.885876 111 55 61
11.741249 13.796391 47.731899 103 49 55
11.703616 13.854736 47.578915 100 45 52
11.703616 13.957300 47.578915 103 47 55
11.760156 14.127787 47.808765 112 54 62
11.760156 14.230846 47.808765 116 54 63
11.760156 14.333906 47.808765 106 40 49
11.798153 14.483611 47.963234 98 26 37
11.798153 14.587004 47.963234 99 21 33
11.798153 14.690396 47.963234 106 23 36
11.836396 14.841743 48.118706 113 27 41
11.836396 14.945471 48.118706 119 30 45
11.894229 15.122728 48.353813 124 32 47
12.031395 15.402562 48.911438 128 34 48
11.991883 15.457069 48.750809 132 37 51
12.031395 15.613436 48.911438 139 44 58
12.051249 15.744811 48.992149 144 49 63
12.071168 15.876620 49.073128 144 48 62
12.091153 16.008867 49.154373 139 43 56
12.091153 16.114826 49.154373 136 39 52
12.091153 16.220787 49.154373 135 39 52
12.111205 16.353823 49.235889 138 41 54
12.151508 16.514734 49.399738 140 44 56
12.171762 16.648926 49.482071 142 46 58
12.151508 16.727713 49.399738 143 47 58
12.232925 16.946995 49.730724 142 46 56
12.274045 17.111523 49.897884 141 46 56
12.274045 17.219086 49.897884 141 47 56
12.336245 17.414452 50.150745 141 48 58
12.319492 2.577518 49.647564 217 122 142
12.298926 2.680059 49.564678 235 149 170
12.298926 2.786904 49.564678 250 176 197
12.278428 2.888926 49.482071 251 171 191
12.257998 2.990608 49.399738 248 152 173
12.257998 3.097097 49.399738 248 144 166
12.257998 3.203587 49.399738 249 143 165
12.257998 3.310076 49.399738 251 146 169
12.257998 3.416565 49.399738 254 150 175
12.257998 3.523054 49.399738 254 143 171
12.278428 3.635592 49.482071 253 134 164
12.278428 3.742259 49.482071 250 127 158
12.257998 3.842522 49.399738 246 118 151
12.237636 3.942451 49.317677 242 111 145
12.237636 4.048763 49.317677 242 108 142
12.197114 4.141317 49.154373 240 105 140
12.197114 4.247277 49.154373 243 107 142
12.197114 4.353238 49.154373 248 113 147
12.197114 4.459198 49.154373 244 110 143
12.176953 4.557612 49.073128 235 102 133
12.176953 4.663397 49.073128 231 100 130
12.156859 4.761312 48.992149 229 101 129
12.136831 4.858905 48.911438 234 108 135
12.136831 4.964342 48.911438 245 120 147
12.116870 5.061440 48.830990 252 129 156
12.116870 5.166703 48.830990 254 130 157
12.156859 5.289365 48.992149 251 125 150
12.096973 5.368400 48.750809 245 115 140
12.116870 5.482492 48.830990 244 113 138
12.116870 5.587756 48.830990 249 122 145
12.136831 5.702398 48.911438 251 128 151
12.156859 5.817418 48.992149 246 122 144
12.136831 5.913271 48.911438 240 113 136
12.077142 5.989107 48.670887 242 115 138
12.116870 6.114071 48.830990 245 122 145
12.116870 6.219335 48.830990 244 125 147
12.116870 6.324598 48.830990 242 127 149
12.116870 6.429861 48.830990 244 134 156
12.116870 6.535124 48.830990 250 146 169
12.096973 6.629484 48.750809 253 152 175
12.077142 6.723534 48.670887 248 145 167
12.077142 6.828452 48.670887 243 136 157
12.057376 6.922022 48.591232 242 135 154
12.057376 7.026768 48.591232 242 137 154
12.096973 7.154935 48.750809 239 137 153
12.057376 7.236261 48.591232 238 140 155
12.057376 7.341007 48.591232 242 147 162
12.037674 7.433588 48.511833 246 154 171
12.037674 7.538163 48.511833 248 160 177
12.037674 7.642738 48.511833 250 166 184
12.018037 7.734674 48.432693 252 172 191
12.018037 7.839079 48.432693 254 189 209
11.998464 7.930546 48.353813 254 205 226
12.018037 8.047888 48.432693 249 191 212
12.018037 8.152293 48.432693 242 167 189
12.018037 8.256698 48.432693 243 161 183
11.978954 8.333911 48.275192 248 166 188
11.998464 8.451719 48.353813 251 169 192
11.978954 8.854237 48.275192 253 175 198
11.978954 8.958302 48.275192 252 171 194
11.959508 9.047655 48.196823 250 166 188
11.940125 9.136719 48.118706 251 167 189
11.920804 9.225494 48.040844 253 173 194
11.920804 9.329054 48.040844 253 170 190
11.940125 9.447902 48.118706 250 159 178
11.920804 9.536174 48.040844 246 149 167
11.920804 9.639733 48.040844 244 145 162
11.940125 9.759085 48.118706 242 143 158
11.940125 9.862813 48.118706 240 141 156
11.940125 9.966540 48.118706 238 139 153
11.940125 10.070269 48.118706 235 137 149
11.940125 10.173996 48.118706 233 136 146
11.959508 10.294408 48.196823 230 134 143
11.959508 10.398304 48.196823 226 133 140
11.959508 10.502200 48.196823 223 131 138
11.998464 10.640644 48.353813 222 133 139
12.018037 10.762407 48.432693 228 142 148
11.998464 10.849113 48.353813 239 159 166
12.037674 10.989143 48.511833 246 169 178
12.057376 11.111875 48.591232 243 163 173
12.037674 11.198294 48.511833 232 147 161
12.037674 11.302869 48.511833 218 133 148
12.037674 11.407444 48.511833 207 121 137
12.018037 11.493239 48.432693 207 121 136
12.037674 11.616594 48.511833 218 132 146
12.037674 11.721169 48.511833 233 147 160
12.018037 11.806453 48.432693 232 149 160
12.018037 11.910857 48.432693 209 128 136
12.018037 12.015262 48.432693 187 110 115
11.998464 12.099928 48.353813 193 120 126
11.978954 12.184318 48.275192 218 150 157
11.978954 12.288383 48.275192 224 156 168
11.959508 12.372331 48.196823 212 145 162
11.940125 12.456006 48.118706 203 137 159
11.959508 12.580123 48.196823 185 119 145
11.959508 12.684019 48.196823 171 105 132
11.978954 12.808708 48.275192 168 102 129
11.978954 12.912773 48.275192 170 103 130
11.978954 13.016838 48.275192 172 105 130
11.978954 13.120903 48.275192 176 109 130
11.998464 13.246508 48.353813 178 111 129
11.978954 13.329033 48.275192 173 105 120
11.940125 13.389555 48.118706 160 93 105
11.940125 13.493282 48.118706 147 82 92
11.959508 13.619083 48.196823 134 71 79
11.882349 13.634444 47.885876 122 62 68
11.882349 13.737670 47.885876 111 54 59
11.844143 13.796391 47.731899 104 47 53
11.806181 13.854736 47.578915 103 46 52
11.806181 13.957300 47.578915 111 52 59
11.844143 14.105073 47.731899 122 62 69
11.844143 14.207967 47.731899 121 58 67
11.863215 14.333906 47.808765 109 41 50
11.882349 14.460251 47.885876 99 26 37
11.882349 14.563477 47.885876 100 22 34
11.882349 14.666702 47.885876 107 25 37
11.920804 14.817727 48.040844 115 28 43
11.920804 14.921288 48.040844 120 31 46
11.959508 15.073629 48.196823 124 33 48
12.077142 15.326812 48.670887 129 36 50
12.077142 15.431730 48.670887 134 39 53
12.136831 15.613436 48.911438 143 48 62
12.156859 15.744811 48.992149 150 55 69
12.156859 15.850422 48.992149 150 54 68
12.197114 16.008867 49.154373 143 46 59
12.197114 16.114826 49.154373 137 40 53
12.197114 16.220787 49.154373 138 40 54
12.217341 16.353823 49.235889 140 42 56
12.257998 16.514734 49.399738 142 44 59
12.257998 16.621223 49.399738 144 47 61
12.257998 16.727713 49.399738 145 48 61
12.340128 16.946995 49.730724 144 47 59
12.381608 17.111523 49.897884 141 46 56
12.402452 17.248074 49.981888 141 47 57
12.444352 17.414452 50.150745 142 48 59
12.405770 2.680059 49.564678 244 169 191
12.405770 2.786904 49.564678 252 183 204
12.385095 2.888926 49.482071 248 162 182
12.364487 2.990608 49.399738 245 144 164
12.364487 3.097097 49.399738 249 147 165
12.364487 3.203587 49.399738 251 145 164
12.364487 3.310076 49.399738 250 141 161
12.364487 3.416565 49.399738 252 143 164
12.364487 3.523054 49.399738 253 138 162
12.385095 3.635592 49.482071 251 130 156
12.385095 3.742259 49.482071 250 127 154
12.364487 3.842522 49.399738 248 123 151
12.343948 3.942451 49.317677 245 114 144
12.343948 4.048763 49.317677 241 106 138
12.303074 4.141317 49.154373 240 103 136
12.303074 4.247277 49.154373 244 106 140
12.303074 4.353238 49.154373 247 110 144
12.303074 4.459198 49.154373 242 105 138
12.282739 4.557612 49.073128 234 100 130
12.282739 4.663397 49.073128 230 98 127
12.262469 4.761312 48.992149 227 99 126
12.242268 4.858905 48.911438 234 108 135
12.242268 4.964342 48.911438 246 121 148
12.202064 5.053129 48.750809 252 128 156
12.222133 5.166703 48.830990 253 129 158
12.242268 5.280652 48.911438 249 124 152
12.182060 5.359599 48.670887 243 115 142
12.202064 5.473490 48.750809 242 114 140
12.222133 5.587756 48.830990 248 126 151
12.242268 5.702398 48.911438 251 135 159
12.262469 5.817418 48.992149 246 125 148
12.222133 5.903545 48.830990 238 112 134
12.182060 5.989107 48.670887 239 112 134
12.222133 6.114071 48.830990 243 119 141
12.222133 6.219335 48.830990 242 123 145
12.222133 6.324598 48.830990 241 127 149
12.222133 6.429861 48.830990 245 135 158
12.242268 6.545890 48.911438 251 144 168
12.202064 6.629484 48.750809 253 147 171
12.202064 6.734574 48.750809 252 143 166
12.182060 6.828452 48.670887 248 137 160
12.162122 6.922022 48.591232 244 135 156
12.182060 7.038288 48.670887 240 132 152
12.202064 7.154935 48.750809 234 129 148
12.162122 7.236261 48.591232 233 131 149
12.142249 7.329012 48.511833 240 142 159
12.142249 7.433588 48.511833 247 154 170
12.142249 7.538163 48.511833 249 158 176
12.142249 7.642738 48.511833 248 160 178
12.122441 7.734674 48.432693 250 165 183
12.102698 7.826312 48.353813 252 182 200
12.102698 7.930546 48.353813 254 194 213
12.122441 8.047888 48.432693 250 182 201
12.122441 8.152293 48.432693 244 164 184
12.122441 8.256698 48.432693 245 161 181
12.083019 8.333911 48.275192 248 164 185
12.083019 8.437977 48.275192 250 165 188
12.083019 8.958302 48.275192 252 168 191
12.063404 9.047655 48.196823 251 167 190
12.043852 9.136719 48.118706 252 171 194
12.004938 9.210590 47.963234 254 177 197
12.024364 9.329054 48.040844 254 172 190
12.043852 9.447902 48.118706 253 161 179
12.024364 9.536174 48.040844 251 156 172
12.024364 9.639733 48.040844 246 149 164
12.043852 9.759085 48.118706 241 142 155
12.043852 9.862813 48.118706 239 139 152
12.024364 9.950414 48.040844 237 138 150
12.024364 10.053973 48.040844 236 137 148
12.024364 10.157533 48.040844 234 137 146
12.043852 10.277723 48.118706 231 134 142
12.043852 10.381452 48.118706 226 131 138
12.043852 10.485179 48.118706 223 130 137
12.063404 10.606096 48.196823 224 133 138
12.083019 10.727407 48.275192 229 141 145
12.083019 10.831472 48.275192 238 154 159
12.122441 10.971216 48.432693 243 162 169
12.142249 11.093719 48.511833 241 157 167
12.122441 11.180025 48.432693 233 147 159
12.142249 11.302869 48.511833 219 133 148
12.122441 11.388834 48.432693 207 121 138
12.122441 11.493239 48.432693 207 121 140
12.142249 11.616594 48.511833 219 131 151
12.142249 11.721169 48.511833 230 142 160
12.122441 11.806453 48.432693 226 138 154
12.122441 11.910857 48.432693 207 121 134
12.142249 12.034895 48.511833 193 111 121
12.102698 12.099928 48.353813 204 127 136
12.102698 12.204162 48.353813 221 150 159
12.102698 12.308396 48.353813 216 145 156
12.063404 12.372331 48.196823 205 135 149
12.063404 12.476227 48.196823 197 130 148
12.063404 12.580123 48.196823 179 112 134
12.063404 12.684019 48.196823 163 98 122
12.063404 12.787914 48.196823 162 97 123
12.063404 12.891810 48.196823 170 106 131
12.063404 12.995707 48.196823 179 115 138
12.083019 13.120903 48.275192 185 120 141
12.083019 13.224968 48.275192 184 119 138
12.063404 13.307395 48.196823 174 108 124
12.024364 13.367889 48.040844 157 91 105
12.024364 13.471449 48.040844 144 78 90
12.024364 13.575008 48.040844 134 69 78
11.966275 13.612489 47.808765 123 60 67
11.966275 13.715549 47.808765 112 52 58
11.927859 13.774246 47.655285 105 45 51
11.908745 13.854736 47.578915 105 45 51
11.889690 13.934969 47.502789 117 55 62
11.927859 14.082433 47.655285 129 66 73
11.927859 14.185162 47.655285 125 59 67
11.947037 14.310861 47.731899 111 41 50
11.966275 14.436965 47.808765 101 27 37
11.966275 14.540025 47.808765 101 23 34
11.966275 14.643085 47.808765 107 26 38
12.004938 14.793789 47.963234 115 30 42
11.985576 14.873154 47.885876 120 32 46
12.043852 15.049198 48.118706 124 35 49
12.122441 15.251803 48.432693 129 37 51
12.162122 15.406474 48.591232 135 41 55
12.222133 15.587756 48.830990 144 49 63
12.242268 15.718872 48.911438 152 57 71
12.262469 15.850422 48.992149 153 57 71
12.282739 15.982406 49.073128 145 47 61
12.303074 16.114826 49.154373 137 39 53
12.303074 16.220787 49.154373 139 40 55
12.323477 16.353823 49.235889 142 43 58
12.364487 16.514734 49.399738 144 45 60
12.364487 16.621223 49.399738 145 46 62
12.364487 16.727713 49.399738 146 48 63
12.426517 16.918655 49.647564 145 47 61
12.489171 17.111523 49.897884 143 46 59
12.531293 17.277159 50.066177 143 47 59
12.531293 17.385086 50.066177 143 48 59
12.533540 2.684541 49.647564 251 190 215
12.512615 2.786904 49.564678 250 183 206
12.512615 2.893749 49.564678 243 150 173
12.491761 2.995592 49.482071 241 137 158
12.470976 3.097097 49.399738 248 144 163
12.470976 3.203587 49.399738 251 144 163
12.491761 3.315593 49.482071 250 139 157
12.470976 3.416565 49.399738 251 137 156
12.491761 3.528926 49.482071 251 133 155
12.470976 3.629543 49.399738 249 128 151
12.491761 3.742259 49.482071 251 130 154
12.450260 3.836139 49.317677 251 130 155
12.450260 3.942451 49.317677 246 116 143
12.450260 4.048763 49.317677 240 103 132
12.409034 4.141317 49.154373 241 102 133
12.409034 4.247277 49.154373 247 107 139
12.409034 4.353238 49.154373 247 108 140
12.409034 4.459198 49.154373 240 102 134
12.388523 4.557612 49.073128 234 98 128
12.388523 4.663397 49.073128 229 96 125
12.368080 4.761312 48.992149 228 99 126
12.347705 4.858905 48.911438 236 110 137
12.347705 4.964342 48.911438 246 122 150
12.286978 5.044845 48.670887 250 126 155
12.327395 5.166703 48.830990 250 126 156
12.347705 5.280652 48.911438 248 124 154
12.266869 5.350827 48.591232 247 122 151
12.286978 5.464517 48.670887 248 126 154
12.307154 5.578580 48.750809 251 136 162
12.347705 5.702398 48.911438 253 141 165
12.347705 5.807834 48.911438 247 128 152
12.307154 5.893851 48.750809 238 111 134
12.286978 5.989107 48.670887 237 109 130
12.327395 6.114071 48.830990 240 114 135
12.327395 6.219335 48.830990 241 122 142
12.307154 6.314213 48.750809 243 137 156
12.327395 6.429861 48.830990 248 147 167
12.368080 6.556692 48.992149 252 146 167
12.307154 6.629484 48.750809 253 140 163
12.327395 6.745650 48.830990 252 138 161
12.286978 6.828452 48.670887 250 136 159
12.266869 6.922022 48.591232 247 134 156
12.286978 7.038288 48.670887 241 131 152
12.286978 7.143206 48.670887 235 128 147
12.246824 7.224437 48.511833 233 130 147
12.226846 7.317056 48.432693 239 140 157
12.226846 7.421461 48.432693 248 152 169
12.226846 7.525866 48.432693 249 156 174
12.206933 7.617843 48.353813 247 156 173
12.206933 7.722077 48.353813 246 157 175
12.187084 7.813586 48.275192 249 169 186
12.187084 7.917651 48.275192 252 178 195
12.206933 8.034781 48.353813 250 171 188
12.206933 8.139015 48.353813 246 160 179
12.206933 8.243250 48.353813 246 159 178
12.187084 8.333911 48.275192 248 160 181
12.187084 8.437977 48.275192 248 161 183
12.147579 8.514353 48.118706 248 161 183
12.187084 8.958302 48.275192 252 165 188
12.167299 9.047655 48.196823 253 166 188
12.127923 9.121935 48.040844 254 170 192
12.088801 9.195735 47.885876 254 174 194
12.108331 9.313983 47.963234 254 168 185
12.127923 9.432614 48.040844 253 160 176
12.127923 9.536174 48.040844 253 159 173
12.127923 9.639733 48.040844 247 150 164
12.147579 9.759085 48.118706 240 139 151
12.127923 9.846853 48.040844 238 137 148
12.108331 9.934339 47.963234 237 137 147
12.108331 10.037731 47.963234 236 136 146
12.108331 10.141124 47.963234 234 135 146
12.127923 10.261093 48.040844 229 132 141
12.127923 10.364653 48.040844 223 127 135
12.127923 10.468213 48.040844 220 126 133
12.167299 10.606096 48.196823 222 130 136
12.167299 10.709992 48.196823 227 137 142
12.167299 10.813889 48.196823 232 144 149
12.206933 10.953347 48.353813 237 150 156
12.226846 11.075621 48.432693 240 154 164
12.226846 11.180025 48.432693 236 151 163
12.246824 11.302869 48.511833 220 134 150
12.226846 11.388834 48.432693 206 118 138
12.226846 11.493239 48.432693 205 117 139
12.246824 11.616594 48.511833 217 129 153
12.246824 11.721169 48.511833 228 138 162
12.226846 11.806453 48.432693 221 131 153
12.226846 11.910857 48.432693 205 116 134
12.266869 12.054591 48.591232 200 114 129
12.206933 12.099928 48.353813 213 132 144
12.206933 12.204162 48.353813 217 141 152
12.206933 12.308396 48.353813 202 128 140
12.167299 12.372331 48.196823 200 128 142
12.167299 12.476227 48.196823 195 126 143
12.187084 12.600578 48.275192 174 106 126
12.167299 12.684019 48.196823 158 93 115
12.167299 12.787914 48.196823 161 97 121
12.167299 12.891810 48.196823 174 111 135
12.167299 12.995707 48.196823 185 121 145
12.167299 13.099603 48.196823 189 125 146
12.167299 13.203499 48.196823 186 122 141
12.147579 13.285828 48.118706 176 111 129
12.108331 13.346293 47.963234 158 92 107
12.127923 13.471449 48.040844 143 76 89
