ply
format ascii 1.0
element vertex 1165
property float x
property float y
property float z
property uchar red
property uchar green
property uchar blue
end_header
11.292892 21.236671 76.915138 182 73 88
11.292892 21.402475 76.915138 177 70 85
11.205801 21.401941 76.321960 168 64 77
11.148482 21.456152 75.931564 161 58 71
11.148482 21.619835 75.931564 157 56 69
11.148482 21.783518 75.931564 158 59 73
11.148482 21.947201 75.931564 162 66 80
11.148482 22.110884 75.931564 166 72 87
11.148482 22.274567 75.931564 168 76 91
11.120043 22.381008 75.737862 166 77 92
11.091747 22.486910 75.545143 163 77 92
11.063596 22.592274 75.353409 159 76 90
11.063596 22.754709 75.353409 155 74 89
11.035586 22.859127 75.162636 152 72 86
11.035586 23.021152 75.162636 148 70 83
10.979992 23.066387 74.783989 144 67 80
11.007719 23.286251 74.972832 141 64 77
11.007719 23.447866 74.972832 136 61 73
10.979992 23.550014 74.783989 130 55 66
11.921986 0.531955 80.024910 103 37 44
11.889937 0.702568 79.809792 105 34 42
11.889937 0.874611 79.809792 109 33 42
11.889937 1.046654 79.809792 115 32 43
11.889937 1.218698 79.809792 122 35 46
11.889937 1.390741 79.809792 130 41 53
11.921986 1.566996 80.024910 140 49 62
11.954207 1.744204 80.241196 149 58 71
11.986604 1.922373 80.458649 155 66 78
11.858061 2.073339 79.595825 160 72 83
11.794818 2.232948 79.171310 164 79 89
11.732245 2.390863 78.751305 167 85 94
11.701208 2.553850 78.542969 170 90 98
11.458696 2.666724 76.915138 172 95 104
11.578682 2.862187 77.720528 174 99 109
11.609073 3.037678 77.924522 176 102 114
11.639623 3.214093 78.129585 179 106 120
11.639623 3.382514 78.129585 185 113 129
11.639623 3.550936 78.129585 191 119 135
11.639623 3.719357 78.129585 189 117 132
11.639623 3.887778 78.129585 182 111 125
11.639623 4.056199 78.129585 184 112 126
11.639623 4.224620 78.129585 190 117 132
11.670334 4.404632 78.335732 189 117 132
11.732245 4.597760 78.751305 189 118 132
11.732245 4.767521 78.751305 196 125 138
11.732245 4.937283 78.751305 200 130 143
11.732245 5.107044 78.751305 202 132 143
11.858061 5.333393 79.595825 203 133 144
11.826355 5.490255 79.383003 205 134 146
11.826355 5.661378 79.383003 205 135 148
11.794818 5.816948 79.171310 204 136 150
11.794818 5.987615 79.171310 202 135 151
11.763449 6.141903 78.960747 198 134 151
11.732245 6.295372 78.751305 195 134 150
11.732245 6.465134 78.751305 191 133 147
11.701208 6.617342 78.542969 194 138 150
11.701208 6.786654 78.542969 209 154 164
11.670334 6.937613 78.335732 231 178 186
11.670334 7.106479 78.335732 241 191 200
11.670334 7.275344 78.335732 234 183 193
11.670334 7.444210 78.335732 221 168 180
11.609073 7.573112 77.924522 215 160 175
11.639623 7.761462 78.129585 214 160 175
11.670334 7.950806 78.335732 214 160 176
11.670334 8.119672 78.335732 214 159 176
11.639623 8.266725 78.129585 213 158 175
11.548450 8.369074 77.517601 213 156 173
11.578682 8.558522 77.720528 213 153 171
11.578682 8.726062 77.720528 213 150 168
11.548450 8.870379 77.517601 211 148 166
11.488459 8.990534 77.114914 209 145 162
11.429087 9.109446 76.716385 207 141 157
11.578682 9.396218 77.720528 204 138 154
11.518376 9.513947 77.315735 204 136 151
11.429087 9.605570 76.716385 203 134 149
11.488459 9.821703 77.114914 201 131 146
11.548450 10.040092 77.517601 198 129 143
11.578682 10.233914 77.720528 199 131 144
11.639623 10.456199 78.129585 201 135 146
11.609073 10.596733 77.924522 203 141 148
11.609073 10.764712 77.924522 203 143 149
11.639623 10.961462 78.129585 198 141 146
11.639623 11.129883 78.129585 190 136 140
11.578682 11.239150 77.720528 189 138 141
11.578682 11.406690 77.720528 198 148 152
11.578682 11.574229 77.720528 205 155 160
11.578682 11.741768 77.720528 203 154 158
11.548450 11.878213 77.517601 199 150 155
11.548450 12.045315 77.517601 200 150 156
11.488459 12.148975 77.114914 204 153 160
11.488459 12.315209 77.114914 207 154 162
11.488459 12.481442 77.114914 207 151 162
11.458696 12.614910 76.915138 207 149 161
11.458696 12.780714 76.915138 208 148 160
11.458696 12.946517 76.915138 211 149 161
11.429087 13.078438 76.716385 215 150 163
11.429087 13.243813 76.716385 220 151 164
11.341171 13.306040 76.126259 227 155 168
11.370325 13.504770 76.321960 234 159 172
11.370325 13.669294 76.321960 236 155 170
11.370325 13.833818 76.321960 232 144 161
11.370325 13.998343 76.321960 224 132 149
11.429087 14.236061 76.716385 214 119 138
11.429087 14.401435 76.716385 208 114 132
11.399631 14.529266 76.518669 201 111 127
11.429087 14.732184 76.716385 184 100 115
11.458696 14.936154 76.915138 170 93 107
11.458696 15.101957 76.915138 180 112 123
11.488459 15.307417 77.114914 201 141 150
11.488459 15.473651 77.114914 212 160 167
11.429087 15.559058 76.716385 218 172 177
11.548450 15.888657 77.517601 227 184 189
11.548450 16.055758 77.517601 238 201 206
11.488459 16.138586 77.114914 247 221 227
11.458696 16.262579 76.915138 253 233 239
11.518376 16.513947 77.315735 254 234 240
11.429087 16.551306 76.716385 254 239 243
11.429087 16.716681 76.716385 251 232 239
11.429087 16.882055 76.716385 229 185 201
11.399631 17.003494 76.518669 196 125 145
11.429087 17.212805 76.716385 194 109 131
11.429087 17.378180 76.716385 206 120 140
11.399631 17.498339 76.518669 200 114 131
11.399631 17.663288 76.518669 190 103 116
11.399631 17.828236 76.518669 187 102 110
11.429087 18.039679 76.716385 189 106 110
11.429087 18.205053 76.716385 189 110 109
11.458696 18.418020 76.915138 185 108 105
11.429087 18.535803 76.716385 178 104 101
11.458696 18.749626 76.915138 174 102 101
11.488459 18.964560 77.114914 178 108 109
11.458696 19.081232 76.915138 187 118 122
11.488459 19.297028 77.114914 194 124 131
11.488459 19.463261 77.114914 195 123 134
11.458696 19.578642 76.915138 194 117 132
11.488459 19.795729 77.114914 193 111 129
11.458696 19.910248 76.915138 195 108 127
11.458696 20.076050 76.915138 200 107 126
11.488459 20.294430 77.114914 203 105 125
11.458696 20.407656 76.915138 203 101 119
11.488459 20.626898 77.114914 199 94 112
11.488459 20.793131 77.114914 195 87 104
11.370325 20.743845 76.321960 190 80 96
11.399631 20.962255 76.518669 185 74 89
11.429087 21.181797 76.716385 181 70 86
11.429087 21.347172 76.716385 175 67 82
11.341171 21.347065 76.126259 169 63 77
11.283308 21.401417 75.737862 162 58 72
11.312165 21.619835 75.931564 157 56 69
11.312165 21.783518 75.931564 157 58 72
11.312165 21.947201 75.931564 163 66 80
11.312165 22.110884 75.931564 169 75 89
11.312165 22.274567 75.931564 172 80 95
11.312165 22.438250 75.931564 170 80 95
11.283308 22.544273 75.737862 166 79 94
11.254597 22.649759 75.545143 161 78 92
11.226032 22.754709 75.353409 156 77 91
11.226032 22.917147 75.353409 152 74 88
11.226032 23.079582 75.353409 148 70 85
11.169335 23.124636 74.972832 143 67 81
11.169335 23.286251 74.972832 139 64 77
11.169335 23.447866 74.972832 135 61 73
12.061980 0.530525 79.809792 101 34 42
12.029642 0.700685 79.595825 104 32 41
12.029642 0.872267 79.595825 109 31 41
12.029642 1.043848 79.595825 115 31 43
12.029642 1.215430 79.595825 123 34 47
12.061980 1.390741 79.809792 131 41 53
12.061980 1.562783 79.809792 141 50 62
12.094492 1.739503 80.024910 150 59 70
12.160045 1.922373 80.458649 155 66 76
11.997478 2.067795 79.383003 158 72 81
11.933661 2.227009 78.960747 161 78 86
11.902007 2.390863 78.751305 164 84 92
11.870521 2.553850 78.542969 167 89 97
11.624499 2.666724 76.915138 171 95 104
11.777052 2.869699 77.924522 176 102 112
11.777052 3.037678 77.924522 178 105 117
11.808043 3.214093 78.129585 179 106 121
11.808043 3.382514 78.129585 184 112 128
11.808043 3.550936 78.129585 192 120 137
11.808043 3.719357 78.129585 192 120 136
11.808043 3.887778 78.129585 185 113 129
11.808043 4.056199 78.129585 184 112 127
11.808043 4.224620 78.129585 187 115 130
11.808043 4.393041 78.129585 187 116 131
11.870521 4.585597 78.542969 190 119 133
11.870521 4.754909 78.542969 196 125 139
11.870521 4.924221 78.542969 201 131 144
11.902007 5.107044 78.751305 204 135 147
12.029642 5.333393 79.595825 206 137 149
11.997478 5.490255 79.383003 207 138 149
11.965485 5.646281 79.171310 206 137 149
11.965485 5.816948 79.171310 203 136 151
11.965485 5.987615 79.171310 200 135 151
11.933661 6.141903 78.960747 196 134 152
11.902007 6.295372 78.751305 193 134 151
11.870521 6.448030 78.542969 193 135 151
11.870521 6.617342 78.542969 201 146 159
11.839200 6.768748 78.335732 220 165 176
11.839200 6.937613 78.335732 235 180 190
11.808043 7.087778 78.129585 235 181 190
11.808043 7.256198 78.129585 224 170 180
11.808043 7.424620 78.129585 216 160 173
11.777052 7.573112 77.924522 213 156 171
11.808043 7.761462 78.129585 213 156 172
11.808043 7.929883 78.129585 213 156 172
11.808043 8.098304 78.129585 211 155 171
11.808043 8.266725 78.129585 210 153 170
11.685043 8.347280 77.315735 209 152 169
11.746222 8.558522 77.720528 208 150 167
11.746222 8.726062 77.720528 208 147 165
11.715552 8.870379 77.517601 207 145 163
11.654693 8.990534 77.114914 207 143 161
11.624499 9.133045 76.915138 205 141 158
11.715552 9.371685 77.517601 203 139 154
11.654693 9.489235 77.114914 201 135 150
11.564579 9.580813 76.518669 201 134 148
11.624499 9.796258 76.915138 202 134 148
11.654693 9.987936 77.114914 204 135 148
11.685043 10.180614 77.315735 204 136 148
11.777052 10.428755 77.924522 204 139 149
11.746222 10.568994 77.720528 204 141 150
11.746222 10.736532 77.720528 203 143 150
11.777052 10.932692 77.924522 200 141 147
11.777052 11.100671 77.924522 194 137 143
11.715552 11.209805 77.517601 192 137 143
11.715552 11.376907 77.517601 198 144 150
11.746222 11.574229 77.720528 204 151 156
11.746222 11.741768 77.720528 204 151 156
11.685043 11.847280 77.315735 202 149 154
11.715552 12.045315 77.517601 202 149 155
11.624499 12.117501 76.915138 205 150 157
11.654693 12.315209 77.114914 208 151 160
11.654693 12.481442 77.114914 208 150 161
11.594461 12.582314 76.716385 209 148 161
11.624499 12.780714 76.915138 208 144 158
11.624499 12.946517 76.915138 208 142 156
11.594461 13.078438 76.716385 210 141 156
11.594461 13.243813 76.716385 212 141 155
11.505274 13.306040 76.126259 216 140 155
11.564579 13.539576 76.518669 220 139 155
11.564579 13.704524 76.518669 224 137 152
11.534850 13.833818 76.321960 224 132 149
11.564579 14.034421 76.518669 221 126 143
11.594461 14.236061 76.716385 214 118 134
11.594461 14.401435 76.716385 205 111 127
11.564579 14.529266 76.518669 196 105 121
11.594461 14.732184 76.716385 181 97 112
11.594461 14.897559 76.716385 174 97 111
11.594461 15.062934 76.716385 182 115 129
11.594461 15.228309 76.716385 194 136 149
11.624499 15.433563 76.915138 199 150 160
11.564579 15.518957 76.518669 206 161 170
11.685043 15.847280 77.315735 217 174 183
11.654693 15.972352 77.114914 229 190 198
11.594461 16.055182 76.716385 241 214 220
11.594461 16.220556 76.716385 251 237 242
11.654693 16.471054 77.114914 254 246 250
11.594461 16.551306 76.716385 254 247 250
11.594461 16.716681 76.716385 249 230 237
11.594461 16.882055 76.716385 221 173 188
11.564579 17.003494 76.518669 184 109 129
11.594461 17.212805 76.716385 188 103 125
11.594461 17.378180 76.716385 212 124 144
11.534850 17.453356 76.321960 211 122 139
11.564579 17.663288 76.518669 196 108 120
11.564579 17.828236 76.518669 188 100 108
11.594461 18.039679 76.716385 190 104 107
11.564579 18.158133 76.518669 194 111 110
11.594461 18.370428 76.716385 193 112 109
11.594461 18.535803 76.716385 184 106 102
11.594461 18.701178 76.716385 176 99 97
11.594461 18.866552 76.716385 177 102 102
11.624499 19.081232 76.915138 188 114 117
11.624499 19.247034 76.915138 197 124 129
11.624499 19.412838 76.915138 198 122 130
11.624499 19.578642 76.915138 195 116 127
11.624499 19.744444 76.915138 198 113 128
11.624499 19.910248 76.915138 201 111 128
11.594461 20.024174 76.716385 204 108 126
11.624499 20.241854 76.915138 204 104 122
11.624499 20.407656 76.915138 202 98 116
11.624499 20.573460 76.915138 198 90 108
11.685043 20.847281 77.315735 193 83 100
11.505274 20.690655 76.126259 188 77 92
11.505274 20.854757 76.126259 183 71 86
11.564579 21.127205 76.518669 178 68 82
11.534850 21.237417 76.321960 173 65 79
11.505274 21.347065 76.126259 168 61 76
11.446573 21.401417 75.737862 163 58 73
11.475848 21.619835 75.931564 159 56 71
11.475848 21.783518 75.931564 158 57 72
11.475848 21.947201 75.931564 163 65 80
11.475848 22.110884 75.931564 173 77 91
11.475848 22.274567 75.931564 179 85 99
11.475848 22.438250 75.931564 175 84 98
11.446573 22.544273 75.737862 168 81 95
11.417447 22.649759 75.545143 163 80 94
11.417447 22.812609 75.545143 158 79 93
11.388469 22.917147 75.353409 153 76 90
11.388469 23.079582 75.353409 148 71 86
11.330951 23.124636 74.972832 143 67 82
11.330951 23.286251 74.972832 139 64 78
11.330951 23.447866 74.972832 136 61 74
12.234023 0.530525 79.809792 100 34 43
12.201224 0.700685 79.595825 103 32 41
12.201224 0.872267 79.595825 108 30 42
12.201224 1.043848 79.595825 114 31 43
12.201224 1.215430 79.595825 123 35 47
12.201224 1.387012 79.595825 132 42 54
12.201224 1.558594 79.595825 141 50 61
12.234023 1.734827 79.809792 148 58 68
12.333487 1.922373 80.458649 154 64 74
12.136151 2.062281 79.171310 157 70 79
12.071768 2.221102 78.751305 159 77 84
12.071768 2.390863 78.751305 161 82 89
12.071768 2.560625 78.751305 165 87 95
11.790302 2.666724 76.915138 170 95 103
11.913761 2.862187 77.720528 176 102 112
11.945030 3.037678 77.924522 179 105 118
11.945030 3.205657 77.924522 178 105 120
11.945030 3.373636 77.924522 183 110 127
11.976465 3.550936 78.129585 193 120 137
11.976465 3.719357 78.129585 196 122 139
11.976465 3.887778 78.129585 189 115 132
11.976465 4.056199 78.129585 184 111 127
11.976465 4.224620 78.129585 184 113 128
11.976465 4.393041 78.129585 186 114 130
12.008065 4.573497 78.335732 189 118 133
12.039832 4.754909 78.542969 194 123 137
12.039832 4.924221 78.542969 198 128 141
12.039832 5.093533 78.542969 201 132 144
12.136151 5.304948 79.171310 205 136 148
12.136151 5.475615 79.171310 206 138 149
12.136151 5.646281 79.171310 204 137 149
12.168601 5.832501 79.383003 200 135 150
12.168601 6.003624 79.383003 197 134 151
12.136151 6.158281 79.171310 195 133 152
12.103874 6.312116 78.960747 194 135 153
12.071768 6.465134 78.751305 197 139 156
12.071768 6.634895 78.751305 209 153 168
12.039832 6.786654 78.542969 226 170 183
12.008065 6.937613 78.335732 232 176 187
11.976465 7.087778 78.129585 225 168 180
11.976465 7.256198 78.129585 216 160 172
11.976465 7.424620 78.129585 212 155 168
11.945030 7.573112 77.924522 212 154 168
11.945030 7.741090 77.924522 212 153 168
11.945030 7.909070 77.924522 211 153 168
11.945030 8.077048 77.924522 210 152 167
11.913761 8.223444 77.720528 208 150 166
11.790302 8.304029 76.915138 206 148 164
11.851710 8.513947 77.315735 205 147 163
11.913761 8.726062 77.720528 205 145 162
11.882654 8.870379 77.517601 203 143 160
11.820927 8.990534 77.114914 202 141 158
11.790302 9.133045 76.915138 202 141 156
11.851710 9.347280 77.315735 201 139 153
11.820927 9.489235 77.114914 199 136 149
11.729527 9.580813 76.518669 200 136 148
11.790302 9.796258 76.915138 203 137 148
11.820927 9.987936 77.114914 204 138 148
11.820927 10.154170 77.114914 204 138 148
11.913761 10.401454 77.720528 204 139 148
11.882654 10.541398 77.517601 203 140 149
11.882654 10.708500 77.517601 202 141 149
11.913761 10.904072 77.720528 200 140 148
11.913761 11.071611 77.720528 197 139 146
11.882654 11.209805 77.517601 197 140 147
11.882654 11.376907 77.517601 203 146 152
11.913761 11.574229 77.720528 207 150 156
11.913761 11.741768 77.720528 205 149 155
11.851710 11.847280 77.315735 205 148 154
11.882654 12.045315 77.517601 208 151 157
11.790302 12.117501 76.915138 211 153 160
11.790302 12.283304 76.915138 211 151 161
11.790302 12.449107 76.915138 213 151 164
11.759836 12.582314 76.716385 214 150 165
11.790302 12.780714 76.915138 211 145 161
11.759836 12.913063 76.716385 209 140 156
11.729527 13.044730 76.518669 211 139 155
11.790302 13.278123 76.915138 214 139 155
11.699374 13.340245 76.321960 215 136 152
11.759836 13.574562 76.716385 216 133 149
11.699374 13.669294 76.321960 220 130 146
11.699374 13.833818 76.321960 222 128 143
11.729527 14.034421 76.518669 220 123 138
11.759836 14.236061 76.716385 212 114 130
11.759836 14.401435 76.716385 204 107 122
11.729527 14.529266 76.518669 193 101 115
11.759836 14.732184 76.716385 180 96 110
11.759836 14.897559 76.716385 177 102 115
11.729527 15.024112 76.518669 185 119 134
11.729527 15.189060 76.518669 191 133 148
11.759836 15.393683 76.716385 191 141 154
11.729527 15.518957 76.518669 197 151 165
11.851710 15.847280 77.315735 211 165 179
11.820927 15.972352 77.114914 225 182 196
11.759836 16.055182 76.716385 239 208 219
11.759836 16.220556 76.716385 250 237 243
11.820927 16.471054 77.114914 254 251 253
11.759836 16.551306 76.716385 253 247 251
11.759836 16.716681 76.716385 245 218 228
11.759836 16.882055 76.716385 212 153 171
11.729527 17.003494 76.518669 178 99 120
11.729527 17.168442 76.518669 191 106 128
11.759836 17.378180 76.716385 216 127 147
11.699374 17.453356 76.321960 216 127 142
11.729527 17.663288 76.518669 201 110 122
11.729527 17.828236 76.518669 189 99 107
11.729527 17.993185 76.518669 191 102 106
11.729527 18.158133 76.518669 199 112 114
11.729527 18.323082 76.518669 202 117 116
11.729527 18.488029 76.518669 192 110 109
11.729527 18.652979 76.518669 179 98 98
11.729527 18.817926 76.518669 176 97 98
11.759836 19.031927 76.716385 187 109 112
11.759836 19.197302 76.716385 199 122 126
11.790302 19.412838 76.915138 199 120 126
11.759836 19.528049 76.716385 197 115 123
11.759836 19.693424 76.716385 204 118 129
11.759836 19.858799 76.716385 211 118 132
11.729527 19.972565 76.518669 210 112 129
11.759836 20.189548 76.716385 206 104 121
11.729527 20.302462 76.518669 201 95 112
11.729527 20.467411 76.518669 195 86 103
11.820927 20.793131 77.114914 189 79 95
11.639531 20.637737 75.931564 185 74 89
11.639531 20.801420 75.931564 181 69 84
11.699374 21.072893 76.321960 177 66 80
11.669376 21.182962 76.126259 172 64 77
11.669376 21.347065 76.126259 168 61 75
11.609838 21.401417 75.737862 164 58 73
11.639531 21.619835 75.931564 160 56 71
11.639531 21.783518 75.931564 158 56 71
11.639531 21.947201 75.931564 164 65 79
11.639531 22.110884 75.931564 177 80 94
11.639531 22.274567 75.931564 187 93 107
11.639531 22.438250 75.931564 182 90 104
11.639531 22.601933 75.931564 171 82 96
11.580297 22.649759 75.545143 165 80 95
11.580297 22.812609 75.545143 161 80 94
11.580297 22.975460 75.545143 156 77 92
11.580297 23.138309 75.545143 150 73 88
11.521663 23.183178 75.162636 143 68 83
11.521663 23.345203 75.162636 138 64 77
11.492567 23.447866 74.972832 134 61 73
12.406066 0.530525 79.809792 100 34 43
12.339724 0.698811 79.383003 103 32 42
12.339724 0.869934 79.383003 107 30 42
12.339724 1.041057 79.383003 114 31 44
12.339724 1.212180 79.383003 123 35 48
12.339724 1.383303 79.383003 133 42 55
12.306818 1.550281 79.171310 140 49 62
12.339724 1.725549 79.383003 147 56 67
12.439506 1.912009 80.024910 152 62 72
12.274087 2.056797 78.960747 155 68 77
12.176930 2.209381 78.335732 158 74 82
12.209145 2.384538 78.542969 161 79 87
12.209145 2.553850 78.542969 165 85 94
11.925211 2.659833 76.716385 171 93 103
12.049756 2.854714 77.517601 176 99 111
12.081300 3.029726 77.720528 179 103 117
12.113009 3.205657 77.924522 179 103 120
12.113009 3.373636 77.924522 183 107 125
12.113009 3.541615 77.924522 193 117 135
12.113009 3.709594 77.924522 197 121 139
12.113009 3.877573 77.924522 190 115 132
12.113009 4.045552 77.924522 183 109 125
12.113009 4.213531 77.924522 182 109 124
12.113009 4.381510 77.924522 184 112 127
12.176930 4.573497 78.335732 188 116 131
12.176930 4.742362 78.335732 193 122 136
12.176930 4.911228 78.335732 197 126 140
12.209145 5.093533 78.542969 199 129 142
12.274087 5.290839 78.960747 201 132 144
12.274087 5.461052 78.960747 201 134 145
12.306818 5.646281 79.171310 201 134 147
12.339724 5.832501 79.383003 199 134 148
12.339724 6.003624 79.383003 197 133 150
12.306818 6.158281 79.171310 196 134 153
12.274087 6.312116 78.960747 197 136 156
12.241529 6.465134 78.751305 200 141 159
12.241529 6.634895 78.751305 209 151 168
12.209145 6.786654 78.542969 220 163 177
12.176930 6.937613 78.335732 222 164 177
12.176930 7.106479 78.335732 215 157 170
12.144886 7.256198 78.129585 210 152 165
12.144886 7.424620 78.129585 209 150 164
12.113009 7.573112 77.924522 210 151 165
12.113009 7.741090 77.924522 210 151 165
12.113009 7.909070 77.924522 210 151 165
12.081300 8.055904 77.720528 208 150 164
12.049756 8.201973 77.517601 205 148 163
11.925211 8.282573 76.716385 203 146 160
12.049756 8.536176 77.517601 202 144 160
12.113009 8.748964 77.924522 201 143 159
12.081300 8.893600 77.720528 199 141 156
11.987160 8.990534 77.114914 197 139 154
11.956105 9.133045 76.915138 197 138 153
12.018376 9.347280 77.315735 197 137 151
11.987160 9.489235 77.114914 198 137 149
11.925211 9.605570 76.716385 201 139 149
11.956105 9.796258 76.915138 204 141 150
12.018376 10.013947 77.315735 204 140 148
12.018376 10.180614 77.315735 203 139 147
12.081300 10.401454 77.720528 203 139 147
12.049756 10.541398 77.517601 202 140 148
12.049756 10.708500 77.517601 201 139 147
12.081300 10.904072 77.720528 199 138 146
12.081300 11.071611 77.720528 197 137 144
12.049756 11.209805 77.517601 199 141 148
12.081300 11.406690 77.720528 206 148 155
12.081300 11.574229 77.720528 209 151 159
12.081300 11.741768 77.720528 206 148 155
12.018376 11.847280 77.315735 205 147 154
12.049756 12.045315 77.517601 211 152 159
11.956105 12.117501 76.915138 214 154 163
11.956105 12.283304 76.915138 212 152 163
11.956105 12.449107 76.915138 213 150 164
11.956105 12.614910 76.915138 215 149 166
11.956105 12.780714 76.915138 213 144 162
11.925211 12.913063 76.716385 210 139 157
11.925211 13.078438 76.716385 211 138 155
11.987160 13.312612 77.114914 214 137 154
11.894476 13.374627 76.518669 216 134 151
11.925211 13.574562 76.716385 217 132 147
11.863899 13.669294 76.321960 220 129 145
11.863899 13.833818 76.321960 223 128 143
11.925211 14.070686 76.716385 221 122 136
11.925211 14.236061 76.716385 212 113 126
11.894476 14.364318 76.518669 202 106 118
11.894476 14.529266 76.518669 191 100 111
11.894476 14.694215 76.518669 180 95 107
11.894476 14.859163 76.518669 179 103 116
11.894476 15.024112 76.518669 189 121 135
11.894476 15.189060 76.518669 192 132 148
11.894476 15.354009 76.518669 188 135 152
11.894476 15.518957 76.518669 192 144 161
12.018376 15.847280 77.315735 205 158 177
11.956105 15.930973 76.915138 220 174 195
11.925211 16.055182 76.716385 237 198 217
11.925211 16.220556 76.716385 250 228 240
11.987160 16.471054 77.114914 254 247 252
11.925211 16.551306 76.716385 252 241 248
11.956105 16.759989 76.915138 237 202 218
11.925211 16.882055 76.716385 203 136 159
11.894476 17.003494 76.518669 184 102 126
11.925211 17.212805 76.716385 201 114 136
11.956105 17.423201 76.915138 217 128 147
11.863899 17.453356 76.321960 216 126 141
11.894476 17.663288 76.518669 202 110 122
11.894476 17.828236 76.518669 190 98 107
11.894476 17.993185 76.518669 190 99 105
11.894476 18.158133 76.518669 200 111 115
11.894476 18.323082 76.518669 205 118 121
11.894476 18.488029 76.518669 198 113 116
11.894476 18.652979 76.518669 184 100 104
11.894476 18.817926 76.518669 177 95 99
11.894476 18.982876 76.518669 183 103 107
11.894476 19.147823 76.518669 195 115 119
11.925211 19.362675 76.716385 197 116 121
11.894476 19.477720 76.518669 203 121 127
11.925211 19.693424 76.716385 217 132 141
11.894476 19.807617 76.518669 222 131 143
11.863899 19.921223 76.321960 215 117 130
11.894476 20.137514 76.518669 206 102 117
11.863899 20.250271 76.321960 199 91 107
11.863899 20.414795 76.321960 192 82 98
11.956105 20.739264 76.915138 187 75 91
11.803214 20.637737 75.931564 183 71 86
11.803214 20.801420 75.931564 180 68 82
11.863899 21.072893 76.321960 176 65 79
11.833479 21.182962 76.126259 172 63 76
11.803214 21.292469 75.931564 169 61 74
11.773104 21.401417 75.737862 165 58 73
11.773104 21.564682 75.737862 161 56 70
11.773104 21.727947 75.737862 158 55 70
11.803214 21.947201 75.931564 165 64 78
11.803214 22.110884 75.931564 182 84 98
11.803214 22.274567 75.931564 199 102 116
11.803214 22.438250 75.931564 191 97 112
11.803214 22.601933 75.931564 172 82 97
11.743147 22.649759 75.545143 166 79 94
11.743147 22.812609 75.545143 163 80 95
11.743147 22.975460 75.545143 159 78 94
11.773104 23.197336 75.737862 152 74 90
11.683688 23.183178 75.162636 146 70 84
11.683688 23.345203 75.162636 140 66 79
11.654183 23.447866 74.972832 135 61 74
12.510847 0.698811 79.383003 103 32 43
12.477485 0.867615 79.171310 107 30 43
12.477485 1.038281 79.171310 113 31 44
12.477485 1.208948 79.171310 122 35 49
12.477485 1.379615 79.171310 132 42 56
12.444300 1.546158 78.960747 140 49 63
12.411291 1.711818 78.751305 146 54 67
12.544388 1.901757 79.595825 151 60 71
12.378457 2.045914 78.542969 155 66 76
12.280989 2.197783 77.924522 158 72 81
12.313307 2.371988 78.129585 162 78 87
12.345796 2.547112 78.335732 166 84 94
12.059424 2.652978 76.518669 171 91 102
12.185043 2.847280 77.315735 176 96 109
12.216858 3.021816 77.517601 180 100 115
12.248839 3.197266 77.720528 181 102 120
12.248839 3.364805 77.720528 184 105 124
12.248839 3.532344 77.720528 192 112 132
12.280989 3.709594 77.924522 196 117 137
12.248839 3.867423 77.720528 191 113 132
12.248839 4.034962 77.720528 184 107 124
12.280989 4.213531 77.924522 182 107 122
12.248839 4.370040 77.720528 184 110 124
12.313307 4.561462 78.129585 189 116 129
12.313307 4.729883 78.129585 194 122 135
12.313307 4.898304 78.129585 197 126 138
12.345796 5.080093 78.335732 199 129 140
12.411291 5.276805 78.751305 198 130 141
12.411291 5.446566 78.751305 197 129 140
12.444300 5.631265 78.960747 197 131 142
12.477485 5.816948 79.171310 198 133 147
12.477485 5.987615 79.171310 198 134 150
12.444300 6.141903 78.960747 199 136 154
12.411291 6.295372 78.751305 202 140 159
12.378457 6.448030 78.542969 204 144 162
12.378457 6.617342 78.542969 207 147 165
12.345796 6.768748 78.335732 211 151 167
12.345796 6.937613 78.335732 211 151 166
12.313307 7.087778 78.129585 209 148 163
12.313307 7.256198 78.129585 207 147 161
12.313307 7.424620 78.129585 206 147 160
12.248839 7.553287 77.720528 208 148 162
12.248839 7.720826 77.720528 209 150 163
12.280989 7.909070 77.924522 208 150 162
12.248839 8.055904 77.720528 206 148 160
12.216858 8.201973 77.517601 204 146 159
12.153394 8.325599 77.114914 201 145 158
12.280989 8.580985 77.924522 200 144 157
12.280989 8.748964 77.924522 199 143 157
12.280989 8.916944 77.924522 197 141 155
12.153394 8.990534 77.114914 195 139 152
12.185043 9.180614 77.315735 193 137 150
12.185043 9.347280 77.315735 192 136 147
12.153394 9.489235 77.114914 195 138 148
12.090586 9.605570 76.716385 200 143 151
12.153394 9.821703 77.114914 205 146 152
12.216858 10.040092 77.517601 205 145 151
12.185043 10.180614 77.315735 203 143 149
12.248839 10.401454 77.720528 203 142 148
12.248839 10.568994 77.720528 203 142 148
12.216858 10.708500 77.517601 202 141 148
12.280989 10.932692 77.924522 198 139 145
12.248839 11.071611 77.720528 196 137 143
12.248839 11.239150 77.720528 200 140 147
12.248839 11.406690 77.720528 207 147 154
12.248839 11.574229 77.720528 209 150 158
12.248839 11.741768 77.720528 208 149 157
12.185043 11.847280 77.315735 208 149 158
12.216858 12.045315 77.517601 213 153 163
12.121908 12.117501 76.915138 215 155 166
12.121908 12.283304 76.915138 212 151 164
12.121908 12.449107 76.915138 211 147 163
12.090586 12.582314 76.716385 213 147 165
12.121908 12.780714 76.915138 213 144 162
12.090586 12.913063 76.716385 210 138 157
12.059424 13.044730 76.518669 210 135 153
12.121908 13.278123 76.915138 212 133 150
12.059424 13.374627 76.518669 213 131 147
12.090586 13.574562 76.716385 216 130 145
12.028423 13.669294 76.321960 220 128 144
12.059424 13.869473 76.518669 223 128 142
12.121908 14.107139 76.915138 221 122 136
12.090586 14.236061 76.716385 212 112 125
12.090586 14.401435 76.716385 202 104 115
12.059424 14.529266 76.518669 192 98 109
12.059424 14.694215 76.518669 182 94 107
12.059424 14.859163 76.518669 182 101 115
12.059424 15.024112 76.518669 189 116 132
12.059424 15.189060 76.518669 191 126 142
12.059424 15.354009 76.518669 186 128 146
12.059424 15.518957 76.518669 189 135 155
12.153394 15.806118 77.114914 199 147 170
12.090586 15.889808 76.716385 211 160 187
12.059424 16.013803 76.518669 227 178 206
12.059424 16.178751 76.518669 241 203 227
12.121908 16.428383 76.915138 249 228 243
12.090586 16.551306 76.716385 250 230 242
12.121908 16.759989 76.915138 230 185 207
12.090586 16.882055 76.716385 197 125 152
12.059424 17.003494 76.518669 192 110 135
12.090586 17.212805 76.716385 207 121 143
12.121908 17.423201 76.915138 215 127 146
12.059424 17.498339 76.518669 212 123 138
12.059424 17.663288 76.518669 200 110 121
12.059424 17.828236 76.518669 189 97 107
12.059424 17.993185 76.518669 187 97 105
12.059424 18.158133 76.518669 195 106 113
12.059424 18.323082 76.518669 202 114 121
12.059424 18.488029 76.518669 198 111 119
12.059424 18.652979 76.518669 186 101 109
12.059424 18.817926 76.518669 178 94 102
12.059424 18.982876 76.518669 180 97 105
12.059424 19.147823 76.518669 190 107 113
12.059424 19.312773 76.518669 196 111 117
12.028423 19.427649 76.321960 207 125 131
12.059424 19.642670 76.518669 228 146 154
12.028423 19.756699 76.321960 232 143 153
11.997581 19.870142 76.126259 218 119 131
11.997581 20.034245 76.126259 203 98 111
11.997581 20.198347 76.126259 194 86 101
11.997581 20.362450 76.126259 189 77 93
12.090586 20.685673 76.716385 184 72 87
11.936369 20.585091 75.737862 181 69 84
11.966897 20.801420 75.931564 178 67 82
11.997581 21.018860 76.126259 175 65 79
11.997581 21.182962 76.126259 171 62 76
11.997581 21.347065 76.126259 168 60 74
11.936369 21.401417 75.737862 164 57 71
11.966897 21.619835 75.931564 160 54 68
11.966897 21.783518 75.931564 157 53 67
11.966897 21.947201 75.931564 164 61 76
11.966897 22.110884 75.931564 185 85 99
11.966897 22.274567 75.931564 207 110 124
11.966897 22.438250 75.931564 200 105 120
11.966897 22.601933 75.931564 176 83 99
11.905996 22.649759 75.545143 166 77 93
11.905996 22.812609 75.545143 164 78 95
11.936369 23.034071 75.737862 161 78 95
11.936369 23.197336 75.737862 155 75 91
11.875778 23.242020 75.353409 148 71 86
11.875778 23.404455 75.353409 141 66 79
11.845713 23.507229 75.162636 134 61 74
12.648151 0.696948 79.171310 104 33 44
12.614512 0.865307 78.960747 107 31 44
12.614512 1.035520 78.960747 113 31 45
12.614512 1.205733 78.960747 122 35 51
12.614512 1.375945 78.960747 132 42 58
12.581052 1.542057 78.751305 139 47 63
12.581052 1.711818 78.751305 145 52 67
12.715969 1.901757 79.595825 150 58 71
12.547769 2.045914 78.542969 155 64 75
12.416379 2.192030 77.720528 159 70 80
12.448968 2.365762 77.924522 164 76 86
12.481728 2.540409 78.129585 168 82 93
12.192947 2.646158 76.321960 173 88 100
12.287711 2.832527 76.915138 177 92 107
12.383960 3.021816 77.517601 180 96 113
12.383960 3.188918 77.517601 181 98 117
12.416379 3.364805 77.720528 184 100 122
12.416379 3.532344 77.720528 191 106 129
12.416379 3.699883 77.720528 194 111 133
12.416379 3.867423 77.720528 191 109 130
12.416379 4.034962 77.720528 184 105 123
12.416379 4.202501 77.720528 180 104 120
12.416379 4.370040 77.720528 183 108 122
12.481728 4.561462 78.129585 190 116 129
12.481728 4.729883 78.129585 195 123 134
12.481728 4.898304 78.129585 197 126 137
12.547769 5.093533 78.542969 198 129 139
12.547769 5.262845 78.542969 197 129 139
12.581052 5.446566 78.751305 195 129 138
12.581052 5.616327 78.751305 196 130 141
12.614512 5.801477 78.960747 198 133 145
12.648151 5.987615 79.171310 200 137 150
12.614512 6.141903 78.960747 203 140 155
12.614512 6.312116 78.960747 207 145 161
12.547769 6.448030 78.542969 210 148 165
12.547769 6.617342 78.542969 210 147 165
12.547769 6.786654 78.542969 208 145 163
12.514662 6.937613 78.335732 207 144 161
12.514662 7.106479 78.335732 206 144 159
12.514662 7.275344 78.335732 206 144 159
12.481728 7.424620 78.129585 205 144 158
12.448968 7.573112 77.924522 207 146 160
12.448968 7.741090 77.924522 208 150 161
12.448968 7.909070 77.924522 207 150 160
12.383960 8.034871 77.517601 205 147 158
12.448968 8.245028 77.924522 203 146 156
12.383960 8.369074 77.517601 201 145 155
12.481728 8.603567 78.129585 200 144 155
12.481728 8.771988 78.129585 198 143 154
12.481728 8.940409 78.129585 196 143 153
12.319628 8.990534 77.114914 193 140 150
12.383960 9.204583 77.517601 189 136 146
12.383960 9.371685 77.517601 188 135 144
12.351710 9.513947 77.315735 191 138 147
12.319628 9.655469 77.114914 198 144 152
12.383960 9.872991 77.517601 205 148 156
12.416379 10.066376 77.720528 206 149 156
12.383960 10.207194 77.517601 204 146 153
12.448968 10.428755 77.924522 203 144 150
12.416379 10.568994 77.720528 204 144 150
12.416379 10.736532 77.720528 204 146 152
12.448968 10.932692 77.924522 204 145 151
12.416379 11.071611 77.720528 201 142 149
12.416379 11.239150 77.720528 201 141 150
12.448968 11.436628 77.924522 205 145 155
12.448968 11.604608 77.924522 208 149 158
12.416379 11.741768 77.720528 210 151 161
12.351710 11.847280 77.315735 212 153 163
12.383960 12.045315 77.517601 214 155 167
12.287711 12.117501 76.915138 214 155 167
12.287711 12.283304 76.915138 210 149 163
12.287711 12.449107 76.915138 208 145 160
12.287711 12.614910 76.915138 213 147 164
12.319628 12.813910 77.114914 214 146 163
12.255960 12.913063 76.716385 211 139 157
12.255960 13.078438 76.716385 210 135 152
12.319628 13.312612 77.114914 211 132 148
12.255960 13.409187 76.716385 212 130 145
12.319628 13.645080 77.114914 214 128 142
12.192947 13.669294 76.321960 218 127 141
12.255960 13.905312 76.716385 223 127 141
12.351710 14.180614 77.315735 221 123 136
12.319628 14.310014 77.114914 212 112 124
12.287711 14.438745 76.915138 200 103 113
12.255960 14.566810 76.716385 191 97 108
12.255960 14.732184 76.716385 183 93 106
12.224373 14.859163 76.518669 183 98 112
12.224373 15.024112 76.518669 188 110 126
12.224373 15.189060 76.518669 189 119 136
12.224373 15.354009 76.518669 186 123 142
12.255960 15.559058 76.716385 186 127 149
12.319628 15.806118 77.114914 190 134 160
12.255960 15.889808 76.716385 196 141 171
12.224373 16.013803 76.518669 206 150 183
12.224373 16.178751 76.518669 220 167 200
12.287711 16.428383 76.915138 236 197 223
12.255960 16.551306 76.716385 244 212 232
12.287711 16.759989 76.915138 225 171 198
12.255960 16.882055 76.716385 195 120 151
12.224373 17.003494 76.518669 197 115 143
12.255960 17.212805 76.716385 209 124 148
12.287711 17.423201 76.915138 212 125 145
12.224373 17.498339 76.518669 209 121 137
12.224373 17.663288 76.518669 199 110 123
12.224373 17.828236 76.518669 188 98 109
12.224373 17.993185 76.518669 185 94 105
12.224373 18.158133 76.518669 191 101 113
12.224373 18.323082 76.518669 197 109 121
12.224373 18.488029 76.518669 195 108 120
12.224373 18.652979 76.518669 186 101 114
12.192947 18.769552 76.321960 179 95 107
12.224373 18.982876 76.518669 179 95 106
12.224373 19.147823 76.518669 186 102 111
12.224373 19.312773 76.518669 194 108 114
12.161684 19.377834 76.126259 206 121 127
12.161684 19.541937 76.126259 226 141 149
12.130580 19.655640 75.931564 231 140 149
12.130580 19.819323 75.931564 218 117 128
12.130580 19.983006 75.931564 201 95 108
12.130580 20.146688 75.931564 193 83 96
12.130580 20.310371 75.931564 188 76 90
12.161684 20.526552 76.126259 184 71 85
12.068847 20.532711 75.545143 181 69 83
12.099634 20.748356 75.737862 178 66 81
12.161684 21.018860 76.126259 175 65 79
12.161684 21.182962 76.126259 171 62 76
12.161684 21.347065 76.126259 167 59 73
12.130580 21.456152 75.931564 162 56 70
12.130580 21.619835 75.931564 158 53 67
12.130580 21.783518 75.931564 156 52 66
12.130580 21.947201 75.931564 161 58 72
12.130580 22.110884 75.931564 180 79 92
12.130580 22.274567 75.931564 205 106 120
12.130580 22.438250 75.931564 205 108 123
12.130580 22.601933 75.931564 183 88 104
12.068847 22.649759 75.545143 169 78 94
12.068847 22.812609 75.545143 165 78 95
12.099634 23.034071 75.737862 163 79 96
12.099634 23.197336 75.737862 157 76 92
12.038215 23.242020 75.353409 149 71 86
12.038215 23.404455 75.353409 141 65 79
12.038215 23.566893 75.353409 135 61 74
12.818818 0.696948 79.171310 103 33 44
12.784725 0.865307 78.960747 106 31 44
12.784725 1.035520 78.960747 112 31 46
12.784725 1.205733 78.960747 121 35 52
12.784725 1.375945 78.960747 130 41 59
12.750813 1.542057 78.751305 137 46 63
12.750813 1.711818 78.751305 143 50 65
12.922195 1.906870 79.809792 148 55 69
12.784725 2.056797 78.960747 154 61 74
12.683527 2.209381 78.335732 159 67 79
12.650149 2.371988 78.129585 164 73 85
12.650149 2.540409 78.129585 169 79 92
12.389321 2.652978 76.518669 173 85 98
12.453515 2.832527 76.915138 177 88 104
12.551062 3.021816 77.517601 179 91 109
12.518376 3.180613 77.315735 181 93 114
12.583918 3.364805 77.720528 183 95 119
12.583918 3.532344 77.720528 188 100 124
12.583918 3.699883 77.720528 191 104 128
12.583918 3.867423 77.720528 187 104 125
12.583918 4.034962 77.720528 181 101 120
12.583918 4.202501 77.720528 178 101 117
12.583918 4.370040 77.720528 182 107 120
12.650149 4.561462 78.129585 191 117 128
12.650149 4.729883 78.129585 196 123 133
12.616946 4.885448 77.924522 197 126 135
12.717081 5.093533 78.542969 196 127 136
12.683527 5.248959 78.335732 196 129 138
12.717081 5.432158 78.542969 196 130 139
12.750813 5.616327 78.751305 196 131 141
12.750813 5.786089 78.751305 198 134 145
12.784725 5.971690 78.960747 202 138 150
12.750813 6.125611 78.751305 205 141 155
12.784725 6.312116 78.960747 209 145 160
12.717081 6.448030 78.542969 212 147 163
12.750813 6.634895 78.751305 211 146 163
12.717081 6.786654 78.542969 208 143 160
12.683527 6.937613 78.335732 207 141 158
12.717081 7.125279 78.542969 206 141 158
12.717081 7.294591 78.542969 206 142 158
12.683527 7.444210 78.335732 206 143 157
12.683527 7.613075 78.335732 206 144 158
12.650149 7.761462 78.129585 207 146 158
12.616946 7.909070 77.924522 206 147 157
12.518376 8.013947 77.315735 204 146 155
12.683527 8.288537 78.335732 201 145 153
12.616946 8.413007 77.924522 200 144 152
12.717081 8.649089 78.542969 198 143 151
12.683527 8.795134 78.335732 196 143 151
12.650149 8.940409 78.129585 194 142 150
12.485862 8.990534 77.114914 191 139 147
12.551062 9.204583 77.517601 186 135 142
12.583918 9.396218 77.720528 185 134 142
12.551062 9.538787 77.517601 191 139 147
12.518376 9.680614 77.315735 198 145 154
12.551062 9.872991 77.517601 204 150 158
12.583918 10.066376 77.720528 206 151 158
12.583918 10.233914 77.720528 204 148 155
12.616946 10.428755 77.924522 202 144 151
12.583918 10.568994 77.720528 201 143 149
12.583918 10.736532 77.720528 204 146 152
12.650149 10.961462 78.129585 207 149 156
12.583918 11.071611 77.720528 205 147 155
12.616946 11.268649 77.924522 203 144 154
12.616946 11.436628 77.924522 205 146 157
12.616946 11.604608 77.924522 209 150 161
12.583918 11.741768 77.720528 212 153 165
12.518376 11.847280 77.315735 215 156 168
12.551062 12.045315 77.517601 216 157 169
12.453515 12.117501 76.915138 213 154 166
12.453515 12.283304 76.915138 206 146 159
12.485862 12.481442 77.114914 205 143 156
12.485862 12.647676 77.114914 212 149 163
12.518376 12.847280 77.315735 216 149 164
12.453515 12.946517 76.915138 211 141 157
12.453515 13.112320 76.915138 211 136 151
12.485862 13.312612 77.114914 212 134 149
12.453515 13.443926 76.915138 213 131 145
12.551062 13.716332 77.517601 213 128 142
12.389321 13.704524 76.518669 216 127 140
12.453515 13.941336 76.915138 220 127 141
12.551062 14.217638 77.517601 219 123 137
12.518376 14.347280 77.315735 210 112 126
12.453515 14.438745 76.915138 200 102 115
12.421335 14.566810 76.716385 191 96 109
12.421335 14.732184 76.716385 184 93 106
12.421335 14.897559 76.716385 186 99 113
12.389321 15.024112 76.518669 194 112 128
12.421335 15.228309 76.716385 200 125 143
12.389321 15.354009 76.518669 201 131 152
12.421335 15.559058 76.716385 196 132 155
12.485862 15.806118 77.114914 188 128 155
12.421335 15.889808 76.716385 183 124 154
12.389321 16.013803 76.518669 187 127 160
12.389321 16.178751 76.518669 202 143 177
12.453515 16.428383 76.915138 223 171 202
12.421335 16.551306 76.716385 233 187 214
12.453515 16.759989 76.915138 221 159 189
12.453515 16.925791 76.915138 201 124 156
12.421335 17.047430 76.716385 203 122 150
12.421335 17.212805 76.716385 211 126 150
12.453515 17.423201 76.915138 212 125 146
12.389321 17.498339 76.518669 208 120 138
12.389321 17.663288 76.518669 200 111 126
12.389321 17.828236 76.518669 189 99 114
12.389321 17.993185 76.518669 183 94 108
12.389321 18.158133 76.518669 187 98 112
12.389321 18.323082 76.518669 193 105 120
12.357472 18.440502 76.321960 193 107 122
12.357472 18.605026 76.321960 187 102 117
12.357472 18.769552 76.321960 182 98 113
12.357472 18.934076 76.321960 181 97 111
12.357472 19.098600 76.321960 185 100 113
12.357472 19.263124 76.321960 193 106 116
12.294263 19.328276 75.931564 203 114 124
12.294263 19.491959 75.931564 216 123 133
12.262899 19.605499 75.737862 220 123 134
12.262899 19.768764 75.737862 213 110 122
12.262899 19.932030 75.737862 202 95 107
12.262899 20.095295 75.737862 195 85 97
12.262899 20.258560 75.737862 191 79 90
12.294263 20.474054 75.931564 188 76 88
12.231696 20.532711 75.545143 187 75 86
12.262899 20.748356 75.737862 184 72 85
12.294263 20.965103 75.931564 179 69 82
12.294263 21.128786 75.931564 172 63 76
12.294263 21.292469 75.931564 166 59 73
12.262899 21.401417 75.737862 162 56 70
12.294263 21.619835 75.931564 158 53 67
12.294263 21.783518 75.931564 157 52 67
12.294263 21.947201 75.931564 161 57 71
12.294263 22.110884 75.931564 172 71 84
12.294263 22.274567 75.931564 191 91 105
12.294263 22.438250 75.931564 200 101 116
12.294263 22.601933 75.931564 188 92 108
12.231696 22.649759 75.545143 174 82 98
12.262899 22.870804 75.737862 167 78 96
12.294263 23.092981 75.931564 164 78 97
12.294263 23.256664 75.931564 158 76 94
12.231696 23.301159 75.545143 149 70 88
12.231696 23.464008 75.545143 140 64 80
12.231696 23.626858 75.545143 134 60 75
12.989485 0.696948 79.171310 104 34 46
12.954938 0.865307 78.960747 105 32 46
12.920574 1.032773 78.751305 110 32 47
12.920574 1.202534 78.751305 119 36 53
12.954938 1.375945 78.960747 128 41 59
12.920574 1.542057 78.751305 134 45 61
12.920574 1.711818 78.751305 140 48 64
13.094238 1.906870 79.809792 146 53 68
12.954938 2.056797 78.960747 152 58 73
12.886394 2.215226 78.542969 159 64 78
12.886394 2.384538 78.542969 165 70 84
12.852392 2.547112 78.335732 169 76 90
12.619318 2.666724 76.915138 173 81 97
12.619318 2.832527 76.915138 177 85 102
12.751457 3.029726 77.720528 179 87 107
12.718163 3.188918 77.517601 181 89 112
12.751457 3.364805 77.720528 183 91 116
12.784925 3.541615 77.924522 185 94 120
12.751457 3.699883 77.720528 186 97 122
12.751457 3.867423 77.720528 183 97 120
12.751457 4.034962 77.720528 179 97 117
12.784925 4.213531 77.924522 179 100 117
12.751457 4.370040 77.720528 184 108 122
12.818570 4.561462 78.129585 191 117 128
12.852392 4.742362 78.335732 194 122 132
12.784925 4.885448 77.924522 194 124 133
12.886394 5.093533 78.542969 193 125 134
12.886394 5.262845 78.542969 193 126 135
12.886394 5.432158 78.542969 194 129 138
12.886394 5.601470 78.542969 195 130 140
12.920574 5.786089 78.751305 197 133 142
12.954938 5.971690 78.960747 200 137 147
12.954938 6.141903 78.960747 203 139 151
12.954938 6.312116 78.960747 206 142 155
12.886394 6.448030 78.542969 208 143 156
12.920574 6.634895 78.751305 208 142 156
12.886394 6.786654 78.542969 207 140 156
12.852392 6.937613 78.335732 207 139 157
12.886394 7.125279 78.542969 206 140 157
12.886394 7.294591 78.542969 207 140 157
12.920574 7.483702 78.751305 206 142 157
12.920574 7.653463 78.751305 206 142 157
12.818570 7.761462 78.129585 205 143 155
12.751457 7.888365 77.720528 204 144 154
12.784925 8.077048 77.924522 202 143 152
12.920574 8.332508 78.751305 199 143 149
12.818570 8.435146 78.129585 198 142 148
12.920574 8.672030 78.751305 196 142 148
12.886394 8.818400 78.542969 194 142 147
12.818570 8.940409 78.129585 192 142 147
12.619318 8.967242 76.915138 190 140 145
12.718163 9.204583 77.517601 188 139 145
12.751457 9.396218 77.720528 188 139 146
12.751457 9.563758 77.720528 192 141 150
12.685043 9.680614 77.315735 198 146 155
12.718163 9.872991 77.517601 203 150 159
12.751457 10.066376 77.720528 204 150 158
12.751457 10.233914 77.720528 202 147 154
12.751457 10.401454 77.720528 199 143 150
12.751457 10.568994 77.720528 197 140 147
12.751457 10.736532 77.720528 198 141 147
12.818570 10.961462 78.129585 203 146 153
12.751457 11.071611 77.720528 205 147 156
12.751457 11.239150 77.720528 204 145 155
12.784925 11.436628 77.924522 205 146 157
12.818570 11.635146 78.129585 210 151 163
12.784925 11.772587 77.924522 214 155 168
12.685043 11.847280 77.315735 216 157 170
12.718163 12.045315 77.517601 216 157 169
12.652095 12.148975 77.114914 211 152 163
12.652095 12.315209 77.114914 205 145 156
12.652095 12.481442 77.114914 204 143 155
12.685043 12.680614 77.315735 211 147 160
12.685043 12.847280 77.315735 214 148 161
12.652095 12.980145 77.114914 211 141 155
12.619318 13.112320 76.915138 211 137 151
12.652095 13.312612 77.114914 212 136 150
12.619318 13.443926 76.915138 214 133 146
12.718163 13.716332 77.517601 214 130 143
12.554270 13.704524 76.518669 215 127 141
12.652095 13.977547 77.114914 216 124 139
12.718163 14.217638 77.517601 214 120 134
12.685043 14.347280 77.315735 207 112 126
12.619318 14.438745 76.915138 199 104 118
12.554270 14.529266 76.518669 191 97 111
12.554270 14.694215 76.518669 186 95 109
12.554270 14.859163 76.518669 189 103 117
12.554270 15.024112 76.518669 201 119 134
12.554270 15.189060 76.518669 213 136 154
12.554270 15.354009 76.518669 220 148 169
12.619318 15.599366 76.915138 219 151 174
12.619318 15.765169 76.915138 207 143 169
12.586710 15.889808 76.716385 190 127 157
12.554270 16.013803 76.518669 183 120 153
12.554270 16.178751 76.518669 196 132 166
12.619318 16.428383 76.915138 210 148 182
12.619318 16.594185 76.915138 216 155 187
12.652095 16.803520 77.114914 214 146 177
12.619318 16.925791 76.915138 208 131 162
12.586710 17.047430 76.716385 208 129 155
12.619318 17.257397 76.915138 212 129 153
12.619318 17.423201 76.915138 210 125 147
12.554270 17.498339 76.518669 207 119 138
12.554270 17.663288 76.518669 200 112 129
12.554270 17.828236 76.518669 191 102 118
12.554270 17.993185 76.518669 184 95 110
12.554270 18.158133 76.518669 184 95 111
12.554270 18.323082 76.518669 190 102 118
12.521996 18.440502 76.321960 192 106 122
12.521996 18.605026 76.321960 187 103 119
12.489889 18.721424 76.126259 184 100 116
12.521996 18.934076 76.321960 184 100 115
12.489889 19.049629 76.126259 187 101 115
12.489889 19.213732 76.126259 193 105 118
12.457946 19.328276 75.931564 201 109 122
12.457946 19.491959 75.931564 209 112 125
12.426165 19.605499 75.737862 212 111 123
12.426165 19.768764 75.737862 208 103 114
12.394547 19.881311 75.545143 201 94 103
12.426165 20.095295 75.737862 195 86 95
12.426165 20.258560 75.737862 193 83 90
12.457946 20.474054 75.931564 195 84 92
12.363088 20.480598 75.353409 198 87 96
12.394547 20.695560 75.545143 200 89 100
12.426165 20.911621 75.737862 193 83 95
12.426165 21.074886 75.737862 178 70 83
12.426165 21.238152 75.737862 167 60 74
12.426165 21.401417 75.737862 162 56 71
12.457946 21.619835 75.931564 159 54 70
12.457946 21.783518 75.931564 158 54 70
12.457946 21.947201 75.931564 161 58 72
12.457946 22.110884 75.931564 167 65 79
12.457946 22.274567 75.931564 177 78 92
12.489889 22.495783 76.126259 190 92 106
12.489889 22.659885 76.126259 190 94 110
12.457946 22.765615 75.931564 179 87 104
12.426165 22.870804 75.737862 169 81 99
12.457946 23.092981 75.931564 164 78 98
12.489889 23.316296 76.126259 159 77 96
12.426165 23.360601 75.737862 150 72 90
12.457946 23.584030 75.931564 139 64 80
12.457946 23.747713 75.931564 131 59 74
13.090336 0.863012 78.751305 105 32 46
13.090336 1.032773 78.751305 109 32 48
13.090336 1.202534 78.751305 117 36 52
13.090336 1.372296 78.751305 126 40 57
13.090336 1.542057 78.751305 130 42 58
13.090336 1.711818 78.751305 136 45 60
