ply
format ascii 1.0
element vertex 1181
property float x
property float y
property float z
property uchar red
property uchar green
property uchar blue
end_header
18.544886 14.161462 78.129585 110 78 92
18.447792 14.254857 77.720528 111 80 93
18.115828 14.162868 76.321960 112 81 93
17.977186 14.217744 75.737862 113 82 93
17.885931 14.308009 75.353409 116 84 94
17.795597 14.397363 74.972832 119 87 94
17.750772 14.522306 74.783989 122 90 96
17.617641 14.573389 74.223106 125 94 97
17.750772 14.844724 74.783989 127 96 97
17.795597 15.043827 74.972832 126 96 95
17.795597 15.205443 74.972832 122 92 91
17.795597 15.367060 74.972832 114 86 85
17.795597 15.528675 74.972832 109 81 81
17.795597 15.690291 74.972832 112 85 86
17.795597 15.851908 74.972832 117 92 93
17.840651 16.054064 75.162636 114 91 92
17.840651 16.216089 75.162636 109 88 89
17.885931 16.419683 75.353409 106 86 87
17.977186 16.666723 75.737862 102 82 83
18.023163 16.873032 75.931564 96 77 78
18.023163 17.036715 75.931564 90 73 74
18.023163 17.200397 75.931564 85 69 71
17.931442 17.275713 75.545143 81 65 67
17.885931 17.394302 75.353409 77 62 63
18.069376 17.736809 76.126259 74 60 61
18.209448 18.039679 76.716385 73 59 59
18.115828 18.111454 76.321960 71 57 57
18.069376 18.229116 76.126259 70 55 55
18.023163 18.346178 75.931564 69 53 53
17.885931 18.368923 75.353409 68 51 52
17.706173 18.345114 74.596085 67 51 51
17.617641 18.413389 74.223106 66 50 50
18.842398 21.404694 79.383003 58 46 47
16.699186 19.728331 70.353653 57 47 48
16.503645 19.946968 69.529839 57 48 49
16.162973 19.682009 68.094589 58 48 50
17.777641 -1.426611 74.223106 180 160 167
17.601625 -1.254071 73.488220 183 163 168
17.822197 0.173823 74.409126 194 176 172
17.689196 0.331730 73.853836 194 176 171
17.689196 0.490934 73.853836 193 174 170
17.911982 0.658326 74.783989 194 175 173
17.866976 0.817476 74.596085 197 178 177
17.822197 0.975828 74.409126 195 177 177
17.733309 1.130562 74.038010 194 178 179
17.689196 1.286954 73.853836 197 181 184
17.733309 1.449764 74.038010 199 181 187
17.733309 1.609365 74.038010 199 181 188
17.733309 1.768966 74.038010 199 178 188
17.733309 1.928567 74.038010 197 174 185
17.866976 2.103908 74.596085 195 169 182
17.866976 2.264712 74.596085 195 167 180
17.911982 2.431626 74.783989 195 165 179
17.911982 2.592835 74.783989 194 164 177
18.002674 2.767988 75.162636 193 162 175
18.048367 2.937450 75.353409 193 162 173
18.002674 3.092039 75.162636 192 161 171
17.866976 3.229536 74.596085 189 159 167
17.866976 3.390340 74.596085 188 157 164
17.689196 3.515810 73.853836 187 156 163
17.866976 3.711948 74.596085 186 155 163
17.777641 3.853389 74.223106 184 153 161
17.689196 3.993422 73.853836 181 150 158
17.645302 4.142321 73.670578 178 147 155
17.689196 4.311830 73.853836 175 145 151
17.645302 4.459939 73.670578 169 139 146
17.645302 4.618748 73.670578 163 134 142
17.601625 4.765731 73.488220 157 131 140
17.601625 4.924147 73.488220 154 130 140
17.601625 5.082563 73.488220 156 133 144
17.689196 5.267054 73.853836 162 141 150
17.558165 5.386063 73.306770 170 149 158
17.601625 5.557811 73.488220 177 156 164
17.645302 5.730411 73.670578 177 156 162
17.601625 5.874642 73.488220 174 153 158
17.601625 6.033058 73.488220 171 151 156
17.645302 6.206837 73.670578 170 150 155
17.645302 6.365646 73.670578 170 150 157
17.689196 6.540685 73.853836 173 154 162
17.733309 6.716597 74.038010 177 157 167
17.689196 6.859093 73.853836 178 158 169
17.733309 7.035799 74.038010 174 155 167
17.777641 7.213388 74.223106 170 151 162
17.777641 7.373389 74.223106 168 150 159
17.733309 7.514602 74.038010 169 151 158
17.689196 7.655113 73.853836 170 153 157
17.733309 7.833804 74.038010 170 153 156
17.689196 7.973521 73.853836 171 155 157
17.645302 8.112545 73.670578 178 163 162
17.689196 8.291929 73.853836 184 170 168
17.645302 8.430162 73.670578 179 165 163
17.645302 8.588971 73.670578 171 157 154
17.601625 8.726128 73.488220 170 156 152
17.733309 8.951011 74.038010 170 154 150
17.733309 9.110612 74.038010 164 147 144
17.777641 9.293388 74.223106 156 140 137
17.822197 9.477081 74.409126 151 136 135
17.777641 9.613389 74.223106 147 133 134
17.866976 9.822501 74.596085 145 129 133
17.911982 10.008452 74.783989 142 126 132
17.911982 10.169662 74.783989 138 123 131
18.002674 10.383179 75.162636 135 119 128
18.470278 10.985339 77.114914 130 114 123
18.422426 11.454288 76.915138 123 102 113
18.233479 11.500912 76.126259 119 96 107
18.186846 11.635180 75.931564 115 91 102
18.094292 11.738818 75.545143 111 86 97
18.140451 11.932030 75.737862 108 82 91
18.048367 12.033897 75.353409 105 79 86
18.002674 12.165457 75.162636 103 77 82
17.957214 12.296352 74.972832 102 75 80
18.002674 12.489508 75.162636 102 74 80
18.002674 12.651533 75.162636 104 75 82
18.094292 12.878767 75.545143 105 75 84
18.140451 13.074886 75.737862 107 76 85
18.140451 13.238152 75.737862 108 77 87
18.094292 13.367316 75.545143 108 77 88
18.422426 13.775533 76.915138 108 77 90
18.615332 14.087318 77.720528 111 79 92
18.566727 14.217638 77.517601 113 81 94
18.280352 14.162868 76.321960 115 83 95
18.140451 14.217744 75.737862 116 84 96
18.094292 14.344416 75.545143 118 86 97
18.002674 14.433811 75.162636 121 89 98
17.957214 14.558978 74.972832 124 92 98
17.822197 14.609914 74.409126 126 95 99
17.957214 14.882211 74.972832 128 97 98
17.957214 15.043827 74.972832 127 96 96
17.957214 15.205443 74.972832 122 93 92
17.957214 15.367060 74.972832 115 87 86
18.002674 15.567988 75.162636 110 82 82
18.002674 15.730014 75.162636 114 86 87
18.002674 15.892039 75.162636 120 93 95
18.048367 16.094810 75.353409 115 90 92
18.048367 16.257248 75.353409 107 84 87
18.094292 16.461464 75.545143 102 81 83
18.233479 16.752193 76.126259 97 77 79
18.280352 16.959784 76.321960 92 73 75
18.664190 17.483873 77.924522 87 69 72
18.518377 17.513947 77.315735 83 66 69
18.327465 17.498339 76.518669 78 63 65
18.094292 17.438564 75.545143 75 60 61
18.470278 17.967157 77.114914 73 59 59
18.518377 18.180613 77.315735 71 58 57
18.374823 18.205053 76.716385 69 56 55
18.327465 18.323082 76.518669 68 54 53
18.233479 18.393219 76.126259 68 52 52
18.048367 18.368923 75.353409 67 51 51
17.911982 18.391323 74.783989 67 50 51
17.777641 18.413389 74.223106 66 50 50
17.218056 19.693356 71.886787 58 46 48
16.890871 19.471153 70.520767 57 46 47
16.771360 19.484329 70.021797 56 46 47
16.771360 19.635273 70.021797 56 46 47
16.771360 19.786215 70.021797 56 46 47
16.811008 19.984291 70.187332 56 47 48
16.692621 19.993792 69.693054 57 47 48
16.422764 19.818373 68.566376 58 48 50
18.027781 -1.433780 74.596085 180 160 166
17.804111 -1.257182 73.670578 182 162 167
17.672554 -1.090258 73.126213 182 162 167
17.716188 -0.934925 73.306770 184 163 168
17.848400 -0.782698 73.853836 185 165 169
17.716188 -0.618875 73.306770 187 167 170
17.672554 -0.302080 73.126213 189 170 171
17.672554 -0.144445 73.126213 191 172 171
17.672554 0.013191 73.126213 193 174 171
17.716188 0.171248 73.306770 195 176 172
17.629131 0.327655 72.946541 196 176 173
17.629131 0.484903 72.946541 195 174 171
17.848400 0.650138 73.853836 195 174 172
17.892910 0.811360 74.038010 195 175 173
17.937641 0.973389 74.223106 193 173 173
17.892910 1.130562 74.038010 191 172 173
17.804111 1.283760 73.670578 193 173 176
17.892910 1.449764 74.038010 194 173 179
17.848400 1.605362 73.853836 195 172 180
17.804111 1.760187 73.670578 195 171 180
17.804111 1.918996 73.670578 193 167 178
18.027781 2.103908 74.596085 191 163 175
17.982597 2.259036 74.409126 191 161 174
17.982597 2.419437 74.409126 192 160 174
18.027781 2.586320 74.596085 191 159 173
18.118830 2.760999 74.972832 191 158 171
18.073191 2.915253 74.783989 190 158 170
18.073191 3.076462 74.783989 189 157 168
17.937641 3.213389 74.223106 186 154 163
18.027781 3.390340 74.596085 183 151 159
17.848400 3.515810 73.853836 182 149 157
18.027781 3.711948 74.596085 181 148 156
17.892910 3.843779 74.038010 179 146 153
17.804111 3.983512 73.670578 178 144 151
17.804111 4.142321 73.670578 178 145 151
17.804111 4.301130 73.670578 178 146 150
17.760040 4.448900 73.488220 175 143 148
17.760040 4.607316 73.488220 167 137 142
17.716188 4.753964 73.306770 155 128 135
17.716188 4.911989 73.306770 147 122 130
17.716188 5.070014 73.306770 150 127 135
17.804111 5.253984 73.670578 159 137 145
17.716188 5.386063 73.306770 168 147 154
17.716188 5.544087 73.306770 175 154 159
17.760040 5.716227 73.488220 176 155 159
17.760040 5.874642 73.488220 174 153 156
17.716188 6.018162 73.306770 171 150 154
17.760040 6.191474 73.488220 171 151 154
17.760040 6.349890 73.488220 172 153 158
17.848400 6.540685 73.853836 171 152 160
17.848400 6.699889 73.853836 172 152 161
17.848400 6.859093 73.853836 169 150 161
17.848400 7.018297 73.853836 166 146 158
17.892910 7.195400 74.038010 165 146 157
17.848400 7.336705 73.853836 168 150 158
17.848400 7.495909 73.853836 173 156 162
17.804111 7.636118 73.670578 178 161 165
17.848400 7.814317 73.853836 181 164 166
17.760040 7.934048 73.488220 182 166 167
17.760040 8.092464 73.488220 187 172 170
17.804111 8.271354 73.670578 189 175 172
17.760040 8.409296 73.488220 182 168 165
17.760040 8.567712 73.488220 172 157 154
17.716188 8.704581 73.306770 167 152 148
17.892910 8.951011 74.038010 164 148 144
17.892910 9.110612 74.038010 160 143 140
17.892910 9.270213 74.038010 155 139 137
17.937641 9.453388 74.223106 151 136 135
17.892910 9.589416 74.038010 148 133 135
17.982597 9.797883 74.409126 145 129 133
17.982597 9.958284 74.409126 141 125 131
17.982597 10.118686 74.409126 137 121 129
18.118830 10.356958 74.972832 134 118 126
18.832170 11.100671 77.924522 130 112 122
18.397581 11.500912 76.126259 119 96 107
18.397581 11.665014 76.126259 115 91 102
18.303717 11.768764 75.737862 112 86 97
18.303717 11.932030 75.737862 108 82 92
18.210804 12.033897 75.353409 105 79 87
18.210804 12.196334 75.353409 103 76 84
18.210804 12.358770 75.353409 103 75 82
18.164700 12.489508 75.162636 104 75 82
18.210804 12.683643 75.353409 106 75 83
18.257141 12.878767 75.545143 106 74 83
18.303717 13.074886 75.737862 106 74 83
18.350529 13.272009 75.931564 109 77 87
18.303717 13.401417 75.737862 110 77 88
18.636511 13.811313 77.114914 111 78 90
18.733829 14.050536 77.517601 113 80 93
18.636511 14.143781 77.114914 115 82 95
18.397581 14.126553 76.126259 117 84 97
18.350529 14.254107 75.931564 119 86 98
18.303717 14.381009 75.737862 121 88 99
18.210804 14.470446 75.353409 123 91 100
18.118830 14.558978 74.972832 124 93 101
18.027781 14.646622 74.596085 125 94 100
18.118830 14.882211 74.972832 126 95 99
18.164700 15.081913 75.162636 125 95 97
18.164700 15.243937 75.162636 122 93 94
18.210804 15.445065 75.353409 117 88 89
18.210804 15.607501 75.353409 112 84 85
18.210804 15.769938 75.353409 114 86 88
18.210804 15.932374 75.353409 117 90 93
18.257141 16.135765 75.545143 112 86 89
18.257141 16.298615 75.545143 103 80 84
18.350529 16.545666 75.931564 98 76 79
18.492414 16.838545 76.518669 93 73 76
18.588230 17.091595 76.915138 89 70 72
18.931547 17.576136 78.335732 85 67 69
18.782871 17.605642 77.720528 81 65 67
18.588230 17.589005 76.915138 77 62 64
18.492414 17.663288 76.518669 73 59 60
18.588230 17.920610 76.915138 71 58 58
18.636511 18.133390 77.114914 70 57 56
18.492414 18.158133 76.518669 68 54 54
18.397581 18.229116 76.126259 68 53 53
18.350529 18.346178 75.931564 67 52 52
18.210804 18.368923 75.353409 67 51 52
17.982597 18.299137 74.409126 66 51 51
17.848400 18.321779 73.853836 65 50 50
17.848400 18.480984 73.853836 64 49 49
17.331055 19.645786 71.713142 59 47 48
17.002504 19.425013 70.353653 59 47 48
16.882486 19.438484 69.857040 58 47 48
16.882486 19.589071 69.857040 58 46 48
16.882486 19.739660 69.857040 57 46 48
16.962309 19.984291 70.187332 57 46 48
16.842855 19.993792 69.693054 57 47 49
16.725073 20.003160 69.205696 58 48 50
17.918457 -1.254071 73.488220 180 160 165
17.830189 -1.090258 73.126213 181 161 165
17.830189 -0.932622 73.126213 182 163 167
17.830189 -0.774987 73.126213 184 165 168
17.830189 -0.617351 73.126213 186 167 169
17.874214 -0.460851 73.306770 188 169 170
17.874214 -0.302826 73.306770 190 171 170
17.874214 -0.144801 73.306770 191 172 170
17.874214 0.013223 73.306770 192 172 170
17.874214 0.171248 73.306770 195 174 171
17.786381 0.327655 72.946541 196 174 171
17.874214 0.487297 73.306770 194 173 170
18.097641 0.653389 74.223106 194 171 169
18.143000 0.815427 74.409126 193 170 168
18.234400 0.980744 74.783989 191 168 168
18.188585 1.139084 74.596085 189 167 168
18.007603 1.286954 73.853836 189 167 169
18.143000 1.457031 74.409126 189 166 171
18.097641 1.613389 74.223106 190 165 173
17.962919 1.760187 73.670578 191 164 173
17.874214 1.909520 73.306770 190 161 172
18.097641 2.093389 74.223106 189 158 170
17.962919 2.236614 73.670578 189 156 170
17.918457 2.389494 73.488220 189 155 169
17.918457 2.547909 73.488220 188 154 168
18.007603 2.719790 73.853836 188 153 167
17.962919 2.871850 73.670578 187 153 165
18.052511 3.045774 74.038010 186 152 164
17.962919 3.189468 73.670578 183 149 159
18.097641 3.373389 74.223106 179 146 155
17.962919 3.507086 73.670578 178 144 152
18.188585 3.711948 74.596085 178 143 150
18.052511 3.843779 74.038010 177 142 148
17.962919 3.983512 73.670578 177 142 147
17.962919 4.142321 73.670578 180 144 148
18.007603 4.311830 73.853836 186 151 154
17.962919 4.459939 73.670578 187 154 156
17.962919 4.618748 73.670578 174 143 147
17.874214 4.753964 73.306770 155 127 131
17.918457 4.924147 73.488220 143 118 124
17.918457 5.082563 73.488220 148 125 131
17.962919 5.253984 73.670578 159 137 143
17.874214 5.386063 73.306770 169 148 153
17.918457 5.557811 73.488220 177 157 160
17.962919 5.730411 73.670578 179 159 161
17.918457 5.874642 73.488220 177 157 159
17.874214 6.018162 73.306770 171 151 153
17.918457 6.191474 73.488220 168 149 151
17.918457 6.349890 73.488220 168 150 153
18.007603 6.540685 73.853836 167 148 155
18.007603 6.699889 73.853836 165 147 154
17.962919 6.842073 73.670578 160 143 151
17.962919 7.000882 73.670578 158 139 148
17.962919 7.159691 73.670578 164 146 155
17.962919 7.318500 73.670578 176 158 166
17.962919 7.477309 73.670578 190 173 178
17.962919 7.636118 73.670578 200 183 186
18.007603 7.814317 73.853836 201 184 185
17.918457 7.934048 73.488220 196 180 179
17.918457 8.092464 73.488220 190 174 173
17.962919 8.271354 73.670578 184 168 166
17.918457 8.409296 73.488220 178 161 159
17.874214 8.546556 73.306770 171 154 152
17.874214 8.704581 73.306770 164 148 145
18.052511 8.951011 74.038010 159 143 139
18.052511 9.110612 74.038010 155 139 136
18.052511 9.270213 74.038010 153 137 136
18.052511 9.429814 74.038010 151 135 136
18.007603 9.565561 73.853836 150 133 136
18.052511 9.749016 74.038010 146 130 134
18.052511 9.908617 74.038010 141 124 131
18.007603 10.043173 73.853836 136 119 127
18.280447 10.356958 74.972832 134 117 125
18.900930 11.042704 77.517601 130 112 121
18.561684 11.500912 76.126259 120 96 108
18.561684 11.665014 76.126259 116 90 102
18.466982 11.768764 75.737862 112 86 98
18.514212 11.962546 75.931564 108 82 93
18.419991 12.064518 75.545143 106 78 88
18.419991 12.227367 75.545143 104 76 85
18.373240 12.358770 75.353409 103 75 83
18.373240 12.521207 75.353409 105 75 83
18.419991 12.715918 75.545143 107 75 84
18.466982 12.911621 75.737862 106 74 83
18.514212 13.108326 75.931564 106 74 83
18.561684 13.306040 76.126259 111 78 87
18.561684 13.470142 76.126259 113 79 89
18.802744 13.811313 77.114914 114 80 90
18.754032 13.941336 76.915138 115 82 93
18.754032 14.107139 76.915138 118 84 96
18.561684 14.126553 76.126259 120 87 99
18.514212 14.254107 75.931564 123 89 101
18.466982 14.381009 75.737862 123 90 102
18.419991 14.507266 75.545143 123 92 102
18.326725 14.595837 75.162636 123 93 102
18.234400 14.683515 74.783989 123 93 101
18.280447 14.882211 74.972832 123 93 100
18.326725 15.081913 75.162636 121 93 97
18.373240 15.282628 75.353409 121 93 96
18.373240 15.445065 75.353409 119 91 94
18.419991 15.647215 75.545143 114 87 90
18.419991 15.810065 75.545143 112 85 89
18.419991 15.972915 75.545143 111 84 89
18.419991 16.135765 75.545143 106 80 85
18.466982 16.340193 75.737862 100 76 81
18.609400 16.630733 76.321960 95 72 77
18.754032 16.925791 76.915138 91 70 73
18.900930 17.225471 77.517601 87 67 70
19.100412 17.576136 78.335732 83 65 67
18.950411 17.605642 77.720528 79 62 65
18.802744 17.634689 77.114914 75 60 62
18.754032 17.754807 76.915138 72 59 59
18.609400 17.782404 76.321960 71 58 58
18.609400 17.946930 76.321960 69 56 55
18.561684 18.065014 76.126259 67 54 54
18.419991 18.089964 75.545143 67 53 53
18.419991 18.252813 75.545143 67 52 52
18.234400 18.230114 74.783989 67 52 52
17.918457 18.072662 73.488220 66 51 51
17.786381 18.096697 72.946541 64 50 50
17.918457 18.389494 73.488220 63 49 49
17.699406 19.729475 72.589836 61 48 49
17.485643 19.645786 71.713142 61 48 49
17.154163 19.425013 70.353653 61 48 49
16.993092 19.392853 69.693054 60 48 49
16.913683 19.451765 69.367386 59 47 49
16.993092 19.693323 69.693054 58 47 49
17.113609 19.984291 70.187332 58 47 49
17.033075 20.040836 69.857040 58 47 50
17.987823 -1.090258 73.126213 180 160 164
17.943628 -0.930331 72.946541 182 162 165
17.943628 -0.773082 72.946541 183 164 166
18.032238 -0.618875 73.306770 185 166 168
18.076874 -0.461991 73.488220 188 169 170
18.032238 -0.302826 73.306770 191 171 170
17.987823 -0.144445 73.126213 191 170 168
17.987823 0.013191 73.126213 190 168 166
17.987823 0.170826 73.126213 191 168 166
17.899649 0.326852 72.767754 191 168 165
17.943628 0.484903 72.946541 191 166 164
18.166807 0.650138 73.853836 190 165 164
18.303400 0.815427 74.409126 189 165 163
18.442062 0.983221 74.972832 188 164 163
18.303400 1.136229 74.409126 187 163 163
18.121729 1.283760 73.670578 186 162 164
18.257641 1.453389 74.223106 186 161 165
18.257641 1.613389 74.223106 186 160 166
18.076874 1.755830 73.488220 187 159 166
17.987823 1.904816 73.126213 187 157 166
18.212111 2.088168 74.038010 186 154 166
18.032238 2.225569 73.306770 185 152 165
17.987823 2.377723 73.126213 184 150 163
18.032238 2.541618 73.306770 184 148 162
18.076874 2.706326 73.488220 182 147 160
18.076874 2.864741 73.488220 181 145 158
18.121729 3.030659 73.670578 180 145 157
18.076874 3.181573 73.488220 179 144 154
18.212111 3.364976 74.038010 177 143 151
18.121729 3.507086 73.670578 177 142 150
18.349388 3.711948 74.596085 178 142 149
18.212111 3.843779 74.038010 179 142 148
18.121729 3.983512 73.670578 178 141 145
18.166807 4.152626 73.853836 181 145 148
18.166807 4.311830 73.853836 194 159 161
18.121729 4.459939 73.670578 199 166 168
18.121729 4.618748 73.670578 181 149 152
18.076874 4.765731 73.488220 157 129 133
18.076874 4.924147 73.488220 151 126 132
18.076874 5.082563 73.488220 160 136 142
18.166807 5.267054 73.853836 165 144 149
18.076874 5.399395 73.488220 172 151 156
18.121729 5.571602 73.670578 178 159 162
18.212111 5.758991 74.038010 179 161 163
18.166807 5.903869 73.853836 175 157 159
18.121729 6.048028 73.670578 170 151 153
18.166807 6.222277 73.853836 165 148 151
18.166807 6.381481 73.853836 163 147 150
18.212111 6.556996 74.038010 162 145 149
18.257641 6.733389 74.223106 162 145 151
18.212111 6.876198 74.038010 163 146 151
18.166807 7.018297 73.853836 166 149 156
18.212111 7.195400 74.038010 180 163 171
18.212111 7.355001 74.038010 199 183 189
18.212111 7.514602 74.038010 212 195 199
18.212111 7.674203 74.038010 213 196 199
18.303400 7.873071 74.409126 204 187 189
18.166807 7.973521 73.853836 194 176 178
18.212111 8.153007 74.038010 184 167 166
18.257641 8.333388 74.223106 176 159 158
18.121729 8.430162 73.670578 171 154 153
18.076874 8.567712 73.488220 167 151 149
18.032238 8.704581 73.306770 162 146 143
18.257641 8.973389 74.223106 157 141 138
18.257641 9.133389 74.223106 154 137 136
18.212111 9.270213 74.038010 153 136 137
18.212111 9.429814 74.038010 152 135 138
18.121729 9.541825 73.670578 151 134 139
18.212111 9.749016 74.038010 149 132 138
18.166807 9.883968 73.853836 143 126 134
18.166807 10.043173 73.853836 138 120 129
18.442062 10.356958 74.972832 135 116 127
18.442062 10.518575 74.972832 133 113 125
18.822311 10.900401 76.518669 131 111 122
18.677895 11.471498 75.931564 120 95 107
18.725786 11.665014 76.126259 115 90 102
18.630247 11.768764 75.737862 112 85 98
18.677895 11.962546 75.931564 109 81 94
18.582842 12.064518 75.545143 107 78 89
18.582842 12.227367 75.545143 105 76 87
18.535677 12.358770 75.353409 104 74 85
18.488750 12.489508 75.162636 105 74 84
18.582842 12.715918 75.545143 107 75 84
18.630247 12.911621 75.737862 108 76 83
18.677895 13.108326 75.931564 109 76 84
18.725786 13.306040 76.126259 112 79 87
18.725786 13.470142 76.126259 115 81 89
18.870947 13.739937 76.716385 117 82 91
18.822311 13.869473 76.518669 118 83 93
18.870947 14.070686 76.716385 121 86 97
18.725786 14.126553 76.126259 124 89 101
18.677895 14.254107 75.931564 126 91 104
18.677895 14.417789 75.931564 125 92 104
18.582842 14.507266 75.545143 124 92 103
18.488750 14.595837 75.162636 122 92 103
18.395609 14.683515 74.783989 121 92 102
18.442062 14.882211 74.972832 120 91 100
18.488750 15.081913 75.162636 118 91 98
18.582842 15.321515 75.545143 118 91 98
18.582842 15.484365 75.545143 118 91 98
18.582842 15.647215 75.545143 115 87 93
18.582842 15.810065 75.545143 112 83 90
18.630247 16.013662 75.737862 107 80 87
18.630247 16.176928 75.737862 103 76 83
18.677895 16.381983 75.931564 98 73 79
18.822311 16.673597 76.518669 94 70 75
19.018377 17.013947 77.315735 89 67 72
19.168127 17.315893 77.924522 85 64 68
19.269279 17.576136 78.335732 81 62 66
19.068033 17.559675 77.517601 78 61 63
19.018377 17.680613 77.315735 75 59 61
18.919836 17.754807 76.915138 72 58 59
18.677895 17.691446 75.931564 70 57 57
18.677895 18.018812 75.931564 67 54 54
18.488750 17.998369 75.162636 67 53 53
18.442062 18.114534 74.972832 66 52 53
18.166807 18.003372 73.853836 66 52 52
17.943628 17.939447 72.946541 65 51 51
17.943628 19.669178 72.946541 62 49 48
17.855885 19.729475 72.589836 62 49 49
17.682945 19.693356 71.886787 62 49 49
17.346928 19.471153 70.520767 62 48 50
17.183662 19.438484 69.857040 61 48 50
17.143326 19.543087 69.693054 61 48 50
17.264910 19.832993 70.187332 60 48 50
17.388229 20.127037 70.688675 60 48 51
17.388229 20.279417 70.688675 60 48 51
18.145460 -1.090258 73.126213 179 158 161
18.145460 -0.932622 73.126213 181 160 163
18.100876 -0.773082 72.946541 182 162 164
18.190264 -0.618875 73.306770 184 164 165
18.235289 -0.461991 73.488220 187 167 167
18.190264 -0.302826 73.306770 189 168 168
18.145460 -0.144445 73.126213 189 167 165
18.145460 0.013191 73.126213 186 163 162
18.145460 0.170826 73.126213 185 161 160
18.012363 0.326052 72.589836 185 161 159
18.056511 0.483714 72.767754 185 160 159
18.145460 0.643733 73.126213 185 159 158
18.190264 0.803347 73.306770 186 160 158
18.371712 0.970961 74.038010 185 160 159
18.235289 1.122167 73.488220 184 160 159
18.145460 1.274275 73.126213 183 159 159
18.100876 1.428392 72.946541 183 157 160
18.190264 1.593470 73.306770 182 156 160
18.100876 1.742888 72.946541 181 154 159
18.012363 1.890845 72.589836 181 151 159
18.280537 2.077805 73.670578 180 149 159
18.145460 2.220087 73.126213 179 146 158
18.100876 2.371881 72.946541 178 144 156
18.190264 2.541618 73.306770 178 142 155
18.280537 2.713041 73.670578 176 140 152
18.235289 2.864741 73.488220 174 139 151
18.235289 3.023157 73.488220 175 141 151
18.190264 3.173717 73.306770 177 142 152
18.280537 3.348277 73.670578 177 142 151
18.235289 3.498405 73.488220 178 144 152
18.463800 3.702645 74.409126 182 147 154
18.371712 3.843779 74.038010 185 150 154
18.280537 3.983512 73.670578 181 145 148
18.280537 4.142321 73.670578 182 147 148
18.326012 4.311830 73.853836 196 163 164
18.280537 4.459939 73.670578 202 170 172
18.280537 4.618748 73.670578 182 153 155
18.235289 4.765731 73.488220 162 134 138
18.235289 4.924147 73.488220 166 141 147
18.280537 5.095175 73.670578 176 153 159
18.326012 5.267054 73.853836 174 153 158
18.235289 5.399395 73.488220 172 152 157
18.280537 5.571602 73.670578 175 157 160
18.326012 5.744665 73.853836 175 159 161
18.326012 5.903869 73.853836 172 156 158
18.280537 6.048028 73.670578 167 151 153
18.280537 6.206837 73.670578 162 147 150
18.326012 6.381481 73.853836 161 145 148
18.417641 6.573389 74.223106 161 144 148
18.417641 6.733389 74.223106 168 153 156
18.371712 6.876198 74.038010 180 165 169
18.371712 7.035799 74.038010 193 177 182
18.463800 7.231467 74.409126 210 194 200
18.417641 7.373389 74.223106 225 209 214
18.417641 7.533389 74.223106 224 207 211
18.463800 7.712670 74.409126 206 189 192
18.510193 7.892853 74.596085 187 169 172
18.510193 8.053657 74.596085 177 159 161
18.510193 8.214461 74.596085 172 154 155
18.510193 8.375265 74.596085 169 151 152
18.326012 8.451133 73.853836 167 149 149
18.280537 8.588971 73.670578 164 147 146
18.235289 8.726128 73.488220 161 144 143
18.463800 8.995878 74.409126 157 141 140
18.463800 9.156280 74.409126 154 138 138
18.326012 9.247153 73.853836 153 135 138
18.326012 9.406357 73.853836 153 135 140
18.280537 9.541825 73.670578 156 138 145
18.280537 9.700634 73.670578 157 138 147
18.280537 9.859443 73.670578 149 130 140
18.235289 9.993454 73.488220 140 120 132
18.463800 10.279086 74.409126 135 115 128
18.510193 10.465717 74.596085 133 112 125
18.698112 10.734405 75.353409 131 109 122
18.012363 10.497202 72.589836 128 106 119
17.924711 10.601838 72.236603 126 102 115
18.745691 11.413118 75.545143 118 93 105
18.793512 11.605498 75.737862 114 88 100
18.745691 11.738818 75.545143 111 84 97
18.793512 11.932030 75.737862 109 81 93
18.698112 12.033897 75.353409 107 78 91
18.698112 12.196334 75.353409 106 76 89
18.650776 12.327482 75.162636 106 75 87
18.603678 12.457969 74.972832 106 74 86
18.698112 12.683643 75.353409 107 75 85
18.745691 12.878767 75.545143 109 76 84
18.793512 13.074886 75.737862 112 78 86
18.793512 13.238152 75.737862 114 80 88
18.793512 13.401417 75.737862 117 82 90
18.938450 13.669294 76.321960 118 83 92
18.889889 13.798347 76.126259 120 84 94
19.085638 14.107139 76.915138 123 86 96
18.889889 14.126553 76.126259 125 89 100
18.938450 14.327392 76.321960 126 91 103
18.938450 14.491917 76.321960 125 91 104
18.745691 14.507266 75.545143 123 91 103
18.650776 14.595837 75.162636 121 91 102
18.556818 14.683515 74.783989 119 90 101
18.556818 14.844724 74.783989 117 90 100
18.650776 15.081913 75.162636 115 89 99
18.745691 15.321515 75.545143 115 88 98
18.745691 15.484365 75.545143 114 87 97
18.745691 15.647215 75.545143 112 84 93
18.745691 15.810065 75.545143 109 81 90
18.793512 16.013662 75.737862 106 77 87
18.793512 16.176928 75.737862 102 74 83
18.841578 16.381983 75.931564 97 71 78
18.987259 16.673597 76.518669 93 68 74
19.235134 17.058369 77.517601 89 66 70
19.386992 17.361462 78.129585 85 63 67
19.489569 17.622633 78.542969 81 61 64
19.235134 17.559675 77.517601 78 59 61
19.185043 17.680613 77.315735 75 58 60
19.036322 17.708929 76.716385 73 57 58
18.793512 17.646315 75.737862 71 56 57
18.698112 17.719177 75.353409 69 55 57
18.556818 17.907696 74.783989 67 53 55
18.280537 17.799889 73.670578 67 52 53
18.235289 17.914246 73.488220 67 52 52
18.056511 19.620970 72.767754 63 50 49
18.012363 19.729475 72.589836 63 50 49
17.881205 19.741154 72.061264 64 50 50
17.624537 19.610899 71.026894 63 49 51
17.375134 19.484329 70.021797 64 49 51
17.457479 19.728331 70.353653 64 49 52
17.751944 20.215315 71.540344 63 49 53
17.837910 20.468174 71.886787 62 49 53
18.348288 -0.934925 73.306770 179 156 159
18.258125 -0.773082 72.946541 180 158 160
18.303095 -0.617351 73.126213 182 160 162
18.348288 -0.460851 73.306770 183 162 163
18.348288 -0.302826 73.306770 185 163 164
18.303095 -0.144445 73.126213 185 162 162
18.303095 0.013191 73.126213 184 160 160
18.303095 0.170826 73.126213 183 159 159
18.213373 0.326852 72.767754 183 158 158
18.258125 0.484903 72.946541 183 157 157
18.303095 0.643733 73.126213 183 156 156
18.258125 0.799399 72.946541 183 157 156
18.258125 0.956647 72.946541 183 157 156
18.213373 1.111165 72.767754 182 156 156
18.168842 1.264928 72.589836 181 155 156
18.124529 1.417940 72.412788 180 154 156
18.213373 1.581754 72.767754 178 151 155
18.168842 1.734365 72.589836 176 149 154
18.036545 1.877076 72.061264 174 146 153
18.303095 2.062452 73.126213 173 143 152
18.213373 2.209205 72.767754 173 141 151
18.213373 2.366067 72.767754 172 139 149
18.303095 2.535358 73.126213 172 137 148
18.439346 2.713041 73.670578 170 135 146
18.393705 2.864741 73.488220 170 136 146
18.393705 3.023157 73.488220 176 142 152
18.348288 3.173717 73.306770 180 147 156
18.393705 3.339989 73.488220 180 147 156
18.348288 3.489767 73.306770 182 149 157
18.577642 3.693389 74.223106 189 156 162
18.485216 3.834218 73.853836 192 160 163
18.439346 3.983512 73.670578 187 154 156
18.439346 4.142321 73.670578 183 151 152
18.439346 4.301130 73.670578 190 159 160
18.439346 4.459939 73.670578 194 164 165
18.439346 4.618748 73.670578 180 152 155
18.393705 4.765731 73.488220 168 142 145
18.439346 4.936366 73.670578 174 150 155
18.439346 5.095175 73.670578 181 159 165
18.531313 5.280188 74.038010 177 156 162
18.439346 5.412793 73.670578 171 153 157
18.485216 5.585461 73.853836 171 155 157
18.577642 5.773389 74.223106 169 156 157
18.577642 5.933389 74.223106 167 155 156
18.485216 6.063073 73.853836 161 150 152
18.531313 6.237794 74.038010 159 148 151
18.531313 6.397395 74.038010 164 150 154
18.670996 6.606421 74.596085 173 160 163
18.670996 6.767225 74.596085 191 178 181
18.624203 6.910666 74.409126 210 198 200
18.624203 7.071066 74.409126 221 208 211
18.670996 7.249637 74.596085 227 211 216
18.670996 7.410441 74.596085 223 206 212
18.670996 7.571245 74.596085 210 193 197
18.670996 7.732049 74.596085 190 172 176
18.718027 7.912734 74.783989 173 155 159
18.718027 8.073943 74.783989 167 148 152
18.718027 8.235152 74.783989 166 146 150
18.670996 8.375265 74.596085 165 145 148
18.531313 8.472208 74.038010 164 144 147
18.485216 8.610337 73.853836 162 143 146
18.393705 8.726128 73.488220 160 142 145
18.624203 8.995878 74.409126 158 140 142
18.624203 9.156280 74.409126 155 137 140
18.485216 9.247153 73.853836 153 135 140
18.439346 9.383016 73.670578 154 135 142
18.393705 9.518207 73.488220 160 139 149
18.393705 9.676622 73.488220 162 142 153
18.393705 9.835038 73.488220 153 133 145
18.393705 9.993454 73.488220 140 119 133
18.577642 10.253388 74.223106 134 113 127
18.624203 10.439487 74.409126 132 110 125
18.812801 10.707229 75.162636 130 107 122
18.168842 10.497202 72.589836 127 104 118
18.124529 10.627696 72.412788 124 100 114
18.577642 11.053389 74.223106 121 95 109
18.765295 11.326655 74.972832 117 91 103
18.908541 11.575968 75.545143 113 87 99
18.860550 11.709024 75.353409 110 83 96
18.908541 11.901668 75.545143 109 81 94
18.812801 12.003431 75.162636 108 78 92
18.812801 12.165457 75.162636 107 77 90
18.765295 12.296352 74.972832 107 75 89
18.718027 12.426588 74.783989 107 74 87
18.765295 12.619584 74.972832 108 75 86
18.812801 12.813559 75.162636 110 76 85
18.908541 13.041617 75.545143 112 78 86
18.908541 13.204467 75.545143 115 80 87
18.860550 13.333389 75.353409 117 82 88
18.908541 13.530167 75.545143 119 83 91
19.152208 14.034421 76.518669 122 86 95
19.005260 14.090424 75.931564 123 87 97
19.607010 14.705423 78.335732 124 88 100
19.251442 14.604548 76.915138 123 89 100
18.908541 14.507266 75.545143 120 89 100
18.860550 14.632882 75.353409 119 89 100
18.718027 14.683515 74.783989 116 88 99
18.718027 14.844724 74.783989 115 88 97
18.812801 15.081913 75.162636 113 87 97
18.908541 15.321515 75.545143 111 85 95
18.908541 15.484365 75.545143 109 83 93
18.908541 15.647215 75.545143 107 80 91
18.956778 15.850396 75.737862 106 78 89
18.956778 16.013662 75.737862 104 75 86
18.956778 16.176928 75.737862 100 72 83
19.005260 16.381983 75.931564 96 69 79
19.152208 16.673597 76.518669 92 66 74
19.402237 17.058369 77.517601 88 64 71
19.555412 17.361462 78.129585 85 62 67
19.607010 17.576136 78.335732 82 60 64
19.301445 17.468456 77.114914 79 58 62
19.201696 17.543554 76.716385 76 57 59
19.102974 17.617880 76.321960 74 56 58
18.908541 17.601414 75.545143 72 56 58
18.765295 17.629686 74.972832 71 55 58
18.765295 17.791302 74.972832 69 55 57
18.577642 17.773388 74.223106 68 54 56
18.303095 17.668364 73.126213 67 53 55
18.213373 18.366068 72.767754 64 49 49
18.258125 18.568441 72.946541 63 48 47
18.213373 19.464106 72.767754 63 49 50
18.213373 19.620970 72.767754 64 50 50
18.213373 19.777832 72.767754 65 51 51
18.080429 19.789186 72.236603 66 51 51
17.949411 19.800375 71.713142 66 51 52
18.765295 21.185242 74.972832 66 52 56
18.348288 20.872482 73.306770 66 53 57
18.415373 -0.773082 72.946541 177 154 157
18.415373 -0.615834 72.946541 178 155 158
18.415373 -0.458586 72.946541 179 156 159
18.460732 -0.302080 73.126213 181 157 160
18.415373 -0.144090 72.946541 183 159 162
18.415373 0.013158 72.946541 187 161 164
18.415373 0.170407 72.946541 188 161 165
18.325321 0.326052 72.589836 186 159 162
18.370237 0.483714 72.767754 185 158 161
18.415373 0.642151 72.946541 184 157 160
18.325321 0.795490 72.589836 184 157 158
18.325321 0.951969 72.589836 183 156 158
18.236147 1.103055 72.236603 181 155 156
18.191885 1.255717 72.061264 180 153 155
18.147837 1.407640 71.886787 178 151 154
18.236147 1.570208 72.236603 175 149 152
18.236147 1.725926 72.236603 173 147 150
18.104002 1.868008 71.713142 172 145 149
18.415373 2.057384 72.946541 170 142 149
18.325321 2.203803 72.589836 171 141 148
18.325321 2.360282 72.589836 171 139 147
18.460732 2.535358 73.126213 170 137 146
18.598156 2.713041 73.670578 169 136 145
18.552120 2.864741 73.488220 171 138 148
18.552120 3.023157 73.488220 180 148 157
18.506313 3.173717 73.306770 187 156 165
18.552120 3.339989 73.488220 187 156 165
18.506313 3.489767 73.306770 188 157 165
18.690914 3.684178 74.038010 192 162 168
18.598156 3.824703 73.670578 196 166 170
18.552120 3.973652 73.488220 192 163 165
18.598156 4.142321 73.670578 185 156 158
18.598156 4.301130 73.670578 181 153 155
18.552120 4.448900 73.488220 181 155 157
18.552120 4.607316 73.488220 177 151 154
18.552120 4.765731 73.488220 171 147 152
18.598156 4.936366 73.670578 174 152 157
18.644419 5.107850 73.853836 177 157 162
18.737642 5.293389 74.223106 175 155 160
18.644419 5.426258 73.853836 170 154 157
18.690914 5.599390 74.038010 167 154 155
18.784603 5.787858 74.409126 164 154 154
18.784603 5.948259 74.409126 160 152 153
18.784603 6.108660 74.409126 159 151 152
18.784603 6.269061 74.409126 167 158 160
18.784603 6.429462 74.409126 183 173 176
18.879236 6.623062 74.783989 203 191 194
18.831800 6.767225 74.596085 224 213 215
18.831800 6.928029 74.596085 235 226 227
18.831800 7.088833 74.596085 232 220 224
18.879236 7.267898 74.783989 218 203 209
18.879236 7.429107 74.783989 198 182 188
18.879236 7.590316 74.783989 183 165 172
18.831800 7.732049 74.596085 174 156 163
18.879236 7.912734 74.783989 169 149 156
18.879236 8.073943 74.783989 166 146 152
18.879236 8.235152 74.783989 165 144 151
18.879236 8.396361 74.783989 165 143 149
18.690914 8.472208 74.038010 163 142 148
18.644419 8.610337 73.853836 161 141 147
18.506313 8.704581 73.306770 160 140 146
18.831800 9.018481 74.596085 158 139 144
18.784603 9.156280 74.409126 155 136 142
18.598156 9.224207 73.670578 154 134 141
18.598156 9.383016 73.670578 154 133 142
18.598156 9.541825 73.670578 157 136 147
18.598156 9.700634 73.670578 158 136 149
18.598156 9.859443 73.670578 151 128 142
18.598156 10.018251 73.670578 140 117 132
18.737642 10.253388 74.223106 134 111 127
18.737642 10.413388 74.223106 132 108 125
18.926910 10.680191 74.972832 130 106 121
18.325321 10.497202 72.589836 127 102 117
18.325321 10.653681 72.589836 124 98 112
18.737642 11.053389 74.223106 121 94 108
18.926910 11.326655 74.972832 118 90 103
19.022985 11.546588 75.353409 115 87 99
19.022985 11.709024 75.353409 112 84 97
19.022985 11.871461 75.353409 111 82 95
18.926910 11.973120 74.972832 109 79 94
18.974827 12.165457 75.162636 108 77 92
18.879236 12.265379 74.783989 108 75 90
18.831800 12.395366 74.596085 107 74 88
18.879236 12.587797 74.783989 109 75 86
18.926910 12.781200 74.972832 110 76 85
19.022985 13.008516 75.353409 112 78 85
18.974827 13.137609 75.162636 114 80 86
18.926910 13.266049 74.972832 116 81 87
18.879236 13.393843 74.783989 118 82 89
18.879236 13.555052 74.783989 120 84 91
19.620567 14.757475 77.720528 120 87 97
19.120043 14.544274 75.737862 118 87 97
19.071390 14.670115 75.545143 116 87 97
18.926910 14.720594 74.972832 114 86 95
18.879236 14.844724 74.783989 112 85 95
18.974827 15.081913 75.162636 110 84 95
19.022985 15.282628 75.353409 108 82 93
19.071390 15.484365 75.545143 106 80 91
19.071390 15.647215 75.545143 105 78 89
19.120043 15.850396 75.737862 105 75 88
19.168943 16.054617 75.931564 102 73 86
19.120043 16.176928 75.737862 99 71 83
19.218094 16.423988 76.126259 96 68 79
19.317156 16.673597 76.518669 91 65 75
19.569338 17.058369 77.517601 87 63 71
19.723833 17.361462 78.129585 85 61 68
19.620567 17.438103 77.720528 83 60 66
19.367071 17.378180 76.716385 80 58 63
19.317156 17.498339 76.518669 78 56 61
19.168943 17.527763 75.931564 75 56 60
19.022985 17.556740 75.353409 74 55 59
18.879236 17.585278 74.783989 72 55 59
18.784603 17.657532 74.409126 70 55 59
18.598156 17.641081 73.670578 69 55 58
18.415373 17.624952 72.946541 68 54 56
18.552120 18.389494 73.488220 65 50 50
18.460732 18.456541 73.126213 64 49 49
18.506313 18.660137 73.306770 63 48 48
18.598156 19.705597 73.670578 64 49 50
18.460732 19.717625 73.126213 65 50 51
18.460732 19.875259 73.126213 66 51 52
19.317156 21.292152 76.518669 68 53 55
19.218094 21.347065 76.126259 69 54 57
19.218094 21.511168 76.126259 69 56 59
18.572620 -0.615834 72.946541 175 149 154
18.572620 -0.458586 72.946541 176 150 155
18.618366 -0.302080 73.126213 178 152 157
18.572620 -0.144090 72.946541 183 157 161
18.572620 0.013158 72.946541 190 163 168
18.572620 0.170407 72.946541 192 164 170
18.527100 0.326852 72.767754 188 160 166
18.572620 0.484903 72.946541 187 159 165
18.618366 0.643733 73.126213 188 160 166
18.527100 0.797440 72.767754 186 159 164
18.481802 0.951969 72.589836 184 156 161
18.436724 1.105745 72.412788 180 153 158
18.436724 1.261843 72.412788 177 150 154
18.347225 1.411057 72.061264 174 148 151
18.391865 1.570208 72.236603 173 147 150
18.347225 1.721737 72.061264 172 147 150
18.170809 1.859028 71.368370 172 147 150
18.572620 2.057384 72.946541 172 146 151
18.481802 2.203803 72.589836 173 145 151
18.481802 2.360282 72.589836 175 144 152
18.664337 2.541618 73.306770 175 143 152
18.756964 2.713041 73.670578 176 143 152
18.664337 2.857668 73.306770 179 147 157
18.664337 3.015692 73.306770 186 156 165
18.664337 3.173717 73.306770 193 163 173
18.710537 3.339989 73.488220 192 163 173
18.664337 3.489767 73.306770 191 161 171
18.850515 3.684178 74.038010 192 163 171
18.756964 3.824703 73.670578 192 165 171
18.710537 3.973652 73.488220 190 164 167
18.756964 4.142321 73.670578 184 158 161
18.710537 4.290484 73.488220 177 152 155
18.710537 4.448900 73.488220 174 151 154
18.710537 4.607316 73.488220 174 151 155
18.710537 4.765731 73.488220 173 151 156
18.756964 4.936366 73.670578 174 152 158
18.803623 5.107850 73.853836 174 154 159
18.897642 5.293389 74.223106 172 154 158
18.803623 5.426258 73.853836 168 154 156
18.897642 5.613389 74.223106 164 153 153
18.992605 5.802401 74.596085 162 154 152
18.992605 5.963205 74.596085 162 156 155
18.992605 6.124009 74.596085 171 166 166
18.992605 6.284813 74.596085 192 186 188
18.992605 6.445617 74.596085 212 205 208
19.040445 6.623062 74.783989 223 214 218
19.040445 6.784271 74.783989 231 220 223
18.992605 6.928029 74.596085 228 215 219
18.992605 7.088833 74.596085 213 198 203
19.040445 7.267898 74.783989 195 179 184
19.040445 7.429107 74.783989 179 162 168
19.040445 7.590316 74.783989 170 152 160
18.992605 7.732049 74.596085 167 149 157
19.040445 7.912734 74.783989 166 146 154
19.040445 8.073943 74.783989 166 144 153
19.040445 8.235152 74.783989 165 143 151
19.040445 8.396361 74.783989 164 142 150
18.897642 8.493389 74.223106 162 141 149
18.850515 8.631809 74.038010 161 140 148
18.664337 8.704581 73.306770 160 139 147
18.992605 9.018481 74.596085 158 137 145
18.897642 9.133389 74.223106 156 135 143
18.756964 9.224207 73.670578 154 133 141
18.756964 9.383016 73.670578 152 130 141
18.756964 9.541825 73.670578 152 129 141
18.756964 9.700634 73.670578 150 127 140
18.756964 9.859443 73.670578 144 121 135
18.756964 10.018251 73.670578 138 113 129
18.850515 10.227819 74.038010 134 109 126
18.850515 10.387420 74.038010 133 107 124
18.992605 10.626521 74.596085 130 104 121
18.481802 10.497202 72.589836 128 102 117
18.527100 10.679792 72.767754 126 99 113
18.850515 11.025825 74.038010 124 95 109
19.040445 11.298124 74.783989 121 92 105
19.136852 11.517356 75.162636 118 89 101
19.185423 11.709024 75.353409 116 87 100
19.185423 11.871461 75.353409 114 84 98
19.088528 11.973120 74.972832 112 80 95
19.136852 12.165457 75.162636 110 77 93
19.040445 12.265379 74.783989 109 76 91
18.945004 12.364300 74.409126 109 75 89
19.040445 12.587797 74.783989 109 75 87
19.040445 12.749006 74.783989 110 76 86
19.088528 12.942817 74.972832 112 77 85
19.040445 13.071424 74.783989 113 79 86
18.945004 13.166305 74.409126 115 80 86
18.897642 13.293388 74.223106 116 81 88
18.897642 13.453388 74.223106 118 82 89
18.945004 13.647508 74.409126 119 83 91
19.840044 14.796208 77.924522 117 85 94
19.234241 14.670115 75.545143 113 84 94
19.088528 14.720594 74.972832 110 84 93
18.945004 14.770314 74.409126 109 83 92
18.992605 14.968230 74.596085 107 82 92
19.088528 15.205443 74.972832 106 80 91
19.136852 15.405963 75.162636 105 78 90
19.185423 15.607501 75.353409 104 76 88
19.283308 15.850396 75.737862 103 74 87
19.332626 16.054617 75.931564 101 72 85
19.234241 16.135765 75.545143 98 69 81
19.332626 16.381983 75.931564 95 66 78
19.432022 16.630733 76.321960 91 64 75
19.685043 17.013947 77.315735 88 62 72
19.788107 17.270563 77.720528 86 61 69
19.583048 17.257397 76.915138 84 60 67
19.432022 17.288832 76.321960 81 59 64
19.432022 17.453356 76.321960 80 57 63
19.332626 17.527763 75.931564 77 57 62
19.088528 17.468069 74.972832 76 56 62
18.850515 17.409864 74.038010 74 56 62
18.664337 17.395939 73.306770 72 56 61
18.664337 17.553965 73.306770 70 56 60
18.481802 17.538767 72.589836 69 55 59
18.803623 18.480984 73.853836 65 51 51
18.803623 18.640188 73.853836 65 50 50
18.803623 18.799391 73.853836 64 49 49
18.945004 19.903147 74.409126 64 49 51
18.710537 19.815237 73.488220 66 51 52
18.897642 20.173389 74.223106 67 52 53
19.185423 20.643034 75.353409 68 53 54
19.583048 21.402475 76.915138 71 56 58
19.482105 21.457102 76.518669 72 58 61
19.482105 21.622049 76.518669 73 59 63
19.583048 21.899885 76.915138 75 61 65
18.776001 -0.459716 73.126213 171 142 149
18.776001 -0.302080 73.126213 173 145 151
18.776001 -0.144445 73.126213 179 150 157
18.776001 0.013191 73.126213 186 157 164
18.776001 0.170826 73.126213 187 157 166
18.729870 0.327655 72.946541 183 154 162
18.776001 0.486097 73.126213 183 154 164
18.822363 0.645322 73.306770 186 157 167
18.776001 0.801368 73.126213 185 156 165
18.776001 0.959004 73.126213 181 153 161
18.729870 1.113896 72.946541 177 150 157
18.729870 1.271144 72.946541 173 146 152
18.683962 1.581754 72.767754 172 146 149
18.547583 1.725926 72.236603 172 148 150
18.324656 1.859028 71.368370 173 149 151
18.776001 2.062452 73.126213 175 150 154
18.683962 2.209205 72.767754 177 151 155
18.683962 2.366067 72.767754 179 151 157
18.822363 2.541618 73.306770 181 151 159
18.915773 2.713041 73.670578 184 153 161
18.822363 2.857668 73.306770 187 157 165
18.822363 3.015692 73.306770 191 161 171
18.776001 3.165900 73.126213 194 165 176
18.822363 3.331742 73.306770 192 164 174
18.822363 3.489767 73.306770 190 162 172
18.962828 3.675014 73.853836 188 161 169
18.868952 3.815236 73.488220 186 160 166
18.868952 3.973652 73.488220 184 159 163
18.915773 4.142321 73.670578 181 157 160
18.822363 4.279890 73.306770 176 154 157
18.822363 4.437915 73.306770 174 152 157
18.868952 4.607316 73.488220 173 152 157
18.822363 4.753964 73.306770 173 153 158
18.868952 4.924147 73.488220 173 153 159
18.915773 5.095175 73.670578 172 153 158
19.010117 5.280188 74.038010 169 153 155
18.915773 5.412793 73.670578 166 153 153
19.057642 5.613389 74.223106 164 154 152
19.153408 5.802401 74.596085 167 159 156
19.153408 5.963205 74.596085 174 170 167
19.201654 6.139434 74.783989 193 188 187
19.201654 6.300643 74.783989 217 213 214
19.201654 6.461853 74.783989 228 222 225
19.250143 6.639787 74.972832 218 209 212
19.250143 6.801403 74.972832 204 192 196
19.201654 6.945480 74.783989 192 176 183
19.201654 7.106689 74.783989 180 162 170
19.201654 7.267898 74.783989 173 154 162
19.201654 7.429107 74.783989 169 150 158
19.201654 7.590316 74.783989 166 147 156
19.153408 7.732049 74.596085 165 145 154
19.153408 7.892853 74.596085 165 143 153
19.105406 8.033472 74.409126 165 143 152
19.105406 8.193873 74.409126 164 142 151
19.153408 8.375265 74.596085 163 140 150
18.962828 8.451133 73.853836 162 139 149
18.915773 8.588971 73.670578 160 138 148
18.822363 8.704581 73.306770 159 137 147
19.153408 9.018481 74.596085 157 135 145
19.057642 9.133389 74.223106 154 133 143
18.915773 9.224207 73.670578 152 130 140
18.962828 9.406357 73.853836 149 128 138
18.915773 9.541825 73.670578 148 125 137
18.962828 9.724765 73.853836 145 122 134
19.010117 9.908617 74.038010 140 116 129
19.010117 10.068218 74.038010 135 111 125
19.010117 10.227819 74.038010 133 108 123
19.010117 10.387420 74.038010 132 106 122
19.153408 10.626521 74.596085 130 104 120
18.683962 10.522930 72.767754 128 102 117
18.729870 10.706033 72.946541 126 99 114
19.057642 11.053389 74.223106 126 96 111
19.201654 11.298124 74.783989 124 94 108
19.298878 11.517356 75.162636 122 91 105
19.298878 11.679381 75.162636 120 89 104
19.298878 11.841406 75.162636 117 85 100
19.250143 11.973120 74.972832 114 81 97
19.347860 12.196334 75.353409 113 79 94
19.250143 12.296352 74.972832 111 77 92
19.105406 12.364300 74.409126 111 76 89
19.250143 12.619584 74.972832 110 75 87
19.250143 12.781200 74.972832 110 76 85
19.250143 12.942817 74.972832 111 76 85
19.201654 13.071424 74.783989 112 77 85
19.105406 13.166305 74.409126 113 78 86
19.010117 13.260238 74.038010 114 79 87
19.010117 13.419839 74.038010 115 80 88
19.105406 13.647508 74.409126 115 81 89
19.955647 14.757475 77.720528 114 82 91
19.250143 14.720594 74.972832 108 82 90
19.105406 14.770314 74.409126 106 81 89
19.010117 14.856248 74.038010 105 80 88
19.153408 15.129034 74.596085 104 79 88
19.153408 15.289838 74.596085 104 77 88
19.298878 15.567988 75.162636 104 76 86
19.397091 15.810065 75.545143 102 74 84
19.496309 16.054617 75.931564 100 71 82
19.397091 16.135765 75.545143 97 68 79
19.446573 16.340193 75.737862 94 66 77
19.496309 16.545666 75.931564 91 64 74
19.647053 16.838545 76.518669 89 62 72
19.851709 17.180613 77.315735 87 61 70
19.647053 17.168442 76.518669 85 61 68
19.546299 17.244501 76.126259 83 60 67
19.546299 17.408604 76.126259 82 59 65
19.446573 17.483049 75.737862 80 58 65
19.153408 17.380291 74.596085 78 58 65
18.822363 17.237915 73.306770 76 58 64
18.683962 17.268028 72.767754 74 58 64
18.683962 17.424891 72.767754 73 58 63
18.502565 17.411057 72.061264 71 57 61
19.105406 18.619938 74.409126 65 53 53
19.105406 18.780340 74.409126 65 51 51
19.105406 18.940741 74.409126 65 50 51
19.250143 20.053928 74.972832 65 50 52
19.057642 20.013390 74.223106 67 51 54
19.347860 20.480598 75.353409 68 53 55
19.446573 20.748356 75.737862 70 55 57
19.697821 21.181797 76.716385 72 57 59
19.903542 21.570118 77.517601 74 60 62
19.851709 21.680613 77.315735 76 63 66
19.903542 21.904322 77.517601 78 65 68
18.980387 -0.460851 73.306770 164 130 139
19.027369 -0.303576 73.488220 165 132 141
19.027369 -0.145160 73.488220 169 136 145
18.980387 0.013223 73.306770 173 141 151
19.027369 0.171672 73.488220 173 141 153
18.980387 0.329273 73.306770 170 139 151
19.027369 0.488504 73.488220 171 140 153
19.074583 0.648525 73.670578 174 143 156
19.027369 0.805335 73.488220 174 144 156
19.122032 0.968546 73.853836 173 144 154
18.980387 1.119396 73.306770 171 143 153
18.980387 1.277421 73.306770 169 143 151
18.933638 1.431910 73.126213 169 143 149
