ply
format ascii 1.0
element vertex 1180
property float x
property float y
property float z
property uchar red
property uchar green
property uchar blue
end_header
20.031145 -0.525759 83.631668 23 17 17
19.974878 -0.344507 83.396751 23 16 16
19.974878 -0.164732 83.396751 25 18 17
19.974878 0.015043 83.396751 27 20 18
19.974878 0.194819 83.396751 26 21 18
20.031145 0.375649 83.631668 24 19 17
20.144636 0.559081 84.105499 24 17 17
20.087730 0.738292 83.867912 26 16 17
20.144636 0.921687 84.105499 30 14 17
20.375521 1.115632 85.069466 36 12 15
20.031145 1.277058 83.631668 44 11 14
20.259420 1.473947 84.584732 53 12 14
20.259420 1.656283 84.584732 61 14 15
20.201866 1.833396 84.344437 73 26 25
20.201866 2.015214 84.344437 111 70 68
20.259420 2.203292 84.584732 150 115 113
20.201866 2.378851 84.344437 130 99 97
20.144636 2.553415 84.105499 86 56 54
20.201866 2.742487 84.344437 75 48 47
20.144636 2.916021 84.105499 84 59 60
20.087730 3.088575 83.867912 91 66 69
20.201866 3.287942 84.344437 96 71 75
20.087730 3.450157 83.867912 97 72 76
20.144636 3.641234 84.105499 97 73 77
20.144636 3.822537 84.105499 98 73 77
20.317305 4.038158 84.826408 97 71 76
20.375521 4.233110 85.069466 93 68 73
20.375521 4.416492 85.069466 87 60 66
20.434071 4.613091 85.313911 76 49 55
20.434071 4.796999 85.313911 67 38 46
20.552187 5.009698 85.807060 65 34 44
20.611759 5.209726 86.055771 71 40 50
20.611759 5.395233 86.055771 79 49 62
20.611759 5.580740 86.055771 86 58 71
20.611759 5.766248 86.055771 93 69 82
20.976568 6.057096 87.578888 106 86 99
21.101059 6.282954 88.098640 121 105 116
21.227036 6.511509 88.624603 130 118 128
21.290588 6.722621 88.889946 135 125 136
21.101059 6.852687 88.098640 142 132 144
20.914873 6.980457 87.321304 150 138 150
20.731943 7.105993 86.557556 156 142 155
20.671677 7.271382 86.305939 159 140 154
20.611759 7.435813 86.055771 156 133 147
20.611759 7.621320 86.055771 147 121 134
20.552187 7.784265 85.807060 139 111 123
20.492958 7.946270 85.559776 139 108 119
20.434071 8.107344 85.313911 143 110 120
20.259420 8.220386 84.584732 144 112 121
20.144636 8.355115 84.105499 142 111 120
20.087730 8.512303 83.867912 142 110 120
20.087730 8.693094 83.867912 143 112 122
20.031145 8.848888 83.631668 146 116 126
19.863287 8.953506 82.930847 149 119 129
20.087730 9.235467 83.867912 149 120 129
20.259420 9.496739 84.584732 149 120 129
20.552187 9.818947 85.807060 149 119 127
20.671677 10.062079 86.305939 149 118 124
20.552187 10.188889 85.807060 148 117 121
20.731943 10.464593 86.557556 143 113 115
20.731943 10.651182 86.557556 150 121 121
20.671677 10.806266 86.305939 170 141 140
20.611759 10.960450 86.055771 175 146 144
20.611759 11.145958 86.055771 167 139 137
20.611759 11.331465 86.055771 164 139 138
20.552187 11.483686 85.807060 163 143 143
20.492958 11.635030 85.559776 159 146 144
20.434071 11.785504 85.313911 154 148 147
20.375521 11.935116 85.069466 150 151 152
20.375521 12.118497 85.069466 147 154 158
20.259420 12.231782 84.584732 152 162 170
20.201866 12.378851 84.344437 176 184 196
20.259420 12.596455 84.584732 204 208 221
20.259420 12.778790 84.584732 202 201 218
20.259420 12.961126 84.584732 175 168 194
20.201866 13.106124 84.344437 158 147 178
20.087730 13.212869 83.867912 162 147 179
20.087730 13.393660 83.867912 174 156 185
20.144636 13.612905 84.105499 179 159 185
20.087730 13.755241 83.867912 179 157 179
20.087730 13.936032 83.867912 178 155 173
20.201866 14.197033 84.344437 177 153 168
20.201866 14.378851 84.344437 179 156 168
20.201866 14.560669 84.344437 182 160 170
20.317305 14.826730 84.826408 179 160 169
20.317305 15.009587 84.826408 176 158 169
20.259420 15.149161 84.584732 170 155 168
20.259420 15.331497 84.584732 164 151 167
20.375521 15.602737 85.069466 162 150 169
20.259420 15.696170 84.584732 162 148 170
20.031145 15.699593 83.631668 166 149 172
20.031145 15.879874 83.631668 183 161 182
20.031145 16.060156 83.631668 202 174 189
20.031145 16.240438 83.631668 207 172 179
19.863287 16.283115 82.930847 204 163 159
19.863287 16.461887 82.930847 205 162 146
19.863287 16.640657 82.930847 205 161 134
19.918926 17.225086 83.163147 203 175 145
19.974878 17.453245 83.396751 186 161 136
20.317305 17.935301 84.826408 156 132 116
20.259420 18.066540 84.584732 150 130 123
20.201866 18.197033 84.344437 151 134 133
20.317305 18.483873 84.826408 149 132 135
20.492958 18.828114 85.559776 145 129 134
20.375521 18.903597 85.069466 143 126 133
20.492958 19.196989 85.559776 141 124 131
20.317305 19.215302 84.826408 138 122 130
20.201866 19.287941 84.344437 136 119 129
20.031145 19.305227 83.631668 133 117 128
19.863287 19.322222 82.930847 130 115 126
19.863287 19.500994 82.930847 127 112 123
19.752935 19.570433 82.470116 124 108 120
19.863287 19.858536 82.930847 121 105 117
19.863287 20.037306 82.930847 118 101 114
19.752935 20.103765 82.470116 115 97 110
19.698217 20.225361 82.241669 113 94 107
19.698217 20.402647 82.241669 110 90 103
19.643803 20.523081 82.014481 108 88 100
19.752935 20.814877 82.470116 107 87 97
19.752935 20.992655 82.470116 104 84 93
19.535870 20.937790 81.563850 100 81 88
19.643803 21.230265 82.014481 97 79 84
19.643803 21.407059 82.014481 96 78 82
19.589687 21.524395 81.788544 93 75 80
19.698217 21.820929 82.241669 88 68 74
19.752935 22.059320 82.470116 81 61 68
19.752935 22.237099 82.470116 91 69 78
19.752935 22.414877 82.470116 116 92 102
19.752935 22.592653 82.470116 127 104 115
19.752935 22.770432 82.470116 112 90 100
19.807957 23.012133 82.699837 83 64 74
19.918926 23.320324 83.163147 70 52 62
19.863287 23.433954 82.930847 69 54 63
19.974878 23.745380 83.396751 68 54 63
20.375521 24.405029 85.069466 66 54 62
20.031145 24.172832 83.631668 65 54 60
20.087730 24.421907 83.867912 64 55 59
20.611759 25.244509 86.055771 63 55 58
20.211428 -0.525759 83.631668 22 18 18
20.211428 -0.345478 83.631668 23 18 17
20.211428 -0.165196 83.631668 28 21 19
20.211428 0.015086 83.631668 33 27 24
20.211428 0.195368 83.631668 33 27 24
20.268522 0.376710 83.867912 26 21 18
20.325939 0.559081 84.105499 23 17 16
20.325939 0.740384 84.105499 25 17 16
20.268522 0.919083 83.867912 29 16 17
20.441757 1.109275 84.584732 34 14 16
20.154654 1.273470 83.396751 40 13 15
20.383684 1.469760 84.344437 48 14 16
20.325939 1.646899 84.105499 55 15 17
20.325939 1.828202 84.105499 63 22 23
20.383684 2.015214 84.344437 83 43 42
20.441757 2.203292 84.584732 103 67 65
20.383684 2.378851 84.344437 98 66 64
20.325939 2.553415 84.105499 83 53 52
20.383684 2.742487 84.344437 82 55 55
20.325939 2.916021 84.105499 89 63 64
20.325939 3.097324 84.105499 96 69 73
20.441757 3.297309 84.584732 100 74 78
20.383684 3.469760 84.344437 99 73 78
20.441757 3.661981 84.584732 98 73 78
20.441757 3.844318 84.584732 100 74 79
20.558901 4.049729 85.069466 101 73 80
20.558901 4.233110 85.069466 96 69 76
20.558901 4.416492 85.069466 87 60 67
20.617979 4.613091 85.313911 77 49 56
20.617979 4.796999 85.313911 70 40 48
20.737158 5.009698 85.807060 70 38 48
20.797266 5.209726 86.055771 75 43 55
20.797266 5.395233 86.055771 82 51 64
20.797266 5.580740 86.055771 87 58 71
20.737158 5.749582 85.807060 91 66 80
21.041222 6.021570 87.065224 103 82 94
21.165359 6.245886 87.578888 117 101 111
21.354336 6.492129 88.360840 128 115 125
21.482206 6.722621 88.889946 134 123 134
21.354336 6.873082 88.360840 139 128 139
21.103107 6.980457 87.321304 145 133 145
20.979698 7.126770 86.810646 151 137 149
20.857723 7.271382 86.305939 155 137 150
20.797266 7.435813 86.055771 154 133 146
20.857723 7.643475 86.305939 147 123 135
20.737158 7.784265 85.807060 139 112 123
20.737158 7.969235 85.807060 137 108 118
20.677397 8.130708 85.559776 141 111 120
20.500162 8.243873 84.826408 144 114 122
20.325939 8.355115 84.105499 143 114 121
20.211428 8.488325 83.631668 142 112 121
20.268522 8.693094 83.867912 143 113 122
20.211428 8.848888 83.631668 147 118 126
19.986231 8.928567 82.699837 151 121 130
20.211428 9.209452 83.631668 152 123 130
20.325939 9.442933 84.105499 152 123 129
20.441757 9.679075 84.584732 152 122 128
20.737158 10.003918 85.807060 152 120 126
20.617979 10.130332 85.313911 151 119 123
20.857723 10.434173 86.305939 148 117 120
20.797266 10.589437 86.055771 148 117 119
20.797266 10.774943 86.055771 154 122 124
20.737158 10.928773 85.807060 160 127 129
20.737158 11.113744 85.807060 163 132 133
20.737158 11.298716 85.807060 165 137 138
20.677397 11.450592 85.559776 164 140 141
20.677397 11.635030 85.559776 163 146 145
20.617979 11.785504 85.313911 161 151 150
20.558901 11.935116 85.069466 152 148 148
20.500162 12.083873 84.826408 143 144 147
20.441757 12.231782 84.584732 156 158 166
20.383684 12.378851 84.344437 194 196 204
20.441757 12.596455 84.584732 221 220 230
20.383684 12.742487 84.344437 200 196 212
20.441757 12.961126 84.584732 163 153 178
20.383684 13.106124 84.344437 159 143 173
20.268522 13.212869 83.867912 173 155 185
20.268522 13.393660 83.867912 178 159 185
20.325939 13.612905 84.105499 176 155 179
20.268522 13.755241 83.867912 175 152 173
20.268522 13.936032 83.867912 175 151 168
20.383684 14.197033 84.344437 175 150 165
20.383684 14.378851 84.344437 178 154 166
20.383684 14.560669 84.344437 181 159 169
20.500162 14.826730 84.826408 180 158 169
20.441757 14.966825 84.584732 173 154 167
20.383684 15.106124 84.344437 165 148 163
20.441757 15.331497 84.584732 156 142 160
20.500162 15.558159 84.826408 153 140 162
20.383684 15.651578 84.344437 159 144 168
20.211428 15.699593 83.631668 165 148 172
20.268522 15.924733 83.867912 178 157 178
20.211428 16.060156 83.631668 195 168 184
20.268522 16.286314 83.867912 199 166 174
20.098198 16.328728 83.163147 191 151 151
20.098198 16.507999 83.163147 192 147 137
20.098198 16.687271 83.163147 191 144 125
20.211428 16.961565 83.631668 178 132 108
20.154654 17.273470 83.396751 220 198 178
20.268522 17.551851 83.867912 205 181 165
20.558901 17.986692 85.069466 155 127 115
20.500162 18.118158 84.826408 145 122 117
20.441757 18.248877 84.584732 150 130 131
20.558901 18.536835 85.069466 147 128 133
20.617979 18.957918 85.313911 141 123 131
20.677397 19.196989 85.559776 140 122 131
20.558901 19.270359 85.069466 139 121 130
20.441757 19.342894 84.584732 137 119 130
20.211428 19.305227 83.631668 134 117 129
20.042057 19.322222 82.930847 131 115 127
20.042057 19.500994 82.930847 128 112 125
19.930714 19.570433 82.470116 125 108 122
20.042057 19.858536 82.930847 122 105 118
19.986231 19.981491 82.699837 119 100 115
19.875504 20.048077 82.241669 116 96 112
19.820599 20.169491 82.014481 113 93 107
19.820599 20.346287 82.014481 111 90 103
19.765997 20.466543 81.788544 108 87 99
19.875504 20.757217 82.241669 106 85 95
19.875504 20.934504 82.241669 104 83 91
19.657690 20.880426 81.340393 101 82 88
19.820599 21.230265 82.014481 100 81 86
19.765997 21.348087 81.788544 99 80 85
19.711695 21.465261 81.563850 95 77 81
19.875504 21.820929 82.241669 90 71 76
19.875504 21.998215 82.241669 86 65 72
19.875504 22.175499 82.241669 91 68 76
19.875504 22.352785 82.241669 103 79 89
19.930714 22.592653 82.470116 108 84 94
19.930714 22.770432 82.470116 97 74 83
19.930714 22.948210 82.470116 80 59 67
20.098198 23.320324 83.163147 72 54 62
20.042057 23.433954 82.930847 71 54 61
20.211428 23.812269 83.631668 68 53 60
20.617979 24.475159 85.313911 66 53 59
20.383684 24.378851 84.344437 64 54 58
20.441757 24.630642 84.584732 63 53 57
20.449312 -0.346453 83.867912 24 19 18
20.391708 -0.165196 83.631668 29 23 21
20.391708 0.015086 83.631668 38 32 28
20.449312 0.195919 83.867912 38 32 29
20.507242 0.377778 84.105499 29 24 20
20.507242 0.559081 84.105499 23 18 15
20.565502 0.742487 84.344437 26 19 16
20.449312 0.919083 83.867912 29 19 17
20.624092 1.109275 84.584732 32 17 17
20.391708 1.277058 83.631668 37 16 16
20.565502 1.469760 84.344437 43 17 17
20.507242 1.646899 84.105499 49 18 19
20.507242 1.828202 84.105499 55 21 22
20.624092 2.020956 84.584732 64 30 30
20.624092 2.203292 84.584732 76 43 43
20.565502 2.378851 84.344437 83 52 52
20.507242 2.553415 84.105499 86 56 56
20.565502 2.742487 84.344437 89 61 61
20.507242 2.916021 84.105499 95 66 68
20.507242 3.097324 84.105499 100 73 75
20.624092 3.297309 84.584732 103 75 79
20.565502 3.469760 84.344437 100 74 78
20.624092 3.661981 84.584732 99 73 79
20.683020 3.855301 84.826408 102 75 82
20.683020 4.038158 84.826408 103 75 83
20.742283 4.233110 85.069466 98 70 78
20.742283 4.416492 85.069466 86 58 66
20.742283 4.599873 85.069466 76 46 55
20.742283 4.783254 85.069466 71 40 50
20.922129 5.009698 85.807060 74 42 53
20.982773 5.209726 86.055771 81 48 61
20.982773 5.395233 86.055771 87 55 68
20.922129 5.564611 85.807060 89 61 75
20.922129 5.749582 85.807060 92 66 80
21.043770 5.969057 86.305939 100 78 90
21.228905 6.209254 87.065224 114 96 107
21.417328 6.453714 87.837997 126 111 122
21.673822 6.722621 88.889946 133 120 131
21.544811 6.873082 88.360840 136 124 135
21.291344 6.980457 87.321304 140 128 140
21.166832 7.126770 86.810646 146 131 144
21.043770 7.271382 86.305939 151 132 145
20.982773 7.435813 86.055771 151 131 143
21.043770 7.643475 86.305939 147 124 136
20.982773 7.806828 86.055771 139 115 125
20.922129 7.969235 85.807060 133 107 116
20.861835 8.130708 85.559776 137 110 117
20.683020 8.243873 84.826408 143 116 123
20.507242 8.355115 84.105499 145 118 124
20.391708 8.488325 83.631668 143 115 122
20.391708 8.668607 83.631668 143 114 122
20.334429 8.824032 83.396751 147 118 125
20.164503 8.928567 82.699837 152 122 130
20.391708 9.209452 83.631668 154 125 131
20.449312 9.416259 83.867912 155 125 130
20.507242 9.624236 84.105499 155 124 130
20.801888 9.946424 85.313911 155 122 128
20.742283 10.101305 85.069466 153 120 126
20.982773 10.403929 86.055771 151 118 124
20.982773 10.589437 86.055771 150 116 122
20.982773 10.774943 86.055771 150 117 123
20.861835 10.897278 85.559776 153 119 125
20.861835 11.081716 85.559776 159 125 130
20.922129 11.298716 85.807060 162 131 136
20.861835 11.450592 85.559776 164 138 141
20.801888 11.601596 85.313911 175 154 155
20.801888 11.785504 85.313911 183 169 170
20.742283 11.935116 85.069466 167 158 160
20.742283 12.118497 85.069466 143 137 142
20.624092 12.231782 84.584732 151 146 154
20.624092 12.414118 84.584732 191 187 195
20.624092 12.596455 84.584732 218 213 222
20.624092 12.778790 84.584732 203 194 208
20.624092 12.961126 84.584732 173 160 182
20.565502 13.106124 84.344437 169 153 177
20.449312 13.212869 83.867912 179 159 183
20.507242 13.431602 84.105499 179 159 181
20.507242 13.612905 84.105499 174 153 173
20.449312 13.755241 83.867912 171 149 167
20.391708 13.896776 83.631668 173 150 165
20.565502 14.197033 84.344437 174 150 164
20.565502 14.378851 84.344437 177 153 165
20.507242 14.519421 84.105499 180 155 167
20.624092 14.784489 84.584732 179 155 167
20.624092 14.966825 84.584732 174 152 166
20.507242 15.063330 84.105499 166 146 163
20.565502 15.287942 84.344437 153 135 156
20.624092 15.513833 84.584732 148 131 155
20.507242 15.607240 84.105499 164 146 171
20.391708 15.699593 83.631668 181 162 187
20.449312 15.924733 83.867912 191 169 191
20.449312 16.105524 83.867912 202 176 192
20.449312 16.286314 83.867912 204 173 182
20.334429 16.374594 83.396751 189 149 151
20.334429 16.554369 83.396751 176 132 126
20.334429 16.734144 83.396751 177 129 116
20.449312 17.371061 83.867912 222 202 185
20.565502 17.651579 84.344437 204 181 167
20.801888 18.038378 85.313911 155 128 117
20.801888 18.222286 85.313911 144 118 115
20.742283 18.353455 85.069466 149 126 128
20.801888 18.590101 85.313911 147 126 132
20.861835 19.012552 85.559776 141 121 130
20.922129 19.252472 85.807060 140 120 131
20.742283 19.270359 85.069466 139 120 131
20.683020 19.398159 84.826408 137 119 130
20.334429 19.250999 83.396751 135 117 130
20.220829 19.322222 82.930847 132 115 128
20.220829 19.500994 82.930847 129 112 126
20.108490 19.570433 82.470116 126 108 123
20.277470 19.914162 83.163147 123 104 119
20.164503 19.981491 82.699837 119 99 115
20.052788 20.048077 82.241669 116 96 112
19.997395 20.169491 82.014481 114 92 107
20.052788 20.402647 82.241669 111 89 103
19.942305 20.466543 81.788544 109 87 100
20.108490 20.814877 82.470116 106 85 96
20.052788 20.934504 82.241669 104 83 92
19.833033 20.880426 81.340393 102 82 89
19.942305 21.171778 81.788544 101 82 87
19.942305 21.348087 81.788544 100 81 86
19.887518 21.465261 81.563850 97 78 83
19.997395 21.760651 82.014481 93 73 79
19.997395 21.937447 82.014481 89 67 75
19.997395 22.114243 82.014481 89 67 75
20.052788 22.352785 82.241669 93 69 78
20.108490 22.592653 82.470116 93 70 78
20.108490 22.770432 82.470116 87 65 73
20.108490 22.948210 82.470116 80 58 65
20.220829 23.255182 82.930847 75 55 62
20.220829 23.433954 82.930847 72 54 60
20.449312 23.879536 83.867912 68 53 59
20.801888 24.475159 85.313911 65 52 58
20.683020 24.518158 84.826408 63 51 56
20.742283 24.771791 85.069466 62 51 56
20.630104 -0.165663 83.867912 29 24 22
20.571991 0.015086 83.631668 37 31 29
20.688545 0.196474 84.105499 39 33 29
20.688545 0.377778 84.105499 30 24 21
20.688545 0.559081 84.105499 25 19 15
20.806429 0.744603 84.584732 27 21 18
20.688545 0.921687 84.105499 30 23 20
20.806429 1.109275 84.584732 31 20 18
20.630104 1.280665 83.867912 34 18 17
20.747320 1.469760 84.344437 38 18 19
20.688545 1.646899 84.105499 44 19 21
20.688545 1.828202 84.105499 49 22 24
20.865875 2.026730 84.826408 57 28 30
20.865875 2.209587 84.826408 68 39 40
20.806429 2.385628 84.584732 81 51 52
20.747320 2.560669 84.344437 90 61 61
20.747320 2.742487 84.344437 95 66 67
20.630104 2.907784 83.867912 99 70 72
20.688545 3.097324 84.105499 103 74 76
20.806429 3.297309 84.584732 104 75 79
20.688545 3.459930 84.105499 101 74 79
20.747320 3.651578 84.344437 101 74 81
20.865875 3.855301 84.826408 103 75 84
20.806429 4.026654 84.584732 104 77 85
20.865875 4.221015 84.826408 98 70 79
20.865875 4.403873 84.826408 86 57 66
20.806429 4.573662 84.584732 76 46 55
20.865875 4.769587 84.826408 74 42 53
21.107100 5.009698 85.807060 78 46 57
21.107100 5.194669 85.807060 85 52 65
21.046272 5.364137 85.559776 90 58 71
21.107100 5.564611 85.807060 93 63 77
21.046272 5.733013 85.559776 94 67 81
21.168280 5.951755 86.055771 99 74 88
21.291710 6.173048 86.557556 113 92 103
21.479578 6.415751 87.321304 126 108 119
21.735287 6.682606 88.360840 133 117 129
21.670792 6.852687 88.098640 135 121 133
21.479578 6.980457 87.321304 137 123 135
21.291710 7.105993 86.557556 142 127 139
21.229816 7.271382 86.305939 146 129 142
21.168280 7.435813 86.055771 148 129 141
21.229816 7.643475 86.305939 147 125 137
21.168280 7.806828 86.055771 139 117 127
21.107100 7.969235 85.807060 130 105 114
21.107100 8.154206 85.807060 132 107 115
20.925663 8.267494 85.069466 141 115 122
20.688545 8.355115 84.105499 144 118 124
20.571991 8.488325 83.631668 142 116 122
20.571991 8.668607 83.631668 142 115 121
20.571991 8.848888 83.631668 146 118 125
20.399599 8.953506 82.930847 152 123 130
20.514204 9.183582 83.396751 155 126 132
20.630104 9.416259 83.867912 157 127 132
20.630104 9.597050 83.867912 158 126 132
20.865875 9.889587 84.826408 157 124 131
20.865875 10.072444 84.826408 155 121 128
21.107100 10.373859 85.807060 153 118 126
21.107100 10.558831 85.807060 152 117 125
21.107100 10.743802 85.807060 151 117 125
21.046272 10.897278 85.559776 152 117 125
21.046272 11.081716 85.559776 155 120 128
21.046272 11.266154 85.559776 158 124 132
21.046272 11.450592 85.559776 163 133 139
20.985794 11.601596 85.313911 185 161 164
20.925663 11.751735 85.069466 205 189 192
20.925663 11.935116 85.069466 188 176 180
20.925663 12.118497 85.069466 151 139 145
20.865875 12.266730 84.826408 146 133 142
20.806429 12.414118 84.584732 173 160 171
20.806429 12.596455 84.584732 194 181 194
20.806429 12.778790 84.584732 192 177 193
20.806429 12.961126 84.584732 181 164 182
20.747320 13.106124 84.344437 180 160 180
20.688545 13.250299 84.105499 181 161 180
20.688545 13.431602 84.105499 179 159 176
20.747320 13.651578 84.344437 175 155 171
20.630104 13.755241 83.867912 173 152 166
20.571991 13.896776 83.631668 174 152 165
20.747320 14.197033 84.344437 176 152 164
20.747320 14.378851 84.344437 177 153 164
20.688545 14.519421 84.105499 179 154 166
20.806429 14.784489 84.584732 179 155 167
20.806429 14.966825 84.584732 178 154 168
20.630104 15.020778 83.867912 174 150 167
20.688545 15.244633 84.105499 159 137 158
20.747320 15.469760 84.344437 148 126 149
20.688545 15.607240 84.105499 166 144 169
20.571991 15.699593 83.631668 199 178 201
20.688545 15.969846 84.105499 214 194 212
20.630104 16.105524 83.867912 215 192 205
20.630104 16.286314 83.867912 208 179 186
20.514204 16.374594 83.396751 181 145 147
20.571991 16.601002 83.631668 159 118 114
20.571991 16.781282 83.631668 163 121 110
20.747320 17.106123 84.344437 170 128 111
20.747320 17.287941 84.344437 184 150 131
20.688545 17.420271 84.105499 211 185 169
20.806429 17.701868 84.584732 197 172 158
20.985794 18.038378 85.313911 161 134 125
20.925663 18.170073 85.069466 149 123 121
20.865875 18.301016 84.826408 149 126 129
20.985794 18.590101 85.313911 148 126 133
21.046272 19.012552 85.559776 142 122 132
21.107100 19.252472 85.807060 141 121 132
20.985794 19.325733 85.313911 140 120 132
20.925663 19.453741 85.069466 138 119 131
20.456741 19.197075 83.163147 136 117 131
20.399599 19.322222 82.930847 133 115 129
20.399599 19.500994 82.930847 130 112 127
20.286268 19.570433 82.470116 127 108 123
20.571991 20.026354 83.631668 123 103 119
20.399599 20.037306 82.930847 120 99 116
20.230074 20.048077 82.241669 117 95 112
20.286268 20.281544 82.470116 114 92 108
20.399599 20.573618 82.930847 112 89 105
20.230074 20.579931 82.241669 110 87 101
20.399599 20.931160 82.930847 108 86 97
20.286268 20.992655 82.470116 106 85 94
20.174191 21.053469 82.014481 104 84 91
20.174191 21.230265 82.014481 103 82 89
20.174191 21.407059 82.014481 102 82 87
20.063343 21.465261 81.563850 99 79 85
20.174191 21.760651 82.014481 95 74 81
20.174191 21.937447 82.014481 91 69 77
20.174191 22.114243 82.014481 89 67 74
20.174191 22.291037 82.014481 88 66 73
20.286268 22.592653 82.470116 87 64 71
20.230074 22.707355 82.241669 83 62 66
20.230074 22.884642 82.241669 79 58 63
20.342775 23.190405 82.699837 76 55 59
20.342775 23.368679 82.699837 72 53 58
20.688545 23.947182 84.105499 69 52 56
21.046272 24.545692 85.559776 66 50 55
20.985794 24.659067 85.313911 63 49 54
21.046272 24.914570 85.559776 61 49 54
20.810894 -0.165663 83.867912 28 24 23
20.810894 0.015128 83.867912 34 29 27
20.869848 0.196474 84.105499 36 30 27
20.869848 0.377778 84.105499 30 25 22
20.869848 0.559081 84.105499 26 22 18
20.988766 0.744603 84.584732 30 24 20
20.810894 0.919083 83.867912 33 25 22
20.988766 1.109275 84.584732 32 22 19
20.869848 1.284293 84.105499 33 20 19
20.929138 1.469760 84.344437 37 19 20
20.869848 1.646899 84.105499 42 20 22
20.810894 1.823038 83.867912 48 22 26
21.048733 2.026730 84.826408 55 27 31
21.048733 2.209587 84.826408 66 37 40
20.929138 2.378851 84.344437 81 51 54
20.929138 2.560669 84.344437 93 63 65
20.869848 2.734718 84.105499 99 69 72
20.752272 2.899593 83.631668 102 73 75
20.810894 3.088575 83.867912 104 75 78
20.929138 3.287942 84.344437 104 76 80
20.752272 3.440438 83.631668 103 76 82
20.869848 3.641234 84.105499 102 76 84
20.929138 3.833396 84.344437 104 77 86
20.929138 4.015214 84.344437 104 77 87
20.929138 4.197032 84.344437 98 70 80
20.929138 4.378851 84.344437 86 57 66
20.869848 4.547749 84.105499 78 48 57
20.988766 4.755999 84.584732 78 47 57
21.230711 4.995261 85.559776 83 50 61
21.230711 5.179699 85.559776 89 56 68
21.230711 5.364137 85.559776 93 61 73
21.292070 5.564611 85.807060 96 66 79
21.230711 5.733013 85.559776 98 69 83
21.353786 5.951755 86.055771 101 75 89
21.415863 6.155103 86.305939 112 89 102
21.541101 6.378232 86.810646 125 105 117
21.796026 6.643064 87.837997 133 115 127
21.796026 6.832413 87.837997 136 119 131
21.604271 6.959987 87.065224 138 121 134
21.478300 7.105993 86.557556 141 123 137
21.415863 7.271382 86.305939 145 126 139
21.415863 7.457428 86.305939 147 127 140
21.415863 7.643475 86.305939 147 124 137
21.353786 7.806828 86.055771 138 114 125
21.353786 7.992335 86.055771 129 103 113
21.292070 8.154206 85.807060 130 105 113
21.169703 8.291251 85.313911 140 114 121
20.988766 8.402722 84.584732 144 118 125
20.810894 8.512303 83.867912 142 115 122
20.810894 8.693094 83.867912 141 115 121
20.929138 8.924305 84.344437 146 118 125
20.693979 9.003807 83.396751 152 123 130
20.752272 9.209452 83.631668 156 127 133
20.869848 9.442933 84.105499 159 129 135
20.988766 9.679075 84.584732 160 128 134
21.109045 9.917924 85.069466 158 126 133
21.109045 10.101305 85.069466 156 123 130
21.415863 10.434173 86.305939 154 120 128
21.353786 10.589437 86.055771 153 119 128
21.353786 10.774943 86.055771 152 117 127
21.292070 10.928773 85.807060 151 116 126
21.230711 11.081716 85.559776 152 116 127
21.230711 11.266154 85.559776 154 118 130
21.230711 11.450592 85.559776 159 124 136
21.169703 11.601596 85.313911 180 150 160
21.109045 11.751735 85.069466 205 183 189
21.169703 11.969412 85.313911 198 181 187
21.109045 12.118497 85.069466 167 147 157
21.048733 12.266730 84.826408 151 129 143
21.048733 12.449587 84.826408 158 138 153
21.048733 12.632444 84.826408 168 148 164
21.048733 12.815301 84.826408 172 153 168
21.048733 12.998158 84.826408 175 155 171
20.988766 13.143463 84.584732 179 158 174
20.869848 13.250299 84.105499 180 159 174
20.929138 13.469760 84.344437 179 159 172
20.929138 13.651578 84.344437 178 157 170
20.752272 13.716495 83.631668 177 156 166
20.752272 13.896776 83.631668 177 155 165
20.929138 14.197033 84.344437 177 153 163
20.929138 14.378851 84.344437 177 153 163
20.869848 14.519421 84.105499 181 156 166
20.929138 14.742487 84.344437 185 160 170
20.929138 14.924305 84.344437 187 161 173
20.810894 15.020778 83.867912 187 161 176
20.869848 15.244633 84.105499 174 148 167
20.929138 15.469760 84.344437 155 128 150
20.869848 15.607240 84.105499 162 137 159
20.752272 15.699593 83.631668 201 181 197
20.869848 15.969846 84.105499 228 213 223
20.869848 16.151148 84.105499 223 204 211
20.810894 16.286314 83.867912 199 171 176
20.752272 16.420719 83.631668 168 133 135
20.810894 16.647898 83.867912 147 110 106
20.810894 16.828688 83.867912 155 116 108
20.929138 17.106123 84.344437 168 131 118
20.929138 17.287941 84.344437 178 145 131
20.869848 17.420271 84.105499 191 163 149
20.929138 17.651579 84.344437 183 157 146
21.169703 18.038378 85.313911 163 138 132
21.109045 18.170073 85.069466 154 129 129
20.988766 18.248877 84.584732 152 128 133
21.109045 18.536835 85.069466 150 128 136
21.292070 18.882530 85.807060 147 127 136
21.169703 18.957918 85.313911 145 125 135
21.230711 19.196989 85.559776 143 123 135
21.169703 19.325733 85.313911 141 121 134
21.109045 19.453741 85.069466 139 120 133
20.636013 19.197075 83.163147 137 118 132
20.578371 19.322222 82.930847 134 116 131
20.578371 19.500994 82.930847 130 112 127
20.521049 19.624945 82.699837 126 108 123
20.810894 20.082926 83.867912 122 104 118
20.636013 20.093433 83.163147 119 99 115
20.464046 20.103765 82.470116 117 95 112
20.752272 20.567198 83.631668 114 92 108
20.693979 20.689201 83.396751 113 90 105
20.521049 20.694584 82.699837 111 88 102
20.693979 21.048752 83.396751 109 87 99
20.464046 20.992655 82.470116 108 86 96
20.407358 21.111788 82.241669 106 86 93
20.407358 21.289074 82.241669 105 84 91
20.407358 21.466358 82.241669 103 83 89
20.294922 21.524395 81.788544 101 80 86
20.350985 21.760651 82.014481 97 76 83
20.350985 21.937447 82.014481 93 72 79
20.350985 22.114243 82.014481 90 68 75
20.350985 22.291037 82.014481 88 67 73
20.407358 22.530071 82.241669 86 64 70
20.407358 22.707355 82.241669 83 61 66
20.407358 22.884642 82.241669 78 57 61
20.407358 23.061926 82.241669 75 54 58
20.407358 23.239212 82.241669 71 52 55
20.636013 23.678867 83.163147 68 50 54
21.109045 24.405029 85.069466 64 49 53
21.169703 24.659067 85.313911 62 48 52
20.932554 0.015086 83.631668 31 28 27
20.991686 0.195919 83.867912 34 30 29
20.991686 0.376710 83.867912 33 28 27
20.991686 0.557501 83.867912 31 25 23
21.110956 0.742487 84.344437 32 25 23
20.991686 0.919083 83.867912 33 25 22
21.110956 1.106123 84.344437 33 23 20
21.110956 1.287942 84.344437 34 21 20
20.991686 1.461456 83.867912 38 20 21
20.932554 1.637621 83.631668 42 20 23
20.991686 1.823038 83.867912 47 22 26
21.231590 2.026730 84.826408 53 25 29
21.171101 2.203292 84.584732 63 33 37
21.110956 2.378851 84.344437 80 49 53
21.110956 2.560669 84.344437 97 66 69
20.991686 2.726993 83.867912 104 74 77
20.815285 2.883349 83.163147 107 77 80
20.932554 3.079875 83.631668 107 77 81
20.932554 3.260156 83.631668 105 76 83
20.873755 3.430774 83.396751 105 76 85
20.932554 3.620720 83.631668 105 77 87
20.991686 3.811739 83.867912 106 78 89
20.991686 3.992530 83.867912 108 79 90
21.051151 4.185143 84.105499 100 71 81
20.991686 4.354112 83.867912 86 55 65
20.932554 4.522128 83.631668 80 49 58
21.051151 4.729053 84.105499 85 52 62
21.353611 4.980906 85.313911 89 55 65
21.415150 5.179699 85.559776 93 59 70
21.415150 5.364137 85.559776 97 65 76
21.477043 5.564611 85.807060 100 69 82
21.415150 5.733013 85.559776 101 72 86
21.539295 5.951755 86.055771 103 76 90
21.601910 6.155103 86.305939 112 87 101
21.664888 6.359637 86.557556 124 102 116
21.856049 6.603987 87.321304 133 111 126
21.985374 6.832413 87.837997 136 116 130
21.791954 6.959987 87.065224 137 119 133
21.664888 7.105993 86.557556 140 121 136
21.601910 7.271382 86.305939 144 123 138
21.601910 7.457428 86.305939 146 124 138
21.664888 7.665760 86.557556 144 120 134
21.601910 7.829522 86.305939 137 113 124
21.539295 7.992335 86.055771 129 104 114
21.539295 8.177842 86.055771 131 105 113
21.415150 8.315145 85.559776 141 115 122
21.292425 8.450875 85.069466 146 120 126
21.171101 8.585058 84.584732 144 117 124
21.171101 8.767394 84.584732 141 115 122
21.292425 9.001019 85.069466 144 118 125
21.110956 9.106124 84.344437 150 122 129
21.110956 9.287942 84.344437 156 127 134
21.051151 9.442933 84.105499 160 130 137
21.353611 9.762516 85.313911 160 130 137
21.415150 9.975088 85.559776 159 128 136
21.415150 10.159526 85.559776 158 126 134
21.728235 10.495192 86.810646 156 123 132
21.664888 10.651182 86.557556 155 121 131
21.664888 10.837771 86.557556 154 119 130
21.539295 10.960450 86.055771 153 117 129
21.477043 11.113744 85.807060 153 115 129
21.477043 11.298716 85.807060 153 115 130
21.477043 11.483686 85.807060 154 116 133
21.415150 11.635030 85.559776 165 128 145
21.353611 11.785504 85.313911 187 155 169
21.353611 11.969412 85.313911 200 172 185
21.353611 12.153320 85.313911 188 160 175
21.292425 12.301878 85.069466 166 137 154
21.292425 12.485259 85.069466 157 129 146
21.292425 12.668640 85.069466 159 134 149
21.292425 12.852021 85.069466 163 139 154
21.292425 13.035402 85.069466 167 145 158
21.292425 13.218783 85.069466 172 150 163
21.171101 13.325799 84.584732 175 154 165
21.171101 13.508135 84.584732 176 155 166
21.231590 13.729587 84.826408 178 157 166
20.991686 13.755241 83.867912 178 157 166
20.991686 13.936032 83.867912 178 156 164
21.171101 14.237480 84.584732 176 153 161
21.171101 14.419816 84.584732 176 152 161
21.051151 14.519421 84.105499 183 158 166
21.110956 14.742487 84.344437 194 168 176
21.110956 14.924305 84.344437 200 173 183
20.991686 15.020778 83.867912 202 173 186
21.051151 15.244633 84.105499 191 162 178
21.110956 15.469760 84.344437 170 139 157
21.110956 15.651578 84.344437 163 133 151
20.991686 15.743942 83.867912 188 165 177
21.171101 16.060843 84.584732 216 199 205
21.110956 16.197033 84.344437 213 193 197
21.051151 16.332451 84.105499 186 155 163
20.991686 16.467106 83.867912 160 124 130
21.051151 16.695059 84.105499 146 112 112
21.051151 16.876362 84.105499 151 117 113
21.171101 17.154860 84.584732 164 133 125
21.110956 17.287941 84.344437 174 145 136
21.051151 17.420271 84.105499 180 153 144
21.110956 17.651579 84.344437 174 149 143
21.292425 17.986692 85.069466 163 139 136
21.171101 18.066540 84.584732 157 133 135
21.110956 18.197033 84.344437 155 132 136
21.231590 18.483873 84.826408 152 131 138
21.415150 18.828114 85.559776 150 130 139
21.231590 18.849586 84.826408 148 128 138
21.292425 19.086979 85.069466 145 127 137
21.292425 19.270359 85.069466 143 125 136
21.292425 19.453741 85.069466 140 122 135
20.873755 19.250999 83.396751 138 121 134
20.815285 19.376347 83.163147 135 118 133
20.815285 19.555618 83.163147 130 113 128
20.757141 19.679764 82.930847 126 108 122
20.991686 20.082926 83.867912 122 103 117
20.873755 20.149876 83.396751 119 98 113
20.757141 20.216076 82.930847 116 94 109
21.231590 20.861015 84.826408 114 92 107
20.991686 20.806089 83.867912 113 91 105
20.815285 20.810520 83.163147 111 90 103
21.110956 21.287941 84.344437 110 89 101
20.815285 21.169064 83.163147 109 88 99
20.757141 21.288702 82.930847 108 88 96
20.699322 21.407675 82.699837 106 87 94
20.641825 21.525988 82.470116 104 85 92
20.641825 21.703766 82.470116 102 82 89
20.584644 21.820929 82.241669 98 79 85
20.641825 22.059320 82.470116 95 75 82
20.584644 22.175499 82.241669 92 72 78
20.584644 22.352785 82.241669 89 69 75
20.699322 22.655586 82.699837 87 67 71
20.641825 22.770432 82.470116 82 62 65
20.584644 22.884642 82.241669 77 57 60
20.641825 23.125988 82.470116 73 53 56
20.584644 23.239212 82.241669 70 50 54
20.873755 23.745380 83.396751 68 49 53
20.991686 24.060326 83.867912 64 47 52
20.991686 24.241117 83.867912 61 46 51
21.172476 0.195919 83.867912 42 39 43
21.172476 0.376710 83.867912 47 42 45
21.172476 0.557501 83.867912 42 35 37
21.292774 0.742487 84.344437 35 27 28
21.172476 0.919083 83.867912 33 24 23
21.232454 1.102990 84.105499 33 22 21
21.292774 1.287942 84.344437 36 21 20
21.172476 1.461456 83.867912 39 20 21
21.112835 1.637621 83.631668 43 20 23
21.172476 1.823038 83.867912 48 21 25
21.353437 2.020956 84.584732 52 23 27
21.353437 2.203292 84.584732 60 30 34
21.232454 2.372112 84.105499 80 48 52
21.232454 2.553415 84.105499 102 71 74
21.112835 2.719311 83.631668 112 81 85
20.877596 2.867285 82.699837 111 81 85
20.994556 3.062620 83.163147 108 78 84
20.994556 3.241892 83.163147 105 76 85
20.935913 3.411608 82.930847 105 76 88
20.994556 3.600435 83.163147 106 77 90
21.112835 3.801001 83.631668 110 80 93
21.112835 3.981283 83.631668 114 84 97
21.112835 4.161565 83.631668 105 74 86
21.112835 4.341846 83.631668 87 56 66
21.053530 4.509426 83.396751 84 51 60
21.172476 4.715693 83.867912 91 57 66
21.599586 4.995261 85.559776 95 60 69
21.599586 5.179699 85.559776 97 63 73
21.599586 5.364137 85.559776 101 68 80
21.662014 5.564611 85.807060 104 73 85
21.599586 5.733013 85.559776 104 75 88
21.724802 5.951755 86.055771 104 76 90
21.787956 6.155103 86.305939 112 85 100
21.851477 6.359637 86.557556 124 99 115
21.979639 6.584620 87.065224 133 109 125
22.174725 6.832413 87.837997 135 113 129
22.044285 6.980457 87.321304 137 116 132
21.851477 7.105993 86.557556 140 117 133
21.851477 7.292582 86.557556 141 118 133
21.851477 7.479170 86.557556 142 118 133
21.851477 7.665760 86.557556 141 116 130
21.851477 7.852348 86.557556 138 113 124
21.787956 8.015568 86.305939 135 109 119
21.787956 8.201614 86.305939 134 108 116
21.662014 8.339178 85.807060 140 114 121
21.599586 8.499583 85.559776 146 120 125
21.475807 8.634256 85.069466 145 119 125
21.414448 8.792444 84.826408 142 117 122
21.537519 9.026883 85.313911 144 118 125
21.475807 9.184400 85.069466 149 122 129
21.353437 9.314403 84.584732 154 126 134
21.112835 9.389733 83.631668 158 130 138
21.475807 9.734543 85.069466 159 131 139
21.475807 9.917924 85.069466 159 130 138
21.353437 10.043748 84.584732 158 128 136
21.915371 10.495192 86.810646 157 125 135
21.915371 10.682326 86.810646 156 123 134
21.787956 10.806266 86.305939 155 121 133
21.724802 10.960450 86.055771 155 118 132
21.662014 11.113744 85.807060 155 116 132
21.599586 11.266154 85.559776 154 113 132
21.662014 11.483686 85.807060 152 110 131
21.599586 11.635030 85.559776 153 111 133
21.537519 11.785504 85.313911 171 130 152
21.537519 11.969412 85.313911 199 162 183
21.475807 12.118497 85.069466 204 169 189
21.475807 12.301878 85.069466 177 142 162
21.475807 12.485259 85.069466 157 124 142
21.475807 12.668640 85.069466 157 126 143
21.475807 12.852021 85.069466 161 133 147
21.475807 13.035402 85.069466 163 137 151
21.475807 13.218783 85.069466 167 141 153
21.353437 13.325799 84.584732 170 146 156
21.414448 13.546730 84.826408 172 149 158
21.414448 13.729587 84.826408 174 152 160
21.232454 13.794209 84.105499 176 155 163
21.232454 13.975512 84.105499 176 154 161
21.353437 14.237480 84.584732 174 151 159
21.414448 14.461016 84.826408 175 151 158
21.292774 14.560669 84.344437 183 158 165
21.292774 14.742487 84.344437 199 172 179
21.292774 14.924305 84.344437 209 182 190
21.172476 15.020778 83.867912 210 181 190
21.292774 15.287942 84.344437 200 170 181
21.353437 15.513833 84.584732 182 150 163
21.353437 15.696170 84.584732 169 137 150
21.232454 15.788543 84.105499 175 145 157
21.414448 16.106730 84.826408 191 164 172
21.292774 16.197033 84.344437 192 164 171
21.292774 16.378851 84.344437 178 147 154
21.232454 16.513756 84.105499 165 132 137
21.292774 16.742487 84.344437 156 125 126
21.232454 16.876362 84.105499 158 128 126
21.353437 17.154860 84.584732 167 138 135
21.232454 17.238968 84.105499 172 146 142
21.172476 17.371061 83.867912 174 149 145
21.172476 17.551851 83.867912 170 146 144
21.353437 17.884203 84.584732 163 141 141
21.232454 17.964180 84.105499 159 136 139
21.172476 18.094225 83.867912 156 134 139
21.292774 18.378851 84.344437 154 133 140
21.537519 18.774010 85.313911 151 132 140
21.292774 18.742487 84.344437 149 131 139
21.414448 19.032444 84.826408 147 130 139
21.475807 19.270359 85.069466 144 128 138
21.414448 19.398159 84.826408 140 125 136
21.112835 19.305227 83.631668 138 123 134
21.053530 19.430775 83.396751 135 120 132
20.994556 19.555618 83.163147 129 114 127
20.877596 19.624945 82.699837 124 108 120
21.112835 20.026354 83.631668 120 102 114
21.112835 20.206635 83.631668 117 98 110
21.053530 20.329651 83.396751 115 94 107
21.475807 21.470932 85.069466 110 91 103
21.232454 21.408939 84.105499 109 91 101
21.172476 21.529253 83.867912 108 90 99
21.112835 21.648890 83.631668 106 88 96
20.935913 21.646244 82.930847 104 86 94
20.935913 21.825016 82.930847 102 83 92
20.877596 21.942493 82.699837 100 81 88
20.935913 22.182558 82.930847 97 78 85
20.819601 22.237099 82.470116 94 75 81
20.761930 22.352785 82.241669 91 72 77
20.935913 22.718870 82.930847 88 69 73
20.819601 22.770432 82.470116 82 63 66
20.819601 22.948210 82.470116 76 57 59
20.761930 23.061926 82.241669 72 53 55
20.704576 23.175014 82.014481 70 50 53
20.877596 23.546951 82.699837 67 48 52
20.935913 23.791496 82.930847 64 47 51
20.877596 23.903498 82.699837 61 45 50
21.353268 0.376710 83.867912 86 81 88
21.353268 0.557501 83.867912 66 59 64
21.413757 0.740384 84.105499 40 31 34
21.293118 0.916494 83.631668 33 22 24
21.413757 1.102990 84.105499 34 22 22
21.474592 1.287942 84.344437 37 20 21
21.293118 1.457339 83.631668 41 20 22
21.293118 1.637621 83.631668 45 20 23
21.353268 1.823038 83.867912 50 21 25
21.535774 2.020956 84.584732 53 22 26
21.535774 2.203292 84.584732 58 25 29
21.353268 2.365411 83.867912 78 45 49
21.353268 2.546202 83.867912 106 74 78
21.233305 2.711673 83.396751 117 86 90
20.997379 2.859321 82.470116 112 82 87
21.055868 3.045558 82.699837 107 77 84
21.114683 3.232836 82.930847 104 74 85
21.055868 3.402104 82.699837 104 73 87
21.114683 3.590379 82.930847 108 77 92
21.233305 3.790324 83.396751 115 84 98
21.293118 3.981283 83.631668 119 87 100
21.293118 4.161565 83.631668 108 76 87
21.293118 4.341846 83.631668 90 57 66
21.233305 4.509426 83.396751 89 54 63
21.353268 4.715693 83.867912 96 62 70
21.784025 4.995261 85.559776 99 64 73
21.784025 5.179699 85.559776 99 65 75
21.846985 5.379640 85.807060 103 71 82
21.846985 5.564611 85.807060 106 76 88
21.846985 5.749582 85.807060 106 76 90
21.910309 5.951755 86.055771 106 77 92
21.974001 6.155103 86.305939 111 84 100
21.974001 6.341150 86.305939 123 98 114
22.102505 6.565367 86.810646 134 108 125
22.298101 6.812258 87.578888 138 113 129
22.232519 6.980457 87.321304 138 114 130
22.102505 7.126770 86.810646 139 114 130
22.038067 7.292582 86.557556 139 114 129
22.102505 7.501040 86.810646 139 114 128
22.102505 7.688174 86.810646 140 113 125
22.038067 7.852348 86.557556 142 115 125
22.038067 8.038938 86.557556 143 117 124
21.974001 8.201614 86.305939 141 115 120
21.910309 8.363349 86.055771 140 114 118
21.846985 8.524149 85.807060 144 118 121
21.784025 8.684022 85.559776 145 120 124
21.721428 8.842976 85.313911 144 119 123
21.846985 9.079062 85.807060 144 120 125
21.784025 9.237335 85.559776 148 123 130
21.597305 9.341016 84.826408 151 126 133
21.233305 9.363358 83.396751 155 129 137
21.535774 9.679075 84.584732 157 131 139
21.597305 9.889587 84.826408 158 130 140
21.114683 9.847362 82.930847 158 129 139
22.038067 10.651182 86.557556 157 125 136
21.974001 10.806266 86.305939 156 123 135
21.910309 10.960450 86.055771 156 120 134
21.784025 11.081716 85.559776 155 116 133
21.784025 11.266154 85.559776 155 113 132
21.784025 11.450592 85.559776 152 109 130
21.721428 11.601596 85.313911 149 105 128
21.721428 11.785504 85.313911 160 116 139
21.721428 11.969412 85.313911 189 147 170
21.659187 12.118497 85.069466 203 162 184
21.659187 12.301878 85.069466 181 139 161
21.659187 12.485259 85.069466 156 117 136
21.659187 12.668640 85.069466 155 118 136
21.659187 12.852021 85.069466 160 126 142
21.721428 13.072861 85.313911 162 130 145
21.721428 13.256768 85.313911 163 134 147
21.597305 13.363873 84.826408 165 138 149
21.659187 13.585546 85.069466 168 142 151
21.659187 13.768927 85.069466 170 145 154
21.535774 13.872808 84.584732 172 149 157
21.413757 13.975512 84.105499 172 149 157
21.597305 14.278158 84.826408 173 149 157
21.597305 14.461016 84.826408 174 150 157
21.474592 14.560669 84.344437 180 155 162
21.474592 14.742487 84.344437 194 168 174
21.474592 14.924305 84.344437 205 178 184
21.353268 15.020778 83.867912 205 177 183
21.474592 15.287942 84.344437 197 167 174
21.535774 15.513833 84.584732 184 153 160
21.535774 15.696170 84.584732 173 141 149
21.413757 15.788543 84.105499 170 137 147
21.597305 16.106730 84.826408 175 142 151
21.535774 16.243177 84.584732 178 145 155
21.474592 16.378851 84.344437 178 145 154
21.474592 16.560669 84.344437 174 143 150
21.535774 16.790186 84.584732 169 139 142
21.474592 16.924305 84.344437 167 138 140
21.597305 17.203873 84.826408 169 142 143
21.413757 17.238968 84.105499 169 145 145
21.413757 17.420271 84.105499 168 145 145
21.413757 17.601574 84.105499 166 143 144
21.597305 17.935301 84.826408 162 141 143
21.413757 17.964180 84.105499 160 138 142
21.353268 18.094225 83.867912 157 136 141
21.474592 18.378851 84.344437 154 134 140
21.721428 18.774010 85.313911 151 132 140
21.413757 18.689392 84.105499 148 131 139
21.597305 19.032444 84.826408 146 130 139
21.721428 19.325733 85.313911 144 130 138
21.659187 19.453741 85.069466 140 127 136
21.413757 19.414604 84.105499 136 123 133
21.293118 19.485508 83.631668 134 120 131
21.114683 19.500994 82.930847 128 114 126
21.055868 19.624945 82.699837 122 107 118
21.293118 20.026354 83.631668 118 101 112
21.353268 20.263716 83.867912 116 98 108
21.784025 21.779123 85.559776 109 92 102
21.784025 21.963560 85.559776 108 91 100
21.721428 22.084354 85.313911 106 89 97
21.597305 22.141016 84.826408 103 86 95
21.474592 22.197033 84.344437 101 84 93
21.474592 22.378851 84.344437 99 82 90
21.413757 22.496758 84.105499 97 79 86
21.233305 22.486954 83.396751 94 76 82
21.114683 22.540098 82.930847 91 73 78
21.293118 22.910860 83.631668 87 69 73
21.114683 22.897640 82.930847 82 64 67
21.055868 23.012133 82.699837 77 59 60
20.939215 23.061926 82.241669 73 55 56
20.881372 23.175014 82.014481 70 52 54
20.939215 23.416496 82.241669 67 49 52
20.997379 23.659321 82.470116 65 47 51
21.473398 0.555931 83.631668 93 85 94
21.595062 0.740384 84.105499 44 33 41
21.473398 0.916494 83.631668 33 20 24
21.534058 1.099874 83.867912 36 21 24
21.656410 1.287942 84.344437 39 21 23
21.413080 1.453246 83.396751 43 21 23
21.473398 1.637621 83.631668 46 21 24
21.473398 1.817903 83.631668 50 22 25
21.656410 2.015214 84.344437 54 23 26
21.718111 2.203292 84.584732 57 25 28
21.595062 2.372112 84.105499 73 40 43
21.534058 2.546202 83.867912 98 66 70
21.413080 2.711673 83.396751 110 79 84
21.175158 2.859321 82.470116 107 77 84
21.234140 3.045558 82.699837 104 73 83
21.293455 3.232836 82.930847 102 71 83
21.234140 3.402104 82.699837 102 70 85
21.293455 3.590379 82.930847 109 75 91
21.473398 3.801001 83.631668 119 85 100
21.473398 3.981283 83.631668 120 85 99
21.473398 4.161565 83.631668 107 72 83
21.473398 4.341846 83.631668 93 57 67
21.413080 4.509426 83.396751 93 57 66
21.595062 4.729053 84.105499 99 63 72
21.968462 4.995261 85.559776 99 64 74
21.968462 5.179699 85.559776 100 65 75
22.031956 5.379640 85.807060 105 72 83
22.095816 5.580740 86.055771 109 78 89
22.031956 5.749582 85.807060 108 78 92
22.031956 5.934553 85.807060 106 77 92
22.160048 6.155103 86.305939 110 83 99
22.224655 6.359637 86.557556 123 96 113
22.289639 6.565367 86.810646 136 109 127
22.486893 6.812258 87.578888 141 114 131
22.420755 6.980457 87.321304 140 114 130
22.289639 7.126770 86.810646 139 113 127
22.289639 7.313905 86.810646 138 112 125
22.289639 7.501040 86.810646 138 113 124
22.289639 7.688174 86.810646 141 114 124
22.289639 7.875309 86.810646 146 120 127
22.289639 8.062443 86.810646 152 125 130
22.224655 8.225526 86.557556 151 125 128
22.160048 8.387661 86.305939 145 120 121
22.095816 8.548857 86.055771 143 118 119
22.031956 8.709120 85.807060 144 120 121
21.968462 8.868460 85.559776 145 121 123
22.095816 9.105378 86.055771 145 121 126
22.031956 9.264033 85.807060 147 123 130
21.842569 9.367781 85.069466 151 126 134
21.534058 9.416259 83.867912 153 128 137
21.656410 9.651578 84.344437 155 130 140
21.780161 9.889587 84.826408 157 130 141
21.234140 9.819932 82.699837 158 130 140
21.842569 10.284686 85.069466 159 129 140
22.095816 10.589437 86.055771 159 127 138
22.095816 10.774943 86.055771 158 125 137
22.031956 10.928773 85.807060 158 122 135
21.905334 11.049872 85.313911 157 118 133
21.905334 11.233780 85.313911 156 115 131
21.968462 11.450592 85.559776 155 112 129
21.905334 11.601596 85.313911 152 108 127
21.905334 11.785504 85.313911 156 110 131
21.905334 11.969412 85.313911 172 126 147
21.905334 12.153320 85.313911 185 139 159
21.905334 12.337229 85.313911 173 127 147
21.905334 12.521136 85.313911 155 111 130
21.905334 12.705045 85.313911 154 111 129
21.905334 12.888952 85.313911 160 120 136
21.968462 13.110535 85.559776 161 124 139
21.968462 13.294972 85.559776 161 127 141
21.905334 13.440677 85.313911 163 131 144
21.968462 13.663849 85.559776 164 134 146
21.905334 13.808493 85.313911 166 138 149
21.842569 13.952308 85.069466 167 141 152
21.595062 13.975512 84.105499 169 144 154
21.780161 14.278158 84.826408 171 146 155
21.780161 14.461016 84.826408 173 148 156
21.595062 14.519421 84.105499 177 151 159
21.595062 14.700724 84.105499 185 158 165
21.595062 14.882027 84.105499 193 165 172
21.473398 14.978466 83.631668 194 166 171
21.595062 15.244633 84.105499 188 159 164
21.595062 15.425936 84.105499 180 150 155
21.595062 15.607240 84.105499 173 142 148
21.534058 15.743942 83.867912 170 138 145
21.780161 16.106730 84.826408 172 140 149
21.656410 16.197033 84.344437 175 144 153
21.595062 16.332451 84.105499 180 149 158
21.595062 16.513756 84.105499 180 150 159
21.656410 16.742487 84.344437 175 147 153
21.656410 16.924305 84.344437 170 143 149
21.780161 17.203873 84.826408 168 143 147
21.595062 17.238968 84.105499 167 143 146
21.595062 17.420271 84.105499 165 142 145
21.595062 17.601574 84.105499 163 141 145
21.842569 17.986692 85.069466 161 140 144
21.534058 17.913433 83.867912 159 139 143
21.534058 18.094225 83.867912 157 137 142
21.718111 18.431211 84.584732 154 135 141
21.968462 18.828114 85.559776 151 132 139
21.656410 18.742487 84.344437 147 130 137
21.905334 19.141827 85.313911 145 129 137
22.031956 19.437443 85.807060 143 128 136
21.905334 19.509642 85.313911 139 126 134
21.718111 19.525229 84.584732 136 123 132
21.413080 19.430775 83.396751 132 119 129
