ply
format ascii 1.0
element vertex 1208
property float x
property float y
property float z
property uchar red
property uchar green
property uchar blue
end_header
-5.951511 2.418200 53.206528 141 95 113
-5.940865 2.528364 53.111347 138 93 111
-5.951511 2.647590 53.206528 137 90 110
-5.930256 2.752420 53.016502 138 92 112
-5.930256 2.866706 53.016502 144 98 118
-5.919685 2.975678 52.922001 149 104 123
-5.919685 3.089760 52.922001 152 106 125
-5.930256 3.209563 53.016502 154 108 127
-5.940865 3.329795 53.111347 156 111 129
-5.940865 3.444285 53.111347 156 111 130
-5.940865 3.558775 53.111347 151 107 126
-5.951511 3.679848 53.206528 149 106 125
-5.962196 3.801356 53.302052 154 111 129
-5.951511 3.909239 53.206528 158 115 133
-5.972920 4.038409 53.397919 155 112 130
-5.951511 4.138630 53.206528 148 105 122
-5.972920 4.268625 53.397919 137 95 113
-5.994483 4.399559 53.590691 127 85 104
-5.994483 4.515082 53.590691 121 79 98
-5.983682 4.622262 53.494129 120 78 98
-5.972920 4.729057 53.397919 120 78 97
-5.972920 4.844164 53.397919 118 77 96
-5.962196 4.950369 53.302052 115 76 94
-5.972920 5.074380 53.397919 112 74 92
-5.962196 5.180171 53.302052 110 73 89
-5.951511 5.285583 53.206528 107 72 86
-5.972920 5.419704 53.397919 104 70 82
-5.940865 5.505108 53.111347 99 67 77
-5.909152 5.589601 52.827831 93 61 70
-5.909152 5.703479 52.827831 86 54 61
-5.909152 5.817358 52.827831 82 48 54
-5.898656 5.920702 52.734001 83 47 53
-5.867391 6.002395 52.454491 89 49 57
-5.836456 6.083226 52.177929 96 52 62
-5.382404 6.336071 48.118706 123 61 71
-5.347735 6.398318 47.808765 124 62 71
-5.339137 6.490925 47.731899 124 62 72
-5.322025 6.572685 47.578915 124 63 73
-5.313509 6.664569 47.502789 125 63 75
-5.288126 6.734643 47.275864 125 63 77
-5.288126 6.836553 47.275864 126 63 77
-5.279719 6.927433 47.200703 126 61 77
-5.271338 7.018024 47.125782 124 59 75
-5.254657 7.097082 46.976650 125 59 75
-5.238081 7.175640 46.828457 126 60 76
-5.238081 7.276586 46.828457 127 60 75
-5.238081 7.377532 46.828457 127 59 74
-5.238081 7.478478 46.828457 126 59 72
-5.229832 7.567489 46.754711 124 58 70
-5.213412 7.644200 46.607914 123 58 69
-5.188974 7.708368 46.389442 123 58 69
-5.172809 7.784043 46.244926 123 59 69
-5.117016 7.798699 45.746136 123 60 69
-5.109144 7.885162 45.675758 123 60 68
-5.093472 7.959134 45.535648 123 61 68
-5.070143 8.020390 45.327087 121 61 67
-5.085671 8.142964 45.465916 119 61 67
-5.070143 8.215810 45.327087 119 62 68
-5.047026 8.275617 45.120430 119 62 67
-5.016531 8.322289 44.847797 116 60 64
-5.008965 8.406268 44.780155 114 58 61
-5.008965 8.502799 44.780155 112 57 59
-5.008965 8.599330 44.780155 111 56 58
-4.993900 8.669707 44.645477 111 57 60
-4.993900 8.765948 44.645477 112 57 61
-4.978926 9.123471 44.511608 114 56 67
-4.964041 9.191862 44.378540 113 54 67
-4.971472 9.301431 44.444973 113 53 67
-4.964041 9.383192 44.378540 113 53 66
-4.956632 9.464709 44.312302 112 52 66
-4.941880 9.531779 44.180420 111 52 66
-4.934537 9.612713 44.114773 110 51 65
-4.934537 9.707809 44.114773 107 48 63
-4.912638 9.759401 43.918999 103 46 60
-4.905382 9.839520 43.854126 101 45 59
-4.898147 9.919403 43.789444 102 48 62
-4.898147 10.013799 43.789444 105 52 66
-6.065072 -1.062653 55.287228 127 76 100
-6.065072 -0.943472 55.287228 125 76 100
-6.031376 -0.819712 54.980080 125 76 102
-5.998054 -0.697320 54.676319 125 77 105
-5.954193 -0.575218 54.276493 126 78 107
-5.954193 -0.458217 54.276493 128 79 109
-5.954193 -0.341215 54.276493 131 81 111
-5.954193 -0.224213 54.276493 133 81 111
-5.965098 -0.107408 54.375900 131 79 108
-5.965098 0.009809 54.375900 128 75 103
-5.943327 0.126561 54.177448 126 74 101
-5.943327 0.243349 54.177448 125 74 101
-5.954193 0.360796 54.276493 125 75 101
-5.976043 0.479551 54.475674 124 76 101
-5.954193 0.594800 54.276493 124 77 101
-5.965098 0.713105 54.375900 125 80 102
-5.943327 0.827291 54.177448 128 83 104
-5.932502 0.942360 54.078766 130 86 104
-5.921715 1.057010 53.980442 131 87 105
-5.900259 1.169122 53.784859 134 88 107
-5.889590 1.282740 53.687599 137 90 110
-5.900259 1.401006 53.784859 138 89 111
-5.889590 1.514205 53.687599 139 88 110
-5.878959 1.626995 53.590691 139 86 109
-5.878959 1.742519 53.590691 140 85 108
-5.889590 1.861402 53.687599 141 86 108
-5.868366 1.970010 53.494129 146 92 111
-5.868366 2.085325 53.494129 150 97 115
-5.878959 2.204613 53.590691 149 98 114
-5.857812 2.311790 53.397919 147 96 113
-5.847295 2.422541 53.302052 145 95 112
-5.847295 2.537442 53.302052 142 93 111
-5.847295 2.652344 53.302052 140 91 111
-5.826375 2.757344 53.111347 143 94 114
-5.826375 2.871835 53.111347 149 100 120
-5.815970 2.980992 53.016502 152 104 123
-5.805603 3.089760 52.922001 152 104 123
-5.815970 3.209563 53.016502 153 105 124
-5.826375 3.329795 53.111347 156 109 127
-5.826375 3.444285 53.111347 156 110 128
-5.836816 3.565153 53.206528 149 104 123
-5.836816 3.679848 53.206528 145 102 120
-5.847295 3.801356 53.302052 151 108 126
-5.836816 3.909239 53.206528 156 113 131
-5.857812 4.038409 53.397919 153 110 129
-5.847295 4.146060 53.302052 149 106 124
-5.868366 4.276316 53.494129 143 100 119
-5.878959 4.399559 53.590691 133 90 109
-5.878959 4.515082 53.590691 123 81 101
-5.878959 4.630606 53.590691 121 79 99
-5.868366 4.737577 53.494129 119 78 98
-5.868366 4.852893 53.494129 117 76 96
-5.868366 4.968208 53.494129 115 75 95
-5.878959 5.092700 53.590691 113 74 92
-5.868366 5.198839 53.494129 110 73 90
-5.868366 5.314154 53.494129 107 71 86
-5.868366 5.429469 53.494129 104 69 82
-5.836816 5.514974 53.206528 99 67 77
-5.805603 5.599564 52.922001 93 62 69
-5.815970 5.723849 53.016502 86 55 61
-5.826375 5.848578 53.111347 81 49 54
-5.795273 5.931238 52.827831 81 46 51
-5.764502 6.013019 52.547333 86 48 55
-5.734055 6.093935 52.269794 93 52 61
-5.287246 6.346356 48.196823 123 62 68
-5.261621 6.418991 47.963234 125 64 69
-5.253134 6.511864 47.885876 125 64 70
-5.244675 6.604437 47.808765 125 64 72
-5.219460 6.675249 47.578915 126 64 74
-5.194487 6.745384 47.351265 126 64 76
-5.186215 6.836553 47.275864 126 63 77
-5.186215 6.938464 47.275864 126 62 77
-5.169751 7.018024 47.125782 125 60 76
-5.153391 7.097082 46.976650 125 60 75
-5.137135 7.175640 46.828457 126 60 75
-5.137135 7.276586 46.828457 126 60 74
-5.129045 7.365914 46.754711 126 59 72
-5.129045 7.466702 46.754711 124 58 70
-5.129045 7.567489 46.754711 124 58 70
-5.112941 7.644200 46.607914 123 58 69
-5.096938 7.720431 46.462036 123 59 70
-5.065231 7.771937 46.173004 124 60 70
-5.018403 7.798699 45.746136 124 61 70
-5.010682 7.885162 45.675758 124 62 70
-4.987662 7.946946 45.465916 123 62 69
-4.957296 7.995975 45.189106 121 61 68
-4.964853 8.105724 45.257992 120 61 67
-4.964853 8.203286 45.257992 120 62 68
-4.942251 8.263059 45.051960 119 62 67
-4.919854 8.322289 44.847797 116 60 65
-4.912434 8.406268 44.780155 114 58 62
-4.912434 8.502799 44.780155 112 56 59
-4.905035 8.586379 44.712715 110 55 58
-4.897659 8.669707 44.645477 111 56 60
-4.905035 8.779150 44.712715 111 56 61
-4.882974 9.123471 44.511608 113 55 67
-4.875664 9.205622 44.444973 113 53 66
-4.875664 9.301431 44.444973 112 52 66
-4.868376 9.383192 44.378540 112 52 66
-4.861109 9.464709 44.312302 111 51 66
-4.846642 9.531779 44.180420 111 52 66
-4.839440 9.612713 44.114773 111 52 67
-4.832260 9.693406 44.049320 109 51 66
-4.817964 9.759401 43.918999 105 49 64
-4.810847 9.839520 43.854126 103 47 63
-4.810847 9.934055 43.854126 103 49 65
-4.803751 10.013799 43.789444 105 52 67
-5.956984 -1.184038 55.390377 126 76 100
-5.945891 -1.062653 55.287228 126 76 101
-5.934839 -0.941718 55.184464 125 76 101
-5.912858 -0.819712 54.980080 125 77 103
-5.891039 -0.698606 54.777199 126 79 106
-5.858612 -0.577329 54.475674 128 80 109
-5.869381 -0.460744 54.575813 129 80 111
-5.869381 -0.343097 54.575813 131 80 112
-5.869381 -0.225450 54.575813 132 79 111
-5.891039 -0.108200 54.777199 131 78 108
-5.880190 0.009863 54.676319 128 76 104
-5.858612 0.127258 54.475674 126 74 101
-5.847882 0.244241 54.375900 125 74 100
-5.858612 0.362120 54.475674 124 75 100
-5.880190 0.481318 54.676319 125 77 101
-5.858612 0.596983 54.475674 127 80 102
-5.858612 0.714414 54.475674 129 83 103
-5.837191 0.828803 54.276493 130 86 104
-5.805352 0.940646 53.980442 131 88 104
-5.794816 1.055092 53.882473 132 88 104
-5.784317 1.169122 53.784859 133 88 105
-5.773858 1.282740 53.687599 136 89 107
-5.784317 1.401006 53.784859 138 89 109
-5.773858 1.514205 53.687599 139 87 109
-5.763436 1.626995 53.590691 140 86 108
-5.763436 1.742519 53.590691 141 84 107
-5.784317 1.864774 53.784859 141 84 106
-5.763436 1.973566 53.590691 149 91 112
-5.763436 2.089089 53.590691 156 99 118
-5.773858 2.208599 53.687599 154 98 116
-5.753051 2.315956 53.494129 150 95 113
-5.742704 2.426898 53.397919 146 94 112
-5.732394 2.537442 53.302052 142 91 110
-5.732394 2.652344 53.302052 140 89 109
-5.722121 2.762286 53.206528 147 95 117
-5.711884 2.871835 53.111347 157 107 127
-5.711884 2.986325 53.111347 157 107 127
-5.701684 3.095278 53.016502 151 101 120
-5.711884 3.215305 53.111347 151 101 120
-5.711884 3.329795 53.111347 154 106 124
-5.711884 3.444285 53.111347 155 108 126
-5.722121 3.565153 53.206528 150 104 123
-5.732394 3.686455 53.302052 148 103 122
-5.732394 3.801356 53.302052 152 108 126
-5.732394 3.916258 53.302052 155 111 129
-5.753051 4.045685 53.494129 152 108 127
-5.742704 4.153517 53.397919 150 107 125
-5.763436 4.284035 53.590691 148 104 123
-5.763436 4.399559 53.590691 138 94 114
-5.773858 4.523247 53.687599 126 83 103
-5.763436 4.630606 53.590691 120 78 98
-5.763436 4.746129 53.590691 117 76 97
-5.763436 4.861652 53.590691 116 75 95
-5.763436 4.977176 53.590691 115 74 95
-5.763436 5.092700 53.590691 113 73 93
-5.763436 5.208223 53.590691 111 73 91
-5.763436 5.323746 53.590691 108 71 87
-5.753051 5.429469 53.494129 104 69 82
-5.722121 5.514974 53.206528 99 67 77
-5.701684 5.609563 53.016502 94 63 70
-5.711884 5.734088 53.111347 89 58 63
-5.711884 5.848578 53.111347 83 51 55
-5.691521 5.941810 52.922001 80 46 51
-5.671303 6.034379 52.734001 85 48 54
-5.631293 6.104683 52.361980 91 52 59
-5.631293 6.217558 52.361980 96 53 61
-5.651227 6.352841 52.547333 101 53 62
-5.191778 6.356676 48.275192 125 65 67
-5.158228 6.418991 47.963234 128 68 70
-5.158228 6.522384 47.963234 128 67 70
-5.141616 6.604437 47.808765 128 66 71
-5.125110 6.685964 47.655285 126 65 74
-5.100548 6.756159 47.426903 126 64 76
-5.092413 6.847457 47.351265 126 64 77
-5.092413 6.949530 47.351265 126 62 77
-5.076221 7.029182 47.200703 124 61 76
-5.060132 7.108329 47.051098 124 60 75
-5.036188 7.175640 46.828457 124 59 74
-5.036188 7.276586 46.828457 124 59 72
-5.028257 7.365914 46.754711 124 58 71
-5.028257 7.466702 46.754711 124 58 70
-5.028257 7.567489 46.754711 123 58 70
-5.012470 7.644200 46.607914 123 59 70
-4.996781 7.720431 46.462036 124 60 71
-4.965697 7.771937 46.173004 125 61 71
-4.919789 7.798699 45.746136 125 61 71
-4.912220 7.885162 45.675758 125 62 71
-4.889653 7.946946 45.465916 124 62 70
-4.852498 7.983823 45.120430 122 61 68
-4.859883 8.093388 45.189106 121 61 68
-4.859883 8.190800 45.189106 121 62 68
-4.837793 8.250539 44.983700 120 61 67
-4.815903 8.309737 44.780155 117 60 65
-4.815903 8.406268 44.780155 115 57 63
-4.815903 8.502799 44.780155 113 55 60
-4.808650 8.586379 44.712715 111 54 59
-4.801419 8.669707 44.645477 111 54 60
-4.808650 8.779150 44.712715 111 54 62
-4.779855 9.205622 44.444973 111 52 66
-4.787022 9.315375 44.511608 111 51 65
-4.779855 9.397239 44.444973 110 50 64
-4.765587 9.464709 44.312302 109 50 64
-4.751404 9.531779 44.180420 109 51 65
-4.737305 9.693406 44.049320 110 52 67
-4.723289 9.759401 43.918999 107 51 66
-4.716312 9.839520 43.854126 106 50 66
-4.716312 9.934055 43.854126 106 51 67
-4.709356 10.013799 43.789444 105 53 68
-4.709356 10.108194 43.789444 104 55 68
-5.837581 -1.184038 55.390377 126 76 101
-5.815880 -1.060678 55.184464 125 76 102
-5.815880 -0.941718 55.184464 126 77 103
-5.805090 -0.821233 55.082081 126 78 105
-5.783629 -0.699897 54.878452 128 80 108
-5.762327 -0.579456 54.676319 129 81 111
-5.783629 -0.463299 54.878452 130 81 113
-5.783629 -0.344999 54.878452 131 80 112
-5.783629 -0.226700 54.878452 131 79 111
-5.794340 -0.108601 54.980080 131 77 109
-5.783629 0.009899 54.878452 129 76 105
-5.772958 0.127962 54.777199 127 74 102
-5.762327 0.245590 54.676319 126 73 101
-5.772958 0.364124 54.777199 125 74 100
-5.783629 0.483097 54.878452 126 78 101
-5.762327 0.599181 54.676319 130 83 104
-5.741180 0.714414 54.475674 132 86 104
-5.709751 0.827291 54.177448 132 87 104
-5.688988 0.940646 53.980442 133 89 104
-5.678663 1.055092 53.882473 133 89 103
-5.668375 1.169122 53.784859 132 87 102
-5.658125 1.282740 53.687599 134 87 104
-5.668375 1.401006 53.784859 137 88 106
-5.647912 1.511472 53.590691 139 87 107
-5.647912 1.626995 53.590691 140 86 108
-5.647912 1.742519 53.590691 141 85 107
-5.668375 1.864774 53.784859 142 84 106
-5.647912 1.973566 53.590691 148 90 110
-5.658125 2.092867 53.687599 154 97 116
-5.658125 2.208599 53.687599 153 96 115
-5.647912 2.320136 53.590691 150 93 112
-5.637736 2.431271 53.494129 147 91 111
-5.627596 2.542006 53.397919 143 88 109
-5.627596 2.657114 53.397919 141 87 109
-5.617493 2.767245 53.302052 149 96 118
-5.607425 2.876981 53.206528 163 110 132
-5.597394 2.986325 53.111347 160 109 130
-5.587399 3.095278 53.016502 150 100 119
-5.597394 3.215305 53.111347 148 99 118
-5.607425 3.335763 53.206528 152 104 122
-5.597394 3.444285 53.111347 153 106 124
-5.607425 3.565153 53.206528 151 106 124
-5.617493 3.686455 53.302052 152 106 125
-5.627596 3.808193 53.397919 153 109 127
-5.627596 3.923301 53.397919 154 109 127
-5.637736 4.045685 53.494129 152 108 125
-5.637736 4.161001 53.494129 151 107 124
-5.647912 4.284035 53.590691 150 105 123
-5.658125 4.407515 53.687599 143 98 117
-5.658125 4.523247 53.687599 131 87 107
-5.658125 4.638979 53.687599 120 77 98
-5.658125 4.754712 53.687599 116 74 95
-5.658125 4.870444 53.687599 115 74 94
-5.658125 4.986176 53.687599 115 73 94
-5.658125 5.101909 53.687599 113 72 93
-5.658125 5.217641 53.687599 111 72 91
-5.658125 5.333374 53.687599 108 71 87
-5.647912 5.439270 53.590691 104 70 83
-5.627596 5.534812 53.397919 100 67 78
-5.597394 5.619598 53.111347 95 64 72
-5.617493 5.754678 53.302052 91 60 65
-5.607425 5.859060 53.206528 85 53 58
-5.587399 5.952421 53.016502 81 48 52
-5.567515 6.045116 52.827831 83 47 53
-5.528169 6.115469 52.454491 88 49 56
-5.528169 6.228543 52.454491 93 51 57
-5.537953 6.352841 52.547333 98 52 58
-5.087713 6.356676 48.275192 127 68 67
-5.063015 6.429378 48.040844 132 72 72
-5.054836 6.522384 47.963234 131 70 72
-5.046683 6.615089 47.885876 129 67 72
-5.030456 6.696713 47.731899 126 64 73
-5.006310 6.766969 47.502789 125 64 75
-5.006310 6.869369 47.502789 127 64 77
-5.014332 6.982942 47.578915 126 63 78
-4.990340 7.051604 47.351265 124 60 75
-4.966577 7.119612 47.125782 123 59 73
-4.943038 7.186975 46.902435 123 58 72
-4.943038 7.288081 46.902435 123 58 72
-4.943038 7.389187 46.902435 123 58 71
-4.943038 7.490293 46.902435 124 58 70
-4.943038 7.591399 46.902435 124 59 71
-4.911999 7.644200 46.607914 124 59 71
-4.896625 7.720431 46.462036 125 60 71
-4.858608 7.759869 46.101307 126 60 71
-4.821176 7.798699 45.746136 126 61 71
-4.806365 7.873050 45.605595 125 62 71
-4.791644 7.946946 45.465916 124 62 70
-4.755233 7.983823 45.120430 123 61 69
-4.769731 8.105724 45.257992 123 62 68
-4.769731 8.203286 45.257992 122 61 68
-4.748017 8.263059 45.051960 121 61 68
-4.719372 8.309737 44.780155 118 59 66
-4.719372 8.406268 44.780155 116 57 64
-4.726501 8.515643 44.847797 114 55 62
-4.719372 8.599330 44.780155 112 54 60
-4.712264 8.682764 44.712715 110 53 60
-4.712264 8.779150 44.712715 111 53 62
-4.691070 9.315375 44.511608 109 49 64
-4.677045 9.478857 44.378540 107 48 61
-4.663105 9.545984 44.246262 107 49 63
-4.649247 9.707809 44.114773 109 51 66
-4.635472 9.773860 43.984062 108 51 66
-4.628614 9.854076 43.918999 108 52 67
-4.621778 9.934055 43.854126 107 53 67
-4.614961 10.013799 43.789444 106 54 67
-4.614961 10.108194 43.789444 104 54 67
-5.718178 -1.184038 55.390377 125 76 101
-5.696921 -1.060678 55.184464 126 77 102
-5.696921 -0.941718 55.184464 127 78 103
-5.686351 -0.821233 55.082081 128 79 106
-5.675821 -0.701194 54.980080 129 80 108
-5.675821 -0.582675 54.980080 131 81 111
-5.686351 -0.465018 55.082081 132 81 113
-5.686351 -0.346279 55.082081 132 79 112
-5.686351 -0.227541 55.082081 131 78 111
-5.696921 -0.109005 55.184464 131 76 109
-5.686351 0.009936 55.082081 130 75 106
-5.675821 0.128436 54.980080 128 74 104
-5.675821 0.246955 54.980080 127 74 102
-5.675821 0.365473 54.980080 126 75 101
-5.675821 0.483992 54.980080 128 78 102
-5.654877 0.600287 54.777199 130 82 104
-5.634087 0.715727 54.575813 131 85 104
-5.603187 0.828803 54.276493 133 87 103
-5.572624 0.940646 53.980442 135 89 103
-5.572624 1.057010 53.980442 133 88 101
-5.562510 1.171244 53.882473 131 85 99
-5.552433 1.285064 53.784859 132 86 101
-5.552433 1.401006 53.784859 136 87 104
-5.532389 1.511472 53.590691 138 87 106
-5.532389 1.626995 53.590691 140 87 108
-5.532389 1.742519 53.590691 141 87 108
-5.542393 1.861402 53.687599 142 86 107
-5.532389 1.973566 53.590691 146 89 110
-5.542393 2.092867 53.687599 149 93 113
-5.542393 2.208599 53.687599 150 93 114
-5.532389 2.320136 53.590691 149 92 112
-5.522420 2.431271 53.494129 147 89 111
-5.522420 2.546587 53.494129 144 86 108
-5.512488 2.657114 53.397919 143 86 109
-5.502591 2.767245 53.302052 150 94 118
-5.502591 2.882146 53.302052 159 106 128
-5.492730 2.991677 53.206528 156 104 126
-5.482904 3.100815 53.111347 147 97 117
-5.492730 3.221067 53.206528 147 98 118
-5.482904 3.329795 53.111347 152 104 123
-5.482904 3.444285 53.111347 152 105 123
-5.492730 3.565153 53.206528 150 106 123
-5.492730 3.679848 53.206528 152 109 126
-5.512488 3.808193 53.397919 154 111 127
-5.512488 3.923301 53.397919 153 110 125
-5.522420 4.045685 53.494129 152 109 124
-5.522420 4.161001 53.494129 151 107 123
-5.532389 4.284035 53.590691 150 106 122
-5.542393 4.407515 53.687599 147 102 120
-5.542393 4.523247 53.687599 136 92 112
-5.542393 4.638979 53.687599 122 78 99
-5.552433 4.763325 53.784859 114 71 92
-5.552433 4.879267 53.784859 115 72 93
-5.542393 4.986176 53.687599 115 73 95
-5.542393 5.101909 53.687599 114 73 94
-5.552433 5.227093 53.784859 112 73 92
-5.562510 5.352732 53.882473 108 72 88
-5.542393 5.449106 53.687599 105 70 84
-5.522420 5.544785 53.494129 101 68 79
-5.512488 5.649920 53.397919 96 65 74
-5.512488 5.765028 53.397919 92 60 67
-5.502591 5.869579 53.302052 86 55 60
-5.492730 5.973755 53.206528 81 48 53
-5.463357 6.055892 52.922001 81 46 51
-5.415094 6.115469 52.454491 85 47 52
-5.424678 6.239567 52.547333 90 49 53
-4.991765 6.367028 48.353813 125 68 66
-4.959455 6.429378 48.040844 131 72 71
-4.951443 6.522384 47.963234 131 71 72
-4.943457 6.615089 47.885876 129 68 72
-4.927562 6.696713 47.731899 127 64 73
-4.911768 6.777813 47.578915 127 64 75
-4.903909 6.869369 47.502789 127 64 78
-4.919652 6.994150 47.655285 126 62 77
-4.896076 7.062868 47.426903 124 59 75
-4.880483 7.142286 47.275864 123 58 73
-4.849594 7.198347 46.976650 123 57 72
-4.857279 7.311182 47.051098 123 58 72
-4.849594 7.400879 46.976650 124 58 72
-4.849594 7.502145 46.976650 125 59 72
-4.849594 7.603411 46.976650 126 60 72
-4.819093 7.656219 46.681198 126 61 72
-4.796468 7.720431 46.462036 126 60 72
-4.759229 7.759869 46.101307 126 60 72
-4.722563 7.798699 45.746136 126 61 72
-4.708055 7.873050 45.605595 126 61 71
-4.686458 7.934794 45.396397 125 60 70
-4.657969 7.983823 45.120430 124 60 69
-4.672170 8.105724 45.257992 123 60 68
-4.679303 8.215810 45.327087 122 60 68
-4.665059 8.288212 45.189106 122 60 68
-4.636828 8.334880 44.915646 120 58 67
-4.636828 8.431703 44.915646 118 56 65
-4.636828 8.528525 44.915646 116 55 64
-4.629824 8.612319 44.847797 114 53 63
-4.622841 8.695861 44.780155 112 52 62
-4.622841 8.792392 44.780155 111 52 63
-4.554151 9.802906 44.114773 109 51 66
-4.540657 9.868675 43.984062 108 52 66
-4.527243 10.123125 43.854126 104 54 66
-4.513908 10.187563 43.724953 102 53 66
-5.598775 -1.184038 55.390377 125 76 100
-5.588349 -1.062653 55.287228 127 77 102
-5.598775 -0.945232 55.390377 128 78 103
-5.588349 -0.824291 55.287228 129 79 105
-5.577961 -0.703800 55.184464 130 80 108
-5.577961 -0.584841 55.184464 132 81 111
-5.588349 -0.466750 55.287228 133 80 112
-5.588349 -0.347569 55.287228 132 78 111
-5.588349 -0.228388 55.287228 131 76 110
-5.598775 -0.109411 55.390377 130 74 108
-5.577961 0.009954 55.184464 129 73 106
-5.577961 0.128914 55.184464 128 73 105
-5.567613 0.247413 55.082081 127 74 104
-5.567613 0.366151 55.082081 127 75 104
-5.557302 0.483992 54.980080 128 77 104
-5.547030 0.601396 54.878452 129 80 104
-5.526599 0.717045 54.676319 130 82 103
-5.486185 0.828803 54.276493 132 84 102
-5.466199 0.942360 54.078766 134 86 102
-5.456261 1.057010 53.980442 133 86 100
-5.446358 1.171244 53.882473 130 84 97
-5.436491 1.285064 53.784859 131 85 100
-5.436491 1.401006 53.784859 135 87 104
-5.426661 1.514205 53.687599 138 88 107
-5.416865 1.626995 53.590691 139 88 109
-5.416865 1.742519 53.590691 140 88 109
-5.426661 1.861402 53.687599 140 87 108
-5.416865 1.973566 53.590691 143 89 110
-5.426661 2.092867 53.687599 146 91 112
-5.436491 2.212600 53.784859 148 91 113
-5.416865 2.320136 53.590691 150 92 114
-5.416865 2.435660 53.590691 148 89 112
-5.407105 2.546587 53.494129 143 85 108
-5.407105 2.661902 53.494129 142 84 108
-5.387690 2.767245 53.302052 147 91 115
-5.387690 2.882146 53.302052 151 97 120
-5.378035 2.991677 53.206528 147 96 118
-5.378035 3.106372 53.206528 143 93 115
-5.378035 3.221067 53.206528 147 98 119
-5.378035 3.335763 53.206528 153 106 124
-5.368414 3.444285 53.111347 152 106 124
-5.378035 3.565153 53.206528 149 106 122
-5.378035 3.679848 53.206528 152 109 124
-5.397380 3.808193 53.397919 154 111 126
-5.397380 3.923301 53.397919 153 110 125
-5.416865 4.052988 53.590691 153 110 124
-5.407105 4.161001 53.494129 153 109 123
-5.426661 4.291782 53.687599 152 107 123
-5.436491 4.415499 53.784859 150 105 123
-5.436491 4.531441 53.784859 142 97 116
-5.436491 4.647383 53.784859 124 79 100
-5.446358 4.771970 53.882473 112 68 90
-5.446358 4.888123 53.882473 113 69 92
-5.446358 5.004275 53.882473 114 72 95
-5.436491 5.111151 53.784859 114 74 96
-5.446358 5.236580 53.882473 112 74 94
-5.456261 5.362464 53.980442 108 73 90
-5.446358 5.468884 53.882473 105 71 86
-5.416865 5.554793 53.590691 102 69 81
-5.407105 5.660100 53.494129 97 66 76
-5.407105 5.775415 53.494129 93 61 69
-5.397380 5.880136 53.397919 87 56 62
-5.378035 5.973755 53.206528 82 49 55
-5.358828 6.066706 53.016502 81 45 49
-5.302020 6.115469 52.454491 83 45 48
-5.311404 6.239567 52.547333 88 46 50
-5.302020 6.341618 52.454491 94 49 52
-4.903502 6.387836 48.511833 122 64 63
-4.863766 6.439798 48.118706 127 68 69
-4.848051 6.522384 47.963234 128 67 71
-4.840231 6.615089 47.885876 128 67 73
-4.832437 6.707497 47.808765 128 65 74
-4.809204 6.777813 47.578915 127 64 76
-4.809204 6.880377 47.578915 127 62 76
-4.824668 7.005394 47.731899 126 60 76
-4.801509 7.074169 47.502789 125 58 75
-4.786193 7.153677 47.351265 124 58 73
-4.755853 7.209755 47.051098 124 57 73
-4.748328 7.299613 46.976650 124 58 73
-4.740827 7.389187 46.902435 125 58 73
-4.755853 7.514034 47.051098 126 60 73
-4.748328 7.603411 46.976650 127 61 74
-4.711057 7.644200 46.607914 128 62 73
-4.681659 7.696342 46.317070 128 62 73
-4.659850 7.759869 46.101307 128 61 73
-4.623950 7.798699 45.746136 127 61 72
-4.609744 7.873050 45.605595 126 60 71
-4.588598 7.934794 45.396397 125 59 70
-4.560704 7.983823 45.120430 124 58 68
-4.588598 8.130513 45.396397 123 57 67
-4.595625 8.240973 45.465916 122 57 67
-4.588598 8.326232 45.396397 122 57 67
-4.553783 8.360175 45.051960 121 57 66
-4.546884 8.444478 44.983700 119 56 65
-4.553783 8.554409 45.051960 117 54 64
-4.540005 8.625349 44.915646 115 53 63
-4.526310 8.695861 44.780155 114 52 63
-4.439265 10.138100 43.918999 104 53 65
-5.489614 -1.305878 55.493912 124 73 97
-5.489614 -1.186251 55.493912 126 76 99
-5.489614 -1.066625 55.493912 128 78 101
-5.489614 -0.946999 55.493912 129 78 102
-5.489614 -0.827373 55.493912 130 78 104
-5.479372 -0.706426 55.390377 131 79 107
-5.489614 -0.588121 55.493912 133 79 109
-5.499894 -0.469372 55.597832 133 78 111
-5.479372 -0.348217 55.390377 132 76 110
-5.489614 -0.229242 55.493912 130 74 109
-5.489614 -0.109616 55.493912 129 72 107
-5.469168 0.009973 55.287228 128 71 105
-5.469168 0.129154 55.287228 127 71 104
-5.459002 0.247873 55.184464 128 73 105
-5.448874 0.366151 55.082081 129 75 106
-5.438784 0.483992 54.980080 130 77 106
-5.428731 0.601396 54.878452 129 79 106
-5.398793 0.715727 54.575813 130 80 104
-5.369184 0.828803 54.276493 131 81 103
-5.349624 0.942360 54.078766 132 83 102
-5.339897 1.057010 53.980442 131 83 99
-5.339897 1.173374 53.980442 130 83 98
-5.320549 1.285064 53.784859 131 84 101
-5.330206 1.403549 53.882473 135 88 105
-5.301342 1.511472 53.590691 137 89 108
-5.301342 1.626995 53.590691 138 89 110
-5.301342 1.742519 53.590691 138 88 109
-5.310928 1.861402 53.687599 138 87 109
-5.301342 1.973566 53.590691 140 88 110
-5.320549 2.096658 53.784859 143 90 112
-5.320549 2.212600 53.784859 146 91 113
-5.301342 2.320136 53.590691 150 92 116
-5.301342 2.435660 53.590691 149 90 113
-5.291790 2.546587 53.494129 144 84 109
-5.291790 2.661902 53.494129 143 84 109
-5.282272 2.772222 53.397919 145 87 113
-5.282272 2.887330 53.397919 145 91 115
-5.272789 2.997047 53.302052 142 90 114
-5.263340 3.106372 53.206528 140 90 113
-5.272789 3.226850 53.302052 146 98 119
-5.263340 3.335763 53.206528 153 106 125
-5.253924 3.444285 53.111347 152 106 123
-5.263340 3.565153 53.206528 148 105 119
-5.263340 3.679848 53.206528 149 106 120
-5.291790 3.815055 53.494129 151 110 122
-5.291790 3.930370 53.494129 152 110 122
-5.310928 4.060318 53.687599 153 110 122
-5.301342 4.168512 53.590691 153 109 122
-5.310928 4.291782 53.687599 153 107 122
-5.320549 4.415499 53.784859 153 107 124
-5.320549 4.531441 53.784859 146 100 119
-5.330206 4.655818 53.882473 126 81 102
-5.330206 4.771970 53.882473 112 68 90
-5.330206 4.888123 53.882473 112 68 91
-5.339897 5.013373 53.980442 114 72 95
-5.330206 5.120427 53.882473 115 74 97
-5.339897 5.246101 53.980442 113 75 95
-5.349624 5.372232 54.078766 108 73 92
-5.339897 5.478828 53.980442 105 71 87
-5.310928 5.564838 53.687599 102 70 84
-5.301342 5.670317 53.590691 99 68 79
-5.301342 5.785840 53.590691 94 63 72
-5.282272 5.880136 53.397919 88 57 65
-5.263340 5.973755 53.206528 83 50 56
-5.244542 6.066706 53.016502 80 45 49
-5.188946 6.115469 52.454491 80 42 45
-5.188946 6.228543 52.454491 85 43 47
-5.179794 6.330433 52.361980 92 47 51
-4.775517 6.460741 48.275192 123 63 67
-4.752336 6.532938 48.040844 125 64 71
-4.744658 6.625776 47.963234 127 65 74
-4.729377 6.707497 47.808765 128 64 76
-4.714195 6.788692 47.655285 127 62 76
-4.706640 6.880377 47.578915 125 59 75
-4.729377 7.016675 47.808765 125 57 74
-4.706640 7.085505 47.578915 125 56 74
-4.684120 7.153677 47.351265 125 56 74
-4.654427 7.209755 47.051098 124 56 73
-4.639721 7.288081 46.902435 125 57 73
-4.632403 7.377532 46.828457 126 58 73
-4.632403 7.579425 46.828457 127 61 74
-4.596156 7.620275 46.462036 128 61 73
-4.567564 7.672403 46.173004 128 61 73
-4.560471 7.759869 46.101307 128 60 72
-4.532320 7.810734 45.816730 127 59 71
-4.511434 7.873050 45.605595 126 58 70
-4.497616 7.946946 45.465916 125 56 68
-4.470233 7.995975 45.189106 124 56 67
-4.504514 8.155453 45.535648 123 55 66
-4.511434 8.266291 45.605595 122 55 66
-4.504514 8.351772 45.535648 122 55 66
-4.477048 8.398408 45.257992 121 56 65
-4.470233 8.483037 45.189106 120 55 65
-4.416456 9.247151 44.645477 109 50 63
-4.416456 9.343391 44.645477 106 49 61
-4.383498 9.942322 44.312302 107 52 65
-4.376965 10.022884 44.246262 107 53 65
-4.363957 10.088196 44.114773 106 53 65
-4.357483 10.168183 44.049320 104 52 64
-4.344591 10.232775 43.918999 102 51 64
-5.390138 -1.310778 55.702145 124 72 95
-5.390138 -1.190703 55.702145 128 77 99
-5.380044 -1.068623 55.597832 131 79 101
-5.390138 -0.950553 55.702145 131 78 101
-5.390138 -0.830478 55.702145 131 77 102
-5.380044 -0.709072 55.597832 131 77 103
-5.390138 -0.590327 55.702145 133 77 106
-5.400270 -0.471136 55.806847 134 77 108
-5.380044 -0.349522 55.597832 133 75 109
-5.380044 -0.229671 55.597832 131 72 107
-5.380044 -0.109821 55.597832 128 70 105
-5.359969 0.009992 55.390377 127 70 104
-5.359969 0.129395 55.390377 128 71 105
-5.349988 0.248334 55.287228 129 73 106
-5.330136 0.366151 55.082081 131 75 107
-5.320265 0.483992 54.980080 132 77 108
-5.300633 0.600287 54.777199 132 78 107
-5.281146 0.715727 54.575813 131 79 106
-5.242598 0.827291 54.177448 131 80 104
-5.233048 0.942360 54.078766 131 81 102
-5.223533 1.057010 53.980442 130 81 100
-5.223533 1.173374 53.980442 130 83 100
-5.214053 1.287397 53.882473 131 85 103
-5.214053 1.403549 53.882473 134 88 107
-5.195196 1.514205 53.687599 137 90 110
-5.195196 1.629938 53.687599 138 91 111
-5.195196 1.745670 53.687599 138 90 111
-5.204607 1.864774 53.784859 138 89 111
-5.195196 1.977135 53.687599 139 89 111
-5.214053 2.100464 53.882473 140 89 111
-5.214053 2.216616 53.882473 144 90 113
-5.195196 2.324332 53.687599 148 92 116
-5.185818 2.435660 53.590691 147 89 114
-5.176475 2.546587 53.494129 145 86 111
-5.176475 2.661902 53.494129 145 85 111
-5.167164 2.772222 53.397919 145 86 112
-5.167164 2.887330 53.397919 143 88 113
-5.157887 2.997047 53.302052 141 88 113
-5.157887 3.111949 53.302052 141 89 113
-5.157887 3.226850 53.302052 147 97 119
-5.148644 3.335763 53.206528 153 104 123
-5.139433 3.444285 53.111347 152 105 122
-5.148644 3.565153 53.206528 148 103 117
-5.148644 3.679848 53.206528 147 103 116
-5.176475 3.815055 53.494129 149 106 117
-5.185818 3.937465 53.590691 150 107 118
-5.204607 4.067673 53.784859 151 108 119
-5.195196 4.176050 53.687599 152 108 120
-5.204607 4.299557 53.784859 154 107 121
-5.214053 4.423512 53.882473 155 108 124
-5.204607 4.531441 53.784859 149 103 121
-5.214053 4.655818 53.882473 131 86 106
-5.223533 4.780646 53.980442 115 71 93
-5.223533 4.897010 53.980442 111 68 91
-5.233048 5.022505 54.078766 113 73 95
-5.214053 5.120427 53.882473 116 77 98
-5.233048 5.255657 54.078766 113 77 97
-5.242598 5.382036 54.177448 108 73 92
-5.233048 5.488808 54.078766 103 71 87
-5.204607 5.574919 53.784859 101 70 85
-5.185818 5.670317 53.590691 98 69 81
-5.185818 5.785840 53.590691 93 63 74
-5.167164 5.880136 53.397919 87 57 66
-5.148644 5.973755 53.206528 81 50 57
-5.121111 6.055892 52.922001 77 44 48
-5.075871 6.115469 52.454491 76 40 43
-5.075871 6.228543 52.454491 81 40 43
-5.057999 6.319288 52.269794 89 44 48
-4.694352 6.492411 48.511833 120 60 68
-4.656310 6.543526 48.118706 124 62 71
-4.641265 6.625776 47.963234 127 63 75
-4.633780 6.718315 47.885876 128 62 76
-4.611466 6.788692 47.655285 127 59 75
-4.611466 6.891421 47.655285 125 57 73
-4.626318 7.016675 47.808765 124 55 72
-4.604076 7.085505 47.578915 124 54 72
-4.582047 7.153677 47.351265 124 54 73
-4.545796 7.198347 46.976650 124 54 73
-4.531456 7.276586 46.828457 125 55 74
-4.510115 7.342787 46.607914 126 57 73
-4.531456 7.478478 46.828457 127 58 73
-4.510115 7.543729 46.607914 127 59 72
-4.468030 7.572870 46.173004 127 59 71
-4.468030 7.672403 46.173004 127 59 71
-4.468030 7.771937 46.173004 127 58 70
-4.440407 7.822806 45.887547 126 57 69
-4.426723 7.897312 45.746136 125 56 68
-4.419913 7.983624 45.675758 124 54 67
-4.406355 8.057294 45.535648 122 53 66
-4.433555 8.304561 45.816730 122 53 65
-4.433555 8.403326 45.816730 121 54 65
-4.413124 8.462912 45.605595 121 55 66
-4.326722 9.261078 44.712715 109 51 63
-4.320216 9.343391 44.645477 107 50 61
-4.300813 9.972089 44.444973 107 53 64
-4.294384 10.052848 44.378540 107 53 65
-4.294384 10.148514 44.378540 106 53 65
-4.281585 10.213645 44.246262 104 53 65
-4.262527 10.263139 44.049320 103 53 65
-4.243639 10.312194 43.854126 100 52 64
-5.279969 -1.313242 55.806847 124 72 94
-5.279969 -1.192941 55.806847 130 78 98
-5.270062 -1.070628 55.702145 133 80 100
-5.279969 -0.952339 55.806847 132 78 99
-5.279969 -0.832039 55.806847 131 76 98
-5.270062 -0.710402 55.702145 131 75 99
-5.289912 -0.592551 55.911945 133 76 102
-5.299893 -0.472914 56.017437 134 76 106
-5.270062 -0.350177 55.702145 133 75 106
-5.270062 -0.230102 55.702145 130 71 104
-5.260193 -0.109821 55.597832 128 70 103
-5.240566 0.009992 55.390377 128 70 104
-5.240566 0.129395 55.390377 129 71 105
-5.230807 0.248334 55.287228 130 73 107
-5.211398 0.366151 55.082081 132 76 109
-5.201747 0.483992 54.980080 134 78 109
-5.182552 0.600287 54.777199 134 79 109
-5.163499 0.715727 54.575813 132 79 107
-5.125809 0.827291 54.177448 130 79 105
-5.116472 0.942360 54.078766 129 79 103
-5.116472 1.058935 54.078766 128 81 101
-5.116472 1.175511 54.078766 130 83 102
-5.107170 1.289737 53.980442 131 86 105
-5.107170 1.406101 53.980442 134 89 108
-5.088665 1.516948 53.784859 136 91 111
-5.079463 1.629938 53.687599 138 92 113
-5.088665 1.748832 53.784859 138 92 113
-5.088665 1.864774 53.784859 138 91 112
-5.088665 1.980716 53.784859 138 90 112
-5.107170 2.104283 53.980442 138 89 111
-5.107170 2.220646 53.980442 142 90 113
-5.088665 2.328542 53.784859 146 92 115
-5.079463 2.440064 53.687599 145 89 113
-5.052056 2.887330 53.397919 143 88 113
-5.042986 2.997047 53.302052 143 88 113
-5.042986 3.111949 53.302052 144 90 114
-5.042986 3.226850 53.302052 148 96 118
-5.033949 3.335763 53.206528 153 102 121
-5.024943 3.444285 53.111347 153 103 120
-5.033949 3.565153 53.206528 149 101 116
-5.033949 3.679848 53.206528 147 101 114
-5.061159 3.815055 53.494129 148 102 114
-5.079463 3.944585 53.687599 149 104 116
-5.097901 4.075055 53.882473 149 105 117
-5.088665 4.183615 53.784859 151 106 118
-5.097901 4.307360 53.882473 153 106 120
-5.097901 4.423512 53.882473 155 107 123
-5.097901 4.539665 53.882473 151 104 122
-5.097901 4.655818 53.882473 136 90 111
-5.107170 4.780646 53.980442 118 74 97
-5.116472 4.905930 54.078766 109 67 90
-5.116472 5.022505 54.078766 111 71 93
-5.107170 5.129737 53.980442 115 77 98
-5.116472 5.255657 54.078766 112 77 96
-5.125809 5.382036 54.177448 106 73 91
-5.116472 5.488808 54.078766 101 70 87
-5.088665 5.574919 53.784859 99 69 84
-5.070295 5.670317 53.590691 96 68 80
-5.079463 5.796303 53.687599 90 63 74
-5.061159 5.890730 53.494129 85 57 66
-5.033949 5.973755 53.206528 79 50 57
-5.007029 6.055892 52.922001 75 43 48
-4.962798 6.115469 52.454491 73 38 43
-4.962798 6.228543 52.454491 76 38 42
-4.945323 6.319288 52.269794 84 42 46
-4.919341 6.398170 51.995171 95 47 53
-4.635220 6.556692 48.992149 119 57 68
-4.567388 6.564806 48.275192 122 59 72
-4.545216 6.636497 48.040844 126 61 75
-4.537873 6.729169 47.963234 127 60 76
-4.515986 6.799607 47.731899 127 57 74
-4.508738 6.891421 47.655285 125 55 73
-4.523258 7.016675 47.808765 125 53 72
-4.501512 7.085505 47.578915 124 53 71
-4.479973 7.153677 47.351265 124 53 72
-4.444530 7.198347 46.976650 124 53 72
-4.423533 7.265127 46.754711 125 54 73
-4.375301 7.285600 46.244926 126 55 72
-4.341489 7.526052 45.887547 126 57 69
-4.375301 7.684354 46.244926 125 57 69
-4.388974 7.808368 46.389442 125 56 68
-4.361713 7.859248 46.101307 124 55 67
-4.348209 7.933987 45.958580 123 54 67
-4.348209 8.033058 45.958580 122 53 66
-4.341489 8.119560 45.887547 121 52 65
-4.354951 8.243962 46.029835 120 52 64
-4.368497 8.369138 46.173004 120 52 64
-4.361713 8.455521 46.101307 120 53 64
-4.236717 9.275046 44.780155 109 52 64
-4.230336 9.357463 44.712715 107 51 62
-4.243117 9.482410 44.847797 105 49 60
-4.211309 10.082992 44.511608 106 53 65
-4.205005 10.163706 44.444973 105 53 65
-4.198720 10.244179 44.378540 104 52 65
-4.186205 10.309025 44.246262 103 52 65
-4.161397 10.342749 43.984062 101 52 64
-5.169385 -1.315715 55.911945 126 73 94
-5.159668 -1.192941 55.806847 132 79 99
-5.159668 -1.072640 55.806847 135 80 99
-5.169385 -0.954133 55.911945 133 78 96
-5.169385 -0.833606 55.911945 131 75 95
-5.159668 -0.711738 55.806847 131 74 95
-5.179138 -0.593669 56.017437 132 75 98
-5.188929 -0.473808 56.123333 134 76 102
-5.169385 -0.351496 55.911945 133 75 103
-5.169385 -0.230969 55.911945 129 71 101
-5.149988 -0.110027 55.702145 127 69 100
-5.130735 0.010010 55.493912 127 70 101
-5.130735 0.129636 55.493912 128 72 103
-5.111626 0.248334 55.287228 131 74 106
-5.083229 0.483992 54.980080 135 80 110
-5.073833 0.601396 54.878452 135 82 110
-5.045852 0.715727 54.575813 133 80 108
-5.018178 0.828803 54.276493 129 79 104
-5.009021 0.944079 54.177448 126 78 102
-4.999897 1.058935 54.078766 126 80 101
-5.009021 1.177656 54.177448 128 84 103
-4.999897 1.292086 54.078766 131 87 107
-4.999897 1.408662 54.078766 133 90 110
-4.972723 1.516948 53.784859 135 92 112
-4.972723 1.632890 53.784859 137 93 114
-4.981749 1.752006 53.882473 138 93 114
-4.981749 1.868159 53.882473 138 92 114
-4.981749 1.984311 53.882473 138 91 113
-4.999897 2.108116 54.078766 138 90 112
-4.999897 2.224691 54.078766 141 91 113
-4.981749 2.332768 53.882473 144 92 114
-4.928085 2.997047 53.302052 145 90 114
-4.928085 3.111949 53.302052 146 91 114
-4.928085 3.226850 53.302052 149 95 116
-4.919253 3.335763 53.206528 154 101 119
-4.901685 3.438135 53.016502 155 102 119
-4.910453 3.558775 53.111347 152 100 116
-4.910453 3.673266 53.111347 149 99 113
-4.936948 3.808193 53.397919 149 100 114
-4.963731 3.944585 53.687599 149 102 115
-4.981749 4.075055 53.882473 149 103 115
-4.972723 4.183615 53.784859 151 104 117
-4.981749 4.307360 53.882473 153 105 121
-4.981749 4.423512 53.882473 156 106 124
-4.981749 4.539665 53.882473 151 102 123
-4.981749 4.655818 53.882473 139 92 114
-4.990806 4.780646 53.980442 121 77 100
-4.999897 4.905930 54.078766 109 66 90
-4.999897 5.022505 54.078766 107 67 89
-4.990806 5.129737 53.980442 110 72 93
-4.999897 5.255657 54.078766 108 73 93
-5.009021 5.382036 54.177448 104 72 89
-4.999897 5.488808 54.078766 100 70 87
-4.972723 5.574919 53.784859 97 70 83
-4.954772 5.785840 53.590691 88 63 73
-4.936948 5.880136 53.397919 83 58 65
-4.910453 5.963069 53.111347 78 51 57
-4.892947 6.055892 52.922001 73 44 49
-4.866921 6.137155 52.640499 70 38 43
-4.858307 6.239567 52.547333 72 36 41
-4.832647 6.319288 52.269794 81 39 45
-4.815690 6.409396 52.086391 93 46 53
-4.552145 6.589313 49.235889 118 55 68
-4.470592 6.575498 48.353813 122 57 72
-4.441656 6.636497 48.040844 125 58 74
-4.434480 6.729169 47.963234 126 58 74
-4.420198 6.810556 47.808765 126 57 74
-4.406009 6.891421 47.655285 126 55 72
-4.427328 7.027993 47.885876 126 53 71
-4.406009 7.096879 47.655285 126 52 71
-4.377900 7.153677 47.351265 126 52 71
-4.343265 7.198347 46.976650 126 52 71
-4.315948 7.253704 46.681198 126 53 72
-4.262334 7.262974 46.101307 126 54 71
-4.275613 7.684354 46.244926 124 54 68
-4.295686 7.820588 46.462036 124 54 68
-4.262334 7.859248 46.101307 123 54 67
-4.249138 7.933987 45.958580 122 54 66
-4.249138 8.033058 45.958580 121 53 65
-4.242571 8.119560 45.887547 120 52 65
-4.242571 8.218478 45.887547 119 51 64
-4.255726 8.343186 46.029835 119 52 63
-4.255726 8.442411 46.029835 119 53 64
-4.236024 8.502091 45.816730 119 53 65
-4.146440 9.192380 44.847797 112 54 65
-4.140186 9.275046 44.780155 110 53 64
-4.140186 9.371577 44.780155 108 52 62
-4.146440 9.482410 44.847797 106 50 60
-4.115357 10.082992 44.511608 105 53 65
-4.115357 10.178944 44.511608 103 52 64
-4.109197 10.259514 44.444973 102 51 64
-4.096931 10.324411 44.312302 101 51 63
-4.078668 10.373486 44.114773 101 52 64
-5.048858 -1.436242 55.911945 122 70 91
-5.048858 -1.315715 55.911945 128 76 96
-5.048858 -1.195187 55.911945 134 81 100
-5.048858 -1.074660 55.911945 135 80 98
-5.048858 -0.954133 55.911945 132 77 94
-5.048858 -0.833606 55.911945 131 74 92
-5.048858 -0.713078 55.911945 131 73 92
-5.058383 -0.593669 56.017437 132 74 95
-5.077544 -0.474706 56.229626 134 75 98
-5.058383 -0.352160 56.017437 133 74 100
-5.058383 -0.231405 56.017437 129 70 98
-5.029912 -0.110027 55.702145 126 68 97
-5.020493 0.010029 55.597832 126 70 98
-5.020493 0.129879 55.597832 128 72 101
-4.973921 0.484890 55.082081 135 82 108
-4.955533 0.601396 54.878452 134 83 108
-4.937281 0.717045 54.676319 131 82 106
-4.910152 0.830321 54.375900 128 80 103
-4.892232 0.944079 54.177448 125 79 101
-4.892232 1.060868 54.177448 124 80 101
-4.892232 1.177656 54.177448 128 85 105
-4.883321 1.292086 54.078766 131 89 109
-4.883321 1.408662 54.078766 134 91 112
-4.865596 1.519701 53.882473 136 93 115
-4.856781 1.632890 53.784859 138 94 116
-4.874443 1.755192 53.980442 139 95 116
-4.865596 1.868159 53.882473 139 93 115
-4.874443 1.987919 53.980442 139 92 114
-4.892232 2.111963 54.177448 138 92 113
-4.892232 2.228751 54.177448 140 92 113
-4.883321 2.341267 54.078766 142 92 114
-4.813184 2.997047 53.302052 147 92 115
-4.804558 3.106372 53.206528 147 91 113
-4.804558 3.221067 53.206528 150 94 115
-4.795963 3.329795 53.111347 156 100 120
-4.778865 3.432006 52.922001 157 101 120
-4.787399 3.552420 53.016502 154 99 117
-4.787399 3.666706 53.016502 151 98 114
-4.821841 3.808193 53.397919 150 99 114
-4.847999 3.944585 53.687599 150 101 115
-4.874443 4.082465 53.980442 150 101 115
-4.856781 4.183615 53.784859 151 102 118
-4.874443 4.315192 53.980442 155 105 122
-4.874443 4.431555 53.980442 156 105 126
-4.865596 4.539665 53.882473 150 100 123
-4.865596 4.655818 53.882473 139 91 114
-4.874443 4.780646 53.980442 123 78 103
-4.883321 4.905930 54.078766 110 67 91
-4.892232 5.031671 54.177448 105 65 87
-4.874443 5.129737 53.980442 105 69 89
-4.883321 5.255657 54.078766 104 71 89
-4.892232 5.382036 54.177448 102 71 88
-4.883321 5.488808 54.078766 99 70 86
-4.856781 5.574919 53.784859 96 70 83
-4.821841 5.649920 53.397919 93 68 80
-4.830529 5.775415 53.494129 87 63 73
-4.804558 5.859060 53.206528 81 57 66
-4.787399 5.952421 53.016502 76 50 58
-4.787399 6.066706 53.016502 71 43 49
-4.778865 6.169974 52.922001 68 37 43
-4.753446 6.250630 52.640499 70 34 41
-4.728295 6.330433 52.361980 78 37 44
-4.711676 6.420660 52.177929 92 45 53
-4.686964 6.498873 51.904270 103 52 60
-4.453394 6.600258 49.317677 118 55 68
-4.373480 6.586224 48.432693 122 56 71
-4.338096 6.636497 48.040844 124 57 73
-4.331088 6.729169 47.963234 126 57 73
-4.317139 6.810556 47.808765 127 56 73
-4.310198 6.902501 47.731899 127 54 72
-4.324102 7.027993 47.885876 127 53 71
-4.303280 7.096879 47.655285 127 52 70
-4.275827 7.153677 47.351265 127 52 69
-4.235298 7.186975 46.902435 127 52 70
-4.202106 7.230965 46.534863 127 52 70
-4.150067 7.240489 45.958580 126 53 70
-4.175924 7.684354 46.244926 124 54 67
-4.188974 7.808368 46.389442 123 53 67
-4.162956 7.859248 46.101307 123 53 67
-4.150067 7.933987 45.958580 122 53 66
-4.156501 8.045512 46.029835 120 53 66
-4.150067 8.132130 45.958580 119 52 64
-4.143653 8.218478 45.887547 118 52 64
-4.150067 8.330272 45.958580 118 52 63
-4.150067 8.429343 45.958580 118 53 64
-4.137258 8.502091 45.816730 118 54 64
-4.150067 8.627485 45.958580 118 55 66
-4.130883 8.686218 45.746136 118 56 67
-4.111876 8.744411 45.535648 118 56 68
-4.080584 8.775274 45.189106 118 56 68
-4.099302 8.913387 45.396397 117 56 68
-4.068199 8.942876 45.051960 116 55 68
-4.043655 9.275046 44.780155 110 52 63
-4.043655 9.371577 44.780155 107 50 61
-4.049763 9.482410 44.847797 106 50 60
-4.019405 10.082992 44.511608 104 52 64
-4.019405 10.178944 44.511608 102 51 63
-4.013388 10.259514 44.444973 100 50 63
-4.007389 10.339844 44.378540 100 51 63
-3.989499 10.388922 44.180420 100 52 63
-4.937629 -1.438952 56.017437 124 74 94
-4.928330 -1.315715 55.911945 131 80 99
-4.928330 -1.195187 55.911945 134 82 101
-4.928330 -1.074660 55.911945 133 79 97
-4.928330 -0.954133 55.911945 129 75 92
-4.937629 -0.835178 56.017437 129 72 90
-4.928330 -0.713078 55.911945 130 72 91
-4.937629 -0.593669 56.017437 132 73 93
-4.956332 -0.474706 56.229626 133 74 96
-4.937629 -0.352160 56.017437 133 73 97
-4.937629 -0.231405 56.017437 130 71 96
-4.919066 -0.110234 55.806847 127 70 96
-4.900643 0.010029 55.597832 127 71 97
-4.900643 0.129879 55.597832 128 74 99
-4.855183 0.484890 55.082081 132 82 105
-4.837234 0.601396 54.878452 132 84 106
-4.819417 0.717045 54.676319 129 83 104
-4.801731 0.831845 54.475674 126 82 103
-4.784174 0.945805 54.276493 125 83 103
-4.775444 1.060868 54.177448 126 84 104
-4.775444 1.177656 54.177448 129 88 108
-4.775444 1.294444 54.177448 133 92 113
-4.766746 1.408662 54.078766 136 94 115
-4.749444 1.519701 53.882473 138 96 118
-4.740839 1.632890 53.784859 140 98 120
-4.758079 1.755192 53.980442 141 96 118
-4.749444 1.868159 53.882473 140 94 116
-4.758079 1.987919 53.980442 138 92 113
-4.775444 2.111963 54.177448 138 92 113
-4.784174 2.232825 54.276493 139 92 113
-4.775444 2.345539 54.177448 141 92 113
-4.706733 3.002438 53.397919 149 93 116
-4.698283 3.111949 53.302052 149 93 115
-4.689863 3.221067 53.206528 151 94 115
-4.681473 3.329795 53.111347 156 98 119
-4.664783 3.432006 52.922001 157 100 120
-4.673113 3.552420 53.016502 155 99 118
-4.681473 3.673266 53.111347 153 99 117
-4.715213 3.815055 53.494129 151 100 117
-4.732266 3.944585 53.687599 151 101 117
-4.758079 4.082465 53.980442 151 101 117
-4.749444 4.191208 53.882473 152 102 119
-4.758079 4.315192 53.980442 155 104 123
-4.758079 4.431555 53.980442 155 104 125
-4.758079 4.547919 53.980442 149 98 121
-4.758079 4.664283 53.980442 138 89 115
-4.758079 4.780646 53.980442 125 80 105
-4.766746 4.905930 54.078766 113 70 95
-4.775444 5.031671 54.177448 105 66 88
-4.766746 5.139081 54.078766 102 67 87
-4.766746 5.255657 54.078766 102 69 88
-4.784174 5.391875 54.276493 100 70 86
-4.766746 5.488808 54.078766 98 70 84
-4.740839 5.574919 53.784859 95 70 82
-4.698283 5.639776 53.302052 92 68 79
-4.706733 5.765028 53.397919 87 64 73
-4.681473 5.848578 53.111347 80 57 66
-4.656483 5.931238 52.827831 75 50 58
-4.673113 6.066706 53.016502 70 42 49
-4.664783 6.169974 52.922001 67 37 43
-4.639970 6.250630 52.640499 69 33 41
-4.615420 6.330433 52.361980 77 36 44
-4.607295 6.431964 52.269794 90 44 53
-4.583088 6.510255 51.995171 101 51 60
-4.347082 6.600258 49.317677 117 54 68
-4.269075 6.586224 48.432693 121 56 71
-4.227695 6.625776 47.963234 123 56 72
-4.227695 6.729169 47.963234 126 56 73
-4.220876 6.821541 47.885876 127 56 73
-4.214079 6.913616 47.808765 128 55 72
-4.227695 7.039347 47.963234 128 54 71
-4.207304 7.108289 47.731899 129 54 70
-4.173753 7.153677 47.351265 129 53 69
-4.134192 7.186975 46.902435 128 53 69
-4.088974 7.208368 46.389442 128 53 69
-4.044734 7.229298 45.887547 127 53 69
-4.057277 7.450163 46.029835 127 54 70
-4.038493 7.514438 45.816730 126 54 70
-4.069896 7.672403 46.173004 125 54 69
-4.082595 7.796186 46.317070 124 53 68
-4.063577 7.859248 46.101307 123 53 68
-4.057277 7.946288 46.029835 122 53 67
-4.063577 8.058005 46.101307 121 53 65
-4.057277 8.144737 46.029835 119 52 64
-4.050996 8.231200 45.958580 118 53 63
-4.057277 8.343186 46.029835 118 54 63
-4.057277 8.442411 46.029835 118 55 64
-4.044734 8.515233 45.887547 118 56 65
-4.057277 8.640862 46.029835 118 57 66
-4.038493 8.699623 45.816730 118 57 67
-4.026067 8.771317 45.675758 118 57 68
-4.007570 8.829028 45.465916 117 56 68
-4.013717 8.940729 45.535648 116 56 68
-3.983171 8.970099 45.189106 115 55 67
-3.959067 9.303109 44.915646 108 51 62
-3.953087 9.385734 44.847797 105 48 59
-3.953087 9.482410 44.847797 104 47 57
-3.917580 10.067898 44.444973 104 52 64
-3.917580 10.163706 44.444973 101 50 63
-3.911724 10.244179 44.378540 100 49 62
-3.905886 10.324411 44.312302 99 50 63
-3.900065 10.404405 44.246262 100 51 63
-3.888474 10.468582 44.114773 101 53 64
-4.825980 -1.441672 56.123333 127 77 96
-4.816874 -1.318197 56.017437 131 81 99
-4.807803 -1.195187 55.911945 133 82 100
-4.816874 -1.076688 56.017437 130 78 95
-4.816874 -0.955933 56.017437 127 73 91
-4.816874 -0.835178 56.017437 127 71 89
-4.816874 -0.714424 56.017437 129 72 90
-4.816874 -0.593669 56.017437 132 73 93
-4.835120 -0.474706 56.229626 133 73 95
-4.816874 -0.352160 56.017437 132 72 95
-4.816874 -0.231405 56.017437 131 71 95
-4.789762 -0.110027 55.702145 129 71 96
-4.780793 0.010029 55.597832 129 73 98
-4.780793 0.129879 55.597832 129 75 99
-4.754085 0.248334 55.287228 129 77 100
-4.745248 0.366832 55.184464 130 79 101
-4.727673 0.483992 54.980080 130 81 102
