ply
format ascii 1.0
element vertex 1251
property float x
property float y
property float z
property uchar red
property uchar green
property uchar blue
end_header
3.237046 3.353275 55.390377 120 88 103
3.207129 3.440583 54.878452 120 89 104
3.171950 3.519845 54.276493 118 87 102
3.171950 3.636847 54.276493 115 84 99
3.166162 3.746999 54.177448 111 80 95
2.896589 3.748507 49.564678 97 67 78
2.906292 3.868267 49.730724 92 61 71
2.901433 3.968822 49.647564 86 55 64
2.896589 4.069041 49.564678 81 50 59
2.882154 4.155076 49.317677 81 48 57
2.877374 4.254321 49.235889 84 47 56
2.882154 4.367700 49.317677 84 44 54
2.475116 4.755143 42.352699 106 47 58
2.457587 4.812118 42.052750 107 46 58
2.450645 4.888920 41.933956 109 45 59
2.443742 4.965290 41.815834 111 47 61
2.433460 5.034159 41.639893 115 49 63
2.433460 5.123921 41.639893 116 48 63
2.423264 5.191837 41.465424 118 48 63
2.416513 5.266512 41.349918 121 50 66
2.406459 5.333364 41.177868 125 53 69
2.396487 5.399662 41.007240 128 56 73
2.396487 5.488060 41.007240 128 56 73
2.393182 5.568766 40.950680 127 54 72
2.389885 5.649250 40.894272 126 54 71
2.383320 5.721642 40.781925 129 57 74
2.380050 5.801585 40.725983 132 60 78
2.376790 5.881309 40.670197 133 60 80
2.370296 5.952672 40.559074 132 59 78
2.367062 6.031863 40.503742 131 58 78
2.360621 6.102524 40.393528 130 58 77
2.351025 6.164438 40.229324 128 56 75
2.351025 6.251159 40.229324 125 54 71
2.338351 6.303714 40.012455 123 52 69
2.332065 6.372789 39.904896 121 52 67
2.328935 6.450141 39.851334 120 52 68
2.325813 6.527286 39.797913 121 52 69
2.322700 6.604224 39.744637 125 57 74
2.322700 6.689900 39.744637 134 65 83
2.319594 6.766518 39.691502 140 70 90
2.319594 6.852079 39.691502 139 69 89
2.316498 6.928379 39.638508 135 63 84
2.307256 6.985845 39.480373 132 59 82
2.301136 7.052196 39.375652 131 57 81
2.295048 7.118195 39.271484 130 56 80
2.292017 7.193336 39.219608 131 56 81
2.285977 7.258703 39.116261 134 60 84
2.282969 7.333363 39.064793 140 67 90
2.276977 7.398104 38.962261 143 71 93
2.276977 7.482094 38.962261 139 68 90
2.271017 7.546277 38.860264 131 61 82
2.268048 7.620072 38.809467 125 57 77
2.262134 7.683645 38.708267 123 57 77
2.253320 7.736825 38.557457 124 59 77
2.247483 7.799683 38.457569 126 61 78
2.235898 7.841953 38.259335 129 62 79
2.227287 8.222536 38.111992 138 59 77
2.221583 8.283425 38.014393 136 55 73
2.218743 8.354674 37.965782 135 54 72
2.210263 8.404275 37.820690 136 55 73
2.207451 8.475007 37.772572 138 57 75
2.201849 8.534715 37.676704 140 59 77
2.193498 8.583256 37.533810 141 60 78
2.187965 8.642315 37.439144 143 62 82
2.185210 8.712034 37.391994 148 66 88
2.179719 8.770547 37.298042 152 68 93
2.174256 8.828766 37.204563 153 68 95
2.174256 8.908967 37.204563 154 67 95
2.174256 8.989167 37.204563 155 67 96
2.171535 9.058017 37.158001 157 66 97
2.168821 9.126695 37.111553 157 65 96
2.166113 9.195200 37.065220 157 64 94
2.160718 9.251999 36.972904 155 62 93
2.158031 9.320094 36.926918 153 62 91
3.337767 -1.771140 55.082081 120 67 84
3.331586 -1.649342 54.980080 119 67 83
3.331586 -1.530823 54.980080 118 65 81
3.331586 -1.412305 54.980080 123 70 84
3.331586 -1.293786 54.980080 128 74 87
3.337767 -1.177448 55.082081 125 71 82
3.331586 -1.056749 54.980080 119 65 77
3.331586 -0.938231 54.980080 121 66 79
3.325428 -0.818197 54.878452 124 69 84
3.331586 -0.701194 54.980080 124 68 85
3.331586 -0.582675 54.980080 122 68 86
3.319293 -0.462444 54.777199 122 69 89
3.331586 -0.345638 54.980080 122 71 91
3.325428 -0.226700 54.878452 122 72 92
3.331586 -0.108601 54.980080 124 77 95
3.337767 0.009936 55.082081 129 83 101
3.337767 0.128674 55.082081 131 85 103
3.331586 0.246955 54.980080 123 79 96
3.337767 0.366151 55.082081 118 75 92
3.337767 0.484890 55.082081 121 76 94
3.331586 0.602510 54.980080 124 80 98
3.337767 0.722366 55.082081 126 83 101
3.337767 0.841105 55.082081 128 85 103
3.331586 0.958066 54.980080 128 84 102
3.331586 1.076584 54.980080 128 84 101
3.325428 1.192894 54.878452 130 85 104
3.325428 1.311193 54.878452 130 87 106
3.325428 1.429493 54.878452 130 88 109
3.331586 1.550658 54.980080 130 88 111
3.331586 1.669177 54.980080 129 88 111
3.337767 1.791012 55.082081 128 86 110
3.343971 1.913300 55.184464 128 87 111
3.331586 2.024732 54.980080 130 88 113
3.356449 2.159245 55.390377 131 88 113
3.362723 2.282907 55.493912 131 87 112
3.356449 2.398051 55.390377 129 86 109
3.369020 2.526883 55.597832 127 84 107
3.362723 2.641786 55.493912 124 82 103
3.362723 2.761412 55.493912 121 81 100
3.356449 2.875663 55.390377 120 82 100
3.350199 2.989489 55.287228 119 84 101
3.350199 3.108670 55.287228 118 85 101
3.350199 3.227850 55.287228 119 87 102
3.356449 3.353275 55.390377 119 88 104
3.319293 3.434235 54.777199 120 88 104
3.276970 3.507023 54.078766 117 86 102
3.276970 3.623598 54.078766 114 83 99
3.008456 3.754775 49.647564 96 66 78
3.023625 3.881270 49.897884 91 61 72
3.013495 3.975470 49.730724 86 54 64
3.003433 4.069041 49.564678 81 48 58
2.993439 4.161989 49.399738 81 46 55
2.988466 4.261388 49.317677 83 46 55
2.993439 4.374968 49.399738 84 43 53
2.581143 4.690610 42.595757 107 46 57
2.566415 4.755143 42.352699 106 46 57
2.548239 4.812118 42.052750 106 45 57
2.541040 4.888920 41.933956 107 43 56
2.533883 4.965290 41.815834 110 44 59
2.523221 5.034159 41.639893 114 46 61
2.519687 5.116745 41.581573 116 46 62
2.512649 5.191837 41.465424 118 46 63
2.505650 5.266512 41.349918 120 48 66
2.495224 5.333364 41.177868 124 52 71
2.488322 5.407131 41.063957 129 57 76
2.484885 5.488060 41.007240 129 58 76
2.481457 5.568766 40.950680 123 53 71
2.478040 5.649250 40.894272 121 51 69
2.471232 5.721642 40.781925 124 55 73
2.471232 5.809554 40.781925 130 60 78
2.464461 5.881309 40.670197 132 61 79
2.457728 5.952672 40.559074 131 60 79
2.451031 6.023645 40.448559 131 60 79
2.444371 6.094233 40.338646 131 60 78
2.434448 6.156097 40.174889 128 57 74
2.437746 6.251159 40.229324 125 53 70
2.424605 6.303714 40.012455 122 51 67
2.418087 6.372789 39.904896 120 50 65
2.414841 6.450141 39.851334 118 50 65
2.411604 6.527286 39.797913 118 50 65
2.408376 6.604224 39.744637 123 54 70
2.411604 6.698868 39.797913 132 63 80
2.408376 6.775576 39.744637 139 69 88
2.405156 6.852079 39.691502 139 68 88
2.405156 6.937641 39.691502 135 64 84
2.392363 6.985845 39.480373 133 60 82
2.386017 7.052196 39.375652 132 58 82
2.382856 7.127623 39.323498 131 56 81
2.379704 7.202851 39.271484 131 56 81
2.360967 7.482094 38.962261 137 65 87
2.357872 7.556167 38.911194 129 59 80
2.354786 7.630046 38.860264 122 54 74
2.348638 7.693676 38.758801 120 53 72
2.339475 7.746886 38.607597 120 55 72
2.330384 7.799683 38.457569 121 57 73
2.318372 7.841953 38.259335 125 59 73
2.309444 8.140379 38.111992 141 64 82
2.309444 8.222536 38.111992 138 59 78
2.303530 8.283425 38.014393 135 54 73
2.300584 8.354674 37.965782 135 53 72
2.291792 8.404275 37.820690 137 55 74
2.288876 8.475007 37.772572 139 57 76
2.283067 8.534715 37.676704 140 58 77
2.274408 8.583256 37.533810 140 58 78
2.271536 8.653227 37.486416 141 59 81
2.268672 8.723021 37.439144 146 64 86
2.265814 8.792639 37.391994 151 68 93
2.260121 8.850949 37.298042 153 69 95
2.260121 8.931351 37.298042 153 66 94
2.260121 9.011753 37.298042 153 65 93
2.257286 9.080748 37.251244 155 65 93
2.257286 9.161048 37.251244 156 65 94
2.254457 9.229769 37.204563 156 64 93
2.246013 9.275101 37.065220 155 63 92
2.243213 9.343336 37.019005 153 62 90
3.456506 -1.771140 55.082081 119 67 87
3.456506 -1.652402 55.082081 118 66 85
3.456506 -1.533663 55.082081 116 64 82
3.456506 -1.414925 55.082081 121 68 85
3.450105 -1.293786 54.980080 127 74 88
3.456506 -1.177448 55.082081 125 70 84
3.456506 -1.058710 55.082081 120 65 77
3.456506 -0.939971 55.082081 122 66 79
3.450105 -0.819712 54.980080 127 70 85
3.450105 -0.701194 54.980080 124 68 83
3.450105 -0.582675 54.980080 120 65 82
3.443728 -0.463299 54.878452 120 66 84
3.456506 -0.346279 55.082081 120 69 87
3.450105 -0.227120 54.980080 120 71 89
3.456506 -0.108802 55.082081 122 74 91
3.456506 0.009936 55.082081 128 81 99
3.456506 0.128674 55.082081 131 84 102
3.450105 0.246955 54.980080 123 77 95
3.456506 0.366151 55.082081 115 69 88
3.456506 0.484890 55.082081 118 72 91
3.450105 0.602510 54.980080 123 78 97
3.456506 0.722366 55.082081 128 83 102
3.456506 0.841105 55.082081 131 86 105
3.450105 0.958066 54.980080 130 85 104
3.456506 1.078582 55.082081 129 84 103
3.443728 1.192894 54.878452 128 85 104
3.443728 1.311193 54.878452 128 85 105
3.443728 1.429493 54.878452 127 85 107
3.450105 1.550658 54.980080 128 87 110
3.450105 1.669177 54.980080 128 87 112
3.456506 1.791012 55.082081 129 88 112
3.469379 1.916863 55.287228 129 88 113
3.450105 2.024732 54.980080 130 88 113
3.469379 2.155224 55.287228 130 88 113
3.482349 2.282907 55.493912 130 87 113
3.469379 2.393586 55.287228 129 86 110
3.488870 2.526883 55.597832 126 84 106
3.488870 2.646733 55.597832 122 81 103
3.488870 2.766583 55.597832 120 81 101
3.482349 2.881038 55.493912 119 83 101
3.469379 2.989489 55.287228 118 84 102
3.469379 3.108670 55.287228 118 86 103
3.469379 3.227850 55.287228 119 86 104
3.469379 3.347031 55.287228 119 87 105
3.424736 3.421609 54.575813 119 87 105
3.375103 3.487963 53.784859 118 86 104
3.131188 3.773707 49.897884 95 66 79
3.136459 3.887804 49.981888 91 61 72
3.120698 3.975470 49.730724 84 53 63
3.110278 4.069041 49.564678 79 46 56
3.099928 4.161989 49.399738 79 44 54
3.094779 4.261388 49.317677 83 44 54
3.099928 4.374968 49.399738 83 44 54
3.141748 4.865692 50.066177 98 45 59
2.707931 4.565924 43.152969 105 44 58
2.672965 4.598788 42.595757 105 44 56
2.672965 4.690610 42.595757 106 45 56
2.657713 4.755143 42.352699 107 45 56
2.638891 4.812118 42.052750 107 43 55
2.627724 4.882025 41.874813 107 42 55
2.624023 4.965290 41.815834 110 43 57
2.612983 5.034159 41.639893 113 44 60
2.609323 5.116745 41.581573 115 44 61
2.602034 5.191837 41.465424 117 45 63
2.594786 5.266512 41.349918 120 47 66
2.583990 5.333364 41.177868 124 51 71
2.576842 5.407131 41.063957 128 57 76
2.576842 5.495651 41.063957 127 58 77
2.573283 5.576458 41.007240 121 53 71
2.569733 5.657042 40.950680 118 50 68
2.559144 5.721642 40.781925 122 55 72
2.559144 5.809554 40.781925 128 59 76
2.552132 5.881309 40.670197 129 61 78
2.545159 5.952672 40.559074 129 60 78
2.538224 6.023645 40.448559 131 61 79
2.524467 6.077717 40.229324 132 62 79
2.517644 6.147778 40.120598 129 58 75
2.521051 6.242700 40.174889 125 54 70
2.507479 6.295229 39.958603 122 51 66
2.504108 6.372789 39.904896 119 49 64
2.500747 6.450141 39.851334 117 48 62
2.497395 6.527286 39.797913 117 48 62
2.494052 6.604224 39.744637 122 52 67
2.497395 6.698868 39.797913 131 61 78
2.490717 6.766518 39.691502 138 67 85
2.490717 6.852079 39.691502 138 67 85
2.490717 6.937641 39.691502 135 63 83
2.474179 6.976568 39.427944 133 60 82
2.470897 7.052196 39.375652 132 59 82
2.467625 7.127623 39.323498 131 57 81
2.464361 7.202851 39.271484 131 56 81
2.448169 7.491926 39.013458 135 63 84
2.444956 7.566083 38.962261 128 56 77
2.441752 7.640047 38.911194 121 52 72
2.435368 7.703732 38.809467 118 50 69
2.425855 7.756973 38.657867 118 51 69
2.416416 7.809800 38.507446 118 53 69
2.400846 7.841953 38.259335 121 56 69
2.379383 8.344005 37.917294 135 54 75
2.370301 8.393582 37.772572 138 56 76
2.370301 8.475007 37.772572 140 58 79
2.364285 8.534715 37.676704 142 59 80
2.355318 8.583256 37.533810 142 59 81
2.355318 8.664166 37.533810 143 60 82
2.349378 8.723021 37.439144 146 63 86
2.349378 8.803727 37.439144 150 67 91
2.343467 8.862082 37.344959 152 68 93
2.346419 8.953848 37.391994 151 65 92
2.346419 9.034452 37.391994 151 63 90
2.343467 9.103592 37.344959 154 65 92
2.343467 9.184095 37.344959 156 66 93
2.337587 9.241349 37.251244 156 66 93
2.334657 9.309969 37.204563 155 65 92
2.331735 9.378417 37.158001 153 64 91
3.575244 -1.652402 55.082081 116 62 86
3.575244 -1.533663 55.082081 114 60 83
3.575244 -1.414925 55.082081 118 65 85
3.575244 -1.296187 55.082081 124 71 88
3.575244 -1.177448 55.082081 123 69 84
3.575244 -1.058710 55.082081 120 64 77
3.575244 -0.939971 55.082081 122 66 78
3.575244 -0.821233 55.082081 127 70 83
3.575244 -0.702495 55.082081 124 67 80
3.568623 -0.582675 54.980080 120 64 79
3.562027 -0.463299 54.878452 120 66 82
3.575244 -0.346279 55.082081 120 68 85
3.568623 -0.227120 54.980080 120 70 86
3.575244 -0.108802 55.082081 121 72 88
3.575244 0.009936 55.082081 127 80 96
3.575244 0.128674 55.082081 131 84 101
3.568623 0.246955 54.980080 123 77 94
3.575244 0.366151 55.082081 115 69 87
3.575244 0.484890 55.082081 118 71 90
3.568623 0.602510 54.980080 124 78 96
3.581890 0.723709 55.184464 130 83 102
3.575244 0.841105 55.082081 133 87 105
3.575244 0.959843 55.082081 132 87 105
3.575244 1.078582 55.082081 129 85 104
3.568623 1.195103 54.980080 127 84 103
3.568623 1.313621 54.980080 125 83 104
3.562027 1.429493 54.878452 124 83 105
3.568623 1.550658 54.980080 125 85 109
3.575244 1.672274 55.082081 127 87 112
3.575244 1.791012 55.082081 129 88 113
3.588560 1.916863 55.287228 129 88 113
3.568623 2.024732 54.980080 129 87 112
3.595255 2.159245 55.390377 129 87 113
3.601975 2.282907 55.493912 130 87 113
3.588560 2.393586 55.287228 128 86 110
3.615491 2.531624 55.702145 124 83 106
3.615491 2.651699 55.702145 121 81 104
3.608720 2.766583 55.597832 119 82 103
3.601975 2.881038 55.493912 118 83 104
3.588560 2.989489 55.287228 117 84 105
3.588560 3.108670 55.287228 118 86 105
3.581890 3.221850 55.184464 118 86 106
3.581890 3.340809 55.184464 118 86 106
3.529408 3.409076 54.375900 118 86 105
3.478441 3.475371 53.590691 117 85 103
3.238751 3.773707 49.897884 94 66 80
3.238751 3.881270 49.897884 90 60 73
3.222503 3.968822 49.647564 83 52 64
3.211761 4.062259 49.482071 80 46 57
3.206417 4.161989 49.399738 81 45 55
3.201091 4.261388 49.317677 83 45 55
3.201091 4.367700 49.317677 84 45 54
3.201091 4.474012 49.317677 85 44 53
2.796889 4.559297 43.090336 104 45 59
2.764787 4.598788 42.595757 104 44 57
2.764787 4.690610 42.595757 106 44 56
2.752938 4.761936 42.413204 109 44 56
2.733414 4.818944 42.112400 109 43 55
2.717993 4.882025 41.874813 109 42 55
2.714164 4.965290 41.815834 112 42 57
2.702744 5.034159 41.639893 114 43 60
2.698959 5.116745 41.581573 115 43 62
2.687666 5.184596 41.407589 117 44 65
2.683923 5.266512 41.349918 119 46 67
2.676468 5.340772 41.235058 123 50 70
2.669054 5.414620 41.120834 126 55 74
2.665362 5.495651 41.063957 125 57 75
2.661680 5.576458 41.007240 122 55 72
2.658009 5.657042 40.950680 121 54 71
2.650697 5.729512 40.838024 123 56 73
2.647056 5.809554 40.781925 126 58 75
2.639804 5.881309 40.670197 127 59 76
2.636192 5.960814 40.614559 128 59 76
2.621846 6.015450 40.393528 130 61 78
2.607655 6.069493 40.174889 132 62 78
2.600616 6.139481 40.066452 129 59 75
2.600616 6.225851 40.066452 125 55 69
2.590130 6.286768 39.904896 121 52 65
2.583186 6.355704 39.797913 119 50 62
2.583186 6.441495 39.797913 117 48 60
2.579728 6.518548 39.744637 117 48 61
2.579728 6.604224 39.744637 122 53 67
2.579728 6.689900 39.744637 131 61 76
2.576279 6.766518 39.691502 137 66 83
2.572839 6.842931 39.638508 137 66 84
2.572839 6.928379 39.638508 134 63 82
2.555778 6.967315 39.375652 133 60 81
2.552393 7.042855 39.323498 132 58 80
2.549017 7.118195 39.271484 131 57 79
2.545650 7.193336 39.219608 131 56 79
2.532269 7.491926 39.013458 134 61 81
2.528946 7.566083 38.962261 127 55 75
2.528946 7.650073 38.962261 121 51 71
2.519028 7.703732 38.809467 119 50 68
2.512460 7.767087 38.708267 118 51 67
2.502671 7.819942 38.557457 118 51 66
2.483320 7.841953 38.259335 119 53 66
2.457980 8.333362 37.868931 136 56 78
2.451726 8.393582 37.772572 138 57 79
2.448611 8.464238 37.724579 141 59 82
2.445503 8.534715 37.676704 143 60 83
2.439312 8.594121 37.581318 143 60 84
2.436228 8.664166 37.533810 144 61 85
2.430084 8.723021 37.439144 147 63 87
2.430084 8.803727 37.439144 150 65 89
2.427023 8.873243 37.391994 150 65 90
2.430084 8.965139 37.439144 147 62 88
2.427023 9.034452 37.391994 148 61 87
2.427023 9.115057 37.391994 153 65 91
2.427023 9.195662 37.391994 156 68 93
2.420925 9.252959 37.298042 156 68 93
2.417888 9.321651 37.251244 154 67 93
3.693983 -1.533663 55.082081 111 58 83
3.700849 -1.417555 55.184464 115 61 84
3.700849 -1.298596 55.184464 121 67 87
3.700849 -1.179637 55.184464 121 66 84
3.700849 -1.060678 55.184464 120 64 78
3.700849 -0.941718 55.184464 121 64 79
3.700849 -0.822759 55.184464 125 67 81
3.700849 -0.703800 55.184464 123 65 80
3.693983 -0.583756 55.082081 120 63 80
3.687142 -0.464157 54.980080 120 65 82
3.693983 -0.346279 55.082081 120 68 85
3.693983 -0.227541 55.082081 120 70 86
3.693983 -0.108802 55.082081 121 73 89
3.693983 0.009936 55.082081 125 78 95
3.700849 0.128914 55.184464 129 82 98
3.693983 0.247413 55.082081 124 78 94
3.693983 0.366151 55.082081 120 74 90
3.693983 0.484890 55.082081 122 76 93
3.693983 0.603628 55.082081 126 80 97
3.700849 0.723709 55.184464 130 85 102
3.700849 0.842668 55.184464 135 90 106
3.693983 0.959843 55.082081 135 91 108
3.693983 1.078582 55.082081 130 86 104
3.687142 1.195103 54.980080 124 82 100
3.687142 1.313621 54.980080 122 82 102
3.687142 1.432140 54.980080 122 83 104
3.693983 1.553535 55.082081 124 85 107
3.693983 1.672274 55.082081 127 87 110
3.693983 1.791012 55.082081 128 87 112
3.707741 1.916863 55.287228 128 87 112
3.693983 2.028489 55.082081 128 86 111
3.714658 2.159245 55.390377 127 85 110
3.721601 2.282907 55.493912 127 85 110
3.707741 2.393586 55.287228 126 85 109
3.735566 2.531624 55.702145 123 83 107
3.735566 2.651699 55.702145 120 83 105
3.728570 2.766583 55.597832 119 83 105
3.721601 2.881038 55.493912 118 84 106
3.707741 2.989489 55.287228 117 85 106
3.700849 3.102891 55.184464 117 85 106
3.700849 3.221850 55.184464 118 86 106
3.693983 3.334611 55.082081 118 86 106
3.633315 3.396634 54.177448 116 85 103
3.587489 3.469109 53.494129 113 82 100
3.480868 3.477894 51.904270 107 77 94
3.368962 3.474375 50.235603 100 71 87
3.312906 3.523054 49.399738 96 69 84
3.335103 3.761065 49.730724 92 64 79
3.329526 3.861799 49.647564 88 58 73
3.318428 3.955592 49.482071 83 51 64
3.312906 4.055500 49.399738 82 48 59
3.312906 4.161989 49.399738 84 48 58
3.301918 4.254321 49.235889 86 48 57
3.301918 4.360457 49.235889 87 48 57
2.910902 4.499058 43.405323 104 45 61
2.885589 4.552689 43.027885 104 45 59
2.856609 4.598788 42.595757 104 44 58
2.860713 4.697350 42.656956 107 44 57
2.848436 4.768749 42.473881 110 45 58
2.828205 4.825789 42.172218 110 44 57
2.812227 4.888920 41.933956 110 42 55
2.804305 4.965290 41.815834 113 42 58
2.796428 5.041230 41.698376 116 44 61
2.788595 5.116745 41.581573 116 44 63
2.780805 5.191837 41.465424 118 45 65
2.773059 5.266512 41.349918 119 47 67
2.765357 5.340772 41.235058 121 50 70
2.757696 5.414620 41.120834 124 54 73
2.753882 5.495651 41.063957 124 56 75
2.753882 5.584171 41.063957 124 57 75
2.746285 5.657042 40.950680 124 58 75
2.738730 5.729512 40.838024 124 58 75
2.734968 5.809554 40.781925 125 58 75
2.727475 5.881309 40.670197 126 59 75
2.720023 5.952672 40.559074 127 59 75
2.701569 5.999125 40.283909 129 61 76
2.686986 6.053111 40.066452 131 62 77
2.683365 6.131207 40.012455 129 60 74
2.679753 6.209092 39.958603 125 56 69
2.676152 6.286768 39.904896 122 53 65
2.668977 6.355704 39.797913 120 51 62
2.668977 6.441495 39.797913 118 49 61
2.665404 6.518548 39.744637 118 49 62
2.661840 6.595395 39.691502 123 53 67
2.661840 6.680956 39.691502 131 60 76
2.658287 6.757484 39.638508 136 64 81
2.654742 6.833807 39.585655 135 63 82
2.658287 6.928379 39.638508 133 60 80
2.637161 6.958086 39.323498 131 58 78
2.633673 7.033539 39.271484 130 57 77
2.633673 7.118195 39.271484 130 56 76
2.630194 7.193336 39.219608 130 56 76
2.619811 7.249152 39.064793 132 58 77
2.616369 7.491926 39.013458 133 60 79
2.612935 7.566083 38.962261 126 54 73
2.612935 7.650073 38.962261 122 51 70
2.606095 7.713816 38.860264 120 50 68
2.599291 7.777226 38.758801 118 50 67
2.589150 7.830111 38.607597 117 49 66
2.565795 7.841953 38.259335 117 49 65
2.562492 7.914228 38.210094 120 52 67
2.552637 8.129943 38.063129 141 67 87
2.539613 8.333362 37.868931 137 58 81
2.529932 8.382916 37.724579 139 59 82
2.529932 8.464238 37.724579 141 60 83
2.526722 8.534715 37.676704 143 61 84
2.520325 8.594121 37.581318 144 61 85
2.517139 8.664166 37.533810 146 61 86
2.510790 8.723021 37.439144 148 63 89
2.513960 8.814843 37.486416 149 64 90
2.507628 8.873243 37.391994 148 62 88
2.510790 8.965139 37.439144 145 58 85
2.510790 9.045845 37.439144 146 59 86
2.507628 9.115057 37.391994 150 63 90
2.507628 9.195662 37.391994 153 66 92
2.504474 9.264598 37.344959 154 68 93
2.501328 9.333361 37.298042 154 68 94
3.819808 -1.536514 55.184464 108 56 82
3.819808 -1.417555 55.184464 113 60 85
3.819808 -1.298596 55.184464 119 64 87
3.826921 -1.181833 55.287228 119 64 84
3.826921 -1.062653 55.287228 119 63 80
3.826921 -0.943472 55.287228 121 64 80
3.826921 -0.824291 55.287228 123 66 82
3.826921 -0.705111 55.287228 121 65 81
3.819808 -0.584841 55.184464 118 63 80
3.812721 -0.465018 55.082081 118 65 82
3.819808 -0.346923 55.184464 119 69 85
3.819808 -0.227964 55.184464 119 72 87
3.819808 -0.109005 55.184464 121 75 90
3.812721 0.009936 55.082081 124 79 93
3.819808 0.128914 55.184464 126 81 96
3.812721 0.247413 55.082081 126 80 96
3.812721 0.366151 55.082081 125 79 95
3.819808 0.485791 55.184464 126 80 96
3.812721 0.603628 55.082081 128 82 98
3.819808 0.723709 55.184464 132 86 102
3.819808 0.842668 55.184464 138 93 108
3.812721 0.959843 55.082081 139 96 111
3.812721 1.078582 55.082081 130 88 104
3.805660 1.195103 54.980080 121 80 97
3.805660 1.313621 54.980080 121 81 100
3.805660 1.432140 54.980080 123 83 104
3.812721 1.553535 55.082081 123 84 106
3.812721 1.672274 55.082081 126 85 109
3.819808 1.794341 55.184464 127 86 110
3.834061 1.920439 55.390377 127 86 110
3.819808 2.032259 55.184464 126 85 109
3.841227 2.163281 55.493912 126 84 109
3.848421 2.287183 55.597832 124 84 109
3.848421 2.407033 55.597832 123 83 109
3.877465 2.545954 56.017437 123 84 108
3.870163 2.661686 55.911945 121 85 108
3.862888 2.776984 55.806847 120 85 108
3.848421 2.886433 55.597832 119 85 107
3.834061 2.995066 55.390377 118 85 107
3.826921 3.108670 55.287228 118 85 107
3.819808 3.221850 55.184464 118 85 106
3.805660 3.328436 54.980080 118 85 106
3.750103 3.396634 54.177448 115 83 102
3.689509 3.456653 53.302052 112 80 98
3.574012 3.459749 51.633465 107 76 94
3.459691 3.456827 49.981888 101 73 89
3.413715 3.517202 49.317677 97 69 85
3.430812 3.748507 49.564678 90 61 78
3.425094 3.848926 49.482071 86 56 71
3.419395 3.949011 49.399738 82 50 64
3.413715 4.048763 49.317677 82 48 59
3.413715 4.155076 49.317677 87 50 60
3.402412 4.247277 49.154373 89 51 60
3.396788 4.346042 49.073128 90 50 59
2.995709 4.485941 43.278778 102 45 61
2.974033 4.546101 42.965618 103 44 59
2.952667 4.605396 42.656956 103 44 58
2.952667 4.697350 42.656956 106 44 57
2.939995 4.768749 42.473881 110 45 58
2.923267 4.832654 42.232208 111 45 58
2.906728 4.895835 41.993271 112 43 57
2.898528 4.972292 41.874813 114 44 60
2.886316 5.041230 41.698376 116 45 62
2.882267 5.123921 41.639893 117 45 63
2.870191 5.191837 41.465424 118 45 65
2.866188 5.273857 41.407589 118 47 67
2.858215 5.348199 41.292408 120 49 69
2.846339 5.414620 41.120834 122 53 73
2.842402 5.495651 41.063957 126 57 77
2.842402 5.584171 41.063957 126 58 77
2.834561 5.657042 40.950680 125 58 76
2.826763 5.729512 40.838024 125 58 75
2.822880 5.809554 40.781925 124 58 74
2.811295 5.873263 40.614559 125 59 74
2.807454 5.952672 40.559074 126 59 74
2.784630 5.990996 40.229324 128 61 75
2.773356 6.053111 40.066452 129 62 75
2.765891 6.122955 39.958603 127 61 73
2.765891 6.209092 39.958603 125 58 70
2.758465 6.278329 39.851334 123 55 67
2.754768 6.355704 39.797913 121 53 64
2.754768 6.441495 39.797913 119 50 62
2.751080 6.518548 39.744637 120 50 64
2.747402 6.595395 39.691502 125 54 69
2.747402 6.680956 39.691502 131 60 75
2.743734 6.757484 39.638508 134 62 78
2.740076 6.833807 39.585655 133 60 78
2.740076 6.919141 39.585655 130 57 75
2.721929 6.958086 39.323498 128 54 73
2.718329 7.033539 39.271484 127 54 72
2.718329 7.118195 39.271484 127 54 72
2.714738 7.193336 39.219608 128 55 72
2.704022 7.249152 39.064793 131 58 74
2.700469 7.323726 39.013458 135 62 78
2.700469 7.407826 39.013458 136 63 80
2.700469 7.491926 39.013458 132 59 77
2.696925 7.566083 38.962261 127 54 72
2.696925 7.650073 38.962261 123 51 70
2.689865 7.713816 38.860264 121 50 69
2.682842 7.777226 38.758801 119 49 68
2.672375 7.830111 38.607597 118 49 67
2.648269 7.841953 38.259335 117 49 66
2.644861 7.914228 38.210094 119 50 67
2.641461 8.068581 38.160980 134 63 83
2.638070 8.140379 38.111992 141 68 90
2.634688 8.211994 38.063129 143 67 91
2.631315 8.283425 38.014393 141 64 88
2.624593 8.344005 37.917294 139 61 85
2.614576 8.393582 37.772572 140 62 85
2.611254 8.464238 37.724579 143 63 86
2.607940 8.534715 37.676704 144 62 85
2.601337 8.594121 37.581318 144 62 85
2.598049 8.664166 37.533810 146 62 86
2.594769 8.734035 37.486416 148 63 88
2.594769 8.814843 37.486416 149 63 89
2.591496 8.884433 37.439144 147 60 87
2.591496 8.965139 37.439144 143 56 84
2.591496 9.045845 37.439144 144 57 85
2.588233 9.115057 37.391994 148 62 90
2.588233 9.195662 37.391994 150 65 92
2.584977 9.264598 37.344959 152 68 95
2.584977 9.345101 37.344959 154 70 97
3.946102 -1.420195 55.287228 113 61 87
3.946102 -1.301014 55.287228 119 65 89
3.946102 -1.181833 55.287228 119 65 86
3.953464 -1.064635 55.390377 119 63 82
3.953464 -0.945232 55.390377 121 64 82
3.946102 -0.824291 55.287228 123 67 83
3.946102 -0.705111 55.287228 122 67 83
3.938767 -0.584841 55.184464 118 64 82
3.931459 -0.465018 55.082081 116 65 83
3.938767 -0.346923 55.184464 117 69 86
3.938767 -0.227964 55.184464 119 73 89
3.938767 -0.109005 55.184464 121 77 93
3.931459 0.009936 55.082081 125 81 96
3.938767 0.128914 55.184464 128 83 99
3.931459 0.247413 55.082081 127 82 99
3.931459 0.366151 55.082081 126 81 97
3.931459 0.484890 55.082081 126 81 97
3.931459 0.603628 55.082081 127 81 97
3.938767 0.723709 55.184464 130 85 101
3.938767 0.842668 55.184464 136 93 107
3.931459 0.959843 55.082081 138 96 110
3.931459 1.078582 55.082081 129 88 103
3.924179 1.195103 54.980080 121 82 98
3.924179 1.313621 54.980080 122 83 101
3.916925 1.429493 54.878452 123 85 104
3.924179 1.550658 54.980080 123 84 105
3.931459 1.672274 55.082081 125 85 107
3.938767 1.794341 55.184464 126 86 109
3.960854 1.924029 55.493912 125 84 108
3.946102 2.036044 55.287228 124 83 107
3.968271 2.167332 55.597832 123 83 108
3.983189 2.295781 55.806847 122 83 108
4.005778 2.429784 56.123333 120 82 108
4.020980 2.560447 56.336323 121 83 108
4.005778 2.671749 56.123333 122 85 109
3.998220 2.787463 56.017437 121 86 109
3.983189 2.897285 55.806847 121 86 109
3.968271 3.006284 55.597832 121 86 108
3.960854 3.120291 55.493912 120 86 107
3.946102 3.227850 55.287228 119 85 106
3.931459 3.334611 55.082081 118 84 104
3.866892 3.396634 54.177448 114 81 100
3.790799 3.444285 53.111347 110 78 96
3.653546 3.429923 51.188347 106 75 92
3.543573 3.433705 49.647564 101 72 89
3.514190 3.511369 49.235889 97 68 85
3.520028 3.623514 49.317677 92 64 81
3.537657 3.748507 49.564678 88 59 76
3.525885 3.842522 49.399738 84 54 69
3.514190 3.935913 49.235889 82 48 62
3.508372 4.035357 49.154373 84 48 60
3.508372 4.141317 49.154373 89 51 60
3.496793 4.233260 48.992149 90 51 60
2.209652 2.875240 30.958542 90 46 57
3.102572 4.411941 43.468876 100 46 63
3.075554 4.466409 43.090336 101 45 61
3.062221 4.539531 42.903530 101 44 60
3.044622 4.605396 42.656956 103 43 59
3.044622 4.697350 42.656956 105 44 58
3.035898 4.775581 42.534733 109 44 58
3.022905 4.846441 42.352699 112 46 60
3.010024 4.916698 42.172218 114 46 61
2.993018 4.979316 41.933956 116 47 62
2.980389 5.048320 41.757023 116 47 63
2.972029 5.123921 41.639893 117 46 63
2.963716 5.199099 41.523415 116 46 64
2.955449 5.273857 41.407589 116 46 65
2.947227 5.348199 41.292408 117 48 67
2.939052 5.422130 41.177868 121 53 73
2.930922 5.495651 41.063957 126 57 78
2.930922 5.584171 41.063957 127 58 78
2.922837 5.657042 40.950680 126 58 76
2.914796 5.729512 40.838024 125 58 74
2.906799 5.801585 40.725983 124 57 73
2.894886 5.865240 40.559074 124 57 72
2.890937 5.944551 40.503742 125 58 72
2.867465 5.982890 40.174889 126 59 73
2.855871 6.044953 40.012455 127 60 74
2.852028 6.122955 39.958603 127 61 73
2.852028 6.209092 39.958603 126 60 71
2.844371 6.278329 39.851334 124 58 69
2.840559 6.355704 39.797913 122 55 67
2.840559 6.441495 39.797913 121 53 65
2.840559 6.527286 39.797913 122 53 66
2.832963 6.595395 39.691502 126 56 70
2.832963 6.680956 39.691502 131 60 75
2.829181 6.757484 39.638508 133 61 77
2.825409 6.833807 39.585655 131 58 75
2.825409 6.919141 39.585655 128 54 71
2.802985 6.948883 39.271484 124 51 68
2.802985 7.033539 39.271484 124 51 68
2.802985 7.118195 39.271484 125 52 68
2.795589 7.183846 39.167866 127 53 68
2.788232 7.249152 39.064793 130 57 71
2.784569 7.323726 39.013458 136 62 76
2.784569 7.407826 39.013458 138 64 79
2.784569 7.491926 39.013458 134 60 77
2.780914 7.566083 38.962261 127 54 72
2.780914 7.650073 38.962261 123 51 70
2.773634 7.713816 38.860264 122 50 70
2.766392 7.777226 38.758801 120 50 69
2.755600 7.830111 38.607597 119 50 68
2.730743 7.841953 38.259335 119 50 69
2.727229 7.914228 38.210094 120 51 70
2.727229 7.996596 38.210094 125 56 75
2.723723 8.068581 38.160980 134 63 84
2.720227 8.140379 38.111992 141 69 92
2.720227 8.222536 38.111992 143 69 93
2.713261 8.283425 38.014393 143 67 91
2.709791 8.354674 37.965782 142 65 89
2.696001 8.393582 37.772572 143 64 88
2.696001 8.475007 37.772572 144 64 88
2.692575 8.545560 37.724579 145 63 87
2.682350 8.594121 37.581318 145 62 86
2.682350 8.675134 37.581318 148 63 87
2.675576 8.734035 37.486416 151 64 89
2.675576 8.814843 37.486416 151 63 90
2.672203 8.884433 37.439144 147 58 87
2.672203 8.965139 37.439144 143 55 84
2.672203 9.045845 37.439144 144 56 85
2.668837 9.115057 37.391994 146 59 90
2.668837 9.195662 37.391994 150 64 94
2.665480 9.264598 37.344959 153 69 98
2.665480 9.345101 37.344959 156 72 101
4.065282 -1.420195 55.287228 114 62 89
4.072867 -1.303441 55.390377 118 65 90
4.072867 -1.184038 55.390377 119 65 88
4.080480 -1.066625 55.493912 119 63 84
4.080480 -0.946999 55.493912 120 64 83
4.072867 -0.825829 55.390377 122 67 86
4.072867 -0.706426 55.390377 123 70 88
4.065282 -0.585930 55.287228 118 67 86
4.050198 -0.465018 55.082081 115 66 85
4.057726 -0.346923 55.184464 115 69 88
4.050198 -0.227541 55.082081 118 74 91
4.050198 -0.108802 55.082081 122 78 96
4.050198 0.009936 55.082081 127 84 102
4.050198 0.128674 55.082081 130 85 104
4.042697 0.246955 54.980080 128 83 102
4.042697 0.365473 54.980080 125 80 99
4.050198 0.484890 55.082081 123 78 97
4.050198 0.603628 55.082081 123 78 95
4.050198 0.722366 55.082081 126 82 98
4.057726 0.842668 55.184464 132 89 104
4.050198 0.959843 55.082081 133 91 106
4.050198 1.078582 55.082081 128 87 103
4.042697 1.195103 54.980080 124 85 101
4.042697 1.313621 54.980080 124 86 103
4.035225 1.429493 54.878452 124 86 105
4.042697 1.550658 54.980080 124 85 105
4.050198 1.672274 55.082081 124 84 106
4.050198 1.791012 55.082081 125 84 107
4.080480 1.924029 55.493912 125 84 107
4.072867 2.039842 55.390377 123 83 106
4.088121 2.167332 55.597832 122 83 106
4.150298 2.565315 56.443428 120 83 108
4.134577 2.676810 56.229626 122 85 110
4.134577 2.798022 56.229626 122 87 110
4.111218 2.902741 55.911945 123 87 110
4.095791 3.011924 55.702145 122 87 109
4.080480 3.120291 55.493912 121 85 107
4.057726 3.221850 55.184464 119 84 105
4.035225 3.322284 54.878452 116 81 101
3.969194 3.384283 53.980442 113 79 97
3.870668 3.413751 52.640499 109 76 94
3.632374 3.416565 49.399738 100 70 87
3.614332 3.505555 49.154373 96 67 83
3.626340 3.623514 49.317677 91 63 79
3.638428 3.742259 49.482071 88 58 73
3.626340 3.836139 49.317677 84 52 66
3.608358 3.922902 49.073128 81 47 60
3.590554 4.008808 48.830990 83 47 57
3.602404 4.127649 48.992149 87 49 58
3.596469 4.226286 48.911438 88 48 57
2.274017 2.872245 30.926294 90 45 57
3.191603 4.405490 43.405323 99 44 63
3.163850 4.459936 43.027885 101 43 62
3.154706 4.539531 42.903530 102 43 60
3.141089 4.612022 42.718334 103 43 58
3.141089 4.704109 42.718334 105 43 58
3.132076 4.782433 42.595757 109 45 58
3.118652 4.853365 42.413204 113 47 61
3.109767 4.930706 42.292366 115 49 62
3.087775 4.986359 41.993271 117 49 63
3.074728 5.055430 41.815834 117 49 63
3.066091 5.131117 41.698376 117 48 63
3.057502 5.206380 41.581573 116 48 63
3.048962 5.281223 41.465424 115 47 63
3.040469 5.355649 41.349918 115 48 66
3.032023 5.429660 41.235058 119 51 71
3.023624 5.503263 41.120834 124 55 76
3.019442 5.584171 41.063957 126 57 78
3.011113 5.657042 40.950680 126 57 76
2.998704 5.721642 40.781925 125 57 74
2.990489 5.793638 40.670197 124 56 72
2.974192 5.849258 40.448559 123 56 71
2.974192 5.936451 40.448559 124 57 71
2.950077 5.974805 40.120598 125 58 72
2.942125 6.044953 40.012455 125 59 73
2.938165 6.122955 39.958603 126 61 73
2.938165 6.209092 39.958603 126 62 73
2.934216 6.286768 39.904896 125 61 71
2.930277 6.364235 39.851334 123 58 69
2.930277 6.450141 39.851334 122 56 68
2.926349 6.527286 39.797913 123 55 69
2.922432 6.604224 39.744637 127 59 73
2.922432 6.689900 39.744637 132 62 77
2.914628 6.757484 39.638508 133 61 78
2.910742 6.833807 39.585655 131 58 75
2.914628 6.928379 39.638508 127 53 70
2.887641 6.948883 39.271484 125 50 66
2.887641 7.033539 39.271484 125 50 66
2.887641 7.118195 39.271484 125 51 66
2.880022 7.183846 39.167866 126 52 66
2.872443 7.249152 39.064793 130 55 69
2.868668 7.323726 39.013458 136 62 75
2.868668 7.407826 39.013458 140 66 79
2.868668 7.491926 39.013458 136 62 77
2.864904 7.566083 38.962261 129 55 72
2.864904 7.650073 38.962261 125 52 70
2.857404 7.713816 38.860264 123 51 70
2.849943 7.777226 38.758801 121 51 70
2.838825 7.830111 38.607597 120 51 71
2.816847 7.852072 38.308701 121 51 72
2.813217 7.924427 38.259335 122 53 74
2.809597 7.996596 38.210094 127 57 79
2.809597 8.078964 38.210094 134 63 87
2.802383 8.140379 38.111992 141 69 93
2.802383 8.222536 38.111992 144 70 95
2.798790 8.294045 38.063129 145 69 94
2.791632 8.354674 37.965782 145 67 93
2.780964 8.404275 37.820690 145 66 91
2.780964 8.485804 37.820690 146 65 89
2.773897 8.545560 37.724579 146 64 87
2.766865 8.605013 37.628952 147 63 86
2.763363 8.675134 37.581318 150 65 88
2.759869 8.745076 37.533810 153 66 90
2.756385 8.814843 37.486416 152 64 90
2.752909 8.884433 37.439144 147 58 87
2.752909 8.965139 37.439144 143 54 84
2.752909 9.045845 37.439144 143 54 86
2.749442 9.115057 37.391994 145 58 91
2.749442 9.195662 37.391994 149 63 95
2.745983 9.264598 37.344959 153 68 99
2.742533 9.333361 37.298042 156 72 103
4.192270 -1.303441 55.390377 117 64 89
4.192270 -1.184038 55.390377 118 64 88
4.200106 -1.066625 55.493912 119 64 86
4.200106 -0.946999 55.493912 121 66 86
4.200106 -0.827373 55.493912 124 70 90
4.200106 -0.707747 55.493912 124 71 91
4.184463 -0.585930 55.287228 118 68 88
4.176685 -0.465882 55.184464 114 67 87
4.176685 -0.346923 55.184464 114 69 89
4.176685 -0.227964 55.184464 116 72 93
4.176685 -0.109005 55.184464 121 78 98
4.168936 0.009936 55.082081 127 84 105
4.176685 0.128914 55.184464 129 85 106
4.161216 0.246955 54.980080 125 81 102
4.161216 0.365473 54.980080 123 78 99
4.168936 0.484890 55.082081 121 75 96
4.168936 0.603628 55.082081 120 76 95
4.168936 0.722366 55.082081 124 80 98
4.168936 0.841105 55.082081 129 86 103
4.168936 0.959843 55.082081 131 88 105
4.168936 1.078582 55.082081 128 87 103
4.161216 1.195103 54.980080 126 86 102
4.168936 1.316058 55.082081 126 86 104
4.161216 1.432140 54.980080 125 86 105
4.168936 1.553535 55.082081 125 85 105
4.176685 1.675382 55.184464 125 84 106
4.168936 1.791012 55.082081 125 83 106
4.192270 1.920439 55.390377 124 83 106
4.192270 2.039842 55.390377 123 83 106
4.200106 2.163281 55.493912 122 83 106
4.247744 2.671749 56.123333 122 85 109
4.247744 2.792732 56.123333 122 86 109
4.231745 2.902741 55.911945 123 87 108
4.215866 3.011924 55.702145 123 86 107
4.207971 3.126134 55.597832 121 84 106
4.168936 3.215873 55.082081 118 82 103
4.115489 3.291860 54.375900 115 79 100
4.078143 3.378141 53.882473 111 77 96
3.949133 3.383753 52.177929 108 74 92
3.770229 3.337845 49.814163 104 72 89
3.726462 3.405233 49.235889 100 69 86
3.720293 3.505555 49.154373 95 66 82
3.732652 3.623514 49.317677 91 62 77
3.745094 3.742259 49.482071 88 58 72
3.732652 3.836139 49.317677 84 53 66
3.708014 3.916428 48.992149 81 48 60
3.683699 3.995665 48.670887 82 46 56
3.695817 4.114071 48.830990 84 46 54
3.695817 4.219335 48.830990 85 46 53
3.251891 4.453481 42.965618 101 43 61
3.242506 4.532980 42.841618 102 42 59
3.228530 4.605396 42.656956 103 43 58
3.233175 4.704109 42.718334 105 43 57
3.223898 4.782433 42.595757 109 46 58
3.210081 4.853365 42.413204 114 49 61
3.196382 4.923692 42.232208 117 51 62
3.182800 4.993422 42.052750 118 52 63
3.164869 5.055430 41.815834 118 52 64
3.155978 5.131117 41.698376 117 51 63
3.147138 5.206380 41.581573 116 48 62
3.142737 5.288609 41.523415 114 47 62
3.133970 5.363118 41.407589 114 48 65
3.120912 5.429660 41.235058 117 50 69
3.112267 5.503263 41.120834 120 53 72
3.103669 5.576458 41.007240 123 54 74
3.099388 5.657042 40.950680 124 55 74
3.086616 5.721642 40.781925 124 55 73
3.078160 5.793638 40.670197 124 55 72
3.053066 5.833364 40.338646 123 55 71
3.053066 5.920320 40.338646 123 56 70
3.036563 5.974805 40.120598 124 57 71
3.028378 6.044953 40.012455 124 59 73
3.028378 6.131207 40.012455 125 62 75
3.024302 6.209092 39.958603 126 64 76
3.020237 6.286768 39.904896 126 63 76
3.016183 6.364235 39.851334 123 60 73
3.016183 6.450141 39.851334 121 57 71
3.012140 6.527286 39.797913 123 57 72
3.008108 6.604224 39.744637 129 62 78
3.008108 6.689900 39.744637 135 65 82
3.004086 6.766518 39.691502 135 63 81
2.996076 6.833807 39.585655 133 59 76
3.000076 6.928379 39.638508 130 55 72
2.972297 6.948883 39.271484 128 53 69
2.972297 7.033539 39.271484 127 51 67
2.972297 7.118195 39.271484 126 51 66
2.964455 7.183846 39.167866 126 51 65
2.956653 7.249152 39.064793 130 54 68
2.952768 7.323726 39.013458 137 62 74
2.952768 7.491926 39.013458 137 63 77
2.948893 7.566083 38.962261 130 56 72
2.948893 7.650073 38.962261 125 53 70
2.945028 7.723926 38.911194 123 51 71
2.937329 7.787393 38.809467 121 52 72
2.925855 7.840307 38.657867 121 52 73
2.899428 7.852072 38.308701 122 53 75
2.899428 7.934652 38.308701 126 57 79
2.895692 8.006902 38.259335 130 60 84
2.891965 8.078964 38.210094 136 65 91
2.888248 8.150843 38.160980 143 71 96
2.880842 8.211994 38.063129 146 73 98
2.880842 8.294045 38.063129 147 71 96
2.873474 8.354674 37.965782 146 69 94
2.862493 8.404275 37.820690 146 67 92
2.858851 8.475007 37.772572 146 65 90
2.855218 8.545560 37.724579 148 64 89
2.847980 8.605013 37.628952 150 65 89
2.847980 8.686129 37.628952 152 66 90
2.840780 8.745076 37.533810 153 66 91
2.837193 8.814843 37.486416 152 63 90
2.833615 8.884433 37.439144 148 59 87
2.833615 8.965139 37.439144 144 55 86
2.833615 9.045845 37.439144 144 56 88
2.826486 9.103592 37.344959 146 59 92
2.826486 9.184095 37.344959 148 61 95
2.826486 9.264598 37.344959 152 67 100
4.319732 -1.186251 55.493912 118 64 87
4.327821 -1.068623 55.597832 121 67 89
4.327821 -0.948773 55.597832 124 69 90
4.327821 -0.828922 55.597832 125 71 92
4.327821 -0.709072 55.597832 123 71 92
4.311673 -0.587023 55.390377 118 67 89
4.311673 -0.467620 55.390377 116 67 89
4.303644 -0.347569 55.287228 116 70 91
4.303644 -0.228388 55.287228 117 72 95
4.303644 -0.109208 55.287228 121 77 100
4.295644 0.009954 55.184464 126 82 106
4.295644 0.128914 55.184464 125 81 105
4.287674 0.247413 55.082081 122 77 102
4.287674 0.366151 55.082081 121 75 100
4.287674 0.484890 55.082081 119 74 98
4.287674 0.603628 55.082081 119 75 97
4.287674 0.722366 55.082081 123 80 100
4.295644 0.842668 55.184464 127 84 102
4.287674 0.959843 55.082081 128 86 103
4.287674 1.078582 55.082081 127 85 102
4.287674 1.197320 55.082081 126 85 102
4.287674 1.316058 55.082081 126 85 103
4.279735 1.432140 54.980080 125 85 103
4.287674 1.553535 55.082081 125 85 105
4.295644 1.675382 55.184464 125 84 106
4.295644 1.794341 55.184464 125 84 106
4.303644 1.916863 55.287228 124 83 106
4.311673 2.039842 55.390377 123 82 105
4.319732 2.163281 55.493912 122 82 105
4.360484 2.666708 56.017437 121 84 106
4.360484 2.787463 56.017437 120 83 104
4.344091 2.897285 55.806847 120 83 104
4.335941 3.011924 55.702145 122 84 105
4.319732 3.120291 55.493912 120 83 105
4.279735 3.209918 54.980080 117 81 102
4.194295 3.261988 53.882473 114 78 99
3.851761 3.315593 49.482071 103 72 88
3.832598 3.405233 49.235889 99 69 85
3.838964 3.517202 49.317677 95 66 81
3.845352 3.629543 49.399738 91 63 76
3.858191 3.748507 49.564678 87 58 71
3.838964 3.836139 49.317677 83 54 64
3.813625 3.916428 48.992149 81 49 58
3.782417 3.989125 48.591232 81 46 54
3.788617 4.100583 48.670887 81 45 52
3.794838 4.212406 48.750809 82 45 51
2.659444 3.025726 34.164837 85 46 52
2.650294 3.088710 34.047295 89 47 57
3.339677 4.447045 42.903530 103 43 60
3.334858 4.532980 42.841618 104 43 59
3.320484 4.605396 42.656956 105 43 57
3.320484 4.697350 42.656956 106 44 56
3.315720 4.782433 42.595757 111 47 58
3.296800 4.846441 42.352699 116 51 61
3.282751 4.916698 42.172218 118 52 62
3.268821 4.986359 41.993271 119 53 62
3.255009 5.055430 41.815834 119 53 63
3.241314 5.123921 41.639893 119 52 62
3.236774 5.206380 41.581573 117 50 62
3.232247 5.288609 41.523415 116 48 62
3.223231 5.363118 41.407589 116 48 64
3.205349 5.422130 41.177868 118 49 67
3.192067 5.488060 41.007240 120 51 70
3.187664 5.568766 40.950680 122 52 72
3.183274 5.649250 40.894272 122 53 72
3.170174 5.713793 40.725983 123 54 72
3.161500 5.785712 40.614559 123 54 71
3.135762 5.825449 40.283909 123 55 71
3.140023 5.920320 40.338646 123 55 70
3.123049 5.974805 40.120598 123 56 71
3.114632 6.044953 40.012455 122 58 72
3.114632 6.131207 40.012455 123 60 75
3.110440 6.209092 39.958603 126 65 79
3.106259 6.286768 39.904896 128 67 81
3.102089 6.364235 39.851334 125 63 79
3.106259 6.458811 39.904896 121 59 74
3.102089 6.536047 39.851334 123 59 76
3.097931 6.613077 39.797913 131 64 82
3.097931 6.698868 39.797913 136 67 86
3.089648 6.766518 39.691502 136 66 84
3.085523 6.842931 39.638508 133 61 79
3.085523 6.928379 39.638508 131 58 75
3.061002 6.958086 39.323498 131 56 74
3.056953 7.033539 39.271484 129 54 71
3.056953 7.118195 39.271484 127 51 68
3.048887 7.183846 39.167866 126 50 66
3.040864 7.249152 39.064793 129 53 68
3.036868 7.323726 39.013458 137 62 75
3.032883 7.482094 38.962261 138 64 78
3.032883 7.566083 38.962261 131 57 73
3.032883 7.650073 38.962261 125 52 70
3.028908 7.723926 38.911194 122 51 70
3.024943 7.797585 38.860264 121 51 71
3.009188 7.840307 38.657867 122 53 74
2.985861 7.862216 38.358192 124 55 78
2.985861 7.944904 38.358192 127 59 82
2.978166 8.006902 38.259335 132 62 88
2.974333 8.078964 38.210094 138 67 93
2.970510 8.150843 38.160980 143 71 97
2.962893 8.211994 38.063129 146 73 98
2.962893 8.294045 38.063129 146 71 96
2.955315 8.354674 37.965782 146 68 93
2.944021 8.404275 37.820690 146 66 91
2.940276 8.475007 37.772572 146 65 90
2.936540 8.545560 37.724579 148 65 90
2.932813 8.615933 37.676704 151 66 92
2.929096 8.686129 37.628952 153 66 93
2.925388 8.756146 37.581318 153 65 93
2.918001 8.814843 37.486416 152 63 92
2.914321 8.884433 37.439144 149 60 91
2.914321 8.965139 37.439144 147 58 90
2.914321 9.045845 37.439144 146 59 92
2.906990 9.103592 37.344959 147 60 95
2.903337 9.172557 37.298042 148 61 97
2.903337 9.252959 37.298042 153 66 102
4.439358 -1.186251 55.493912 116 64 85
4.447671 -1.068623 55.597832 122 69 89
4.447671 -0.948773 55.597832 125 71 91
4.447671 -0.828922 55.597832 124 71 91
4.447671 -0.709072 55.597832 122 70 91
4.439358 -0.588121 55.493912 119 69 91
4.431076 -0.467620 55.390377 118 69 92
4.431076 -0.348217 55.390377 120 72 95
4.431076 -0.228814 55.390377 121 74 98
4.431076 -0.109411 55.390377 123 77 102
4.414603 0.009954 55.184464 125 80 105
4.422824 0.129154 55.287228 124 78 105
4.414603 0.247873 55.184464 122 76 104
4.406413 0.366151 55.082081 121 75 102
4.414603 0.485791 55.184464 120 75 100
4.406413 0.603628 55.082081 121 77 101
4.406413 0.722366 55.082081 124 81 102
4.414603 0.842668 55.184464 126 83 102
4.414603 0.961627 55.184464 125 84 101
4.406413 1.078582 55.082081 125 84 100
4.406413 1.197320 55.082081 125 84 100
4.414603 1.318505 55.184464 125 85 101
4.406413 1.434797 55.082081 126 85 102
4.414603 1.556423 55.184464 126 85 103
4.422824 1.678502 55.287228 125 84 105
4.422824 1.797682 55.287228 125 84 105
4.431076 1.920439 55.390377 124 83 105
4.439358 2.043655 55.493912 123 82 105
4.447671 2.167332 55.597832 123 82 105
4.447671 2.287183 55.597832 123 82 105
4.498213 2.555598 56.229626 122 83 105
4.464392 2.656683 55.806847 120 83 103
4.472800 2.782214 55.911945 118 81 101
4.456016 2.891849 55.702145 119 82 101
4.447671 3.006284 55.597832 120 83 103
4.439358 3.120291 55.493912 119 83 103
4.382023 3.198073 54.777199 117 81 101
4.294858 3.250191 53.687599 114 78 99
4.152197 3.254118 51.904270 110 76 95
4.039212 3.274414 50.491909 106 74 92
3.951841 3.310076 49.399738 102 72 88
3.938734 3.405233 49.235889 98 70 84
3.951841 3.523054 49.399738 93 67 80
3.958428 3.635592 49.482071 89 63 75
3.965036 3.748507 49.564678 85 59 70
3.938734 3.829777 49.235889 82 54 63
3.912779 3.909976 48.911438 79 50 57
3.880811 3.982607 48.511833 79 47 53
3.887163 4.093872 48.591232 79 46 52
2.726816 3.018778 34.086388 84 46 52
2.720569 3.085172 34.008297 89 48 56
3.427210 4.440629 42.841618 105 44 60
3.427210 4.532980 42.841618 106 44 59
3.407542 4.598788 42.595757 107 44 57
3.407542 4.690610 42.595757 108 45 56
3.402660 4.775581 42.534733 113 49 59
3.388098 4.846441 42.352699 118 53 62
3.364103 4.902770 42.052750 120 54 62
3.349868 4.972292 41.874813 120 54 62
3.335754 5.041230 41.698376 119 53 61
3.326410 5.116745 41.581573 120 53 62
3.321758 5.199099 41.523415 119 51 62
3.317118 5.281223 41.465424 118 50 63
3.303278 5.348199 41.292408 117 49 64
3.289552 5.414620 41.120834 118 50 66
3.280465 5.488060 41.007240 120 50 68
3.275940 5.568766 40.950680 121 51 70
3.275940 5.657042 40.950680 123 52 71
3.262440 5.721642 40.781925 124 53 71
3.253502 5.793638 40.670197 124 54 71
3.222601 5.825449 40.283909 124 54 71
3.231369 5.928375 40.393528 124 55 71
3.209536 5.974805 40.120598 122 55 70
3.200885 6.044953 40.012455 120 55 71
3.200885 6.131207 40.012455 122 58 75
3.196577 6.209092 39.958603 127 64 81
3.192281 6.286768 39.904896 130 68 85
3.187995 6.364235 39.851334 126 64 81
3.192281 6.458811 39.904896 121 59 76
3.187995 6.536047 39.851334 123 60 78
3.183722 6.613077 39.797913 131 66 84
3.183722 6.698868 39.797913 136 69 88
3.179460 6.775576 39.744637 136 68 86
3.170970 6.842931 39.638508 134 63 82
3.170970 6.928379 39.638508 132 61 80
3.145770 6.958086 39.323498 132 59 78
3.141609 7.033539 39.271484 131 57 75
3.141609 7.118195 39.271484 128 53 71
3.133320 7.183846 39.167866 125 50 68
3.125075 7.249152 39.064793 128 53 70
3.120968 7.323726 39.013458 136 61 76
3.116872 7.398104 38.962261 141 67 81
3.116872 7.482094 38.962261 138 64 79
3.112787 7.556167 38.911194 131 58 74
3.116872 7.650073 38.962261 125 52 70
3.112787 7.723926 38.911194 120 49 68
3.108713 7.797585 38.860264 119 50 70
3.096554 7.850529 38.708267 121 52 75
3.068549 7.862216 38.358192 124 57 80
3.068549 7.944904 38.358192 128 61 85
3.064589 8.017233 38.308701 133 64 89
3.056701 8.078964 38.210094 137 67 93
3.056701 8.161333 38.210094 141 71 95
3.044945 8.211994 38.063129 144 72 97
3.041046 8.283425 38.014393 145 71 95
3.037157 8.354674 37.965782 145 68 92
3.025550 8.404275 37.820690 145 66 91
3.017861 8.464238 37.724579 147 67 92
3.017861 8.545560 37.724579 151 68 93
3.014031 8.615933 37.676704 152 68 95
3.010211 8.686129 37.628952 153 67 95
3.006401 8.756146 37.581318 152 66 94
2.998809 8.814843 37.486416 151 64 94
2.995027 8.884433 37.439144 149 62 95
2.995027 8.965139 37.439144 149 62 95
2.995027 9.045845 37.439144 149 62 96
2.983740 9.092155 37.298042 150 63 98
2.983740 9.172557 37.298042 151 64 100
2.979996 9.241349 37.251244 154 67 103
4.567522 -1.068623 55.597832 121 68 88
4.567522 -0.948773 55.597832 123 70 90
