ply
format ascii 1.0
element vertex 1190
property float x
property float y
property float z
property uchar red
property uchar green
property uchar blue
end_header
-8.300519 -0.068590 34.724258 165 86 103
-8.310238 0.006271 34.764919 164 85 103
-11.193917 0.715072 46.828457 159 84 101
-11.521012 1.151551 48.196823 154 79 98
-9.301368 1.600728 38.911194 152 74 99
-8.166793 1.626416 34.164837 154 75 100
-8.129374 1.692274 34.008297 155 76 102
-8.157406 1.845236 34.125565 152 75 102
-8.120072 1.910018 33.969383 152 74 103
-8.120072 1.983244 33.969383 152 74 105
-8.129374 2.058826 34.008297 153 75 107
-8.148041 2.137033 34.086388 154 77 109
-8.129374 2.205447 34.008297 155 79 110
-8.129374 2.278758 34.008297 155 79 110
-8.120072 2.349377 33.969383 154 78 106
-8.083079 2.411566 33.814625 151 76 100
-8.083079 2.484460 33.814625 149 75 97
-8.092296 2.560268 33.853184 149 77 95
-8.073883 2.627253 33.776157 149 80 95
-8.083079 2.703138 33.814625 153 86 98
-8.083079 2.776031 33.814625 161 95 108
-8.083079 2.848924 33.814625 166 102 115
-8.064709 2.915177 33.737774 161 98 112
-8.064709 2.987904 33.737774 151 90 106
-8.064709 3.060631 33.737774 149 88 106
-8.064709 3.133358 33.737774 149 89 109
-8.064709 3.206086 33.737774 148 89 111
-8.055554 3.275091 33.699482 146 90 112
-8.037309 3.340153 33.623150 145 90 113
-8.028216 3.408773 33.585117 144 91 114
-10.884883 6.192263 45.535648 136 126 145
-10.868214 6.280789 45.465916 125 121 138
-10.835028 6.359321 45.327087 128 128 145
-10.802045 6.437375 45.189106 140 143 160
-10.752945 6.505084 44.983700 164 170 183
-10.752945 6.602054 44.983700 202 206 215
-10.656071 6.638672 44.578442 235 237 242
-10.560927 6.674636 44.180420 251 252 253
-10.467468 6.709964 43.789444 252 254 254
-10.375648 7.025373 43.405323 254 254 254
-10.345399 7.098186 43.278778 254 253 254
-10.255698 7.499069 42.903530 163 143 164
-10.270540 7.602540 42.965618 190 166 186
-10.345399 7.751247 43.278778 214 189 206
-10.226143 7.754115 42.779888 209 181 194
-8.028216 6.232303 33.585117 159 123 133
-9.133776 7.337652 38.210094 152 105 115
-8.028216 6.666692 33.585117 137 81 97
-8.092296 6.792880 33.853184 133 73 92
-8.092296 6.865856 33.853184 133 71 91
-8.092296 6.938832 33.853184 132 69 90
-7.965144 6.901634 33.321259 130 67 87
-7.850601 6.873181 32.842083 127 65 83
-7.841927 6.936305 32.805794 122 62 79
-7.885493 7.045950 32.988049 118 58 75
-7.885493 7.117062 32.988049 113 55 69
-7.876740 7.180195 32.951435 109 52 65
-13.441180 12.494991 56.229626 101 47 56
-10.498437 12.599638 43.918999 85 41 47
-10.406075 12.864158 43.532612 77 37 41
-10.285425 12.807761 43.027885 77 37 41
-7.947305 10.326266 33.246632 73 40 42
-7.911866 10.351567 33.098373 72 39 42
-7.929546 10.446207 33.172337 71 39 42
-7.911866 10.494265 33.098373 70 39 42
-7.903055 10.553848 33.061516 69 38 42
-7.938416 10.672657 33.209442 68 37 41
-7.983063 10.804674 33.396221 67 36 40
-7.965144 10.852251 33.321259 67 36 39
-7.965144 10.924080 33.321259 67 36 39
-7.947305 10.971283 33.246632 67 36 39
-7.903055 10.981465 33.061516 67 36 39
-7.885493 11.028172 32.988049 67 37 39
-7.868008 11.074674 32.914902 66 37 40
-7.841927 11.108680 32.805794 66 39 41
-7.816017 11.142462 32.697403 66 40 41
-7.833271 11.237700 32.769585 66 40 41
-7.816017 11.283431 32.697403 65 41 41
-8.463229 -4.075385 35.727127 98 46 66
-8.442909 -3.988769 35.641346 116 56 76
-8.463229 -3.921353 35.727127 125 59 77
-8.432786 -3.830509 35.598610 129 60 76
-8.412612 -3.744790 35.513447 133 62 76
-8.545496 -3.026299 36.074413 143 63 89
-8.535126 -2.944957 36.030632 147 65 92
-8.545496 -2.870771 36.074413 150 67 93
-8.545496 -2.793007 36.074413 152 68 93
-8.514460 -2.705381 35.943394 152 69 92
-8.504164 -2.624721 35.899929 152 69 90
-8.514460 -2.550417 35.943394 152 69 88
-8.493893 -2.466962 35.856571 152 70 88
-8.412612 -2.366800 35.513447 152 71 89
-8.352664 -2.273925 35.260384 152 72 89
-8.313171 -2.187523 35.093666 152 73 89
-8.293566 -2.106892 35.010899 152 75 89
-8.293566 -2.031420 35.010899 152 76 89
-8.283796 -1.953645 34.969662 152 77 89
-8.303357 -1.882697 35.052235 153 77 90
-8.323009 -1.811414 35.135197 155 77 91
-8.323009 -1.735674 35.135197 158 78 94
-8.313171 -1.657972 35.093666 161 80 97
-8.313171 -1.582322 35.093666 163 81 101
-8.323009 -1.508455 35.135197 165 82 104
-8.323009 -1.432715 35.135197 165 83 105
-8.323009 -1.356976 35.135197 162 80 103
-8.332871 -1.282754 35.176826 157 75 99
-8.332871 -1.206925 35.176826 154 73 97
-8.332871 -1.131095 35.176826 155 75 99
-8.332871 -1.055266 35.176826 157 76 101
-8.332871 -0.979437 35.176826 158 78 103
-8.274051 -0.671346 34.928520 163 86 109
-8.244951 -0.593956 34.805676 163 86 108
-8.244951 -0.518927 34.805676 164 87 107
-8.254628 -0.444418 34.846527 165 88 105
-8.254628 -0.294184 34.846527 167 90 104
-8.235296 -0.218553 34.764919 167 90 104
-8.225665 -0.143444 34.724258 167 90 103
-8.225665 -0.068590 34.724258 165 88 102
-8.225665 0.006264 34.724258 164 87 103
-8.244951 0.081308 34.805676 163 86 103
-11.435680 1.153424 48.275192 154 79 101
-9.241713 1.520835 39.013458 153 75 100
-9.229585 1.602829 38.962261 152 75 100
-9.205423 1.682402 38.860264 153 75 100
-8.083843 1.845236 34.125565 153 77 102
-8.056064 1.912206 34.008297 152 76 104
-8.056064 1.985516 34.008297 152 76 105
-8.056064 2.058826 34.008297 153 78 107
-8.074562 2.137033 34.086388 154 79 109
-8.065302 2.207976 34.047295 154 80 109
-8.056064 2.278758 34.008297 153 80 107
-8.056064 2.352068 34.008297 152 79 104
-8.010186 2.411566 33.814625 151 77 100
-8.010186 2.484460 33.814625 149 77 97
-8.019320 2.560268 33.853184 147 77 94
-8.001073 2.627253 33.776157 147 80 94
-8.010186 2.703138 33.814625 152 87 99
-8.010186 2.776031 33.814625 162 99 111
-8.010186 2.848924 33.814625 167 105 117
-7.991981 2.915177 33.737774 159 98 111
-7.982910 2.984513 33.699482 150 90 104
-7.982910 3.057157 33.699482 149 90 106
-7.982910 3.129802 33.699482 150 91 110
-7.973859 3.198816 33.661274 149 92 112
-7.973859 3.271378 33.661274 148 92 114
-7.964828 3.340153 33.623150 147 92 115
-7.955818 3.408773 33.585117 146 93 116
-7.973859 3.489065 33.661274 147 95 118
-7.991981 3.569722 33.737774 154 104 125
-10.803292 6.201775 45.605595 132 125 143
-10.753736 6.271186 45.396397 130 127 144
-10.720950 6.349627 45.257992 138 139 154
-10.688364 6.427592 45.120430 155 159 172
-10.639853 6.495243 44.915646 188 193 202
-10.623781 6.582108 44.847797 226 229 233
-10.544143 6.628719 44.511608 248 249 250
-10.403763 6.635141 43.918999 254 254 254
-10.342564 6.690228 43.660652 252 254 254
-10.312234 6.764451 43.532612 250 254 254
-10.312234 6.858293 43.532612 250 254 254
-10.297135 6.941955 43.468876 253 254 254
-10.222301 6.984528 43.152969 254 254 254
-10.192672 7.057037 43.027885 253 253 254
-10.148547 7.672952 42.841618 228 207 222
-10.104804 7.731833 42.656956 222 197 209
-9.028169 7.236657 38.111992 151 111 121
-9.039773 7.328220 38.160980 150 107 118
-8.868781 7.270309 37.439144 148 101 113
-8.046846 6.889423 33.969383 135 74 94
-8.019320 6.938832 33.853184 134 71 92
-7.893315 6.901634 33.321259 131 69 90
-7.788420 6.880792 32.878452 128 66 86
-7.779805 6.943977 32.842083 123 63 82
-7.823074 7.053788 33.024742 118 59 76
-7.823074 7.124978 33.024742 113 55 70
-7.814382 7.188173 32.988049 109 52 65
-13.345243 12.518702 56.336323 103 47 57
-10.672145 12.827550 45.051960 87 41 47
-10.528358 12.942149 44.444973 82 40 44
-10.403763 12.883662 43.918999 80 38 43
-10.357796 12.920995 43.724953 77 37 41
-7.840517 10.351567 33.098373 72 39 42
-7.875637 10.469603 33.246632 71 39 42
-7.866827 10.529480 33.209442 70 39 42
-7.875637 10.612940 33.246632 69 38 41
-7.884466 10.696587 33.283905 68 37 41
-7.902184 10.864445 33.358700 68 36 39
-7.893315 10.924080 33.321259 67 35 39
-7.866827 10.959010 33.209442 67 35 39
-7.814382 10.957062 32.988049 67 36 40
-7.797055 11.003720 32.914902 67 36 40
-7.788420 11.062409 32.878452 67 38 41
-7.762630 11.096418 32.769585 67 39 41
-7.737011 11.130204 32.661434 66 40 41
-7.745533 11.212947 32.697403 66 40 42
-7.728509 11.258633 32.625542 65 40 42
-8.416598 -4.167445 35.856571 100 45 69
-8.396317 -4.080295 35.770172 113 51 72
-8.376134 -3.993563 35.684185 124 57 76
-8.396317 -3.926078 35.770172 128 58 75
-8.346040 -3.825922 35.555977 131 58 73
-8.336057 -3.744790 35.513447 132 58 72
-8.376134 -3.685871 35.684185 133 58 71
-8.336057 -3.591680 35.513447 132 56 70
-8.396317 -3.386319 35.770172 136 56 76
-8.447204 -3.018963 35.986961 144 61 89
-8.447204 -2.941387 35.986961 146 63 91
-8.447204 -2.863811 35.986961 148 65 92
-8.457456 -2.789617 36.030632 150 67 91
-8.426776 -2.702110 35.899929 151 68 90
-8.406446 -2.618389 35.813320 151 69 90
-8.396317 -2.538126 35.770172 151 70 90
-8.396317 -2.461018 35.770172 151 71 90
-8.316161 -2.361151 35.428692 152 72 90
-8.276655 -2.273925 35.260384 152 74 91
-8.237522 -2.187523 35.093666 153 76 92
-8.227797 -2.109380 35.052235 153 77 92
-8.247271 -1.887153 35.135197 155 80 93
-8.257042 -1.813560 35.176826 157 80 94
-8.266837 -1.739792 35.218555 159 81 96
-8.247271 -1.659934 35.135197 162 82 99
-8.257042 -1.510242 35.176826 167 85 106
-8.257042 -1.434413 35.176826 168 86 108
-8.257042 -1.358584 35.176826 163 81 104
-8.266837 -1.284276 35.218555 156 75 97
-8.266837 -1.208356 35.218555 153 72 96
-8.266837 -1.132437 35.218555 155 74 98
-8.266837 -1.056518 35.218555 157 76 101
-8.266837 -0.980599 35.218555 158 78 103
-8.266837 -0.904679 35.218555 159 79 104
-8.276655 -0.753735 35.260384 164 86 108
-8.198757 -0.671346 34.928520 164 86 108
-8.169922 -0.593956 34.805676 165 87 108
-8.179511 -0.519536 34.846527 165 88 107
-8.179511 -0.444418 34.846527 166 88 105
-8.150811 -0.218298 34.724258 167 90 103
-8.141289 -0.143276 34.683693 166 90 103
-8.141289 -0.068510 34.683693 164 89 102
-8.141289 0.006256 34.683693 162 88 102
-8.160356 0.081212 34.764919 162 87 102
-11.350071 1.155302 48.353813 154 79 102
-9.169662 1.522836 39.064793 152 77 101
-9.157613 1.604935 39.013458 152 76 101
-9.133609 1.684607 38.911194 153 76 100
-9.133609 1.768487 38.911194 154 77 100
-8.037997 1.851621 34.243649 153 78 102
-8.010280 1.918799 34.125565 153 78 102
-8.001083 1.990075 34.086388 152 78 104
-8.001083 2.063554 34.086388 153 79 105
-8.010280 2.139489 34.125565 153 81 106
-8.001083 2.210511 34.086388 153 81 105
-7.991908 2.281371 34.047295 151 80 102
-7.982753 2.352068 34.008297 150 79 101
-7.946343 2.414316 33.853184 149 79 99
-7.937293 2.484460 33.814625 147 78 96
-7.946343 2.560268 33.853184 144 78 93
-7.937293 2.630245 33.814625 145 80 93
-7.937293 2.703138 33.814625 152 90 101
-7.937293 2.776031 33.814625 164 103 113
-7.937293 2.848924 33.814625 167 107 118
-7.910265 2.911868 33.699482 159 100 112
-7.901296 2.981129 33.661274 152 93 106
-7.901296 3.053691 33.661274 150 93 108
-7.892348 3.122713 33.623150 151 95 111
-7.892348 3.195193 33.623150 150 94 113
-7.892348 3.267673 33.623150 149 94 115
-7.892348 3.340153 33.623150 148 94 116
-7.883420 3.408773 33.585117 146 94 116
-7.910265 3.493026 33.699482 148 97 119
-7.937293 3.577854 33.814625 156 106 127
-10.688563 6.192263 45.535648 137 133 149
-10.655877 6.271186 45.396397 141 141 155
-10.623389 6.349627 45.257992 151 153 165
-10.575027 6.417839 45.051960 172 176 185
-10.527104 6.485431 44.847797 208 212 218
-10.527104 6.582108 44.847797 240 242 244
-10.432549 6.618795 44.444973 253 253 253
-10.293860 6.625340 43.854126 254 254 254
-10.248446 6.690228 43.660652 252 254 254
-10.218392 6.764451 43.532612 251 254 254
-10.218392 6.858293 43.532612 252 254 254
-9.843141 7.239202 41.933956 206 198 214
-9.998484 7.628918 42.595757 231 212 227
-9.998484 7.720739 42.595757 225 201 214
-8.957511 7.245958 38.160980 153 115 127
-8.957511 7.328220 38.160980 152 111 123
-8.777007 7.261153 37.391994 150 105 119
-8.614268 7.205631 36.698692 147 98 113
-8.436977 7.134813 35.943394 141 89 105
-7.982753 6.897315 34.008297 137 78 98
-7.946343 6.938832 33.853184 135 75 96
-7.821485 6.901634 33.321259 133 71 92
-7.726101 6.888421 32.914902 128 69 89
-7.717545 6.951667 32.878452 124 65 83
-7.743270 7.045950 32.988049 118 60 77
-7.743270 7.117062 32.988049 113 55 71
-7.734676 7.180195 32.951435 109 52 66
-7.726101 7.243188 32.914902 106 49 62
-13.223802 12.518702 56.336323 104 48 60
-7.803968 10.469603 33.246632 72 39 41
-7.830274 10.576804 33.358700 71 39 41
-7.865624 10.841259 33.509304 69 36 40
-7.839081 10.876665 33.396221 69 36 39
-7.821485 10.924080 33.321259 68 36 40
-7.795238 10.959010 33.209442 68 36 40
-7.743270 10.957062 32.988049 68 36 40
-7.726101 11.003720 32.914902 67 37 40
-7.726101 11.074674 32.914902 67 38 41
-7.700490 11.108680 32.805794 67 38 42
-7.675048 11.142462 32.697403 67 39 42
-7.675048 11.212947 32.697403 66 40 42
-7.649773 11.246274 32.589729 65 40 42
-7.624664 11.279383 32.482761 63 39 40
-8.349387 -4.172484 35.899929 117 53 78
-8.339304 -4.090150 35.856571 124 56 77
-8.319209 -4.003186 35.770172 129 58 76
-8.329244 -3.930814 35.813320 132 59 74
-8.279308 -3.830509 35.598610 133 58 72
-8.269393 -3.749275 35.555977 133 57 70
-8.299211 -3.685871 35.684185 133 56 69
-8.249634 -3.587389 35.471020 133 56 70
-8.220171 -3.498386 35.344337 133 55 71
-8.309197 -3.459259 35.727127 134 55 72
-8.319209 -3.386319 35.770172 136 54 75
-8.359495 -3.015308 35.943394 145 61 89
-8.359495 -2.937826 35.943394 146 62 91
-8.349387 -2.856886 35.899929 148 64 90
-8.369628 -2.786236 35.986961 150 65 90
-8.329244 -2.695590 35.813320 150 67 89
-8.279308 -2.602691 35.598610 150 68 89
-8.249634 -2.516899 35.471020 151 70 90
-8.279308 -2.449214 35.598610 151 70 92
-8.229968 -2.358337 35.386463 151 72 92
-8.190917 -2.271227 35.218555 152 74 93
-8.152235 -2.184940 35.052235 153 76 95
-8.190917 -1.739792 35.218555 159 82 99
-8.181212 -1.661901 35.176826 162 83 101
-8.181212 -1.510242 35.176826 168 88 108
-8.181212 -1.434413 35.176826 169 89 110
-8.190917 -1.360195 35.218555 164 84 105
-8.190917 -1.284276 35.218555 158 77 98
-8.190917 -1.208356 35.218555 155 74 96
-8.200645 -1.133782 35.260384 156 75 98
-8.200645 -1.057773 35.260384 159 78 101
-8.200645 -0.981763 35.260384 160 79 103
-8.200645 -0.905754 35.260384 161 80 104
-8.229968 -0.832711 35.386463 163 83 105
-8.210397 -0.754631 35.302311 163 85 106
-8.142622 -0.672930 35.010899 165 87 108
-8.104394 -0.594653 34.846527 166 88 108
-8.142622 -0.521986 35.010899 166 88 107
-8.123463 -0.445464 34.928520 166 88 105
-8.075957 -0.218298 34.724258 166 89 103
-8.066523 -0.143276 34.683693 165 89 102
-8.075957 -0.068590 34.724258 163 88 101
-8.075957 0.006264 34.724258 161 88 101
-8.085414 0.081212 34.764919 161 88 102
-8.094893 0.306396 34.805676 165 89 107
-8.075957 0.380533 34.724258 166 89 109
-8.066523 0.454855 34.683693 166 88 109
-8.047720 0.528386 34.602848 163 85 107
-11.319579 1.162878 48.670887 154 78 104
-9.073513 1.520835 39.013458 152 78 104
-9.061605 1.602829 38.962261 152 78 102
-9.037884 1.682402 38.860264 153 78 101
-9.026070 1.763863 38.809467 154 78 100
-8.001093 1.786043 34.402367 155 80 100
-8.001093 1.860203 34.402367 154 79 100
-7.964179 1.925439 34.243649 153 79 100
-7.955004 1.996953 34.204197 153 79 101
-7.945850 2.068303 34.164837 153 80 101
-7.945850 2.141951 34.164837 152 81 101
-7.936717 2.213052 34.125565 151 81 99
-7.927604 2.283990 34.086388 148 80 97
-7.918513 2.354765 34.047295 147 80 96
-7.882355 2.417073 33.891830 147 80 96
-7.873368 2.487293 33.853184 145 79 94
-7.873368 2.560268 33.853184 142 78 91
-7.864400 2.630245 33.814625 143 81 93
-7.873368 2.706221 33.853184 153 93 103
-7.864400 2.776031 33.814625 165 106 115
-7.864400 2.848924 33.814625 166 108 118
-7.846527 2.915177 33.737774 160 103 114
-7.828734 2.981129 33.661274 156 99 112
-7.828734 3.053691 33.661274 155 99 112
-7.819868 3.122713 33.623150 154 99 114
-7.819868 3.195193 33.623150 153 99 115
-7.819868 3.267673 33.623150 151 98 116
-7.819868 3.340153 33.623150 149 97 116
-7.819868 3.412634 33.623150 148 97 117
-7.846527 3.496995 33.737774 151 102 122
-7.873368 3.581933 33.853184 161 112 132
-10.541899 6.163901 45.327087 149 147 162
-10.493834 6.233063 45.120430 154 155 167
-10.477911 6.320722 45.051960 164 167 177
-10.430429 6.388754 44.847797 191 194 201
-10.399011 6.465897 44.712715 226 229 232
-10.399011 6.562283 44.712715 248 249 250
-10.290526 6.589203 44.246262 254 254 254
-10.154328 6.596111 43.660652 254 254 254
-10.124551 6.670609 43.532612 252 255 255
-10.124551 6.764451 43.532612 251 254 254
-9.836102 7.574581 42.292366 225 205 223
-9.878317 7.698649 42.473881 216 193 209
-9.697954 7.647971 41.698376 183 157 172
-9.643776 7.694631 41.465424 162 133 148
-8.886671 7.255284 38.210094 155 121 135
-8.863855 7.318813 38.111992 155 116 131
-8.685463 7.252019 37.344959 154 112 126
-8.524621 7.196735 36.653385 151 105 120
-8.349387 7.126185 35.899929 145 96 112
-8.104394 6.992201 34.846527 141 88 105
-7.909442 6.897315 34.008297 139 82 101
-7.855453 6.923044 33.776157 136 79 98
-7.740968 6.893896 33.283905 134 75 95
-7.655148 6.888421 32.914902 130 71 90
-7.655148 6.959374 32.914902 125 67 85
-7.680694 7.053788 33.024742 119 61 79
-7.672159 7.117062 32.988049 113 56 72
-7.663644 7.180195 32.951435 109 52 68
-7.655148 7.243188 32.914902 107 51 65
-7.740968 9.261609 33.283905 90 42 48
-7.740968 9.333358 33.283905 90 42 47
-7.706410 9.363120 33.135315 89 43 47
-7.706410 9.434548 33.135315 88 43 47
-7.811022 10.865787 33.585117 70 36 39
-7.775837 10.888914 33.433830 70 36 39
-7.758363 10.936355 33.358700 70 36 40
-7.723650 10.959010 33.209442 69 36 40
-7.672159 10.957062 32.988049 68 36 40
-7.646670 10.991534 32.878452 68 37 40
-7.655148 11.074674 32.914902 67 37 41
-7.638212 11.120969 32.842083 67 38 42
-7.612947 11.154747 32.733452 66 39 42
-7.604563 11.212947 32.697403 65 39 42
-7.571210 11.233942 32.553993 64 39 41
-7.554643 11.279383 32.482761 63 39 41
-7.538148 11.324624 32.411835 61 37 39
-8.282014 -4.255018 35.943394 133 65 96
-8.282014 -4.177536 35.943394 129 59 84
-8.271999 -4.095096 35.899929 129 58 78
-8.262009 -4.012856 35.856571 132 58 75
-8.271999 -3.940320 35.899929 134 60 74
-8.242101 -3.848969 35.770172 134 59 72
-8.222288 -3.762794 35.684185 134 57 69
-8.252043 -3.699209 35.813320 134 56 69
-8.182946 -3.591680 35.513447 134 56 70
-8.153687 -3.502556 35.386463 134 55 71
-8.232183 -3.459259 35.727127 134 54 71
-8.242101 -3.386319 35.770172 135 52 73
-8.271999 -3.089050 35.899929 145 59 87
-8.271999 -3.011662 35.899929 146 61 89
-8.271999 -2.934274 35.899929 147 62 90
-8.252043 -2.849993 35.813320 148 63 89
-8.252043 -2.772792 35.813320 148 64 88
-8.222288 -2.685871 35.684185 150 66 88
-8.173170 -2.593363 35.471020 150 68 89
-8.163417 -2.513896 35.428692 150 69 90
-8.182946 -2.443355 35.513447 150 70 92
-8.153687 -2.358337 35.386463 151 72 94
-8.124636 -2.273925 35.260384 151 74 95
-8.095791 -2.190112 35.135197 153 76 97
-8.105383 -1.661901 35.176826 162 83 103
-8.114998 -1.436115 35.218555 168 88 108
-8.114998 -1.284276 35.218555 160 80 100
-8.114998 -1.208356 35.218555 158 77 98
-8.124636 -1.133782 35.260384 159 78 99
-8.124636 -1.057773 35.260384 161 80 102
-8.124636 -0.981763 35.260384 162 81 103
-8.124636 -0.905754 35.260384 162 82 104
-8.153687 -0.832711 35.386463 163 83 105
-8.134296 -0.754631 35.302311 163 84 106
-8.067150 -0.672930 35.010899 165 86 108
-8.038712 -0.595352 34.887478 167 88 108
-8.086222 -0.523220 35.093666 167 88 108
-8.057649 -0.445989 34.969662 166 87 107
-8.038712 -0.294529 34.887478 166 88 104
-8.010472 -0.218553 34.764919 165 87 103
-8.001103 -0.143444 34.724258 163 87 102
-8.001103 -0.068590 34.724258 161 87 101
-8.010472 0.006271 34.764919 160 87 100
-8.019863 0.081308 34.805676 160 88 101
-8.038712 0.231910 34.887478 164 91 107
-8.019863 0.306396 34.805676 165 90 109
-8.001103 0.380533 34.724258 166 89 109
-7.982431 0.454324 34.643223 165 88 110
-7.963846 0.527771 34.562565 163 85 108
-7.954585 0.601576 34.522373 159 81 106
-6.107985 0.919067 26.508251 151 80 105
-8.977616 1.602829 38.962261 152 79 103
-8.954114 1.682402 38.860264 153 79 102
-7.917758 1.783976 34.362549 155 78 99
-7.926933 1.860203 34.402367 155 78 99
-7.908605 1.929891 34.322823 154 79 99
-7.908605 2.003879 34.322823 154 80 99
-7.899473 2.075468 34.283188 153 81 99
-7.881271 2.144419 34.204197 152 82 99
-7.872202 2.215599 34.164837 150 82 97
-7.863153 2.286615 34.125565 148 82 96
-7.845119 2.354765 34.047295 146 81 95
-7.809296 2.417073 33.891830 145 81 94
-7.800392 2.487293 33.853184 143 81 94
-7.809296 2.563191 33.891830 142 80 93
-7.800392 2.633245 33.853184 145 84 96
-7.800392 2.706221 33.853184 155 96 106
-7.800392 2.779197 33.853184 164 106 116
-7.800392 2.852173 33.853184 164 107 117
-7.782643 2.918493 33.776157 160 105 116
-7.773799 2.987904 33.737774 160 105 116
-7.764976 3.057157 33.699482 160 105 118
-7.756172 3.126253 33.661274 159 106 119
-7.747388 3.195193 33.623150 158 106 120
-7.747388 3.267673 33.623150 155 104 120
-7.747388 3.340153 33.623150 152 102 118
-7.747388 3.412634 33.623150 152 103 120
-10.444188 6.163901 45.327087 161 161 174
-10.365066 6.214175 44.983700 164 166 177
-10.349385 6.301597 44.915646 179 182 190
-10.318165 6.379118 44.780155 210 213 219
-10.256287 6.436815 44.511608 239 241 243
-10.287133 6.552414 44.645477 252 253 253
-10.149768 6.559875 44.049320 254 254 254
-10.030708 6.576767 43.532612 254 254 254
-9.986778 6.641395 43.341961 253 254 254
-9.554390 7.068932 41.465424 249 248 252
-9.581153 7.178369 41.581573 246 243 248
-9.581153 7.268005 41.581573 229 222 234
-9.676016 7.521012 41.993271 211 193 212
-9.703465 7.633128 42.112400 199 178 197
-9.635132 7.669515 41.815834 178 154 172
-9.621580 7.748742 41.757023 165 140 156
-8.804303 7.255284 38.210094 159 128 144
-8.725693 7.272137 37.868931 158 124 139
-8.572611 7.224756 37.204563 157 119 134
-8.424808 7.179009 36.563107 154 112 126
-8.252043 7.108994 35.813320 148 102 118
-8.029276 6.992201 34.846527 143 93 110
-7.845119 6.905224 34.047295 140 87 105
-7.747388 6.891682 33.623150 138 83 102
-7.669219 6.893896 33.283905 136 79 98
-7.592612 6.896066 32.951435 132 74 93
-7.601048 6.974839 32.988049 126 68 87
-7.617977 7.061643 33.061516 120 63 80
-7.609503 7.124978 33.024742 115 58 74
-7.601048 7.188173 32.988049 111 54 70
-7.592612 7.251227 32.951435 109 52 68
-7.677826 9.200174 33.321259 91 43 49
-7.669219 9.261609 33.283905 92 43 49
-7.660631 9.322906 33.246632 91 44 49
-7.634982 9.363120 33.135315 90 44 48
-7.634982 9.434548 33.135315 89 43 48
-10.508362 13.280116 45.605595 84 42 48
-10.380795 13.216018 45.051960 82 42 47
-7.756172 10.890426 33.661274 71 36 39
-7.712450 10.901190 33.471523 71 36 39
-7.695099 10.948656 33.396221 70 36 40
-7.660631 10.971283 33.246632 69 36 40
-7.601048 10.957062 32.988049 68 37 40
-7.592612 11.015933 32.951435 68 37 40
-7.609503 11.111630 33.024742 67 37 41
-7.575796 11.133284 32.878452 66 38 42
-7.550710 11.167059 32.769585 66 38 42
-7.534079 11.212947 32.697403 66 39 42
-7.509268 11.246274 32.589729 65 39 42
-7.492818 11.291737 32.518337 63 38 41
-7.468279 11.324624 32.411835 62 36 38
-8.214477 -4.337751 35.986961 143 74 107
-8.214477 -4.260175 35.986961 139 68 97
-8.214477 -4.182600 35.986961 135 62 87
-8.214477 -4.105024 35.986961 133 59 79
-8.204532 -4.022572 35.943394 133 59 76
-8.204532 -3.945090 35.943394 135 60 74
-8.194612 -3.862932 35.899929 135 59 72
-8.174841 -3.776411 35.813320 134 58 70
-8.194612 -3.708155 35.899929 135 57 70
-8.125832 -3.600293 35.598610 136 57 72
-8.096706 -3.510925 35.471020 136 57 74
-8.164992 -3.463427 35.770172 135 54 74
-8.164992 -3.386319 35.770172 135 52 74
-8.164992 -3.309210 35.770172 138 53 78
-8.164992 -3.154993 35.770172 145 58 86
-8.184714 -3.085320 35.856571 147 60 88
-8.184714 -3.008025 35.856571 147 61 89
-8.194612 -2.934274 35.899929 148 62 89
-8.155167 -2.843134 35.727127 148 63 88
-8.125832 -2.756169 35.598610 149 64 87
-8.116099 -2.676221 35.555977 150 66 88
-8.077406 -2.587181 35.386463 150 67 89
-8.096706 -2.516899 35.471020 151 69 90
-8.106392 -2.443355 35.513447 151 70 92
-8.087045 -2.361151 35.428692 151 71 94
-8.058197 -2.276628 35.302311 152 73 97
-8.039079 -2.195308 35.218555 154 76 99
-8.039079 -1.284276 35.218555 163 84 102
-8.039079 -1.208356 35.218555 161 82 101
-8.048626 -1.133782 35.260384 162 82 101
-8.048626 -1.057773 35.260384 163 82 102
-8.048626 -0.981763 35.260384 163 83 103
-8.039079 -0.904679 35.218555 163 83 104
-8.048626 -0.753735 35.260384 164 85 107
-7.972875 -0.671346 34.928520 165 86 108
-7.944834 -0.593956 34.805676 166 87 109
-8.001114 -0.522603 35.052235 166 87 109
-7.972875 -0.445464 34.928520 166 87 108
-7.954159 -0.369301 34.846527 167 86 107
-7.954159 -0.294184 34.846527 166 87 105
-7.944834 -0.218810 34.805676 165 87 103
-7.926250 -0.143444 34.724258 163 86 102
-7.935531 -0.068670 34.764919 161 85 101
-7.944834 0.006278 34.805676 160 86 100
-7.954159 0.081403 34.846527 160 87 101
-7.954159 0.156521 34.846527 163 90 105
-7.972875 0.232183 34.928520 165 91 109
-7.954159 0.306755 34.846527 166 91 110
-7.926250 0.380533 34.724258 166 89 110
-7.907752 0.454324 34.643223 164 87 111
-7.889340 0.527771 34.562565 162 86 111
-7.871014 0.600877 34.482281 160 84 110
-7.861883 0.674426 34.442276 159 82 110
-7.807539 1.038428 34.204197 154 83 109
-8.893626 1.602829 38.962261 152 80 104
-7.843685 1.635828 34.362549 156 78 100
-7.834617 1.707925 34.322823 156 78 99
-7.843685 1.783976 34.362549 156 78 99
-7.861883 1.862361 34.442276 156 78 98
-7.843685 1.932124 34.362549 155 79 98
-7.852773 2.008523 34.402367 154 80 97
-7.852773 2.082683 34.402367 154 81 97
-7.825570 2.149371 34.283188 154 82 97
-7.816544 2.220710 34.243649 152 82 95
-7.807539 2.291884 34.204197 149 82 94
-7.780647 2.357469 34.086388 147 82 93
-7.736237 2.417073 33.891830 145 82 94
-7.736237 2.490132 33.891830 145 83 95
-7.736237 2.563191 33.891830 145 85 96
-7.736237 2.636250 33.891830 148 89 99
-7.736237 2.709310 33.891830 154 97 107
-7.727416 2.779197 33.853184 159 104 114
-7.727416 2.852173 33.853184 159 106 115
-7.718614 2.921817 33.814625 159 107 116
-7.709833 2.991303 33.776157 161 109 119
-7.701072 3.060631 33.737774 162 111 123
-7.692331 3.129802 33.699482 163 113 126
-7.683609 3.198816 33.661274 163 115 127
-7.683609 3.271378 33.661274 160 113 126
-7.683609 3.343940 33.661274 156 111 124
-7.674908 3.412634 33.623150 157 113 126
-10.394085 6.094103 45.535648 163 162 176
-10.346478 6.163901 45.327087 169 170 182
-10.252562 6.204774 44.915646 175 177 187
-10.221634 6.282588 44.780155 195 198 205
-10.206240 6.369511 44.712715 225 228 232
-10.114841 6.407993 44.312302 247 248 250
-10.129960 6.513237 44.378540 253 254 254
-10.010256 6.530806 43.854126 253 254 254
-9.922318 6.567138 43.468876 253 254 254
-9.779140 6.564726 42.841618 252 254 254
-9.438640 6.603559 41.349918 253 254 254
-9.425512 6.683387 41.292408 249 252 253
-9.412421 6.762994 41.235058 242 245 251
-9.465005 6.890161 41.465424 239 242 250
-9.451804 6.969812 41.407589 245 246 252
-9.478243 7.078819 41.523415 252 252 254
-9.491517 7.178369 41.581573 251 251 253
-9.491517 7.268005 41.581573 241 238 245
-9.504829 7.367960 41.639893 224 214 230
-9.558454 7.499796 41.874813 205 191 210
-9.544991 7.579374 41.815834 188 171 191
-9.531566 7.658728 41.757023 177 157 177
-9.571954 7.781576 41.933956 172 150 169
-8.589282 7.226053 37.628952 161 131 147
-8.460604 7.197697 37.065220 160 126 141
-8.305078 7.143818 36.383877 156 119 133
-8.125832 7.066373 35.598610 150 108 124
-7.944834 6.984004 34.805676 145 99 115
-7.762822 6.897315 34.008297 142 92 110
-7.648920 6.868347 33.509304 142 89 107
-7.588963 6.886176 33.246632 140 84 103
-7.538313 6.911407 33.024742 135 78 97
-7.563553 7.005977 33.135315 128 71 89
-7.563553 7.077405 33.135315 121 64 81
-7.555121 7.140864 33.098373 115 58 74
-7.538313 7.196168 33.024742 112 55 72
-7.529937 7.259284 32.988049 110 53 69
-7.605997 9.200174 33.321259 95 47 52
-7.597470 9.261609 33.283905 94 46 51
-7.597470 9.333358 33.283905 92 45 49
-7.563553 9.363120 33.135315 90 45 49
-7.563553 9.434548 33.135315 89 44 49
-10.442132 13.321041 45.746136 84 44 49
-10.346478 13.296726 45.327087 83 44 49
-7.701072 10.915176 33.737774 72 37 39
-7.640297 10.901190 33.471523 71 36 39
-7.614543 10.936355 33.358700 70 36 39
-7.588963 10.971283 33.246632 69 36 40
-7.538313 10.969250 33.024742 68 37 40
-7.605997 11.139568 33.321259 68 37 40
-7.572004 11.161291 33.172337 67 37 41
-7.521580 11.157997 32.951435 66 37 42
-7.488335 11.179399 32.805794 66 38 42
-7.471823 11.225309 32.733452 66 39 42
-7.455383 11.271018 32.661434 66 39 42
-7.447190 11.328962 32.625542 64 37 40
-7.414599 11.349404 32.482761 63 35 38
-7.390342 11.382067 32.376492 62 35 37
-8.156674 -4.426056 36.074413 146 77 109
-8.156674 -4.348292 36.074413 143 71 102
-8.156674 -4.270528 36.074413 140 67 94
-8.156674 -4.192764 36.074413 137 63 87
-8.156674 -4.114999 36.074413 135 61 81
-8.136901 -4.027448 35.986961 135 61 77
-8.146776 -3.954666 36.030632 136 60 75
-8.136901 -3.872296 35.986961 136 60 73
-8.117223 -3.785544 35.899929 136 58 72
-8.127050 -3.712645 35.943394 136 57 72
-8.078151 -3.613291 35.727127 138 58 75
-8.049092 -3.523555 35.598610 139 58 78
-8.097640 -3.467605 35.813320 139 57 78
-8.087884 -3.386319 35.770172 139 54 78
-8.087884 -3.309210 35.770172 140 54 80
-8.068441 -3.224332 35.684185 143 56 83
-8.078151 -3.151197 35.727127 145 58 86
-8.097640 -3.081598 35.813320 147 60 88
-8.087884 -3.000777 35.770172 148 61 89
-8.097640 -2.927195 35.813320 148 62 89
-8.058756 -2.836308 35.641346 149 62 88
-8.020243 -2.746290 35.471020 150 64 88
-8.010673 -2.666640 35.428692 150 65 89
-7.982097 -2.581028 35.302311 151 66 90
-8.020243 -2.516899 35.471020 151 68 91
-8.029837 -2.443355 35.513447 151 69 93
-8.010673 -2.361151 35.428692 151 70 94
-7.991599 -2.279339 35.344337 153 72 97
-7.982097 -2.200529 35.302311 155 75 100
-8.010673 -2.132034 35.428692 158 77 102
-8.001124 -2.053212 35.386463 160 79 104
-7.963160 -1.436115 35.218555 166 87 106
-7.963160 -1.284276 35.218555 166 87 105
-7.963160 -1.208356 35.218555 165 86 103
-7.972617 -1.133782 35.260384 165 86 103
-7.972617 -1.057773 35.260384 165 85 103
-7.972617 -0.981763 35.260384 164 85 103
-7.963160 -0.904679 35.218555 163 85 104
-7.972617 -0.829744 35.260384 163 85 106
-7.953724 -0.751948 35.176826 164 86 108
-7.879042 -0.669771 34.846527 166 86 110
-7.869805 -0.593956 34.805676 166 87 110
-7.944312 -0.523840 35.135197 166 87 110
-7.906883 -0.445989 34.969662 167 87 110
-7.888300 -0.294529 34.887478 167 88 108
-7.869805 -0.218810 34.805676 165 87 105
-7.860590 -0.143612 34.764919 162 86 103
-7.860590 -0.068670 34.764919 161 85 102
-7.879042 0.006286 34.846527 160 85 101
-7.879042 0.081403 34.846527 161 86 102
-7.888300 0.156704 34.887478 164 89 106
-7.897581 0.232183 34.928520 166 91 110
-7.869805 0.306396 34.805676 166 90 110
-7.842224 0.380088 34.683693 166 88 110
-7.833073 0.454324 34.643223 164 87 111
-7.814835 0.527771 34.562565 163 86 111
-7.787637 0.600180 34.442276 162 86 112
-7.778614 0.673645 34.402367 161 84 112
-7.760628 0.746076 34.322823 160 84 113
-7.751667 0.966923 34.283188 157 84 112
-7.733806 1.038428 34.204197 155 83 111
-7.742726 1.113443 34.243649 153 82 109
-7.796682 1.567196 34.482281 154 78 99
-7.778614 1.637724 34.402367 156 78 99
-7.778614 1.711884 34.402367 157 78 99
-7.778614 1.786043 34.402367 158 78 98
-7.796682 1.864524 34.482281 158 78 97
-7.787637 1.936607 34.442276 157 79 96
-7.787637 2.010853 34.442276 156 79 95
-7.796682 2.087521 34.482281 155 79 94
-7.760628 2.151856 34.322823 155 80 94
-7.769610 2.228421 34.362549 152 80 92
-7.751667 2.297177 34.283188 148 79 89
-7.716027 2.360179 34.125565 146 80 90
-7.671935 2.419835 33.930561 145 82 92
-7.671935 2.492978 33.930561 146 84 95
-7.671935 2.566121 33.930561 148 87 99
-7.663177 2.636250 33.891830 150 91 102
-7.671935 2.712406 33.930561 153 96 107
-7.663177 2.782369 33.891830 156 102 112
-7.663177 2.855429 33.891830 158 106 116
-7.654439 2.925149 33.853184 160 109 119
-7.645721 2.994710 33.814625 162 113 123
-7.628345 3.060631 33.737774 165 117 128
-7.619686 3.129802 33.699482 167 121 133
-7.611047 3.198816 33.661274 167 124 135
-7.611047 3.271378 33.661274 164 124 134
-7.611047 3.343940 33.661274 161 122 132
-7.637023 3.646593 33.776157 191 154 166
-7.628345 3.715177 33.737774 176 140 154
-7.593827 3.770764 33.585117 161 126 140
-7.585247 4.055769 33.547165 174 147 166
-10.343518 6.122273 45.746136 163 163 177
-10.295925 6.192263 45.535648 174 176 188
-10.155739 6.204774 44.915646 188 191 200
-10.125103 6.282588 44.780155 212 215 221
-10.094651 6.359933 44.645477 238 239 242
-9.945102 6.360527 43.984062 251 252 253
-9.974656 6.474525 44.114773 253 254 254
-9.915721 6.530806 43.854126 251 253 253
-9.799917 6.547964 43.341961 250 253 253
-9.658912 6.545835 42.718334 250 253 253
-9.336500 6.683387 41.292408 251 254 254
-9.297706 6.744260 41.120834 249 251 254
-9.349504 6.870969 41.349918 248 250 254
-9.349504 6.960105 41.349918 251 251 254
-9.388732 7.078819 41.523415 254 254 254
-9.415068 7.188437 41.639893 254 253 254
-9.415068 7.278198 41.639893 250 248 251
-9.468185 7.499796 41.874813 217 207 223
-9.441552 7.568714 41.757023 192 178 198
-9.454850 7.669515 41.815834 182 164 186
-8.001124 7.024261 35.386463 152 115 130
-7.842224 6.959527 34.683693 147 105 121
-7.671935 6.881549 33.930561 146 99 117
-7.568143 6.860604 33.471523 146 95 114
-7.525721 6.893896 33.283905 144 90 110
-7.517294 6.957845 33.246632 139 83 102
-7.517294 7.029513 33.246632 131 74 92
-7.500495 7.085313 33.172337 121 64 82
-7.492124 7.148834 33.135315 115 58 74
-7.475438 7.204182 33.061516 112 56 72
-7.467123 7.267359 33.024742 111 55 71
-7.534168 9.200174 33.321259 100 53 57
-7.525721 9.261609 33.283905 96 49 54
-7.517294 9.322906 33.246632 92 46 51
-7.492124 9.363120 33.135315 90 45 51
-7.559621 10.888914 33.433830 72 37 40
-7.534168 10.924080 33.321259 71 36 40
-7.492124 10.934548 33.135315 69 36 40
-7.551117 11.164629 33.396221 67 36 40
-7.525721 11.198829 33.283905 66 36 40
-7.467123 11.182820 33.024742 65 36 40
-7.425822 11.191765 32.842083 65 37 41
-7.409430 11.237700 32.769585 66 38 41
-7.393109 11.283431 32.697403 66 38 41
-7.393109 11.353916 32.697403 65 37 40
-7.368763 11.386779 32.589729 64 35 38
-7.344577 11.419426 32.482761 64 35 38
-8.098591 -4.436839 36.162292 146 73 103
-8.098591 -4.358885 36.162292 141 67 95
-8.098591 -4.280931 36.162292 138 64 90
-8.098591 -4.202978 36.162292 137 62 85
-8.098591 -4.125024 36.162292 136 61 81
-8.088738 -4.042147 36.118301 135 61 78
-8.088738 -3.964288 36.118301 135 60 75
-8.088738 -3.886429 36.118301 135 59 74
-8.069106 -3.799326 36.030632 136 58 73
-8.059325 -3.717145 35.986961 137 57 74
-8.020438 -3.622008 35.813320 138 58 76
-8.001135 -3.536275 35.727127 140 58 78
-8.020438 -3.467605 35.813320 141 58 79
-8.010776 -3.386319 35.770172 140 57 80
-8.010776 -3.309210 35.770172 141 56 81
-7.981925 -3.220462 35.641346 143 57 83
-7.972354 -3.139862 35.598610 145 58 86
-8.001135 -3.074181 35.727127 147 59 88
-8.001135 -2.997165 35.727127 148 60 88
-8.020438 -2.927195 35.813320 149 61 88
-7.981925 -2.836308 35.641346 150 62 89
-7.943779 -2.746290 35.471020 151 63 89
-7.924843 -2.663462 35.386463 151 65 90
-7.915409 -2.584101 35.344337 152 66 91
-7.943779 -2.516899 35.471020 152 67 93
-7.953281 -2.443355 35.513447 153 68 94
-7.943779 -2.363972 35.471020 153 69 95
-7.934300 -2.284779 35.428692 155 71 98
-7.934300 -2.208406 35.428692 158 74 101
-7.943779 -2.134581 35.471020 160 76 103
-7.934300 -2.055662 35.428692 162 78 105
-7.877895 -1.434413 35.176826 165 86 107
-7.877895 -1.358584 35.176826 167 88 107
-7.877895 -1.282754 35.176826 168 88 106
-7.877895 -1.206925 35.176826 167 88 105
-7.887240 -1.132437 35.218555 167 88 105
-7.896607 -1.057773 35.260384 166 87 103
-7.887240 -0.980599 35.218555 164 86 104
-7.877895 -0.903607 35.176826 163 86 104
-7.896607 -0.829744 35.260384 163 86 106
-7.877895 -0.751948 35.176826 164 86 108
-7.822286 -0.671346 34.928520 166 87 111
-7.822286 -0.596052 34.928520 166 87 111
-7.896607 -0.525706 35.260384 166 87 110
-7.849992 -0.447042 35.052235 166 87 110
-7.803924 -0.369301 34.846527 166 88 110
-7.822286 -0.294876 34.928520 166 88 110
-7.803924 -0.219066 34.846527 165 87 108
-7.785648 -0.143612 34.764919 162 86 105
-7.794775 -0.068751 34.805676 162 85 104
-7.803924 0.006286 34.846527 161 85 103
-7.803924 0.081403 34.846527 162 86 104
-7.803924 0.156521 34.846527 164 88 108
-7.813095 0.231910 34.887478 166 89 110
-7.794775 0.306396 34.805676 166 88 111
-7.767457 0.380088 34.683693 165 87 112
-7.758394 0.454324 34.643223 164 87 113
-7.740330 0.527771 34.562565 164 86 114
-7.713391 0.600180 34.442276 163 86 115
-7.695536 0.672865 34.362549 161 86 115
-7.677763 0.745214 34.283188 160 84 115
-7.677763 0.966923 34.283188 158 83 114
-7.660073 1.038428 34.204197 156 83 112
-7.668908 1.113443 34.243649 155 82 111
-7.668908 1.187261 34.243649 154 83 109
-7.686640 1.263995 34.322823 154 83 108
-7.695536 1.339532 34.362549 155 83 106
-7.713391 1.416886 34.442276 155 81 103
-7.713391 1.491132 34.442276 154 78 100
-7.722350 1.567196 34.482281 154 77 98
-7.713391 1.639624 34.442276 156 78 98
-7.704453 1.711884 34.402367 158 78 98
-7.704453 1.786043 34.402367 159 78 97
-7.731329 1.866692 34.522373 159 78 96
-7.713391 1.936607 34.442276 158 78 95
-7.713391 2.010853 34.442276 157 78 94
-7.713391 2.085099 34.442276 156 78 93
-7.695536 2.154347 34.362549 156 79 93
-7.704453 2.231003 34.402367 152 78 90
-7.686640 2.299833 34.322823 148 76 88
-7.651258 2.362895 34.164837 146 78 90
-7.616201 2.425379 34.008297 146 81 93
-7.616201 2.498689 34.008297 147 85 97
-7.607487 2.569057 33.969383 149 89 101
-7.598793 2.639263 33.930561 150 92 104
-7.598793 2.712406 33.930561 153 97 110
-7.590118 2.782369 33.891830 160 106 118
-7.598793 2.858692 33.930561 162 112 124
-7.581463 2.925149 33.853184 162 113 125
-7.564213 2.991303 33.776157 164 117 129
-7.555617 3.060631 33.737774 170 125 137
-7.538485 3.126253 33.661274 173 130 142
-7.538485 3.271378 33.661274 170 132 141
-7.538485 3.343940 33.661274 168 131 141
-7.581463 3.581933 33.853184 198 164 175
-7.564213 3.646593 33.776157 200 167 180
-7.555617 3.715177 33.737774 186 153 168
-7.529947 3.775034 33.623150 172 141 156
-7.504451 3.834487 33.509304 170 140 157
-7.521429 3.915560 33.585117 174 146 165
-7.564213 4.010643 33.776157 176 150 171
-7.512930 4.055769 33.547165 177 154 176
-10.372766 6.198682 46.317070 167 167 182
-10.260715 6.230487 45.816730 185 187 198
-10.089443 6.223605 45.051960 208 210 218
-10.043721 6.292078 44.847797 230 232 237
-9.983398 6.350384 44.578442 246 247 249
-9.806701 6.332383 43.789444 254 254 254
-9.821187 6.530806 43.854126 251 253 253
-9.692337 6.538419 43.278778 247 250 251
-9.234644 6.674105 41.235058 251 254 254
-9.209063 6.744260 41.120834 251 253 254
-9.234644 6.851882 41.235058 252 253 254
-9.260366 6.960105 41.349918 254 254 254
-9.286234 7.068932 41.465424 254 254 254
-9.312245 7.178369 41.581573 254 254 254
-9.325306 7.278198 41.639893 253 253 254
-9.312245 7.357641 41.581573 249 246 250
-9.364709 7.489233 41.815834 234 227 238
-9.325306 7.547483 41.639893 209 199 216
-7.749351 6.943305 34.602848 151 112 129
-7.590118 6.873693 33.891830 151 106 125
-7.487549 6.852878 33.433830 150 101 121
-7.445625 6.886176 33.246632 148 95 115
-7.428987 6.942297 33.172337 143 88 108
-7.437297 7.021650 33.209442 134 78 96
-7.412423 7.069516 33.098373 122 65 83
-7.412423 7.140864 33.098373 114 58 74
-7.412423 7.212214 33.098373 113 56 72
-7.395933 7.267359 33.024742 113 56 72
-7.453972 9.261609 33.283905 99 52 57
-7.445625 9.322906 33.246632 93 47 53
-7.412423 9.352682 33.098373 91 46 52
-9.431126 12.716816 42.112400 80 43 48
-7.479126 10.876665 33.396221 73 37 41
-7.437297 10.887423 33.209442 71 37 41
-7.379515 10.873868 32.951435 70 36 40
-7.470723 11.223995 33.358700 66 36 39
-7.412423 11.207754 33.098373 65 36 39
-7.363171 11.204159 32.878452 64 37 40
-7.338789 11.237700 32.769585 65 37 40
-7.330698 11.295872 32.733452 65 37 40
-7.338789 11.378980 32.769585 66 36 40
-7.314569 11.411832 32.661434 66 36 40
-7.306531 11.469622 32.625542 67 36 40
-8.030418 -4.520298 36.206394 150 78 106
-8.030418 -4.442249 36.206394 144 70 98
-8.030418 -4.364201 36.206394 138 63 89
-8.030418 -4.286152 36.206394 136 60 84
-8.040224 -4.213241 36.250603 136 60 83
-8.050053 -4.140152 36.294918 136 60 80
-8.050053 -4.061913 36.294918 136 60 78
-8.040224 -3.978809 36.250603 135 59 75
-8.030418 -3.895908 36.206394 135 58 74
-8.001146 -3.803942 36.074413 136 57 74
-7.991436 -3.721656 36.030632 137 56 74
-7.952830 -3.626382 35.856571 139 57 76
-7.952830 -3.549088 35.856571 140 57 78
-7.952830 -3.471793 35.856571 141 58 79
-7.943237 -3.390404 35.813320 141 57 81
-7.943237 -3.313202 35.813320 142 56 82
-7.905094 -3.220462 35.641346 144 57 83
-7.867316 -3.128608 35.471020 146 59 85
-7.905094 -3.066800 35.641346 148 59 87
-7.924119 -2.997165 35.727127 150 60 87
-7.943237 -2.927195 35.813320 150 60 87
-7.914596 -2.839717 35.684185 151 61 88
-7.867316 -2.746290 35.471020 152 63 90
-7.848562 -2.663462 35.386463 153 64 91
-7.848562 -2.587181 35.386463 153 65 92
-7.876727 -2.519910 35.513447 154 67 93
-7.886160 -2.446281 35.555977 154 67 95
-7.876727 -2.366800 35.513447 155 69 96
-7.867316 -2.287508 35.471020 158 72 99
-7.876727 -2.213690 35.513447 161 74 101
-7.876727 -2.137135 35.513447 163 76 103
-7.867316 -2.058118 35.471020 165 78 105
-7.848562 -1.976930 35.386463 165 80 106
-7.848562 -1.900649 35.386463 165 80 106
-7.857928 -1.826545 35.428692 163 79 106
-7.848562 -1.748086 35.386463 162 79 105
-7.811321 -1.512034 35.218555 162 82 106
-7.811321 -1.436115 35.218555 165 84 107
-7.802065 -1.358584 35.176826 167 87 108
-7.802065 -1.282754 35.176826 167 88 108
-7.792832 -1.205496 35.135197 167 88 107
-7.811321 -1.132437 35.218555 167 88 105
-7.820598 -1.057773 35.260384 166 87 103
-7.811321 -0.980599 35.218555 164 86 103
-7.802065 -0.903607 35.176826 163 86 103
-7.820598 -0.829744 35.260384 162 86 104
-7.802065 -0.751948 35.176826 164 87 108
-7.756117 -0.672137 34.969662 166 88 110
-7.765264 -0.597458 35.010899 166 88 110
-7.829897 -0.526331 35.302311 166 88 110
-7.774431 -0.447042 35.052235 165 87 109
-7.728807 -0.369301 34.846527 165 87 109
-7.746992 -0.294876 34.928520 165 87 109
-7.728807 -0.219066 34.846527 164 86 108
-7.710707 -0.143612 34.764919 163 86 106
-7.719746 -0.068751 34.805676 162 85 106
-7.728807 0.006286 34.846527 162 86 106
-7.728807 0.081403 34.846527 164 87 108
-7.728807 0.156521 34.846527 166 88 110
-7.737889 0.231910 34.887478 166 88 111
-7.719746 0.306396 34.805676 166 87 112
-7.692691 0.380088 34.683693 165 87 113
-7.683714 0.454324 34.643223 165 86 114
-7.665824 0.527771 34.562565 165 87 116
-7.639145 0.600180 34.442276 164 87 118
-7.621462 0.672865 34.362549 162 85 117
-7.595090 0.744355 34.243649 161 84 118
-7.577610 0.816289 34.164837 160 83 119
-7.603861 0.966923 34.283188 159 83 117
-7.577610 1.037233 34.164837 157 83 115
-7.603861 1.114729 34.283188 156 83 113
-7.603861 1.188632 34.283188 156 84 110
-7.612651 1.263995 34.322823 157 85 109
-7.630293 1.341084 34.402367 158 85 108
-7.639145 1.416886 34.442276 159 85 107
-7.639145 1.491132 34.442276 159 83 104
-7.648018 1.567196 34.482281 157 80 101
-7.630293 1.637724 34.402367 157 79 98
-7.630293 1.711884 34.402367 160 80 97
-7.621462 1.783976 34.362549 161 80 97
-7.648018 1.864524 34.482281 160 79 96
-7.639145 1.936607 34.442276 158 77 94
-7.630293 2.008523 34.402367 157 76 93
-7.630293 2.082683 34.402367 156 77 93
-7.621462 2.154347 34.362549 156 77 92
-7.630293 2.231003 34.402367 153 77 92
-7.612651 2.299833 34.322823 150 77 91
-7.586340 2.365617 34.204197 148 79 93
-7.551540 2.428160 34.047295 148 82 95
-7.551540 2.501554 34.047295 148 86 99
-7.542891 2.571999 34.008297 149 90 103
-7.534260 2.642283 33.969383 151 95 108
-7.534260 2.715510 33.969383 158 104 118
-7.525650 2.785549 33.930561 168 117 131
-7.525650 2.858692 33.930561 170 122 135
-7.508487 2.925149 33.853184 166 120 133
-7.491403 2.991303 33.776157 166 123 135
-7.474397 3.057157 33.699482 172 131 143
-7.465922 3.126253 33.661274 175 136 148
-7.508487 3.581933 33.853184 207 175 188
-7.491403 3.646593 33.776157 208 177 192
-7.491403 4.010643 33.776157 176 155 179
-7.440614 4.055769 33.547165 177 159 184
-10.369989 6.257253 46.754711 187 188 200
-10.193411 6.249776 45.958580 207 209 217
-10.022745 6.242550 45.189106 230 231 236
-9.842965 6.321907 44.378540 251 252 253
-9.669520 6.304487 43.596539 254 254 254
-9.712306 6.521173 43.789444 252 253 253
-9.571138 6.519412 43.152969 246 249 250
-9.145755 6.674105 41.235058 251 253 253
-9.107805 6.734931 41.063957 251 253 254
-9.133070 6.842379 41.177868 253 254 254
-9.158475 6.950425 41.292408 254 254 254
-9.171230 7.049242 41.349918 254 254 254
-9.209711 7.168329 41.523415 254 254 254
-9.209711 7.257840 41.523415 254 254 254
-9.209711 7.347350 41.523415 253 251 254
-9.248516 7.468196 41.698376 245 241 248
-9.209711 7.526371 41.523415 225 217 230
-9.133070 7.552504 41.177868 199 189 206
-7.491403 6.850234 33.776157 155 114 133
-7.398813 6.837478 33.358700 154 107 127
-7.357479 6.870788 33.172337 152 101 121
-7.332899 6.919104 33.061516 148 94 113
-7.341074 6.998167 33.098373 137 82 100
-7.316604 7.045950 32.988049 123 67 84
-7.316604 7.117062 32.988049 115 58 75
-7.332899 7.204182 33.061516 114 56 73
-7.316604 7.259284 32.988049 115 58 74
-7.373957 9.251238 33.246632 99 52 57
-7.373957 9.322906 33.246632 94 48 53
-7.332899 9.342267 33.061516 92 46 53
-9.353613 12.734879 42.172218 81 44 48
-7.365708 10.887423 33.209442 71 37 41
-7.415477 11.249274 33.433830 65 36 39
-7.357479 11.232800 33.172337 65 36 39
-7.300381 11.216580 32.914902 64 36 39
-7.276181 11.250116 32.805794 65 36 39
-7.268149 11.308339 32.769585 66 36 39
-7.276181 11.391553 32.805794 66 36 40
-7.260136 11.436996 32.733452 67 37 41
-7.260136 11.507559 32.733452 69 37 41
-7.300381 11.642301 32.914902 70 38 43
-7.292296 11.700283 32.878452 73 39 45
-7.942684 -4.514792 36.162292 149 75 101
-7.942684 -4.436839 36.162292 144 68 94
-7.942684 -4.358885 36.162292 137 60 85
-7.942684 -4.280931 36.162292 135 57 81
-7.952370 -4.208103 36.206394 136 58 81
-7.971813 -4.140152 36.294918 137 59 80
-7.971813 -4.061913 36.294918 136 59 78
-7.962080 -3.978809 36.250603 136 57 76
-7.952370 -3.895908 36.206394 136 56 75
-7.923382 -3.803942 36.074413 136 55 74
-7.904174 -3.717145 35.986961 138 55 75
-7.885058 -3.630767 35.899929 139 56 76
-7.885058 -3.553379 35.899929 140 57 77
-7.875535 -3.471793 35.856571 141 57 79
-7.866035 -3.390404 35.813320 142 57 81
-7.875535 -3.317204 35.856571 143 57 82
-7.837672 -3.224332 35.684185 145 58 83
-7.790852 -3.128608 35.471020 147 60 84
-7.828263 -3.066800 35.641346 150 60 86
-7.847104 -2.997165 35.727127 151 60 86
-7.866035 -2.927195 35.813320 152 60 87
-7.847104 -2.843134 35.727127 152 61 88
-7.809513 -2.752868 35.555977 153 62 90
-7.781555 -2.666640 35.428692 154 63 91
-7.781555 -2.590268 35.428692 154 64 92
-7.809513 -2.522928 35.555977 155 66 94
-7.809513 -2.446281 35.555977 155 67 95
-7.800171 -2.366800 35.513447 157 69 97
-7.800171 -2.290245 35.513447 161 72 100
-7.809513 -2.216341 35.555977 164 76 103
-7.809513 -2.139694 35.555977 166 78 105
-7.790852 -2.058118 35.471020 167 79 105
-7.772281 -1.976930 35.386463 167 79 106
-7.781555 -1.902917 35.428692 166 78 106
-7.790852 -1.828727 35.471020 163 77 105
-7.781555 -1.750172 35.428692 162 77 104
-7.717093 -1.205496 35.135197 167 87 107
-7.735401 -1.132437 35.218555 167 87 105
-7.744588 -1.057773 35.260384 165 86 104
-7.735401 -0.980599 35.218555 164 86 102
-7.726236 -0.903607 35.176826 163 86 102
-7.735401 -0.828760 35.218555 162 86 103
-7.707971 -0.750171 35.093666 164 87 107
-7.680734 -0.672137 34.969662 166 88 109
-7.680734 -0.596754 34.969662 166 88 110
-7.735401 -0.525082 35.218555 166 88 110
-7.689792 -0.446515 35.010899 165 87 109
-7.653689 -0.369301 34.846527 165 88 110
-7.671698 -0.294876 34.928520 165 87 109
-7.653689 -0.219066 34.846527 164 87 109
-7.635765 -0.143612 34.764919 164 87 109
-7.644717 -0.068751 34.805676 164 87 109
-7.653689 0.006286 34.846527 165 88 110
-7.653689 0.081403 34.846527 166 89 111
-7.644717 0.156337 34.805676 167 89 112
-7.662683 0.231910 34.887478 167 88 112
