ply
format ascii 1.0
element vertex 1173
property float x
property float y
property float z
property uchar red
property uchar green
property uchar blue
end_header
-3.057887 11.658710 59.378483 246 246 246
-3.070167 14.147300 59.616951 198 195 205
-3.057887 14.218711 59.378483 194 191 202
-3.070167 14.404328 59.616951 194 191 203
-3.027611 14.331397 58.790577 191 187 201
-3.033618 14.486816 58.907227 186 183 198
-3.039649 14.642854 59.024338 183 180 195
-3.039649 14.770090 59.024338 180 176 192
-3.039649 14.897327 59.024338 178 174 190
-3.039649 15.024564 59.024338 181 176 191
-3.039649 15.151800 59.024338 183 178 193
-3.039649 15.279037 59.024338 184 178 191
-3.039649 15.406273 59.024338 183 176 189
-3.045704 15.691943 59.141918 174 165 178
-3.051783 15.851009 59.259964 170 161 173
-3.051783 15.978753 59.259964 167 156 168
-3.045704 16.074413 59.141918 161 149 162
-3.045704 16.201902 59.141918 156 143 156
-3.045704 16.329393 59.141918 154 140 153
-3.045704 16.456882 59.141918 153 138 152
-3.045704 16.584373 59.141918 147 133 147
-3.051783 16.745220 59.259964 132 119 134
-3.051783 16.872965 59.259964 107 96 112
-3.051783 17.000710 59.259964 87 79 94
-3.057887 17.162710 59.378483 80 74 90
-3.070167 17.360151 59.616951 81 77 93
-3.070167 17.488667 59.616951 82 80 95
-3.070167 17.617180 59.616951 83 80 95
-3.070167 17.745693 59.616951 84 81 94
-3.070167 17.874208 59.616951 86 81 94
-3.088774 18.111830 59.978268 87 81 93
-3.088774 18.241121 59.978268 85 78 88
-3.088774 18.370415 59.978268 75 68 76
-3.088774 18.499708 59.978268 63 56 62
-3.101305 18.704575 60.221588 55 48 52
-3.101305 18.834393 60.221588 51 45 48
-3.082547 18.849506 59.857342 49 44 46
-3.064015 18.864439 59.497478 48 43 45
-3.070167 19.030834 59.616951 46 41 43
-3.064015 19.120953 59.497478 45 40 41
-3.120293 21.039501 60.590290 36 33 34
-3.082547 20.914022 59.857342 34 32 33
-3.045704 20.791544 59.141918 33 31 32
-3.033618 20.836023 58.907227 33 31 31
-3.051783 21.088533 59.259964 32 30 30
-3.051783 21.216278 59.259964 31 30 30
-3.039649 21.259155 59.024338 31 31 31
-3.051783 21.471767 59.259964 32 32 32
-2.995794 5.900522 60.714195 254 250 254
-2.983591 6.006834 60.466888 254 252 254
-2.971488 6.112283 60.221588 254 252 254
-2.983591 6.267527 60.466888 254 252 254
-2.989680 6.410930 60.590290 254 252 254
-2.995794 6.554919 60.714195 254 252 254
-2.995794 6.685799 60.714195 254 252 254
-2.995794 6.816678 60.714195 254 251 253
-2.989680 6.933379 60.590290 253 247 250
-2.995794 7.078436 60.714195 252 244 248
-2.995794 7.209316 60.714195 252 248 249
-3.001933 7.355237 60.838612 254 252 252
-3.001933 7.486384 60.838612 254 253 253
-3.001933 7.617532 60.838612 254 253 253
-2.995794 7.732833 60.714195 254 254 254
-2.983591 7.831681 60.466888 254 254 254
-2.947572 7.865906 59.736904 251 252 252
-2.953515 9.430152 59.857342 252 252 252
-2.941653 9.520794 59.616951 254 254 254
-2.941653 9.649308 59.616951 254 254 254
-2.941653 9.777822 59.616951 254 254 254
-2.959481 9.966374 59.978268 254 254 254
-2.935758 10.014740 59.497478 254 254 254
-2.935758 10.142997 59.497478 253 254 254
-2.941653 10.291879 59.616951 253 253 253
-2.935758 10.399510 59.497478 250 251 250
-2.935758 10.527766 59.497478 233 234 234
-2.941653 10.677421 59.616951 208 210 209
-2.935758 10.784280 59.497478 210 212 211
-2.935758 10.912536 59.497478 206 208 207
-2.935758 11.040792 59.497478 175 175 174
-2.953515 11.236604 59.857342 188 187 187
-2.935758 11.297305 59.497478 221 220 220
-2.941653 11.448505 59.616951 227 226 226
-2.941653 11.577019 59.616951 238 236 237
-2.959481 12.681526 59.978268 239 239 239
-2.953515 14.462410 59.857342 193 191 203
-2.906634 14.359832 58.907227 190 188 201
-2.906634 14.486816 58.907227 187 185 199
-2.906634 14.613801 58.907227 184 182 196
-2.912412 14.770090 59.024338 182 179 194
-2.912412 14.897327 59.024338 181 177 193
-2.906634 14.994753 58.907227 181 178 193
-2.906634 15.121737 58.907227 182 178 193
-2.906634 15.248721 58.907227 183 178 192
-2.906634 15.375706 58.907227 183 177 190
-2.900878 15.471991 58.790577 180 172 185
-2.906634 15.629674 58.907227 175 166 179
-2.912412 15.787983 59.024338 172 161 174
-2.912412 15.915219 59.024338 167 155 168
-2.912412 16.042456 59.024338 160 147 159
-2.912412 16.169693 59.024338 154 140 152
-2.906634 16.264595 58.907227 152 136 149
-2.912412 16.424166 59.024338 151 135 149
-2.918214 16.584373 59.141918 147 132 145
-2.924039 16.745220 59.259964 134 119 132
-2.924039 16.872965 59.259964 109 97 110
-2.924039 17.000710 59.259964 87 79 92
-2.924039 17.128454 59.259964 79 73 86
-2.941653 17.360151 59.616951 79 75 88
-2.941653 17.488667 59.616951 81 78 90
-2.941653 17.617180 59.616951 81 79 91
-2.941653 17.745693 59.616951 82 79 91
-2.941653 17.874208 59.616951 83 79 91
-2.959481 18.111830 59.978268 84 80 91
-2.959481 18.241121 59.978268 83 76 86
-2.953515 18.333378 59.857342 73 66 74
-2.959481 18.499708 59.978268 62 55 61
-2.971488 18.704575 60.221588 56 49 53
-2.971488 18.834393 60.221588 53 46 50
-2.947572 18.811581 59.736904 51 46 48
-2.935758 18.864439 59.497478 50 45 46
-2.935758 18.992697 59.497478 48 44 44
-2.935758 19.120953 59.497478 46 42 42
-2.989680 21.039501 60.590290 36 33 34
-2.947572 20.871943 59.736904 34 32 33
-2.912412 20.750210 59.024338 33 31 31
-2.912412 20.877447 59.024338 32 31 31
-2.935758 21.173058 59.497478 32 31 30
-2.935758 21.301313 59.497478 31 31 30
-2.924039 21.344023 59.259964 31 31 30
-2.929887 21.514711 59.378483 32 33 33
-2.929887 21.642712 59.378483 35 36 36
-2.882600 5.805258 61.088974 254 247 252
-2.864915 5.900522 60.714195 254 248 252
-2.853245 6.006834 60.466888 254 251 254
-2.841670 6.112283 60.221588 254 252 254
-2.853245 6.267527 60.466888 254 252 254
-2.859068 6.410930 60.590290 254 251 253
-2.859068 6.541542 60.590290 254 252 254
-2.859068 6.672154 60.590290 254 253 254
-2.864915 6.816678 60.714195 254 253 254
-2.859068 6.933379 60.590290 254 251 253
-2.864915 7.078436 60.714195 254 250 252
-2.864915 7.209316 60.714195 254 251 253
-2.864915 7.340195 60.714195 254 253 254
-2.870785 7.486384 60.838612 253 253 253
-2.876680 7.633173 60.963535 253 253 253
-2.859068 7.847664 60.590290 254 254 254
-2.841670 7.929727 60.221588 252 253 252
-2.824483 9.430152 59.857342 254 254 254
-2.813139 9.520794 59.616951 254 254 254
-2.813139 9.649308 59.616951 254 254 254
-2.818799 9.797496 59.736904 254 254 254
-2.830189 9.966374 59.978268 254 254 254
-2.813139 10.034850 59.616951 254 254 254
-2.813139 10.163364 59.616951 253 253 253
-2.807502 10.271254 59.497478 251 252 252
-2.801887 10.378711 59.378483 246 247 247
-2.807502 10.527766 59.497478 231 233 233
-2.807502 10.656023 59.497478 222 224 224
-2.801887 10.762711 59.378483 227 228 229
-2.801887 10.890711 59.378483 218 219 218
-2.807502 11.040792 59.497478 205 205 205
-2.818799 11.213995 59.736904 223 222 223
-2.807502 11.297305 59.497478 235 233 234
-2.813139 11.448505 59.616951 227 225 226
-2.807502 11.553819 59.497478 234 232 233
-2.835918 12.707197 60.099682 237 237 237
-2.813139 13.890272 59.616951 227 226 232
-2.779649 14.359832 58.907227 191 189 202
-2.785176 14.515617 59.024338 187 185 199
-2.774145 14.584863 58.790577 184 182 197
-2.779649 14.740785 58.907227 182 180 195
-2.779649 14.867769 58.907227 181 178 193
-2.779649 14.994753 58.907227 180 178 193
-2.774145 15.091793 58.790577 182 178 193
-2.779649 15.248721 58.907227 183 178 193
-2.779649 15.375706 58.907227 183 176 191
-2.774145 15.471991 58.790577 181 172 186
-2.774145 15.598723 58.790577 177 167 180
-2.774145 15.725456 58.790577 174 161 174
-2.774145 15.852189 58.790577 168 154 167
-2.779649 16.010626 58.907227 160 145 157
-2.774145 16.105654 58.790577 153 136 149
-2.774145 16.232388 58.790577 151 132 145
-2.779649 16.391579 58.907227 150 132 145
-2.790724 16.584373 59.141918 147 129 142
-2.790724 16.711863 59.141918 134 119 130
-2.790724 16.839354 59.141918 111 98 108
-2.790724 16.966843 59.141918 89 80 90
-2.796294 17.128454 59.259964 80 73 84
-2.813139 17.360151 59.616951 79 74 85
-2.813139 17.488667 59.616951 79 77 87
-2.813139 17.617180 59.616951 80 78 88
-2.813139 17.745693 59.616951 80 78 88
-2.813139 17.874208 59.616951 81 78 88
-2.835918 18.148493 60.099682 83 78 89
-2.824483 18.204346 59.857342 81 75 84
-2.818799 18.296490 59.736904 70 63 71
-2.824483 18.462410 59.857342 60 53 59
-2.835918 18.666712 60.099682 56 48 53
-2.841670 18.834393 60.221588 55 47 50
-2.813139 18.773806 59.616951 53 47 49
-2.801887 18.826712 59.378483 52 46 47
-2.807502 18.992697 59.497478 50 45 45
-2.801887 19.082710 59.378483 47 43 42
-2.801887 20.746712 59.378483 35 32 33
-2.779649 20.836023 58.907227 33 31 31
-2.813139 21.215572 59.616951 32 31 30
-2.813139 21.344088 59.616951 31 31 30
-2.801887 21.386711 59.378483 32 32 31
-2.813139 21.601116 59.616951 34 34 33
-2.813139 21.729630 59.616951 37 38 38
-2.801887 21.770710 59.378483 42 43 42
-2.745264 5.793338 60.963535 254 248 253
-2.728456 5.888481 60.590290 255 249 253
-2.722899 6.006834 60.466888 255 251 253
-2.711853 6.112283 60.221588 254 250 253
-2.722899 6.267527 60.466888 254 248 252
-2.722899 6.397872 60.466888 254 248 251
-2.728456 6.541542 60.590290 254 251 253
-2.728456 6.672154 60.590290 254 254 254
-2.728456 6.802766 60.590290 255 255 255
-2.728456 6.933379 60.590290 254 254 254
-2.734035 7.078436 60.714195 254 254 254
-2.728456 7.194603 60.590290 254 254 254
-2.734035 7.340195 60.714195 254 254 254
-2.734035 7.471075 60.714195 254 254 254
-2.745264 7.633173 60.963535 253 253 253
-2.728456 7.847664 60.590290 252 252 252
-2.722899 7.962028 60.466888 252 253 253
-2.668550 9.208294 59.259964 254 254 254
-2.690027 9.411178 59.736904 254 254 254
-2.679245 9.501715 59.497478 255 255 255
-2.684625 9.649308 59.616951 254 254 254
-2.690027 9.797496 59.736904 254 254 254
-2.700896 9.966374 59.978268 254 254 254
-2.684625 10.034850 59.616951 254 254 254
-2.690027 10.183814 59.736904 253 254 254
-2.679245 10.271254 59.497478 251 252 252
-2.673887 10.378711 59.378483 241 243 244
-2.679245 10.527766 59.497478 224 227 229
-2.679245 10.656023 59.497478 223 225 228
-2.673887 10.762711 59.378483 230 231 233
-2.679245 10.912536 59.497478 222 223 225
-2.684625 11.062963 59.616951 225 226 227
-2.695450 11.236604 59.857342 244 244 245
-2.690027 11.342768 59.736904 246 245 246
-2.690027 11.471540 59.736904 237 235 237
-2.684625 11.577019 59.616951 240 238 239
-2.722899 12.654491 60.466888 225 226 225
-2.717365 12.758853 60.343987 238 238 238
-2.706363 12.836752 60.099682 249 249 249
-2.711853 12.992607 60.221588 250 250 250
-2.657939 14.388381 59.024338 192 189 203
-2.657939 14.515617 59.024338 186 185 198
-2.647413 14.584863 58.790577 183 181 196
-2.652665 14.740785 58.907227 181 179 194
-2.652665 14.867769 58.907227 180 178 193
-2.652665 14.994753 58.907227 180 177 192
-2.652665 15.121737 58.907227 181 178 193
-2.652665 15.248721 58.907227 183 177 193
-2.652665 15.375706 58.907227 182 175 190
-2.647413 15.471991 58.790577 181 171 186
-2.647413 15.598723 58.790577 179 167 181
-2.647413 15.725456 58.790577 175 161 174
-2.647413 15.852189 58.790577 170 154 167
-2.647413 15.978922 58.790577 163 145 158
-2.647413 16.105654 58.790577 155 135 148
-2.647413 16.232388 58.790577 151 130 142
-2.652665 16.391579 58.907227 149 129 141
-2.663234 16.584373 59.141918 146 127 138
-2.663234 16.711863 59.141918 134 118 127
-2.663234 16.839354 59.141918 111 98 106
-2.663234 16.966843 59.141918 89 80 88
-2.668550 17.128454 59.259964 81 74 82
-2.679245 17.325361 59.497478 79 75 83
-2.684625 17.488667 59.616951 79 77 84
-2.684625 17.617180 59.616951 80 78 86
-2.684625 17.745693 59.616951 81 78 87
-2.684625 17.874208 59.616951 82 78 88
-2.706363 18.148493 60.099682 82 77 88
-2.695450 18.204346 59.857342 79 73 83
-2.690027 18.296490 59.736904 69 62 71
-2.690027 18.425262 59.736904 60 52 59
-2.706363 18.666712 60.099682 56 48 53
-2.711853 18.834393 60.221588 54 47 50
-2.684625 18.773806 59.616951 53 47 49
-2.673887 18.826712 59.378483 52 46 47
-2.679245 18.992697 59.497478 50 45 45
-2.673887 19.082710 59.378483 48 44 43
-2.571045 19.333376 57.094696 39 37 36
-2.663234 20.664055 59.141918 36 33 34
-2.642180 20.627184 58.674393 35 32 33
-2.679245 21.173058 59.497478 33 32 32
-2.684625 21.344088 59.616951 33 33 32
-2.684625 21.472601 59.616951 34 34 33
-2.695450 21.688217 59.857342 35 37 36
-2.690027 21.773352 59.736904 38 40 39
-2.679245 21.814339 59.497478 42 43 43
-2.608490 5.781466 60.838612 254 248 253
-2.597844 5.888481 60.590290 254 250 253
-2.592553 6.006834 60.466888 254 250 253
-2.582035 6.112283 60.221588 254 248 250
-2.592553 6.267527 60.466888 253 244 247
-2.592553 6.397872 60.466888 253 246 248
-2.597844 6.541542 60.590290 254 250 252
-2.592553 6.658565 60.466888 254 254 254
-2.597844 6.802766 60.590290 254 254 254
-2.597844 6.933379 60.590290 254 254 254
-2.603156 7.078436 60.714195 254 254 254
-2.597844 7.194603 60.590290 254 254 254
-2.603156 7.340195 60.714195 254 254 254
-2.603156 7.471075 60.714195 254 254 254
-2.608490 7.617532 60.838612 253 253 253
-2.597844 7.978276 60.590290 253 253 253
-2.587283 8.075926 60.343987 254 254 254
-2.545887 9.226711 59.378483 254 254 254
-2.561254 9.411178 59.736904 254 254 254
-2.550989 9.501715 59.497478 254 254 254
-2.556111 9.649308 59.616951 254 254 254
-2.556111 9.777822 59.616951 254 254 254
-2.566418 9.946281 59.857342 254 254 254
-2.556111 10.034850 59.616951 254 254 254
-2.561254 10.183814 59.736904 254 254 254
-2.550989 10.271254 59.497478 253 253 253
-2.550989 10.399510 59.497478 242 244 245
-2.556111 10.548906 59.616951 226 229 233
-2.556111 10.677421 59.616951 225 228 232
-2.550989 10.784280 59.497478 232 235 237
-2.556111 10.934449 59.616951 228 230 234
-2.566418 11.107572 59.857342 235 236 239
-2.576808 11.282096 60.099682 248 249 251
-2.571603 11.388597 59.978268 250 249 251
-2.571603 11.517890 59.978268 247 245 248
-2.561254 11.600313 59.736904 248 246 248
-2.592553 12.263453 60.466888 238 240 242
-2.597844 12.419093 60.590290 231 234 234
-2.592553 12.654491 60.466888 226 227 226
-2.587283 12.758853 60.343987 241 242 241
-2.576808 12.836752 60.099682 251 251 251
-2.587283 13.019015 60.343987 250 250 250
-2.582035 13.122425 60.221588 247 247 247
-2.592553 13.306223 60.466888 247 247 248
-2.587283 13.409259 60.343987 245 246 247
-2.576808 13.484526 60.099682 238 240 243
-2.535744 14.417043 59.141918 192 189 203
-2.530703 14.515617 59.024338 185 183 196
-2.525681 14.613801 58.907227 180 178 192
-2.525681 14.740785 58.907227 179 177 191
-2.530703 14.897327 59.024338 179 177 191
-2.530703 15.024564 59.024338 179 176 191
-2.525681 15.121737 58.907227 179 176 190
-2.525681 15.248721 58.907227 180 174 190
-2.530703 15.406273 59.024338 181 173 187
-2.520680 15.471991 58.790577 181 171 185
-2.520680 15.598723 58.790577 180 167 180
-2.520680 15.725456 58.790577 177 161 173
-2.525681 15.883642 58.907227 173 154 167
-2.525681 16.010626 58.907227 167 146 159
-2.520680 16.105654 58.790577 159 137 149
-2.520680 16.232388 58.790577 153 130 142
-2.525681 16.391579 58.907227 149 127 138
-2.535744 16.584373 59.141918 145 125 135
-2.535744 16.711863 59.141918 133 116 124
-2.540805 16.872965 59.259964 108 96 102
-2.535744 16.966843 59.141918 87 78 84
-2.540805 17.128454 59.259964 80 73 79
-2.550989 17.325361 59.497478 78 74 80
-2.556111 17.488667 59.616951 79 76 83
-2.556111 17.617180 59.616951 81 78 86
-2.556111 17.745693 59.616951 84 80 90
-2.556111 17.874208 59.616951 85 80 91
-2.571603 18.111830 59.978268 83 78 89
-2.566418 18.204346 59.857342 78 71 82
-2.556111 18.259750 59.616951 69 61 72
-2.556111 18.388264 59.616951 61 53 61
-2.571603 18.629002 59.978268 56 48 54
-2.576808 18.796267 60.099682 54 46 50
-2.556111 18.773806 59.616951 52 46 48
-2.545887 18.826712 59.378483 51 46 47
-2.550989 18.992697 59.497478 50 45 45
-2.550989 19.120953 59.497478 48 44 43
-2.561254 19.326672 59.736904 46 43 42
-2.500871 19.625452 58.328571 38 36 36
-2.447968 19.333376 57.094696 38 36 35
-2.515698 20.627184 58.674393 35 33 33
-2.550989 21.173058 59.497478 34 33 32
-2.561254 21.387033 59.736904 34 34 33
-2.571603 21.602737 59.978268 35 35 34
-2.571603 21.732031 59.978268 37 38 37
-2.561254 21.773352 59.736904 40 41 40
-2.556111 21.858143 59.616951 42 43 43
-2.550989 21.942596 59.497478 43 43 43
-2.472277 5.769643 60.714195 254 250 253
-2.467231 5.888481 60.590290 254 249 253
-2.462206 6.006834 60.466888 254 247 251
-2.457202 6.124706 60.343987 254 245 249
-2.462206 6.267527 60.466888 253 244 247
-2.462206 6.397872 60.466888 253 246 248
-2.467231 6.541542 60.590290 254 250 251
-2.462206 6.658565 60.466888 254 253 254
-2.467231 6.802766 60.590290 254 254 254
-2.467231 6.933379 60.590290 254 254 254
-2.472277 7.078436 60.714195 254 253 253
-2.467231 7.194603 60.590290 254 254 254
-2.472277 7.340195 60.714195 254 254 254
-2.472277 7.471075 60.714195 254 254 254
-2.482430 7.633173 60.963535 254 254 253
-2.477343 7.748679 60.838612 252 252 252
-2.472277 7.863713 60.714195 251 251 251
-2.467231 7.978276 60.590290 253 253 253
-2.462206 8.092374 60.466888 254 254 254
-2.457202 8.206007 60.343987 254 254 254
-2.442310 8.285566 59.978268 252 252 251
-2.447254 8.431893 60.099682 245 246 245
-2.437386 8.655958 59.857342 249 250 249
-2.437386 8.784991 59.857342 253 254 253
-2.417887 9.226711 59.378483 254 254 254
-2.432482 9.411178 59.736904 254 254 254
-2.422732 9.501715 59.497478 254 254 254
-2.432482 9.668723 59.736904 254 254 254
-2.427597 9.777822 59.616951 254 254 254
-2.432482 9.926269 59.736904 254 254 254
-2.427597 10.034850 59.616951 254 254 254
-2.432482 10.183814 59.736904 254 254 254
-2.422732 10.271254 59.497478 253 254 254
-2.427597 10.420392 59.616951 245 248 249
-2.427597 10.548906 59.616951 235 240 243
-2.432482 10.698904 59.736904 237 241 244
-2.427597 10.805935 59.616951 242 244 246
-2.432482 10.956450 59.736904 238 240 244
-2.437386 11.107572 59.857342 239 240 246
-2.447254 11.282096 60.099682 248 248 251
-2.442310 11.388597 59.978268 250 249 252
-2.442310 11.517890 59.978268 250 248 252
-2.437386 11.623700 59.857342 249 248 252
-2.442310 11.776476 59.978268 248 247 252
-2.467231 12.288481 60.590290 239 241 244
-2.467231 12.419093 60.590290 233 235 236
-2.467231 12.549706 60.590290 224 226 225
-2.462206 12.654491 60.466888 229 231 230
-2.457202 12.758853 60.343987 244 245 244
-2.452218 12.862790 60.221588 253 253 252
-2.457202 13.019015 60.343987 253 253 253
-2.452218 13.122425 60.221588 252 252 252
-2.462206 13.306223 60.466888 250 251 251
-2.457202 13.409259 60.343987 243 244 246
-2.452218 13.511877 60.221588 232 233 238
-2.408254 14.417043 59.141918 193 190 204
-2.408254 14.544533 59.141918 184 181 195
-2.398697 14.740785 58.907227 177 176 189
-2.403466 14.897327 59.024338 178 176 190
-2.408254 15.054493 59.141918 178 175 189
-2.403466 15.151800 59.024338 176 173 187
-2.403466 15.279037 59.024338 177 172 185
-2.408254 15.436963 59.141918 178 170 183
-2.398697 15.502689 58.907227 180 169 182
-2.398697 15.629674 58.907227 180 166 178
-2.393947 15.725456 58.790577 177 160 172
-2.398697 15.883642 58.907227 174 154 167
-2.403466 16.042456 59.024338 170 148 160
-2.393947 16.105654 58.790577 163 139 150
-2.398697 16.264595 58.907227 155 130 141
-2.398697 16.391579 58.907227 149 125 136
-2.408254 16.584373 59.141918 143 122 131
-2.413061 16.745220 59.259964 130 112 119
-2.413061 16.872965 59.259964 106 92 98
-2.413061 17.000710 59.259964 84 74 79
-2.413061 17.128454 59.259964 77 69 74
-2.422732 17.325361 59.497478 77 71 77
-2.427597 17.488667 59.616951 79 74 81
-2.427597 17.617180 59.616951 83 78 87
-2.427597 17.745693 59.616951 87 82 92
-2.427597 17.874208 59.616951 89 83 95
-2.442310 18.111830 59.978268 86 80 91
-2.437386 18.204346 59.857342 78 71 83
-2.427597 18.259750 59.616951 70 61 72
-2.427597 18.388264 59.616951 62 54 62
-2.442310 18.629002 59.978268 55 48 54
-2.452218 18.834393 60.221588 52 45 49
-2.432482 18.811581 59.736904 51 45 47
-2.422732 18.864439 59.497478 50 45 46
-2.427597 19.030834 59.616951 49 44 44
-2.427597 19.159348 59.616951 48 43 43
-2.437386 19.365637 59.857342 46 42 42
-2.452218 20.002748 60.221588 38 37 36
-2.432482 19.970533 59.736904 37 36 35
-2.384504 19.702871 58.558662 37 35 35
-2.333868 19.408022 57.315140 37 35 34
-2.298371 19.477861 56.443428 37 34 34
-2.384504 20.586500 58.558662 36 34 34
-2.422732 21.173058 59.497478 35 34 33
-2.437386 21.430153 59.857342 35 35 34
-2.447254 21.646469 60.099682 37 37 36
-2.442310 21.732031 59.978268 39 39 39
-2.437386 21.817249 59.857342 41 41 41
-2.427597 21.858143 59.616951 43 43 43
-2.422732 21.942596 59.497478 44 44 44
-2.336619 5.627256 60.590290 254 251 254
-2.341398 5.769643 60.714195 254 251 253
-2.331860 5.876488 60.466888 253 246 249
-2.331860 6.006834 60.466888 251 241 245
-2.327121 6.124706 60.343987 251 242 246
-2.331860 6.267527 60.466888 253 246 249
-2.336619 6.410930 60.590290 251 248 249
-2.336619 6.541542 60.590290 248 247 247
-2.336619 6.672154 60.590290 249 248 248
-2.336619 6.802766 60.590290 253 252 252
-2.336619 6.933379 60.590290 252 252 252
-2.341398 7.078436 60.714195 250 250 250
-2.341398 7.209316 60.714195 251 251 251
-2.346195 7.355237 60.838612 253 253 253
-2.341398 7.471075 60.714195 254 254 254
-2.351013 7.633173 60.963535 254 254 254
-2.346195 7.748679 60.838612 254 254 253
-2.341398 7.863713 60.714195 253 253 253
-2.336619 7.978276 60.590290 253 253 253
-2.331860 8.092374 60.466888 254 254 254
-2.331860 8.222720 60.466888 254 254 254
-2.313017 8.285566 59.978268 252 252 251
-2.322400 8.448997 60.221588 246 246 245
-2.317699 8.561448 60.099682 245 245 244
-2.313017 8.673446 59.978268 250 250 249
-2.313017 8.802738 59.978268 254 254 253
-2.308354 8.914023 59.857342 254 254 254
-2.303709 9.153633 59.736904 254 254 254
-2.294476 9.245201 59.497478 254 254 254
-2.303709 9.411178 59.736904 254 254 254
-2.294476 9.501715 59.497478 254 254 254
-2.308354 9.688216 59.857342 254 254 254
-2.299083 9.777822 59.616951 253 253 253
-2.303709 9.926269 59.736904 248 249 250
-2.299083 10.034850 59.616951 247 248 248
-2.308354 10.204346 59.857342 251 252 252
-2.289887 10.250710 59.378483 253 254 254
-2.299083 10.420392 59.616951 249 252 253
-2.299083 10.548906 59.616951 246 250 252
-2.303709 10.698904 59.736904 248 251 252
-2.299083 10.805935 59.616951 250 251 252
-2.308354 10.978539 59.857342 243 244 247
-2.308354 11.107572 59.857342 237 238 244
-2.317699 11.282096 60.099682 243 243 248
-2.317699 11.411651 60.099682 250 249 253
-2.313017 11.517890 59.978268 250 249 254
-2.308354 11.623700 59.857342 249 248 254
-2.313017 11.776476 59.978268 248 247 253
-2.322400 11.954068 60.221588 242 242 248
-2.336619 12.419093 60.590290 233 237 237
-2.331860 12.524145 60.466888 228 231 231
-2.331860 12.654491 60.466888 232 235 234
-2.327121 12.758853 60.343987 244 245 245
-2.317699 12.836752 60.099682 252 252 252
-2.331860 13.045530 60.466888 254 254 254
-2.322400 13.122425 60.221588 254 254 254
-2.331860 13.306223 60.466888 252 252 252
-2.327121 13.409259 60.343987 241 242 244
-2.322400 13.511877 60.221588 226 227 232
-2.317699 13.614079 60.099682 226 227 232
-2.280764 14.417043 59.141918 193 189 203
-2.280764 14.544533 59.141918 184 182 195
-2.276229 14.897327 59.024338 178 176 189
-2.280764 15.054493 59.141918 176 174 186
-2.276229 15.151800 59.024338 173 171 182
-2.276229 15.279037 59.024338 173 168 180
-2.280764 15.436963 59.141918 174 167 178
-2.271713 15.502689 58.907227 177 167 178
-2.271713 15.629674 58.907227 177 164 175
-2.267215 15.725456 58.790577 176 159 171
-2.276229 15.915219 59.024338 173 153 165
-2.280764 16.074413 59.141918 168 147 158
-2.271713 16.137609 58.907227 162 139 150
-2.267215 16.232388 58.790577 154 130 141
-2.276229 16.424166 59.024338 148 124 134
-2.280764 16.584373 59.141918 141 120 128
-2.280764 16.711863 59.141918 128 110 117
-2.285316 16.872965 59.259964 105 90 96
-2.285316 17.000710 59.259964 82 69 75
-2.285316 17.128454 59.259964 74 64 70
-2.294476 17.325361 59.497478 74 66 72
-2.294476 17.453619 59.497478 78 71 78
-2.294476 17.581875 59.497478 83 77 86
-2.294476 17.710131 59.497478 89 82 93
-2.303709 17.910172 59.736904 91 84 96
-2.313017 18.111830 59.978268 88 79 93
-2.308354 18.204346 59.857342 79 71 84
-2.299083 18.259750 59.616951 71 62 74
-2.299083 18.388264 59.616951 63 54 63
-2.308354 18.591442 59.857342 54 47 53
-2.322400 18.834393 60.221588 50 43 47
-2.308354 18.849506 59.857342 49 43 45
-2.299083 18.902321 59.616951 49 44 45
-2.303709 19.069126 59.736904 48 43 43
-2.303709 19.197899 59.736904 45 41 41
-2.308354 19.365637 59.857342 43 40 40
-2.336619 20.125216 60.590290 37 36 35
-2.322400 20.132566 60.221588 37 36 35
-2.267215 19.780903 58.790577 36 35 34
-2.236217 19.885460 57.986801 36 34 34
-2.262734 20.627184 58.674393 36 34 34
-2.299083 21.215572 59.616951 36 35 35
-2.303709 21.387033 59.736904 37 37 36
-2.317699 21.646469 60.099682 38 38 37
-2.317699 21.776024 60.099682 41 40 40
-2.308354 21.817249 59.857342 43 42 42
-2.303709 21.902124 59.736904 44 44 44
-2.294476 21.942596 59.497478 45 44 45
-2.289887 22.026711 59.378483 46 45 46
-2.206007 5.627256 60.590290 254 251 254
-2.206007 5.757868 60.590290 254 251 253
-2.201514 5.876488 60.466888 251 243 246
-2.201514 6.006834 60.466888 246 236 239
-2.197039 6.124706 60.343987 246 239 241
-2.206007 6.280317 60.590290 251 247 249
-2.206007 6.410930 60.590290 248 247 248
-2.206007 6.541542 60.590290 239 239 239
-2.206007 6.672154 60.590290 241 240 240
-2.206007 6.802766 60.590290 249 249 248
-2.206007 6.933379 60.590290 247 247 246
-2.215048 7.092942 60.838612 241 241 241
-2.210518 7.209316 60.714195 245 245 245
-2.215048 7.355237 60.838612 252 252 252
-2.215048 7.486384 60.838612 254 254 254
-2.219596 7.633173 60.963535 254 254 254
-2.215048 7.748679 60.838612 254 254 254
-2.210518 7.863713 60.714195 254 254 254
-2.206007 7.978276 60.590290 254 254 254
-2.201514 8.092374 60.466888 254 254 254
-2.201514 8.222720 60.466888 254 254 254
-2.188144 8.302339 60.099682 250 250 250
-2.192583 8.448997 60.221588 246 246 246
-2.192583 8.578815 60.221588 246 247 246
-2.188144 8.691003 60.099682 251 252 251
-2.188144 8.820558 60.099682 253 253 253
-2.183724 8.932032 59.978268 251 251 251
-2.179321 9.043056 59.857342 252 252 252
-2.179321 9.172088 59.857342 254 254 254
-2.166219 9.245201 59.497478 254 254 254
-2.174936 9.411178 59.736904 254 254 254
-2.166219 9.501715 59.497478 254 254 254
-2.179321 9.688216 59.857342 254 254 254
-2.170569 9.777822 59.616951 249 251 251
-2.174936 9.926269 59.736904 239 242 242
-2.170569 10.034850 59.616951 237 239 239
-2.179321 10.204346 59.857342 247 248 248
-2.161887 10.250710 59.378483 253 254 254
-2.174936 10.441360 59.736904 251 254 254
-2.170569 10.548906 59.616951 250 254 254
-2.174936 10.698904 59.736904 252 254 254
-2.174936 10.827677 59.736904 253 253 254
-2.179321 10.978539 59.857342 243 244 247
-2.179321 11.107572 59.857342 233 234 239
-2.188144 11.282096 60.099682 239 239 245
-2.188144 11.411651 60.099682 250 249 254
-2.179321 11.494668 59.857342 249 248 254
-2.179321 11.623700 59.857342 247 247 253
-2.183724 11.776476 59.978268 249 249 253
-2.188144 11.929870 60.099682 244 245 249
-2.201514 12.393800 60.466888 231 236 236
-2.197039 12.498690 60.343987 231 236 235
-2.201514 12.654491 60.466888 234 237 236
-2.197039 12.758853 60.343987 239 241 241
-2.183724 12.810819 59.978268 246 247 247
-2.197039 13.019015 60.343987 252 253 252
-2.188144 13.095861 60.099682 254 254 254
-2.197039 13.279178 60.343987 252 252 253
-2.197039 13.409259 60.343987 241 242 245
-2.188144 13.484526 60.099682 226 228 233
-2.183724 13.586576 59.978268 225 227 232
-2.157572 14.445819 59.259964 190 188 200
-2.153274 14.544533 59.141918 184 182 194
-2.144729 14.867769 58.907227 178 176 187
-2.148993 15.024564 59.024338 175 173 184
-2.144729 15.121737 58.907227 171 168 179
-2.148993 15.279037 59.024338 170 165 176
-2.153274 15.436963 59.141918 172 165 175
-2.148993 15.533510 59.024338 175 165 175
-2.148993 15.660747 59.024338 175 162 172
-2.140482 15.725456 58.790577 173 158 168
-2.157572 15.978753 59.259964 169 151 161
-2.157572 16.106499 59.259964 164 144 155
-2.153274 16.201902 59.141918 160 137 149
-2.144729 16.264595 58.907227 154 131 142
-2.148993 16.424166 59.024338 147 124 134
-2.153274 16.584373 59.141918 140 119 128
-2.153274 16.711863 59.141918 128 109 117
-2.157572 16.872965 59.259964 103 87 94
-2.157572 17.000710 59.259964 78 64 71
-2.157572 17.128454 59.259964 69 58 65
-2.166219 17.325361 59.497478 69 61 68
-2.166219 17.453619 59.497478 74 66 75
-2.166219 17.581875 59.497478 81 74 83
-2.166219 17.710131 59.497478 87 80 91
-2.170569 17.874208 59.616951 90 82 94
-2.183724 18.111830 59.978268 87 78 90
-2.174936 18.167717 59.736904 80 71 83
-2.170569 18.259750 59.616951 73 64 75
-2.166219 18.351414 59.497478 64 56 65
-2.174936 18.554035 59.736904 54 46 53
-2.192583 18.834393 60.221588 48 41 46
-2.174936 18.811581 59.736904 48 42 45
-2.174936 18.940353 59.736904 49 44 46
-2.174936 19.069126 59.736904 47 42 44
-2.174936 19.197899 59.736904 43 39 40
-2.183724 19.404758 59.978268 41 38 39
-2.188144 19.573593 60.099682 40 38 38
-2.201514 20.214573 60.466888 36 35 34
-2.157572 19.938833 59.259964 36 35 34
-2.132038 20.081570 58.558662 35 34 34
-2.161887 20.746712 59.378483 35 34 34
-2.161887 21.002710 59.378483 37 35 35
-2.183724 21.344152 59.978268 38 36 37
-2.188144 21.516914 60.099682 40 38 38
-2.197039 21.734463 60.343987 41 40 39
-2.192583 21.820194 60.221588 43 41 41
-2.188144 21.905579 60.099682 44 43 42
-2.183724 21.990618 59.978268 45 45 44
-2.170569 21.986658 59.616951 46 45 46
-2.161887 22.026711 59.378483 47 46 47
-2.071168 5.615795 60.466888 254 252 254
-2.075395 5.757868 60.590290 254 251 253
-2.071168 5.876488 60.466888 251 245 247
-2.071168 6.006834 60.466888 245 238 240
-2.071168 6.137180 60.466888 246 240 241
-2.075395 6.280317 60.590290 251 249 249
-2.075395 6.410930 60.590290 249 248 248
-2.075395 6.541542 60.590290 241 241 241
-2.075395 6.672154 60.590290 242 242 242
-2.075395 6.802766 60.590290 249 249 248
-2.075395 6.933379 60.590290 242 242 241
-2.083900 7.092942 60.838612 233 233 233
-2.079639 7.209316 60.714195 239 239 239
-2.083900 7.355237 60.838612 251 251 251
-2.079639 7.471075 60.714195 254 254 254
-2.083900 7.617532 60.838612 254 254 254
-2.083900 7.748679 60.838612 254 254 254
-2.079639 7.863713 60.714195 254 254 254
-2.075395 7.978276 60.590290 254 254 254
-2.071168 8.092374 60.466888 254 254 254
-2.071168 8.222720 60.466888 253 253 253
-2.058590 8.302339 60.099682 247 247 247
-2.066958 8.466169 60.343987 242 243 242
-2.062765 8.578815 60.221588 246 246 246
-2.062765 8.708632 60.221588 252 252 252
-2.058590 8.820558 60.099682 250 250 250
-2.058590 8.950112 60.099682 245 245 245
-2.050289 9.043056 59.857342 246 246 246
-2.050289 9.172088 59.857342 252 252 252
-2.037963 9.245201 59.497478 254 254 254
-2.050289 9.430152 59.857342 254 254 254
-2.042055 9.520794 59.616951 254 254 254
-2.054431 9.707788 59.978268 254 254 254
-2.046164 9.797496 59.736904 249 250 250
-2.046164 9.926269 59.736904 237 240 240
-2.042055 10.034850 59.616951 234 237 237
-2.050289 10.204346 59.857342 246 247 247
-2.033887 10.250710 59.378483 253 254 254
-2.046164 10.441360 59.736904 252 254 254
-2.046164 10.570131 59.736904 251 254 254
-2.046164 10.698904 59.736904 252 254 254
-2.046164 10.827677 59.736904 252 252 253
-2.050289 10.978539 59.857342 243 243 246
-2.046164 11.085222 59.736904 233 233 239
-2.054431 11.259304 59.978268 239 239 245
-2.054431 11.388597 59.978268 249 249 253
-2.046164 11.471540 59.736904 247 246 252
-2.046164 11.600313 59.736904 243 242 250
-2.050289 11.752733 59.857342 248 248 252
-2.050289 11.881765 59.857342 246 247 249
-2.071168 12.263453 60.466888 223 228 230
-2.066958 12.368608 60.343987 225 231 232
-2.066958 12.498690 60.343987 231 236 236
-2.066958 12.628771 60.343987 230 235 234
-2.062765 12.732972 60.221588 229 233 232
-2.050289 12.784991 59.857342 237 241 240
-2.062765 12.992607 60.221588 248 250 249
-2.050289 13.043056 59.857342 254 254 254
-2.066958 13.279178 60.343987 253 253 254
-2.062765 13.382060 60.221588 246 247 249
-2.058590 13.484526 60.099682 234 236 242
-2.050289 13.559184 59.857342 231 233 239
-2.025784 14.544533 59.141918 185 183 194
-2.013749 14.584863 58.790577 179 177 190
-2.013749 14.838327 58.790577 177 175 186
-2.021756 15.024564 59.024338 175 173 183
-2.013749 15.091793 58.790577 171 168 178
-2.017745 15.248721 58.907227 169 165 174
-2.025784 15.436963 59.141918 172 165 174
-2.025784 15.564453 59.141918 175 165 174
-2.025784 15.691943 59.141918 172 161 170
-2.013749 15.725456 58.790577 170 156 165
-2.037963 16.042797 59.497478 166 149 159
-2.033887 16.138710 59.378483 161 142 153
-2.025784 16.201902 59.141918 158 136 148
-2.025784 16.329393 59.141918 153 130 143
-2.025784 16.456882 59.141918 147 123 136
-2.029827 16.617476 59.259964 139 117 128
-2.029827 16.745220 59.259964 125 105 115
-2.033887 16.906712 59.378483 98 81 90
-2.029827 17.000710 59.259964 71 57 66
-2.029827 17.128454 59.259964 64 52 61
-2.037963 17.325361 59.497478 65 56 64
-2.037963 17.453619 59.497478 69 61 70
-2.037963 17.581875 59.497478 77 69 78
-2.037963 17.710131 59.497478 84 76 86
-2.042055 17.874208 59.616951 87 79 90
-2.050289 18.075314 59.857342 85 77 88
-2.046164 18.167717 59.736904 80 72 82
-2.042055 18.259750 59.616951 74 65 75
-2.037963 18.351414 59.497478 66 58 65
-2.046164 18.554035 59.736904 56 49 54
-2.058590 18.796267 60.099682 50 44 47
-2.046164 18.811581 59.736904 49 44 46
-2.046164 18.940353 59.736904 49 44 46
-2.050289 19.107571 59.857342 47 42 43
-2.050289 19.236605 59.857342 42 38 39
-2.054431 19.404758 59.978268 40 37 38
-2.062765 19.613297 60.221588 39 37 38
-2.062765 19.743114 60.221588 38 36 36
-2.066958 19.913324 60.343987 37 35 36
-2.075395 20.125216 60.590290 36 35 35
-2.075395 20.255827 60.590290 36 35 34
-2.046164 20.099306 59.736904 35 34 33
-2.037963 20.147005 59.497478 35 34 33
-2.042055 20.315975 59.616951 35 34 33
-2.050289 20.914022 59.857342 35 34 35
-2.037963 20.916544 59.497478 36 35 36
-2.071168 21.518036 60.466888 39 37 38
-2.071168 21.648382 60.466888 42 39 39
-2.075395 21.823174 60.590290 43 41 41
-2.071168 21.909075 60.466888 44 42 42
-2.071168 22.039421 60.466888 45 44 43
-2.066958 22.124706 60.343987 46 45 44
-2.050289 22.075314 59.857342 46 45 45
-2.033887 22.026711 59.378483 47 46 46
-2.037963 22.199110 59.497478 47 46 47
-1.940822 5.615795 60.466888 254 252 254
-1.944782 5.757868 60.590290 254 252 254
-1.944782 5.888481 60.590290 253 249 251
-1.944782 6.019093 60.590290 249 245 246
-1.944782 6.149705 60.590290 248 245 246
-1.944782 6.280317 60.590290 251 249 249
-1.948759 6.424040 60.714195 251 251 251
-1.948759 6.554919 60.714195 250 250 250
-1.948759 6.685799 60.714195 251 251 251
-1.948759 6.816678 60.714195 251 251 251
-1.944782 6.933379 60.590290 244 244 243
-1.952753 7.092942 60.838612 238 238 237
-1.948759 7.209316 60.714195 243 243 242
-1.948759 7.340195 60.714195 252 252 252
-1.948759 7.471075 60.714195 254 254 254
-1.948759 7.601954 60.714195 254 254 254
-1.948759 7.732833 60.714195 254 254 254
-1.944782 7.847664 60.590290 254 254 253
-1.944782 7.978276 60.590290 254 254 253
-1.936877 8.075926 60.343987 254 254 254
-1.940822 8.222720 60.466888 252 252 252
-1.929035 8.302339 60.099682 245 246 245
-1.932948 8.448997 60.221588 241 242 241
-1.932948 8.578815 60.221588 246 247 246
-1.932948 8.708632 60.221588 252 252 252
-1.929035 8.820558 60.099682 247 247 247
-1.929035 8.950112 60.099682 237 237 237
-1.921257 9.043056 59.857342 237 237 237
-1.921257 9.172088 59.857342 248 248 248
-1.913541 9.263766 59.616951 252 252 252
-1.921257 9.430152 59.857342 252 252 252
-1.917391 9.539950 59.736904 254 254 254
-1.925138 9.707788 59.978268 254 254 254
-1.917391 9.797496 59.736904 252 252 252
-1.921257 9.946281 59.857342 244 246 246
-1.917391 10.055041 59.736904 242 244 244
-1.925138 10.224960 59.978268 248 250 250
-1.909706 10.271254 59.497478 253 254 254
-1.917391 10.441360 59.736904 250 252 253
-1.917391 10.570131 59.736904 246 248 252
-1.913541 10.677421 59.616951 246 247 251
-1.913541 10.805935 59.616951 246 246 249
-1.917391 10.956450 59.736904 235 235 241
-1.913541 11.062963 59.616951 229 229 236
-1.917391 11.213995 59.736904 239 240 245
-1.917391 11.342768 59.736904 249 249 253
-1.913541 11.448505 59.616951 244 243 250
-1.913541 11.577019 59.616951 239 238 246
-1.913541 11.705533 59.616951 244 244 248
-1.913541 11.834047 59.616951 247 248 250
-1.936877 12.238527 60.343987 215 221 223
-1.932948 12.343520 60.221588 219 225 227
-1.932948 12.473338 60.221588 226 234 235
-1.936877 12.628771 60.343987 224 231 231
-1.929035 12.707197 60.099682 222 229 229
-1.921257 12.784991 59.857342 233 238 237
-1.932948 12.992607 60.221588 247 250 249
-1.925138 13.069405 59.978268 253 254 254
-1.936877 13.279178 60.343987 252 253 254
-1.932948 13.382060 60.221588 249 251 253
-1.925138 13.457284 59.978268 244 246 250
-1.917391 13.531902 59.736904 242 244 248
-1.898293 14.544533 59.141918 187 185 196
-1.887017 14.584863 58.790577 181 178 190
-1.887017 14.711595 58.790577 178 175 187
-1.887017 14.838327 58.790577 177 175 185
-1.890761 14.994753 58.907227 176 174 183
-1.887017 15.091793 58.790577 172 169 177
-1.890761 15.248721 58.907227 169 165 173
-1.898293 15.436963 59.141918 171 164 172
-1.902083 15.595520 59.259964 172 163 172
-1.898293 15.691943 59.141918 169 159 167
-1.887017 15.725456 58.790577 167 155 164
-1.909706 16.042797 59.497478 164 149 159
-1.905887 16.138710 59.378483 159 140 153
-1.894520 16.169693 59.024338 154 133 147
-1.902083 16.361986 59.259964 150 127 142
-1.902083 16.489731 59.259964 144 122 137
-1.905887 16.650711 59.378483 135 114 127
-1.905887 16.778711 59.378483 117 98 111
-1.909706 16.940592 59.497478 89 73 84
-1.905887 17.034712 59.378483 65 51 62
-1.905887 17.162710 59.378483 61 50 60
-1.909706 17.325361 59.497478 61 52 62
-1.909706 17.453619 59.497478 64 55 66
-1.909706 17.581875 59.497478 70 63 73
-1.913541 17.745693 59.616951 78 71 82
-1.917391 17.910172 59.736904 83 75 86
-1.921257 18.075314 59.857342 82 75 85
-1.917391 18.167717 59.736904 78 70 80
-1.913541 18.259750 59.616951 74 65 74
-1.909706 18.351414 59.497478 67 59 66
-1.917391 18.554035 59.736904 59 52 57
-1.929035 18.796267 60.099682 53 47 50
-1.921257 18.849506 59.857342 51 45 47
-1.921257 18.978539 59.857342 49 44 46
-1.921257 19.107571 59.857342 46 42 42
-1.925138 19.275465 59.978268 43 39 39
-1.929035 19.444040 60.099682 41 37 38
-1.932948 19.613297 60.221588 39 37 38
-1.929035 19.703148 60.099682 38 36 36
-1.936877 19.913324 60.343987 37 35 35
-1.940822 20.084227 60.466888 36 35 35
-1.944782 20.255827 60.590290 36 34 34
-1.925138 20.180515 59.978268 35 34 34
-1.925138 20.309809 59.978268 35 34 33
-1.921257 20.397894 59.857342 35 34 33
-1.898293 20.281584 59.141918 34 33 33
-1.940822 21.126997 60.466888 36 34 34
-1.960789 21.607727 61.088974 38 37 37
-1.952753 21.650318 60.838612 40 38 38
-1.952753 21.781466 60.838612 43 40 40
-1.956763 21.957609 60.963535 44 42 41
-1.948759 21.998682 60.714195 45 43 42
-1.948759 22.129560 60.714195 45 45 43
-1.944782 22.215012 60.590290 46 45 44
-1.929035 22.164688 60.099682 46 45 45
-1.913541 22.115171 59.616951 47 46 45
-1.917391 22.288441 59.736904 47 46 46
-1.825346 5.530504 60.963535 254 251 254
-1.814170 5.627256 60.590290 254 253 254
-1.817880 5.769643 60.714195 254 252 253
-1.814170 5.888481 60.590290 254 251 252
-1.817880 6.031402 60.714195 253 250 251
-1.817880 6.162281 60.714195 249 247 247
-1.817880 6.293160 60.714195 246 245 245
-1.817880 6.424040 60.714195 248 247 247
-1.817880 6.554919 60.714195 252 252 252
-1.817880 6.685799 60.714195 254 254 254
-1.817880 6.816678 60.714195 251 251 251
-1.817880 6.947557 60.714195 247 247 246
-1.821605 7.092942 60.838612 246 246 246
-1.817880 7.209316 60.714195 250 250 250
-1.817880 7.340195 60.714195 254 254 254
-1.817880 7.471075 60.714195 254 254 254
-1.814170 7.586440 60.590290 254 254 254
-1.814170 7.717052 60.590290 253 253 252
-1.810475 7.831681 60.466888 250 251 250
-1.810475 7.962028 60.466888 249 250 250
-1.806795 8.075926 60.343987 251 252 252
-1.806795 8.206007 60.343987 252 252 252
-1.799480 8.302339 60.099682 247 248 247
-1.803131 8.448997 60.221588 244 246 244
-1.803131 8.578815 60.221588 249 249 248
-1.803131 8.708632 60.221588 253 253 253
-1.799480 8.820558 60.099682 246 246 246
-1.799480 8.950112 60.099682 231 231 231
-1.795845 9.061324 59.978268 231 231 231
-1.795845 9.190618 59.978268 245 245 245
-1.788618 9.282405 59.736904 250 251 251
-1.795845 9.449203 59.978268 250 251 251
-1.792225 9.559184 59.857342 253 253 253
-1.799480 9.727440 60.099682 254 254 254
-1.792225 9.817249 59.857342 254 254 254
-1.795845 9.966374 59.978268 251 252 252
-1.792225 10.075314 59.857342 250 252 252
-1.795845 10.224960 59.978268 252 254 254
-1.781450 10.271254 59.497478 253 253 254
-1.788618 10.441360 59.736904 244 246 250
-1.788618 10.570131 59.736904 234 237 245
-1.785027 10.677421 59.616951 234 236 245
-1.785027 10.805935 59.616951 234 234 241
-1.785027 10.934449 59.616951 220 221 230
-1.781450 11.040792 59.497478 219 220 230
-1.785027 11.191477 59.616951 238 239 245
-1.785027 11.319991 59.616951 248 249 253
-1.777887 11.402711 59.378483 241 242 250
-1.781450 11.553819 59.497478 234 235 243
-1.781450 11.682076 59.497478 239 240 245
-1.777887 11.786711 59.378483 247 249 250
-1.806795 12.238527 60.343987 211 217 220
-1.803131 12.343520 60.221588 214 221 226
-1.799480 12.448088 60.099682 224 232 235
-1.806795 12.628771 60.343987 221 229 232
-1.799480 12.707197 60.099682 222 230 231
-1.795845 12.810819 59.978268 235 240 240
-1.803131 12.992607 60.221588 249 251 250
-1.795845 13.069405 59.978268 253 254 254
-1.806795 13.279178 60.343987 251 253 254
-1.803131 13.382060 60.221588 249 252 253
-1.795845 13.457284 59.978268 249 251 253
-1.785027 13.504730 59.616951 249 251 253
-1.770803 14.544533 59.141918 187 185 196
-1.760284 14.584863 58.790577 181 178 190
-1.763777 14.740785 58.907227 178 175 186
-1.763777 14.867769 58.907227 177 174 185
-1.767283 15.024564 59.024338 176 172 182
-1.760284 15.091793 58.790577 172 168 177
-1.777887 15.626711 59.378483 168 159 168
-1.774338 15.723265 59.259964 166 155 165
-1.763777 15.756658 58.907227 164 152 162
-1.785027 16.075010 59.616951 162 146 158
-1.777887 16.138710 59.378483 157 138 153
-1.767283 16.169693 59.024338 151 131 146
-1.774338 16.361986 59.259964 147 125 141
-1.774338 16.489731 59.259964 141 119 136
-1.781450 16.684078 59.497478 129 109 125
-1.777887 16.778711 59.378483 107 89 104
-1.781450 16.940592 59.497478 79 63 77
-1.777887 17.034712 59.378483 60 47 59
-1.777887 17.162710 59.378483 58 49 60
-1.781450 17.325361 59.497478 58 51 62
-1.781450 17.453619 59.497478 59 52 63
-1.781450 17.581875 59.497478 65 58 69
-1.785027 17.745693 59.616951 72 65 77
-1.788618 17.910172 59.736904 77 70 81
-1.792225 18.075314 59.857342 78 71 81
-1.792225 18.204346 59.857342 76 68 77
-1.788618 18.296490 59.736904 73 65 73
-1.785027 18.388264 59.616951 68 60 67
-1.788618 18.554035 59.736904 61 54 58
-1.799480 18.796267 60.099682 55 48 51
-1.795845 18.887587 59.978268 51 45 47
-1.795845 19.016880 59.978268 49 44 45
-1.795845 19.146173 59.978268 46 42 42
-1.799480 19.314486 60.099682 44 40 40
-1.795845 19.404758 59.978268 41 37 38
-1.795845 19.534052 59.978268 40 37 38
-1.795845 19.663343 59.978268 38 36 36
-1.803131 19.872932 60.221588 37 36 35
-1.806795 20.043406 60.343987 37 36 35
-1.810475 20.214573 60.466888 36 35 34
-1.799480 20.221367 60.099682 35 35 34
-1.799480 20.350922 60.099682 35 34 33
-1.799480 20.480476 60.099682 35 34 33
-1.777887 20.362711 59.378483 34 33 33
-1.817880 21.213406 60.714195 36 34 35
-1.832873 21.652279 61.214931 39 37 38
-1.825346 21.694775 60.963535 41 39 39
-1.832873 21.916197 61.214931 43 41 41
-1.836660 22.093710 61.341408 44 43 42
-1.825346 22.089025 60.963535 45 44 43
-1.821605 22.174910 60.838612 45 45 43
-1.814170 22.215012 60.590290 46 45 44
-1.806795 22.254787 60.343987 46 46 45
-1.792225 22.204346 59.857342 46 46 45
-1.799480 22.423796 60.099682 46 46 45
-1.799480 22.553350 60.099682 45 45 45
-1.690458 5.519171 60.838612 254 252 253
-1.683558 5.627256 60.590290 254 253 254
-1.687001 5.769643 60.714195 254 252 253
-1.687001 5.900522 60.714195 254 252 253
-1.687001 6.031402 60.714195 254 252 252
-1.687001 6.162281 60.714195 246 244 244
-1.690458 6.306056 60.838612 233 233 232
-1.690458 6.437204 60.838612 236 236 236
-1.690458 6.568351 60.838612 247 247 247
-1.687001 6.685799 60.714195 249 249 249
-1.687001 6.816678 60.714195 245 246 245
-1.690458 6.961794 60.838612 245 245 244
-1.690458 7.092942 60.838612 249 249 249
-1.687001 7.209316 60.714195 253 253 253
-1.687001 7.340195 60.714195 254 254 254
-1.683558 7.455828 60.590290 254 254 254
-1.683558 7.586440 60.590290 253 254 253
-1.680129 7.701335 60.466888 252 252 252
-1.680129 7.831681 60.466888 248 249 247
-1.680129 7.962028 60.466888 245 246 245
-1.676714 8.075926 60.343987 249 249 248
-1.676714 8.206007 60.343987 252 252 252
-1.669926 8.302339 60.099682 249 250 249
-1.673313 8.448997 60.221588 246 247 246
-1.673313 8.578815 60.221588 249 250 249
-1.673313 8.708632 60.221588 253 253 253
-1.669926 8.820558 60.099682 247 247 247
-1.669926 8.950112 60.099682 234 234 234
-1.666552 9.061324 59.978268 234 234 234
-1.666552 9.190618 59.978268 246 246 246
-1.663192 9.301120 59.857342 251 251 251
-1.666552 9.449203 59.978268 251 252 252
-1.666552 9.578496 59.978268 253 254 254
-1.673313 9.747171 60.221588 254 254 254
-1.666552 9.837082 59.978268 254 254 254
-1.669926 9.986549 60.099682 253 254 254
-1.666552 10.095668 59.978268 252 254 254
-1.669926 10.245659 60.099682 253 254 254
-1.653193 10.271254 59.497478 252 252 253
-1.663192 10.462410 59.857342 242 243 249
-1.659846 10.570131 59.736904 230 232 243
-1.656513 10.677421 59.616951 229 230 241
-1.656513 10.805935 59.616951 226 226 236
-1.653193 10.912536 59.497478 210 211 224
-1.649887 11.018711 59.378483 214 216 228
-1.653193 11.169049 59.497478 236 239 246
-1.653193 11.297305 59.497478 245 247 253
-1.649887 11.402711 59.378483 240 242 249
-1.649887 11.530711 59.378483 233 236 242
-1.649887 11.658710 59.378483 239 242 245
-1.669926 12.318533 60.099682 216 223 229
-1.666552 12.422940 59.978268 224 231 238
-1.676714 12.628771 60.343987 223 231 235
-1.669926 12.707197 60.099682 225 233 235
-1.666552 12.810819 59.978268 238 242 243
-1.676714 13.019015 60.343987 250 251 252
-1.666552 13.069405 59.978268 253 254 254
-1.676714 13.279178 60.343987 252 253 254
-1.673313 13.382060 60.221588 251 253 254
-1.663192 13.430152 59.857342 251 253 254
-1.646594 14.573564 59.259964 186 183 194
-1.636792 14.613801 58.907227 180 177 189
-1.636792 14.740785 58.907227 177 173 185
-1.636792 14.867769 58.907227 175 171 183
-1.640046 15.024564 59.024338 174 169 181
-1.633551 15.091793 58.790577 172 166 177
-1.656513 15.689468 59.616951 165 155 165
-1.656513 15.817983 59.616951 162 151 162
-1.646594 15.851009 59.259964 160 147 159
-1.666552 16.172436 59.978268 158 142 156
-1.649887 16.138710 59.378483 155 136 152
-1.643313 16.201902 59.141918 150 129 146
-1.646594 16.361986 59.259964 146 124 142
-1.649887 16.522711 59.378483 138 117 136
-1.653193 16.684078 59.497478 122 103 121
-1.649887 16.778711 59.378483 96 79 96
-1.649887 16.906712 59.378483 68 54 70
-1.649887 17.034712 59.378483 55 45 58
-1.649887 17.162710 59.378483 56 48 60
-1.653193 17.325361 59.497478 56 50 61
-1.653193 17.453619 59.497478 57 50 62
-1.653193 17.581875 59.497478 61 54 66
-1.656513 17.745693 59.616951 67 61 72
-1.659846 17.910172 59.736904 72 66 76
-1.663192 18.075314 59.857342 73 67 76
-1.663192 18.204346 59.857342 72 65 73
-1.659846 18.296490 59.736904 70 63 70
-1.656513 18.388264 59.616951 68 61 66
-1.656513 18.516779 59.616951 63 56 60
-1.666552 18.758293 59.978268 56 51 53
-1.666552 18.887587 59.978268 51 46 48
-1.663192 18.978539 59.857342 49 44 45
-1.666552 19.146173 59.978268 46 42 43
-1.666552 19.275465 59.978268 44 40 41
-1.663192 19.365637 59.857342 42 38 39
-1.659846 19.455444 59.736904 40 37 38
-1.663192 19.623701 59.857342 39 36 37
-1.669926 19.832703 60.099682 38 36 36
-1.666552 19.921930 59.978268 38 36 36
-1.680129 20.214573 60.466888 37 36 35
