ply
format ascii 1.0
element vertex 1265
property float x
property float y
property float z
property uchar red
property uchar green
property uchar blue
end_header
0.440391 11.197689 65.684166 51 41 39
0.440391 11.339282 65.684166 47 36 34
0.439419 11.455531 65.539169 44 32 31
0.438451 11.571267 65.394806 44 31 30
0.438451 11.712236 65.394806 45 31 31
0.438451 11.853206 65.394806 47 32 33
0.437487 11.967814 65.251083 50 34 35
0.435573 12.335570 64.965523 59 43 46
0.435573 12.475614 64.965523 58 43 45
0.433675 12.560687 64.682442 55 40 41
0.431793 12.645022 64.401825 52 37 38
0.430859 12.756181 64.262428 50 35 36
0.432732 12.950772 64.541832 51 34 36
0.433675 13.118422 64.682442 53 35 37
0.432732 13.229033 64.541832 55 37 39
0.679733 -8.751019 76.716385 34 24 24
0.703360 -5.974986 79.383003 46 27 27
0.709048 -5.678287 80.024910 48 29 29
0.751590 -4.921842 84.826408 58 36 37
0.743098 -4.685437 83.867912 58 36 37
0.736853 -4.466792 83.163147 58 35 37
0.732748 -4.263634 82.699837 56 34 36
0.726676 -4.051504 82.014481 53 32 35
0.734795 -3.918001 82.930847 52 31 35
0.732748 -3.728815 82.699837 52 31 35
0.722683 -3.501771 81.563850 53 31 35
0.720703 -3.316834 81.340393 54 32 35
0.722683 -3.150122 81.563850 55 33 35
0.722683 -2.974298 81.563850 56 34 36
0.722683 -2.798474 81.563850 56 36 37
0.720703 -2.615464 81.340393 56 38 39
0.718734 -2.433455 81.118149 56 40 40
0.722683 -2.271002 81.563850 56 42 42
0.718734 -2.083728 81.118149 55 44 43
0.720703 -1.914095 81.340393 50 41 39
0.720703 -1.738752 81.340393 43 34 32
0.722683 -1.567705 81.563850 36 28 24
0.722683 -1.391881 81.563850 37 29 26
0.720703 -1.212725 81.340393 47 39 37
0.720703 -1.037382 81.340393 45 38 36
0.718734 -0.859685 81.118149 33 26 26
0.718734 -0.684821 81.118149 27 21 22
0.720703 -0.511355 81.340393 28 22 23
0.716776 -0.334181 80.897118 30 24 24
0.724674 -0.161555 81.788544 31 25 24
0.716776 0.014593 80.897118 32 27 25
0.712891 0.187955 80.458649 33 29 25
0.710964 0.360420 80.241196 31 28 24
0.703360 0.527688 79.383003 28 26 21
0.703360 0.698811 79.383003 26 23 18
0.701484 0.867615 79.171310 23 21 16
0.701484 1.038281 79.171310 22 20 15
0.695917 1.199353 78.542969 21 19 14
0.683264 1.343780 77.114914 19 18 13
0.681494 1.506102 76.915138 18 17 13
0.672779 1.650525 75.931564 17 17 13
0.671063 1.809580 75.737862 18 17 13
0.664284 1.952918 74.972832 19 18 14
0.665966 2.119887 75.162636 19 18 14
0.656002 2.247769 74.038010 19 18 14
0.647923 2.377723 73.126213 19 17 14
0.662611 2.754044 74.783989 17 15 12
0.490777 2.756260 55.390377 20 16 17
0.483560 2.833374 54.575813 20 16 16
0.449669 3.181804 50.750843 18 16 12
0.445104 3.257793 50.235603 20 16 12
0.445104 3.366084 50.235603 20 16 12
0.593807 6.079809 67.018608 25 21 18
0.593807 6.224279 67.018608 25 21 18
0.592470 6.354404 66.867661 26 20 18
0.585872 6.426181 66.123032 26 19 19
0.579420 6.496377 65.394806 26 19 20
0.576879 6.608236 65.107986 27 20 21
0.579420 6.778316 65.394806 28 20 23
0.576879 6.888937 65.107986 28 21 23
0.576879 7.029288 65.107986 28 22 24
0.573108 7.122779 64.682442 29 23 24
0.568157 7.199472 64.123634 30 23 24
0.574359 7.557545 64.823669 32 23 25
0.591139 8.641249 66.717400 33 23 21
0.584570 8.687456 65.976097 33 23 22
0.579420 8.751884 65.394806 34 24 23
0.579420 8.892854 65.394806 35 25 24
0.576879 8.994201 65.107986 35 25 25
0.581984 9.215388 65.684166 36 26 26
0.580699 9.336326 65.539169 38 27 27
0.578146 9.435946 65.251083 39 29 29
0.576879 9.555604 65.107986 41 31 31
0.578146 9.717265 65.251083 42 32 32
0.579420 9.879638 65.394806 42 32 33
0.579420 10.020607 65.394806 42 32 33
0.579420 10.161576 65.394806 41 31 31
0.579420 10.302546 65.394806 41 30 29
0.580699 10.466568 65.539169 42 30 29
0.580699 10.607849 65.539169 45 33 32
0.580699 10.749129 65.539169 50 38 36
0.579420 10.866422 65.394806 57 45 43
0.580699 11.031690 65.539169 62 50 48
0.580699 11.172970 65.539169 59 47 46
0.580699 11.314251 65.539169 51 39 38
0.580699 11.455531 65.539169 47 35 34
0.579420 11.571267 65.394806 47 34 33
0.579420 11.712236 65.394806 47 34 34
0.579420 11.853206 65.394806 48 34 34
0.579420 11.994175 65.394806 50 35 36
0.575616 12.335570 64.965523 59 44 45
0.575616 12.475614 64.965523 59 44 44
0.573108 12.560687 64.682442 55 40 41
0.571862 12.672512 64.541832 52 36 37
0.570622 12.783852 64.401825 50 33 35
0.573108 12.978988 64.682442 52 34 36
0.573108 13.118422 64.682442 56 37 40
0.573108 13.257855 64.682442 60 40 44
0.569387 13.310293 64.262428 65 45 49
0.845108 -8.916394 76.716385 34 24 24
0.883937 -5.693634 80.241196 47 29 27
0.937125 -4.935944 85.069466 57 34 35
0.926506 -4.698709 84.105499 57 34 36
0.916125 -4.466792 83.163147 57 34 36
0.911021 -4.263634 82.699837 56 34 36
0.903471 -4.051504 82.014481 54 33 35
0.913566 -3.918001 82.930847 53 32 35
0.911021 -3.728815 82.699837 53 31 34
0.898507 -3.501771 81.563850 53 31 33
0.896046 -3.316834 81.340393 55 31 34
0.896046 -3.141492 81.340393 56 33 35
0.896046 -2.966149 81.340393 57 35 36
0.896046 -2.790807 81.340393 58 37 38
0.896046 -2.615464 81.340393 58 39 40
0.891163 -2.426824 80.897118 58 40 41
0.896046 -2.264780 81.340393 58 43 44
0.891163 -2.078050 80.897118 57 46 45
0.896046 -1.914095 81.340393 54 43 42
0.896046 -1.738752 81.340393 46 37 35
0.896046 -1.563410 81.340393 39 31 28
0.898507 -1.391881 81.563850 37 30 27
0.898507 -1.216056 81.563850 43 36 34
0.896046 -1.037382 81.340393 42 35 34
0.896046 -0.862040 81.340393 33 26 25
0.896046 -0.686697 81.340393 28 21 22
0.898507 -0.512760 81.563850 29 22 22
0.893597 -0.335094 81.118149 29 23 23
0.900982 -0.161555 81.788544 30 24 23
0.893597 0.014632 81.118149 31 25 24
0.891163 0.188979 80.897118 31 27 23
0.888741 0.362379 80.677292 30 26 22
0.876827 0.529103 79.595825 27 25 20
0.876827 0.700685 79.595825 25 23 17
0.872151 0.867615 79.171310 23 22 16
0.874483 1.041057 79.383003 21 20 15
0.865229 1.199353 78.542969 20 19 14
0.836462 1.323160 75.931564 19 18 13
0.838607 1.490655 76.126259 18 17 13
0.832205 1.642126 75.545143 17 17 13
0.830093 1.800395 75.353409 19 18 14
0.825901 1.952918 74.972832 20 18 16
0.825901 2.114534 74.972832 20 18 16
0.815603 2.247769 74.038010 19 17 16
0.807547 2.383594 73.306770 19 17 15
0.825901 2.760999 74.972832 17 16 14
0.557166 3.170963 50.577927 19 17 13
0.546917 3.219658 49.647564 20 17 13
0.736614 5.921972 66.867661 24 20 18
0.728411 5.998565 66.123032 25 20 18
0.730037 6.154811 66.270630 25 20 18
0.726793 6.269679 65.976097 26 20 19
0.720389 6.355409 65.394806 27 20 20
0.715660 6.453732 64.965523 28 20 21
0.714097 6.579379 64.823669 28 21 23
0.718806 6.763419 65.251083 29 22 24
0.715660 6.873863 64.965523 29 22 24
0.714097 6.998593 64.823669 29 23 24
0.712542 7.122779 64.682442 29 23 24
0.700335 7.137806 63.574394 30 23 24
0.726793 8.403012 65.976097 33 22 22
0.726793 8.545235 65.976097 33 22 21
0.721979 8.629924 65.539169 33 23 22
0.715660 8.694432 64.965523 34 23 23
0.717229 8.853849 65.107986 35 24 23
0.715660 8.974520 64.965523 37 25 24
0.720389 9.174791 65.394806 38 26 25
0.720389 9.315761 65.394806 40 28 26
0.718806 9.435946 65.251083 42 30 29
0.717229 9.555604 65.107986 44 32 32
0.717229 9.695955 65.107986 45 33 34
0.720389 9.879638 65.394806 44 33 34
0.720389 10.020607 65.394806 44 33 34
0.718806 10.139243 65.251083 43 31 32
0.720389 10.302546 65.394806 42 29 30
0.721979 10.466568 65.539169 42 29 29
0.720389 10.584483 65.394806 45 31 30
0.720389 10.725452 65.394806 51 37 35
0.720389 10.866422 65.394806 59 46 43
0.721979 11.031690 65.539169 65 52 50
0.721979 11.172970 65.539169 63 50 49
0.721979 11.314251 65.539169 55 43 42
0.720389 11.430299 65.394806 51 39 38
0.720389 11.571267 65.394806 49 38 37
0.720389 11.712236 65.394806 49 36 36
0.720389 11.853206 65.394806 49 35 36
0.720389 11.994175 65.394806 50 36 36
0.718806 12.108474 65.251083 52 37 38
0.717229 12.362621 65.107986 59 44 44
0.715660 12.475614 64.965523 59 44 43
0.712542 12.560687 64.682442 56 41 40
0.710993 12.672512 64.541832 53 37 38
0.710993 12.811643 64.541832 50 33 35
0.712542 12.978988 64.682442 52 34 38
0.714097 13.147064 64.823669 57 38 44
0.712542 13.257855 64.682442 64 44 50
0.709450 13.339166 64.401825 69 49 54
0.707915 13.448821 64.262428 70 51 54
1.013100 -9.105297 76.915138 34 25 24
1.000145 -8.825178 75.931564 34 25 23
0.982554 -8.026745 74.596085 34 24 22
1.054061 -5.678287 80.024910 46 28 26
1.077291 -4.040343 81.788544 55 32 35
1.086268 -3.896235 82.470116 54 32 34
1.086268 -3.718457 82.470116 53 31 33
1.074331 -3.501771 81.563850 53 30 32
1.065549 -3.298759 80.897118 54 30 33
1.059774 -3.107438 80.458649 56 32 35
1.065549 -2.949985 80.897118 57 36 37
1.068461 -2.783182 81.118149 58 38 39
1.068461 -2.608318 81.118149 58 39 41
1.065549 -2.426824 80.897118 58 41 42
1.071388 -2.264780 81.340393 57 43 43
1.065549 -2.078050 80.897118 56 44 44
1.071388 -1.914095 81.340393 53 43 42
1.071388 -1.738752 81.340393 48 39 38
1.071388 -1.563410 81.340393 43 35 33
1.071388 -1.388067 81.340393 39 31 30
1.071388 -1.212725 81.340393 38 31 30
1.074331 -1.040232 81.563850 36 29 28
1.071388 -0.862040 81.340393 33 26 25
1.071388 -0.686697 81.340393 31 24 23
1.071388 -0.511355 81.340393 30 23 23
1.068461 -0.335094 81.118149 30 23 22
1.077291 -0.161555 81.788544 30 24 22
1.068461 0.014632 81.118149 30 24 22
1.068461 0.189496 81.118149 29 25 21
1.065549 0.363366 80.897118 28 25 20
1.048409 0.529103 79.595825 26 24 19
1.045606 0.698811 79.383003 24 23 17
1.042818 0.867615 79.171310 22 21 17
1.042818 1.038281 79.171310 21 20 16
1.031812 1.196189 78.335732 20 19 15
0.997593 1.483050 75.737862 19 18 14
0.997593 1.646315 75.737862 19 18 14
0.995055 1.804976 75.545143 19 18 16
0.990017 1.957862 75.162636 20 18 17
0.987517 2.114534 74.972832 20 18 17
0.977642 2.253389 74.223106 19 17 16
0.977642 2.413389 74.223106 19 16 15
0.656135 2.908314 49.814163 20 17 15
0.657238 3.020766 49.897884 19 17 14
0.661686 3.149502 50.235603 20 17 14
0.651761 3.208926 49.482071 21 17 15
0.647445 3.293635 49.154373 21 17 15
0.867088 5.830057 65.829803 23 19 17
0.859465 5.919463 65.251083 24 19 17
0.859465 6.060122 65.251083 25 19 18
0.861358 6.214439 65.394806 27 19 19
0.857580 6.327534 65.107986 28 20 20
0.855704 6.453732 64.965523 28 20 21
0.853835 6.579379 64.823669 28 22 23
0.859465 6.763419 65.251083 29 23 24
0.855704 6.873863 64.965523 29 23 24
0.853835 6.998593 64.823669 30 24 24
0.853835 7.138331 64.823669 30 24 24
0.837380 7.137806 63.574394 30 24 24
0.863260 8.629924 65.539169 34 22 22
0.857580 8.713499 65.107986 35 23 23
0.859465 8.873309 65.251083 36 24 24
0.855704 8.974520 64.965523 38 25 24
0.861358 9.174791 65.394806 40 27 25
0.861358 9.315761 65.394806 42 29 27
0.859465 9.435946 65.251083 44 31 30
0.857580 9.555604 65.107986 47 34 33
0.857580 9.695955 65.107986 48 35 35
0.861358 9.879638 65.394806 47 35 35
0.861358 10.020607 65.394806 46 34 35
0.859465 10.139243 65.251083 44 31 33
0.859465 10.279902 65.251083 43 29 30
0.863260 10.466568 65.539169 43 29 29
0.861358 10.584483 65.394806 45 31 30
0.861358 10.725452 65.394806 50 36 33
0.861358 10.866422 65.394806 57 43 41
0.861358 11.007391 65.394806 64 50 48
0.861358 11.148360 65.394806 63 50 49
0.861358 11.289330 65.394806 57 45 44
0.861358 11.430299 65.394806 53 42 42
0.859465 11.545836 65.251083 50 40 40
0.861358 11.712236 65.394806 49 38 39
0.863260 11.879372 65.539169 49 37 38
0.861358 11.994175 65.394806 49 37 37
0.859465 12.108474 65.251083 51 38 38
0.857580 12.362621 65.107986 59 45 44
0.855704 12.475614 64.965523 60 45 44
0.851975 12.560687 64.682442 57 43 41
0.850123 12.672512 64.541832 54 38 39
0.850123 12.811643 64.541832 51 34 36
0.851975 12.978988 64.682442 53 35 39
0.853835 13.147064 64.823669 60 42 47
0.851975 13.257855 64.682442 69 50 56
0.848279 13.339166 64.401825 70 51 57
0.846443 13.448821 64.262428 68 50 53
0.857580 13.766130 65.107986 69 51 53
1.178903 -9.271100 76.915138 35 26 24
1.131982 -7.946877 73.853836 35 24 21
1.216729 -5.632740 79.383003 46 28 26
1.197518 -5.375381 78.129585 47 28 27
1.253600 -4.216651 81.788544 56 32 34
1.246731 -4.018204 81.340393 55 32 34
1.257063 -3.874709 82.014481 54 31 34
1.260545 -3.708157 82.241669 53 31 32
1.246731 -3.492177 81.340393 53 30 32
1.233216 -3.280879 80.458649 53 31 32
1.219991 -3.074114 79.595825 55 33 34
1.229883 -2.926066 80.241196 56 36 36
1.236567 -2.768056 80.677292 57 38 38
1.236567 -2.594143 80.677292 57 39 40
1.239936 -2.426824 80.897118 57 41 42
1.246731 -2.264780 81.340393 57 42 43
1.239936 -2.078050 80.897118 55 42 43
1.243324 -1.908865 81.118149 52 42 42
1.243324 -1.734001 81.118149 49 39 40
1.246731 -1.563410 81.340393 44 36 36
1.246731 -1.388067 81.340393 40 33 32
1.246731 -1.212725 81.340393 37 30 29
1.250156 -1.040232 81.563850 34 27 27
1.246731 -0.862040 81.340393 33 26 25
1.246731 -0.686697 81.340393 32 25 24
1.246731 -0.511355 81.340393 31 24 23
1.239936 -0.334181 80.897118 30 23 22
1.253600 -0.161555 81.788544 29 23 22
1.236567 0.014553 80.677292 29 24 22
1.236567 0.188466 80.677292 28 24 21
1.229883 0.360420 80.241196 27 24 19
1.210257 0.524882 78.960747 25 23 18
1.210257 0.695094 78.960747 24 22 18
1.203853 0.860729 78.542969 22 20 18
1.203853 1.030041 78.542969 21 19 18
1.191248 1.186794 77.720528 20 18 17
1.160859 1.483050 75.737862 19 18 16
1.166812 1.654758 76.126259 19 18 17
1.157905 1.804976 75.545143 19 18 17
1.152042 1.957862 75.162636 19 18 18
1.152042 2.119887 75.162636 19 18 18
1.140493 2.259036 74.409126 19 17 17
0.766089 3.133595 49.981888 21 17 16
0.755908 3.198265 49.317677 22 17 17
1.002327 5.650563 65.394806 22 18 16
1.004540 5.804317 65.539169 23 18 17
0.995748 5.893557 64.965523 23 19 18
1.000124 6.060122 65.251083 25 19 18
1.004540 6.228158 65.539169 26 19 19
1.000124 6.341441 65.251083 27 20 20
1.000124 6.482100 65.251083 28 21 21
1.000124 6.622759 65.251083 28 22 23
1.004540 6.793279 65.539169 29 23 24
1.002327 6.919285 65.394806 30 23 24
1.000124 7.044737 65.251083 31 24 25
1.000124 7.185397 65.251083 31 24 25
1.020306 7.617389 66.567810 32 25 26
1.013489 8.706805 66.123032 34 22 22
1.006763 8.790609 65.684166 36 23 22
1.004540 8.912484 65.539169 38 25 24
1.000124 9.013968 65.251083 41 26 25
1.004540 9.195045 65.539169 43 28 27
1.004540 9.336326 65.539169 45 31 29
1.000124 9.435946 65.251083 48 33 32
1.000124 9.576606 65.251083 50 36 35
1.000124 9.717265 65.251083 51 36 36
1.002327 9.879638 65.394806 50 36 37
1.002327 10.020607 65.394806 49 35 36
1.000124 10.139243 65.251083 47 34 34
1.000124 10.279902 65.251083 45 32 32
1.004540 10.466568 65.539169 46 31 31
1.002327 10.584483 65.394806 47 32 31
1.002327 10.725452 65.394806 50 36 34
1.002327 10.866422 65.394806 57 44 42
1.002327 11.007391 65.394806 62 50 48
1.002327 11.148360 65.394806 61 49 48
1.002327 11.289330 65.394806 56 46 45
1.000124 11.405177 65.251083 52 43 42
1.000124 11.545836 65.251083 50 40 40
1.002327 11.712236 65.394806 49 38 39
1.004540 11.879372 65.539169 48 37 38
1.002327 11.994175 65.394806 48 37 38
1.000124 12.108474 65.251083 50 38 39
0.997931 12.222271 65.107986 54 41 42
0.997931 12.362621 65.107986 59 46 45
0.995748 12.475614 64.965523 61 48 46
0.991409 12.560687 64.682442 59 45 44
0.989254 12.672512 64.541832 54 39 39
0.989254 12.811643 64.541832 51 35 36
0.991409 12.978988 64.682442 53 36 40
0.987108 13.339166 64.401825 72 54 60
0.984971 13.448821 64.262428 68 51 55
0.997931 13.766130 65.107986 71 54 56
0.997931 13.906482 65.107986 78 60 61
1.344706 -9.436903 76.915138 36 26 23
1.291186 -7.946877 73.853836 36 24 20
1.269087 -7.654387 72.589836 37 24 20
1.362353 -5.697230 77.924522 45 27 25
1.365939 -5.375381 78.129585 47 29 27
1.449879 -4.811856 82.930847 52 30 31
1.441824 -4.607346 82.470116 54 30 32
1.425980 -4.380892 81.563850 54 31 32
1.418187 -4.182089 81.118149 54 31 33
1.410480 -3.985447 80.677292 54 32 33
1.418187 -3.832362 81.118149 54 31 33
1.429908 -3.687726 81.788544 54 31 32
1.414323 -3.473146 80.897118 54 32 32
1.399075 -3.263193 80.024910 55 33 33
1.380470 -3.049587 78.960747 55 34 34
1.391573 -2.902532 79.595825 56 36 36
1.402856 -2.753093 80.241196 56 38 38
1.402856 -2.580120 80.241196 56 39 40
1.414323 -2.426824 80.897118 56 41 42
1.418187 -2.258592 81.118149 56 42 44
1.410480 -2.072404 80.677292 55 43 45
1.418187 -1.908865 81.118149 53 42 44
1.418187 -1.734001 81.118149 50 40 42
1.418187 -1.559138 81.118149 45 36 38
1.422073 -1.388067 81.340393 40 32 33
1.422073 -1.212725 81.340393 36 29 29
1.425980 -1.040232 81.563850 34 27 27
1.422073 -0.862040 81.340393 33 26 25
1.422073 -0.686697 81.340393 31 24 23
1.418187 -0.509958 81.118149 30 23 22
1.410480 -0.333273 80.677292 29 22 21
1.425980 -0.161111 81.563850 29 23 22
1.402856 0.014474 80.241196 29 24 22
1.402856 0.187447 80.241196 28 24 21
1.369543 0.689592 78.335732 24 21 18
1.358787 0.851716 77.720528 23 20 18
1.355239 1.016594 77.517601 22 19 18
1.341232 1.171461 76.716385 20 18 17
1.317403 1.313085 75.353409 20 18 17
1.334336 1.659011 76.321960 19 18 17
1.314067 1.957862 75.162636 19 17 18
0.955905 2.602865 54.676319 20 20 15
0.860790 3.192961 49.235889 23 17 17
1.143297 5.509593 65.394806 22 17 17
1.143297 5.650563 65.394806 22 18 16
1.145820 5.804317 65.539169 22 18 17
1.150902 6.113870 65.829803 24 19 19
1.153459 6.269679 65.976097 25 19 19
1.148355 6.383530 65.684166 27 20 20
1.148355 6.525123 65.684166 28 21 21
1.161201 6.741287 66.418884 29 21 22
1.161201 6.884464 66.418884 30 22 24
1.161201 7.027641 66.418884 30 23 25
1.156028 7.138876 66.123032 31 24 25
1.150902 7.249125 65.829803 32 25 26
1.169047 7.507557 66.867661 32 25 26
1.163804 8.765371 66.567810 35 24 23
1.156028 8.849344 66.123032 38 25 24
1.148355 8.932202 65.684166 41 26 26
1.140784 9.013968 65.251083 44 28 28
1.145820 9.195045 65.539169 47 30 30
1.145820 9.336326 65.539169 51 34 34
1.140784 9.435946 65.251083 53 37 36
1.140784 9.576606 65.251083 54 38 38
1.140784 9.717265 65.251083 54 38 39
1.143297 9.879638 65.394806 53 38 39
1.143297 10.020607 65.394806 52 37 38
1.140784 10.139243 65.251083 50 36 36
1.143297 10.302546 65.394806 48 34 34
1.145820 10.466568 65.539169 48 33 33
1.143297 10.584483 65.394806 49 34 32
1.143297 10.725452 65.394806 51 37 35
1.143297 10.866422 65.394806 57 44 42
1.143297 11.007391 65.394806 62 50 48
1.143297 11.148360 65.394806 60 48 47
1.143297 11.289330 65.394806 54 43 42
1.140784 11.405177 65.251083 50 40 39
1.140784 11.545836 65.251083 48 38 39
1.140784 11.686496 65.251083 48 37 39
1.143297 11.853206 65.394806 48 37 38
1.143297 11.994175 65.394806 48 37 38
1.140784 12.108474 65.251083 49 37 38
1.138282 12.222271 65.107986 52 40 41
1.138282 12.362621 65.107986 58 45 45
1.135791 12.475614 64.965523 62 49 48
1.133311 12.588113 64.823669 60 47 46
1.125936 12.645022 64.401825 53 40 39
1.128384 12.811643 64.541832 49 35 35
1.130842 12.978988 64.682442 54 39 40
1.130842 13.118422 64.682442 64 49 51
1.130842 13.257855 64.682442 74 59 62
1.125936 13.339166 64.401825 75 60 63
1.125936 13.477995 64.401825 72 58 60
1.135791 13.736008 64.965523 75 60 61
1.135791 13.876051 64.965523 81 65 65
1.135791 14.016095 64.965523 90 74 73
1.526326 -9.703258 77.720528 38 27 23
1.502723 -9.388259 76.518669 37 25 21
1.457642 -8.466611 74.223106 38 28 25
1.436100 -8.183853 73.126213 37 26 23
1.457642 -7.986611 74.223106 37 24 21
1.432572 -7.692001 72.946541 38 24 21
1.502723 -7.738775 76.518669 39 25 22
1.498860 -7.554356 76.321960 39 25 23
1.522341 -7.004294 77.517601 38 25 23
1.518377 -6.819387 77.315735 39 25 23
1.518377 -6.652720 77.315735 39 25 22
1.526326 -6.520012 77.720528 39 25 22
1.534360 -6.385907 78.129585 40 24 21
1.514433 -6.136739 77.114914 41 24 22
1.526326 -6.017394 77.720528 42 25 23
1.542478 -5.911758 78.542969 43 25 23
1.530332 -5.697230 77.924522 44 27 24
1.538408 -5.389564 78.335732 46 29 26
1.619602 -4.785124 82.470116 52 29 30
1.606217 -4.569269 81.788544 53 29 31
1.593051 -4.356952 81.118149 53 30 31
1.580099 -4.148088 80.458649 53 30 32
1.575829 -3.963904 80.241196 53 31 32
1.584393 -3.811534 80.677292 54 31 32
1.597415 -3.667519 81.340393 54 31 32
1.575829 -3.444985 80.241196 54 32 33
1.567357 -3.254421 79.809792 55 33 34
1.550683 -3.049587 78.960747 55 35 35
1.554818 -2.887052 79.171310 55 36 36
1.567357 -2.738292 79.809792 55 38 38
1.571581 -2.573166 80.024910 55 40 41
1.584393 -2.420230 80.677292 55 42 44
1.593051 -2.258592 81.118149 55 43 46
1.584393 -2.072404 80.677292 55 44 49
1.588710 -1.903664 80.897118 54 44 50
1.593051 -1.734001 81.118149 51 42 47
1.593051 -1.559138 81.118149 45 37 42
1.593051 -1.384275 81.118149 40 32 35
1.597415 -1.212725 81.340393 36 28 30
1.601804 -1.040232 81.563850 34 26 27
1.597415 -0.862040 81.340393 32 25 25
1.601804 -0.688584 81.563850 30 24 23
1.593051 -0.509958 81.118149 29 22 21
1.584393 -0.333273 80.677292 28 22 21
1.502723 1.003493 76.518669 22 18 17
1.495017 1.162450 76.126259 21 17 17
1.468657 1.303162 74.783989 20 18 17
0.965326 3.187675 49.154373 23 17 17
1.289948 5.533972 65.684166 22 18 18
1.313191 5.777828 66.867661 22 18 18
1.298567 5.856026 66.123032 22 18 18
1.292809 5.971963 65.829803 23 18 18
1.313191 6.210260 66.867661 25 19 19
1.310240 6.340125 66.717400 26 20 19
1.301466 6.440526 66.270630 27 20 20
1.301466 6.583383 66.270630 29 21 22
1.322124 6.833005 67.322548 30 21 23
1.316155 6.946626 67.018608 31 22 24
1.319133 7.107139 67.170235 31 23 25
1.316155 7.235565 67.018608 31 24 25
1.310240 7.346866 66.717400 32 25 26
1.325129 7.575808 67.475548 32 25 26
1.328147 8.467780 67.629250 32 24 25
1.307302 8.765371 66.567810 38 26 26
1.292809 8.810101 65.829803 41 27 28
1.287101 8.912484 65.539169 44 28 29
1.281443 9.013968 65.251083 47 30 30
1.287101 9.195045 65.539169 51 33 34
1.287101 9.336326 65.539169 55 38 38
1.281443 9.435946 65.251083 57 40 40
1.284266 9.597699 65.394806 57 41 41
1.281443 9.717265 65.251083 57 41 42
1.284266 9.879638 65.394806 56 41 41
1.284266 10.020607 65.394806 54 40 41
1.284266 10.161576 65.394806 52 38 38
1.284266 10.302546 65.394806 50 36 35
1.284266 10.443514 65.394806 49 35 34
1.284266 10.584483 65.394806 49 34 33
1.284266 10.725452 65.394806 51 38 35
1.281443 10.842540 65.251083 57 44 42
1.284266 11.007391 65.394806 61 49 47
1.284266 11.148360 65.394806 58 46 44
1.281443 11.264518 65.251083 52 40 38
1.278633 11.380165 65.107986 49 38 37
1.278633 11.520516 65.107986 48 38 38
1.278633 11.660868 65.107986 47 37 38
1.284266 11.853206 65.394806 47 36 38
1.284266 11.994175 65.394806 47 36 37
1.281443 12.108474 65.251083 47 36 37
1.278633 12.222271 65.107986 50 38 39
1.278633 12.362621 65.107986 56 44 44
1.275835 12.475614 64.965523 62 50 49
1.273049 12.588113 64.823669 62 49 48
1.264765 12.645022 64.401825 55 42 41
1.267514 12.811643 64.541832 49 37 35
1.270276 12.978988 64.682442 54 42 40
1.270276 13.118422 64.682442 67 55 53
1.270276 13.257855 64.682442 79 67 66
1.267514 13.368164 64.541832 84 71 70
1.264765 13.477995 64.401825 82 70 69
1.275835 13.736008 64.965523 82 70 68
1.275835 13.876051 64.965523 85 73 70
1.275835 14.016095 64.965523 93 80 76
1.275835 14.156138 64.965523 110 95 93
1.689443 -9.845025 77.517601 42 31 26
1.698311 -9.728725 77.924522 40 28 23
1.671981 -9.412519 76.716385 38 27 21
1.633981 -8.713749 74.972832 39 28 23
1.617642 -8.466611 74.223106 39 28 24
1.593736 -8.183853 73.126213 37 27 22
1.625770 -8.026745 74.596085 38 24 21
1.601625 -7.749120 73.488220 39 24 21
1.667672 -7.903723 76.518669 39 25 22
1.667672 -7.738775 76.518669 40 26 23
1.667672 -7.573826 76.518669 41 26 24
1.680667 -7.466609 77.114914 40 26 24
1.680667 -7.300375 77.114914 38 25 24
1.685043 -7.152720 77.315735 37 24 24
1.685043 -6.986053 77.315735 38 24 23
1.685043 -6.819387 77.315735 39 25 22
1.685043 -6.652720 77.315735 39 25 22
1.689443 -6.502988 77.517601 39 25 21
1.702781 -6.385907 78.129585 40 24 21
1.680667 -6.136739 77.114914 41 24 22
1.685043 -5.986053 77.315735 42 25 23
1.707273 -5.896160 78.335732 43 25 23
1.698311 -5.697230 77.924522 43 26 24
1.716331 -5.587916 78.751305 44 27 24
1.707273 -5.389564 78.335732 46 28 25
1.689443 -5.166174 77.517601 47 28 26
1.767914 -4.531816 81.118149 52 29 30
1.748802 -4.309850 80.241196 53 29 30
1.739400 -4.114636 79.809792 53 29 31
1.739400 -3.942593 79.809792 53 30 31
1.744088 -3.780713 80.024910 54 31 32
1.763097 -3.647533 80.897118 54 31 32
1.744088 -3.435699 80.024910 54 32 33
1.734736 -3.245696 79.595825 55 34 34
1.720895 -3.049587 78.960747 55 35 35
1.720895 -2.879374 78.960747 54 37 37
1.730098 -2.723649 79.383003 54 38 39
1.739400 -2.566249 79.809792 53 41 42
1.763097 -2.426824 80.897118 53 43 46
1.767914 -2.258592 81.118149 54 44 50
1.758306 -2.072404 80.677292 54 45 53
1.767914 -1.908865 81.118149 54 46 55
1.767914 -1.734001 81.118149 54 46 56
1.772758 -1.563410 81.340393 48 40 49
1.772758 -1.388067 81.340393 38 31 38
1.777628 -1.216056 81.563850 34 27 31
1.782525 -1.043098 81.788544 33 25 27
1.782525 -0.866789 81.788544 31 24 25
1.782525 -0.690481 81.788544 30 23 23
1.777628 -0.512760 81.563850 28 22 21
1.767914 -0.335094 81.118149 28 22 21
1.463929 5.948768 67.170235 22 18 18
1.467249 6.252507 67.322548 25 19 19
1.460624 6.368748 67.018608 27 20 20
1.454060 6.483945 66.717400 28 21 21
1.454060 6.627765 66.717400 30 22 23
1.463929 6.962343 67.170235 31 23 25
1.467249 7.123255 67.322548 32 23 25
1.463929 7.251935 67.170235 32 24 25
1.457335 7.363413 66.867661 32 24 25
1.463929 7.541528 67.170235 32 24 26
1.457335 7.651701 66.867661 32 24 26
1.450800 7.760887 66.567810 32 25 26
1.457335 8.516566 66.867661 35 25 25
1.447554 8.602585 66.418884 37 27 26
1.434715 8.668194 65.829803 40 28 28
1.425235 8.751884 65.394806 43 30 30
1.422102 8.873309 65.251083 47 32 32
1.418984 8.994201 65.107986 50 33 34
1.425235 9.174791 65.394806 54 36 36
1.428381 9.336326 65.539169 57 40 39
1.422102 9.435946 65.251083 59 42 41
1.422102 9.576606 65.251083 60 43 43
1.422102 9.717265 65.251083 60 44 45
1.425235 9.879638 65.394806 59 44 44
1.425235 10.020607 65.394806 56 41 42
1.425235 10.161576 65.394806 53 38 39
1.425235 10.302546 65.394806 51 37 37
1.425235 10.443514 65.394806 50 36 36
1.425235 10.584483 65.394806 50 37 35
1.422102 10.701880 65.251083 52 39 37
1.422102 10.842540 65.251083 57 44 42
1.425235 11.007391 65.394806 60 47 45
1.422102 11.123858 65.251083 55 42 40
1.418984 11.239815 65.107986 49 37 35
1.418984 11.380165 65.107986 49 37 35
1.418984 11.520516 65.107986 49 38 37
1.415879 11.635351 64.965523 48 37 36
1.418984 11.801218 65.107986 47 36 37
1.422102 11.967814 65.251083 47 36 37
1.418984 12.081920 65.107986 48 36 38
1.415879 12.195526 64.965523 50 39 40
1.415879 12.335570 64.965523 55 43 44
1.415879 12.475614 64.965523 60 49 47
1.409709 12.560687 64.682442 60 50 48
1.403594 12.645022 64.401825 55 45 43
1.409709 12.839555 64.682442 51 41 38
1.409709 12.978988 64.682442 56 47 43
1.412787 13.147064 64.823669 73 63 59
1.409709 13.257855 64.682442 89 78 74
1.406645 13.368164 64.541832 95 85 80
1.403594 13.477995 64.401825 93 84 78
1.415879 13.736008 64.965523 92 82 77
1.415879 13.876051 64.965523 93 82 77
1.415879 14.016095 64.965523 97 85 80
1.415879 14.156138 64.965523 111 97 94
1.422102 14.359023 65.251083 130 114 113
1.842116 -9.768509 76.915138 41 31 26
1.856545 -9.677923 77.517601 39 28 24
1.827909 -9.364124 76.321960 38 27 22
1.804712 -9.082854 75.353409 38 27 21
1.795598 -8.875365 74.972832 38 27 22
1.782097 -8.648232 74.409126 38 28 23
1.768798 -8.424489 73.853836 38 27 23
1.747068 -8.163746 72.946541 37 26 22
1.791075 -8.046964 74.783989 38 24 21
1.773209 -7.807094 74.038010 40 24 22
1.832620 -7.903723 76.518669 41 25 24
1.832620 -7.738775 76.518669 42 26 26
1.832620 -7.573826 76.518669 42 26 28
1.842116 -7.447266 76.915138 41 26 28
1.842116 -7.281463 76.915138 40 26 27
1.846900 -7.134141 77.114914 39 25 26
1.846900 -6.967908 77.114914 39 24 24
1.851710 -6.819387 77.315735 39 25 23
1.846900 -6.635440 77.114914 40 25 22
1.851710 -6.486053 77.315735 40 25 22
1.866290 -6.369146 77.924522 40 25 22
1.842116 -6.120841 76.915138 41 25 22
1.842116 -5.955038 76.915138 42 25 23
1.871202 -5.880643 78.129585 42 25 23
1.866290 -5.697230 77.924522 42 25 23
1.881102 -5.573133 78.542969 43 25 23
1.876139 -5.389564 78.335732 45 26 24
1.861405 -5.179698 77.720528 46 27 25
1.876139 -4.882967 78.335732 49 28 29
1.916595 -4.470740 80.024910 52 29 31
1.911443 -4.286679 79.809792 53 29 31
1.896151 -4.081719 79.171310 53 29 31
1.901221 -3.921510 79.383003 53 29 31
1.911443 -3.770550 79.809792 54 30 32
1.926983 -3.627763 80.458649 54 32 32
1.911443 -3.426464 79.809792 54 33 33
1.906318 -3.245696 79.595825 55 34 34
1.886092 -3.041497 78.751305 55 35 35
1.886092 -2.871736 78.751305 55 37 37
1.896151 -2.716385 79.171310 54 39 39
1.911443 -2.566249 79.809792 53 41 43
1.942778 -2.433455 81.118149 52 44 48
1.942778 -2.258592 81.118149 52 47 53
1.937484 -2.078050 80.897118 52 46 56
1.942778 -1.908865 81.118149 55 49 61
1.948100 -1.738752 81.340393 64 57 69
1.953452 -1.567705 81.563850 57 50 61
1.948100 -1.388067 81.340393 39 32 41
1.953452 -1.216056 81.563850 32 25 31
1.958834 -1.043098 81.788544 32 24 28
1.964245 -0.869184 82.014481 31 24 25
1.969686 -0.694306 82.241669 30 23 23
1.964245 -0.515593 82.014481 28 22 22
1.958834 -0.337864 81.788544 27 22 21
1.809304 1.153576 75.545143 21 17 17
1.777642 1.293389 74.223106 21 17 17
1.623417 5.856976 67.783661 22 18 18
1.612373 5.962257 67.322548 23 18 18
1.608725 6.383157 67.170235 27 21 21
1.597880 6.483945 66.717400 29 21 22
1.597880 6.627765 66.717400 30 22 23
1.608725 6.962343 67.170235 32 24 25
1.605094 7.235565 67.018608 32 24 26
1.594297 7.330393 66.567810 32 24 26
1.594297 7.617389 66.567810 33 24 26
1.587180 7.726240 66.270630 33 24 25
1.587180 8.440526 66.270630 36 26 26
1.569661 8.488644 65.539169 39 28 28
1.562762 8.591990 65.251083 42 30 30
1.559335 8.713499 65.107986 46 33 33
1.555923 8.834476 64.965523 48 34 35
1.552525 8.954925 64.823669 51 35 35
1.562762 9.154628 65.251083 54 38 37
1.566204 9.315761 65.394806 57 41 40
1.559335 9.415254 65.107986 59 43 42
1.562762 9.576606 65.251083 60 45 45
1.562762 9.717265 65.251083 61 46 47
1.566204 9.879638 65.394806 60 45 47
1.566204 10.020607 65.394806 57 42 43
1.562762 10.139243 65.251083 52 37 38
1.566204 10.302546 65.394806 50 35 36
1.566204 10.443514 65.394806 50 36 36
1.562762 10.561221 65.251083 51 38 37
1.562762 10.701880 65.251083 53 40 39
1.562762 10.842540 65.251083 56 43 41
1.562762 10.983199 65.251083 57 44 42
1.562762 11.123858 65.251083 54 40 38
1.559335 11.239815 65.107986 50 36 34
1.555923 11.355264 64.965523 49 37 34
1.555923 11.495307 64.965523 49 37 35
1.552525 11.609946 64.823669 49 37 35
1.555923 11.775394 64.965523 48 36 36
1.555923 11.915439 64.965523 48 36 37
1.555923 12.055483 64.965523 49 37 38
1.552525 12.168899 64.823669 51 40 41
1.555923 12.335570 64.965523 55 44 44
1.552525 12.448375 64.823669 58 48 47
1.549143 12.560687 64.682442 59 50 49
1.542422 12.645022 64.401825 57 49 46
1.545775 12.811643 64.541832 55 48 44
1.549143 12.978988 64.682442 62 55 50
1.552525 13.147064 64.823669 79 73 67
1.549143 13.257855 64.682442 97 90 82
1.545775 13.368164 64.541832 105 97 90
1.542422 13.477995 64.401825 104 96 88
1.552525 13.706017 64.823669 103 94 86
1.552525 13.845755 64.823669 101 91 84
1.552525 13.985493 64.823669 101 89 84
1.555923 14.156138 64.965523 109 96 92
1.562762 14.359023 65.251083 124 110 108
1.559335 14.467885 65.107986 130 114 115
2.002730 -9.908642 76.716385 41 31 27
1.997569 -9.718156 76.518669 39 29 25
2.002730 -9.577893 76.716385 39 27 23
1.982242 -9.316226 75.931564 38 27 22
1.962169 -9.059859 75.162636 38 27 21
1.942498 -8.808633 74.409126 38 27 22
1.918457 -8.541200 73.488220 37 27 22
1.918457 -8.382784 73.488220 37 26 22
1.904316 -8.163746 72.946541 37 25 21
1.957214 -8.067285 74.972832 38 24 22
1.952284 -7.885755 74.783989 39 24 23
1.997569 -7.903723 76.518669 40 24 25
2.002730 -7.758771 76.716385 42 26 29
1.997569 -7.573826 76.518669 43 26 32
2.007919 -7.447266 76.915138 43 26 34
2.007919 -7.281463 76.915138 42 26 33
2.007919 -7.115659 76.915138 41 26 31
2.007919 -6.949856 76.915138 41 25 29
2.013134 -6.801674 77.114914 41 25 26
2.007919 -6.618250 76.915138 41 25 24
2.013134 -6.469207 77.114914 41 25 23
2.028944 -6.352473 77.720528 41 25 23
1.997569 -6.089290 76.518669 41 25 23
2.002730 -5.939650 76.716385 41 24 23
2.028944 -5.849855 77.720528 41 24 23
2.028944 -5.682315 77.720528 42 24 23
2.045004 -5.558429 78.335732 43 25 23
2.039623 -5.375381 78.129585 44 25 23
2.028944 -5.179698 77.720528 45 25 24
2.039623 -5.038538 78.129585 47 26 26
2.023647 -4.831970 77.517601 49 27 28
2.077900 -4.618350 79.595825 52 28 30
2.066818 -4.423052 79.171310 53 28 31
2.077900 -4.275187 79.595825 53 29 31
2.061321 -4.070863 78.960747 53 29 31
2.061321 -3.900650 78.960747 54 30 31
2.083486 -3.770550 79.809792 54 31 32
2.083486 -3.598507 79.809792 54 32 33
2.066818 -3.399052 79.171310 54 33 34
2.141040 -3.344322 82.014481 55 34 35
2.055853 -3.041497 78.751305 55 35 36
2.050414 -2.864139 78.542969 55 37 37
2.066818 -2.716385 79.171310 54 40 39
2.083486 -2.566249 79.809792 53 42 43
2.117641 -2.433455 81.118149 52 45 49
2.117641 -2.258592 81.118149 52 48 54
2.111871 -2.078050 80.897118 50 46 56
2.117641 -1.908865 81.118149 57 53 66
2.129277 -1.743529 81.563850 73 68 81
2.129277 -1.567705 81.563850 66 59 72
2.129277 -1.391881 81.563850 41 33 44
2.135142 -1.219406 81.788544 31 24 30
2.141040 -1.045979 82.014481 31 24 29
2.146971 -0.871592 82.241669 30 24 26
2.171027 -0.702085 83.163147 30 23 24
2.158932 -0.519901 82.699837 29 23 23
1.942498 1.296630 74.409126 21 18 18
1.769536 5.856976 67.783661 22 18 18
1.753522 5.948768 67.170235 23 19 19
1.757498 6.107382 67.322548 25 20 20
1.757498 6.252507 67.322548 27 21 20
1.749564 6.368748 67.018608 28 22 22
1.733907 6.454934 66.418884 30 23 23
1.726184 6.568720 66.123032 31 24 23
1.745623 6.786837 66.867661 32 25 24
1.718529 8.384380 65.829803 37 26 26
1.710942 8.488644 65.539169 39 28 28
1.703421 8.591990 65.251083 43 31 31
1.699686 8.713499 65.107986 47 34 35
1.695966 8.834476 64.965523 49 36 36
1.692263 8.954925 64.823669 51 37 37
1.699686 9.134551 65.107986 54 39 38
1.703421 9.295287 65.251083 57 42 40
1.699686 9.415254 65.107986 58 43 41
1.703421 9.576606 65.251083 58 44 44
1.703421 9.717265 65.251083 60 45 46
1.707173 9.879638 65.394806 59 45 45
1.707173 10.020607 65.394806 55 41 41
1.703421 10.139243 65.251083 51 36 37
1.703421 10.279902 65.251083 50 35 36
1.707173 10.443514 65.394806 50 36 36
1.703421 10.561221 65.251083 52 38 38
1.703421 10.701880 65.251083 55 41 40
1.699686 10.818762 65.107986 59 44 43
1.703421 10.983199 65.251083 59 44 44
1.703421 11.123858 65.251083 56 41 40
1.695966 11.215219 64.965523 53 38 37
1.695966 11.355264 64.965523 51 37 35
1.695966 11.495307 64.965523 51 37 35
1.692263 11.609946 64.823669 51 37 35
1.692263 11.749684 64.823669 50 36 36
1.688577 11.863520 64.682442 50 36 37
1.692263 12.029160 64.823669 51 38 39
1.688577 12.142386 64.682442 53 41 43
1.688577 12.281820 64.682442 56 45 47
1.688577 12.421254 64.682442 59 48 50
1.684906 12.533381 64.541832 61 52 52
1.677612 12.617653 64.262428 61 54 53
1.681251 12.783852 64.401825 62 57 54
1.684906 12.950772 64.541832 69 65 61
1.688577 13.118422 64.682442 85 82 77
1.684906 13.229033 64.541832 103 98 92
1.684906 13.368164 64.541832 113 106 100
1.681251 13.477995 64.401825 115 107 99
1.692263 13.706017 64.823669 112 103 95
1.692263 13.845755 64.823669 108 98 90
1.688577 13.955023 64.682442 103 92 86
1.692263 14.125230 64.823669 108 95 92
1.699686 14.327534 65.107986 120 107 105
1.699686 14.467885 65.107986 123 110 110
2.156958 -10.022223 76.321960 40 30 27
2.162517 -9.883104 76.518669 39 29 26
2.156958 -9.693173 76.321960 39 28 24
2.156958 -9.528649 76.321960 38 27 23
2.145925 -9.316226 75.931564 38 26 22
2.124194 -9.059859 75.162636 38 26 22
2.097642 -8.786612 74.223106 38 26 22
2.071745 -8.520110 73.306770 37 26 22
2.071745 -8.362085 73.306770 36 25 22
2.061564 -8.163746 72.946541 37 25 22
2.129585 -8.108234 75.353409 37 23 22
2.129585 -7.945798 75.353409 37 23 24
2.168105 -7.924146 76.716385 38 24 28
2.168105 -7.758771 76.716385 40 25 32
2.162517 -7.573826 76.518669 41 26 37
2.173722 -7.447266 76.915138 43 28 41
2.173722 -7.281463 76.915138 47 32 45
2.173722 -7.115659 76.915138 49 33 45
2.173722 -6.949856 76.915138 45 29 37
2.179368 -6.801674 77.114914 42 25 30
2.173722 -6.618250 76.915138 42 25 27
2.173722 -6.452447 76.915138 43 26 25
2.196483 -6.352473 77.720528 43 26 25
2.162517 -6.089290 76.518669 43 26 25
2.162517 -5.924342 76.518669 43 25 24
2.190748 -5.834581 77.517601 42 24 24
2.179368 -5.638038 77.114914 42 24 23
2.179368 -5.471804 77.114914 43 24 24
2.185043 -5.319387 77.315735 44 24 24
2.173722 -5.126022 76.915138 45 24 25
2.168105 -4.947402 76.716385 47 25 26
2.156958 -4.757441 76.321960 49 27 28
2.243467 -4.263755 79.383003 53 28 31
2.255529 -3.942593 79.809792 54 30 31
2.292505 -3.832362 81.118149 54 31 32
2.273866 -3.627763 80.458649 54 32 33
2.231534 -3.049587 78.960747 55 35 36
2.219727 -2.864139 78.542969 55 37 37
2.237484 -2.716385 79.171310 54 40 39
2.255529 -2.566249 79.809792 53 42 43
2.292505 -2.433455 81.118149 53 45 48
2.292505 -2.258592 81.118149 52 48 53
2.286258 -2.078050 80.897118 50 47 55
2.292505 -1.908865 81.118149 57 53 64
2.298785 -1.738752 81.340393 70 65 77
2.305101 -1.567705 81.563850 63 57 68
2.305101 -1.391881 81.563850 41 34 43
2.311451 -1.219406 81.788544 32 26 31
2.311451 -1.043098 81.788544 31 25 29
2.324257 -0.871592 82.241669 30 24 26
2.363540 -0.706041 83.631668 30 23 25
2.343734 -0.521353 82.930847 28 22 23
2.102899 1.296630 74.409126 22 18 18
1.911291 5.843634 67.629250 23 19 18
1.898318 5.948768 67.170235 24 19 19
1.902623 6.107382 67.322548 26 20 20
1.894033 6.368748 67.018608 29 22 22
1.877084 6.454934 66.418884 30 23 23
1.868723 6.568720 66.123032 31 24 23
1.864570 8.403012 65.976097 38 27 27
1.860436 8.526287 65.829803 41 29 29
1.848142 8.610915 65.394806 44 32 32
1.840037 8.713499 65.107986 47 35 35
1.836010 8.834476 64.965523 50 37 37
1.836010 8.974520 64.965523 52 38 38
1.840037 9.134551 65.107986 54 41 40
1.844081 9.295287 65.251083 55 41 40
1.840037 9.415254 65.107986 55 41 40
1.844081 9.576606 65.251083 55 41 41
1.848142 9.738668 65.394806 56 42 43
1.848142 9.879638 65.394806 56 42 43
1.844081 9.998584 65.251083 53 40 40
1.844081 10.139243 65.251083 49 36 36
1.848142 10.302546 65.394806 50 34 36
1.848142 10.443514 65.394806 52 37 38
1.844081 10.561221 65.251083 55 40 40
1.844081 10.701880 65.251083 60 44 44
1.840037 10.818762 65.107986 63 47 47
1.840037 10.959113 65.107986 63 47 47
1.840037 11.099463 65.107986 59 43 42
1.836010 11.215219 64.965523 56 40 39
1.836010 11.355264 64.965523 53 39 37
1.832001 11.470208 64.823669 52 38 36
1.828010 11.584653 64.682442 52 37 36
1.824036 11.698599 64.541832 52 38 37
1.820079 11.812051 64.401825 53 39 38
1.824036 11.976860 64.541832 54 40 41
1.824036 12.115990 64.541832 57 44 45
1.824036 12.255120 64.541832 60 48 49
1.824036 12.394251 64.541832 62 52 52
1.820079 12.506194 64.401825 64 56 56
1.812217 12.590401 64.123634 65 60 60
1.812217 12.728629 64.123634 68 64 64
1.820079 12.922680 64.401825 76 73 71
1.824036 13.089903 64.541832 90 87 84
1.820079 13.200337 64.401825 107 102 98
1.824036 13.368164 64.541832 118 112 107
1.816140 13.448821 64.262428 121 113 106
1.828010 13.676156 64.682442 117 107 100
1.828010 13.815589 64.682442 112 100 95
1.828010 13.955023 64.682442 105 94 89
1.828010 14.094457 64.682442 107 95 92
1.836010 14.296183 64.965523 116 104 103
1.836010 14.436227 64.965523 117 105 106
1.836010 14.576270 64.965523 104 92 94
2.309608 -10.134641 75.931564 40 29 28
2.315530 -9.996525 76.126259 39 29 27
2.321482 -9.857698 76.321960 39 28 26
2.315530 -9.668320 76.126259 38 27 24
2.315530 -9.504217 76.126259 38 26 23
2.292022 -9.082854 75.353409 38 25 22
2.268986 -8.830765 74.596085 38 25 23
2.229769 -8.520110 73.306770 37 25 23
2.235289 -8.382784 73.488220 36 25 22
2.224277 -8.183853 73.126213 36 25 22
2.303716 -8.149604 75.737862 37 24 23
2.297854 -7.966017 75.545143 37 24 25
2.333480 -7.924146 76.716385 37 24 30
2.333480 -7.758771 76.716385 37 24 35
2.327466 -7.573826 76.518669 37 24 39
2.339525 -7.447266 76.915138 44 31 49
2.339525 -7.281463 76.915138 65 50 69
2.339525 -7.115659 76.915138 76 60 77
2.339525 -6.949856 76.915138 59 42 55
2.345602 -6.801674 77.114914 43 25 33
2.339525 -6.618250 76.915138 42 23 28
2.339525 -6.452447 76.915138 44 26 28
2.364023 -6.352473 77.720528 44 26 27
2.327466 -6.089290 76.518669 44 26 27
2.327466 -5.924342 76.518669 44 26 26
2.357850 -5.834581 77.517601 43 25 26
2.333480 -5.608901 76.716385 44 24 25
2.309608 -5.387838 75.931564 44 24 25
2.321482 -5.251014 76.321960 45 24 25
2.315530 -5.073448 76.126259 47 25 26
2.309608 -4.896789 75.931564 49 26 28
2.309608 -4.733106 75.931564 52 28 30
2.395376 -4.399588 78.751305 54 29 32
2.408151 -4.252386 79.171310 54 29 32
2.401746 -4.070863 78.960747 54 30 31
2.474128 -4.018204 81.340393 53 31 32
2.474128 -3.842862 81.340393 54 31 33
2.460645 -3.647533 80.897118 55 32 33
2.421063 -3.074114 79.595825 56 35 36
2.395376 -2.871736 78.751305 56 37 37
2.401746 -2.709161 78.960747 55 39 39
2.427572 -2.566249 79.809792 54 42 42
2.467368 -2.433455 81.118149 54 44 46
2.467368 -2.258592 81.118149 53 47 50
2.460645 -2.078050 80.897118 51 47 52
2.467368 -1.908865 81.118149 54 49 57
2.480925 -1.743529 81.563850 59 54 62
2.480925 -1.567705 81.563850 52 47 54
2.480925 -1.391881 81.563850 39 34 40
2.487759 -1.219406 81.788544 34 28 33
2.487759 -1.043098 81.788544 33 27 29
2.501542 -0.871592 82.241669 31 25 26
2.551008 -0.708035 83.867912 30 23 25
2.529570 -0.522814 83.163147 29 21 23
1.559683 2.109422 51.276756 21 20 18
2.061773 5.710857 67.783661 23 18 17
2.057077 5.843634 67.629250 23 19 18
2.038503 5.935339 67.018608 25 20 20
2.038503 6.079809 67.018608 27 21 21
2.033911 6.354404 66.867661 29 22 22
2.015751 6.440526 66.270630 29 22 22
2.015751 8.440526 66.270630 39 28 29
2.011262 8.564266 66.123032 41 29 30
1.993502 8.629924 65.539169 44 32 32
1.984740 8.732650 65.251083 47 35 35
1.980387 8.853849 65.107986 49 37 37
1.980387 8.994201 65.107986 51 39 38
1.984740 9.154628 65.251083 51 39 39
1.984740 9.295287 65.251083 51 39 38
1.980387 9.415254 65.107986 51 38 37
1.984740 9.576606 65.251083 51 37 38
1.989112 9.738668 65.394806 51 38 39
1.989112 9.879638 65.394806 51 38 40
1.984740 9.998584 65.251083 50 37 39
1.984740 10.139243 65.251083 48 34 36
1.989112 10.302546 65.394806 49 34 36
1.989112 10.443514 65.394806 52 36 39
1.984740 10.561221 65.251083 57 40 43
1.980387 10.678411 65.107986 63 46 48
1.980387 10.818762 65.107986 67 49 50
1.980387 10.959113 65.107986 65 48 49
1.980387 11.099463 65.107986 61 44 44
1.971739 11.190732 64.823669 58 41 41
1.971739 11.330470 64.823669 55 40 38
1.971739 11.470208 64.823669 54 39 37
1.967444 11.584653 64.682442 53 38 36
1.958908 11.673223 64.401825 54 39 37
1.950446 11.761027 64.123634 55 40 39
1.958908 11.950879 64.401825 58 43 42
1.958908 12.089708 64.401825 62 48 48
1.958908 12.228537 64.401825 66 53 53
1.958908 12.367366 64.401825 68 57 57
1.954668 12.479124 64.262428 68 60 60
1.942057 12.536248 63.847832 70 65 66
1.946243 12.701197 63.985435 75 71 72
1.954668 12.894709 64.262428 82 79 79
1.958908 13.061508 64.401825 93 90 89
1.954668 13.171765 64.262428 108 104 103
1.958908 13.339166 64.401825 118 112 109
1.950446 13.419774 64.123634 116 109 105
1.963167 13.646425 64.541832 113 103 99
1.963167 13.785556 64.541832 107 96 93
1.963167 13.924685 64.541832 101 89 88
1.958908 14.033309 64.401825 103 90 90
1.967444 14.233890 64.682442 109 96 97
1.971739 14.404706 64.823669 108 96 98
1.967444 14.512757 64.682442 98 86 89
1.967444 14.652190 64.682442 85 71 74
2.466981 -10.272053 75.737862 40 29 30
2.466981 -10.108788 75.737862 39 28 28
2.473291 -9.970958 75.931564 38 28 26
2.486007 -9.857698 76.321960 38 28 25
2.479632 -9.668320 76.126259 38 27 24
2.442062 -8.875365 74.972832 38 24 23
2.399644 -8.562393 73.670578 37 25 23
2.405613 -8.424489 73.853836 37 25 23
2.381913 -8.183853 73.126213 37 25 23
2.473291 -8.170446 75.931564 36 26 24
2.466981 -7.986338 75.737862 36 26 27
2.498854 -7.924146 76.716385 35 25 31
2.505328 -7.778872 76.915138 34 24 35
2.498854 -7.593397 76.716385 32 23 40
2.505328 -7.447266 76.915138 47 36 58
2.505328 -7.281463 76.915138 91 78 101
2.505328 -7.115659 76.915138 116 100 121
2.505328 -6.949856 76.915138 83 65 81
2.511835 -6.801674 77.114914 46 27 38
2.505328 -6.618250 76.915138 41 21 28
2.511835 -6.469207 77.114914 45 25 29
2.538206 -6.369146 77.924522 45 27 29
2.492414 -6.089290 76.518669 45 27 28
2.486007 -5.909112 76.321960 45 27 28
2.524952 -5.834581 77.517601 45 27 27
2.492414 -5.594445 76.518669 45 26 26
2.473291 -5.224155 75.931564 47 25 26
2.473291 -5.060472 75.931564 49 26 28
2.466981 -4.884297 75.737862 51 27 29
2.473291 -4.733106 75.931564 55 30 32
2.565137 -4.399588 78.751305 57 31 34
2.565137 -4.229826 78.751305 55 31 33
2.606622 -3.953220 80.024910 54 31 33
2.620750 -3.801205 80.458649 54 32 33
2.613667 -3.617958 80.241196 55 32 33
2.585713 -3.408140 79.383003 56 32 34
2.578818 -3.057719 79.171310 57 34 36
2.558351 -2.864139 78.542969 57 36 37
2.565137 -2.701975 78.751305 57 38 39
2.592645 -2.559369 79.595825 56 41 41
2.642231 -2.433455 81.118149 54 43 43
2.642231 -2.258592 81.118149 53 45 46
2.635032 -2.078050 80.897118 52 45 48
2.642231 -1.908865 81.118149 53 46 50
2.649470 -1.738752 81.340393 53 47 51
2.656749 -1.567705 81.563850 47 41 45
2.656749 -1.391881 81.563850 39 34 37
2.664068 -1.219406 81.788544 35 30 32
2.664068 -1.043098 81.788544 34 28 29
2.678827 -0.871592 82.241669 32 25 27
2.739537 -0.710041 84.105499 31 24 25
2.716451 -0.524282 83.396751 29 22 24
1.653088 2.087787 50.750843 21 19 18
1.636306 2.174882 50.235603 20 18 17
2.387794 4.753964 73.306770 26 21 18
2.218020 5.737054 68.094589 23 18 18
2.202863 5.843634 67.629250 24 19 19
2.182972 5.935339 67.018608 25 21 20
2.182972 6.079809 67.018608 27 21 22
2.153801 6.426181 66.123032 28 22 22
2.197856 8.303081 67.475548 40 29 30
2.187911 8.410307 67.170235 40 29 30
2.163438 8.459408 66.418884 40 29 30
2.163438 8.602585 66.418884 41 29 30
2.139506 8.649016 65.684166 44 31 32
2.134783 8.771204 65.539169 46 34 35
2.125399 8.873309 65.251083 48 37 37
2.125399 9.013968 65.251083 49 38 38
2.130081 9.174791 65.394806 50 38 38
2.130081 9.315761 65.394806 49 37 36
2.125399 9.435946 65.251083 48 36 35
2.125399 9.576606 65.251083 47 35 34
2.130081 9.738668 65.394806 48 34 35
2.130081 9.879638 65.394806 49 35 37
2.125399 9.998584 65.251083 50 35 38
2.125399 10.139243 65.251083 50 34 38
2.130081 10.302546 65.394806 51 34 38
2.130081 10.443514 65.394806 54 36 41
2.125399 10.561221 65.251083 61 41 46
2.120738 10.678411 65.107986 68 49 52
2.120738 10.818762 65.107986 72 54 56
2.120738 10.959113 65.107986 69 51 53
2.120738 11.099463 65.107986 65 47 48
2.111477 11.190732 64.823669 60 43 44
2.111477 11.330470 64.823669 57 41 41
2.111477 11.470208 64.823669 55 40 39
2.106877 11.584653 64.682442 54 40 38
2.093196 11.647956 64.262428 55 40 38
2.079692 11.710442 63.847832 57 43 40
2.093196 11.925012 64.262428 62 48 46
2.097737 12.089708 64.401825 69 55 53
2.093196 12.202068 64.262428 74 61 60
2.093196 12.340596 64.262428 75 64 63
2.093196 12.479124 64.262428 73 64 64
2.079692 12.536248 63.847832 75 67 69
2.079692 12.673882 63.847832 82 76 78
2.088675 12.866858 64.123634 89 84 86
2.097737 13.061508 64.401825 96 92 93
2.093196 13.171765 64.262428 107 102 102
2.097737 13.339166 64.401825 113 106 106
2.079692 13.362055 63.847832 111 103 101
2.097737 13.616823 64.401825 107 98 96
2.097737 13.755651 64.401825 100 90 89
2.093196 13.864406 64.262428 95 84 84
2.093196 14.002934 64.262428 98 85 87
2.102297 14.202947 64.541832 103 90 92
2.106877 14.373323 64.682442 102 89 92
2.097737 14.449795 64.401825 95 81 85
2.097737 14.588624 64.401825 87 73 76
2.102297 14.759468 64.541832 80 65 67
2.623554 -10.245914 75.545143 40 30 30
2.623554 -10.083065 75.545143 38 27 27
2.623554 -9.920215 75.545143 38 27 26
2.636974 -9.807275 75.931564 38 27 25
2.539548 -8.183853 73.126213 38 26 23
2.657362 -8.233620 76.518669 37 27 25
2.636974 -8.006763 75.931564 36 27 27
2.664229 -7.924146 76.716385 33 27 31
2.671131 -7.778872 76.915138 32 26 35
2.664229 -7.593397 76.716385 31 25 39
2.671131 -7.447266 76.915138 48 40 58
2.671131 -7.281463 76.915138 96 85 105
