ply
format ascii 1.0
element vertex 1242
property float x
property float y
property float z
property uchar red
property uchar green
property uchar blue
end_header
2.748442 -10.774482 66.717400 89 46 52
2.748442 -10.630662 66.717400 89 46 52
2.760850 -10.534186 67.018608 90 46 52
2.767097 -10.413223 67.170235 91 46 53
2.760850 -10.245247 67.018608 91 46 53
1.378869 -3.601629 33.471523 105 50 61
1.372679 -3.513630 33.321259 108 52 63
2.699904 -6.063233 65.539169 107 51 60
2.688037 -5.895922 65.251083 105 50 59
2.676273 -5.730075 64.965523 105 49 59
2.850948 -5.208961 69.205696 110 49 59
2.831150 -5.024640 68.725098 112 51 59
2.818103 -4.854020 68.408394 114 53 61
2.811625 -4.695735 68.251129 115 54 62
2.818103 -4.559089 68.408394 117 56 64
2.844318 -4.303824 69.044746 120 59 67
2.786006 -1.737231 67.629250 115 60 65
2.773371 -1.439103 67.322548 115 61 67
2.786006 -1.299874 67.629250 116 61 67
2.779674 -1.151465 67.475548 116 60 67
2.779674 -1.006010 67.475548 116 61 67
2.786006 -0.570944 67.629250 119 63 69
2.786006 -0.425158 67.629250 122 66 72
2.760850 -0.276850 67.018608 120 64 70
2.798757 1.330333 67.938766 115 58 67
2.786006 1.470058 67.629250 115 58 68
2.792367 1.619533 67.783661 112 57 67
2.786006 1.761630 67.629250 110 56 65
2.767097 1.894469 67.170235 108 54 63
2.779674 2.048535 67.475548 107 53 62
2.760850 2.179132 67.018608 106 53 61
2.760850 2.323601 67.018608 107 53 61
2.736145 2.445985 66.418884 109 54 62
2.918990 3.831397 70.857384 99 52 56
2.891387 3.946467 70.187332 98 53 56
2.898238 4.410795 70.353653 98 52 56
2.891387 4.551668 70.187332 98 50 54
2.898238 4.714112 70.353653 99 48 53
2.877780 5.283189 69.857040 103 46 57
2.877780 5.433778 69.857040 103 47 58
2.877780 5.584366 69.857040 104 48 60
2.850948 5.681481 69.205696 104 49 60
2.831150 5.790174 68.725098 104 50 59
2.811625 5.897369 68.251129 102 50 57
2.811625 6.044495 68.251129 101 51 56
2.837718 6.694560 68.884552 94 49 55
2.850948 8.068428 69.205696 91 48 53
2.857609 8.236812 69.367386 91 49 53
2.857609 8.386345 69.367386 90 49 52
2.850948 8.515980 69.205696 89 49 51
2.837718 8.624954 68.884552 87 48 50
2.844318 8.793850 69.044746 87 47 49
2.831150 8.901286 68.725098 86 47 48
2.877780 10.854954 69.857040 80 42 47
2.877780 11.005543 69.857040 79 41 47
2.877780 14.318483 69.857040 68 38 42
2.844318 14.300827 69.044746 68 38 43
2.940040 15.089797 71.368370 67 38 43
2.918990 15.439989 70.857384 67 38 43
2.912040 15.555608 70.688675 68 40 44
2.905123 15.670678 70.520767 70 41 46
2.898238 15.785203 70.353653 70 42 47
2.905123 16.126736 70.520767 69 42 47
2.891387 16.201786 70.187332 68 41 46
2.938485 -15.330238 67.783661 78 43 47
2.918496 -14.500328 67.322548 84 45 50
2.872894 -14.130903 66.270630 86 45 51
1.817877 -8.489611 41.933956 93 47 54
1.815313 -8.387369 41.874813 93 48 55
2.918496 -11.452708 67.322548 85 43 51
2.898776 -11.231181 66.867661 87 44 52
2.879321 -11.012628 66.418884 88 45 52
2.885777 -10.893822 66.567810 89 46 53
2.905320 -10.823125 67.018608 89 45 52
2.905320 -10.678656 67.018608 89 45 51
2.911893 -10.558020 67.170235 89 45 51
2.925129 -10.460556 67.475548 89 45 51
2.918496 -10.291711 67.322548 90 45 51
2.925129 -10.169646 67.475548 91 45 53
2.931792 -10.047027 67.629250 93 46 54
1.444508 -3.513630 33.321259 109 53 66
2.822493 -6.163694 65.107986 109 52 61
2.828696 -6.036582 65.251083 107 50 59
2.822493 -5.882992 65.107986 106 49 58
2.810167 -5.717565 64.823669 104 48 57
2.958751 -5.137114 68.251129 113 51 61
2.958751 -4.989987 68.251129 114 52 61
2.951965 -4.831754 68.094589 115 54 62
2.945210 -4.674244 67.938766 116 54 62
2.958751 -4.548608 68.251129 117 56 63
2.965568 -4.411623 68.408394 119 58 65
2.993155 -4.303824 69.044746 119 58 65
2.931792 -1.737231 67.629250 115 60 64
2.925129 -1.587829 67.475548 116 60 65
2.918496 -1.439103 67.322548 116 61 66
2.938485 -1.302841 67.783661 116 62 66
2.931792 -1.154088 67.629250 117 62 67
2.925129 -1.006010 67.475548 118 63 68
2.911893 -0.856662 67.170235 117 60 66
2.918496 -0.713480 67.322548 115 58 64
2.925129 -0.569647 67.475548 120 63 69
2.925129 -0.424192 67.475548 124 67 74
2.898776 -0.276226 66.867661 122 65 71
2.945210 1.183880 67.938766 116 58 66
2.945210 1.330333 67.938766 115 58 66
2.931792 1.470058 67.629250 114 57 66
2.945210 1.623239 67.938766 112 56 65
2.931792 1.761630 67.629250 110 55 64
2.918496 1.898765 67.322548 108 53 63
2.925129 2.048535 67.475548 106 52 62
2.905320 2.179132 67.018608 106 51 62
2.898776 2.318368 66.867661 107 52 62
2.879321 2.445985 66.418884 109 53 62
3.042687 4.702968 70.187332 101 49 54
3.035511 4.842820 70.021797 102 48 55
3.021260 5.270788 69.693054 103 47 58
3.007142 5.395690 69.367386 103 47 60
3.007142 5.545223 69.367386 104 49 61
2.986210 5.655117 68.884552 104 50 62
2.958751 5.750242 68.251129 103 50 61
2.951965 5.883843 68.094589 102 51 59
2.951965 6.030632 68.094589 100 52 57
2.972417 6.220221 68.566376 99 52 55
2.972417 6.368026 68.566376 97 51 55
3.007142 8.386345 69.367386 92 51 55
3.000132 8.515980 69.205696 90 50 53
2.986210 8.624954 68.884552 89 49 51
2.993155 8.793850 69.044746 88 48 50
2.979298 8.901286 68.725098 87 47 50
3.042687 10.906278 70.187332 80 41 47
3.035511 11.031499 70.021797 80 41 47
3.042687 13.175781 70.187332 75 42 46
3.014184 13.352120 69.529839 73 43 46
3.014184 14.401300 69.529839 68 39 43
3.057142 14.910583 70.520767 68 39 43
3.049897 15.481885 70.353653 68 40 44
3.042687 15.596585 70.187332 68 41 45
3.631873 -18.738293 79.809792 77 43 48
3.070583 -14.533283 67.475548 83 44 50
3.029275 -14.194270 66.567810 84 45 51
1.919115 -8.446939 42.172218 93 48 55
1.908272 -8.308820 41.933956 93 49 55
1.897551 -8.172254 41.698376 93 50 55
3.063621 -11.452708 67.322548 85 42 50
3.042920 -11.231181 66.867661 87 43 50
3.022498 -11.012628 66.418884 88 44 51
3.022498 -10.869451 66.418884 89 44 52
3.042920 -10.798749 66.867661 90 45 51
3.042920 -10.654605 66.867661 90 44 50
3.056689 -10.558020 67.170235 90 44 50
3.070583 -10.460556 67.475548 89 44 50
3.070583 -10.315102 67.475548 90 44 51
3.070583 -10.169646 67.475548 90 44 52
3.070583 -10.024192 67.475548 92 45 53
3.063621 -9.856337 67.322548 93 46 54
3.036082 -8.041898 66.717400 105 50 57
3.056689 -7.662092 67.170235 105 52 59
3.042920 -7.483434 66.867661 105 53 61
2.956360 -6.290251 64.965523 111 53 64
2.969355 -6.177241 65.251083 110 52 62
2.969355 -6.036582 65.251083 108 51 60
2.962843 -5.882992 65.107986 107 49 58
2.949905 -5.717565 64.823669 106 48 57
3.084604 -5.101928 67.783661 115 53 64
3.091663 -4.967150 67.938766 116 54 63
3.091663 -4.820697 67.938766 117 55 63
3.084604 -4.663572 67.783661 117 55 63
3.091663 -4.527791 67.938766 117 55 62
3.105877 -4.401482 68.251129 117 55 62
3.134702 -4.293839 68.884552 117 56 63
3.113034 -4.116693 68.408394 118 56 63
1.578337 -1.638603 34.683693 123 64 73
1.569171 -1.554756 34.482281 124 64 73
1.567351 -1.478706 34.442276 124 64 73
3.084604 -1.741198 67.783661 116 59 64
3.077578 -1.591445 67.629250 117 60 64
3.077578 -1.445660 67.629250 117 61 65
3.098754 -1.308818 68.094589 117 62 65
3.084604 -1.156723 67.783661 117 62 66
3.077578 -1.008302 67.629250 120 63 68
3.063621 -0.858604 67.322548 119 62 67
3.063621 -0.713480 67.322548 117 59 64
3.063621 -0.568355 67.322548 121 63 68
3.063621 -0.423230 67.322548 123 65 72
3.036082 -0.275606 66.717400 122 65 71
3.036082 0.012035 66.717400 121 64 69
3.098754 1.333384 68.094589 115 58 65
3.091663 1.476786 67.938766 114 57 65
3.098754 1.626962 68.094589 113 56 64
3.084604 1.765652 67.783661 111 54 63
3.070583 1.903081 67.475548 108 54 63
3.077578 2.053201 67.629250 107 53 63
3.063621 2.189015 67.322548 107 52 63
3.056689 2.328859 67.170235 108 52 63
3.042920 2.462512 66.867661 109 53 63
3.164067 4.958678 69.529839 104 48 57
3.164067 5.108561 69.529839 104 48 58
3.156674 5.246158 69.367386 104 48 59
3.141992 5.370594 69.044746 103 49 61
3.141992 5.519431 69.044746 103 49 62
3.113034 5.616026 68.408394 103 50 62
3.091663 5.723926 67.938766 102 50 61
3.091663 5.870378 67.938766 100 51 59
3.091663 6.016832 67.938766 99 52 58
3.105877 6.191622 68.251129 98 52 56
3.105877 6.338748 68.251129 97 51 55
3.127446 6.530915 68.725098 95 50 54
3.113034 6.648284 68.408394 93 49 54
3.149316 8.366796 69.205696 93 52 56
3.141992 8.496176 69.044746 91 50 54
3.134702 8.624954 68.884552 89 48 52
3.193987 11.057578 70.187332 81 41 47
3.216802 13.117513 70.688675 74 40 44
3.171494 13.082994 69.693054 74 41 44
3.178957 13.264366 69.857040 74 42 44
3.156674 13.320924 69.367386 73 43 45
3.141992 13.407804 69.044746 72 43 45
4.358247 21.694695 95.771751 67 42 45
3.814169 -18.788799 80.024910 79 43 48
3.216038 -14.533283 67.475548 82 45 50
3.165675 -14.162516 66.418884 84 45 51
3.130656 -13.864258 65.684166 86 46 52
2.012883 -8.367915 42.232208 91 49 54
3.194259 -11.545473 67.018608 83 42 48
3.201486 -11.426798 67.170235 85 42 48
3.179903 -11.205943 66.717400 87 42 49
3.151574 -10.963573 66.123032 89 43 50
3.158609 -10.845189 66.270630 90 44 51
3.179903 -10.774482 66.717400 91 45 52
3.179903 -10.630662 66.717400 93 46 52
3.187064 -10.510461 66.867661 92 46 52
3.208745 -10.436835 67.322548 91 45 51
3.208745 -10.291711 67.322548 90 44 51
3.208745 -10.146586 67.322548 91 45 53
3.208745 -10.001462 67.322548 92 46 53
3.187064 -9.789740 66.867661 93 47 54
2.053783 -5.565522 43.090336 105 53 61
3.194259 -8.222673 67.018608 102 48 55
3.179903 -8.041898 66.717400 104 50 56
3.187064 -7.915866 66.867661 106 52 58
3.194259 -7.789265 67.018608 107 54 60
3.194259 -7.644796 67.018608 106 54 61
3.187064 -7.483434 66.867661 106 53 62
3.103194 -6.444396 65.107986 112 54 67
3.103194 -6.304045 65.107986 112 53 65
3.116865 -6.190847 65.394806 111 52 63
3.116865 -6.049878 65.394806 109 51 61
3.110015 -5.895922 65.251083 108 50 59
3.103194 -5.742641 65.107986 106 49 57
3.208745 -5.067221 67.322548 117 54 65
3.223364 -4.944520 67.629250 118 55 65
3.230723 -4.809690 67.783661 118 55 64
3.216038 -4.642374 67.475548 117 55 63
3.223364 -4.507163 67.629250 116 55 62
3.238116 -4.381338 67.938766 115 54 61
3.268029 -4.274006 68.566376 115 54 61
3.260499 -4.116693 68.408394 116 55 62
1.658918 -1.719396 34.805676 121 61 70
1.653104 -1.638603 34.683693 122 62 72
1.643504 -1.554756 34.482281 123 63 73
1.643504 -1.480423 34.482281 123 62 73
3.230723 -1.887316 67.783661 117 58 64
3.230723 -1.741198 67.783661 118 60 65
3.230723 -1.595079 67.783661 118 61 65
3.230723 -1.448960 67.783661 118 61 65
3.238116 -1.305823 67.938766 117 61 64
3.230723 -1.156723 67.783661 117 62 65
3.223364 -1.008302 67.629250 120 63 66
3.208745 -0.858604 67.322548 120 63 66
3.201486 -0.711865 67.170235 119 61 65
3.194259 -0.565789 67.018608 121 63 67
3.201486 -0.422273 67.170235 122 64 69
3.172773 -0.274988 66.567810 122 64 69
3.172773 -0.131490 66.567810 121 64 69
3.165675 0.011981 66.418884 120 64 68
3.245543 1.333384 68.094589 115 57 64
3.238116 1.476786 67.938766 115 57 64
3.245543 1.626962 68.094589 113 56 64
3.230723 1.765652 67.783661 111 55 64
3.223364 1.907416 67.629250 110 55 64
3.230723 2.057889 67.783661 109 54 65
3.230723 4.834145 67.783661 105 49 59
3.253004 5.014610 68.251129 105 49 60
3.260499 5.173630 68.408394 104 50 60
3.260499 5.321095 68.408394 102 50 61
3.253004 5.455989 68.251129 101 49 61
3.238116 5.577473 67.938766 100 49 60
3.223364 5.697848 67.629250 99 50 59
3.230723 5.856976 67.783661 98 51 59
3.230723 6.003095 67.783661 98 51 58
3.245543 6.177421 68.094589 97 51 57
3.245543 6.324210 68.094589 97 51 56
3.268029 6.515832 68.566376 96 50 55
3.245543 6.617788 68.094589 94 49 55
2.007173 4.546604 42.112400 92 49 53
1.968090 4.547087 41.292408 92 49 54
3.353215 13.055345 70.353653 72 40 43
3.321729 13.082994 69.693054 72 40 43
3.329545 13.264366 69.857040 73 41 44
3.306207 13.320924 69.367386 73 42 44
3.290829 13.407804 69.044746 73 43 44
4.579471 21.764904 96.081688 66 41 43
4.550021 22.653875 95.463799 66 40 45
3.294113 -14.669587 66.123032 80 44 48
3.353870 -14.500328 67.322548 83 46 51
3.294113 -14.099431 66.123032 85 47 52
3.250674 -13.772845 65.251083 86 48 53
2.112938 -8.403778 42.413204 89 49 53
2.103921 -8.276877 42.232208 89 49 52
3.316271 -11.324315 66.567810 85 41 48
3.301466 -11.130903 66.270630 87 42 48
3.272249 -10.890806 65.684166 89 43 49
3.286793 -10.796988 65.976097 91 44 51
3.316271 -10.750324 66.567810 93 46 52
3.316271 -10.606826 66.567810 95 47 53
3.316271 -10.463328 66.567810 95 48 54
3.346282 -10.413223 67.170235 94 48 54
3.346282 -10.268427 67.170235 93 47 55
3.331209 -10.078029 66.867661 93 47 55
3.323723 -9.911561 66.717400 93 47 55
3.301466 -9.702332 66.270630 94 47 55
3.286793 -9.516988 65.976097 95 48 55
2.152921 -5.581724 43.215782 105 53 60
3.331209 -8.204154 66.867661 103 49 55
3.316271 -8.023867 66.567810 104 50 56
3.323723 -7.898077 66.717400 106 53 58
3.338728 -7.789265 67.018608 107 54 60
3.338728 -7.644796 67.018608 106 54 61
3.331209 -7.483434 66.867661 106 53 62
3.316271 -7.306378 66.567810 105 51 62
3.286793 -7.099210 65.976097 105 51 63
3.250674 -6.599219 65.251083 111 53 67
3.250674 -6.458560 65.251083 112 54 66
3.250674 -6.317900 65.251083 112 53 64
3.265026 -6.204514 65.539169 111 52 62
3.265026 -6.063233 65.539169 110 52 61
3.257834 -5.908909 65.394806 108 51 60
3.257834 -5.767940 65.394806 107 49 58
3.265026 -5.639392 65.539169 108 49 57
3.272249 -5.510275 65.684166 110 50 60
3.308851 -5.285558 66.418884 115 54 64
3.323723 -5.165493 66.717400 117 55 66
3.346282 -5.055757 67.170235 119 56 67
3.353870 -4.922096 67.322548 119 55 66
3.361492 -4.787828 67.475548 118 55 64
3.353870 -4.631847 67.322548 117 55 63
3.361492 -4.496919 67.475548 115 54 61
3.369149 -4.361377 67.629250 114 54 60
3.400130 -4.254355 68.251129 113 54 60
3.407965 -4.116693 68.408394 114 54 61
3.392332 -3.951020 68.094589 114 56 62
1.750363 -1.811414 35.135197 117 58 68
1.733947 -1.719396 34.805676 119 59 70
1.717836 -1.554756 34.482281 122 61 72
1.719833 -1.482145 34.522373 122 61 72
3.376842 -1.887316 67.783661 119 60 66
3.369149 -1.737231 67.629250 120 61 66
3.376842 -1.595079 67.783661 119 61 66
3.376842 -1.448960 67.783661 118 61 65
3.384569 -1.305823 67.938766 118 61 64
3.369149 -1.154088 67.629250 119 62 65
3.361492 -1.006010 67.475548 120 63 65
3.346282 -0.856662 67.170235 120 63 65
3.331209 -0.708659 66.867661 120 62 66
3.323723 -0.563246 66.717400 121 63 67
3.323723 -0.419426 66.717400 121 64 67
3.301466 -0.273760 66.270630 121 64 67
3.301466 -0.130903 66.270630 120 64 68
3.294113 0.011928 66.123032 119 64 67
3.286793 0.154123 65.976097 118 63 66
3.369149 1.032700 67.629250 117 59 65
3.369149 1.178486 67.629250 117 58 66
3.384569 1.330333 67.938766 116 58 66
3.392332 1.480173 68.094589 116 58 65
3.384569 1.623239 67.938766 114 58 65
3.376842 1.765652 67.783661 113 58 66
3.376842 1.911770 67.783661 112 58 67
3.376842 4.980264 67.783661 104 51 60
3.376842 5.126382 67.783661 103 51 61
3.384569 5.284566 67.938766 101 50 61
3.384569 5.431019 67.938766 98 49 59
3.376842 5.564739 67.783661 97 48 57
3.361492 5.684899 67.475548 96 49 57
3.369149 5.843634 67.629250 97 50 58
3.369149 5.989420 67.629250 97 51 58
3.384569 6.163285 67.938766 97 51 58
3.392332 6.324210 68.094589 96 51 57
3.400130 6.485875 68.251129 96 50 56
3.361492 6.557626 67.475548 95 49 55
3.331209 6.930981 66.867661 93 48 53
2.089063 4.527338 41.933956 92 49 52
2.054245 4.540771 41.235058 92 49 53
2.026105 4.566240 40.670197 92 50 54
3.471964 13.082994 69.693054 72 39 43
4.817774 21.906694 96.707626 66 40 41
3.491078 -14.467522 67.170235 85 48 52
3.429015 -14.068099 65.976097 86 48 53
3.391333 -13.772845 65.251083 87 49 53
3.436652 -11.106112 66.123032 89 42 48
3.406306 -10.866765 65.539169 91 44 49
3.413842 -10.749213 65.684166 94 46 51
3.452028 -10.726274 66.418884 95 47 53
3.452028 -10.583097 66.418884 97 49 55
3.452028 -10.439920 66.418884 98 50 57
3.475353 -10.366317 66.867661 98 51 58
3.475353 -10.222173 66.867661 97 51 59
3.459768 -10.032835 66.567810 96 50 58
3.436652 -9.823262 66.123032 94 48 56
3.421412 -9.637793 65.829803 94 47 55
3.398803 -9.433138 65.394806 94 47 55
3.413842 -9.333284 65.684166 95 48 55
3.467543 -8.185718 66.717400 105 52 57
3.459768 -8.023867 66.567810 107 53 58
3.467543 -7.898077 66.717400 107 53 59
3.475353 -7.771722 66.867661 107 54 60
3.475353 -7.627578 66.867661 106 53 60
3.467543 -7.466617 66.717400 105 52 60
3.452028 -7.290032 66.418884 104 50 60
3.413842 -7.067798 65.684166 104 48 60
3.406306 -6.910915 65.539169 106 49 62
3.391333 -6.739878 65.251083 108 50 64
3.391333 -6.599219 65.251083 110 51 64
3.383896 -6.444396 65.107986 111 52 63
3.391333 -6.317900 65.251083 111 53 62
3.406306 -6.204514 65.539169 111 52 60
3.406306 -6.063233 65.539169 110 52 60
3.406306 -5.921953 65.539169 109 51 59
3.398803 -5.767940 65.394806 108 49 58
3.406306 -5.639392 65.539169 109 49 58
3.413842 -5.510275 65.684166 110 50 60
3.429015 -5.392543 65.976097 113 52 62
3.444323 -5.273760 66.270630 116 54 65
3.459768 -5.153912 66.567810 118 56 67
3.475353 -5.032983 66.867661 119 57 67
3.491078 -4.910961 67.170235 119 57 66
3.506947 -4.787828 67.475548 118 56 64
3.498995 -4.631847 67.322548 116 55 62
3.491078 -4.476572 67.170235 114 54 61
3.491078 -4.331775 67.170235 113 53 60
3.522960 -4.225216 67.783661 112 53 60
3.531022 -4.088431 67.938766 112 54 61
1.804745 -1.715374 34.724258 118 59 69
1.796341 -1.632881 34.562565 120 59 70
3.522960 -1.887316 67.783661 121 61 68
3.514935 -1.445660 67.629250 120 62 66
3.522960 -1.302841 67.783661 120 62 65
3.514935 -1.154088 67.629250 120 63 65
3.506947 -1.006010 67.475548 120 63 65
3.491078 -0.856662 67.170235 121 64 65
3.467543 -0.707066 66.717400 121 63 66
3.452028 -0.560726 66.418884 121 63 66
3.452028 -0.417549 66.418884 121 63 66
3.436652 -0.273150 66.123032 121 63 66
3.429015 -0.130321 65.976097 120 63 68
3.429015 0.011901 65.976097 119 63 68
3.413842 0.153441 65.684166 117 62 67
3.444323 0.297668 66.270630 116 61 66
3.467543 0.443495 66.717400 115 59 65
3.459768 0.585999 66.567810 115 59 65
3.491078 0.736098 67.170235 116 59 65
3.498995 0.882892 67.322548 117 59 66
3.506947 1.030353 67.475548 118 59 67
3.498995 1.173142 67.322548 118 59 67
3.514935 1.324272 67.629250 118 60 67
3.531022 1.476786 67.938766 117 60 67
3.522960 1.619533 67.783661 116 60 67
3.514935 1.761630 67.629250 115 61 69
3.531022 4.991660 67.938766 101 51 60
3.514935 5.114705 67.629250 101 50 60
3.531022 5.284566 67.938766 99 50 60
3.522960 5.418620 67.783661 96 49 58
3.514935 5.552063 67.629250 94 47 55
3.506947 5.684899 67.475548 94 47 55
3.514935 5.843634 67.629250 95 49 57
3.522960 6.003095 67.783661 96 50 58
3.539121 6.177421 68.094589 96 50 58
3.547257 6.338748 68.251129 96 50 58
3.547257 6.485875 68.251129 96 49 57
2.134242 4.521930 41.063957 91 48 51
2.110885 4.559994 40.614559 91 48 52
3.470965 -14.087785 64.123634 85 49 51
3.627667 -14.434863 67.018608 86 49 53
3.555435 -14.005851 65.684166 86 49 53
3.547586 -10.725485 65.539169 96 48 53
3.595205 -10.726274 66.418884 98 50 55
3.603266 -10.606826 66.567810 99 51 58
3.595205 -10.439920 66.418884 100 53 60
3.611363 -10.343021 66.717400 100 55 62
3.619497 -10.222173 66.867661 100 56 63
3.595205 -10.010390 66.418884 99 54 62
3.571237 -9.801433 65.976097 95 50 58
3.555435 -9.616470 65.684166 94 47 56
3.539772 -9.433138 65.394806 94 47 55
3.547586 -9.312681 65.539169 94 47 55
3.603266 -8.310863 66.567810 105 54 58
3.611363 -8.185718 66.717400 106 54 59
3.603266 -8.023867 66.567810 107 54 59
3.603266 -7.880369 66.567810 107 53 59
3.611363 -7.754257 66.717400 106 53 59
3.603266 -7.593373 66.567810 106 52 59
3.603266 -7.449876 66.567810 105 51 59
3.579191 -7.257560 66.123032 104 49 59
3.547586 -7.052196 65.539169 103 47 58
3.539772 -6.895693 65.394806 104 47 59
3.531993 -6.739878 65.251083 108 49 62
3.531993 -6.599219 65.251083 110 51 62
3.524247 -6.444396 65.107986 110 52 61
3.531993 -6.317900 65.251083 110 52 60
3.547586 -6.204514 65.539169 110 52 59
3.547586 -6.063233 65.539169 109 51 58
3.547586 -5.921953 65.539169 108 50 57
3.547586 -5.780672 65.539169 107 48 57
3.547586 -5.639392 65.539169 108 48 57
3.555435 -5.510275 65.684166 110 49 60
3.571237 -5.392543 65.976097 113 51 62
3.579191 -5.262014 66.123032 116 54 65
3.587180 -5.130903 66.270630 118 56 66
3.611363 -5.021673 66.717400 119 57 67
3.627667 -4.899875 67.018608 119 57 67
3.644119 -4.776972 67.322548 118 57 65
3.635875 -4.621368 67.170235 116 56 64
3.627667 -4.466466 67.018608 114 55 62
3.627667 -4.321997 67.018608 113 55 61
3.660721 -4.215591 67.629250 112 55 61
3.660721 -4.069805 67.629250 111 55 62
3.660721 -1.154088 67.629250 120 62 65
3.627667 -0.854728 67.018608 121 64 65
3.603266 -0.705481 66.567810 121 63 65
3.587180 -0.559474 66.270630 121 62 65
3.595205 -0.417549 66.418884 121 62 66
3.579191 -0.273150 66.123032 120 62 66
3.563318 -0.130032 65.829803 120 63 68
3.555435 0.011848 65.684166 119 63 68
3.547586 0.153103 65.539169 118 61 68
3.555435 0.295034 65.684166 115 59 67
3.587180 0.440526 66.270630 114 57 65
3.595205 0.584688 66.418884 115 57 66
3.627667 0.734437 67.018608 116 58 67
3.635875 0.880895 67.170235 118 60 68
3.644119 1.028017 67.322548 120 60 70
3.644119 1.173142 67.322548 120 61 69
3.685910 1.480173 68.094589 118 61 68
3.660721 1.615844 67.629250 117 61 68
3.669079 1.765652 67.783661 116 62 69
3.669079 4.980264 67.783661 98 50 58
3.652401 5.103081 67.475548 98 50 57
3.669079 5.272501 67.783661 98 50 57
3.669079 5.418620 67.783661 95 48 56
3.669079 5.564739 67.783661 92 46 54
3.652401 5.684899 67.475548 92 46 54
3.694383 6.191622 68.251129 95 49 57
2.216630 4.509456 40.950680 91 47 50
2.092522 5.423640 38.657867 86 45 49
3.609194 -14.087785 64.123634 88 51 52
3.772137 -14.434863 67.018608 89 52 54
3.688867 -13.974933 65.539169 88 51 54
3.632732 -13.623140 64.541832 88 51 54
3.738382 -10.726274 66.418884 100 52 58
3.746764 -10.606826 66.567810 101 54 61
3.738382 -10.439920 66.418884 102 55 63
3.755183 -10.343021 66.717400 102 57 65
3.755183 -10.199202 66.717400 103 58 66
3.738382 -10.010390 66.418884 102 57 65
3.713459 -9.801433 65.976097 98 52 61
3.705225 -9.637793 65.829803 96 48 57
3.688867 -9.453961 65.539169 95 47 56
3.697028 -9.333284 65.684166 95 46 55
3.746764 -8.310863 66.567810 107 55 60
3.755183 -8.185718 66.717400 108 56 60
3.738382 -8.005917 66.418884 107 55 59
3.738382 -7.862740 66.418884 106 53 59
3.738382 -7.719563 66.418884 106 53 60
3.730037 -7.559474 66.270630 106 52 60
3.730037 -7.416617 66.270630 106 51 60
3.713459 -7.241432 65.976097 105 49 60
3.680742 -7.036662 65.394806 103 47 58
3.680742 -6.895693 65.394806 104 47 58
3.672652 -6.739878 65.251083 108 50 60
3.664598 -6.584747 65.107986 111 52 61
3.664598 -6.444396 65.107986 111 52 60
3.672652 -6.317900 65.251083 111 52 59
3.688867 -6.204514 65.539169 111 52 59
3.688867 -6.063233 65.539169 110 52 59
3.688867 -5.921953 65.539169 108 49 57
3.688867 -5.780672 65.539169 106 46 55
3.688867 -5.639392 65.539169 107 45 56
3.697028 -5.510275 65.684166 109 48 59
3.713459 -5.392543 65.976097 112 51 62
3.713459 -5.250321 65.976097 115 53 64
3.721730 -5.119475 66.123032 118 56 66
3.738382 -4.999205 66.418884 119 57 67
3.755183 -4.877853 66.717400 119 58 67
3.780671 -4.766164 67.170235 118 58 66
3.772137 -4.610936 67.018608 116 57 65
3.755183 -4.446392 66.717400 115 56 64
3.746764 -4.292925 66.567810 114 57 64
2.570856 -1.665607 45.675758 118 59 67
3.806507 -1.154088 67.629250 118 60 63
3.730037 -0.702332 66.270630 120 62 65
3.705225 -0.555753 65.829803 121 62 66
3.713459 -0.414766 65.976097 121 61 66
3.713459 -0.272543 65.976097 121 62 67
3.688867 -0.129458 65.539169 121 62 69
3.680742 0.011796 65.394806 120 62 70
3.680742 0.152765 65.394806 119 61 70
3.680742 0.293735 65.394806 117 59 69
3.705225 0.437595 65.829803 115 56 67
3.738382 0.584688 66.418884 115 57 67
3.772137 0.734437 67.018608 117 58 69
3.789244 1.028017 67.322548 120 61 70
3.789244 1.173142 67.322548 120 61 70
3.806507 1.615844 67.629250 116 61 67
3.904338 2.405036 69.367386 111 57 65
3.806507 4.677347 67.629250 94 48 55
3.772137 4.779583 67.018608 95 48 56
3.815198 4.980264 67.783661 95 48 55
3.789244 5.091509 67.322548 96 48 55
3.823928 5.431019 67.938766 94 48 54
3.815198 5.564739 67.783661 93 47 53
3.841510 6.191622 68.251129 94 49 56
3.697028 6.666716 65.684166 95 45 54
3.624852 6.675392 64.401825 94 45 52
2.184388 5.444909 38.809467 88 45 49
2.158988 5.464283 38.358192 88 44 48
3.943310 -14.533283 67.475548 89 52 54
3.830147 -13.974933 65.539169 88 51 54
3.771862 -13.623140 64.541832 88 52 54
3.872894 -10.702332 66.270630 101 53 61
3.890261 -10.606826 66.567810 102 55 63
3.881558 -10.439920 66.418884 102 56 64
3.899004 -10.343021 66.717400 102 57 65
3.899004 -10.199202 66.717400 103 57 64
3.890261 -10.032835 66.567810 102 55 63
3.864269 -9.823262 66.123032 100 53 60
3.847132 -9.637793 65.829803 98 51 57
3.838621 -9.474877 65.684166 98 49 56
3.847132 -9.353979 65.829803 98 48 55
3.881558 -8.292270 66.418884 110 58 63
3.890261 -8.167364 66.567810 110 58 63
3.872894 -7.988046 66.270630 107 55 60
3.872894 -7.845189 66.270630 106 53 59
3.872894 -7.702332 66.270630 106 53 60
3.855681 -7.525877 65.976097 107 53 61
3.855681 -7.383655 65.976097 107 52 61
3.838621 -7.209391 65.684166 107 52 61
3.821711 -7.036662 65.394806 107 50 60
3.813311 -6.880538 65.251083 108 50 60
3.813311 -6.739878 65.251083 111 52 62
3.804949 -6.584747 65.107986 113 54 63
3.796623 -6.430295 64.965523 113 54 62
3.813311 -6.317900 65.251083 113 53 61
3.838621 -6.218240 65.684166 112 53 61
3.838621 -6.076647 65.684166 111 52 61
3.838621 -5.935054 65.684166 110 50 59
3.838621 -5.793461 65.684166 107 46 57
3.838621 -5.651868 65.684166 106 45 56
3.838621 -5.510275 65.684166 108 47 59
3.855681 -5.392543 65.976097 112 50 62
3.855681 -5.250321 65.976097 115 53 63
3.872894 -5.130903 66.270630 118 56 65
3.881558 -4.999205 66.418884 120 58 66
3.890261 -4.866916 66.567810 120 59 67
3.907785 -4.744695 66.867661 118 59 67
3.907785 -4.600551 66.867661 116 57 66
3.890261 -4.436423 66.567810 115 56 65
3.881558 -4.283321 66.418884 114 58 66
3.943310 -1.151465 67.475548 118 60 64
3.838621 -0.412930 65.684166 122 62 68
3.838621 -0.271337 65.684166 122 62 69
3.813311 -0.128889 65.251083 123 62 71
3.804949 0.011744 65.107986 122 62 72
3.804949 0.152095 65.107986 120 61 71
3.804949 0.292446 65.107986 118 60 71
3.830147 0.435663 65.539169 117 58 70
3.872894 0.583383 66.270630 116 57 69
3.925467 0.736098 67.170235 117 59 70
3.943310 1.175808 67.475548 118 61 68
3.961317 1.619533 67.783661 114 60 65
3.934369 4.365885 67.322548 91 46 52
3.907785 4.480530 66.867661 92 46 53
3.952293 4.677347 67.629250 93 47 54
3.916606 4.779583 67.018608 93 47 54
3.970381 4.991660 67.938766 94 47 54
3.988636 6.191622 68.251129 94 48 55
3.838621 6.666716 65.684166 95 46 54
3.771862 6.689903 64.541832 94 45 52
4.053871 9.134008 69.367386 89 45 50
4.044421 9.261901 69.205696 90 46 51
2.273993 5.459181 38.911194 91 45 49
2.944446 -8.580433 48.591232 96 50 56
2.925295 -8.420560 48.275192 98 51 58
2.873892 -8.170359 47.426903 98 51 59
4.006808 -10.678495 66.123032 102 54 64
4.042824 -10.630662 66.717400 102 55 64
4.024735 -10.439920 66.418884 102 55 65
4.033759 -10.319831 66.567810 102 56 65
4.051929 -10.222173 66.867661 102 55 63
4.042824 -10.055381 66.717400 101 55 62
4.006808 -9.823262 66.123032 100 54 60
3.989039 -9.637793 65.829803 100 53 58
3.980214 -9.474877 65.684166 100 51 57
3.989039 -9.353979 65.829803 100 50 56
3.980214 -8.342134 65.684166 108 56 62
4.006808 -8.255333 66.123032 110 58 64
4.015751 -8.130903 66.270630 110 59 64
3.997904 -7.952543 65.976097 108 56 61
3.989039 -7.793004 65.829803 106 54 60
3.980214 -7.634169 65.684166 107 54 60
3.980214 -7.492577 65.684166 108 54 61
3.980214 -7.350984 65.684166 108 54 62
3.971427 -7.193476 65.539169 109 53 62
3.953971 -7.021197 65.251083 111 53 63
3.953971 -6.880538 65.251083 112 53 63
3.953971 -6.739878 65.251083 113 54 64
3.945300 -6.584747 65.107986 114 54 64
3.936667 -6.430295 64.965523 114 54 64
3.962680 -6.331816 65.394806 114 55 64
3.989039 -6.232028 65.829803 114 55 63
3.989039 -6.090121 65.829803 113 54 63
3.997904 -5.961432 65.976097 112 51 61
3.997904 -5.819210 65.976097 109 49 59
3.989039 -5.664400 65.829803 109 48 59
3.997904 -5.534766 65.976097 110 49 60
4.006808 -5.404553 66.123032 113 51 61
4.006808 -5.262014 66.123032 115 53 63
4.015751 -5.130903 66.270630 118 56 64
4.024735 -4.999205 66.418884 120 58 66
4.024735 -4.856028 66.418884 120 60 68
4.042824 -4.734033 66.717400 119 59 69
4.042824 -4.590212 66.717400 116 57 67
4.015751 -4.416617 66.270630 114 57 67
3.997904 -4.254766 65.976097 114 58 68
3.997904 -4.112544 65.976097 114 58 68
4.098079 -1.445660 67.629250 123 63 71
4.088765 -1.151465 67.475548 118 61 66
3.971427 -0.553299 65.539169 120 61 69
3.971427 -0.412019 65.539169 121 61 70
3.971427 -0.270738 65.539169 122 62 71
3.953971 -0.128889 65.251083 123 62 72
3.945300 0.011744 65.107986 122 62 72
3.945300 0.152095 65.107986 121 62 72
3.936667 0.291806 64.965523 119 61 71
3.962680 0.434704 65.394806 118 59 71
4.006808 0.582083 66.123032 117 59 70
4.061076 0.734437 67.018608 117 59 70
4.098079 1.032700 67.629250 116 61 67
4.088765 1.175808 67.475548 115 60 66
4.126276 1.626962 68.094589 113 59 63
4.061076 4.346175 67.018608 95 48 54
4.042824 4.470462 66.717400 95 48 55
4.088765 4.666717 67.475548 95 47 55
4.042824 4.758102 66.717400 95 47 55
4.107435 4.980264 67.783661 95 47 54
4.145292 5.910957 68.408394 93 48 53
4.126276 6.030632 68.094589 93 48 53
4.135762 6.191622 68.251129 94 48 54
4.126276 6.470999 68.094589 95 47 55
4.174145 8.624954 68.884552 89 46 50
4.193605 8.814348 69.205696 89 46 51
4.203403 8.984475 69.367386 89 46 51
4.203403 9.134008 69.367386 89 46 51
4.203403 9.283541 69.367386 91 46 52
4.193605 9.411085 69.205696 92 46 52
4.154865 9.471952 68.566376 93 45 52
3.014655 -8.379683 48.040844 99 52 59
2.961934 -8.131391 47.200703 100 53 61
2.929334 -7.941265 46.681198 101 53 62
4.140126 -10.654766 65.976097 103 54 65
4.177257 -10.606826 66.567810 103 54 65
4.167912 -10.439920 66.418884 103 55 65
4.177257 -10.319831 66.567810 102 55 64
4.205545 -10.245247 67.018608 102 55 62
4.196074 -10.078029 66.867661 101 54 61
4.158608 -9.845189 66.270630 101 54 60
4.103649 -8.305385 65.394806 108 56 62
4.121807 -8.200541 65.684166 109 57 63
4.140126 -8.094766 65.976097 109 57 63
4.121807 -7.917355 65.684166 108 56 62
4.112708 -7.758597 65.539169 108 56 61
4.103649 -7.600539 65.394806 108 55 61
4.103649 -7.459569 65.394806 109 55 62
4.103649 -7.318600 65.394806 109 55 62
4.103649 -7.177631 65.394806 110 54 62
4.094630 -7.021197 65.251083 111 53 63
4.094630 -6.880538 65.251083 112 53 63
4.103649 -6.754724 65.394806 113 53 64
4.094630 -6.599219 65.251083 115 54 64
4.085650 -6.444396 65.107986 116 54 65
4.112708 -6.345794 65.539169 116 55 65
4.149347 -6.259788 66.123032 116 55 65
4.149347 -6.117249 66.123032 116 55 65
4.149347 -5.974710 66.123032 115 54 65
4.149347 -5.832170 66.123032 113 52 62
4.140126 -5.676988 65.976097 112 51 61
4.149347 -5.547092 66.123032 112 52 61
4.158608 -5.416617 66.270630 113 53 62
4.158608 -5.273760 66.270630 115 55 62
4.167912 -5.142382 66.418884 117 56 64
4.167912 -4.999205 66.418884 118 58 66
4.167912 -4.856028 66.418884 118 59 68
4.167912 -4.712852 66.418884 117 59 69
4.177257 -4.579920 66.567810 116 58 69
4.149347 -4.406781 66.123032 115 58 69
4.121807 -4.235939 65.684166 114 58 69
4.121807 -4.094347 65.684166 114 59 70
4.085650 -3.918080 65.107986 115 60 70
4.234220 -1.442374 67.475548 122 62 71
4.224618 -1.293979 67.322548 120 61 69
4.224618 -1.148854 67.322548 118 60 68
4.215060 -1.001458 67.170235 117 59 68
4.149347 -0.700767 66.123032 118 59 69
4.121807 -0.554523 65.684166 119 59 70
4.121807 -0.412930 65.684166 120 60 71
4.112708 -0.270738 65.539169 121 61 71
4.094630 -0.128889 65.251083 122 62 72
4.085650 0.011744 65.107986 122 62 72
4.094630 0.152430 65.251083 120 62 72
4.076710 0.291806 64.965523 119 61 72
4.112708 0.435663 65.539169 118 60 71
4.167912 0.584688 66.418884 117 60 71
4.196074 0.732783 66.867661 116 59 70
4.263288 1.037427 67.938766 114 59 66
4.263288 1.183880 67.938766 113 59 63
4.322637 1.497344 68.884552 112 58 62
4.167912 4.164106 66.418884 98 50 56
4.196074 4.336386 66.867661 98 50 57
4.177257 4.460438 66.567810 98 50 58
4.186644 4.758102 66.717400 98 49 58
4.282889 5.897369 68.251129 93 47 54
4.332690 8.793850 69.044746 90 46 54
4.363130 9.005516 69.529839 90 46 53
4.352936 9.134008 69.367386 90 46 53
4.352936 9.283541 69.367386 91 46 53
4.342789 9.411085 69.205696 92 45 53
4.292757 9.450128 68.408394 93 45 53
2.247354 5.487763 35.813320 93 44 51
4.244618 -13.239305 65.394806 93 52 56
3.113177 -8.469539 47.963234 98 51 59
3.073456 -8.259401 47.351265 100 52 61
3.058820 -8.118484 47.125782 101 53 63
3.025207 -7.928798 46.607914 102 54 63
4.263400 -10.607620 65.684166 103 54 66
4.311089 -10.583097 66.418884 103 54 66
4.301466 -10.416617 66.270630 103 54 64
4.320755 -10.319831 66.567810 103 54 63
4.350015 -10.245247 67.018608 102 53 61
4.350015 -10.100778 67.018608 101 53 60
4.301466 -9.845189 66.270630 101 53 58
4.253988 -8.464999 65.539169 107 56 63
4.244618 -8.305385 65.394806 108 56 62
4.253988 -8.182438 65.539169 109 57 63
4.263400 -8.058949 65.684166 110 57 63
4.263400 -7.917355 65.684166 110 57 64
4.244618 -7.741508 65.394806 110 56 64
4.244618 -7.600539 65.394806 111 56 64
4.235289 -7.443175 65.251083 111 55 64
4.244618 -7.318600 65.394806 111 54 64
4.244618 -7.177631 65.394806 110 53 63
4.235289 -7.021197 65.251083 111 52 62
4.235289 -6.880538 65.251083 112 51 62
4.253988 -6.769635 65.539169 113 51 63
4.244618 -6.613754 65.394806 115 52 64
4.235289 -6.458560 65.251083 116 53 65
4.263400 -6.359833 65.684166 118 55 67
4.311089 -6.287796 66.418884 119 56 67
4.311089 -6.144619 66.418884 118 56 67
4.311089 -6.001442 66.418884 117 56 66
4.311089 -5.858265 66.418884 115 55 65
4.301466 -5.702332 66.270630 114 54 64
4.291885 -5.547092 66.123032 113 54 62
4.311089 -5.428735 66.418884 113 54 61
4.311089 -5.285558 66.418884 114 55 62
4.320755 -5.153912 66.567810 115 56 63
4.320755 -5.010414 66.567810 116 57 65
4.311089 -4.856028 66.418884 116 58 67
4.311089 -4.712852 66.418884 117 59 69
4.320755 -4.579920 66.567810 116 58 70
4.272853 -4.387239 65.829803 115 58 71
4.244618 -4.217278 65.394806 114 58 71
4.244618 -4.076310 65.394806 114 59 71
4.216754 -3.909507 64.965523 115 59 71
4.189253 -3.744879 64.541832 116 59 70
4.135314 -3.559323 63.710819 117 60 69
4.117642 -3.407360 63.438553 117 61 68
4.091415 -3.249776 63.034485 116 60 67
4.369743 -1.439103 67.322548 121 61 71
4.359857 -1.291051 67.170235 120 61 70
4.350015 -1.143667 67.018608 118 60 69
4.350015 -0.999198 67.018608 117 58 69
4.340218 -0.852803 66.867661 117 58 70
4.301466 -0.702332 66.270630 118 58 70
4.272853 -0.555753 65.829803 119 59 70
4.263400 -0.412930 65.684166 119 59 70
4.253988 -0.270738 65.539169 120 60 71
4.235289 -0.128889 65.251083 120 61 71
4.226001 0.011744 65.107986 121 62 72
4.235289 0.152430 65.251083 120 62 72
4.216754 0.291806 64.965523 119 61 72
4.272853 0.437595 65.829803 117 60 71
4.311089 0.584688 66.418884 116 60 70
4.320755 0.729497 66.567810 115 59 69
4.430015 1.042197 68.251129 112 58 65
4.419855 1.186595 68.094589 111 57 63
4.311089 3.877753 66.418884 96 49 54
4.301466 4.154811 66.270630 99 50 57
4.340218 4.336386 66.867661 100 51 59
4.311089 4.450459 66.418884 101 51 60
4.359857 4.645601 67.170235 101 52 61
4.320755 4.747434 66.567810 100 51 61
4.226001 6.327534 65.107986 96 47 56
4.180166 6.397734 64.401825 95 46 54
4.481527 8.793850 69.044746 92 47 57
4.502469 8.984475 69.367386 91 47 56
4.502469 9.134008 69.367386 91 46 55
4.502469 9.283541 69.367386 91 45 54
4.481527 9.389198 69.044746 91 44 53
4.419855 9.406778 68.094589 93 45 53
3.238751 8.398917 49.897884 87 43 48
4.434424 -13.386736 66.123032 96 53 56
4.395268 -10.584205 65.539169 103 54 65
4.434424 -10.535956 66.123032 103 54 65
4.434424 -10.393417 66.123032 103 53 64
4.444323 -10.273760 66.270630 103 53 62
4.474285 -10.199202 66.717400 102 52 60
4.484362 -10.078029 66.867661 101 52 58
4.444323 -9.845189 66.270630 102 51 57
4.404993 -8.483727 65.684166 107 54 61
4.385587 -8.305385 65.394806 109 55 62
4.395268 -8.182438 65.539169 111 57 63
4.414760 -8.076818 65.829803 112 58 65
4.404993 -7.917355 65.684166 111 57 64
4.385587 -7.741508 65.394806 111 56 64
4.385587 -7.600539 65.394806 112 56 65
4.385587 -7.459569 65.394806 112 56 65
4.385587 -7.318600 65.394806 111 54 64
4.385587 -7.177631 65.394806 110 52 63
4.385587 -7.036662 65.394806 110 50 61
4.385587 -6.895693 65.394806 111 49 61
4.404993 -6.784612 65.684166 113 50 62
4.395268 -6.628355 65.539169 115 51 63
4.385587 -6.472785 65.394806 117 53 64
4.404993 -6.359833 65.684166 119 55 66
4.464252 -6.301894 66.567810 120 56 67
4.464252 -6.158396 66.567810 119 56 67
4.464252 -6.014898 66.567810 118 56 66
4.464252 -5.871400 66.567810 116 56 65
4.454266 -5.715088 66.418884 115 55 63
4.444323 -5.559474 66.270630 114 54 62
4.454266 -5.428735 66.418884 114 54 62
4.454266 -5.285558 66.418884 114 55 62
4.464252 -5.153912 66.567810 115 56 62
4.464252 -5.010414 66.567810 115 56 64
4.464252 -4.866916 66.567810 115 57 66
4.454266 -4.712852 66.418884 115 58 69
4.454266 -4.569674 66.418884 115 58 70
4.404993 -4.377532 65.684166 114 57 70
4.375948 -4.208010 65.251083 113 56 70
4.385587 -4.076310 65.394806 114 56 70
4.356798 -3.909507 64.965523 115 57 70
4.328384 -3.744879 64.541832 115 58 69
4.263505 -3.551701 63.574394 115 58 68
4.236291 -3.392861 63.168602 115 58 67
4.504653 -1.435847 67.170235 120 60 70
4.494484 -1.288137 67.018608 120 60 70
4.484362 -1.141091 66.867661 118 59 69
4.484362 -0.996947 66.867661 117 58 70
4.474285 -0.850887 66.717400 117 57 70
4.444323 -0.702332 66.270630 118 58 70
4.404993 -0.554523 65.684166 118 58 70
4.404993 -0.412930 65.684166 119 59 70
4.385587 -0.270142 65.394806 119 60 70
4.356798 -0.128325 64.965523 120 60 71
4.347285 0.011693 64.823669 121 62 72
4.356798 0.151763 64.965523 121 63 73
4.337814 0.290535 64.682442 119 61 72
4.385587 0.434704 65.394806 116 60 70
4.424570 0.580790 65.976097 114 59 69
4.404993 0.719813 65.684166 113 58 68
4.566644 1.039806 68.094589 111 56 65
4.566644 1.186595 68.094589 110 55 63
4.525129 3.793990 67.475548 97 49 54
4.454266 3.877753 66.418884 97 49 54
4.404993 3.976450 65.684166 99 50 56
4.454266 4.164106 66.418884 100 51 58
4.474285 4.326642 66.717400 101 51 60
4.434424 4.430636 66.123032 102 52 62
4.464252 4.603936 66.567810 102 53 62
4.454266 4.736813 66.418884 101 53 62
4.484362 4.912963 66.867661 100 52 61
4.309647 6.383886 64.262428 94 44 53
4.309647 6.522414 64.262428 93 43 52
4.309647 6.660943 64.262428 92 43 51
4.272654 6.741106 63.710819 91 43 50
4.587688 8.712801 68.408394 94 47 59
4.608927 8.901286 68.725098 93 47 59
4.608927 9.049434 68.725098 92 46 57
4.598283 9.176340 68.566376 92 45 55
4.577142 9.281277 68.251129 91 44 53
4.535437 9.342495 67.629250 92 44 53
4.494484 9.402608 67.018608 94 45 52
3.391919 7.968237 50.577927 93 45 52
3.357600 7.995541 50.066177 92 45 52
3.386151 8.281217 50.491909 92 47 53
3.368962 8.347471 50.235603 91 47 52
3.346314 8.398917 49.897884 87 44 49
4.514868 14.814865 67.322548 70 39 42
4.434424 14.693442 66.123032 70 39 42
4.366352 14.608235 65.107986 69 39 43
4.245323 14.749159 63.303288 66 38 42
4.477248 -12.955652 64.682442 96 53 56
4.556666 -8.502538 65.829803 108 54 61
4.536549 -8.323719 65.539169 109 55 62
4.546586 -8.200541 65.684166 112 57 65
4.556666 -8.076818 65.829803 113 57 66
4.546586 -7.917355 65.684166 112 55 65
4.536549 -7.758597 65.539169 112 55 65
4.526556 -7.600539 65.394806 114 56 67
4.526556 -7.459569 65.394806 114 57 67
4.536549 -7.334756 65.539169 112 54 65
4.526556 -7.177631 65.394806 110 51 63
4.526556 -7.036662 65.394806 110 49 61
4.526556 -6.895693 65.394806 112 49 60
4.546586 -6.784612 65.684166 114 50 61
4.536549 -6.628355 65.539169 116 52 62
4.526556 -6.472785 65.394806 118 54 64
4.546586 -6.359833 65.684166 119 55 66
4.607750 -6.301894 66.567810 120 56 67
4.607750 -6.158396 66.567810 119 56 66
4.607750 -6.014898 66.567810 117 56 65
4.607750 -5.871400 66.567810 116 55 64
4.597442 -5.715088 66.418884 114 54 62
4.597442 -5.571912 66.418884 113 54 62
4.607750 -5.440907 66.567810 114 55 63
4.607750 -5.297409 66.567810 116 57 64
4.618105 -5.165493 66.717400 116 57 65
4.607750 -5.010414 66.567810 115 57 65
4.607750 -4.866916 66.567810 115 56 66
4.597442 -4.712852 66.418884 114 56 68
4.597442 -4.569674 66.418884 112 56 68
4.536549 -4.367869 65.539169 111 54 67
4.496841 -4.189594 64.965523 112 54 68
4.400549 -3.551701 63.574394 115 57 66
4.363178 -3.385657 63.034485 114 57 65
4.326435 -3.222409 62.503666 114 57 64
4.372461 -2.984350 63.168602 112 58 63
4.353933 -2.836111 62.900936 111 57 63
4.344728 -2.694809 62.767956 110 56 64
4.363178 -2.570370 63.034485 109 54 64
4.587180 -1.702332 66.270630 118 57 68
4.618105 -1.569988 66.717400 119 58 69
4.628506 -1.429380 66.867661 120 59 70
4.618105 -1.282347 66.717400 119 59 70
4.607750 -1.135974 66.567810 117 57 69
4.597442 -0.990256 66.418884 116 57 70
4.597442 -0.847080 66.418884 117 57 71
4.576963 -0.700767 66.123032 117 57 71
4.536549 -0.553299 65.539169 117 58 70
4.536549 -0.412019 65.539169 118 58 71
4.516608 -0.269548 65.251083 119 59 71
4.467515 -0.127488 64.541832 120 61 71
4.467515 0.150773 64.541832 120 62 73
4.467515 0.289903 64.541832 118 61 72
4.556666 0.579502 65.829803 114 58 70
4.526556 0.716642 65.394806 113 57 68
4.713433 3.535219 68.094589 98 49 54
4.681222 3.656846 67.629250 98 49 54
4.670583 3.793990 67.475548 98 49 54
4.607750 3.886447 66.567810 99 50 56
4.546586 3.976450 65.684166 100 51 57
4.607750 4.316940 66.567810 102 52 60
4.556666 4.410988 65.829803 102 52 61
4.556666 4.552895 65.829803 102 53 62
4.576963 4.715714 66.123032 101 53 62
4.597442 4.879990 66.418884 100 53 61
4.448174 6.383886 64.262428 92 42 52
4.438567 6.508327 64.123634 92 42 52
4.448174 6.660943 64.262428 91 42 51
4.702647 8.652987 67.938766 96 48 61
4.691910 8.779350 67.783661 96 48 61
4.691910 8.925469 67.783661 95 46 59
4.670583 9.175808 67.475548 92 44 54
4.649449 9.279085 67.170235 93 45 53
4.597442 9.318469 66.418884 94 46 53
3.477253 8.347471 50.235603 90 48 54
3.448081 8.384825 49.814163 87 45 52
4.638954 14.603511 67.018608 69 38 43
4.607750 14.648779 66.567810 69 39 42
4.526556 14.531620 65.394806 69 39 42
4.496841 14.576270 64.965523 69 39 42
4.477248 14.652190 64.682442 68 38 43
4.457824 14.727452 64.401825 68 38 43
4.429001 14.770163 63.985435 68 38 42
4.372461 14.717777 63.168602 67 37 42
4.616681 -13.095086 64.682442 97 51 55
4.596652 -12.899446 64.401825 97 52 55
4.547332 -12.623701 63.710819 97 52 55
4.677829 -8.323719 65.539169 111 56 64
4.688179 -8.200541 65.684166 113 57 66
4.698574 -8.076818 65.829803 114 57 67
4.688179 -7.917355 65.684166 113 55 66
4.677829 -7.758597 65.539169 114 54 66
4.667526 -7.600539 65.394806 116 56 68
4.667526 -7.459569 65.394806 116 57 69
4.667526 -7.318600 65.394806 114 54 67
4.667526 -7.177631 65.394806 112 51 63
4.657268 -7.021197 65.251083 111 49 61
4.657268 -6.880538 65.251083 112 49 61
4.677829 -6.769635 65.539169 114 51 61
4.667526 -6.613754 65.394806 116 53 62
4.667526 -6.472785 65.394806 118 55 64
4.677829 -6.345794 65.539169 120 56 66
4.730037 -6.273760 66.270630 120 56 66
4.740619 -6.144619 66.418884 118 56 66
4.740619 -6.001442 66.418884 117 55 65
4.740619 -5.858265 66.418884 115 55 64
4.730037 -5.702332 66.270630 114 54 63
4.740619 -5.571912 66.418884 114 54 63
4.751248 -5.440907 66.567810 117 58 66
4.751248 -5.297409 66.567810 120 60 69
4.761925 -5.165493 66.717400 119 59 69
4.740619 -4.999205 66.418884 116 57 67
4.730037 -4.845189 66.270630 115 56 67
4.730037 -4.559474 66.270630 112 54 68
4.647054 -4.339133 65.107986 112 54 67
4.616681 -4.171339 64.682442 112 54 67
4.489527 -3.378484 62.900936 114 55 63
4.442467 -3.208898 62.241596 114 57 63
4.470583 -3.094187 62.635532 114 58 64
4.499059 -2.978014 63.034485 113 59 64
4.489527 -2.836111 62.900936 112 58 65
4.480035 -2.694809 62.767956 112 58 66
4.489527 -2.564925 62.900936 111 57 66
4.489527 -2.429332 62.900936 111 56 65
4.499059 -2.298608 63.034485 111 55 65
4.719502 -1.556001 66.123032 117 57 68
4.730037 -1.273760 66.270630 115 56 67
4.709015 -1.125877 65.976097 115 56 68
4.709015 -0.983654 65.976097 118 58 72
4.719502 -0.843306 66.123032 118 58 73
4.709015 -0.699210 65.976097 117 57 72
4.677829 -0.412019 65.539169 117 58 72
4.596652 0.289274 64.401825 119 61 72
4.730037 0.583383 66.270630 115 58 71
4.677829 0.718224 65.539169 113 56 69
4.860222 3.535219 68.094589 99 49 54
4.816038 3.648535 67.475548 99 50 55
4.816038 3.793990 67.475548 100 50 55
4.751248 3.886447 66.567810 101 50 56
4.688179 3.976450 65.684166 101 51 57
4.730037 4.297668 66.270630 102 51 59
4.677829 4.391513 65.539169 101 51 59
4.688179 4.684415 65.684166 100 52 60
4.816038 8.593989 67.475548 98 49 62
4.805117 8.719627 67.322548 98 49 63
4.805117 8.864752 67.322548 97 47 61
4.783423 9.113669 67.018608 94 45 56
4.751248 9.195865 66.567810 94 46 55
4.709015 9.256346 65.976097 95 46 54
4.667526 9.315761 65.394806 95 46 52
3.579488 8.333371 50.150745 88 47 54
3.062221 7.684040 42.903530 86 46 54
4.783423 14.603511 67.018608 68 38 43
4.740619 14.616008 66.418884 68 38 43
4.657268 14.499682 65.251083 69 38 44
4.636886 14.576270 64.965523 69 38 44
4.616681 14.652190 64.682442 69 38 44
4.596652 14.866281 64.401825 68 38 43
4.499059 14.686530 63.034485 67 37 42
4.725231 -12.871525 64.262428 97 51 55
4.674640 -12.596669 63.574394 97 51 55
4.829772 -8.342134 65.684166 112 58 65
4.829772 -8.200541 65.684166 114 58 67
4.829772 -8.058949 65.684166 115 57 68
4.829772 -7.917355 65.684166 115 55 68
4.808495 -7.741508 65.394806 115 55 68
4.797927 -7.583834 65.251083 115 55 69
4.797927 -7.443175 65.251083 115 55 69
4.808495 -7.318600 65.394806 113 53 67
4.797927 -7.161856 65.251083 111 51 64
4.787405 -7.005799 65.107986 111 50 62
4.787405 -6.865448 65.107986 112 50 62
4.808495 -6.754724 65.394806 114 52 62
4.797927 -6.599219 65.251083 116 54 62
4.797927 -6.458560 65.251083 117 55 63
4.797927 -6.317900 65.251083 118 55 65
4.840480 -6.232028 65.829803 118 55 65
4.840480 -6.090121 65.829803 118 55 65
4.851237 -5.961432 65.976097 117 56 66
4.851237 -5.819210 65.976097 116 56 66
4.851237 -5.676988 65.976097 117 57 66
4.872894 -5.559474 66.270630 118 59 67
4.883796 -5.428735 66.418884 120 61 70
4.894746 -5.297409 66.567810 122 62 72
4.605605 -3.364229 62.635532 113 56 63
4.567064 -3.202185 62.111385 114 57 63
4.586254 -3.081186 62.372356 114 58 64
4.625120 -2.971704 62.900936 114 59 65
4.615342 -2.830115 62.767956 113 60 66
4.615342 -2.694809 62.767956 113 59 66
4.625120 -2.564925 62.900936 112 58 66
4.625120 -2.429332 62.900936 112 57 65
4.776929 -1.948894 64.965523 114 55 66
4.840480 -1.549101 65.829803 117 57 69
4.851237 -1.410321 65.976097 115 56 69
4.851237 -1.268099 65.976097 114 54 67
4.840480 -1.123380 65.829803 114 55 68
4.840480 -0.981473 65.829803 117 57 71
4.851237 -0.841432 65.976097 119 59 73
4.840480 -0.697660 65.829803 118 58 74
4.819109 -0.553299 65.539169 118 58 74
4.819109 -0.412019 65.539169 119 59 74
4.735481 0.289274 64.401825 120 61 73
4.819109 0.718224 65.539169 114 56 70
3.238956 1.717145 44.049320 109 55 62
3.210377 1.796111 43.660652 106 53 60
4.984148 3.519076 67.783661 100 50 55
4.950242 3.640262 67.322548 101 50 56
4.939042 3.776822 67.170235 101 50 56
4.872894 3.869097 66.270630 101 50 56
4.829772 3.976450 65.684166 101 50 57
4.829772 4.118043 65.684166 102 50 57
4.851237 4.278568 65.976097 101 50 56
4.819109 4.391513 65.539169 99 49 56
4.797927 4.512869 65.251083 100 50 57
4.819109 4.674074 65.539169 100 51 58
4.819109 4.815354 65.539169 99 51 58
4.829772 4.967601 65.684166 98 51 58
4.939042 8.555103 67.170235 100 51 64
4.939042 8.699900 67.170235 99 50 64
4.927893 8.824730 67.018608 99 49 62
4.872894 9.154811 66.270630 96 46 56
4.851237 9.256346 65.976097 96 46 54
4.819109 9.336326 65.539169 96 46 52
4.984148 14.331861 67.783661 73 41 49
4.927893 14.314572 67.018608 70 40 47
4.939042 14.491755 67.170235 69 39 45
4.927893 14.603511 67.018608 68 38 44
4.894746 14.648779 66.567810 68 38 44
4.808495 14.531620 65.394806 70 38 45
4.787405 14.608235 65.107986 70 38 45
4.766499 14.684182 64.823669 70 38 45
4.735481 14.866281 64.401825 69 38 43
