ply
format ascii 1.0
element vertex 1238
property float x
property float y
property float z
property uchar red
property uchar green
property uchar blue
end_header
19.267799 4.911021 54.134880 76 40 47
19.276831 5.030074 54.160255 76 40 48
19.285601 5.149167 54.184895 76 41 48
19.294109 5.268294 54.208801 76 42 49
19.302353 5.387451 54.231964 76 42 50
19.310335 5.506633 54.254391 76 42 51
19.318062 5.625838 54.276100 75 42 50
19.325542 5.745062 54.297119 75 41 50
19.332790 5.864307 54.317482 75 40 47
19.339827 5.983574 54.337254 74 39 45
19.346674 6.102867 54.356487 73 38 43
19.353359 6.222190 54.375271 73 37 41
19.359919 6.341554 54.393700 72 37 40
19.366394 6.460968 54.411892 70 37 40
19.372831 6.580449 54.429981 70 36 40
19.379280 6.700011 54.448101 68 35 39
19.385798 6.819675 54.466408 66 34 38
19.392439 6.939464 54.485069 65 33 37
19.399267 7.059400 54.504253 65 33 36
19.406340 7.179509 54.524128 64 33 36
19.413719 7.299819 54.544861 64 33 36
19.421459 7.420357 54.566605 64 33 36
19.429613 7.541149 54.589516 64 32 37
19.438225 7.662220 54.613712 64 32 37
19.447334 7.783595 54.639305 64 32 37
19.456972 7.905295 54.666386 64 32 37
19.467157 8.027337 54.695000 64 32 37
19.477901 8.149736 54.725185 65 32 37
19.489204 8.272503 54.756943 65 32 37
19.501055 8.395642 54.790237 65 32 37
19.513430 8.519155 54.825005 64 32 36
19.526297 8.643034 54.861156 64 32 36
19.539618 8.767273 54.898582 65 33 37
19.553337 8.891854 54.937126 66 34 37
19.567400 9.016762 54.976643 67 35 38
19.581749 9.141971 55.016953 67 36 39
19.596308 9.267454 55.057861 67 36 40
19.611010 9.393182 55.099167 66 36 39
19.625784 9.519123 55.140675 66 35 39
19.640554 9.645242 55.182175 65 35 39
19.655251 9.771502 55.223465 65 35 39
19.669809 9.897872 55.264370 65 35 40
19.684172 10.024317 55.304722 66 36 40
19.698286 10.150808 55.344379 65 36 40
19.712109 10.277319 55.383213 65 36 40
19.725609 10.403827 55.421143 65 37 40
19.738771 10.530318 55.458126 65 37 40
19.751591 10.656784 55.494144 64 37 40
19.764078 10.783224 55.529228 63 36 39
19.776251 10.909641 55.563431 62 35 38
19.788143 11.036050 55.596840 61 34 37
19.799803 11.162471 55.629597 61 34 37
19.811277 11.288928 55.661839 61 34 37
19.822628 11.415453 55.693729 61 34 38
19.833921 11.542082 55.725460 62 35 39
19.845217 11.668848 55.757195 62 37 39
19.856579 11.795792 55.789116 62 37 39
19.868069 11.922951 55.821404 62 38 39
19.879730 12.050350 55.854164 60 38 39
19.891613 12.178029 55.887550 58 37 38
19.903761 12.306014 55.921680 56 35 37
19.916203 12.434330 55.956638 54 34 36
19.928961 12.562996 55.992485 53 33 35
19.942038 12.692020 56.029228 53 33 34
19.955439 12.821410 56.066875 54 33 35
19.969141 12.951159 56.105373 54 33 36
19.983120 13.081253 56.144650 54 33 36
19.997330 13.211670 56.184570 54 34 37
20.011702 13.342367 56.224953 54 34 38
20.026150 13.473290 56.265549 54 34 38
20.040562 13.604363 56.306038 53 33 38
20.054796 13.735490 56.346035 53 33 37
20.068678 13.866544 56.385033 53 32 37
20.081995 13.997373 56.422451 52 32 37
20.094500 14.127792 56.457584 52 31 36
20.105907 14.257585 56.489632 52 31 36
20.115891 14.386498 56.517685 52 31 36
20.124096 14.514249 56.540737 52 31 36
20.130136 14.640526 56.557709 52 31 36
20.133614 14.764995 56.567478 52 32 36
20.134121 14.887310 56.568905 51 33 36
20.131266 15.007125 56.560879 49 33 35
20.124672 15.124095 56.542351 48 33 34
20.114019 15.237911 56.512424 47 32 33
20.099045 15.348298 56.470352 46 31 33
20.079571 15.455040 56.415638 47 30 32
20.055508 15.557987 56.348030 47 30 32
20.026888 15.657078 56.267616 46 30 32
19.993837 15.752334 56.174759 46 29 31
19.956619 15.843880 56.070194 46 29 30
19.915588 15.931925 55.954914 46 29 30
19.871212 16.016775 55.830231 46 29 29
19.824036 16.098816 55.697685 47 29 30
19.774666 16.178490 55.558975 47 30 30
19.723755 16.256294 55.415936 47 30 30
19.671959 16.332750 55.270412 47 30 30
19.619938 16.408388 55.124252 47 31 31
19.568312 16.483728 54.979202 46 32 31
19.517647 16.559259 54.836853 46 32 31
19.468443 16.635426 54.698608 45 31 31
19.421124 16.712618 54.565662 44 31 31
19.376028 16.791162 54.438961 43 31 31
19.333410 16.871326 54.319225 42 31 31
19.293446 16.953300 54.206936 41 31 31
19.256231 17.037228 54.102379 41 31 31
19.221802 17.123184 54.005646 40 30 30
19.190144 17.211208 53.916698 39 29 30
19.161198 17.301298 53.835373 38 28 29
19.134882 17.393429 53.761436 38 28 29
19.111099 17.487556 53.694614 37 28 30
19.089735 17.583628 53.634594 37 27 31
19.070694 17.681589 53.581093 37 27 31
19.053865 17.781387 53.533810 37 27 31
19.039164 17.882980 53.492508 36 26 30
19.026506 17.986328 53.456947 35 26 29
19.015820 18.091394 53.426918 34 25 28
19.007040 18.198158 53.402248 35 26 28
19.000095 18.306585 53.382740 36 26 28
18.994930 18.416653 53.368225 36 27 28
18.991467 18.528318 53.358498 36 27 28
18.989630 18.641537 53.353336 35 27 28
18.989328 18.756250 53.352486 35 27 28
18.990459 18.872385 53.355663 35 27 27
18.992899 18.989841 53.362518 34 27 26
18.996513 19.108509 53.372677 34 27 26
19.001150 19.228254 53.385704 35 27 26
19.006645 19.348930 53.401142 35 27 26
19.012821 19.470369 53.418495 35 27 26
19.019495 19.592396 53.437244 35 27 25
19.026474 19.714821 53.456852 37 27 25
19.258284 3.139994 53.782410 78 40 47
19.267691 3.257521 53.808681 79 41 48
19.277327 3.375201 53.835594 80 42 49
19.287136 3.493029 53.862988 82 42 49
19.297062 3.610997 53.890705 82 42 49
19.307047 3.729096 53.918591 82 43 48
19.317043 3.847317 53.946507 81 41 47
19.327002 3.965651 53.974319 79 40 45
19.336880 4.084088 54.001907 78 40 45
19.346636 4.202617 54.029152 77 40 45
19.356236 4.321229 54.055958 76 40 46
19.365646 4.439913 54.082241 75 40 46
19.374847 4.558661 54.107933 74 40 47
19.383816 4.677464 54.132984 75 39 46
19.392532 4.796312 54.157326 75 39 46
19.400990 4.915199 54.180943 74 39 46
19.409174 5.034118 54.203800 74 40 46
19.417082 5.153062 54.225887 74 40 47
19.424709 5.272025 54.247185 74 40 47
19.432060 5.391003 54.267715 74 40 48
19.439135 5.509991 54.287472 73 40 48
19.445942 5.628987 54.306484 73 40 47
19.452496 5.747989 54.324780 73 40 47
19.458807 5.866999 54.342411 74 40 46
19.464901 5.986016 54.359428 73 39 44
19.470804 6.105048 54.375912 73 39 43
19.476545 6.224099 54.391949 72 38 42
19.482166 6.343180 54.407642 72 37 41
19.487707 6.462302 54.423119 71 37 41
19.493217 6.581480 54.438507 70 37 41
19.498753 6.700733 54.453964 69 36 40
19.504368 6.820081 54.469646 67 35 39
19.510124 6.939547 54.485725 67 34 38
19.516088 7.059157 54.502377 66 34 37
19.522320 7.178937 54.519783 66 34 37
19.528879 7.298915 54.538101 65 34 37
19.535830 7.419120 54.557510 65 33 36
19.543222 7.539580 54.578159 64 33 36
19.551111 7.660323 54.600189 64 32 36
19.559536 7.781374 54.623714 63 32 36
19.568533 7.902758 54.648838 63 32 36
19.578123 8.024493 54.675621 63 31 36
19.588327 8.146600 54.704121 63 31 36
19.599148 8.269088 54.734337 63 31 36
19.610582 8.391971 54.766270 63 30 36
19.622610 8.515247 54.799858 62 30 36
19.635210 8.638921 54.835049 62 31 36
19.648342 8.762983 54.871723 63 32 36
19.661963 8.887425 54.909760 64 32 37
19.676020 9.012231 54.949017 65 34 37
19.690456 9.137382 54.989334 66 34 38
19.705202 9.262852 55.030518 66 34 38
19.720190 9.388615 55.072372 65 34 38
19.735348 9.514640 55.114704 64 34 38
19.750599 9.640893 55.157295 64 34 38
19.765877 9.767343 55.199959 64 34 38
19.781103 9.893950 55.242481 64 34 39
19.796215 10.020685 55.284683 64 35 39
19.811157 10.147513 55.326412 64 36 39
19.825872 10.274405 55.367508 65 36 39
19.840328 10.401337 55.407879 64 36 40
19.854492 10.528289 55.447437 64 37 40
19.868353 10.655248 55.486145 64 37 40
19.881907 10.782207 55.523994 63 36 39
19.895161 10.909166 55.561012 61 34 37
19.908144 11.036134 55.597267 60 34 36
19.920885 11.163123 55.632851 61 34 37
19.933430 11.290154 55.667885 61 34 37
19.945831 11.417254 55.702518 61 34 38
19.958141 11.544451 55.736897 61 35 38
19.970421 11.671777 55.771187 61 35 38
19.982725 11.799267 55.805553 62 37 39
19.995113 11.926954 55.840145 62 38 40
20.007620 12.054861 55.875072 61 38 40
20.020298 12.183024 55.910480 59 37 39
20.033190 12.311472 55.946484 56 35 37
20.046320 12.440222 55.983154 54 34 36
20.059711 12.569293 56.020546 53 33 35
20.073374 12.698697 56.058704 52 33 35
20.087301 12.828435 56.097595 53 33 35
20.101482 12.958506 56.137203 53 33 36
20.115894 13.088897 56.177452 53 33 37
20.130487 13.219579 56.218208 54 34 37
20.145201 13.350516 56.259293 54 34 37
20.159950 13.481657 56.300488 53 34 38
20.174622 13.612921 56.341457 53 33 38
20.189081 13.744217 56.381836 53 33 37
20.203144 13.875417 56.421116 53 32 37
20.216612 14.006371 56.458725 52 32 37
20.229229 14.136896 56.493961 52 31 36
20.240711 14.266770 56.526024 52 31 36
20.250727 14.395741 56.553993 52 31 35
20.258921 14.523527 56.576878 52 31 35
20.264908 14.649816 56.593597 52 32 35
20.268280 14.774270 56.603016 52 32 35
20.268629 14.896544 56.603992 51 33 35
20.265551 15.016283 56.595398 49 33 35
20.258673 15.133145 56.576187 48 33 34
20.247671 15.246819 56.545460 47 32 32
20.232277 15.357028 56.502472 46 32 32
20.212311 15.463553 56.446712 46 31 32
20.187689 15.566247 56.377949 46 31 32
20.158434 15.665046 56.296249 45 30 31
20.124689 15.759976 56.202015 45 30 31
20.086712 15.851159 56.095955 45 29 30
20.044872 15.938813 55.979107 44 29 30
19.999641 16.023247 55.852791 45 29 29
19.951571 16.104845 55.718548 45 29 29
19.901283 16.184061 55.578106 45 29 29
19.849438 16.261395 55.433319 45 30 30
19.796705 16.337372 55.286053 44 30 30
19.743752 16.412531 55.138168 44 30 30
19.691202 16.487391 54.991417 44 31 30
19.639637 16.562449 54.847412 44 31 30
19.589563 16.638151 54.707573 43 31 30
19.541407 16.714891 54.573082 43 31 31
19.495512 16.792999 54.444912 42 31 31
19.452131 16.872738 54.323769 41 31 31
19.411446 16.954304 54.210144 41 31 31
19.373549 17.037836 54.104313 40 30 31
19.338478 17.123413 54.006367 39 29 30
19.306213 17.211069 53.916264 38 28 29
19.276701 17.300806 53.833843 38 28 29
19.249849 17.392593 53.758854 38 28 29
19.225563 17.486389 53.691029 37 27 30
19.203728 17.582138 53.630051 37 27 30
19.184238 17.679787 53.575626 37 27 31
19.166996 17.779282 53.527473 37 27 31
19.151907 17.880581 53.485332 36 26 30
19.138891 17.983648 53.448982 35 26 29
19.127871 18.088446 53.418205 34 25 28
19.118786 18.194950 53.392838 34 25 28
19.111567 18.303135 53.372677 35 26 28
19.106157 18.412973 53.357567 36 27 28
19.102482 18.524431 53.347301 36 27 28
19.100464 18.637461 53.341667 36 27 28
19.100014 18.752005 53.340412 35 27 28
19.101027 18.867990 53.343243 35 27 27
19.103386 18.985325 53.349831 34 26 26
19.106951 19.103893 53.359783 34 26 25
19.111572 19.223566 53.372688 34 27 25
19.117081 19.344194 53.388073 34 27 25
19.123299 19.465611 53.405437 34 27 25
19.130043 19.587641 53.424274 35 27 25
19.411552 3.262204 53.886044 79 41 48
19.420710 3.379958 53.911465 80 42 49
19.430002 3.497846 53.937260 81 41 48
19.439371 3.615859 53.963264 81 41 48
19.448767 3.733990 53.989349 80 41 46
19.458141 3.852229 54.015373 79 40 45
19.467449 3.970566 54.041210 77 39 44
19.476645 4.088991 54.066738 76 39 44
19.485695 4.207495 54.091862 75 39 45
19.494564 4.326067 54.116482 74 39 46
19.503225 4.444698 54.140526 73 39 46
19.511656 4.563378 54.163929 73 39 46
19.519833 4.682099 54.186630 73 39 46
19.527744 4.800852 54.208591 73 39 46
19.535376 4.919629 54.229774 73 39 46
19.542719 5.038423 54.250156 72 38 45
19.549767 5.157228 54.269722 71 39 45
19.556524 5.276038 54.288483 71 39 45
19.562986 5.394848 54.306423 71 40 46
19.569160 5.513654 54.323563 70 39 45
19.575060 5.632454 54.339935 70 39 44
19.580690 5.751246 54.355564 70 39 44
19.586073 5.870032 54.370510 71 39 44
19.591232 5.988814 54.384830 71 39 44
19.596197 6.107597 54.398613 72 39 43
19.601000 6.226388 54.411945 72 38 42
19.605680 6.345196 54.424938 72 38 42
19.610283 6.464035 54.437717 71 38 42
19.614864 6.582922 54.450436 71 37 41
19.619476 6.701874 54.463238 70 36 41
19.624182 6.820914 54.476295 68 35 40
19.629042 6.940064 54.489788 68 35 39
19.634123 7.059353 54.503891 67 35 38
19.639490 7.178807 54.518791 67 35 38
19.645210 7.298456 54.534672 66 35 37
19.651344 7.418330 54.551697 65 34 37
19.657951 7.538459 54.570038 64 34 36
19.665083 7.658871 54.589840 63 33 36
19.672789 7.779595 54.611229 63 32 36
19.681110 7.900660 54.634327 62 32 36
19.690073 8.022084 54.659210 62 31 35
19.699699 8.143891 54.685936 61 31 35
19.710007 8.266098 54.714542 61 30 35
19.720989 8.388716 54.745029 61 29 34
19.732639 8.511753 54.777370 61 30 35
19.744934 8.635212 54.811504 62 31 35
19.757851 8.759092 54.847359 63 31 36
19.771341 8.883387 54.884811 63 32 36
19.785362 9.008083 54.923729 64 32 36
19.799858 9.133166 54.963970 65 33 37
19.814766 9.258617 55.005356 65 33 37
19.830017 9.384407 55.047691 64 33 37
19.845539 9.510509 55.090778 63 33 37
19.861252 9.636891 55.134399 62 33 36
19.877089 9.763521 55.178360 62 33 37
19.892971 9.890364 55.222450 62 33 37
19.908823 10.017381 55.266457 63 34 38
19.924585 10.144542 55.310211 63 35 38
19.940195 10.271812 55.353542 63 36 38
19.955605 10.399167 55.396320 63 36 39
19.970778 10.526580 55.438438 63 36 39
19.985687 10.654035 55.479828 63 36 39
20.000319 10.781518 55.520443 61 36 37
20.014673 10.909026 55.560295 60 35 36
20.028769 11.036562 55.599419 60 34 36
20.042620 11.164130 55.637871 61 35 37
20.056267 11.291750 55.675755 61 35 37
20.069748 11.419439 55.713181 61 35 37
20.083113 11.547222 55.750278 61 34 37
20.096415 11.675129 55.787205 60 34 37
20.109701 11.803185 55.824089 61 36 38
20.123026 11.931424 55.861076 62 38 40
20.136421 12.059865 55.898266 61 38 40
20.149940 12.188540 55.935791 59 36 39
20.163616 12.317472 55.973755 57 35 37
20.177477 12.446684 56.012234 54 34 36
20.191544 12.576189 56.051281 53 33 35
20.205824 12.705996 56.090919 52 32 35
20.220320 12.836111 56.131161 52 32 36
20.235018 12.966530 56.171967 53 33 36
20.249893 13.097239 56.213257 53 33 37
20.264900 13.228211 56.254913 52 33 37
20.279982 13.359413 56.296783 52 33 37
20.295055 13.490789 56.338627 51 33 36
20.310009 13.622267 56.380138 51 33 36
20.324703 13.753747 56.420933 52 32 36
20.338970 13.885111 56.460533 52 32 36
20.352596 14.016205 56.498360 52 31 35
20.365332 14.146843 56.533710 51 31 35
20.376886 14.276806 56.565788 51 31 35
20.386934 14.405844 56.593685 51 31 34
20.395113 14.533668 56.616383 51 31 34
20.401031 14.659967 56.632816 51 32 34
20.404280 14.784402 56.641830 51 32 34
20.404444 14.906622 56.642284 50 33 34
20.401119 15.026276 56.633060 49 33 34
20.393930 15.143019 56.613102 48 33 33
20.382542 15.256533 56.581486 47 32 32
20.366688 15.366542 56.537476 46 32 32
20.346189 15.472830 56.480572 46 32 32
20.320959 15.575244 56.410534 45 31 32
20.291027 15.673726 56.327446 44 30 31
20.256538 15.768302 56.231705 44 30 30
20.217758 15.859098 56.124050 44 30 30
20.175058 15.946334 56.005520 44 29 30
20.128925 16.030323 55.877453 43 29 29
20.079918 16.111454 55.741413 44 29 29
20.028671 16.190189 55.599155 44 29 29
19.975853 16.267031 55.452530 43 29 29
19.922148 16.342512 55.303448 42 29 30
19.868227 16.417171 55.153763 42 30 30
19.814732 16.491541 55.005257 42 30 30
19.762241 16.566114 54.859550 42 30 30
19.711277 16.641344 54.718071 42 30 31
19.662266 16.717627 54.582016 42 30 31
19.615557 16.795294 54.452354 42 30 31
19.571405 16.874609 54.329792 41 30 31
19.529989 16.955767 54.214821 40 29 31
19.491405 17.038906 54.107712 39 29 31
19.455688 17.124107 54.008560 38 29 30
19.422817 17.211405 53.917316 38 28 29
19.392735 17.300795 53.833805 38 28 29
19.365351 17.392248 53.757790 37 28 29
19.340561 17.485720 53.688972 37 27 29
19.318254 17.581154 53.627048 37 27 30
19.298323 17.678497 53.571720 37 26 31
19.280664 17.777699 53.522701 36 26 31
19.265186 17.878710 53.479733 35 25 30
19.251806 17.981499 53.442593 35 25 29
19.240452 18.086027 53.411068 34 25 28
19.231056 18.192278 53.384991 34 26 27
19.223557 18.300217 53.364170 35 26 28
19.217890 18.409822 53.348438 36 27 28
19.213989 18.521065 53.337608 36 27 28
19.211777 18.633898 53.331470 36 27 28
19.211161 18.748262 53.329762 36 27 28
19.212042 18.864088 53.332207 35 27 27
19.214298 18.981283 53.338470 34 27 26
19.217793 19.099735 53.348167 34 26 26
19.222370 19.219313 53.360878 33 27 25
19.227869 19.339872 53.376144 33 27 25
19.234108 19.461246 53.393463 33 27 25
19.565184 3.384847 53.989445 80 42 49
19.573957 3.502800 54.013653 80 41 48
19.582771 3.620865 54.037971 79 40 46
19.591572 3.739033 54.062260 78 40 46
19.600321 3.857294 54.086403 77 40 45
19.608973 3.975640 54.110275 76 39 44
19.617485 4.094060 54.133766 75 38 43
19.625826 4.212545 54.156784 73 39 44
19.633965 4.331084 54.179241 73 39 45
19.641876 4.449668 54.201073 72 39 46
19.649534 4.568288 54.222206 72 39 46
19.656923 4.686934 54.242596 72 38 46
19.664024 4.805599 54.262192 71 38 46
19.670834 4.924274 54.280983 70 37 44
19.677340 5.042953 54.298935 70 38 44
19.683538 5.161629 54.316040 70 38 43
19.689430 5.280296 54.332298 69 38 43
19.695017 5.398950 54.347713 68 38 43
19.700302 5.517585 54.362297 68 37 42
19.705296 5.636200 54.376080 67 37 41
19.710016 5.754795 54.389099 67 37 41
19.714479 5.873369 54.401417 68 38 41
19.718712 5.991927 54.413097 69 38 42
19.722742 6.110472 54.424221 70 38 43
19.726606 6.229012 54.434883 71 38 42
19.730349 6.347559 54.445210 71 38 42
19.734016 6.466126 54.455330 71 38 42
19.737659 6.584729 54.465385 70 37 42
19.741343 6.703389 54.475544 70 37 41
19.745123 6.822126 54.485981 69 36 40
19.749069 6.940967 54.496868 69 36 40
19.753250 7.059937 54.508408 68 35 39
19.757734 7.179069 54.520779 67 35 39
19.762587 7.298389 54.534168 67 35 38
19.767874 7.417931 54.548763 65 35 37
19.773664 7.537726 54.564739 64 34 37
19.780010 7.657806 54.582249 63 33 36
19.786966 7.778202 54.601444 62 32 35
19.794577 7.898941 54.622444 61 32 35
19.802876 8.020049 54.645344 61 31 34
19.811893 8.141553 54.670231 61 31 35
19.821648 8.263469 54.697144 60 30 34
19.832144 8.385817 54.726109 60 29 34
19.843380 8.508605 54.757114 60 29 34
19.855343 8.631844 54.790127 61 30 35
19.868004 8.755532 54.825066 62 31 35
19.881336 8.879672 54.861858 63 31 35
19.895292 9.004251 54.900364 64 32 36
19.909822 9.129260 54.940460 64 32 36
19.924864 9.254680 54.981968 64 32 36
19.940351 9.380489 55.024708 63 32 36
19.956215 9.506660 55.068481 62 32 36
19.972378 9.633165 55.113079 61 32 35
19.988758 9.759969 55.158283 60 32 35
20.005278 9.887035 55.203869 60 32 36
20.021862 10.014332 55.249634 61 33 36
20.038439 10.141821 55.295376 61 34 37
20.054939 10.269468 55.340908 61 35 37
20.071306 10.397243 55.386070 62 35 38
20.087490 10.525116 55.430729 62 35 38
20.103460 10.653069 55.474796 61 36 38
20.119186 10.781081 55.518196 60 35 37
20.134665 10.909145 55.560905 60 35 36
20.149891 11.037256 55.602921 60 34 36
20.164881 11.165418 55.644287 60 35 37
20.179659 11.293639 55.685066 61 35 37
20.194258 11.421934 55.725353 61 35 37
20.208717 11.550324 55.765255 60 34 37
20.223082 11.678829 55.804886 59 34 36
20.237394 11.807477 55.844383 60 36 37
20.251705 11.936294 55.883873 62 38 40
20.266035 12.065291 55.923416 61 37 40
20.280437 12.194504 55.963161 59 36 39
20.294945 12.323951 56.003193 57 34 37
20.309582 12.453650 56.043583 55 33 36
20.324368 12.583615 56.084381 53 32 35
20.339310 12.713855 56.125618 52 32 35
20.354414 12.844374 56.167294 52 32 36
20.369661 12.975164 56.209373 52 32 36
20.385035 13.106216 56.251793 51 32 35
20.400490 13.237505 56.294441 51 32 35
20.415968 13.368993 56.337151 50 32 35
20.431387 13.500625 56.379700 50 32 35
20.446642 13.632332 56.421795 50 32 35
20.461594 13.764016 56.463055 50 32 34
20.476070 13.895555 56.503006 51 31 34
20.489862 14.026799 56.541065 51 30 34
20.502720 14.157561 56.576542 50 30 33
20.514351 14.287621 56.608635 50 30 33
20.524422 14.416724 56.636429 50 30 33
20.532572 14.544587 56.658920 51 31 33
20.538406 14.670892 56.675018 50 32 33
20.541513 14.795302 56.683594 49 32 32
20.541468 14.917459 56.683468 48 32 32
20.537868 15.037015 56.673534 48 32 32
20.530329 15.153619 56.652729 47 32 32
20.518517 15.266953 56.620132 47 32 32
20.502165 15.376743 56.575008 45 31 31
20.481091 15.482769 56.516857 45 31 31
20.455212 15.584883 56.445442 45 31 31
20.424557 15.683022 56.360855 44 31 31
20.389278 15.777219 56.263504 43 30 30
20.349646 15.867600 56.154140 43 30 30
20.306044 15.954392 56.033821 43 29 30
20.258966 16.037912 55.903912 43 29 29
20.208984 16.118559 55.765987 43 29 28
20.156740 16.196791 55.621826 43 29 28
20.102917 16.273123 55.473297 42 29 29
20.048206 16.348091 55.322327 41 29 30
19.993292 16.422243 55.170795 41 29 29
19.938826 16.496109 55.020496 41 30 29
19.885395 16.570192 54.873055 41 30 30
19.833523 16.644947 54.729916 41 31 31
19.783646 16.720772 54.592281 41 31 31
19.736113 16.797997 54.461117 41 31 31
19.691183 16.876888 54.337135 41 30 31
19.649035 16.957645 54.220829 40 29 31
19.609764 17.040401 54.112461 40 29 31
19.573402 17.125238 54.012123 38 28 30
19.539932 17.212185 53.919762 37 28 30
19.509281 17.301237 53.835182 37 28 30
19.481369 17.392368 53.758160 37 27 29
19.456081 17.485527 53.688381 37 27 29
19.433308 17.580658 53.625534 36 27 30
19.412937 17.677708 53.569324 36 26 30
19.394867 17.776623 53.519463 36 25 30
19.379002 17.877356 53.475681 36 25 29
19.365257 17.979870 53.437756 35 26 29
19.353563 18.084137 53.405487 34 25 28
19.343855 18.190130 53.378693 35 26 27
19.336067 18.297829 53.357204 35 26 28
19.330135 18.407202 53.340839 36 27 28
19.325998 18.518219 53.329418 36 27 28
19.323576 18.630846 53.322735 36 27 28
19.322779 18.745018 53.320538 36 27 28
19.323505 18.860668 53.322540 35 27 27
19.325640 18.977709 53.328430 34 27 27
19.329039 19.096025 53.337807 33 27 26
19.333553 19.215492 53.350269 33 27 26
19.339018 19.335960 53.365345 33 27 26
19.345251 19.457268 53.382545 33 27 25
19.710615 3.389843 54.069130 80 42 49
19.718868 3.507866 54.091766 79 41 47
19.727121 3.625986 54.114407 77 40 45
19.735329 3.744196 54.136917 76 39 45
19.743446 3.862485 54.159191 76 39 44
19.751436 3.980844 54.181107 75 39 44
19.759260 4.099264 54.202568 74 38 43
19.766891 4.217734 54.223499 72 38 44
19.774294 4.336246 54.243809 71 38 45
19.781450 4.454788 54.263439 72 39 46
19.788338 4.573354 54.282333 72 39 46
19.794939 4.691933 54.300438 71 38 46
19.801241 4.810517 54.317726 70 37 45
19.807230 4.929099 54.334156 69 37 44
19.812904 5.047670 54.349724 69 37 43
19.818258 5.166225 54.364410 68 36 42
19.823292 5.284759 54.378216 68 36 41
19.828007 5.403265 54.391151 66 36 41
19.832411 5.521740 54.403233 65 36 40
19.836514 5.640182 54.414486 65 36 39
19.840330 5.758589 54.424957 65 36 39
19.843882 5.876962 54.434696 66 36 39
19.847193 5.995305 54.443779 67 37 40
19.850294 6.113623 54.452286 68 38 41
19.853226 6.231924 54.460327 69 38 42
19.856030 6.350218 54.468018 70 38 42
19.858755 6.468521 54.475498 70 38 42
19.861460 6.586849 54.482918 70 37 42
19.864201 6.705221 54.490437 69 37 41
19.867044 6.823661 54.498238 68 36 40
19.870064 6.942195 54.506519 68 36 40
19.873323 7.060852 54.515461 68 35 39
19.876898 7.179659 54.525265 67 35 39
19.880857 7.298651 54.536125 66 35 39
19.885277 7.417861 54.548248 65 35 38
19.890217 7.537321 54.561802 64 34 37
19.895742 7.657064 54.576958 63 33 36
19.901913 7.777124 54.593884 61 32 35
19.908775 7.897533 54.612713 60 32 35
19.916376 8.018320 54.633560 60 31 34
19.924747 8.139512 54.656525 60 31 34
19.933914 8.261131 54.681667 60 30 34
19.943890 8.383200 54.709038 60 30 34
19.954679 8.505733 54.738632 59 29 33
19.966272 8.628741 54.770435 60 30 34
19.978651 8.752231 54.804390 61 30 34
19.991793 8.876205 54.840439 62 31 35
20.005655 9.000659 54.878464 62 31 35
20.020191 9.125585 54.918339 63 32 35
20.035345 9.250967 54.959908 63 32 35
20.051048 9.376786 55.002987 62 32 35
20.067232 9.503017 55.047379 61 31 35
20.083822 9.629636 55.092888 60 31 34
20.100729 9.756604 55.139271 59 31 34
20.117882 9.883892 55.186317 59 32 34
20.135187 10.011460 55.233791 59 32 35
20.152573 10.139273 55.281479 59 33 36
20.169962 10.267292 55.329182 60 34 37
20.187286 10.395485 55.376705 60 35 37
20.204491 10.523820 55.423901 61 35 38
20.221533 10.652272 55.470646 60 35 38
20.238371 10.780818 55.516838 60 34 37
20.254990 10.909445 55.562428 59 34 36
20.271376 11.038141 55.607380 59 34 36
20.287537 11.166907 55.651707 60 34 37
20.303482 11.295744 55.695446 60 34 37
20.319237 11.424664 55.738667 61 35 37
20.334831 11.553678 55.781445 61 35 37
20.350302 11.682805 55.823883 60 35 37
20.365688 11.812066 55.866089 60 36 38
20.381029 11.941483 55.908173 61 37 39
20.396345 12.071066 55.950184 61 37 39
20.411680 12.200843 55.992252 59 36 39
20.427067 12.330832 56.034462 57 34 37
20.442528 12.461047 56.076870 56 33 36
20.458076 12.591500 56.119522 54 32 35
20.473728 12.722200 56.162457 52 31 35
20.489475 12.853147 56.205658 51 31 35
20.505316 12.984337 56.249107 51 31 35
20.521221 13.115757 56.292740 51 31 35
20.537151 13.247381 56.336441 50 33 36
20.553053 13.379174 56.380058 50 33 35
20.568842 13.511083 56.423370 49 32 34
20.584417 13.643036 56.466095 49 31 33
20.599640 13.774937 56.507854 49 31 33
20.614338 13.906663 56.548168 49 30 32
20.628302 14.038065 56.586475 49 29 32
20.641277 14.168953 56.622070 49 29 32
20.652977 14.299112 56.654167 48 30 31
20.663063 14.428283 56.681835 49 30 32
20.671171 14.556179 56.704075 48 31 32
20.676903 14.682484 56.719799 48 31 32
20.679844 14.806857 56.727863 48 31 32
20.679562 14.928940 56.727089 47 31 31
20.675652 15.048380 56.716366 46 32 31
20.667728 15.164827 56.694633 45 32 31
20.655458 15.277966 56.660973 46 31 31
20.638565 15.387512 56.614632 45 31 31
20.616871 15.493251 56.555119 45 31 31
20.590298 15.595038 56.482227 44 31 31
20.558876 15.692812 56.396034 44 30 31
20.522764 15.786604 56.296974 44 30 30
20.482239 15.876548 56.185802 43 30 30
20.437696 15.962876 56.063622 43 29 30
20.389635 16.045908 55.931778 42 29 29
20.338642 16.126047 55.791901 42 29 29
20.285372 16.203764 55.645767 42 29 29
20.230513 16.279572 55.495285 42 29 29
20.174774 16.354017 55.342381 41 29 29
20.118849 16.427652 55.188972 40 29 29
20.063393 16.501013 55.036850 40 29 29
20.009008 16.574604 54.887665 40 30 30
19.956223 16.648884 54.742863 40 30 30
19.905474 16.724253 54.603649 40 31 31
19.857115 16.801044 54.470993 40 31 31
19.811409 16.879522 54.345615 41 30 31
19.768532 16.959890 54.228001 40 29 31
19.728579 17.042273 54.118404 39 29 31
19.691582 17.126757 54.016918 38 28 30
19.657513 17.213366 53.923462 37 28 30
19.626308 17.302099 53.837864 36 27 30
19.597874 17.392920 53.759865 36 27 29
19.572100 17.485779 53.689156 36 27 28
19.548870 17.580624 53.625435 36 26 29
19.528069 17.677393 53.568375 36 26 29
19.509592 17.776033 53.517689 36 26 29
19.493343 17.876499 53.473118 36 26 29
19.479240 17.978752 53.434433 35 26 29
19.467209 18.082764 53.401428 35 26 28
19.457182 18.188507 53.373924 35 26 27
19.449100 18.295959 53.351753 35 26 27
19.442900 18.405098 53.334743 35 26 27
19.438513 18.515892 53.322712 35 26 27
19.435867 18.628302 53.315453 36 27 27
19.434872 18.742271 53.312725 35 27 27
19.435429 18.857735 53.314247 35 27 27
19.437414 18.974602 53.319695 34 27 27
19.440697 19.092766 53.328705 34 28 27
19.445122 19.212095 53.340839 33 27 26
19.450523 19.332449 53.355659 33 27 26
19.864586 3.513015 54.171162 76 41 46
19.872272 3.631194 54.192123 75 40 45
19.879877 3.749448 54.212864 75 40 45
19.887362 3.867768 54.233269 75 39 44
19.894686 3.986144 54.253242 74 39 44
19.901817 4.104567 54.272690 72 38 43
19.908730 4.223027 54.291542 71 38 44
19.915398 4.341515 54.309727 70 38 45
19.921797 4.460021 54.327179 70 38 46
19.927912 4.578537 54.343849 70 38 47
19.933723 4.697053 54.359699 69 37 45
19.939222 4.815563 54.374699 68 36 44
19.944399 4.934057 54.388817 68 36 43
19.949249 5.052529 54.402039 67 36 42
19.953764 5.170971 54.414352 67 36 41
19.957947 5.289379 54.425758 66 35 40
19.961800 5.407747 54.436268 65 35 40
19.965330 5.526070 54.445892 64 35 39
19.968550 5.644347 54.454670 63 35 38
19.971472 5.762576 54.462639 64 35 37
19.974117 5.880758 54.469852 65 35 38
19.976513 5.998896 54.476387 66 36 39
19.978691 6.116996 54.482330 67 37 40
19.980690 6.235065 54.487782 68 37 41
19.982555 6.353115 54.492867 69 37 42
19.984335 6.471160 54.497719 69 37 42
19.986090 6.589217 54.502506 69 37 42
19.987883 6.707307 54.507393 68 36 41
19.989777 6.825454 54.512558 67 36 40
19.991846 6.943684 54.518204 67 35 39
19.994164 7.062025 54.524525 67 35 39
19.996807 7.180511 54.531731 66 35 39
19.999849 7.299173 54.540028 65 35 39
20.003365 7.418046 54.549610 64 35 38
20.007423 7.537166 54.560680 62 34 37
20.012098 7.656569 54.573429 61 33 36
20.017448 7.776289 54.588020 59 32 35
20.023531 7.896361 54.604607 59 31 34
20.030396 8.016818 54.623329 59 31 34
20.038086 8.137691 54.644302 59 31 34
20.046631 8.259006 54.667603 59 31 34
20.056049 8.380787 54.693287 59 30 34
20.066359 8.503056 54.721401 60 30 34
20.077553 8.625826 54.751926 61 30 34
20.089619 8.749107 54.784832 61 31 34
20.102539 8.872908 54.820068 61 31 35
20.116283 8.997229 54.857544 61 31 35
20.130798 9.122061 54.897129 61 31 35
20.146040 9.247396 54.938690 61 31 35
20.161942 9.373218 54.982056 61 31 35
20.178429 9.499502 55.027016 61 31 34
20.195427 9.626224 55.073368 60 31 34
20.212852 9.753352 55.120892 59 31 33
20.230619 9.880852 55.169342 58 31 33
20.248640 10.008686 55.218487 58 32 34
20.266832 10.136817 55.268097 58 33 35
20.285109 10.265205 55.317936 58 33 36
20.303398 10.393815 55.367813 59 34 36
20.321634 10.522613 55.417545 59 34 37
20.339758 10.651565 55.466965 59 34 37
20.357727 10.780649 55.515972 59 34 37
20.375511 10.909844 55.564465 59 33 36
20.393087 11.039137 55.612392 59 33 36
20.410446 11.168517 55.659733 59 33 36
20.427595 11.297986 55.706501 59 33 36
20.444544 11.427544 55.752720 60 34 37
20.461319 11.557203 55.798466 61 35 38
20.477943 11.686974 55.843800 61 35 38
20.494452 11.816872 55.888817 61 36 38
20.510872 11.946914 55.933598 60 36 39
20.527222 12.077107 55.978184 60 36 39
20.543543 12.207476 56.022690 59 35 39
20.559860 12.338034 56.067188 57 34 38
20.576191 12.468792 56.111725 55 33 36
20.592550 12.599760 56.156338 54 31 35
20.608953 12.730947 56.201065 52 31 35
20.625389 12.862347 56.245888 51 30 34
20.641855 12.993959 56.290791 50 30 34
20.658323 13.125768 56.335705 50 32 35
20.674763 13.257749 56.380531 50 34 37
20.691111 13.389866 56.425114 50 33 36
20.707291 13.522065 56.469238 49 32 34
20.723200 13.654277 56.512623 48 32 33
20.738705 13.786406 56.554901 48 31 32
20.753626 13.918325 56.595592 48 30 31
20.767761 14.049890 56.634140 48 29 30
20.780853 14.180908 56.669842 49 29 31
20.792612 14.311162 56.701908 48 29 31
20.802700 14.440394 56.729416 48 30 31
20.810747 14.568318 56.751366 47 31 31
20.816353 14.694612 56.766651 46 31 31
20.819096 14.818933 56.774132 46 31 31
20.818548 14.940928 56.772640 46 31 31
20.814299 15.060234 56.761047 45 31 31
20.805954 15.176505 56.738289 44 32 31
20.793179 15.289420 56.703453 44 31 31
20.775707 15.398705 56.655811 44 31 31
20.753353 15.504135 56.594849 44 31 31
20.726042 15.605571 56.520370 44 31 31
20.693813 15.702954 56.432484 44 30 31
20.656832 15.796323 56.331631 44 30 30
20.615377 15.885811 56.218586 43 30 30
20.569855 15.971654 56.094448 42 29 30
20.520782 16.054182 55.960625 42 29 30
20.468750 16.133802 55.818733 42 29 30
20.414425 16.210991 55.670586 41 29 30
20.358513 16.286268 55.518112 42 30 30
20.301733 16.360189 55.363270 41 29 30
20.244781 16.433306 55.207966 40 29 30
20.188332 16.506161 55.054024 40 29 30
20.132988 16.579264 54.903099 40 30 29
20.079285 16.653076 54.756649 40 30 29
20.027666 16.727999 54.615883 40 31 30
19.978489 16.804369 54.481773 40 31 31
19.932013 16.882448 54.355038 40 30 31
19.888418 16.962439 54.236153 40 29 31
19.847794 17.044468 54.125370 39 29 31
19.810173 17.128614 54.022778 38 27 30
19.775526 17.214909 53.928291 36 27 30
19.743780 17.303337 53.841721 35 27 29
19.714840 17.393869 53.762798 35 26 29
19.688591 17.486452 53.691219 35 26 28
19.664917 17.581026 53.626659 35 26 28
19.643698 17.677532 53.568794 35 26 28
19.624826 17.775913 53.517330 36 26 29
19.608206 17.876127 53.472008 36 26 29
19.593748 17.978130 53.432583 36 26 28
19.581383 18.081894 53.398861 36 26 27
19.571043 18.187395 53.370663 35 26 27
19.562664 18.294607 53.347813 35 26 26
19.556183 18.403509 53.330143 35 26 26
19.551540 18.514074 53.317482 35 26 26
19.548658 18.626263 53.309620 35 26 27
19.547449 18.740021 53.306320 35 26 27
19.547813 18.855282 53.307312 35 27 28
19.549631 18.971960 53.312275 34 27 27
19.552771 19.089949 53.320835 34 27 27
19.557077 19.209120 53.332581 34 28 27
19.562389 19.329334 53.347061 34 28 27
20.018063 3.636456 54.270664 75 40 45
20.025057 3.754757 54.289627 75 40 45
20.031897 3.873110 54.308170 74 39 44
20.038548 3.991505 54.326202 73 38 43
20.044981 4.109933 54.343643 71 38 43
20.051174 4.228385 54.360432 70 38 45
20.057098 4.346852 54.376492 70 38 46
20.062738 4.465325 54.391785 69 38 46
20.068079 4.583795 54.406261 68 37 46
20.073103 4.702254 54.419884 68 36 44
20.077803 4.820693 54.432625 67 35 43
20.082167 4.939105 54.444454 67 35 42
20.086193 5.057482 54.455372 66 35 41
20.089874 5.175818 54.465355 66 35 41
20.093214 5.294107 54.474403 65 35 40
20.096214 5.412344 54.482536 64 35 39
20.098879 5.530523 54.489765 63 35 38
20.101221 5.648643 54.496113 62 34 37
20.103254 5.766701 54.501625 63 34 37
20.105003 5.884700 54.506367 64 35 37
20.106487 6.002640 54.510391 65 36 38
20.107744 6.120529 54.513802 65 36 39
20.108812 6.238374 54.516697 66 36 40
20.109735 6.356185 54.519196 67 36 40
20.110567 6.473978 54.521450 68 36 41
20.111364 6.591769 54.523613 68 36 41
20.112192 6.709579 54.525856 67 36 41
20.113123 6.827435 54.528381 66 35 40
20.114225 6.945361 54.531368 65 35 39
20.115582 7.063388 54.535046 65 34 38
20.117266 7.181549 54.539612 65 35 39
20.119362 7.299878 54.545292 64 35 38
20.121944 7.418412 54.552296 62 35 37
20.125093 7.537187 54.560833 61 34 37
20.128881 7.656243 54.571106 60 34 36
20.133377 7.775616 54.583290 59 32 35
20.138647 7.895345 54.597576 58 32 35
20.144743 8.015465 54.614105 58 31 35
20.151718 8.136010 54.633015 59 31 35
20.159607 8.257011 54.654400 59 31 35
20.168440 8.378498 54.678349 60 31 35
20.178236 8.500493 54.704906 61 31 35
20.189001 8.623015 54.734093 62 32 35
20.200729 8.746082 54.765888 62 32 35
20.213406 8.869701 54.800255 62 32 35
20.227001 8.993877 54.837112 61 31 35
20.241476 9.118608 54.876358 61 31 35
20.256786 9.243890 54.917862 60 31 35
20.272863 9.369704 54.961449 60 31 35
20.289639 9.496035 55.006931 59 30 34
20.307034 9.622854 55.054089 58 31 33
20.324966 9.750134 55.102703 57 31 33
20.343344 9.877841 55.152531 57 31 33
20.362074 10.005935 55.203308 56 31 33
20.381069 10.134379 55.254803 57 32 34
20.400238 10.263134 55.306774 57 33 35
20.419498 10.392159 55.358990 57 33 36
20.438772 10.521417 55.411243 58 33 36
20.457998 10.650874 55.463367 58 33 36
20.477116 10.780499 55.515198 58 33 37
20.496088 10.910270 55.566628 59 33 37
20.514879 11.040166 55.617577 59 32 37
20.533472 11.170173 55.667980 58 32 36
20.551859 11.300284 55.717831 59 32 36
20.570047 11.430500 55.767139 59 33 37
20.588045 11.560821 55.815933 60 34 37
20.605869 11.691255 55.864258 60 35 38
20.623547 11.821812 55.912182 60 36 38
20.641098 11.952504 55.959766 60 36 39
20.658533 12.083332 56.007034 60 36 39
20.675888 12.214316 56.054085 59 35 38
20.693182 12.345468 56.100967 56 33 37
20.710432 12.476794 56.147736 54 32 35
20.727652 12.608304 56.194416 54 31 35
20.744841 12.739997 56.241024 52 30 34
20.762007 12.871877 56.287560 51 30 34
20.779133 13.003930 56.333988 50 31 35
20.796198 13.136147 56.380257 50 32 36
20.813168 13.268502 56.426258 50 34 37
20.829985 13.400957 56.471851 50 34 36
20.846569 13.533459 56.516815 49 33 34
20.862825 13.665938 56.560886 48 33 33
20.878613 13.798298 56.603687 47 32 31
20.893763 13.930417 56.644760 47 31 30
20.908062 14.062141 56.683525 47 29 30
20.921263 14.193288 56.719315 48 29 30
20.933065 14.323631 56.751312 48 30 30
20.943136 14.452918 56.778618 47 30 30
20.951097 14.580853 56.800198 47 31 30
20.956549 14.707122 56.814980 46 31 31
20.959064 14.831377 56.821800 45 31 32
20.958218 14.953261 56.819504 45 31 31
20.953587 15.072413 56.806950 44 31 31
20.944784 15.188487 56.783085 43 31 31
20.931471 15.301159 56.746986 43 31 31
20.913380 15.410156 56.697941 43 31 30
20.890326 15.515255 56.635441 44 31 31
20.862240 15.616320 56.559303 44 31 31
20.829170 15.713294 56.469643 45 31 31
20.791279 15.806218 56.366920 44 30 31
20.748865 15.895233 56.251930 43 30 31
20.702341 15.980580 56.125797 42 29 31
20.652227 16.062593 55.989937 42 29 31
20.599140 16.141687 55.846012 42 29 30
20.543749 16.218344 55.695843 41 30 31
20.486771 16.293091 55.541370 41 30 31
20.428938 16.366488 55.384583 41 30 31
20.370962 16.439093 55.227402 40 29 31
20.313519 16.511452 55.071667 40 29 30
20.257221 16.584078 54.919041 40 29 30
20.202608 16.657436 54.770981 40 30 29
20.150133 16.731932 54.628719 40 30 29
20.100149 16.807896 54.493206 40 30 29
20.052923 16.885597 54.365173 40 30 29
20.008627 16.965231 54.245079 39 29 29
19.967352 17.046928 54.133183 39 28 29
19.929127 17.130764 54.029552 37 28 30
19.893917 17.216763 53.934097 36 27 29
19.861652 17.304914 53.846626 35 26 29
19.832228 17.395180 53.766853 34 26 28
19.805529 17.487509 53.694466 33 26 28
19.781429 17.581837 53.629131 34 26 28
19.759809 17.678101 53.570518 35 26 28
19.740559 17.776245 53.518326 35 26 28
19.723576 17.876221 53.472282 35 27 28
19.708778 17.977991 53.432167 36 27 27
19.696085 18.081518 53.397755 36 26 27
19.685431 18.186785 53.368870 35 26 26
19.676756 18.293764 53.345352 35 26 25
19.669998 18.402437 53.327030 35 26 25
19.665089 18.512770 53.313725 35 26 26
19.661959 18.624731 53.305233 35 26 27
19.660521 18.738270 53.301338 34 26 27
19.660673 18.853315 53.301754 35 27 27
19.662302 18.969788 53.306168 34 27 27
19.665272 19.087580 53.314220 34 27 27
19.669436 19.206573 53.325504 35 29 28
20.170677 3.760087 54.366688 74 40 45
20.176867 3.878473 54.383366 73 39 44
20.182837 3.996887 54.399460 72 39 44
20.188562 4.115322 54.414894 70 38 44
20.194025 4.233767 54.429615 69 38 45
20.199203 4.352214 54.443573 69 38 47
20.204081 4.470656 54.456718 68 38 46
20.208645 4.589082 54.469017 67 36 44
20.212879 4.707486 54.480434 66 34 43
20.216780 4.825858 54.490948 66 34 42
20.220335 4.944191 54.500526 66 35 42
20.223543 5.062479 54.509174 66 35 41
20.226397 5.180714 54.516869 65 35 40
20.228897 5.298889 54.523605 65 35 40
20.231049 5.416999 54.529408 64 34 38
20.232857 5.535041 54.534279 63 34 37
20.234327 5.653009 54.538242 62 34 37
20.235479 5.770904 54.541348 62 34 36
20.236332 5.888725 54.543648 63 34 37
20.236912 6.006474 54.545208 64 35 37
20.237249 6.124158 54.546120 65 35 38
20.237383 6.241782 54.546478 65 35 38
20.237362 6.359360 54.546425 65 36 39
20.237236 6.476902 54.546082 66 36 39
20.237068 6.594431 54.545631 66 35 40
20.236923 6.711965 54.545238 66 35 40
20.236870 6.829528 54.545097 65 35 40
20.236988 6.947150 54.545414 65 35 38
20.237358 7.064860 54.546413 64 34 38
20.238062 7.182693 54.548309 63 35 38
20.239183 7.300686 54.551331 62 35 37
20.240807 7.418875 54.555706 61 34 37
20.243013 7.537301 54.561653 60 34 36
20.245886 7.656003 54.569397 59 34 36
20.249496 7.775023 54.579132 58 33 35
20.253918 7.894400 54.591045 58 32 35
20.259214 8.014176 54.605324 59 31 35
20.265442 8.134386 54.622108 59 31 35
20.272646 8.255067 54.641525 59 31 35
20.280865 8.376249 54.663677 60 31 35
20.290121 8.497963 54.688629 61 32 35
20.300430 8.620231 54.716415 62 32 36
20.311796 8.743073 54.747047 62 32 36
20.324203 8.866502 54.780487 62 32 36
20.337635 8.990528 54.816692 61 31 35
20.352053 9.115151 54.855553 60 31 35
20.367413 9.240370 54.896950 60 31 34
20.383650 9.366171 54.940720 59 31 34
20.400702 9.492538 54.986679 59 30 34
20.418486 9.619450 55.034615 58 30 33
20.436914 9.746875 55.084286 57 31 33
20.455898 9.874782 55.135452 57 30 33
20.475338 10.003132 55.187847 56 30 32
20.495136 10.131886 55.241215 56 31 33
20.515203 10.261004 55.295300 56 32 34
20.535440 10.390442 55.349846 56 32 35
20.555767 10.520161 55.404629 57 32 36
20.576107 10.650123 55.459454 57 33 36
20.596395 10.780293 55.514141 58 33 37
20.616579 10.910645 55.568539 59 33 37
20.636616 11.041151 55.622543 59 32 37
20.656473 11.171795 55.676067 58 32 35
20.676140 11.302564 55.729073 58 32 36
20.695601 11.433449 55.781528 58 32 36
20.714863 11.564449 55.833450 59 33 37
20.733934 11.695564 55.884850 60 35 38
20.752827 11.826799 55.935772 60 36 38
20.771555 11.958160 55.986252 60 36 39
20.790125 12.089646 56.036301 60 37 39
20.808559 12.221270 56.085995 59 36 38
20.826878 12.353037 56.135365 56 33 36
20.845093 12.484955 56.184460 54 31 34
20.863207 12.617024 56.233284 53 30 34
20.881229 12.749249 56.281860 52 31 34
20.899157 12.881622 56.330177 52 31 35
20.916973 13.014137 56.378204 50 31 35
20.934662 13.146777 56.425880 50 32 36
20.952181 13.279516 56.473099 50 33 37
20.969481 13.412318 56.519726 50 33 36
20.986485 13.545130 56.565556 49 33 34
21.003090 13.677880 56.610313 48 32 32
21.019161 13.810473 56.653633 47 32 31
21.034533 13.942787 56.695061 47 31 30
21.048986 14.074669 56.734024 47 30 30
21.062279 14.205934 56.769852 47 30 30
21.074108 14.336356 56.801731 47 30 30
21.084133 14.465680 56.828751 46 30 30
21.091984 14.593616 56.849911 46 30 30
21.097250 14.719840 56.864109 46 30 31
21.099506 14.844007 56.870190 45 30 31
21.098320 14.965758 56.866993 44 30 31
21.093273 15.084735 56.853386 43 30 31
21.083975 15.200588 56.828327 43 30 31
21.070084 15.312996 56.790886 42 30 31
21.051334 15.421681 56.740349 43 31 31
21.027548 15.526431 56.676235 43 31 31
20.998653 15.627104 56.598358 44 31 31
20.964708 15.723651 56.506863 44 31 31
20.925884 15.816117 56.402222 44 30 31
20.882488 15.904651 56.285255 44 30 31
20.834942 15.989493 56.157101 43 30 31
20.783779 16.070988 56.019199 43 29 31
20.729624 16.149555 55.873230 42 29 31
20.673159 16.225683 55.721043 42 30 31
20.615118 16.299908 55.564602 42 30 31
20.556240 16.372789 55.405903 41 30 31
20.497244 16.444893 55.246891 40 29 31
20.438820 16.516773 55.089417 40 29 30
20.381586 16.588943 54.935154 40 29 30
20.326084 16.661869 54.785561 39 30 28
20.272774 16.735960 54.641872 39 29 27
20.222008 16.811544 54.505039 39 29 27
20.174053 16.888893 54.375786 39 29 27
20.129082 16.968201 54.254574 38 29 28
20.087185 17.049593 54.141647 38 28 28
20.048386 17.133146 54.037067 37 28 28
20.012644 17.218882 53.940735 36 27 28
19.979887 17.306784 53.852444 35 27 28
19.950006 17.396814 53.771904 34 27 28
19.922878 17.488914 53.698784 33 26 28
19.898378 17.583023 53.632748 33 26 28
19.876379 17.679070 53.573456 34 26 28
19.856770 17.777000 53.520599 34 26 27
19.839445 17.876762 53.473907 35 27 26
19.824320 17.978315 53.433136 35 27 26
19.811312 18.081629 53.398075 35 27 25
19.800354 18.186672 53.368542 35 26 25
19.791388 18.293428 53.344372 35 26 24
19.784346 18.401871 53.325394 35 26 25
19.779169 18.511976 53.311440 35 26 25
19.775780 18.623709 53.302307 35 26 27
19.774099 18.737017 53.297775 34 26 27
19.774023 18.851837 53.297569 34 26 27
19.775440 18.968088 53.301392 34 26 27
19.778217 19.085667 53.308872 34 26 27
20.322046 3.883814 54.458263 72 39 45
20.327326 4.002247 54.472408 71 38 44
20.332340 4.120687 54.485847 69 38 44
20.337067 4.239126 54.498512 68 37 45
20.341490 4.357554 54.510368 68 38 46
20.345602 4.475965 54.521381 67 37 46
20.349382 4.594348 54.531517 65 35 44
20.352829 4.712697 54.540749 64 34 42
20.355930 4.831005 54.549061 64 34 42
20.358677 4.949262 54.556423 65 35 41
20.361067 5.067462 54.562828 65 35 41
20.363096 5.185598 54.568264 64 35 40
20.364765 5.303664 54.572739 64 35 39
20.366074 5.421652 54.576241 63 34 38
20.367027 5.539560 54.578800 62 34 37
20.367636 5.657382 54.580429 61 33 36
20.367910 5.775117 54.581165 61 33 36
20.367872 5.892764 54.581062 62 34 36
20.367546 6.010327 54.580193 63 34 36
20.366964 6.127808 54.578629 64 34 37
20.366165 6.245216 54.576485 64 35 37
20.365192 6.362561 54.573883 64 35 37
20.364103 6.479857 54.570965 65 35 38
20.362959 6.597123 54.567898 65 35 38
20.361826 6.714379 54.564861 64 34 39
20.360777 6.831651 54.562050 63 34 39
20.359892 6.948966 54.559677 62 34 38
20.359257 7.066358 54.557976 62 34 37
20.358953 7.183859 54.557163 62 34 37
20.359076 7.301510 54.557491 61 34 37
20.359711 7.419349 54.559193 61 34 36
20.360949 7.537419 54.562511 60 34 36
20.362875 7.655761 54.567669 59 34 36
20.365572 7.774421 54.574902 58 33 35
20.369120 7.893440 54.584404 58 32 35
20.373589 8.012863 54.596382 58 32 35
20.379042 8.132731 54.610996 59 31 35
20.385534 8.253082 54.628395 60 31 35
20.393110 8.373954 54.648697 60 31 36
20.401808 8.495379 54.672001 61 32 36
20.411640 8.617385 54.698349 62 32 36
20.422619 8.739995 54.727772 62 33 36
20.434746 8.863229 54.760265 62 32 36
20.447992 8.987096 54.795769 61 32 35
20.462339 9.111606 54.834213 60 31 35
20.477737 9.236754 54.875473 59 31 34
20.494129 9.362536 54.919399 59 31 34
20.511446 9.488935 54.965809 59 30 34
20.529610 9.615932 55.014484 58 30 33
20.548532 9.743496 55.065189 57 30 33
20.568117 9.871597 55.117672 57 30 33
20.588266 10.000199 55.171665 56 30 32
20.608873 10.129259 55.226887 56 31 32
20.629839 10.258736 55.283070 55 31 33
20.651062 10.388584 55.339947 56 31 34
20.672453 10.518763 55.397266 56 32 35
20.693924 10.649230 55.454807 56 32 36
20.715401 10.779948 55.512360 57 32 36
20.736820 10.910884 55.569759 58 32 36
20.758127 11.042007 55.626858 58 32 36
20.779282 11.173295 55.683544 57 32 35
20.800257 11.304729 55.739750 58 32 35
20.821033 11.436297 55.795425 58 32 36
20.841599 11.567988 55.850540 59 33 36
20.861956 11.699800 55.905087 59 34 37
20.882105 11.831729 55.959084 59 35 38
20.902058 11.963778 56.012554 59 36 39
20.921801 12.095938 56.065460 60 36 39
20.941362 12.228217 56.117878 58 35 38
20.960747 12.360620 56.169823 56 33 35
20.979959 12.493144 56.221313 54 31 34
20.999010 12.625793 56.272362 53 31 34
21.017895 12.758560 56.322971 53 31 34
21.036612 12.891443 56.373127 53 31 35
21.055145 13.024429 56.422791 52 32 35
21.073473 13.157501 56.471905 51 32 35
21.091560 13.290633 56.520374 50 33 36
21.109354 13.423787 56.568054 50 33 36
21.126776 13.556908 56.614742 49 33 34
21.143730 13.689929 56.660179 48 33 32
21.160080 13.822748 56.703991 47 32 31
21.175657 13.955250 56.745739 46 32 30
21.190252 14.087277 56.784847 46 32 30
21.203611 14.218644 56.820648 47 32 31
21.215441 14.349131 56.852345 47 31 31
21.225395 14.478477 56.879021 46 31 30
21.233099 14.606388 56.899666 45 31 30
21.238148 14.732547 56.913197 45 30 31
21.240108 14.856604 56.918449 44 30 31
21.238550 14.978202 56.914272 43 30 31
21.233047 15.096977 56.899529 42 30 31
21.223217 15.212586 56.873184 43 30 31
21.208714 15.324706 56.834316 42 30 31
21.189270 15.433061 56.782215 43 31 30
21.164721 15.537441 56.716427 43 31 31
21.134996 15.637710 56.636772 44 31 31
21.100153 15.733819 56.543404 44 30 31
21.060379 15.825819 56.436817 44 30 31
21.015987 15.913863 56.317856 44 29 31
20.967411 15.998201 56.187687 44 29 31
20.915195 16.079182 56.047760 43 29 31
20.859978 16.157230 55.899788 43 29 30
20.802450 16.232841 55.745628 43 30 30
20.743359 16.306559 55.587280 43 30 30
20.683451 16.378944 55.426739 42 29 30
20.623461 16.450575 55.265980 40 29 30
20.564079 16.521999 55.106850 40 29 30
20.505936 16.593742 54.951042 40 29 29
20.449577 16.666265 54.800014 39 29 27
20.395462 16.739981 54.654999 38 29 26
20.343948 16.815220 54.516953 38 29 26
20.295301 16.892248 54.386589 38 28 26
20.249693 16.971264 54.264374 38 28 26
20.207211 17.052389 54.150528 37 28 26
20.167870 17.135695 54.045105 37 28 26
20.131636 17.221201 53.948006 35 28 27
20.098421 17.308889 53.858997 34 27 28
20.068117 17.398720 53.777790 33 27 28
20.040596 17.490627 53.704041 33 26 27
20.015726 17.584547 53.637398 33 26 27
19.993378 17.680408 53.577511 33 26 27
19.973438 17.778154 53.524075 33 26 26
19.955795 17.877728 53.476791 34 26 25
19.940359 17.979088 53.435429 34 26 25
19.927050 18.082199 53.399765 35 26 24
19.915802 18.187040 53.369621 35 26 24
19.906549 18.293585 53.344826 35 26 24
19.899231 18.401810 53.325214 34 26 24
19.893782 18.511690 53.310616 35 26 25
19.890131 18.623192 53.300831 35 26 26
