ply
format ascii 1.0
element vertex 1212
property float x
property float y
property float z
property uchar red
property uchar green
property uchar blue
end_header
11.294028 8.797192 55.085926 66 35 44
11.300231 8.920835 55.116177 67 34 43
11.306037 9.044291 55.144497 69 34 42
11.311448 9.167550 55.170891 72 33 41
11.316463 9.290597 55.195347 75 33 41
11.321082 9.413421 55.217880 80 33 41
11.325299 9.536002 55.238445 84 34 42
11.329107 9.658324 55.257019 89 34 43
11.332493 9.780361 55.273533 93 36 45
11.335442 9.902088 55.287914 96 37 48
11.337930 10.023470 55.300053 99 40 52
11.339933 10.144471 55.309822 100 42 56
11.341425 10.265051 55.317101 100 45 60
11.342378 10.385167 55.321743 102 49 66
11.342759 10.504776 55.323605 111 59 77
11.342546 10.623836 55.322567 123 74 92
11.341716 10.742306 55.318516 133 83 102
11.340249 10.860149 55.311363 134 85 104
11.338139 10.977339 55.301071 135 86 105
11.335381 11.093850 55.287621 134 83 104
11.331984 11.209670 55.271046 128 75 96
11.327959 11.324794 55.251423 126 71 91
11.323337 11.439227 55.228874 130 74 93
11.318146 11.552982 55.203552 131 75 92
11.312425 11.666083 55.175652 126 70 86
11.306220 11.778560 55.145390 122 67 80
11.299578 11.890446 55.112991 121 67 79
11.292549 12.001780 55.078709 123 69 79
11.285181 12.112602 55.042770 125 71 79
11.277521 12.222955 55.005413 123 70 77
11.269614 12.332874 54.966846 118 66 71
11.261497 12.442397 54.927258 115 61 66
11.253202 12.551549 54.886799 118 62 67
11.244755 12.660356 54.845596 126 69 75
11.236170 12.768828 54.803726 129 72 79
11.227457 12.876974 54.761227 122 64 73
11.218617 12.984790 54.718113 113 55 65
11.209646 13.092265 54.674355 109 51 62
11.200530 13.199382 54.629890 109 52 64
11.191251 13.306112 54.584633 111 54 67
11.181785 13.412424 54.538464 112 56 70
11.172103 13.518275 54.491241 112 58 74
11.162177 13.623626 54.442829 113 60 76
11.151972 13.728423 54.393055 112 61 78
11.141456 13.832621 54.341763 109 59 77
11.130595 13.936165 54.288792 105 56 75
11.119358 14.039005 54.233982 107 57 77
11.107718 14.141097 54.177208 111 61 81
11.095649 14.242393 54.118343 113 63 83
11.083135 14.342858 54.057304 110 60 80
11.070166 14.442468 53.994049 105 55 76
11.056740 14.541204 53.928566 102 52 72
11.042866 14.639063 53.860893 102 51 71
11.028561 14.736055 53.791122 104 52 70
11.013859 14.832212 53.719414 105 52 70
10.998799 14.927574 53.645962 104 51 67
10.983437 15.022204 53.571030 102 49 63
10.967834 15.116182 53.494930 101 49 60
10.952064 15.209599 53.418015 101 50 58
10.936206 15.302561 53.340668 100 51 58
10.920345 15.395185 53.263309 99 51 57
10.904567 15.487594 53.186352 97 51 57
10.888957 15.579910 53.110214 94 50 57
10.873599 15.672263 53.035309 90 49 56
10.858568 15.764767 52.961994 89 49 56
10.843931 15.857531 52.890606 88 49 56
10.829746 15.950653 52.821419 87 49 57
10.816058 16.044212 52.754654 86 49 57
10.802897 16.138273 52.690460 86 49 57
10.790285 16.232883 52.628948 85 49 57
10.778230 16.328070 52.570148 86 49 56
10.766726 16.423845 52.514038 87 50 56
10.755759 16.520205 52.460548 87 49 56
10.745307 16.617128 52.409573 87 49 55
10.735345 16.714594 52.360981 87 49 54
10.725837 16.812563 52.314606 87 48 52
10.716750 16.910997 52.270287 86 46 50
10.708053 17.009857 52.227863 84 44 48
10.699701 17.109091 52.187134 84 43 47
10.691673 17.208666 52.147976 82 42 47
10.683939 17.308548 52.110249 81 42 47
10.676474 17.408709 52.073837 80 43 48
10.669259 17.509123 52.038651 78 42 47
10.662278 17.609772 52.004604 76 41 46
10.655518 17.710638 51.971626 74 41 45
10.648964 17.811710 51.939663 72 40 44
10.642604 17.912970 51.908638 71 40 44
11.305285 -3.989518 54.567101 116 59 74
11.285557 -3.865134 54.471878 119 60 75
11.266214 -3.741287 54.378521 124 63 80
11.247341 -3.617995 54.287426 132 70 86
11.229017 -3.495265 54.198982 138 75 91
11.211317 -3.373106 54.113552 133 72 86
11.194312 -3.251516 54.031471 126 66 78
11.178064 -3.130491 53.953049 127 67 78
11.162623 -3.010023 53.878521 126 66 78
11.148031 -2.890096 53.808086 121 61 73
11.134312 -2.770690 53.741867 119 59 70
11.121476 -2.651781 53.679916 124 63 75
11.109525 -2.533340 53.622231 131 69 82
11.098440 -2.415336 53.568729 129 66 83
11.088198 -2.297737 53.519291 122 58 78
11.078757 -2.180509 53.473724 118 53 75
11.070078 -2.063620 53.431831 120 54 79
11.062109 -1.947037 53.393368 128 63 88
11.054801 -1.830728 53.358093 136 73 97
11.048102 -1.714666 53.325764 137 76 98
11.041968 -1.598826 53.296158 132 72 92
11.036359 -1.483184 53.269081 126 66 85
11.031242 -1.367719 53.244385 122 62 79
11.026594 -1.252414 53.221947 125 63 80
11.022402 -1.137253 53.201714 132 69 87
11.018663 -1.022221 53.183670 137 72 91
11.015388 -0.907305 53.167858 136 70 90
11.012591 -0.792492 53.154362 131 67 87
11.010304 -0.677768 53.143322 127 63 83
11.008560 -0.563120 53.134907 126 62 83
11.007403 -0.448532 53.129322 131 67 88
11.006880 -0.333987 53.126793 134 71 91
11.007041 -0.219467 53.127571 132 69 90
11.007940 -0.104950 53.131912 127 64 87
11.009629 0.009586 53.140068 123 58 84
11.012160 0.124166 53.152283 122 57 84
11.015580 0.238819 53.168789 124 60 87
11.019929 0.353572 53.189777 128 64 93
11.025241 0.468457 53.215416 132 66 96
11.031538 0.583505 53.245811 132 67 97
11.038836 0.698747 53.281036 131 67 97
11.047132 0.814214 53.321075 131 67 98
11.056409 0.929937 53.365856 128 67 98
11.066638 1.045942 53.415226 126 66 98
11.077768 1.162255 53.468952 132 72 105
11.089735 1.278896 53.526711 142 82 115
11.102454 1.395881 53.588104 145 86 118
11.115822 1.513219 53.652626 142 83 114
11.129721 1.630912 53.719711 141 82 112
11.144017 1.748958 53.788712 143 85 112
11.158561 1.867342 53.858913 144 85 111
11.173198 1.986045 53.929558 140 80 106
11.187757 2.105039 53.999832 133 73 99
11.202072 2.224286 54.068924 131 69 97
11.215969 2.343745 54.136002 132 70 98
11.229281 2.463364 54.200256 135 71 99
11.241849 2.583089 54.260914 136 72 100
11.253525 2.702862 54.317272 134 69 95
11.264175 2.822621 54.368683 128 65 88
11.273689 2.942304 54.414600 127 65 85
11.281973 3.061852 54.454586 129 68 87
11.288960 3.181206 54.488312 131 72 89
11.294610 3.300316 54.515579 133 75 90
11.298906 3.419133 54.536316 134 77 91
11.301862 3.537620 54.550579 135 78 92
11.303511 3.655746 54.558540 137 79 95
11.303916 3.773491 54.560497 138 81 98
11.303162 3.890846 54.556854 136 80 99
11.301353 4.007810 54.548126 130 76 95
11.298612 4.124397 54.534893 126 74 93
11.295072 4.240627 54.517807 125 77 93
11.290883 4.356533 54.497589 125 80 94
11.286201 4.472156 54.474991 128 87 98
11.281186 4.587546 54.450787 134 95 105
11.276001 4.702761 54.425758 139 103 111
11.270808 4.817865 54.400696 142 108 115
11.265762 4.932925 54.376339 140 107 115
11.261015 5.048014 54.353428 138 106 115
11.256707 5.163206 54.332634 154 124 135
11.252965 5.278574 54.314571 195 164 180
11.249904 5.394189 54.299797 232 204 221
11.247622 5.510123 54.288780 236 210 226
11.246197 5.626439 54.281902 200 165 185
11.245693 5.743196 54.279472 142 92 116
11.246149 5.860441 54.281673 106 48 71
11.247589 5.978220 54.288620 104 46 64
11.250010 6.096560 54.300312 108 52 66
11.253399 6.215484 54.316666 105 52 63
11.257717 6.335002 54.337505 100 52 61
11.262912 6.455113 54.362579 95 52 58
11.268918 6.575805 54.391571 90 52 57
11.275655 6.697056 54.424084 84 51 55
11.283033 6.818836 54.459702 80 49 53
11.290959 6.941105 54.497955 75 48 52
11.299332 7.063818 54.538372 73 46 51
11.308050 7.186925 54.580448 72 45 51
11.317013 7.310372 54.623707 72 45 51
11.326123 7.434102 54.667683 71 46 51
11.335291 7.558061 54.711933 74 48 54
11.344430 7.682189 54.756042 77 50 56
11.353464 7.806437 54.799648 77 49 54
11.362329 7.930754 54.842434 74 47 51
11.370966 8.055094 54.884125 73 46 50
11.379327 8.179416 54.924480 72 45 49
11.387374 8.303682 54.963322 69 42 46
11.395081 8.427864 55.000519 67 39 45
11.402424 8.551935 55.035965 66 37 45
11.409391 8.675872 55.069592 65 36 44
11.415972 8.799656 55.101357 65 35 44
11.422163 8.923272 55.131237 67 34 43
11.427962 9.046707 55.159229 70 33 42
11.433369 9.169949 55.185322 73 33 41
11.438379 9.292980 55.209507 76 33 41
11.442991 9.415788 55.231766 80 34 42
11.447198 9.538355 55.252075 85 34 43
11.450990 9.660658 55.270374 90 35 44
11.454351 9.782674 55.286602 94 37 47
11.457263 9.904370 55.300655 97 39 50
11.459703 10.025715 55.312431 98 42 54
11.461644 10.146667 55.321800 100 45 58
11.463058 10.267188 55.328621 100 48 63
11.463914 10.387235 55.332756 103 53 70
11.464184 10.506761 55.334061 114 66 83
11.463840 10.625724 55.332405 129 82 99
11.462863 10.744085 55.327682 138 92 109
11.461233 10.861809 55.319817 138 92 109
11.458945 10.978868 55.308773 136 88 106
11.455994 11.095236 55.294525 132 83 102
11.452390 11.210905 55.277134 125 74 95
11.448149 11.325868 55.256664 123 70 92
11.443298 11.440134 55.233253 129 75 96
11.437873 11.553717 55.207062 133 77 98
11.431910 11.666639 55.178280 129 73 93
11.425458 11.778934 55.147141 122 67 85
11.418562 11.890632 55.113853 120 66 81
11.411276 12.001776 55.078690 122 68 82
11.403646 12.112402 55.041862 125 72 83
11.395723 12.222557 55.003620 125 73 81
11.387548 12.332273 54.964161 120 68 75
11.379158 12.441584 54.923668 116 62 68
11.370585 12.550518 54.882290 120 65 70
11.361854 12.659097 54.840141 130 73 79
11.352977 12.767331 54.797298 132 75 81
11.343965 12.875227 54.753799 123 65 73
11.334816 12.982779 54.709641 111 55 64
11.325523 13.089974 54.664787 107 51 61
11.316074 13.196794 54.619183 107 51 63
11.306450 13.303210 54.572727 108 53 66
11.296624 13.409187 54.525299 109 56 70
11.286569 13.514685 54.476765 111 58 75
11.276251 13.619657 54.426968 113 61 78
11.265638 13.724054 54.375744 114 64 82
11.254697 13.827826 54.322929 112 63 82
11.243391 13.930921 54.268360 106 58 78
11.231690 14.033285 54.211884 105 57 76
11.219563 14.134871 54.153355 109 62 80
11.206986 14.235630 54.092644 112 64 82
11.193942 14.335530 54.029686 109 61 80
11.180418 14.434540 53.964409 105 56 76
11.166412 14.532641 53.896809 102 53 72
11.151934 14.629831 53.826927 103 52 72
11.137002 14.726120 53.754856 105 53 72
11.121648 14.821535 53.680744 105 53 71
11.105915 14.916121 53.604805 104 51 67
11.089856 15.009940 53.527294 102 49 63
11.073541 15.103075 53.448547 101 48 60
11.057042 15.195618 53.368912 100 50 59
11.040443 15.287680 53.288795 99 50 58
11.023834 15.379380 53.208630 98 50 58
11.007305 15.470848 53.128845 96 50 57
10.990944 15.562211 53.049877 93 50 57
10.974839 15.653598 52.972145 91 50 56
10.959073 15.745136 52.896046 89 50 56
10.943714 15.836936 52.821915 88 49 56
10.928826 15.929102 52.750053 87 49 57
10.914454 16.021717 52.680687 86 50 57
10.900638 16.114853 52.613995 86 50 57
10.887397 16.208557 52.550083 85 49 57
10.874740 16.302864 52.488995 85 50 57
10.862665 16.397785 52.430717 86 50 57
10.851161 16.493322 52.375191 87 51 57
10.840203 16.589457 52.322300 87 50 56
10.829765 16.686163 52.271915 87 49 54
10.819812 16.783405 52.223877 85 47 51
10.810310 16.881144 52.178013 83 45 48
10.801222 16.979336 52.134148 81 42 46
10.792510 17.077932 52.092094 80 40 44
10.784142 17.176897 52.051704 80 40 45
10.776089 17.276194 52.012840 80 41 46
10.768325 17.375788 51.975365 79 41 47
10.760828 17.475655 51.939178 78 41 47
10.753579 17.575769 51.904194 76 40 46
10.746563 17.676117 51.870323 74 40 45
10.739763 17.776678 51.837505 72 39 44
10.733167 17.877434 51.805668 71 39 44
11.421817 -3.989136 54.561867 116 59 72
11.401896 -3.864767 54.466705 117 59 72
11.382339 -3.740927 54.373283 124 63 78
11.363228 -3.617632 54.281986 138 76 91
11.344645 -3.494894 54.193214 145 83 99
11.326670 -3.372719 54.107349 133 73 88
11.309378 -3.251111 54.024746 123 63 77
11.292833 -3.130066 53.945713 124 64 78
11.277093 -3.009576 53.870522 124 66 79
11.262201 -2.889629 53.799385 122 64 78
11.248190 -2.770205 53.732452 123 65 78
11.235075 -2.651281 53.669804 130 71 84
11.222863 -2.532831 53.611469 133 72 87
11.211544 -2.414824 53.557392 127 64 83
11.201094 -2.297230 53.507477 120 55 77
11.191484 -2.180014 53.461571 118 53 75
11.182677 -2.063144 53.419498 123 58 81
11.174625 -1.946587 53.381035 131 67 89
11.167283 -1.830312 53.345963 135 73 93
11.160606 -1.714290 53.314068 135 74 92
11.154550 -1.598495 53.285137 132 72 88
11.149076 -1.482902 53.258987 128 67 82
11.144153 -1.367490 53.235466 124 62 77
11.139756 -1.252238 53.214466 126 64 79
11.135873 -1.137129 53.195915 134 70 86
11.132498 -1.022147 53.179794 138 73 90
11.129635 -0.907275 53.166115 136 70 88
11.127297 -0.792501 53.154949 132 67 85
11.125509 -0.677808 53.146408 129 65 82
11.124297 -0.563181 53.140617 128 65 83
11.123698 -0.448603 53.137756 131 68 86
11.123752 -0.334058 53.138012 133 70 88
11.124500 -0.219525 53.141586 131 68 87
11.125990 -0.104984 53.148705 125 63 83
11.128265 0.009589 53.159573 120 57 79
11.131369 0.124218 53.174397 120 57 81
11.135341 0.238929 53.193371 124 60 87
11.140215 0.353751 53.216656 128 63 92
11.146020 0.468712 53.244389 130 65 95
11.152775 0.583843 53.276657 131 67 97
11.160488 0.699173 53.313499 130 67 97
11.169157 0.814731 53.354916 129 66 97
11.178763 0.930546 53.400803 126 65 96
11.189273 1.046643 53.451008 127 65 98
11.200642 1.163046 53.505318 132 71 105
11.212803 1.279773 53.563408 140 78 113
11.225675 1.396839 53.624897 141 79 114
11.239157 1.514253 53.689301 139 78 111
11.253136 1.632017 53.756081 140 80 112
11.267481 1.750125 53.824604 141 82 112
11.282049 1.868565 53.894196 140 81 110
11.296684 1.987318 53.964111 134 76 104
11.311227 2.106354 54.033581 129 71 99
11.325508 2.225639 54.101803 128 69 98
11.339361 2.345129 54.167976 129 69 99
11.352623 2.464776 54.231327 132 71 101
11.365134 2.584526 54.291092 137 75 103
11.376749 2.704320 54.346577 135 73 99
11.387339 2.824099 54.397167 127 65 89
11.396791 2.943803 54.442318 125 64 85
11.405015 3.063371 54.481606 129 68 87
11.411944 3.182747 54.514706 132 73 90
11.417537 3.301880 54.541424 134 76 91
11.421779 3.420723 54.561684 135 77 91
11.424682 3.539239 54.575550 136 78 91
11.426283 3.657398 54.583199 138 79 93
11.426644 3.775181 54.584927 138 80 94
11.425849 3.892577 54.581127 134 79 94
11.424006 4.009588 54.572323 129 76 91
11.421233 4.126226 54.559078 126 76 90
11.417670 4.242513 54.542057 125 78 91
11.413465 4.358481 54.521969 123 81 92
11.408775 4.474174 54.499569 126 87 96
11.403761 4.589638 54.475613 134 98 105
11.398585 4.704933 54.450890 141 108 113
11.393411 4.820121 54.426167 145 113 117
11.388392 4.935271 54.402199 142 111 116
11.383681 5.050454 54.379696 145 115 121
11.379418 5.165743 54.359329 175 148 157
11.375730 5.281210 54.341709 217 191 205
11.372727 5.396928 54.327366 232 200 219
11.370507 5.512964 54.316761 209 169 191
11.369149 5.629380 54.310272 163 114 140
11.368712 5.746233 54.308186 121 64 92
11.369235 5.863574 54.310684 105 46 71
11.370739 5.981440 54.317867 109 50 70
11.373219 6.099861 54.329716 109 53 68
11.376659 6.218858 54.346153 104 52 64
11.381022 6.338440 54.366993 99 51 61
11.386251 6.458603 54.391972 94 51 58
11.392280 6.579335 54.420769 89 51 55
11.399029 6.700615 54.453007 83 49 53
11.406407 6.822411 54.488258 78 48 51
11.414320 6.944683 54.526051 75 47 50
11.422667 7.067388 54.565926 73 46 50
11.431348 7.190474 54.607395 73 46 50
11.440264 7.313889 54.649986 72 46 51
11.449318 7.437578 54.693241 72 47 52
11.458422 7.561485 54.736729 75 50 55
11.467491 7.685557 54.780048 79 54 58
11.476453 7.809743 54.822861 76 51 54
11.485241 7.933994 54.864841 71 46 49
11.493801 8.058266 54.905731 70 45 49
11.502088 8.182519 54.945320 70 44 48
11.510064 8.306719 54.983421 67 41 46
11.517704 8.430837 55.019917 65 38 44
11.524985 8.554847 55.054703 65 36 44
11.531894 8.678725 55.087704 65 36 44
11.538424 8.802457 55.118896 66 35 43
11.544567 8.926024 55.148239 68 34 43
11.550322 9.049415 55.175732 71 34 43
11.555686 9.172612 55.201355 74 34 42
11.560654 9.295603 55.225090 77 34 42
11.565223 9.418370 55.246918 81 34 43
11.569384 9.540895 55.266788 86 35 44
11.573123 9.663154 55.284653 91 37 46
11.576424 9.785119 55.300423 94 39 49
11.579267 9.906760 55.313999 97 42 52
11.581626 10.028042 55.325272 99 45 56
11.583473 10.148923 55.334095 100 48 61
11.584780 10.269362 55.340336 101 53 67
11.585512 10.389315 55.343838 106 59 75
11.585646 10.508738 55.344471 118 73 90
11.585151 10.627588 55.342110 133 89 105
11.584007 10.745826 55.336647 142 98 114
11.582196 10.863416 55.327999 144 100 116
11.579714 10.980330 55.316139 139 93 111
11.576557 11.096546 55.301056 131 84 103
11.572738 11.212056 55.282814 125 75 95
11.568273 11.326856 55.261482 124 72 94
11.563190 11.440952 55.237206 130 76 100
11.557525 11.554361 55.210140 134 79 103
11.551318 11.667107 55.180489 131 75 98
11.544617 11.779220 55.148479 123 67 90
11.537469 11.890735 55.114334 120 64 85
11.529927 12.001693 55.078308 121 66 85
11.522041 12.112132 55.040634 125 71 87
11.513857 12.222094 55.001537 128 74 87
11.505416 12.331612 54.961220 123 70 80
11.496758 12.440721 54.919861 119 64 72
11.487912 12.549446 54.877602 123 68 75
11.478900 12.657806 54.834553 134 77 83
11.469737 12.765813 54.790779 135 78 84
11.460428 12.873466 54.746311 124 67 74
11.450974 12.980763 54.701149 110 54 62
11.441366 13.087691 54.655254 104 50 59
11.431591 13.194226 54.608555 105 51 61
11.421624 13.300338 54.560944 106 53 65
11.411443 13.405993 54.512310 107 55 70
11.401017 13.511147 54.462505 108 57 74
11.390315 13.615756 54.411381 109 60 78
11.379299 13.719768 54.358761 112 64 83
11.367937 13.823131 54.304482 112 64 85
11.356192 13.925791 54.248379 108 61 82
11.344030 14.027693 54.190281 107 60 79
11.331423 14.128789 54.130054 109 62 80
11.318343 14.229032 54.067574 110 63 81
11.304772 14.328382 54.002747 108 61 78
11.290698 14.426811 53.935513 104 56 74
11.276118 14.524299 53.865868 102 53 71
11.261040 14.620837 53.793835 103 53 71
11.245483 14.716440 53.719521 105 54 72
11.229479 14.811132 53.643070 105 54 71
11.213072 14.904961 53.564693 103 51 67
11.196321 14.997989 53.484673 101 49 63
11.179291 15.090296 53.403324 100 48 61
11.162064 15.181984 53.321030 100 49 60
11.144724 15.273163 53.238194 99 50 59
11.127365 15.363959 53.155273 98 50 58
11.110081 15.454500 53.072704 96 50 58
11.092968 15.544927 52.990959 93 50 57
11.076117 15.635369 52.910458 91 50 57
11.059611 15.725957 52.831615 90 50 56
11.043529 15.816811 52.754791 89 49 57
11.027935 15.908038 52.680298 88 50 58
11.012882 15.999730 52.608391 88 50 58
10.998408 16.091959 52.539249 86 50 58
10.984538 16.184778 52.472988 85 49 57
10.971281 16.278223 52.409664 84 49 57
10.958638 16.372313 52.349266 85 50 58
10.946597 16.467047 52.291748 87 51 58
10.935133 16.562407 52.236984 87 51 57
10.924220 16.658371 52.184853 85 50 55
10.913824 16.754904 52.135193 83 47 52
10.903907 16.851963 52.087818 81 44 48
10.894433 16.949507 52.042561 78 40 45
10.885357 17.047480 51.999207 77 38 43
10.876651 17.145847 51.957615 77 38 43
10.868279 17.244568 51.917625 79 40 46
10.860215 17.343607 51.879105 79 40 47
10.852435 17.442936 51.841938 77 40 46
10.844915 17.542526 51.806015 76 39 45
10.837641 17.642359 51.771263 74 39 45
10.830591 17.742413 51.737591 72 38 44
10.823754 17.842670 51.704929 71 38 44
11.558944 -4.113696 54.654114 117 62 72
11.538622 -3.988855 54.558025 116 60 72
11.518552 -3.864512 54.463127 116 59 72
11.498818 -3.740689 54.369823 123 64 78
11.479507 -3.617401 54.278519 135 76 91
11.460705 -3.494661 54.189610 140 80 96
11.442492 -3.372479 54.103500 128 69 86
11.424948 -3.250858 54.020538 118 59 76
11.408141 -3.129797 53.941078 119 61 77
11.392134 -3.009290 53.865391 121 64 80
11.376977 -2.889325 53.793720 124 67 83
11.362703 -2.769884 53.726231 130 73 88
11.349340 -2.650947 53.663048 134 76 91
11.336896 -2.532488 53.604206 131 71 88
11.325367 -2.414477 53.549694 123 60 80
11.314736 -2.296884 53.499432 117 53 74
11.304982 -2.179677 53.453312 117 53 75
11.296070 -2.062822 53.411167 124 60 81
11.287959 -1.946287 53.372818 132 70 89
11.280608 -1.830041 53.338058 134 72 90
11.273974 -1.714053 53.306694 132 71 86
11.268018 -1.598297 53.278530 129 69 82
11.262701 -1.482747 53.253387 126 65 77
11.257994 -1.367379 53.231133 123 62 73
11.253870 -1.252171 53.211639 125 63 75
11.250318 -1.137106 53.194839 133 69 83
11.247328 -1.022164 53.180698 137 72 87
11.244898 -0.907328 53.169212 136 70 85
11.243041 -0.792583 53.160435 133 67 83
11.241772 -0.677910 53.154434 130 66 81
11.241113 -0.563294 53.151314 130 67 81
11.241092 -0.448717 53.151215 130 68 82
11.241741 -0.334160 53.154285 130 68 83
11.243096 -0.219604 53.160694 128 66 83
11.245194 -0.105027 53.170612 124 62 81
11.248072 0.009594 53.184219 121 59 79
11.251762 0.124282 53.201668 122 59 82
11.256300 0.239063 53.223125 126 63 87
11.261713 0.353964 53.248718 129 65 92
11.268023 0.469013 53.278553 132 68 95
11.275244 0.584238 53.312695 132 69 96
11.283380 0.699667 53.351166 131 68 96
11.292424 0.815327 53.393932 129 66 95
11.302360 0.931245 53.440907 127 65 95
11.313150 1.047444 53.491928 129 66 98
11.324752 1.163947 53.546787 132 69 103
11.337101 1.280771 53.605175 137 73 108
11.350116 1.397929 53.666714 137 74 109
11.363701 1.515428 53.730949 137 74 108
11.377747 1.633270 53.797363 139 78 111
11.392125 1.751449 53.865349 140 80 111
11.406697 1.869954 53.934246 137 78 108
11.421313 1.988763 54.003357 133 75 103
11.435818 2.107849 54.071938 130 72 100
11.450044 2.227177 54.139202 129 70 100
11.463831 2.346706 54.204391 131 71 101
11.477016 2.466386 54.266739 133 72 102
11.489448 2.586164 54.325516 136 74 102
11.500980 2.705986 54.380047 134 73 98
11.511486 2.825789 54.429718 128 67 90
11.520855 2.945517 54.474022 126 66 87
11.528998 3.065109 54.512524 129 70 89
11.535849 3.184511 54.544914 132 73 90
11.541367 3.303671 54.571007 134 76 90
11.545538 3.422544 54.590729 134 76 89
11.548375 3.541094 54.604141 136 77 89
11.549915 3.659290 54.611423 138 79 90
11.550221 3.777113 54.612873 137 79 90
11.549377 3.894556 54.608879 133 77 88
11.547491 4.011619 54.599960 129 77 87
11.544685 4.128315 54.586697 126 78 88
11.541097 4.244665 54.569729 123 79 88
11.536875 4.360703 54.549767 121 82 88
11.532177 4.476471 54.527554 125 89 95
11.527167 4.592019 54.503868 136 103 107
11.522006 4.707402 54.479462 145 114 117
11.516857 4.822685 54.455116 151 120 122
11.511876 4.937935 54.431564 155 125 128
11.507211 5.053223 54.409504 170 140 145
11.503002 5.168620 54.389606 205 182 188
11.499376 5.284200 54.372459 234 211 221
11.496444 5.400031 54.358597 222 185 204
11.494299 5.516180 54.348454 174 123 149
11.493018 5.632710 54.342400 128 70 100
11.492659 5.749674 54.340698 111 50 79
11.493258 5.867119 54.343529 112 51 77
11.494830 5.985085 54.350967 113 54 74
11.497376 6.103599 54.363007 109 53 69
11.500874 6.222680 54.379543 104 52 64
11.505281 6.342333 54.400383 99 52 61
11.510546 6.462557 54.425274 94 51 59
11.516595 6.583338 54.453876 88 51 56
11.523350 6.704652 54.485817 83 49 53
11.530721 6.826469 54.520668 78 48 51
11.538610 6.948749 54.557968 75 47 50
11.546919 7.071446 54.597260 74 47 50
11.555550 7.194512 54.638065 73 47 51
11.564401 7.317894 54.679916 74 48 52
11.573379 7.441539 54.722366 75 49 54
11.582396 7.565392 54.764999 77 52 56
11.591372 7.689401 54.807442 79 54 58
11.600233 7.813516 54.849342 75 52 55
11.608917 7.937690 54.890404 70 47 49
11.617372 8.061882 54.930378 68 44 47
11.625553 8.186055 54.969063 68 43 47
11.633425 8.310173 55.006283 66 40 45
11.640962 8.434208 55.041916 64 38 43
11.648145 8.558138 55.075882 64 36 43
11.654960 8.681939 55.108105 65 35 43
11.661397 8.805594 55.138546 66 35 43
11.667453 8.929090 55.167179 69 35 43
11.673124 9.052410 55.193996 72 34 43
11.678405 9.175538 55.218964 75 34 43
11.683291 9.298460 55.242065 78 35 43
11.687777 9.421159 55.263271 82 35 43
11.691849 9.543612 55.282528 87 36 44
11.695497 9.665797 55.299774 91 38 47
11.698699 9.787684 55.314919 94 41 50
11.701433 9.909240 55.327847 97 44 53
11.703675 10.030430 55.338448 99 48 58
11.705394 10.151212 55.346577 100 51 63
11.706560 10.271543 55.352085 103 57 70
11.707141 10.391378 55.354832 113 69 82
11.707108 10.510676 55.354683 127 85 100
11.706437 10.629393 55.351505 139 96 112
11.705104 10.747488 55.345203 144 102 118
11.703094 10.864926 55.335697 146 103 120
11.700400 10.981685 55.322964 140 95 113
11.697025 11.097740 55.307007 130 84 103
11.692979 11.213082 55.287868 124 76 97
11.688279 11.327710 55.265652 125 75 97
11.682959 11.441633 55.240490 130 78 101
11.677049 11.554866 55.212551 134 79 103
11.670597 11.667435 55.182041 131 75 99
11.663648 11.779370 55.149185 124 68 93
11.656249 11.890707 55.114204 121 64 88
11.648455 12.001483 55.077347 123 65 89
11.640313 12.111740 55.038853 127 71 91
11.631871 12.221516 54.998940 130 75 92
11.623173 12.330847 54.957809 127 72 85
11.614251 12.439761 54.915623 122 66 77
11.605136 12.548285 54.872528 127 70 79
11.595850 12.656437 54.828621 137 79 86
11.586407 12.764225 54.783966 137 79 85
11.576809 12.871650 54.738586 123 67 72
11.567056 12.978704 54.692471 109 54 61
11.557138 13.085374 54.645576 103 50 58
11.547041 13.191636 54.597836 103 51 61
11.536741 13.297459 54.549133 104 53 65
11.526214 13.402806 54.499355 105 55 69
11.515425 13.507633 54.448345 106 57 73
11.504344 13.611895 54.395950 107 59 77
11.492933 13.715537 54.341999 110 62 82
11.481157 13.818507 54.286320 111 64 84
11.468982 13.920751 54.228745 110 64 84
11.456369 14.022213 54.169113 109 62 80
11.443288 14.122839 54.107262 109 62 79
11.429713 14.222585 54.043076 109 62 78
11.415625 14.321407 53.976456 107 60 76
11.401006 14.419274 53.907337 104 57 72
11.385857 14.516166 53.835705 102 54 69
11.370183 14.612076 53.761597 103 53 69
11.354005 14.707012 53.685104 105 53 71
11.337355 14.801002 53.606377 105 53 71
11.320278 14.894092 53.525635 103 51 67
11.302834 14.986345 53.443150 100 49 64
11.285092 15.077847 53.359264 99 48 62
11.267137 15.168697 53.274361 99 49 62
11.249054 15.259010 53.188866 99 50 61
11.230946 15.348919 53.103241 97 51 61
11.212906 15.438554 53.017944 96 50 60
11.195038 15.528060 52.933460 94 50 59
11.177438 15.617575 52.850243 92 50 58
11.160194 15.707232 52.768707 91 50 58
11.143388 15.797158 52.689240 90 50 58
11.127089 15.887466 52.612175 90 51 59
11.111353 15.978253 52.537773 89 51 59
11.096221 16.069593 52.466225 87 50 58
11.081721 16.161547 52.397667 85 48 56
11.067868 16.254152 52.332161 83 48 56
11.054657 16.347427 52.269695 84 48 57
11.042081 16.441378 52.210232 85 50 58
11.030115 16.535986 52.153656 84 50 57
11.018731 16.631229 52.099831 83 49 55
11.007894 16.727072 52.048588 82 47 53
10.997564 16.823469 51.999744 80 43 50
10.987705 16.920382 51.953133 77 40 46
10.978271 17.017748 51.908520 76 38 44
10.969227 17.115534 51.865757 76 38 43
10.960539 17.213696 51.824677 78 40 45
10.952176 17.312193 51.785133 78 40 46
10.944111 17.410994 51.747002 77 39 45
10.936321 17.510071 51.710171 76 39 45
10.928786 17.609400 51.674541 74 38 44
10.921488 17.708958 51.640030 72 38 43
10.914407 17.808722 51.606552 71 38 43
10.907525 17.908669 51.574013 70 38 43
11.676160 -4.113485 54.651306 118 64 73
11.655757 -3.988693 54.555809 117 62 72
11.635579 -3.864388 54.461365 117 60 72
11.615712 -3.740590 54.368378 121 63 76
11.596243 -3.617316 54.277252 129 70 86
11.577260 -3.494583 54.188396 132 73 90
11.558849 -3.372399 54.102222 122 63 83
11.541090 -3.250771 54.019100 116 57 77
11.524058 -3.129699 53.939384 117 59 78
11.507820 -3.009177 53.863380 120 61 81
11.492429 -2.889197 53.791336 124 66 85
11.477927 -2.769741 53.723461 131 72 91
11.464345 -2.650791 53.659889 133 73 91
11.451696 -2.532322 53.600689 127 66 86
11.439985 -2.414305 53.545872 119 57 78
11.429204 -2.296712 53.495407 114 50 72
11.419329 -2.179509 53.449188 116 52 73
11.410336 -2.062665 53.407093 125 61 81
11.402189 -1.946147 53.368965 133 71 88
11.394851 -1.829923 53.334614 132 72 87
11.388283 -1.713963 53.303871 129 70 81
11.382446 -1.598238 53.276558 126 67 77
11.377308 -1.482722 53.252502 123 64 73
11.372835 -1.367390 53.231571 122 61 71
11.369006 -1.252219 53.213646 125 63 73
11.365802 -1.137187 53.198647 132 67 80
11.363214 -1.022276 53.186531 134 69 83
11.361236 -0.907466 53.177277 134 68 82
11.359875 -0.792739 53.170906 132 67 80
11.359140 -0.678076 53.167469 130 66 78
11.359050 -0.563461 53.167046 129 66 77
11.359622 -0.448873 53.169724 129 66 77
11.360883 -0.334294 53.175625 128 66 78
11.362859 -0.219704 53.184875 127 65 79
11.365578 -0.105080 53.197601 125 63 79
11.369069 0.009599 53.213943 124 61 81
11.373361 0.124357 53.234028 126 63 84
11.378476 0.239219 53.257973 128 64 87
11.384437 0.354211 53.285870 131 67 92
11.391258 0.469359 53.317802 135 71 96
11.398951 0.584688 53.353802 135 71 96
11.407514 0.700227 53.393887 133 69 95
11.416938 0.816000 53.437996 131 67 93
11.427201 0.932031 53.486038 130 67 94
11.438273 1.048344 53.537857 132 67 98
11.450105 1.164957 53.593235 135 70 101
11.462635 1.281887 53.651886 137 72 104
11.475785 1.399146 53.713436 136 71 105
11.489463 1.516739 53.777454 137 72 106
11.503561 1.634669 53.843441 138 74 108
11.517956 1.752928 53.910820 138 75 108
11.532516 1.871505 53.978973 137 74 106
11.547095 1.990378 54.047207 134 73 103
11.561539 2.109521 54.114815 131 70 100
11.575690 2.228899 54.181053 130 68 99
11.589390 2.348471 54.245171 133 70 101
11.602478 2.468190 54.306435 134 71 101
11.614806 2.588003 54.364136 133 70 98
11.626234 2.707855 54.417625 132 69 94
11.636634 2.827689 54.466305 129 67 90
11.645900 2.947445 54.509670 128 68 88
11.653941 3.067065 54.547314 130 71 89
11.660694 3.186496 54.578918 132 73 90
11.666120 3.305688 54.604313 133 74 89
11.670204 3.424595 54.623432 134 75 88
11.672961 3.543181 54.636333 135 76 88
11.674428 3.661419 54.643204 137 78 88
11.674668 3.779289 54.644325 136 79 88
11.673767 3.896783 54.640110 133 78 87
11.671832 4.013903 54.631050 130 80 87
11.668987 4.130662 54.617733 127 83 88
11.665371 4.247083 54.600807 125 85 89
11.661132 4.363198 54.580971 123 88 92
11.656430 4.479049 54.558960 129 97 100
11.651427 4.594687 54.535545 140 111 113
11.646287 4.710168 54.511486 148 120 121
11.641170 4.825555 54.487530 159 130 131
11.636231 4.940916 54.464420 179 151 152
11.631622 5.056319 54.442848 205 179 182
11.627481 5.171837 54.423458 231 209 215
11.623927 5.287539 54.406830 237 211 221
11.621076 5.403496 54.393478 202 158 178
11.619015 5.519771 54.383835 145 87 115
11.617821 5.636425 54.378246 111 49 79
11.617550 5.753512 54.376976 112 48 77
11.618232 5.871075 54.380169 116 54 80
11.619884 5.989152 54.387901 114 54 75
11.622501 6.107769 54.400154 108 53 69
11.626059 6.226943 54.416805 103 52 64
11.630515 6.346679 54.437660 97 53 61
11.635812 6.466973 54.462456 93 53 59
11.641881 6.587810 54.490864 87 52 56
11.648638 6.709165 54.522488 82 50 53
11.655993 6.831008 54.556915 78 48 52
11.663851 6.953298 54.593693 76 48 51
11.672112 7.075992 54.632359 74 47 51
11.680675 7.199038 54.672436 74 48 52
11.689444 7.322387 54.713486 75 49 53
11.698327 7.445985 54.755062 76 51 55
11.707237 7.569779 54.796768 78 54 58
11.716096 7.693720 54.838230 79 55 59
11.724832 7.817758 54.879120 75 51 55
11.733383 7.941847 54.919147 69 46 49
11.741702 8.065948 54.958080 66 42 45
11.749743 8.190025 54.995724 66 42 45
11.757478 8.314047 55.031921 65 40 44
11.764877 8.437984 55.066555 63 37 42
11.771923 8.561812 55.099533 64 36 42
11.778605 8.685516 55.130806 66 35 42
11.784910 8.809072 55.160324 68 35 42
11.790837 8.932470 55.188065 70 35 43
11.796381 9.055693 55.214012 73 34 43
11.801536 9.178724 55.238140 76 34 43
11.806295 9.301549 55.260418 79 34 43
11.810650 9.424148 55.280800 83 35 44
11.814592 9.546499 55.299252 87 37 45
11.818103 9.668578 55.315685 91 40 48
11.821162 9.790354 55.330006 95 43 51
11.823749 9.911795 55.342110 98 47 55
11.825833 10.032862 55.351868 98 51 58
11.827385 10.153514 55.359131 99 54 63
11.828374 10.273709 55.363762 106 63 74
11.828770 10.393402 55.365612 124 82 94
11.828543 10.512549 55.364548 139 100 112
11.827666 10.631109 55.360447 143 104 117
11.826118 10.749041 55.353203 143 105 120
11.823886 10.866312 55.342754 144 104 120
11.820965 10.982899 55.329079 136 94 111
11.817356 11.098780 55.312187 125 81 99
11.813069 11.213945 55.292126 122 76 95
11.808128 11.328397 55.269001 125 77 97
11.802562 11.442142 55.242943 130 79 100
11.796406 11.555197 55.214130 132 80 101
11.789705 11.667588 55.182770 131 77 99
11.782508 11.779347 55.149078 128 72 95
11.774861 11.890509 55.113285 126 69 93
11.766816 12.001110 55.075634 126 69 92
11.758425 12.111191 55.036358 128 71 93
11.749732 12.220789 54.995667 131 75 94
11.740780 12.329940 54.953766 129 72 88
11.731602 12.438670 54.910809 123 66 80
11.722225 12.547003 54.866920 128 70 81
11.712673 12.654958 54.822212 137 79 87
11.702955 12.762538 54.776726 135 77 84
11.693077 12.869745 54.730488 123 66 71
11.683034 12.976571 54.683483 111 56 61
11.672816 13.082999 54.635658 105 52 59
11.662407 13.189002 54.586933 104 53 61
11.651783 13.294552 54.537209 104 54 65
11.640916 13.399607 54.486347 105 56 69
11.629776 13.504126 54.434200 106 57 73
11.618326 13.608057 54.380611 108 60 78
11.606533 13.711351 54.325413 109 61 82
11.594356 13.813951 54.268417 112 65 86
11.581758 13.915799 54.209454 111 65 85
11.568706 14.016840 54.148357 109 62 80
11.555163 14.117022 54.084972 108 62 78
11.541102 14.216290 54.019161 109 62 77
11.526503 14.314606 53.950821 108 61 75
11.511350 14.411935 53.879898 105 58 71
11.495640 14.508255 53.806366 103 55 68
11.479379 14.603557 53.730255 103 54 68
11.462585 14.697848 53.651653 105 54 70
11.445295 14.791158 53.570724 106 54 70
11.427551 14.883528 53.487671 103 51 67
11.409417 14.975029 53.402794 100 49 64
11.390965 15.065742 53.316429 99 48 63
11.372280 15.155773 53.228973 99 50 63
11.353456 15.245241 53.140869 99 51 63
11.334596 15.334278 53.052586 98 51 62
11.315801 15.423024 52.964615 96 51 62
11.297177 15.511627 52.877445 94 51 61
11.278827 15.600231 52.791553 93 51 59
11.260841 15.688975 52.707375 92 50 59
11.243312 15.777995 52.625324 91 50 59
11.226307 15.867402 52.545731 90 51 59
11.209888 15.957301 52.468880 90 50 59
11.194100 16.047773 52.394985 88 49 58
11.178973 16.138880 52.324181 85 47 56
11.164522 16.230665 52.256542 83 47 56
11.150747 16.323149 52.192066 83 47 56
11.137638 16.416334 52.130707 83 48 57
11.125173 16.510210 52.072361 83 48 57
11.113319 16.604752 52.016884 82 48 56
11.102046 16.699924 51.964115 81 47 55
11.091309 16.795681 51.913857 80 45 52
11.081068 16.891981 51.865929 77 42 49
11.071276 16.988760 51.820095 76 39 46
11.061898 17.085981 51.776199 76 39 44
11.052896 17.183599 51.734070 77 40 44
11.044237 17.281570 51.693539 77 40 44
11.035892 17.379862 51.654476 77 39 44
11.027833 17.478437 51.616753 76 38 44
11.020039 17.577274 51.580273 74 38 44
11.012489 17.676346 51.544937 73 38 44
11.005166 17.775631 51.510658 72 38 44
10.998046 17.875099 51.477337 70 38 44
11.793739 -4.113404 54.650238 119 65 73
11.773296 -3.988671 54.555511 117 63 71
11.753053 -3.864412 54.461708 117 60 71
11.733093 -3.740647 54.369217 118 62 74
11.713509 -3.617397 54.278461 123 65 81
11.694386 -3.494677 54.189854 125 66 85
11.675816 -3.372498 54.103798 120 61 81
11.657883 -3.250867 54.020702 116 57 78
11.640663 -3.129787 53.940910 117 58 79
11.624229 -3.009254 53.864758 120 62 83
11.608640 -2.889260 53.792519 126 67 88
11.593943 -2.769791 53.724415 131 71 91
11.580173 -2.650827 53.660610 130 70 89
11.567352 -2.532346 53.601200 125 63 84
11.555489 -2.414321 53.546227 118 55 76
11.544580 -2.296723 53.495678 114 51 71
11.534612 -2.179521 53.449486 116 53 72
11.525563 -2.062683 53.407555 125 62 79
11.517403 -1.946175 53.369743 131 70 85
11.510098 -1.829967 53.335896 130 71 83
11.503615 -1.714026 53.305855 127 68 78
11.497919 -1.598325 53.279457 124 65 75
11.492975 -1.482835 53.256550 122 62 71
11.488754 -1.367529 53.236988 122 61 70
11.485233 -1.252384 53.220673 127 63 74
11.482392 -1.137377 53.207512 132 67 78
11.480219 -1.022486 53.197437 133 68 79
11.478706 -0.907690 53.190430 133 68 79
11.477854 -0.792971 53.186481 133 68 78
11.477667 -0.678308 53.185612 130 66 76
11.478155 -0.563681 53.187874 129 66 75
11.479333 -0.449072 53.193333 128 67 75
11.481215 -0.334460 53.202053 128 67 76
11.483820 -0.219824 53.214123 127 66 77
11.487170 -0.105143 53.229649 126 65 78
11.491285 0.009605 53.248718 127 65 81
11.496183 0.124445 53.271416 129 66 85
11.501884 0.239398 53.297829 128 65 85
11.508399 0.354491 53.328018 130 67 88
11.515739 0.469748 53.362034 136 73 94
11.523907 0.585193 53.399883 137 74 94
11.532900 0.700852 53.441555 135 71 92
11.542706 0.816748 53.486988 132 68 90
11.553300 0.932903 53.536083 132 68 90
11.564649 1.049339 53.588669 134 69 95
11.576706 1.166072 53.644543 137 72 99
11.589410 1.283118 53.703411 137 72 100
11.602688 1.400487 53.764938 135 70 100
11.616447 1.518185 53.828701 136 71 102
11.630586 1.636210 53.894215 136 71 102
11.644986 1.754558 53.960941 136 71 102
11.659518 1.873214 54.028278 135 71 101
11.674042 1.992159 54.095581 134 71 100
11.688408 2.111366 54.162151 132 68 98
11.702463 2.230801 54.227283 131 67 96
11.716054 2.350423 54.290257 132 67 96
11.729024 2.470186 54.350361 132 67 94
11.741230 2.590040 54.406918 131 67 91
11.752531 2.709929 54.459286 129 67 88
11.762804 2.829796 54.506889 129 68 87
11.771944 2.949584 54.549244 128 69 86
11.779865 3.069238 54.585949 129 70 86
11.786504 3.188703 54.616711 130 72 87
11.791820 3.307929 54.641342 132 74 88
11.795802 3.426875 54.659801 134 75 89
11.798465 3.545503 54.672134 135 76 88
11.799845 3.663786 54.678532 135 76 87
11.800010 3.781708 54.679295 135 78 87
11.799043 3.899258 54.674816 133 80 87
11.797052 4.016441 54.665592 131 84 88
11.794165 4.133269 54.652210 131 89 92
11.790518 4.249767 54.635311 129 94 95
11.786263 4.365966 54.615593 127 98 98
11.781557 4.481909 54.593792 132 106 105
11.776566 4.597646 54.570656 143 119 118
11.771449 4.713233 54.546951 155 130 130
11.766371 4.828734 54.523418 175 149 150
11.761485 4.944214 54.500778 207 184 185
11.756940 5.059743 54.479717 233 212 215
11.752872 5.175392 54.460873 240 213 222
11.749404 5.291229 54.444798 221 183 199
11.746643 5.407323 54.432003 174 121 145
11.744678 5.523736 54.422897 126 63 93
11.743581 5.640527 54.417816 110 45 75
11.743403 5.757746 54.416992 116 51 79
11.744179 5.875439 54.420586 118 55 80
11.745916 5.993638 54.428635 113 55 74
11.748610 6.112369 54.441116 108 54 68
11.752232 6.231646 54.457901 101 53 64
11.756738 6.351473 54.478779 96 53 60
11.762070 6.471845 54.503490 91 53 59
11.768154 6.592744 54.531681 85 52 56
11.774910 6.714149 54.562988 81 50 53
11.782244 6.836023 54.596970 78 48 52
11.790059 6.958328 54.633186 76 47 51
11.798259 7.081020 54.671185 76 48 52
11.806743 7.204050 54.710495 77 49 53
11.815415 7.327365 54.750683 78 50 54
11.824185 7.450916 54.791325 79 52 56
11.832967 7.574648 54.832012 80 55 59
11.841684 7.698515 54.872410 80 55 60
11.850269 7.822469 54.912189 76 51 56
11.858662 7.946465 54.951080 69 45 49
11.866814 8.070465 54.988853 66 41 45
11.874685 8.194434 55.025330 66 40 44
11.882246 8.318343 55.060368 65 38 43
11.889470 8.442164 55.093842 64 36 41
11.896340 8.565875 55.125679 65 35 41
11.902846 8.689457 55.155827 66 35 41
11.908978 8.812892 55.184238 69 35 42
11.914733 8.936167 55.210903 72 35 42
11.920103 9.059264 55.235786 75 35 43
11.925084 9.182170 55.258873 78 35 43
11.929669 9.304865 55.280117 81 35 44
11.933850 9.427334 55.299492 85 36 45
11.937613 9.549550 55.316925 88 38 47
11.940939 9.671489 55.332340 92 41 49
11.943810 9.793121 55.345642 95 45 53
11.946202 9.914412 55.356728 98 48 56
11.948084 10.035324 55.365448 97 52 59
11.949430 10.155816 55.371681 98 55 63
11.950204 10.275845 55.375267 113 72 80
11.950377 10.395366 55.376068 140 101 110
11.949921 10.514337 55.373959 152 114 125
11.948810 10.632715 55.368809 147 109 121
11.947022 10.750463 55.360527 144 106 119
11.944546 10.867549 55.349052 143 104 120
11.941377 10.983948 55.334366 135 93 111
11.937516 11.099641 55.316479 123 80 98
11.932979 11.214620 55.295448 120 74 93
11.927785 11.328886 55.271385 124 76 95
11.921967 11.442448 55.244427 129 79 97
11.915561 11.555324 55.214741 131 80 98
11.908609 11.667538 55.182529 132 79 98
11.901164 11.779123 55.148029 132 77 97
11.893270 11.890113 55.111450 131 75 97
11.884981 12.000545 55.073040 129 72 94
11.876345 12.110456 55.033020 129 71 93
11.867407 12.219886 54.991600 131 74 94
11.858208 12.328865 54.948975 130 72 90
11.848781 12.437421 54.905293 124 66 81
11.839152 12.545575 54.860676 127 69 81
11.829344 12.653345 54.815224 135 77 86
11.819363 12.760732 54.768970 133 75 82
11.809213 12.867736 54.721943 122 65 71
11.798890 12.974347 54.674107 112 57 62
11.788383 13.080547 54.625420 107 55 60
11.777674 13.186311 54.575794 105 55 62
11.766737 13.291604 54.525116 105 56 66
11.755546 13.396388 54.473259 106 58 69
11.744065 13.500617 54.420059 107 59 74
11.732262 13.604241 54.365364 108 60 78
11.720098 13.707209 54.308998 111 64 83
11.707533 13.809459 54.250774 116 68 89
11.694528 13.910935 54.190510 115 68 88
11.681047 14.011582 54.128044 110 62 80
11.667056 14.111341 54.063210 108 59 75
11.652524 14.210161 53.995869 109 62 76
11.637426 14.307997 53.925911 110 63 76
11.621750 14.404813 53.853271 107 59 72
11.605488 14.500583 53.777912 104 56 68
11.588648 14.595301 53.699879 104 55 68
11.571247 14.688970 53.619247 105 55 69
11.553321 14.781620 53.536179 106 55 69
11.534915 14.873293 53.450890 104 53 67
11.516094 14.964060 53.363678 101 50 65
11.496934 15.054006 53.274895 100 50 64
11.477522 15.143235 53.184940 100 51 64
11.457956 15.231875 53.094280 99 52 64
11.438343 15.320059 53.003391 98 52 64
11.418792 15.407935 52.912796 96 52 63
11.399410 15.495652 52.822987 95 52 62
11.380307 15.583362 52.734463 93 50 61
11.361583 15.671212 52.647697 91 49 60
11.343325 15.759337 52.563095 91 50 59
11.325614 15.847862 52.481022 91 50 59
11.308513 15.936894 52.401779 90 50 59
11.292068 16.026516 52.325581 88 49 59
11.276316 16.116796 52.252583 87 48 57
11.261268 16.207779 52.182858 85 47 56
11.246932 16.299490 52.116425 84 47 56
11.233292 16.391933 52.053219 84 46 56
11.220330 16.485098 51.993160 83 46 56
11.208014 16.578959 51.936085 82 47 56
11.196306 16.673481 51.881832 82 47 56
11.185164 16.768618 51.830204 80 45 54
11.174547 16.864323 51.781006 77 43 50
11.164404 16.960535 51.734001 76 41 47
11.154696 17.057211 51.689018 76 39 44
11.145383 17.154303 51.645866 75 38 43
11.136433 17.251768 51.604389 75 38 43
11.127808 17.349562 51.564423 75 38 43
11.119483 17.447657 51.525848 75 38 43
11.111434 17.546017 51.488548 74 38 43
11.103636 17.644617 51.452412 73 38 43
11.096070 17.743433 51.417355 72 38 44
11.088715 17.842438 51.383274 70 38 44
11.932289 -4.238580 54.745407 118 65 72
11.911757 -4.113477 54.651207 117 64 72
11.891319 -3.988812 54.557438 117 62 71
11.871052 -3.864606 54.464451 116 61 72
11.851044 -3.740884 54.372650 117 61 75
11.831383 -3.617663 54.282448 119 62 79
11.812162 -3.494961 54.194267 120 62 81
11.793476 -3.372792 54.108532 118 59 80
11.775407 -3.251164 54.025627 116 57 78
11.758039 -3.130080 53.945946 117 57 79
11.741448 -3.009538 53.869827 121 61 83
11.725697 -2.889531 53.797558 127 67 88
11.710838 -2.770047 53.729389 130 70 90
11.696915 -2.651069 53.665504 129 68 87
11.683953 -2.532574 53.606041 125 63 82
11.671967 -2.414538 53.551044 119 57 75
11.660959 -2.296932 53.500542 116 53 70
11.650925 -2.179726 53.454502 117 54 71
11.641842 -2.062886 53.412834 123 61 76
11.633692 -1.946383 53.375443 129 68 81
11.626442 -1.830182 53.342178 128 68 79
11.620063 -1.714253 53.312912 125 65 76
11.614522 -1.598566 53.287487 124 64 74
11.609788 -1.483091 53.265770 122 61 71
11.605833 -1.367802 53.247623 123 60 71
11.602632 -1.252673 53.232933 128 64 75
11.600164 -1.137678 53.221615 132 67 79
11.598415 -1.022796 53.213593 132 67 79
11.597377 -0.908004 53.208828 132 67 78
11.597040 -0.793281 53.207283 131 67 77
11.597408 -0.678606 53.208973 129 66 75
11.598483 -0.563957 53.213902 128 66 75
11.600270 -0.449315 53.222099 129 67 76
11.602778 -0.334659 53.233608 128 67 78
11.606020 -0.219966 53.248482 127 66 78
11.610006 -0.105217 53.266773 127 65 79
11.614750 0.009612 53.288532 130 68 85
11.620260 0.124544 53.313816 131 68 86
11.626549 0.239600 53.342670 127 63 82
11.633623 0.354804 53.375126 130 66 85
11.641484 0.470181 53.411194 136 72 91
11.650130 0.585752 53.450859 137 73 90
11.659555 0.701541 53.494102 135 70 87
11.669743 0.817570 53.540840 132 67 85
11.680666 0.933859 53.590954 131 66 85
11.692290 1.050428 53.644287 135 70 90
11.704570 1.167291 53.700626 139 75 96
11.717443 1.284463 53.759689 136 72 95
11.730840 1.401952 53.821156 131 67 92
11.744673 1.519762 53.884621 132 67 94
11.758842 1.637893 53.949627 135 70 97
11.773232 1.756337 54.015652 136 70 97
11.787721 1.875081 54.082127 136 70 98
11.802174 1.994106 54.148434 136 69 97
11.816444 2.113384 54.213909 134 67 95
11.830386 2.232882 54.277874 132 65 93
11.843848 2.352561 54.339638 131 63 90
11.856680 2.472375 54.398510 130 63 87
11.868741 2.592274 54.453846 129 64 84
11.879895 2.712204 54.505024 128 65 82
11.890022 2.832111 54.551483 128 66 81
11.899018 2.951937 54.592762 127 68 80
11.906800 3.071629 54.628464 127 69 81
11.913303 3.191131 54.658302 129 70 83
11.918495 3.310398 54.682117 132 74 88
11.922359 3.429385 54.699844 134 76 90
11.924913 3.548060 54.711567 133 75 88
11.926196 3.666394 54.717449 132 75 86
11.926273 3.784371 54.717804 133 78 87
11.925233 3.901983 54.713028 131 81 88
11.923182 4.019235 54.703621 129 85 89
11.920246 4.136139 54.690151 130 92 94
11.916566 4.252719 54.673267 129 98 97
11.912293 4.369009 54.653664 127 101 99
11.907586 4.485051 54.632069 131 109 106
11.902608 4.600895 54.609230 146 125 123
11.897522 4.716598 54.585892 166 144 144
11.892488 4.832222 54.562798 197 173 175
11.887662 4.947832 54.540657 230 212 214
11.883191 5.063498 54.520142 245 225 231
11.879206 5.179287 54.501858 232 195 211
11.875832 5.295270 54.486378 193 141 164
11.873169 5.411511 54.474159 143 82 111
11.871307 5.528072 54.465622 114 49 81
11.870317 5.645011 54.461079 113 47 78
11.870244 5.762375 54.460743 119 54 81
11.871118 5.880207 54.464748 117 55 78
11.872947 5.998538 54.473141 111 55 72
11.875719 6.117393 54.485863 106 54 67
11.879410 6.236783 54.502792 100 54 63
11.883967 6.356711 54.523705 94 54 59
11.889331 6.477168 54.548313 89 54 58
11.895432 6.598139 54.576302 83 51 54
11.902180 6.719597 54.607262 78 48 51
11.909486 6.841509 54.640785 75 46 49
11.917252 6.963834 54.676414 75 46 50
11.925380 7.086528 54.713707 77 48 52
11.933772 7.209542 54.752209 79 50 54
11.942332 7.332826 54.791485 81 52 57
11.950971 7.456327 54.831116 82 55 59
11.959605 7.579998 54.870731 82 56 61
11.968159 7.703786 54.909977 81 54 60
11.976568 7.827650 54.948559 77 50 56
11.984774 7.951544 54.986206 71 45 50
11.992730 8.075434 55.022709 67 41 46
12.000399 8.199284 55.057892 66 38 43
12.007750 8.323066 55.091621 65 37 41
12.014762 8.446754 55.123791 66 36 41
12.021419 8.570328 55.154331 67 35 41
12.027708 8.693769 55.183189 69 35 41
12.033622 8.817058 55.210320 71 35 42
12.039157 8.940183 55.235718 74 35 42
12.044307 9.063128 55.259342 77 35 42
12.049066 9.185876 55.281178 80 35 42
12.053428 9.308413 55.301189 83 35 44
12.057381 9.430715 55.319328 86 36 45
12.060913 9.552762 55.335533 89 38 48
12.064008 9.674529 55.349731 92 41 51
12.066641 9.795982 55.361813 94 45 54
12.068789 9.917089 55.371670 95 49 57
12.070426 10.037812 55.379177 95 52 58
12.071518 10.158111 55.384190 98 58 63
12.072035 10.277940 55.386562 123 84 89
12.071949 10.397261 55.386166 159 122 128
12.071228 10.516026 55.382858 168 132 139
12.069852 10.634200 55.376541 153 117 126
12.067796 10.751742 55.367111 144 107 119
12.065051 10.868623 55.354519 143 103 119
12.061614 10.984818 55.338749 134 94 110
12.057487 11.100309 55.319813 124 81 98
12.052684 11.215092 55.297775 119 73 90
12.047229 11.329165 55.272747 121 73 89
12.041151 11.442539 55.244865 126 76 91
12.034491 11.555233 55.214306 130 79 93
12.027289 11.667271 55.181267 133 80 95
12.019596 11.778684 55.145969 134 80 96
12.011459 11.889506 55.108643 133 79 97
12.002930 11.999774 55.069504 130 75 95
11.994055 12.109525 55.028786 128 71 93
11.984879 12.218793 54.986683 131 74 95
11.975441 12.327612 54.943390 130 72 92
11.965776 12.436006 54.899044 124 67 83
11.955906 12.543994 54.853760 126 69 82
11.945851 12.651591 54.807629 133 76 86
