ply
format ascii 1.0
element vertex 1157
property float x
property float y
property float z
property uchar red
property uchar green
property uchar blue
end_header
9.827670 16.605457 46.946648 184 154 167
9.836026 16.720863 46.986565 184 153 168
9.844389 16.836454 47.026516 184 153 168
9.852741 16.952196 47.066414 184 152 168
9.861069 17.068069 47.106194 184 150 167
9.869367 17.184063 47.145832 184 149 166
9.877636 17.300177 47.185333 183 148 164
9.885885 17.416426 47.224743 182 147 162
9.894135 17.532845 47.264149 182 146 160
9.902413 17.649487 47.303696 181 145 157
9.910758 17.766415 47.343559 179 143 154
9.919218 17.883724 47.383972 177 141 152
9.927847 18.001516 47.425194 176 141 152
9.936710 18.119909 47.467529 176 141 152
9.945871 18.239033 47.511292 175 140 151
9.955402 18.359030 47.556824 171 137 148
9.965372 18.480034 47.604450 170 136 146
9.975848 18.602186 47.654491 168 135 144
9.986887 18.725613 47.707226 167 134 142
9.998542 18.850426 47.762901 166 133 139
10.099581 -0.917856 47.753811 254 179 190
10.091244 -0.814242 47.714394 254 181 192
10.083466 -0.710838 47.677616 254 182 194
10.076267 -0.607627 47.643578 254 183 196
10.069670 -0.504593 47.612385 254 183 197
10.063694 -0.401718 47.584133 254 183 198
10.058355 -0.298984 47.558887 254 185 200
10.053663 -0.196371 47.536705 254 196 211
10.049620 -0.093860 47.517582 254 211 226
10.046216 0.008569 47.501488 254 213 227
10.043435 0.110935 47.488342 255 207 221
10.041251 0.213257 47.478016 254 212 224
10.039628 0.315553 47.470337 254 221 232
10.038517 0.417837 47.465084 254 228 239
10.037865 0.520122 47.461998 254 234 245
10.037611 0.622418 47.460800 255 238 248
10.037690 0.724733 47.461174 254 238 248
10.038034 0.827072 47.462807 254 231 243
10.038574 0.929436 47.465359 254 220 234
10.039243 1.031824 47.468517 254 216 232
10.039978 1.134233 47.471996 254 219 235
10.040721 1.236658 47.475506 254 221 237
10.041423 1.339093 47.478825 254 221 239
10.042039 1.441530 47.481739 254 218 236
10.042540 1.543961 47.484104 254 217 235
10.042897 1.646380 47.485798 254 224 241
10.043098 1.748778 47.486748 254 229 244
10.043135 1.851150 47.486919 254 227 241
10.043009 1.953492 47.486324 254 229 242
10.042727 2.055799 47.484993 254 230 243
10.042302 2.158069 47.482983 252 226 239
10.041749 2.260302 47.480370 251 233 242
10.041084 2.362497 47.477226 253 247 251
10.040328 2.464656 47.473648 254 250 254
10.039495 2.566780 47.469711 254 247 254
10.038603 2.668872 47.465492 254 249 254
10.037661 2.770931 47.461037 254 253 254
10.036678 2.872960 47.456394 254 252 254
10.035658 2.974958 47.451569 254 247 252
10.034600 3.076923 47.446564 254 246 250
10.033497 3.178852 47.441349 253 247 250
10.032340 3.280741 47.435883 249 243 245
10.031116 3.382584 47.430092 247 240 242
10.029805 3.484372 47.423893 251 247 247
10.028391 3.586096 47.417206 254 253 253
10.026851 3.687746 47.409927 254 254 254
10.025168 3.789310 47.401970 254 254 254
10.023323 3.890776 47.393246 254 254 254
10.021302 3.992135 47.383690 254 254 254
10.019093 4.093375 47.373241 254 254 254
10.016690 4.194490 47.361881 254 254 254
10.014092 4.295472 47.349598 254 254 254
10.011309 4.396319 47.336433 254 254 254
10.008348 4.497030 47.322437 254 254 254
10.005230 4.597609 47.307693 254 254 254
10.001978 4.698061 47.292316 254 254 254
9.998618 4.798395 47.276432 254 254 254
9.995181 4.898622 47.260181 254 254 254
9.991700 4.998757 47.243721 254 254 254
9.988205 5.098815 47.227196 254 254 254
9.984727 5.198810 47.210751 254 254 254
9.981292 5.298757 47.194508 254 254 254
9.977923 5.398670 47.178581 254 254 254
9.974640 5.498561 47.163055 254 254 254
9.971456 5.598441 47.147999 254 254 254
9.968377 5.698316 47.133442 254 254 254
9.965408 5.798193 47.119408 254 254 254
9.962550 5.898074 47.105892 254 254 254
9.959798 5.997961 47.092876 254 254 254
9.957149 6.097855 47.080353 254 254 254
9.954598 6.197756 47.068295 254 254 254
9.952146 6.297668 47.056694 254 254 254
9.949791 6.397592 47.045563 254 254 254
9.947544 6.497539 47.034935 254 254 254
9.945415 6.597517 47.024868 254 254 254
9.943421 6.697545 47.015446 254 254 254
9.941592 6.797644 47.006798 254 252 253
9.939957 6.897839 46.999062 253 249 251
9.938551 6.998164 46.992416 251 246 249
9.937417 7.098653 46.987053 253 250 251
9.936595 7.199347 46.983170 254 254 254
9.936130 7.300284 46.980968 254 254 254
9.936059 7.401506 46.980633 254 254 254
9.936418 7.503052 46.982330 254 253 254
9.937235 7.604955 46.986191 254 251 254
9.938525 7.707243 46.992298 254 248 253
9.940299 7.809936 47.000683 253 246 252
9.942547 7.913043 47.011314 253 241 250
9.945251 8.016562 47.024097 252 237 248
9.948375 8.120481 47.038868 253 240 250
9.951871 8.224770 47.055397 254 247 253
9.955679 8.329391 47.073402 254 247 253
9.959727 8.434294 47.092545 254 244 253
9.963933 8.539414 47.112431 254 246 254
9.968212 8.644684 47.132664 254 250 254
9.972471 8.750023 47.152802 254 247 253
9.976624 8.855353 47.172432 251 232 245
9.980578 8.960593 47.191135 244 212 229
9.984259 9.065662 47.208538 239 202 218
9.987591 9.170488 47.224293 241 202 218
9.990517 9.275003 47.238125 246 206 222
9.992990 9.379153 47.249817 247 208 223
9.994977 9.482895 47.259216 245 207 221
9.996465 9.586196 47.266247 244 207 221
9.997453 9.689043 47.270920 245 211 224
9.997953 9.791434 47.273289 247 215 228
9.997996 9.893382 47.273491 246 217 229
9.997621 9.994912 47.271713 242 212 225
9.996875 10.096061 47.268192 238 206 219
9.995814 10.196874 47.263176 240 206 220
9.994497 10.297400 47.256950 242 209 224
9.992983 10.397695 47.249790 242 209 224
9.991330 10.497812 47.241974 242 210 225
9.989591 10.597805 47.233749 243 210 225
9.987808 10.697716 47.225319 241 208 223
9.986017 10.797581 47.216854 241 209 222
9.984243 10.897428 47.208462 238 208 220
9.982495 10.997268 47.200199 235 206 217
9.980771 11.097099 47.192047 235 206 218
9.979056 11.196904 47.183937 237 209 220
9.977321 11.296652 47.175732 239 211 222
9.975526 11.396297 47.167248 239 212 223
9.973624 11.495781 47.158253 241 215 226
9.971558 11.595037 47.148483 246 223 232
9.969266 11.693984 47.137646 251 233 241
9.966686 11.792544 47.125446 251 232 242
9.963758 11.890635 47.111599 246 221 235
9.960421 11.988176 47.095821 239 211 228
9.956626 12.085093 47.077881 234 203 222
9.952332 12.181322 47.057579 230 198 218
9.947509 12.276810 47.034775 230 198 218
9.942142 12.371522 47.009396 231 200 218
9.936228 12.465439 46.981430 232 200 218
9.929782 12.558562 46.950954 232 200 217
9.922836 12.650918 46.918110 231 200 215
9.915437 12.742548 46.883125 229 198 213
9.907645 12.833520 46.846287 227 197 212
9.899537 12.923920 46.807945 225 194 210
9.891199 13.013851 46.768520 222 192 207
9.882730 13.103440 46.728481 221 191 206
9.874237 13.192823 46.688324 222 191 206
9.865829 13.282148 46.648567 222 192 206
9.857621 13.371572 46.609756 221 192 205
9.849724 13.461255 46.572418 220 192 204
9.842248 13.551355 46.537067 220 192 205
9.835296 13.642032 46.504196 219 193 205
9.828962 13.733430 46.474251 218 192 204
9.823331 13.825686 46.447624 218 190 204
9.818471 13.918922 46.424644 218 190 204
9.814440 14.013242 46.405582 221 192 207
9.811276 14.108728 46.390625 224 195 209
9.809008 14.205444 46.379894 225 196 210
9.807641 14.303432 46.373436 225 196 209
9.807176 14.402713 46.371235 225 196 208
9.807590 14.503287 46.373196 224 196 207
9.808859 14.605141 46.379192 222 193 204
9.810941 14.708241 46.389038 217 188 199
9.813789 14.812539 46.402508 212 183 194
9.817356 14.917987 46.419373 210 180 191
9.821583 15.024518 46.439358 210 179 190
9.826416 15.132068 46.462212 210 179 190
9.831801 15.240572 46.487671 209 178 189
9.837683 15.349961 46.515484 206 174 185
9.844009 15.460170 46.545399 203 171 182
9.850733 15.571134 46.577190 200 168 179
9.857809 15.682795 46.610645 199 167 178
9.865192 15.795094 46.645557 198 165 177
9.872848 15.907979 46.681751 195 163 175
9.880733 16.021397 46.719040 193 162 174
9.888816 16.135296 46.757256 191 161 172
9.897060 16.249624 46.796238 188 159 171
9.905437 16.364340 46.835842 187 157 169
9.913912 16.479389 46.875916 186 156 168
9.922456 16.594728 46.916317 185 155 167
9.931044 16.710314 46.956917 184 154 167
9.939651 16.826107 46.997612 184 153 167
9.948258 16.942078 47.038315 184 152 167
9.956852 17.058199 47.078949 184 151 167
9.965425 17.174459 47.119488 184 150 165
9.973978 17.290861 47.159924 183 148 164
9.982520 17.407417 47.200314 182 147 161
9.991071 17.524162 47.240746 182 146 160
9.999658 17.641146 47.281345 180 144 157
10.008321 17.758442 47.322311 178 143 155
10.017108 17.876135 47.363861 177 142 153
10.026077 17.994331 47.406265 175 141 151
10.035290 18.113152 47.449829 175 140 150
10.044816 18.232729 47.494869 173 139 149
10.054727 18.353203 47.541729 171 138 148
10.065090 18.474709 47.590733 170 137 147
10.075975 18.597389 47.642200 169 136 145
10.087442 18.721371 47.696419 167 134 143
10.099541 18.846766 47.753624 167 134 141
10.112307 18.973660 47.813984 165 133 140
10.203398 -0.917935 47.757915 254 179 192
10.195071 -0.814320 47.718941 254 181 194
10.187310 -0.710912 47.682613 254 182 195
10.180139 -0.607697 47.649048 254 183 197
10.173578 -0.504656 47.618340 254 183 198
10.167649 -0.401772 47.590588 254 184 199
10.162369 -0.299028 47.565872 254 187 202
10.157744 -0.196402 47.544228 254 201 216
10.153779 -0.093876 47.525669 254 217 231
10.150465 0.008570 47.510155 254 217 230
10.147783 0.110957 47.497608 254 210 222
10.145710 0.213302 47.487900 254 216 227
10.144205 0.315623 47.480854 254 226 235
10.143220 0.417935 47.476246 254 229 239
10.142701 0.520251 47.473816 254 232 242
10.142584 0.622582 47.473270 254 234 245
10.142803 0.724934 47.474293 254 231 243
10.143287 0.827312 47.476559 254 220 234
10.143964 0.929717 47.479729 253 206 222
10.144768 1.032149 47.483486 252 204 220
10.145629 1.134604 47.487522 254 213 230
10.146491 1.237076 47.491554 254 220 238
10.147299 1.339559 47.495338 255 222 240
10.148010 1.442044 47.498669 254 220 239
10.148590 1.544523 47.501381 254 219 237
10.149013 1.646989 47.503357 254 222 240
10.149261 1.749432 47.504517 254 225 242
10.149327 1.851848 47.504833 254 226 241
10.149214 1.954231 47.504299 254 230 243
10.148926 2.056576 47.502949 254 232 245
10.148477 2.158881 47.500847 253 230 242
10.147882 2.261144 47.498066 252 237 245
10.147160 2.363366 47.494686 253 249 251
10.146329 2.465546 47.490799 254 251 254
10.145408 2.567687 47.486488 254 248 254
10.144413 2.669790 47.481831 254 249 254
10.143357 2.771857 47.476887 254 252 254
10.142247 2.873886 47.471695 254 251 254
10.141091 2.975880 47.466286 254 247 252
10.139887 3.077836 47.460644 254 246 251
10.138629 3.179750 47.454758 253 246 250
10.137308 3.281619 47.448574 249 238 243
10.135911 3.383436 47.442036 246 232 237
10.134421 3.485193 47.435062 247 237 240
10.132819 3.586880 47.427567 251 246 247
10.131088 3.688487 47.419460 254 252 252
10.129205 3.790003 47.410648 254 254 254
10.127154 3.891417 47.401051 254 254 254
10.124922 3.992717 47.390602 254 254 254
10.122496 4.093894 47.379246 254 254 254
10.119872 4.194940 47.366962 254 254 254
10.117050 4.295849 47.353756 254 254 254
10.114039 4.396619 47.339664 254 254 254
10.110851 4.497249 47.324741 254 254 254
10.107506 4.597744 47.309082 254 254 254
10.104029 4.698109 47.292805 254 254 254
10.100448 4.798356 47.276047 254 254 254
10.096795 4.898495 47.258953 254 254 254
10.093106 4.998542 47.241684 254 254 254
10.089414 5.098513 47.224400 254 254 254
10.085750 5.198424 47.207249 254 254 254
10.082144 5.298293 47.190372 254 254 254
10.078621 5.398132 47.173882 254 254 254
10.075202 5.497957 47.157883 254 254 254
10.071901 5.597780 47.142433 254 254 254
10.068729 5.697608 47.127586 255 255 255
10.065690 5.797449 47.113361 254 254 254
10.062784 5.897306 47.099758 254 254 254
10.060010 5.997183 47.086773 255 255 255
10.057364 6.097082 47.074387 254 254 254
10.054840 6.197004 47.062576 254 254 254
10.052441 6.296951 47.051342 254 254 254
10.050163 6.396929 47.040688 254 254 254
10.048015 6.496943 47.030632 254 254 254
10.046008 6.597008 47.021236 254 253 253
10.044160 6.697137 47.012585 252 251 251
10.042493 6.797353 47.004784 251 246 248
10.041040 6.897681 46.997986 249 241 244
10.039835 6.998153 46.992344 248 241 244
10.038918 7.098804 46.988049 251 247 248
10.038327 7.199670 46.985283 254 253 253
10.038106 7.300794 46.984249 254 254 254
10.038292 7.402214 46.985119 254 254 254
10.038919 7.503967 46.988056 254 253 254
10.040013 7.606086 46.993179 254 253 254
10.041592 7.708599 47.000565 254 254 254
10.043660 7.811525 47.010246 254 253 254
10.046210 7.914873 47.022182 254 249 253
10.049220 8.018638 47.036270 254 243 252
10.052655 8.122808 47.052349 254 243 252
10.056465 8.227354 47.070183 254 246 253
10.060588 8.332236 47.089481 254 244 253
10.064952 8.437403 47.109901 254 239 253
10.069471 8.542790 47.131062 254 241 253
10.074059 8.648328 47.152534 254 246 253
10.078623 8.753937 47.173893 254 248 252
10.083070 8.859535 47.194710 252 240 248
10.087313 8.965042 47.214565 246 222 235
10.091268 9.070375 47.233078 240 206 220
10.094861 9.175460 47.249901 239 201 215
10.098035 9.280231 47.264751 245 206 220
10.100738 9.384629 47.277401 248 209 224
10.102939 9.488611 47.287708 245 207 221
10.104622 9.592145 47.295582 241 202 217
10.105785 9.695214 47.301029 239 201 216
10.106443 9.797818 47.304111 239 202 217
10.106625 9.899967 47.304958 237 202 216
10.106368 10.001686 47.303757 235 198 213
10.105723 10.103013 47.300739 232 194 209
10.104745 10.203989 47.296158 231 193 209
10.103493 10.304667 47.290298 231 193 209
10.102027 10.405099 47.283436 232 194 210
10.100405 10.505339 47.275845 235 198 214
10.098680 10.605438 47.267769 239 203 219
10.096894 10.705439 47.259415 241 207 222
10.095085 10.805377 47.250946 241 207 222
10.093273 10.905277 47.242466 236 204 218
10.091469 11.005148 47.234020 232 201 214
10.089669 11.104988 47.225594 231 202 215
10.087855 11.204776 47.217106 233 204 217
10.085999 11.304480 47.208416 235 207 220
10.084058 11.404050 47.199333 238 210 223
10.081983 11.503428 47.189617 242 214 227
10.079714 11.602541 47.178997 246 223 234
10.077189 11.701311 47.167183 251 236 244
10.074345 11.799656 47.153866 249 235 243
10.071116 11.897491 47.138760 241 216 230
10.067449 11.994736 47.121590 234 203 221
10.063288 12.091314 47.102116 231 198 217
10.058594 12.187164 47.080147 229 196 216
10.053340 12.282233 47.055553 229 195 215
10.047509 12.376487 47.028263 228 196 215
10.041102 12.469909 46.998276 228 196 214
10.034139 12.562502 46.965683 228 196 213
10.026651 12.654295 46.930637 229 197 213
10.018692 12.745336 46.893379 230 199 214
10.010323 12.835690 46.854210 230 199 214
10.001627 12.925455 46.813507 225 194 209
9.992696 13.014737 46.771706 220 189 205
9.983633 13.103666 46.729286 219 189 204
9.974547 13.192382 46.686760 220 189 204
9.965555 13.281039 46.644672 221 191 205
9.956776 13.369800 46.603577 221 192 205
9.948325 13.458829 46.564022 219 191 204
9.940317 13.548290 46.526539 218 192 203
9.932858 13.638346 46.491631 219 193 204
9.926047 13.729144 46.459747 218 192 204
9.919969 13.820827 46.431297 217 189 203
9.914697 13.913519 46.406620 218 190 205
9.910286 14.007322 46.385979 222 193 208
9.906781 14.102325 46.369572 223 193 209
9.904204 14.198588 46.357513 219 189 205
9.902569 14.296159 46.349857 217 187 202
9.901867 14.395053 46.346573 219 189 204
9.902081 14.495273 46.347569 221 192 205
9.903178 14.596802 46.352711 221 190 203
9.905121 14.699605 46.361801 216 186 198
9.907860 14.803638 46.374622 211 181 193
9.911342 14.908843 46.390919 208 177 189
9.915509 15.015157 46.410423 207 175 187
9.920307 15.122516 46.432880 206 174 186
9.925678 15.230851 46.458023 205 173 184
9.931567 15.340095 46.485584 203 171 182
9.937922 15.450181 46.515327 202 169 180
9.944692 15.561046 46.547016 201 169 179
9.951832 15.672630 46.580437 200 168 178
9.959299 15.784878 46.615387 198 166 177
9.967056 15.897738 46.651695 195 164 175
9.975061 16.011152 46.689163 194 163 174
9.983281 16.125074 46.727638 191 161 172
9.991681 16.239456 46.766953 189 159 172
10.000226 16.354244 46.806950 187 158 170
10.008886 16.469395 46.847485 186 157 169
10.017631 16.584858 46.888412 185 156 168
10.026431 16.700594 46.929604 184 154 167
10.035264 16.816559 46.970947 184 154 167
10.044108 16.932722 47.012344 184 153 167
10.052950 17.049061 47.053726 184 151 166
10.061780 17.165556 47.095055 184 150 165
10.070598 17.282209 47.136330 182 148 163
10.079413 17.399038 47.177593 181 147 160
10.088247 17.516073 47.218941 181 146 158
10.097126 17.633368 47.260498 179 144 156
10.106090 17.750990 47.302456 178 143 155
10.115190 17.869034 47.345047 176 141 153
10.124480 17.987600 47.388531 175 141 150
10.134028 18.106813 47.433224 174 140 149
10.143903 18.226807 47.479443 172 139 148
10.154176 18.347719 47.527527 171 138 147
10.164919 18.469692 47.577812 169 137 146
10.176199 18.592865 47.630608 168 136 145
10.188078 18.717363 47.686207 167 134 143
10.200603 18.843298 47.744835 167 134 143
10.213814 18.970755 47.806667 166 134 141
10.308021 -0.918084 47.765667 254 180 194
10.299708 -0.814460 47.727146 254 181 195
10.291971 -0.711042 47.691296 254 182 196
10.284831 -0.607813 47.658207 254 183 198
10.278312 -0.504758 47.627998 254 185 200
10.272433 -0.401858 47.600761 254 187 203
10.267213 -0.299095 47.576569 254 192 207
10.262660 -0.196449 47.555470 254 203 218
10.258776 -0.093900 47.537472 254 218 231
10.255551 0.008572 47.522530 254 221 233
10.252971 0.110987 47.510574 254 218 229
10.251005 0.213363 47.501465 254 226 235
10.249616 0.315717 47.495029 254 233 242
10.248755 0.418065 47.491035 254 233 242
10.248363 0.520420 47.489220 254 233 244
10.248376 0.622792 47.489285 254 232 243
10.248727 0.725187 47.490906 254 222 235
10.249340 0.827611 47.493748 253 207 222
10.250145 0.930065 47.497475 252 196 213
10.251067 1.032546 47.501755 252 199 217
10.252043 1.135052 47.506271 254 212 230
10.253007 1.237576 47.510738 254 221 240
10.253905 1.340110 47.514904 254 222 241
10.254692 1.442647 47.518551 254 220 240
10.255332 1.545178 47.521515 254 219 238
10.255797 1.647693 47.523670 254 222 240
10.256071 1.750185 47.524940 254 228 245
10.256145 1.852646 47.525284 254 231 246
10.256020 1.955070 47.524704 254 233 247
10.255701 2.057454 47.523228 254 234 247
10.255204 2.159793 47.520924 254 236 247
10.254544 2.262086 47.517864 254 244 250
10.253741 2.364334 47.514141 254 251 253
10.252813 2.466535 47.509846 254 252 254
10.251781 2.568692 47.505062 254 251 254
10.250662 2.670805 47.499874 254 250 254
10.249469 2.772876 47.494347 254 252 254
10.248213 2.874905 47.488525 254 252 254
10.246899 2.976893 47.482437 254 248 253
10.245528 3.078837 47.476086 254 245 251
10.244096 3.180735 47.469448 254 243 248
10.242594 3.282581 47.462486 252 238 243
10.241008 3.384371 47.455139 248 232 238
10.239323 3.486094 47.447330 246 232 237
10.237520 3.587743 47.438976 248 240 242
10.235580 3.689306 47.429989 252 248 250
10.233486 3.790773 47.420284 255 251 253
10.231216 3.892132 47.409767 254 252 254
10.228763 3.993374 47.398396 254 254 254
10.226110 4.094487 47.386105 254 254 254
10.223256 4.195464 47.372883 254 252 253
10.220202 4.296300 47.358730 254 250 253
10.216958 4.396993 47.343697 254 252 254
10.213536 4.497544 47.327843 254 254 254
10.209958 4.597955 47.311260 254 254 254
10.206250 4.698236 47.294079 254 254 254
10.202443 4.798395 47.276436 254 254 254
10.198573 4.898448 47.258503 255 255 255
10.194674 4.998410 47.240433 254 254 254
10.190781 5.098297 47.222397 254 254 254
10.186930 5.198127 47.204552 254 254 254
10.183151 5.297918 47.187038 254 254 254
10.179474 5.397687 47.169998 254 254 254
10.175919 5.497449 47.153526 254 254 254
10.172503 5.597217 47.137695 254 254 254
10.169236 5.697001 47.122562 254 254 254
10.166126 5.796807 47.108150 254 254 254
10.163175 5.896644 47.094475 254 254 254
10.160379 5.996514 47.081520 254 254 254
10.157736 6.096420 47.069271 254 254 254
10.155243 6.196364 47.057720 254 254 254
10.152897 6.296350 47.046848 254 254 254
10.150698 6.396381 47.036655 254 254 254
10.148652 6.496467 47.027180 252 250 252
10.146770 6.596618 47.018456 248 244 246
10.145066 6.696849 47.010563 245 239 242
10.143567 6.797183 47.003613 244 236 240
10.142299 6.897645 46.997738 246 236 240
10.141295 6.998263 46.993088 249 241 244
10.140594 7.099074 46.989841 252 248 250
10.140236 7.200114 46.988178 254 253 253
10.140260 7.301422 46.988289 254 254 254
10.140702 7.403036 46.990341 254 254 254
10.141597 7.504993 46.994484 254 253 254
10.142967 7.607325 47.000832 254 253 254
10.144830 7.710058 47.009464 254 254 254
10.147188 7.813211 47.020393 254 253 254
10.150033 7.916790 47.033577 254 251 254
10.153343 8.020794 47.048916 254 248 253
10.157083 8.125207 47.066242 254 247 253
10.161199 8.229999 47.085316 254 245 252
10.165627 8.335131 47.105839 253 238 250
10.170296 8.440549 47.127472 253 234 249
10.175118 8.546191 47.149818 254 236 250
10.180005 8.651983 47.172459 254 238 248
10.184862 8.757848 47.194969 254 241 246
10.189596 8.863702 47.216904 253 241 247
10.194116 8.969462 47.237850 250 232 241
10.198338 9.075048 47.257412 245 216 227
10.202187 9.180383 47.275249 242 206 217
10.205602 9.285399 47.291073 245 209 220
10.208532 9.390038 47.304653 249 216 228
10.210945 9.494255 47.315834 248 215 228
10.212824 9.598018 47.324539 242 205 219
10.214167 9.701308 47.330761 233 194 209
10.214988 9.804126 47.334564 228 189 204
10.215315 9.906481 47.336079 227 187 202
10.215187 10.008396 47.335491 225 184 200
10.214655 10.109908 47.333023 221 179 196
10.213773 10.211061 47.328938 215 173 191
10.212603 10.311904 47.323513 214 172 189
10.211202 10.412490 47.317020 217 176 193
10.209630 10.512870 47.309738 222 181 199
10.207939 10.613096 47.301903 228 188 205
10.206174 10.713211 47.293724 233 195 211
10.204368 10.813246 47.285355 236 200 216
10.202541 10.913224 47.276894 235 201 216
10.200705 11.013154 47.268379 233 200 215
10.198853 11.113031 47.259800 232 201 216
10.196966 11.212831 47.251057 232 201 216
10.195014 11.312524 47.242012 231 202 217
10.192951 11.412051 47.232452 232 203 218
10.190726 11.511356 47.222141 236 206 222
10.188279 11.610362 47.210804 241 214 229
10.185546 11.708991 47.198139 246 225 237
10.182462 11.807158 47.183846 245 225 237
10.178961 11.904775 47.167622 238 210 225
10.174983 12.001761 47.149193 233 199 219
10.170481 12.098043 47.128330 232 197 217
10.165412 12.193556 47.104839 230 195 215
10.159748 12.288247 47.078594 228 194 214
10.153477 12.382086 47.049538 226 193 212
10.146602 12.475055 47.017673 226 192 211
10.139141 12.567163 46.983105 225 192 209
10.131134 12.658438 46.945999 225 193 209
10.122632 12.748930 46.906605 228 196 211
10.113708 12.838716 46.865250 229 198 213
10.104443 12.927888 46.822319 224 193 208
10.094934 13.016561 46.778259 219 189 204
10.085291 13.104868 46.733574 218 188 203
10.075627 13.192957 46.688793 219 190 205
10.066064 13.280984 46.644478 221 192 206
10.056725 13.369118 46.601200 222 193 207
10.047729 13.457526 46.559517 219 192 205
10.039196 13.546379 46.519978 216 191 202
10.031236 13.635839 46.483086 217 193 204
10.023949 13.726063 46.449322 218 193 204
10.017426 13.817195 46.419098 218 192 205
10.011739 13.909359 46.392746 223 197 210
10.006949 14.002663 46.370548 230 201 216
10.003098 14.097195 46.352703 229 200 215
10.000211 14.193019 46.339325 221 191 207
9.998298 14.290175 46.330460 213 182 198
9.997353 14.388689 46.326084 213 182 198
9.997355 14.488557 46.326096 217 186 200
9.998275 14.589761 46.330353 217 186 199
10.000068 14.692267 46.338661 214 182 195
10.002684 14.796028 46.350784 209 178 190
10.006069 14.900987 46.366474 206 174 186
10.010167 15.007080 46.385460 205 172 185
10.014916 15.114239 46.407467 205 172 184
10.020260 15.222396 46.432228 202 170 182
10.026143 15.331484 46.459492 201 169 180
10.032511 15.441436 46.488995 201 169 180
10.039312 15.552187 46.520515 201 169 180
10.046503 15.663680 46.553833 200 169 179
10.054040 15.775862 46.588760 198 167 177
10.061882 15.888674 46.625099 196 165 176
10.069991 16.002069 46.662678 194 163 174
10.078330 16.115992 46.701317 192 162 173
10.086865 16.230398 46.740871 190 160 172
10.095564 16.345238 46.781174 188 158 171
10.104390 16.460463 46.822075 187 157 170
10.113315 16.576023 46.863430 185 156 168
10.122309 16.691874 46.905106 185 155 168
10.131347 16.807981 46.946987 184 154 167
10.140408 16.924305 46.988976 184 153 167
10.149476 17.040823 47.030994 184 152 166
10.158542 17.157518 47.073002 184 150 164
10.167604 17.274389 47.114998 182 148 162
10.176674 17.391453 47.157024 181 148 159
10.185769 17.508741 47.199173 180 147 157
10.194920 17.626308 47.241573 178 145 155
10.204165 17.744221 47.284416 177 143 154
10.213555 17.862574 47.327927 175 142 152
10.223150 17.981472 47.372387 174 141 150
10.233013 18.101038 47.418091 173 140 148
10.243217 18.221407 47.465378 171 138 147
10.253835 18.342720 47.514580 170 137 146
10.264937 18.465118 47.566025 168 136 145
10.276595 18.588739 47.620041 167 135 144
10.288865 18.713711 47.676903 166 134 143
10.301800 18.840141 47.736839 166 134 143
10.315434 18.968115 47.800014 165 133 142
10.413452 -0.918301 47.776974 254 181 195
10.405160 -0.814661 47.738926 254 181 196
10.397449 -0.711224 47.703552 254 182 197
10.390346 -0.607976 47.670963 254 183 199
10.383872 -0.504899 47.641258 255 186 202
10.378049 -0.401975 47.614544 254 191 206
10.372891 -0.299185 47.590881 254 194 209
10.368411 -0.196510 47.570324 254 202 217
10.364609 -0.093930 47.552879 254 216 228
10.361477 0.008575 47.538509 254 224 236
10.358996 0.111026 47.527130 254 227 238
10.357139 0.213440 47.518608 254 232 242
10.355862 0.315835 47.512749 254 234 244
10.355119 0.418226 47.509338 254 235 245
10.354849 0.520627 47.508099 254 235 244
10.354985 0.623047 47.508724 254 228 239
10.355458 0.725493 47.510899 254 214 228
10.356192 0.827969 47.514263 254 203 218
10.357109 0.930476 47.518471 253 199 217
10.358140 1.033013 47.523205 253 204 223
10.359212 1.135574 47.528122 254 213 232
10.360262 1.238154 47.532936 254 221 241
10.361232 1.340745 47.537388 254 222 242
10.362076 1.443337 47.541256 254 220 239
10.362755 1.545921 47.544376 255 220 239
10.363241 1.648488 47.546604 254 225 242
10.363518 1.751029 47.547874 254 230 246
10.363576 1.853537 47.548138 254 230 246
10.363416 1.956004 47.547405 253 228 243
10.363043 2.058426 47.545696 253 229 243
10.362473 2.160800 47.543083 254 236 247
10.361725 2.263124 47.539650 254 245 252
10.360816 2.365395 47.535477 254 249 254
10.359768 2.467616 47.530670 254 251 254
10.358601 2.569787 47.525314 255 252 255
10.357335 2.671909 47.519508 254 252 254
10.355986 2.773983 47.513317 254 251 254
10.354561 2.876011 47.506783 254 252 254
10.353071 2.977990 47.499943 255 249 253
10.351516 3.079922 47.492813 254 246 251
10.349894 3.181801 47.485367 254 245 250
10.348193 3.283624 47.477566 254 242 248
10.346405 3.385385 47.469360 253 239 245
10.344512 3.487075 47.460674 251 239 244
10.342497 3.588685 47.451431 251 244 247
10.340340 3.690204 47.441536 254 249 251
10.338023 3.791622 47.430904 254 251 253
10.335529 3.892928 47.419464 254 251 254
10.332847 3.994112 47.407154 254 254 254
10.329963 4.095162 47.393925 254 253 254
10.326876 4.196074 47.379761 252 249 251
10.323586 4.296839 47.364670 250 244 249
10.320107 4.397459 47.348705 252 248 251
10.316450 4.497932 47.331924 254 253 254
10.312638 4.598264 47.314442 254 254 254
10.308702 4.698464 47.296379 254 254 254
10.304671 4.798542 47.277885 254 254 254
10.300583 4.898513 47.259132 254 254 254
10.296474 4.998394 47.240280 255 255 255
10.292386 5.098202 47.221519 254 254 254
10.288350 5.197957 47.203007 254 254 254
10.284404 5.297678 47.184898 254 254 254
10.280573 5.397381 47.167324 254 254 254
10.276885 5.497086 47.150402 254 254 254
10.273355 5.596803 47.134212 254 254 254
10.270000 5.696547 47.118809 254 254 254
10.266822 5.796325 47.104233 254 254 254
10.263826 5.896145 47.090488 254 254 254
10.261011 5.996011 47.077572 254 254 254
10.258374 6.095928 47.065475 254 254 254
10.255912 6.195898 47.054180 254 254 254
10.253621 6.295924 47.043667 254 254 254
10.251501 6.396012 47.033939 253 251 253
10.249558 6.496170 47.025028 246 240 243
10.247801 6.596409 47.016964 235 224 229
10.246244 6.696744 47.009823 232 220 226
10.244910 6.797196 47.003704 240 231 234
10.243826 6.897790 46.998726 248 242 244
10.243023 6.998555 46.995045 252 249 250
10.242538 7.099524 46.992821 254 252 253
10.242410 7.200735 46.992229 254 252 253
10.242675 7.302223 46.993446 254 253 254
10.243369 7.404027 46.996632 254 254 254
10.244524 7.506183 47.001934 254 253 253
10.246164 7.608720 47.009453 254 252 253
10.248303 7.711667 47.019268 254 253 254
10.250943 7.815037 47.031380 254 252 254
10.254075 7.918839 47.045750 254 248 253
10.257675 8.023070 47.062267 254 247 252
10.261705 8.127712 47.080757 254 249 253
10.266113 8.232738 47.100979 253 244 251
10.270835 8.338104 47.122646 251 233 246
10.275794 8.443760 47.145397 250 229 244
10.280906 8.549641 47.168850 253 234 248
10.286077 8.655672 47.192574 254 235 246
10.291214 8.761777 47.216145 253 232 240
10.296220 8.867870 47.239113 252 233 240
10.301005 8.973871 47.261070 252 232 239
10.305483 9.079696 47.281612 250 224 231
10.309577 9.185266 47.300392 247 216 223
10.313226 9.290516 47.317131 249 220 228
10.316378 9.395387 47.331593 252 230 238
10.318999 9.499831 47.343624 253 230 239
10.321073 9.603817 47.353134 245 214 227
10.322596 9.707327 47.360123 234 195 211
10.323583 9.810358 47.364655 228 185 203
10.324061 9.912919 47.366848 229 185 203
10.324072 10.015037 47.366894 228 184 203
10.323664 10.116743 47.365021 222 177 196
10.322891 10.218082 47.361481 213 168 187
10.321816 10.319102 47.356548 208 162 182
10.320498 10.419857 47.350502 206 161 180
10.318996 10.520397 47.343609 206 161 180
10.317361 10.620771 47.336109 209 165 184
10.315637 10.721020 47.328194 215 173 192
10.313855 10.821174 47.320023 221 182 200
10.312039 10.921257 47.311691 226 188 205
10.310196 11.021274 47.303230 229 192 210
10.308317 11.121217 47.294613 229 195 212
10.306383 11.221063 47.285740 228 195 212
10.304359 11.320771 47.276455 226 194 210
10.302202 11.420292 47.266556 224 193 210
10.299855 11.519558 47.255787 225 194 211
10.297256 11.618494 47.243870 230 198 217
10.294342 11.717018 47.230495 235 204 222
10.291043 11.815043 47.215359 234 203 221
10.287295 11.912484 47.198166 232 198 216
10.283039 12.009256 47.178638 231 195 215
10.278222 12.105285 47.156536 229 194 213
10.272804 12.200504 47.131680 227 193 212
10.266760 12.294866 47.103951 225 191 210
10.260077 12.388336 47.073284 224 190 209
10.252758 12.480902 47.039707 223 189 207
10.244828 12.572572 47.003326 222 188 206
10.236328 12.663379 46.964325 222 189 205
10.227311 12.753375 46.922958 223 191 207
10.217854 12.842638 46.879570 226 194 210
10.208043 12.931267 46.834557 222 192 207
10.197981 13.019381 46.788391 218 188 203
10.187779 13.107115 46.741585 216 187 202
10.177556 13.194621 46.694683 217 188 203
10.167439 13.282062 46.648262 219 191 205
10.157554 13.369609 46.602909 220 193 207
10.148026 13.457435 46.559200 218 192 205
10.138979 13.545713 46.517689 214 190 201
10.130527 13.634613 46.478909 217 194 204
10.122771 13.724292 46.443325 222 199 209
10.115807 13.814896 46.411373 225 201 212
10.109709 13.906556 46.383400 229 204 216
10.104538 13.999379 46.359673 234 207 220
10.100339 14.093455 46.340408 233 204 219
10.097136 14.188850 46.325718 225 195 211
10.094941 14.285605 46.315643 215 184 200
10.093746 14.383744 46.310162 213 182 197
10.093531 14.483264 46.309174 215 183 197
10.094261 14.584146 46.312523 214 183 196
10.095893 14.686355 46.320011 212 180 193
10.098378 14.789845 46.331413 209 176 189
10.101657 14.894554 46.346458 206 173 185
10.105670 15.000419 46.364868 205 172 183
10.110359 15.107371 46.386379 205 173 183
10.115664 15.215343 46.410717 204 172 183
10.121526 15.324265 46.437614 203 171 181
10.127893 15.434072 46.466827 204 172 182
10.134712 15.544699 46.498116 203 172 182
10.141939 15.656088 46.531269 202 170 180
10.149529 15.768185 46.566090 199 168 178
10.157441 15.880937 46.602390 197 166 177
10.165636 15.994290 46.639992 195 164 175
10.174078 16.108196 46.678726 193 162 174
10.182731 16.222605 46.718426 191 160 173
10.191563 16.337471 46.758942 189 158 172
10.200536 16.452742 46.800114 187 156 170
10.209621 16.568371 46.841797 186 155 168
10.218787 16.684311 46.883850 185 155 168
10.228011 16.800528 46.926170 185 154 167
10.237267 16.916979 46.968636 185 153 166
10.246539 17.033642 47.011177 184 152 165
10.255818 17.150501 47.053749 183 151 163
10.265104 17.267551 47.096352 182 149 161
10.274405 17.384813 47.139027 181 149 158
10.283740 17.502317 47.181854 179 147 156
10.293140 17.620117 47.224979 178 146 155
10.302644 17.738281 47.268585 176 144 154
10.312304 17.856903 47.312908 175 143 152
10.322180 17.976093 47.358215 175 142 150
10.332336 18.095970 47.404816 173 139 148
10.342849 18.216673 47.453045 170 137 146
10.353788 18.338343 47.503239 169 136 145
10.365229 18.461119 47.555725 167 135 144
10.377239 18.585142 47.610828 165 134 143
10.389878 18.710537 47.668819 165 134 143
10.403198 18.837414 47.729927 165 134 143
10.417232 18.965853 47.794315 164 133 142
10.519697 -0.918585 47.791756 254 181 196
10.511429 -0.814921 47.754192 254 182 198
10.503752 -0.711460 47.719315 254 182 198
10.496689 -0.608184 47.687225 254 184 200
10.490263 -0.505077 47.658035 254 188 203
10.484498 -0.402121 47.631844 254 191 206
10.479407 -0.299297 47.608715 254 194 209
10.475003 -0.196586 47.588707 254 200 214
10.471284 -0.093968 47.571812 254 212 226
10.468244 0.008579 47.557999 254 226 238
10.465861 0.111072 47.547176 254 233 243
10.464108 0.213532 47.539211 254 230 241
10.462943 0.315976 47.533916 254 229 241
10.462313 0.418418 47.531055 254 236 245
10.462157 0.520871 47.530350 254 235 244
10.462410 0.623345 47.531498 253 219 231
10.462995 0.725848 47.534153 252 204 220
10.463837 0.828382 47.537975 253 202 219
10.464856 0.930948 47.542610 254 206 225
10.465978 1.033545 47.547707 254 209 229
10.467132 1.136167 47.552944 254 213 233
10.468247 1.238807 47.558018 255 220 240
10.469271 1.341457 47.562664 254 221 241
10.470150 1.444108 47.566658 254 217 237
10.470846 1.546748 47.569820 254 219 238
10.471332 1.649369 47.572025 254 224 242
10.471587 1.751961 47.573189 254 227 242
10.471603 1.854516 47.573265 253 224 238
10.471383 1.957027 47.572266 252 219 232
10.470933 2.059488 47.570217 252 221 234
10.470267 2.161896 47.567192 253 232 243
10.469404 2.264248 47.563274 254 241 250
10.468367 2.366544 47.558556 254 246 253
10.467175 2.468783 47.553143 254 248 254
10.465853 2.570967 47.547134 254 251 254
10.464418 2.673096 47.540619 254 252 254
10.462891 2.775172 47.533680 254 253 254
10.461281 2.877196 47.526363 254 253 254
10.459598 2.979167 47.518719 254 251 253
10.457842 3.081085 47.510746 254 250 252
10.456014 3.182945 47.502441 254 251 253
10.454103 3.284745 47.493763 254 250 253
10.452102 3.386476 47.484665 254 249 252
10.449991 3.488133 47.475079 254 250 252
10.447755 3.589705 47.464916 254 252 252
10.445374 3.691182 47.454105 254 253 253
10.442832 3.792554 47.442554 254 253 254
10.440110 3.893809 47.430187 254 253 254
10.437197 3.994937 47.416950 254 254 254
10.434081 4.095929 47.402798 254 253 254
10.430761 4.196778 47.387714 251 246 250
10.427240 4.297479 47.371719 247 240 246
10.423529 4.398030 47.354855 249 245 249
10.419641 4.498433 47.337196 253 252 253
10.415603 4.598693 47.318848 254 254 254
10.411443 4.698818 47.299946 254 254 254
10.407194 4.798822 47.280647 254 253 253
10.402897 4.898720 47.261124 254 254 254
10.398587 4.998528 47.241547 254 254 254
10.394309 5.098266 47.222111 254 254 254
10.390098 5.197954 47.202976 254 254 254
10.385988 5.297611 47.184307 254 254 254
10.382013 5.397258 47.166248 254 254 254
10.378199 5.496912 47.148918 254 254 254
10.374562 5.596588 47.132397 254 254 254
10.371120 5.696299 47.116760 254 254 254
10.367880 5.796055 47.102039 254 254 254
10.364844 5.895865 47.088249 254 254 254
10.362014 5.995733 47.075390 254 254 254
10.359385 6.095665 47.063446 254 254 254
10.356956 6.195664 47.052406 254 254 254
10.354720 6.295735 47.042255 254 254 254
10.352681 6.395883 47.032990 251 246 248
10.350842 6.496115 47.024632 237 226 231
10.349208 6.596443 47.017212 223 208 215
10.347795 6.696882 47.010796 226 212 219
10.346624 6.797452 47.005474 242 234 237
10.345721 6.898178 47.001369 251 249 250
10.345115 6.999087 46.998619 254 254 254
10.344841 7.100213 46.997372 254 253 254
10.344935 7.201588 46.997799 254 252 253
10.345435 7.303253 47.000069 254 252 253
10.346375 7.405241 47.004341 254 253 253
10.347781 7.507587 47.010731 254 252 252
10.349681 7.610323 47.019360 254 252 252
10.352083 7.713472 47.030277 254 253 253
10.354993 7.817050 47.043491 254 251 254
10.358397 7.921062 47.058960 254 247 252
10.362270 8.025506 47.076557 254 246 251
10.366576 8.130364 47.096119 254 249 252
10.371260 8.235606 47.117397 254 246 251
10.376256 8.341192 47.140095 251 236 247
10.381489 8.447068 47.163868 250 233 246
10.386870 8.553169 47.188316 253 240 250
10.392308 8.659422 47.213017 254 240 249
10.397706 8.765748 47.237541 253 234 241
10.402968 8.872064 47.261448 251 232 237
10.408003 8.978286 47.284321 252 232 237
10.412722 9.084332 47.305756 252 228 233
10.417049 9.190125 47.325420 250 224 229
10.420920 9.295596 47.343006 251 230 235
10.424285 9.400686 47.358295 253 241 245
10.427110 9.505349 47.371124 253 243 248
10.429374 9.609551 47.381409 248 228 237
10.431076 9.713276 47.389145 238 205 218
10.432232 9.816518 47.394398 233 192 207
10.432867 9.919289 47.397282 237 193 209
10.433022 10.021610 47.397987 238 193 210
10.432749 10.123518 47.396744 234 188 206
10.432098 10.225053 47.393791 229 183 201
10.431134 10.326263 47.389408 222 175 194
10.429917 10.427202 47.383881 211 164 183
10.428502 10.527917 47.377449 199 150 170
10.426942 10.628457 47.370365 194 146 166
10.425280 10.728861 47.362812 196 150 170
10.423548 10.829160 47.354942 201 157 177
10.421765 10.929371 47.346844 207 165 184
10.419938 11.029502 47.338547 212 172 192
10.418057 11.129539 47.330002 216 177 197
10.416101 11.229457 47.321114 218 180 199
10.414034 11.329216 47.311722 217 180 199
10.411808 11.428761 47.301609 216 180 200
10.409367 11.528023 47.290516 216 181 201
10.406645 11.626925 47.278152 220 185 204
10.403578 11.725384 47.264217 222 186 207
10.400095 11.823310 47.248394 222 185 206
10.396129 11.920614 47.230377 222 185 206
10.391622 12.017215 47.209900 223 186 207
10.386521 12.113035 47.186729 223 186 207
10.380787 12.208011 47.160679 222 187 206
10.374393 12.302091 47.131630 221 188 206
10.367329 12.395245 47.099533 221 187 205
10.359600 12.487458 47.064423 219 186 203
10.351232 12.578745 47.026405 218 186 203
10.342268 12.669138 46.985683 218 186 203
10.332768 12.758693 46.942524 219 187 203
10.322808 12.847489 46.897278 220 189 205
10.312480 12.935629 46.850353 218 189 204
10.301890 13.023234 46.802242 214 186 201
10.291155 13.110448 46.753471 212 184 199
10.280397 13.197423 46.704601 212 185 199
10.269746 13.284325 46.656208 213 187 201
10.259335 13.371330 46.608910 213 188 201
10.249292 13.458616 46.563286 211 187 199
10.239745 13.546361 46.519913 210 188 198
10.230810 13.634734 46.479321 220 199 209
10.222596 13.723901 46.442005 230 209 219
10.215197 13.814008 46.408386 234 211 221
10.208692 13.905188 46.378834 232 208 218
10.203142 13.997553 46.353626 229 204 215
10.198594 14.091191 46.332962 228 200 213
10.195074 14.186171 46.316971 225 196 210
10.192593 14.282537 46.305695 220 189 204
10.191142 14.380310 46.299107 216 184 199
10.190701 14.479488 46.297100 214 182 196
10.191234 14.580052 46.299526 213 180 194
10.192698 14.681968 46.306175 212 179 192
10.195039 14.785183 46.316811 209 176 189
10.198199 14.889641 46.331169 207 173 185
10.202119 14.995275 46.348972 205 173 183
10.206734 15.102016 46.369938 205 173 183
10.211987 15.209798 46.393803 205 173 183
10.217816 15.318547 46.420288 205 173 183
10.224169 15.428200 46.449150 206 174 184
10.230991 15.538692 46.480148 205 174 184
10.238240 15.649967 46.513077 203 172 182
10.245867 15.761967 46.547726 200 169 178
10.253833 15.874640 46.583916 198 167 177
10.262098 15.987936 46.621464 196 165 175
10.270626 16.101805 46.660206 194 162 174
10.279379 16.216198 46.699970 192 161 174
10.288323 16.331066 46.740608 190 159 172
10.297426 16.446360 46.781963 189 157 171
10.306651 16.562031 46.823872 187 156 169
10.315969 16.678032 46.866207 186 155 168
10.325356 16.794327 46.908852 186 155 167
10.334785 16.910873 46.951683 185 154 165
10.344239 17.027651 46.994640 184 153 164
10.353709 17.144636 47.037663 183 152 162
10.363195 17.261835 47.080757 182 150 160
10.372704 17.379255 47.123955 181 150 158
10.382256 17.496937 47.167351 180 148 156
10.391881 17.614929 47.211079 178 147 154
10.401620 17.733305 47.255325 176 145 153
10.411527 17.852156 47.300327 175 144 152
10.421659 17.971592 47.346359 175 142 150
10.432086 18.091738 47.393730 173 139 148
10.442880 18.212729 47.442772 170 137 145
10.454117 18.334707 47.493824 168 136 144
10.465871 18.457817 47.547218 167 135 144
10.478209 18.582193 47.603271 165 134 144
10.491192 18.707962 47.662254 165 134 144
10.504869 18.835228 47.724388 164 133 143
10.519275 18.964077 47.789841 163 132 142
10.626764 -0.918935 47.809952 254 181 196
10.618525 -0.815240 47.772881 254 183 199
10.610883 -0.711746 47.738503 254 185 201
10.603864 -0.608435 47.706921 254 187 203
10.597491 -0.505291 47.678253 254 188 204
10.591785 -0.402296 47.652580 254 190 206
10.586763 -0.299431 47.629990 254 194 210
10.582436 -0.196676 47.610516 254 201 216
10.578801 -0.094012 47.594166 254 211 226
10.575852 0.008583 47.580894 254 223 237
10.573567 0.111127 47.570618 254 228 241
10.571917 0.213640 47.563190 254 224 237
10.570857 0.316139 47.558422 254 224 237
10.570333 0.418638 47.556068 254 232 243
10.570286 0.521150 47.555855 254 229 240
10.570643 0.623686 47.557465 251 209 222
10.571331 0.726251 47.560558 248 194 211
10.572268 0.828849 47.564770 251 199 217
10.573374 0.931480 47.569748 254 209 229
10.574573 1.034141 47.575138 254 212 232
10.575788 1.136828 47.580608 255 212 233
10.576953 1.239532 47.585850 254 219 239
10.578008 1.342245 47.590591 254 221 240
10.578899 1.444956 47.594608 254 216 234
10.579591 1.547655 47.597717 254 217 234
10.580050 1.650332 47.599785 254 222 237
10.580262 1.752976 47.600735 254 224 237
10.580214 1.855579 47.600517 254 223 234
10.579907 1.958133 47.599144 252 221 231
10.579354 2.060632 47.596653 251 224 234
10.578568 2.163074 47.593113 253 233 242
10.577566 2.265454 47.588608 253 241 248
10.576375 2.367773 47.583252 252 240 247
10.575017 2.470029 47.577141 251 238 246
10.573517 2.572224 47.570389 250 241 247
10.571896 2.674360 47.563095 252 248 251
10.570171 2.776437 47.555340 254 253 254
10.568358 2.878456 47.547180 254 254 254
10.566465 2.980418 47.538666 254 254 254
10.564497 3.082321 47.529812 254 254 254
10.562451 3.184163 47.520607 254 254 254
10.560321 3.285938 47.511024 255 254 254
10.558097 3.387642 47.501015 254 254 254
10.555762 3.489267 47.490513 255 254 254
10.553301 3.590803 47.479439 254 254 254
10.550695 3.692241 47.467716 254 253 254
10.547925 3.793569 47.455254 254 253 254
10.544977 3.894778 47.441990 254 254 254
10.541835 3.995855 47.427853 254 254 254
10.538493 4.096795 47.412819 254 253 254
10.534947 4.197588 47.396866 253 247 251
10.531201 4.298231 47.380013 250 244 249
10.527266 4.398722 47.362305 251 247 250
10.523158 4.499063 47.343826 253 253 253
10.518903 4.599259 47.324680 254 254 254
10.514532 4.699322 47.305016 253 253 253
10.510078 4.799262 47.284981 252 251 252
10.505583 4.899096 47.264755 254 253 253
10.501086 4.998843 47.244526 254 254 254
10.496631 5.098521 47.224476 254 254 254
10.492255 5.198154 47.204792 254 254 254
10.487996 5.297760 47.185631 254 254 254
10.483887 5.397361 47.167145 254 254 254
10.479956 5.496975 47.149456 254 254 254
10.476223 5.596620 47.132664 254 254 254
10.472702 5.696307 47.116825 254 254 254
10.469407 5.796050 47.101997 254 254 254
10.466338 5.895857 47.088192 254 254 254
10.463496 5.995736 47.075409 254 254 254
10.460879 6.095690 47.063633 254 254 254
10.458485 6.195724 47.052856 254 253 254
10.456307 6.295844 47.043064 252 248 251
10.454349 6.396054 47.034248 245 236 241
10.452610 6.496363 47.026428 232 219 226
10.451098 6.596782 47.019630 226 211 219
10.449826 6.697326 47.013908 235 224 230
10.448814 6.798014 47.009354 248 242 246
10.448086 6.898869 47.006073 253 252 253
10.447670 6.999919 47.004204 254 254 254
10.447598 7.101195 47.003880 254 254 254
10.447907 7.202733 47.005272 254 253 254
10.448631 7.304567 47.008526 254 253 254
10.449802 7.406732 47.013798 254 253 254
10.451450 7.509261 47.021210 254 253 253
10.453593 7.612184 47.030853 254 253 253
10.456245 7.715523 47.042782 254 253 254
10.459406 7.819294 47.057007 254 253 254
10.463064 7.923504 47.073463 254 250 253
10.467194 8.028146 47.092041 254 248 252
10.471754 8.133203 47.112560 254 247 252
10.476692 8.238645 47.134777 254 245 252
10.481942 8.344430 47.158394 254 244 251
10.487425 8.450506 47.183064 253 245 252
10.493054 8.556808 47.208389 254 248 253
10.498737 8.663261 47.233955 254 247 252
10.504375 8.769789 47.259319 254 243 247
10.509873 8.876308 47.284058 253 242 244
10.515136 8.982733 47.307735 253 242 244
10.520079 9.088983 47.329971 254 238 241
10.524624 9.194981 47.350418 251 233 236
10.528705 9.300657 47.368782 247 230 233
10.532272 9.405954 47.384830 247 233 236
10.535291 9.510824 47.398411 250 238 242
10.537741 9.615235 47.409431 250 234 241
10.539621 9.719169 47.417892 246 219 231
10.540946 9.822619 47.423851 243 209 222
10.541741 9.925598 47.427433 245 207 220
10.542048 10.028129 47.428814 244 204 217
10.541917 10.130242 47.428223 240 196 210
10.541401 10.231980 47.425900 238 192 209
10.540563 10.333393 47.422127 238 191 208
10.539460 10.434527 47.417168 226 177 195
10.538150 10.535434 47.411274 206 155 175
10.536685 10.636157 47.404682 194 143 163
10.535107 10.736737 47.397583 189 139 160
10.533445 10.837201 47.390106 189 140 162
10.531719 10.937566 47.382343 191 144 165
10.529932 11.037833 47.374302 194 149 171
10.528074 11.137990 47.365944 198 154 176
10.526122 11.238010 47.357159 201 159 180
10.524036 11.337851 47.347778 203 162 184
10.521770 11.437451 47.337578 206 165 187
10.519260 11.536744 47.326290 207 168 190
10.516444 11.635648 47.313622 210 171 193
10.513253 11.734077 47.299263 211 172 195
10.509615 11.831944 47.282894 211 172 195
10.505464 11.929155 47.264217 213 174 197
10.500737 12.025629 47.242954 214 176 198
10.495385 12.121287 47.218876 214 177 198
10.489367 12.216065 47.191795 215 180 199
10.482656 12.309916 47.161606 217 183 201
10.475245 12.402805 47.128265 217 184 201
10.467140 12.494723 47.091801 215 183 200
10.458369 12.585682 47.052338 214 182 199
10.448977 12.675716 47.010082 214 182 199
10.439026 12.764887 46.965313 214 183 200
10.428596 12.853274 46.918392 214 184 200
10.417784 12.940982 46.869743 212 184 199
10.406697 13.028138 46.819866 210 183 198
10.395456 13.114885 46.769295 208 182 197
10.384191 13.201382 46.718609 209 183 197
10.373032 13.287796 46.668404 209 185 198
10.362117 13.374310 46.619297 208 185 198
10.351579 13.461102 46.571888 206 185 196
10.341548 13.548355 46.526760 207 187 197
10.332146 13.636242 46.484459 220 201 210
10.323484 13.724931 46.445492 235 215 225
10.315659 13.814571 46.410282 239 218 227
10.308751 13.905299 46.379208 233 210 219
10.302827 13.997229 46.352551 225 199 210
10.297932 14.090451 46.330528 221 194 206
10.294093 14.185035 46.313259 222 193 206
10.291322 14.281024 46.300789 221 190 205
10.289610 14.378442 46.293091 217 185 200
10.288937 14.477286 46.290062 213 181 196
10.289266 14.577538 46.291542 211 179 192
10.290552 14.679163 46.297329 210 177 190
10.292741 14.782107 46.307175 209 176 188
10.295774 14.886314 46.320820 208 174 186
10.299587 14.991717 46.337975 205 172 183
10.304118 15.098246 46.358360 203 171 181
10.309306 15.205832 46.381706 203 171 181
10.315091 15.314403 46.407730 205 172 182
10.321417 15.423895 46.436188 206 173 183
10.328232 15.534246 46.466850 206 173 183
10.335486 15.645395 46.499489 204 172 182
10.343137 15.757288 46.533909 201 170 179
