ply
format ascii 1.0
element vertex 1261
property float x
property float y
property float z
property uchar red
property uchar green
property uchar blue
end_header
4.929540 14.900713 69.065781 37 31 31
4.933871 15.062818 69.126457 36 30 30
4.938131 15.224965 69.186142 35 29 29
4.942291 15.387061 69.244438 35 29 28
4.946329 15.549020 69.301003 35 29 28
4.950220 15.710759 69.355522 34 30 29
4.953948 15.872211 69.407753 35 33 34
4.957499 16.033316 69.457504 36 39 43
4.960864 16.194025 69.504646 37 44 53
4.964036 16.354307 69.549095 34 43 58
4.967016 16.514139 69.590851 27 37 60
4.969806 16.673512 69.629929 35 45 72
4.972411 16.832430 69.666428 84 92 121
4.974839 16.990898 69.700447 148 153 180
4.977099 17.148939 69.732124 133 134 158
4.979202 17.306566 69.761581 74 71 91
4.981158 17.463804 69.788979 49 44 57
4.982974 17.620670 69.814430 52 46 53
4.984658 17.777172 69.838028 55 47 51
4.986214 17.933315 69.859825 48 38 40
4.987645 18.089098 69.879868 41 29 30
4.988948 18.244501 69.898125 39 26 26
4.990120 18.399498 69.914543 43 28 28
4.991155 18.554060 69.929047 48 31 31
4.992046 18.708143 69.941536 53 33 35
4.992785 18.861702 69.951881 56 35 38
4.993362 19.014696 69.959976 60 38 41
4.993773 19.167082 69.965729 64 40 44
4.994012 19.318829 69.969078 69 43 48
4.994079 19.469917 69.970009 74 46 53
4.993976 19.620346 69.968567 77 48 55
4.993711 19.770124 69.964851 77 48 56
4.993297 19.919294 69.959053 76 46 55
4.992750 20.067905 69.951393 76 46 55
4.992094 20.216038 69.942200 77 48 57
4.991352 20.363785 69.931808 79 51 59
4.990553 20.511251 69.920616 79 51 59
4.989728 20.658560 69.909058 78 51 58
4.988906 20.805834 69.897545 77 51 57
4.988119 20.953201 69.886505 77 51 57
4.987392 21.100780 69.876335 77 51 57
4.986753 21.248684 69.867371 77 52 56
4.986222 21.397017 69.859932 77 51 56
4.985817 21.545860 69.854256 77 51 56
4.985550 21.695284 69.850525 77 51 55
4.985431 21.845335 69.848854 75 50 55
4.985463 21.996044 69.849289 74 49 54
4.985644 22.147421 69.851837 73 48 54
4.985971 22.299461 69.856415 71 47 54
4.986437 22.452147 69.862946 69 46 53
4.987031 22.605442 69.871277 67 46 52
4.987742 22.759306 69.881233 65 45 51
4.988557 22.913687 69.892647 64 45 50
4.989461 23.068529 69.905312 63 44 49
4.990438 23.223772 69.919006 62 43 48
4.991475 23.379349 69.933533 61 42 47
4.992555 23.535192 69.948662 61 42 45
4.993662 23.691231 69.964172 60 41 44
4.994782 23.847397 69.979858 60 41 42
4.995897 24.003607 69.995483 60 41 42
4.996993 24.159790 70.010834 60 41 42
4.998051 24.315861 70.025665 60 41 42
4.999057 24.471739 70.039764 59 41 42
4.999995 24.627338 70.052895 59 40 41
5.000847 24.782574 70.064842 59 39 40
5.001600 24.937363 70.075386 58 39 40
5.002238 25.091623 70.084335 57 38 39
5.002749 25.245281 70.091492 57 38 39
5.003122 25.398264 70.096710 56 38 38
5.003346 25.550516 70.099854 55 39 37
5.003417 25.701986 70.100838 54 39 37
5.003327 25.852638 70.099586 53 39 37
5.003077 26.002449 70.096077 53 39 37
5.002668 26.151415 70.090347 52 39 37
5.002103 26.299538 70.082436 51 40 37
5.001390 26.446838 70.072441 51 40 38
5.000535 26.593349 70.060478 51 39 38
4.999552 26.739117 70.046700 50 38 38
5.571490 -1.783046 75.771431 73 47 54
5.564095 -1.617559 75.670860 73 47 54
5.556612 -1.452482 75.569084 73 46 54
5.549024 -1.287819 75.465889 73 46 56
5.541317 -1.123578 75.361076 74 46 57
5.533479 -0.959765 75.254478 75 46 57
5.525498 -0.796392 75.145950 76 46 57
5.517365 -0.633468 75.035339 77 46 57
5.509072 -0.471008 74.922546 79 46 57
5.500612 -0.309025 74.807503 81 47 57
5.491982 -0.147534 74.690132 82 48 57
5.483179 0.013451 74.570412 85 49 58
5.474202 0.173915 74.448326 87 51 60
5.465051 0.333841 74.323868 89 53 61
5.455726 0.493216 74.197052 91 55 63
5.446228 0.652022 74.067886 92 56 63
5.436558 0.810246 73.936371 91 56 62
5.426715 0.967873 73.802513 91 56 63
5.416699 1.124886 73.666290 93 56 64
5.406507 1.281270 73.527672 94 56 66
5.396135 1.437009 73.386620 96 55 67
5.385580 1.592086 73.243073 97 55 68
5.374835 1.746482 73.096947 97 54 68
5.363896 1.900179 72.948181 98 54 68
5.352758 2.053159 72.796715 100 54 68
5.341418 2.205401 72.642479 101 55 67
5.329872 2.356889 72.485458 101 56 66
5.318122 2.507602 72.325661 101 56 65
5.306171 2.657527 72.163132 102 57 64
5.294028 2.806648 71.997993 103 57 64
5.281705 2.954957 71.830399 104 57 65
5.269218 3.102447 71.660568 105 58 67
5.256588 3.249117 71.488815 106 58 69
5.243844 3.394972 71.315491 107 58 70
5.231014 3.540021 71.141006 109 59 72
5.218135 3.684284 70.965851 110 61 74
5.205245 3.827784 70.790550 113 63 77
5.192387 3.970552 70.615677 115 66 80
5.179605 4.112627 70.441856 117 68 83
5.166948 4.254055 70.269722 119 70 84
5.154464 4.394888 70.099945 120 71 85
5.142204 4.535187 69.933197 121 71 86
5.130217 4.675016 69.770180 120 71 86
5.118554 4.814447 69.611565 119 71 85
5.107265 4.953557 69.458038 119 71 83
5.096397 5.092426 69.310242 119 70 82
5.085999 5.231140 69.168816 119 71 82
5.076111 5.369785 69.034340 120 71 83
5.066774 5.508450 68.907372 120 71 83
5.058026 5.647223 68.788391 120 72 83
5.049895 5.786191 68.677818 120 72 82
5.042409 5.925441 68.576012 120 71 82
5.035588 6.065052 68.483238 120 71 82
5.029444 6.205099 68.399689 119 70 82
5.023986 6.345651 68.325455 117 68 81
5.019213 6.486769 68.260544 116 67 79
5.015119 6.628505 68.204865 114 66 78
5.011691 6.770900 68.158241 112 66 76
5.008910 6.913987 68.120415 111 64 75
5.006749 7.057785 68.091026 110 64 73
5.005176 7.202304 68.069649 110 63 73
5.004156 7.347542 68.055771 110 63 73
5.003646 7.493484 68.048836 110 62 73
5.003600 7.640103 68.048210 111 62 74
5.003967 7.787364 68.053200 112 61 75
5.004694 7.935216 68.063095 112 61 75
5.005726 8.083604 68.077126 112 61 75
5.007005 8.232457 68.094513 113 63 75
5.008471 8.381701 68.114456 113 64 75
5.010068 8.531252 68.136177 113 64 75
5.011738 8.681023 68.158890 112 65 74
5.013426 8.830922 68.181839 112 66 75
5.015079 8.980859 68.204308 111 66 75
5.016649 9.130744 68.225677 109 65 74
5.018097 9.280493 68.245369 106 63 72
5.019387 9.430030 68.262909 104 62 71
5.020492 9.579289 68.277931 102 61 69
5.021392 9.728219 68.290184 101 60 67
5.022080 9.876783 68.299538 98 59 66
5.022555 10.024961 68.305992 96 57 64
5.022825 10.172753 68.309669 94 55 62
5.022909 10.320177 68.310799 91 53 60
5.022830 10.467268 68.309731 89 52 59
5.022622 10.614081 68.306900 87 51 57
5.022322 10.760685 68.302818 85 50 55
5.021972 10.907163 68.298065 83 49 53
5.021616 11.053607 68.293228 82 48 52
5.021300 11.200120 68.288933 81 48 51
5.021069 11.346805 68.285782 80 48 51
5.020965 11.493769 68.284370 80 48 52
5.021030 11.641116 68.285248 79 48 52
5.021298 11.788947 68.288902 78 47 52
5.021802 11.937353 68.295761 78 47 52
5.022569 12.086419 68.306175 78 47 53
5.023617 12.236217 68.320435 78 49 54
5.024963 12.386811 68.338737 77 49 55
5.026616 12.538249 68.361214 77 49 55
5.028579 12.690569 68.387924 75 50 55
5.030852 12.843794 68.418839 73 50 55
5.033429 12.997935 68.453880 71 50 53
5.036299 13.152993 68.492905 67 48 51
5.039447 13.308955 68.535721 63 45 47
5.042855 13.465796 68.582077 58 42 43
5.046502 13.623481 68.631668 53 39 40
5.050363 13.781964 68.684181 50 37 37
5.054411 13.941191 68.739235 46 36 35
5.058618 14.101095 68.796448 44 35 35
5.062952 14.261605 68.855385 42 35 35
5.067381 14.422640 68.915619 40 34 34
5.071873 14.584114 68.976707 39 34 33
5.076393 14.745936 69.038185 38 33 32
5.080909 14.908009 69.099594 37 32 32
5.085389 15.070240 69.160522 36 31 32
5.089802 15.232535 69.220543 35 30 31
5.094120 15.394800 69.279266 34 29 29
5.098318 15.556951 69.336349 34 29 29
5.102372 15.718906 69.391487 34 30 30
5.106265 15.880598 69.444427 34 32 33
5.109980 16.041962 69.494957 34 35 39
5.113509 16.202950 69.542946 34 37 46
5.116843 16.363523 69.588295 31 37 51
5.119980 16.523659 69.630966 28 36 55
5.122923 16.683342 69.670982 36 44 67
5.125673 16.842567 69.708389 76 81 107
5.128238 17.001337 69.743271 122 126 151
5.130625 17.159664 69.775734 106 107 129
5.132843 17.317560 69.805893 61 58 76
5.134899 17.475035 69.833855 46 42 54
5.136802 17.632105 69.859734 54 48 55
5.138556 17.788771 69.883591 56 49 53
5.140165 17.945034 69.905472 49 39 42
5.141630 18.100883 69.925400 41 29 30
5.142949 18.256300 69.943329 40 26 26
5.144118 18.411259 69.959229 43 28 28
5.145130 18.565720 69.972992 48 30 31
5.145979 18.719646 69.984543 52 33 34
5.146657 18.872995 69.993759 57 36 38
5.147155 19.025721 70.000534 61 38 41
5.147469 19.177786 70.004799 65 40 45
5.147595 19.329166 70.006516 70 43 49
5.147533 19.479843 70.005676 74 45 52
5.147288 19.629816 70.002342 77 47 55
5.146869 19.779108 69.996643 78 47 56
5.146290 19.927757 69.988777 77 46 55
5.145571 20.075823 69.978996 77 46 56
5.144735 20.223389 69.967628 79 48 58
5.143810 20.370550 69.955040 80 51 60
5.142826 20.517424 69.941658 79 51 60
5.141815 20.664131 69.927902 78 51 58
5.140809 20.810799 69.914223 77 50 57
5.139840 20.957560 69.901047 77 50 56
5.138937 21.104536 69.888771 77 51 56
5.138128 21.251848 69.877777 77 51 55
5.137436 21.399597 69.868362 78 52 55
5.136878 21.547871 69.860779 77 51 55
5.136470 21.696741 69.855217 77 51 55
5.136218 21.846254 69.851791 76 51 54
5.136128 21.996447 69.850571 75 50 54
5.136199 22.147324 69.851524 74 49 54
5.136425 22.298885 69.854614 72 48 54
5.136801 22.451109 69.859718 70 47 54
5.137314 22.603962 69.866699 67 47 53
5.137954 22.757404 69.875397 66 46 52
5.138704 22.911375 69.885597 65 45 51
5.139550 23.065823 69.897110 63 44 49
5.140476 23.220682 69.909706 62 43 47
5.141466 23.375883 69.923164 61 42 46
5.142502 23.531357 69.937263 60 42 45
5.143569 23.687033 69.951775 59 41 43
5.144650 23.842833 69.966469 59 41 42
5.145728 23.998680 69.981117 60 42 43
5.146785 24.154499 69.995499 60 42 43
5.147805 24.310204 70.009369 60 42 43
5.148771 24.465714 70.022522 59 41 43
5.149668 24.620943 70.034706 58 40 42
5.150478 24.775810 70.045723 58 40 41
5.151187 24.930239 70.055367 58 39 40
5.151780 25.084141 70.063431 56 38 39
5.152245 25.237452 70.069756 56 38 38
5.152571 25.390104 70.074188 54 38 37
5.152749 25.542044 70.076614 54 38 37
5.152774 25.693230 70.076950 53 39 37
5.152641 25.843628 70.075150 52 39 36
5.152352 25.993223 70.071205 52 39 36
5.151906 26.142015 70.065155 52 39 36
5.151312 26.290016 70.057068 51 39 37
5.150574 26.437248 70.047028 51 39 37
5.149704 26.583755 70.035202 51 39 38
5.148713 26.729584 70.021721 51 38 38
5.732482 -1.782317 75.740440 72 46 55
5.724894 -1.616903 75.640167 72 46 55
5.717214 -1.451898 75.538696 72 46 56
5.709428 -1.287306 75.435829 73 46 57
5.701522 -1.123135 75.331375 74 46 58
5.693482 -0.959391 75.225151 75 47 58
5.685297 -0.796085 75.117012 76 47 58
5.676959 -0.633228 75.006836 78 47 57
5.668458 -0.470832 74.894508 80 47 57
5.659788 -0.308912 74.779961 82 48 58
5.650945 -0.147481 74.663132 83 49 58
5.641928 0.013447 74.543991 85 50 59
5.632735 0.173855 74.422531 87 51 60
5.623366 0.333728 74.298744 89 53 61
5.613823 0.493053 74.172653 90 55 63
5.604106 0.651814 74.044266 90 56 63
5.594216 0.809997 73.913597 90 56 62
5.584153 0.967586 73.780640 90 56 63
5.573917 1.124567 73.645393 91 56 63
5.563505 1.280925 73.507828 93 56 64
5.552916 1.436643 73.367912 94 55 65
5.542142 1.591705 73.225571 95 55 66
5.531182 1.746095 73.080757 95 54 66
5.520028 1.899794 72.933380 97 54 66
5.508676 2.052783 72.783394 99 55 66
5.497122 2.205045 72.630737 99 56 65
5.485363 2.356561 72.475372 100 55 65
5.473400 2.507313 72.317314 100 55 64
5.461236 2.657286 72.156593 101 55 63
5.448879 2.806467 71.993324 102 56 63
5.436338 2.954844 71.827637 103 56 65
5.423633 3.102412 71.659760 105 56 67
5.410782 3.249170 71.489975 106 57 69
5.397812 3.395120 71.318604 107 57 70
5.384753 3.540273 71.146065 108 58 72
5.371641 3.684646 70.972816 109 60 74
5.358513 3.828261 70.799370 112 63 77
5.345413 3.971148 70.626289 116 67 81
5.332386 4.113346 70.454170 119 70 83
5.319479 4.254897 70.283630 120 71 84
5.306742 4.395854 70.115341 121 72 85
5.294226 4.536275 69.949974 122 72 86
5.281981 4.676223 69.788193 122 72 85
5.270061 4.815771 69.630699 122 72 85
5.258515 4.954991 69.478149 122 72 84
5.247394 5.093966 69.331200 122 72 84
5.236743 5.232779 69.190491 122 72 84
5.226610 5.371516 69.056602 122 71 85
5.217035 5.510265 68.930084 122 72 86
5.208055 5.649115 68.811440 122 72 85
5.199703 5.788152 68.701096 122 71 84
5.192007 5.927462 68.599403 121 71 84
5.184987 6.067125 68.506653 121 70 83
5.178658 6.207217 68.423042 121 70 83
5.173030 6.347807 68.348671 121 69 83
5.168102 6.488956 68.283562 119 69 82
5.163869 6.630717 68.227631 118 69 80
5.160318 6.773132 68.180717 117 68 79
5.157431 6.916236 68.142578 116 67 78
5.155182 7.060048 68.112854 115 67 77
5.153539 7.204580 68.091148 114 65 76
5.152466 7.349830 68.076965 114 65 76
5.151919 7.495786 68.069748 115 64 77
5.151853 7.642423 68.068871 116 64 78
5.152216 7.789706 68.073677 117 64 78
5.152956 7.937589 68.083443 117 64 79
5.154015 8.086015 68.097435 117 64 79
5.155334 8.234917 68.114861 117 65 78
5.156854 8.384221 68.134941 117 66 77
5.158515 8.533846 68.156898 117 67 77
5.160260 8.683705 68.179947 116 67 77
5.162030 8.833707 68.203339 115 67 77
5.163773 8.983762 68.226357 113 67 77
5.165438 9.133780 68.248367 110 65 75
5.166985 9.283680 68.268799 108 63 73
5.168374 9.433380 68.287155 106 62 72
5.169578 9.582816 68.303062 105 62 71
5.170577 9.731935 68.316261 102 61 69
5.171360 9.880697 68.326607 100 60 67
5.171925 10.029081 68.334068 97 58 65
5.172279 10.177085 68.338760 94 56 63
5.172442 10.324724 68.340904 92 54 61
5.172436 10.472034 68.340828 89 53 59
5.172295 10.619062 68.338959 87 51 58
5.172055 10.765879 68.335793 85 50 56
5.171760 10.912565 68.331894 84 49 55
5.171454 11.059212 68.327850 83 49 53
5.171184 11.205918 68.324280 82 49 53
5.170995 11.352789 68.321793 81 49 53
5.170933 11.499928 68.320961 81 49 53
5.171038 11.647441 68.322350 80 49 54
5.171347 11.795425 68.326431 80 49 54
5.171893 11.943976 68.333649 80 49 55
5.172703 12.093175 68.344353 80 49 55
5.173799 12.243095 68.358833 79 50 55
5.175196 12.393800 68.377296 79 50 56
5.176905 12.545338 68.399864 78 50 56
5.178928 12.697746 68.426598 77 51 56
5.181266 12.851049 68.457489 75 52 56
5.183912 13.005260 68.492455 72 51 54
5.186856 13.160377 68.531349 68 49 51
5.190084 13.316388 68.573997 62 46 47
5.193576 13.473270 68.620140 57 42 43
5.197312 13.630990 68.669502 52 40 39
5.201267 13.789503 68.721756 49 37 36
5.205414 13.948757 68.776543 45 36 35
5.209724 14.108687 68.833488 43 35 34
5.214166 14.269226 68.892181 41 35 34
5.218709 14.430295 68.952202 40 34 34
5.223318 14.591810 69.013107 39 34 34
5.227962 14.753685 69.074463 38 34 33
5.232606 14.915824 69.135818 37 33 33
5.237219 15.078139 69.196770 36 32 32
5.241770 15.240537 69.256905 35 31 31
5.246231 15.402928 69.315842 34 30 30
5.250575 15.565228 69.373238 34 30 30
5.254779 15.727356 69.428787 33 30 30
5.258824 15.889243 69.482231 34 31 32
5.262694 16.050827 69.533363 34 34 37
5.266377 16.212053 69.582024 33 36 42
5.269866 16.372887 69.628113 31 36 46
5.273155 16.533295 69.671577 30 37 50
5.276245 16.693260 69.712402 35 41 58
5.279138 16.852772 69.750626 54 58 78
5.281837 17.011826 69.786293 75 78 97
5.284350 17.170427 69.819496 67 67 84
5.286684 17.328581 69.850319 46 43 58
5.288842 17.486292 69.878845 43 39 49
5.290833 17.643566 69.905144 51 45 53
5.292659 17.800400 69.929276 53 45 50
5.294324 17.956791 69.951279 47 37 41
5.295826 18.112720 69.971123 41 29 31
5.297164 18.268167 69.988792 41 26 28
5.298332 18.423100 70.004227 45 28 30
5.299323 18.577480 70.017319 48 31 32
5.300131 18.731272 70.028000 53 33 35
5.300748 18.884426 70.036156 57 35 38
5.301167 19.036903 70.041687 62 37 42
5.301383 19.188673 70.044540 67 40 46
5.301394 19.339703 70.044678 70 43 49
5.301200 19.489985 70.042122 74 45 52
5.300809 19.639521 70.036949 77 46 55
5.300231 19.788340 70.029312 78 47 56
5.299481 19.936480 70.019417 79 47 57
5.298583 20.084013 70.007545 80 47 58
5.297560 20.231020 69.994026 81 49 60
5.296443 20.377605 69.979263 82 51 61
5.295264 20.523888 69.963692 81 51 61
5.294057 20.669992 69.947739 79 51 59
5.292857 20.816055 69.931885 78 51 58
5.291696 20.962208 69.916550 78 51 57
5.290608 21.108582 69.902168 78 51 56
5.289619 21.255295 69.889107 78 51 55
5.288755 21.402456 69.877693 78 51 55
5.288035 21.550156 69.868179 78 52 55
5.287474 21.698465 69.860771 77 51 55
5.287081 21.847437 69.855576 77 51 55
5.286860 21.997105 69.852661 76 50 54
5.286812 22.147482 69.852028 75 49 55
5.286932 22.298561 69.853600 73 48 54
5.287210 22.450325 69.857285 71 47 54
5.287638 22.602741 69.862930 69 47 54
5.288200 22.755762 69.870354 67 46 53
5.288882 22.909334 69.879372 66 45 51
5.289668 23.063395 69.889748 64 45 50
5.290540 23.217880 69.901268 62 43 47
5.291481 23.372719 69.913696 61 43 46
5.292473 23.527840 69.926811 60 42 45
5.293499 23.683168 69.940361 58 41 43
5.294540 23.838627 69.954124 58 41 42
5.295580 23.994135 69.967865 60 43 44
5.296599 24.149611 69.981339 61 44 45
5.297582 24.304977 69.994324 60 44 45
5.298511 24.460146 70.006584 59 43 44
5.299368 24.615038 70.017914 58 42 43
5.300138 24.769573 70.028091 58 41 42
5.300805 24.923668 70.036903 57 39 41
5.301356 25.077248 70.044182 56 39 39
5.301778 25.230249 70.049759 55 39 38
5.302062 25.382608 70.053505 54 38 37
5.302198 25.534277 70.055305 53 38 36
5.302182 25.685217 70.055099 53 38 36
5.302011 25.835402 70.052841 52 39 36
5.301687 25.984819 70.048546 51 39 37
5.301212 26.133478 70.042274 51 39 37
5.300591 26.281391 70.034081 51 39 37
5.299836 26.428593 70.024094 51 39 38
5.298955 26.575125 70.012459 51 39 38
5.297962 26.721041 69.999344 51 38 38
5.893375 -1.781598 75.709892 72 45 56
5.885596 -1.616257 75.609955 73 45 56
5.877725 -1.451324 75.508842 73 45 57
5.869747 -1.286803 75.406349 73 46 57
5.861648 -1.122701 75.302299 74 46 58
5.853414 -0.959026 75.196526 75 47 58
5.845034 -0.795787 75.088867 76 47 58
5.836498 -0.632995 74.979210 78 48 57
5.827797 -0.470662 74.867439 80 48 57
5.818927 -0.308802 74.753487 82 49 57
5.809884 -0.147429 74.637306 83 49 58
5.800664 0.013442 74.518867 85 50 59
5.791268 0.173798 74.398163 87 52 60
5.781696 0.333623 74.275192 88 54 62
5.771949 0.492903 74.149979 89 56 63
5.762029 0.651623 74.022530 89 56 63
5.751936 0.809770 73.892876 89 56 62
5.741671 0.967329 73.761009 89 56 62
5.731235 1.124285 73.626938 90 56 62
5.720625 1.280625 73.490631 91 55 62
5.709838 1.436332 73.352058 92 55 63
5.698871 1.591392 73.211174 93 55 64
5.687719 1.745788 73.067902 94 54 64
5.676375 1.899502 72.922173 95 54 64
5.664836 2.052516 72.773941 97 55 64
5.653097 2.204814 72.623131 98 55 64
5.641154 2.356376 72.469704 99 55 64
5.629008 2.507186 72.313667 100 55 64
5.616661 2.657229 72.155052 101 54 63
5.604120 2.806491 71.993942 102 54 63
5.591395 2.954961 71.830467 103 55 65
5.578502 3.102632 71.664841 105 55 67
5.565461 3.249503 71.497307 106 56 70
5.552297 3.395576 71.328194 107 57 71
5.539040 3.540861 71.157883 108 58 71
5.525723 3.685372 70.986809 109 60 74
5.512386 3.829131 70.815468 112 63 77
5.499070 3.972167 70.644409 117 67 80
5.485821 4.114516 70.474205 120 70 82
5.472687 4.256219 70.305473 121 71 83
5.459717 4.397328 70.138847 122 71 83
5.446963 4.537898 69.975006 122 71 83
5.434477 4.677993 69.814598 123 72 84
5.422312 4.817681 69.658318 124 72 84
5.410519 4.957036 69.506821 124 72 84
5.399150 5.096139 69.360771 124 72 85
5.388254 5.235071 69.220787 123 71 85
5.377877 5.373919 69.087486 123 71 85
5.368062 5.512768 68.961403 122 71 86
5.358850 5.651710 68.843048 123 71 87
5.350272 5.790828 68.732849 122 70 86
5.342359 5.930210 68.631203 121 69 85
5.335133 6.069934 68.538368 122 68 84
5.328610 6.210078 68.454575 123 69 84
5.322801 6.350711 68.379944 123 69 84
5.317706 6.491896 68.314491 122 70 83
5.313321 6.633684 68.258163 122 70 82
5.309635 6.776122 68.210808 121 70 81
5.306629 6.919241 68.172188 120 69 80
5.304277 7.063067 68.141983 119 68 79
5.302550 7.207610 68.119789 118 67 78
5.301409 7.352870 68.105125 118 66 78
5.300812 7.498837 68.097458 119 65 78
5.300712 7.645489 68.096176 120 65 80
5.301059 7.792791 68.100639 121 65 81
5.301798 7.940701 68.110130 121 66 82
5.302872 8.089161 68.123924 121 66 82
5.304221 8.238108 68.141251 121 67 80
5.305784 8.387469 68.161339 121 68 80
5.307502 8.537165 68.183403 120 70 81
5.309313 8.687108 68.206665 118 70 80
5.311160 8.837212 68.230392 116 68 79
5.312986 8.987384 68.253860 114 67 78
5.314743 9.137535 68.276421 111 65 75
5.316383 9.287582 68.297501 109 63 74
5.317870 9.437448 68.316597 108 62 73
5.319172 9.587063 68.333336 107 62 72
5.320269 9.736372 68.347412 104 62 70
5.321146 9.885337 68.358688 101 61 68
5.321803 10.033933 68.367126 99 59 66
5.322245 10.182155 68.372803 96 57 63
5.322489 10.330017 68.375931 93 55 61
5.322559 10.477551 68.376839 91 54 60
5.322487 10.624804 68.375908 89 52 59
5.322310 10.771843 68.373650 87 51 58
5.322073 10.918747 68.370598 86 50 56
5.321821 11.065605 68.367348 84 49 55
5.321599 11.212516 68.364510 83 49 55
5.321456 11.359581 68.362671 83 49 55
5.321437 11.506907 68.362419 82 49 55
5.321584 11.654594 68.364311 81 49 56
5.321935 11.802744 68.368820 82 49 56
5.322524 11.951446 68.376389 82 49 57
5.323379 12.100784 68.387360 81 49 57
5.324521 12.250834 68.402039 81 50 58
5.325967 12.401653 68.420624 80 50 58
5.327728 12.553294 68.443245 79 51 58
5.329808 12.705792 68.469963 78 53 58
5.332206 12.859173 68.500763 77 54 57
5.334915 13.013447 68.535568 73 53 55
5.337926 13.168615 68.574257 68 50 52
5.341225 13.324666 68.616623 62 47 47
5.344791 13.481578 68.662445 57 43 43
5.348605 13.639316 68.711441 52 40 39
5.352641 13.797839 68.763290 48 37 36
5.356873 13.957094 68.817657 45 35 35
5.361272 14.117025 68.874168 42 34 34
5.365807 14.277560 68.932419 41 34 34
5.370445 14.438626 68.992012 40 35 34
5.375155 14.600144 69.052521 39 35 34
5.379905 14.762030 69.113533 38 35 34
5.384659 14.924193 69.174614 37 34 33
5.389387 15.086546 69.235352 36 33 33
5.394058 15.248999 69.295357 35 32 32
5.398644 15.411467 69.354271 34 31 31
5.403117 15.573866 69.411736 34 31 31
5.407455 15.736118 69.467468 34 31 31
5.411638 15.898155 69.521202 34 32 32
5.415649 16.059912 69.572731 35 33 35
5.419475 16.221340 69.621880 35 35 39
5.423107 16.382393 69.668533 34 36 42
5.426539 16.543039 69.712631 33 37 46
5.429770 16.703255 69.754143 36 39 51
5.432800 16.863026 69.793060 44 45 61
5.435632 17.022343 69.829437 51 52 66
5.438269 17.181202 69.863312 47 45 59
5.440715 17.339603 69.894745 39 35 47
5.442977 17.497543 69.923805 39 34 44
5.445058 17.655022 69.950531 43 36 44
5.446959 17.812029 69.974960 44 36 41
5.448682 17.968552 69.997086 43 32 36
5.450225 18.124573 70.016907 41 28 32
5.451583 18.280062 70.034363 42 27 31
5.452753 18.434988 70.049393 46 29 33
5.453727 18.589308 70.061897 49 31 35
5.454496 18.742983 70.071785 54 33 38
5.455055 18.895967 70.078957 58 35 41
5.455395 19.048222 70.083328 64 38 45
5.455513 19.199713 70.084839 68 41 48
5.455408 19.350418 70.083488 72 44 51
5.455081 19.500330 70.079300 76 46 54
5.454541 19.649452 70.072365 79 47 56
5.453801 19.797817 70.062851 80 48 57
5.452878 19.945469 70.050987 81 48 58
5.451794 20.092484 70.037071 82 49 60
5.450579 20.238949 70.021461 83 50 61
5.449264 20.384970 70.004562 83 51 61
5.447883 20.530672 69.986816 82 52 61
5.446472 20.676186 69.968704 80 52 60
5.445069 20.821650 69.950676 79 52 58
5.443709 20.967201 69.933205 79 52 57
5.442426 21.112976 69.916718 79 52 57
5.441249 21.259094 69.901596 79 52 57
5.440205 21.405670 69.888184 79 52 56
5.439314 21.552795 69.876740 78 51 56
5.438592 21.700544 69.867462 78 51 56
5.438050 21.848978 69.860504 78 51 55
5.437691 21.998123 69.855896 77 50 55
5.437517 22.148001 69.853661 75 49 54
5.437522 22.298603 69.853729 74 48 54
5.437699 22.449913 69.855995 72 47 54
5.438035 22.601894 69.860313 70 47 54
5.438516 22.754503 69.866493 68 46 53
5.439126 22.907682 69.874336 67 45 51
5.439848 23.061369 69.883614 64 45 50
5.440665 23.215496 69.894096 63 44 48
5.441556 23.369991 69.905540 61 43 47
5.442503 23.524778 69.917709 60 43 46
5.443488 23.679781 69.930359 59 43 45
5.444490 23.834917 69.943237 59 43 44
5.445493 23.990110 69.956123 61 45 46
5.446477 24.145273 69.968765 61 46 47
5.447424 24.300327 69.980934 60 46 46
5.448317 24.455189 69.992401 59 45 45
5.449138 24.609776 70.002945 58 44 44
5.449870 24.764008 70.012352 58 42 43
5.450500 24.917810 70.020447 57 41 42
5.451013 25.071110 70.027031 56 40 40
5.451397 25.223841 70.031967 55 40 39
5.451643 25.375948 70.035118 54 39 38
5.451742 25.527388 70.036400 53 38 37
5.451692 25.678125 70.035759 52 38 36
5.451489 25.828138 70.033150 52 39 37
5.451136 25.977425 70.028618 52 39 37
5.450637 26.125990 70.022209 52 39 38
5.449999 26.273861 70.014015 52 39 38
5.449232 26.421066 70.004150 52 39 38
5.448347 26.567657 69.992790 52 39 38
5.447359 26.713692 69.980095 51 38 38
6.054164 -1.780887 75.679688 72 45 56
6.046200 -1.615619 75.580132 73 45 56
6.038144 -1.450759 75.479431 73 45 57
6.029982 -1.286309 75.377396 73 46 57
6.021697 -1.122277 75.273834 74 47 58
6.013277 -0.958669 75.168571 75 47 58
6.004710 -0.795496 75.061485 76 48 57
5.995986 -0.632769 74.952446 78 48 57
5.987099 -0.470498 74.841347 80 49 56
5.978041 -0.308697 74.728111 82 50 57
5.968809 -0.147381 74.612709 84 50 58
5.959401 0.013438 74.495110 85 51 59
5.949817 0.173744 74.375298 86 53 60
5.940057 0.333524 74.253304 87 55 61
5.930123 0.492764 74.129120 89 56 63
5.920017 0.651449 74.002792 89 56 63
5.909741 0.809567 73.874336 88 56 62
5.899295 0.967102 73.743752 88 56 62
5.888679 1.124043 73.611053 89 55 62
5.877893 1.280374 73.476227 90 55 61
5.866934 1.436081 73.339226 91 54 62
5.855797 1.591150 73.200020 92 54 62
5.844480 1.745564 73.058540 92 54 62
5.832974 1.899307 72.914719 93 54 62
5.821276 2.052362 72.768486 95 54 62
5.809381 2.204712 72.619789 96 54 62
5.797285 2.356340 72.468582 97 54 63
5.784987 2.507228 72.314857 98 54 63
5.772490 2.657361 72.158630 100 53 62
5.759797 2.806726 71.999977 102 53 64
5.746921 2.955312 71.839012 104 54 66
5.733874 3.103112 71.675919 105 55 68
5.720675 3.250122 71.510933 107 55 70
5.707349 3.396346 71.344353 108 56 72
5.693925 3.541790 71.176544 109 58 73
5.680435 3.686468 71.007912 111 60 74
5.666918 3.830400 70.838943 113 62 77
5.653414 3.973614 70.670143 116 65 79
5.639969 4.116142 70.502068 120 68 80
5.626631 4.258028 70.335335 121 70 81
5.613450 4.399316 70.170563 123 70 81
5.600476 4.540063 70.008392 123 70 81
5.587765 4.680331 69.849495 124 71 82
5.575368 4.820186 69.694534 125 71 83
5.563340 4.959700 69.544174 125 71 84
5.551732 5.098952 69.399071 124 71 84
5.540595 5.238025 69.259850 123 70 84
5.529977 5.377002 69.127129 122 69 84
5.519924 5.515970 69.001457 122 69 86
5.510476 5.655018 68.883347 123 69 87
5.501668 5.794231 68.773247 122 68 87
5.493532 5.933696 68.671547 121 68 86
5.486092 6.073492 68.578537 122 68 86
5.479365 6.213696 68.494453 123 69 86
5.473363 6.354379 68.419426 124 70 85
5.468090 6.495603 68.353500 124 71 84
5.463540 6.637423 68.296623 124 72 83
5.459703 6.779883 68.248672 123 72 82
5.456563 6.923020 68.209419 123 71 81
5.454094 7.066857 68.178551 122 70 80
5.452266 7.211409 68.155693 121 69 79
5.451041 7.356677 68.140388 121 67 79
5.450378 7.502652 68.132103 121 67 79
5.450230 7.649314 68.130249 122 67 81
5.450546 7.796631 68.134193 123 67 82
5.451270 7.944562 68.143250 123 67 83
5.452345 8.093051 68.156693 123 68 83
5.453712 8.242039 68.173767 122 69 82
5.455307 8.391452 68.193710 122 70 81
5.457069 8.541214 68.215744 121 70 81
5.458938 8.691239 68.239105 120 70 81
5.460853 8.841439 68.263039 118 69 81
5.462757 8.991726 68.286835 115 68 80
5.464597 9.142009 68.309845 113 66 78
5.466329 9.292204 68.331482 111 65 76
5.467909 9.442233 68.351242 110 64 74
5.469307 9.592028 68.368729 109 63 73
5.470500 9.741531 68.383636 107 62 71
5.471473 9.890702 68.395798 104 62 69
5.472222 10.039515 68.405159 101 60 67
5.472753 10.187962 68.411797 98 58 64
5.473081 10.336054 68.415894 95 56 62
5.473229 10.483820 68.417747 92 55 60
5.473230 10.631308 68.417763 90 53 59
5.473122 10.778580 68.416405 88 52 59
5.472947 10.925713 68.414215 87 51 58
5.472751 11.072795 68.411774 86 50 57
5.472583 11.219923 68.409668 85 50 56
5.472489 11.367197 68.408501 84 49 56
5.472517 11.514721 68.408852 83 49 56
5.472709 11.662597 68.411247 82 50 57
5.473104 11.810921 68.416191 83 50 58
5.473738 11.959787 68.424110 83 50 59
5.474638 12.109278 68.435356 83 50 60
5.475827 12.259463 68.450226 83 51 60
5.477322 12.410406 68.468910 82 51 60
5.479134 12.562156 68.491554 81 52 60
5.481266 12.714746 68.518211 80 54 60
5.483719 12.868205 68.548874 79 55 59
5.486486 13.022541 68.583466 75 55 57
5.489557 13.177756 68.621857 69 51 53
5.492918 13.333838 68.663857 62 47 47
5.496548 13.490765 68.709244 56 43 42
5.500427 13.648506 68.757736 51 40 39
5.504531 13.807018 68.809036 47 37 37
5.508833 13.966254 68.862816 44 36 35
5.513304 14.126154 68.918701 41 34 34
5.517913 14.286654 68.976326 41 34 34
5.522630 14.447681 69.035278 40 35 34
5.527421 14.609162 69.095177 40 35 35
5.532256 14.771015 69.155602 39 36 34
5.537099 14.933154 69.216148 38 35 34
5.541921 15.095495 69.276428 37 34 34
5.546691 15.257955 69.336060 36 33 33
5.551381 15.420447 69.394684 36 33 33
5.555964 15.582893 69.451973 35 32 33
5.560418 15.745219 69.507645 35 32 32
5.564721 15.907353 69.561432 36 33 32
5.568856 16.069239 69.613129 36 34 34
5.572810 16.230818 69.662552 37 35 36
5.576572 16.392046 69.709587 37 35 38
5.580138 16.552891 69.754150 36 36 42
5.583500 16.713324 69.796188 40 38 47
5.586660 16.873325 69.835686 45 43 54
5.589618 17.032877 69.872658 47 45 56
5.592375 17.191975 69.907120 43 39 50
5.594934 17.350609 69.939110 38 34 43
5.597298 17.508768 69.968658 37 31 40
5.599468 17.666445 69.995789 37 30 37
5.601446 17.823624 70.020508 38 28 35
5.603229 17.980286 70.042801 39 27 33
5.604815 18.136408 70.062630 40 27 32
5.606199 18.291954 70.079926 43 27 32
5.607374 18.446888 70.094612 47 29 34
5.608332 18.601168 70.106598 50 31 37
5.609066 18.754749 70.115776 55 34 41
5.609569 18.907587 70.122055 60 36 44
5.609833 19.059645 70.125351 65 38 47
5.609855 19.210888 70.125633 70 42 50
5.609635 19.361294 70.122879 75 44 54
5.609176 19.510859 70.117142 78 47 56
5.608487 19.659594 70.108528 81 49 58
5.607583 19.807531 70.097229 83 50 59
5.606483 19.954721 70.083481 84 50 60
5.605213 20.101242 70.067596 84 51 60
5.603801 20.247185 70.049957 85 52 61
5.602283 20.392662 70.030975 85 52 61
5.600695 20.537804 70.011131 83 53 61
5.599076 20.682741 69.990891 82 53 60
5.597464 20.827621 69.970741 81 53 59
5.595898 20.972586 69.951164 80 53 58
5.594413 21.117771 69.932602 80 53 58
5.593040 21.263304 69.915443 80 53 59
5.591809 21.409302 69.900047 79 53 58
5.590740 21.555862 69.886681 79 52 58
5.589851 21.703062 69.875572 79 51 57
5.589152 21.850960 69.866837 79 51 56
5.588650 21.999592 69.860565 77 50 55
5.588345 22.148975 69.856743 76 49 55
5.588231 22.299110 69.855316 75 48 55
5.588300 22.449974 69.856186 73 47 54
5.588541 22.601532 69.859192 72 47 53
5.588937 22.753740 69.864151 70 46 52
5.589473 22.906540 69.870850 68 45 51
5.590130 23.059868 69.879059 65 45 50
5.590889 23.213652 69.888542 63 44 48
5.591729 23.367819 69.899040 62 43 47
5.592630 23.522291 69.910316 61 44 47
5.593574 23.676989 69.922112 60 44 47
5.594539 23.831827 69.934174 60 45 47
5.595506 23.986729 69.946266 62 47 48
5.596457 24.141607 69.958145 62 48 48
5.597371 24.296381 69.969566 60 48 47
5.598230 24.450966 69.980316 59 46 46
5.599018 24.605282 69.990158 59 45 45
5.599718 24.759253 69.998909 58 44 44
5.600315 24.912800 70.006371 57 42 43
5.600794 25.065859 70.012367 56 41 41
5.601146 25.218365 70.016762 56 41 41
5.601360 25.370266 70.019440 54 40 39
5.601430 25.521523 70.020309 53 39 38
5.601352 25.672104 70.019333 53 40 38
5.601125 25.821997 70.016495 53 40 38
5.600751 25.971195 70.011826 54 40 39
5.600236 26.119717 70.005394 54 40 40
5.599588 26.267586 69.997292 53 40 40
5.598817 26.414839 69.987656 53 39 40
5.597936 26.561527 69.976639 53 39 39
5.596960 26.707716 69.964439 52 38 38
5.595903 26.853466 69.951233 51 38 38
6.222914 -1.945781 75.747971 71 45 55
6.214844 -1.780183 75.649742 72 45 56
6.206701 -1.614989 75.550629 73 45 56
6.198467 -1.450201 75.450401 73 45 56
6.190127 -1.285823 75.348885 73 45 57
6.181666 -1.121860 75.245888 74 46 57
6.173069 -0.958321 75.141243 75 47 57
6.164327 -0.795214 75.034828 76 48 56
6.155428 -0.632550 74.926506 78 49 56
6.146365 -0.470340 74.816193 80 50 56
6.137132 -0.308597 74.703804 82 51 57
6.127727 -0.147335 74.589317 83 51 58
6.118146 0.013434 74.472694 85 52 58
6.108390 0.173694 74.353943 85 53 59
6.098460 0.333433 74.233070 86 54 60
6.088358 0.492637 74.110100 87 55 61
6.078086 0.651293 73.985069 87 55 62
6.067647 0.809388 73.857994 87 55 62
6.057042 0.966908 73.728905 88 54 62
6.046270 1.123840 73.597786 88 54 62
6.035332 1.280172 73.464645 89 54 61
6.024225 1.435890 73.329445 90 53 62
6.012946 1.590979 73.192146 91 54 62
6.001490 1.745425 73.052704 91 54 61
5.989851 1.899211 72.911026 92 54 61
5.978023 2.052322 72.767059 93 54 61
5.966003 2.204741 72.620743 94 53 62
5.953785 2.356452 72.472023 95 53 62
5.941368 2.507437 72.320877 97 53 62
5.928753 2.657681 72.167320 100 53 63
5.915944 2.807171 72.011398 102 54 64
5.902949 2.955897 71.853226 105 55 67
5.889783 3.103849 71.692955 107 55 69
5.876461 3.251025 71.530800 109 56 71
5.863007 3.397426 71.367035 110 57 72
5.849448 3.543056 71.201988 111 58 73
5.835817 3.687929 71.036064 113 60 75
5.822150 3.832064 70.869705 116 62 77
5.808488 3.975484 70.703400 118 64 79
5.794874 4.118222 70.537689 120 67 81
5.781357 4.260317 70.373154 123 69 82
5.767986 4.401814 70.210403 124 70 82
5.754815 4.542766 70.050064 125 70 83
5.741895 4.683233 69.892807 126 71 83
5.729282 4.823280 69.739273 126 71 84
5.717029 4.962977 69.590126 125 71 84
5.705191 5.102403 69.446030 124 70 85
5.693820 5.241637 69.307610 122 69 85
5.682964 5.380763 69.175476 121 67 84
5.672673 5.519868 69.050209 120 67 85
5.662987 5.659038 68.932304 121 68 88
5.653946 5.798360 68.822250 122 68 89
5.645581 5.937919 68.720428 122 68 89
5.637918 6.077796 68.627151 123 69 90
5.630978 6.218070 68.542671 124 70 89
5.624772 6.358809 68.467125 124 71 88
5.619305 6.500077 68.400589 124 72 86
5.614576 6.641932 68.343018 125 74 85
5.610574 6.784417 68.294312 125 73 83
5.607284 6.927572 68.254265 125 73 82
5.604681 7.071420 68.222572 124 72 82
5.602735 7.215979 68.198883 124 71 81
5.601409 7.361251 68.182755 124 70 80
5.600664 7.507231 68.173683 123 68 80
5.600451 7.653899 68.171089 124 69 82
5.600719 7.801226 68.174347 125 69 83
5.601413 7.949172 68.182793 125 69 83
5.602475 8.097687 68.195732 124 69 82
5.603844 8.246709 68.212395 123 70 81
5.605458 8.396169 68.232040 122 71 80
5.607255 8.545992 68.253906 121 71 80
5.609169 8.696093 68.277214 119 71 80
5.611143 8.846387 68.301231 118 70 80
5.613115 8.996783 68.325249 116 69 80
5.615035 9.147196 68.348602 115 67 80
5.616850 9.297538 68.370705 113 66 78
5.618521 9.447731 68.391045 112 65 76
5.620013 9.597707 68.409203 111 64 75
5.621300 9.747406 68.424873 110 63 73
5.622368 9.896788 68.437874 108 62 71
5.623210 10.045821 68.448128 104 60 68
5.623832 10.194499 68.455688 100 59 65
5.624247 10.342829 68.460739 97 57 63
5.624478 10.490839 68.463554 94 55 61
5.624557 10.638573 68.464516 91 53 60
5.624521 10.786090 68.464081 89 52 59
5.624413 10.933465 68.462761 88 51 58
5.624280 11.080786 68.461143 87 50 57
5.624170 11.228146 68.459801 86 50 56
5.624131 11.375643 68.459335 85 50 56
5.624211 11.523381 68.460304 84 49 56
5.624453 11.671460 68.463242 83 50 57
5.624896 11.819977 68.468643 83 50 58
5.625577 11.969021 68.476936 84 51 60
5.626524 12.118674 68.488464 85 52 62
5.627762 12.269010 68.503525 85 52 63
5.629305 12.420086 68.522316 85 53 64
5.631166 12.571952 68.544968 84 54 63
5.633349 12.724643 68.571541 83 56 63
5.635853 12.878181 68.602020 83 59 64
5.638673 13.032580 68.636337 80 59 62
5.641796 13.187839 68.674355 70 53 54
5.645209 13.343945 68.715904 60 45 46
5.648893 13.500877 68.760742 53 42 41
5.652826 13.658605 68.808617 49 40 39
5.656983 13.817088 68.859222 46 37 37
5.661339 13.976278 68.912247 43 36 35
5.665864 14.136120 68.967323 41 35 35
5.670529 14.296552 69.024109 40 34 35
5.675303 14.457505 69.082214 40 35 35
5.680154 14.618908 69.141266 40 35 35
5.685050 14.780684 69.200867 40 36 35
5.689960 14.942751 69.260628 39 36 35
5.694852 15.105030 69.320183 39 35 35
5.699698 15.267441 69.379166 39 35 35
5.704469 15.429905 69.437241 38 35 35
5.709140 15.592344 69.494095 39 35 34
5.713686 15.754686 69.549438 39 35 33
5.718089 15.916867 69.603035 39 36 32
5.722330 16.078823 69.654648 39 37 33
5.726395 16.240503 69.704132 39 37 33
5.730273 16.401863 69.751343 39 36 34
5.733956 16.562862 69.796173 39 38 38
5.737440 16.723473 69.838570 43 41 43
5.740720 16.883669 69.878502 45 43 48
5.743795 17.043430 69.915939 44 42 48
5.746667 17.202742 69.950890 41 37 45
5.749335 17.361588 69.983368 38 33 40
5.751799 17.519953 70.013359 36 30 38
5.754058 17.677820 70.040863 36 28 35
5.756112 17.835169 70.065865 37 27 33
5.757957 17.991974 70.088326 39 26 32
5.759590 18.148203 70.108192 41 26 32
5.761001 18.303816 70.125366 45 27 34
5.762185 18.458775 70.139778 48 29 37
5.763132 18.613031 70.151306 52 32 40
5.763834 18.766542 70.159866 57 34 44
5.764285 18.919260 70.165337 62 36 47
5.764476 19.071146 70.167664 67 40 51
5.764405 19.222166 70.166801 72 43 54
5.764071 19.372303 70.162750 77 47 58
5.763482 19.521553 70.155571 81 50 60
5.762646 19.669930 70.145393 83 52 62
5.761579 19.817471 70.132408 85 53 62
5.760303 19.964228 70.116867 85 53 62
5.758843 20.110281 70.099106 86 53 61
5.757235 20.255732 70.079529 86 54 61
5.755512 20.400694 70.058556 86 54 61
5.753714 20.545296 70.036674 84 54 61
5.751883 20.689684 70.014381 83 54 60
5.750059 20.834002 69.992172 82 54 60
5.748281 20.978395 69.970543 81 54 60
5.746590 21.123011 69.949951 81 54 60
5.745017 21.267979 69.930809 80 54 60
5.743592 21.413414 69.913467 80 54 60
5.742340 21.559422 69.898224 80 53 59
5.741278 21.706083 69.885300 79 52 58
5.740418 21.853460 69.874832 79 51 58
5.739768 22.001591 69.866905 78 50 57
5.739326 22.150496 69.861526 77 49 56
5.739088 22.300171 69.858643 76 49 56
5.739047 22.450600 69.858131 75 48 54
5.739188 22.601749 69.859863 74 48 53
5.739498 22.753569 69.863625 71 47 52
5.739957 22.906004 69.869209 69 46 51
5.740547 23.058987 69.876396 67 45 49
5.741246 23.212444 69.884903 65 43 48
5.742035 23.366302 69.894508 63 43 48
5.742891 23.520479 69.904930 63 44 48
5.743794 23.674892 69.915924 62 46 49
5.744723 23.829460 69.927223 62 46 49
5.745656 23.984097 69.938591 63 48 50
5.746575 24.138720 69.949768 63 48 50
5.747458 24.293242 69.960526 62 48 49
5.748289 24.447584 69.970634 60 47 47
5.749048 24.601667 69.979874 59 46 46
5.749719 24.755409 69.988045 58 45 45
5.750288 24.908747 69.994972 57 44 44
5.750741 25.061604 70.000488 57 42 42
5.751067 25.213930 70.004448 57 42 42
5.751257 25.365673 70.006760 55 41 40
5.751305 25.516796 70.007339 54 40 39
5.751207 25.667274 70.006157 54 40 39
5.750965 25.817095 70.003204 54 40 39
5.750579 25.966259 69.998520 55 40 40
5.750058 26.114784 69.992172 55 40 40
5.749409 26.262699 69.984268 55 40 40
5.748643 26.410044 69.974945 54 40 40
5.747775 26.556873 69.964378 53 39 40
5.746819 26.703249 69.952736 52 38 39
5.745790 26.849237 69.940216 51 38 38
6.383655 -1.945006 75.717766 71 44 56
6.375411 -1.779483 75.619987 72 44 56
6.367095 -1.614363 75.521347 72 44 56
6.358691 -1.449648 75.421669 73 45 56
6.350182 -1.285342 75.320740 73 45 56
6.341553 -1.121450 75.218391 74 46 56
6.332790 -0.957979 75.114456 75 47 56
6.323884 -0.794938 75.008812 77 48 55
6.314821 -0.632337 74.901321 78 49 55
6.305596 -0.470187 74.791908 80 50 56
6.296204 -0.308501 74.680504 81 51 57
6.286640 -0.147291 74.567062 83 51 57
6.276903 0.013430 74.451569 84 51 58
6.266994 0.173648 74.334030 84 51 58
6.256912 0.333350 74.214455 85 52 59
6.246662 0.492523 74.092873 86 53 59
6.236245 0.651155 73.969315 86 54 60
6.225665 0.809232 73.843819 87 54 60
6.214922 0.966744 73.716400 87 53 61
6.204019 1.123676 73.587074 88 53 61
6.192954 1.280018 73.455833 88 52 61
6.181726 1.435757 73.322647 89 52 61
6.170331 1.590878 73.187492 90 53 61
6.158764 1.745367 73.050308 90 53 61
6.147021 1.899211 72.911018 91 53 61
6.135096 2.052393 72.769562 92 53 61
6.122981 2.204897 72.625870 93 52 61
6.110674 2.356708 72.479897 94 52 62
6.098171 2.507808 72.331589 96 53 63
6.085472 2.658184 72.180969 99 53 64
6.072581 2.807821 72.028061 102 54 65
6.059503 2.956708 71.872948 105 55 67
6.046251 3.104837 71.715759 107 56 70
6.032842 3.252203 71.556709 110 57 71
6.019294 3.398805 71.396011 111 58 72
6.005635 3.544649 71.234001 113 59 73
5.991895 3.689745 71.071030 115 61 75
5.978110 3.834109 70.907524 117 62 77
5.964318 3.977763 70.743942 120 65 80
5.950564 4.120739 70.580803 123 68 83
5.936894 4.263072 70.418663 125 70 85
5.923358 4.404805 70.258102 126 70 84
5.910009 4.545989 70.099762 127 70 84
5.896899 4.686681 69.944267 127 70 85
5.884085 4.826945 69.792274 127 71 85
5.871620 4.966850 69.644432 126 70 85
5.859562 5.106472 69.501404 124 69 86
5.847962 5.245888 69.363823 122 68 85
5.836874 5.385183 69.232307 120 67 85
5.826346 5.524442 69.107422 120 67 86
5.816422 5.663751 68.989716 121 68 88
5.807142 5.803195 68.879646 122 69 90
5.798542 5.942863 68.777634 123 70 92
5.790648 6.082832 68.684013 124 70 93
5.783484 6.223182 68.599030 124 71 93
5.777062 6.363985 68.522858 124 73 91
5.771390 6.505304 68.455582 124 74 89
5.766467 6.647196 68.397194 125 75 87
5.762285 6.789710 68.347588 125 75 85
5.758829 6.932882 68.306587 125 75 84
5.756074 7.076742 68.273918 125 74 84
5.753993 7.221306 68.249229 126 73 84
5.752550 7.366580 68.232117 127 72 83
5.751704 7.512560 68.222076 127 71 83
5.751408 7.659230 68.218567 127 71 85
5.751611 7.806562 68.220978 128 71 86
5.752258 7.954519 68.228661 126 70 84
5.753292 8.103052 68.240913 124 70 82
5.754649 8.252103 68.257011 123 70 81
5.756268 8.401605 68.276215 122 71 81
5.758084 8.551483 68.297760 121 72 80
5.760035 8.701656 68.320892 119 72 79
5.762056 8.852038 68.344872 118 71 79
5.764089 9.002542 68.368988 117 70 79
5.766078 9.153081 68.392578 116 69 79
5.767973 9.303569 68.415054 115 68 78
5.769730 9.453926 68.435883 114 66 77
5.771312 9.604083 68.454651 113 65 75
5.772693 9.753982 68.471031 113 64 73
5.773856 9.903577 68.484825 111 63 72
5.774793 10.052838 68.495941 108 62 70
5.775507 10.201756 68.504417 104 60 67
5.776013 10.350334 68.510414 100 58 64
5.776331 10.498597 68.514191 95 56 62
5.776493 10.646588 68.516106 92 54 60
5.776535 10.794365 68.516609 90 53 59
5.776501 10.941999 68.516205 88 52 58
5.776437 11.089575 68.515442 87 51 57
5.776392 11.237184 68.514915 86 51 56
5.776414 11.384923 68.515175 86 50 56
5.776552 11.532893 68.516808 85 50 56
5.776850 11.681193 68.520340 84 50 57
5.777347 11.829919 68.526237 84 51 59
5.778080 11.979158 68.534935 85 52 62
5.779078 12.128992 68.546776 86 53 64
5.780366 12.279490 68.562042 87 55 66
5.781960 12.430714 68.580948 87 56 67
5.783870 12.582706 68.603607 86 57 67
5.786102 12.735505 68.630081 86 59 67
5.788654 12.889132 68.660347 86 62 68
5.791520 13.043594 68.694344 83 62 66
5.794689 13.198895 68.731934 71 54 55
5.798146 13.355021 68.772934 58 44 44
5.801872 13.511950 68.817131 51 40 40
5.805845 13.669651 68.864265 48 39 38
5.810041 13.828086 68.914032 45 37 37
5.814434 13.987208 68.966141 42 35 35
5.818995 14.146965 69.020241 41 35 35
5.823696 14.307297 69.075989 40 34 34
5.828505 14.468140 69.133034 39 34 35
5.833392 14.629423 69.190994 39 35 35
5.838326 14.791076 69.249519 40 36 36
5.843277 14.953024 69.308243 40 36 36
5.848214 15.115190 69.366806 41 36 37
5.853109 15.277498 69.424873 41 37 37
5.857936 15.439877 69.482117 42 37 37
5.862669 15.602252 69.538254 43 38 36
5.867285 15.764556 69.593010 43 38 34
5.871764 15.926724 69.646141 43 39 32
5.876089 16.088699 69.697433 44 39 31
5.880245 16.250429 69.746727 44 39 30
5.884221 16.411867 69.793884 45 40 33
5.888006 16.572975 69.838783 49 47 40
5.891595 16.733719 69.881363 55 52 48
5.894984 16.894072 69.921555 51 48 49
5.898169 17.054007 69.959328 44 41 44
5.901147 17.213503 69.994659 40 36 42
5.903917 17.372540 70.027512 38 33 40
5.906477 17.531094 70.057877 37 30 37
5.908824 17.689140 70.085709 36 28 35
5.910954 17.846651 70.110977 37 26 32
5.912862 18.003595 70.133606 39 25 31
5.914540 18.159935 70.153511 42 26 32
5.915982 18.315626 70.170616 45 27 34
5.917178 18.470621 70.184799 50 29 37
5.918118 18.624874 70.195946 54 32 41
5.918792 18.778332 70.203941 60 35 45
5.919193 18.930952 70.208702 65 37 49
5.919315 19.082693 70.210152 70 41 53
5.919155 19.233522 70.208252 75 45 58
5.918714 19.383421 70.203018 79 50 62
5.917996 19.532389 70.194511 83 53 65
5.917016 19.680441 70.182877 86 54 66
5.915788 19.827616 70.168312 86 55 65
5.914337 19.973974 70.151100 86 54 64
5.912691 20.119596 70.131577 87 54 63
5.910885 20.264585 70.110153 87 55 63
5.908957 20.409061 70.087288 88 56 63
5.906950 20.553160 70.063477 86 55 62
5.904904 20.697025 70.039223 84 55 62
5.902865 20.840807 70.015038 83 55 62
5.900876 20.984659 69.991432 82 55 62
5.898974 21.128727 69.968887 81 55 62
5.897198 21.273149 69.947815 81 55 62
5.895577 21.418045 69.928589 80 55 61
5.894138 21.563522 69.911522 80 54 61
5.892900 21.709663 69.896828 80 53 60
5.891875 21.856539 69.884674 80 52 61
5.891071 22.004183 69.875137 79 52 60
5.890489 22.152622 69.868240 79 51 59
5.890125 22.301855 69.863914 78 50 57
5.889970 22.451866 69.862076 76 49 55
5.890010 22.602619 69.862556 75 49 54
5.890229 22.754068 69.865158 73 48 52
5.890610 22.906155 69.869675 71 47 52
5.891131 23.058809 69.875854 69 46 51
5.891771 23.211960 69.883446 67 45 50
5.892508 23.365526 69.892189 66 45 50
5.893319 23.519428 69.901810 65 45 50
5.894183 23.673582 69.912048 64 46 51
5.895076 23.827898 69.922646 64 47 51
5.895977 23.982296 69.933342 65 48 51
5.896867 24.136688 69.943886 65 48 51
5.897723 24.290991 69.954041 63 48 50
5.898528 24.445122 69.963585 62 47 48
5.899263 24.599005 69.972305 61 46 47
5.899911 24.752562 69.979996 60 45 46
5.900458 24.905725 69.986488 59 44 45
5.900891 25.058430 69.991615 58 43 43
5.901198 25.210621 69.995262 58 43 43
5.901372 25.362255 69.997330 56 42 41
5.901407 25.513294 69.997734 55 41 40
5.901299 25.663719 69.996460 54 40 40
5.901051 25.813519 69.993507 55 40 40
5.900664 25.962702 69.988930 55 40 40
5.900146 26.111282 69.982788 55 40 40
5.899507 26.259295 69.975197 55 40 40
5.898757 26.406778 69.966301 54 40 40
5.897910 26.553791 69.956253 53 39 40
5.896982 26.700392 69.945251 52 38 39
5.895990 26.846653 69.933487 51 38 39
6.544271 -1.944232 75.687637 71 44 56
6.535858 -1.778785 75.590332 73 44 57
6.527376 -1.613741 75.492233 73 45 57
6.518809 -1.449100 75.393150 73 45 56
6.510139 -1.284867 75.292885 73 46 55
6.501352 -1.121046 75.191261 73 46 55
6.492435 -0.957643 75.088127 74 47 54
6.483375 -0.794668 74.983345 76 48 54
6.474163 -0.632130 74.876801 77 49 54
6.464791 -0.470039 74.768410 79 50 55
6.455254 -0.308408 74.658104 81 50 56
6.445547 -0.147249 74.545845 82 50 57
6.435672 0.013426 74.431633 82 50 57
6.425627 0.173604 74.315453 83 51 57
6.415413 0.333273 74.197334 84 52 58
6.405035 0.492420 74.077309 85 52 58
6.394495 0.651032 73.955406 86 53 59
6.383797 0.809099 73.831673 86 53 60
6.372941 0.966609 73.706123 87 52 61
6.361930 1.123550 73.578781 87 52 61
6.350764 1.279910 73.449638 88 51 61
6.339441 1.435679 73.318680 88 52 61
6.327959 1.590842 73.185875 89 52 61
6.316311 1.745388 73.051170 90 53 61
6.304493 1.899301 72.914490 91 53 61
6.292500 2.052568 72.775780 92 52 61
6.280323 2.205173 72.634956 93 52 61
6.267959 2.357100 72.491951 94 53 62
6.255403 2.508333 72.346741 96 53 63
6.242654 2.658858 72.199295 98 54 65
6.229714 2.808662 72.049637 101 54 66
6.216589 2.957732 71.897842 103 55 67
6.203288 3.106059 71.743996 106 56 69
6.189824 3.253638 71.588287 109 57 71
6.176218 3.400467 71.430923 111 58 72
6.162492 3.546549 71.272179 114 60 74
6.148677 3.691892 71.112396 116 62 76
6.134805 3.836512 70.951965 118 63 77
6.120915 3.980428 70.791328 121 65 80
6.107049 4.123667 70.630959 124 69 84
6.093253 4.266264 70.471397 127 71 86
6.079576 4.408259 70.313217 128 71 87
6.066071 4.549702 70.157013 128 71 86
6.052790 4.690645 70.003426 127 70 86
