ply
format ascii 1.0
element vertex 1196
property float x
property float y
property float z
property uchar red
property uchar green
property uchar blue
end_header
-1.155728 12.427264 77.816574 131 92 113
-1.156878 12.607536 77.893967 129 90 111
-1.158043 12.788316 77.972420 126 89 108
-1.159224 12.969614 78.051949 123 89 106
-1.160421 13.151433 78.132538 121 88 104
-1.161633 13.333771 78.214134 119 87 103
-1.162859 13.516622 78.296669 117 86 101
-1.164097 13.699975 78.380035 115 85 99
-1.165346 13.883816 78.464134 113 82 99
-1.166604 14.068134 78.548866 111 80 98
-1.167871 14.252913 78.634125 110 78 97
-1.169143 14.438138 78.719810 108 76 96
-1.170421 14.623793 78.805832 107 75 95
-1.171702 14.809867 78.892105 106 74 94
-1.172986 14.996346 78.978554 106 74 93
-1.174272 15.183221 79.065117 106 74 91
-1.175558 15.370480 79.151733 106 74 89
-1.176845 15.558113 79.238365 105 74 87
-1.178131 15.746109 79.324936 104 75 86
-1.179415 15.934456 79.411392 102 75 85
-1.180696 16.123137 79.497665 101 75 83
-1.181973 16.312138 79.583679 101 74 82
-1.183246 16.501434 79.669334 99 74 81
-1.184511 16.691000 79.754517 97 72 81
-1.185767 16.880810 79.839104 95 71 80
-1.187012 17.070826 79.922958 94 69 80
-1.188244 17.261011 80.005920 94 69 79
-1.189461 17.451324 80.087822 94 69 80
-1.190659 17.641726 80.168518 94 70 80
-1.191838 17.832167 80.247841 94 70 80
-1.192993 18.022610 80.325638 94 70 79
-1.194124 18.213015 80.401794 93 70 77
-1.195229 18.403349 80.476196 93 69 75
-1.196307 18.593584 80.548782 91 67 72
-1.197358 18.783707 80.619537 90 66 71
-1.198382 18.973705 80.688477 89 66 70
-1.199380 19.163586 80.755661 89 65 70
-1.200353 19.353363 80.821205 90 67 73
-1.201305 19.543070 80.885284 90 68 76
-1.202237 19.732738 80.948082 89 68 77
-1.203155 19.922421 81.009827 88 66 76
-1.204060 20.112177 81.070801 86 64 75
-1.204958 20.302071 81.131279 84 62 73
-1.205853 20.492176 81.191551 83 61 72
-1.206750 20.682564 81.251915 81 60 69
-1.207652 20.873306 81.312653 81 60 67
-1.208563 21.064474 81.374023 81 59 67
-1.209488 21.256138 81.436272 81 59 68
-1.210429 21.448353 81.499603 80 59 68
-1.211388 21.641178 81.564201 80 59 68
-1.212368 21.834654 81.630188 79 58 69
-1.213370 22.028820 81.697678 79 58 69
-1.214396 22.223694 81.766708 78 58 68
-1.215444 22.419298 81.837311 76 58 66
-1.216516 22.615631 81.909462 74 57 64
-1.217610 22.812695 81.983109 72 56 62
-0.947871 -1.274021 74.657333 166 137 149
-0.947401 -1.112532 74.620255 169 141 153
-0.946957 -0.951231 74.585327 168 141 153
-0.946547 -0.790108 74.553032 165 137 148
-0.946176 -0.629150 74.523781 170 143 153
-0.945848 -0.468339 74.497948 180 153 163
-0.945567 -0.307655 74.475822 180 152 161
-0.945336 -0.147075 74.457611 175 147 156
-0.945156 0.013428 74.443451 174 146 155
-0.945028 0.173880 74.433372 171 143 154
-0.944951 0.334306 74.427322 168 140 153
-0.944924 0.494732 74.425163 166 137 152
-0.944943 0.655181 74.426674 163 133 150
-0.945005 0.815673 74.431549 161 131 147
-0.945105 0.976226 74.439453 159 129 146
-0.945239 1.136853 74.449966 157 128 143
-0.945400 1.297563 74.462662 156 127 141
-0.945583 1.458362 74.477089 153 126 138
-0.945782 1.619251 74.492790 150 124 136
-0.945992 1.780228 74.509338 145 120 132
-0.946208 1.941287 74.526329 139 115 128
-0.946425 2.102422 74.543404 139 115 131
-0.946639 2.263625 74.560265 147 123 141
-0.946847 2.424885 74.576668 152 127 148
-0.947048 2.586194 74.592445 152 126 150
-0.947239 2.747545 74.607513 151 124 150
-0.947421 2.908932 74.621826 150 122 149
-0.947594 3.070351 74.635445 146 117 144
-0.947759 3.231803 74.648445 141 112 138
-0.947918 3.393291 74.661003 138 108 134
-0.948074 3.554821 74.673317 137 106 133
-0.948231 3.716404 74.685631 135 105 131
-0.948390 3.878054 74.698204 133 103 128
-0.948557 4.039787 74.711319 134 103 128
-0.948734 4.201624 74.725273 138 106 131
-0.948926 4.363589 74.740379 141 108 132
-0.949136 4.525706 74.756927 137 103 126
-0.949368 4.688004 74.775223 130 95 116
-0.949626 4.850512 74.795547 126 90 110
-0.949914 5.013262 74.818176 125 88 107
-0.950233 5.176287 74.843369 125 88 104
-0.950589 5.339622 74.871376 123 87 101
-0.950983 5.503300 74.902420 120 85 97
-0.951419 5.667359 74.936729 117 85 93
-0.951898 5.831832 74.974464 114 84 90
-0.952423 5.996757 75.015808 112 83 88
-0.952995 6.162167 75.060883 110 82 87
-0.953616 6.328094 75.109795 108 79 85
-0.954287 6.494569 75.162613 107 77 84
-0.955007 6.661619 75.219360 106 75 84
-0.955777 6.829268 75.279999 105 74 85
-0.956596 6.997537 75.344498 106 73 89
-0.957462 7.166436 75.412712 106 74 92
-0.958373 7.335976 75.484482 107 76 95
-0.959327 7.506158 75.559608 108 77 98
-0.960320 7.676977 75.637810 109 78 100
-0.961348 7.848419 75.718788 110 79 101
-0.962407 8.020468 75.802185 112 80 104
-0.963492 8.193097 75.887634 116 83 107
-0.964597 8.366276 75.974724 120 85 110
-0.965719 8.539967 76.063034 123 88 113
-0.966850 8.714128 76.152138 125 90 115
-0.967986 8.888719 76.241615 128 93 116
-0.969122 9.063691 76.331062 128 94 115
-0.970252 9.239002 76.420120 124 91 109
-0.971374 9.414608 76.508453 117 84 99
-0.972483 9.590470 76.595795 114 82 94
-0.973576 9.766551 76.681900 117 85 95
-0.974652 9.942826 76.766624 119 87 95
-0.975709 10.119272 76.849884 120 87 95
-0.976747 10.295877 76.931656 121 88 96
-0.977767 10.472639 77.011978 122 88 97
-0.978769 10.649561 77.090950 124 90 99
-0.979757 10.826654 77.168724 126 92 103
-0.980732 11.003942 77.245499 128 95 106
-0.981696 11.181447 77.321495 130 96 109
-0.982655 11.359202 77.396973 132 97 113
-0.983609 11.537241 77.472160 133 97 115
-0.984563 11.715598 77.547310 135 97 116
-0.985520 11.894310 77.622658 135 96 117
-0.986482 12.073407 77.698395 135 95 116
-0.987451 12.252922 77.774712 133 94 115
-0.988428 12.432878 77.851730 131 92 113
-0.989417 12.613296 77.929550 128 90 111
-0.990416 12.794191 78.008240 125 89 109
-0.991426 12.975574 78.087814 122 89 108
-0.992447 13.157445 78.168259 120 88 107
-0.993479 13.339806 78.249535 118 88 105
-0.994521 13.522650 78.331589 116 87 103
-0.995572 13.705971 78.414345 113 84 101
-0.996630 13.889754 78.497696 111 81 99
-0.997695 14.073989 78.581551 110 79 97
-0.998765 14.258661 78.665840 108 77 96
-0.999839 14.443758 78.750458 107 75 95
-1.000916 14.629264 78.835312 107 73 94
-1.001996 14.815168 78.920341 106 73 93
-1.003077 15.001458 79.005470 106 73 92
-1.004158 15.188123 79.090637 105 73 90
-1.005239 15.375150 79.175781 105 74 88
-1.006319 15.562531 79.260864 103 75 86
-1.007398 15.750253 79.345810 102 75 85
-1.008474 15.938303 79.430565 101 76 85
-1.009547 16.126667 79.515076 101 76 84
-1.010615 16.315327 79.599243 100 76 84
-1.011679 16.504261 79.682991 99 75 83
-1.012735 16.693447 79.766205 97 74 82
-1.013783 16.882851 79.848763 96 72 81
-1.014822 17.072445 79.930534 95 71 80
-1.015848 17.262188 80.011375 95 70 80
-1.016861 17.452047 80.091141 95 70 80
-1.017858 17.641977 80.169670 94 71 80
-1.018837 17.831942 80.246826 94 71 79
-1.019798 18.021898 80.322472 93 71 78
-1.020738 18.211815 80.396492 93 71 77
-1.021656 18.401661 80.468811 92 70 76
-1.022552 18.591412 80.539368 91 69 74
-1.023425 18.781054 80.608154 90 68 73
-1.024276 18.970585 80.675209 89 67 72
-1.025107 19.160015 80.740616 89 67 72
-1.025918 19.349361 80.804497 90 67 74
-1.026711 19.538656 80.867020 90 67 75
-1.027491 19.727943 80.928413 90 67 76
-1.028259 19.917276 80.988907 89 66 77
-1.029019 20.106718 81.048798 88 65 76
-1.029776 20.296339 81.108368 86 63 75
-1.030532 20.486214 81.167931 85 61 73
-1.031292 20.676422 81.227791 84 61 71
-1.032059 20.867039 81.288239 83 60 69
-1.032838 21.058144 81.349564 83 60 69
-1.033631 21.249804 81.412003 82 60 69
-1.034441 21.442087 81.475792 81 60 69
-1.035270 21.635046 81.541084 81 59 69
-1.036120 21.828735 81.608055 81 59 69
-1.036993 22.023190 81.676796 80 58 69
-1.037889 22.218435 81.747360 79 58 69
-1.038808 22.414492 81.819771 78 58 67
-1.039750 22.611362 81.894005 76 58 65
-1.040715 22.809044 81.969994 74 57 63
-1.041701 23.007526 82.047668 72 57 61
-0.786822 -1.273837 74.646530 166 137 150
-0.786464 -1.112419 74.612633 173 145 157
-0.786130 -0.951175 74.580902 174 146 158
-0.785823 -0.790095 74.551796 167 139 150
-0.785548 -0.629166 74.525726 170 142 152
-0.785309 -0.468371 74.503052 183 156 165
-0.785109 -0.307689 74.484039 184 157 166
-0.784949 -0.147097 74.468903 175 148 157
-0.784832 0.013431 74.457748 174 146 156
-0.784756 0.173920 74.450600 174 146 156
-0.784722 0.334396 74.447372 172 143 155
-0.784728 0.494883 74.447937 170 141 154
-0.784771 0.655404 74.452019 168 138 152
-0.784848 0.815977 74.459328 165 136 150
-0.784955 0.976620 74.469482 163 133 148
-0.785088 1.137343 74.482056 161 133 146
-0.785241 1.298154 74.496597 159 132 144
-0.785410 1.459058 74.512634 157 131 142
-0.785590 1.620053 74.529709 154 130 140
-0.785776 1.781136 74.547371 150 127 137
-0.785964 1.942299 74.565193 147 124 136
-0.786150 2.103534 74.582832 148 126 140
-0.786331 2.264830 74.599968 154 132 149
-0.786504 2.426176 74.616371 158 135 155
-0.786667 2.587561 74.631874 157 133 156
-0.786820 2.748977 74.646393 155 130 155
-0.786963 2.910416 74.659904 153 127 152
-0.787095 3.071875 74.672470 150 123 148
-0.787219 3.233351 74.684204 146 118 143
-0.787336 3.394850 74.695297 141 113 138
-0.787448 3.556375 74.705963 138 110 134
-0.787559 3.717939 74.716461 136 108 132
-0.787671 3.879554 74.727097 136 107 130
-0.787787 4.041239 74.738159 137 109 131
-0.787912 4.203014 74.750000 140 110 132
-0.788048 4.364905 74.762924 140 109 130
-0.788200 4.526937 74.777260 136 103 125
-0.788369 4.689139 74.793343 130 97 117
-0.788560 4.851544 74.811462 126 91 111
-0.788776 5.014183 74.831924 125 89 107
-0.789019 5.177093 74.855011 126 90 106
-0.789293 5.340307 74.880989 126 90 104
-0.789600 5.503864 74.910095 123 88 99
-0.789942 5.667799 74.942551 119 87 96
-0.790321 5.832151 74.978569 116 86 93
-0.790740 5.996957 75.018303 114 85 91
-0.791200 6.162251 75.061920 112 84 91
-0.791702 6.328070 75.109512 112 83 90
-0.792246 6.494443 75.161156 111 81 89
-0.792834 6.661401 75.216896 110 79 89
-0.793464 6.828969 75.276703 109 78 90
-0.794137 6.997169 75.340530 108 78 92
-0.794851 7.166014 75.408272 108 78 94
-0.795604 7.335516 75.479752 109 79 97
-0.796395 7.505678 75.554771 110 80 99
-0.797220 7.676496 75.633080 111 81 101
-0.798077 7.847960 75.714363 112 82 103
-0.798962 8.020055 75.798286 114 84 105
-0.799870 8.192753 75.884453 117 86 110
-0.800798 8.366027 75.972466 122 89 114
-0.801741 8.539840 76.061905 125 92 117
-0.802694 8.714151 76.152336 128 94 119
-0.803653 8.888920 76.243332 132 98 121
-0.804614 9.064097 76.334480 133 100 120
-0.805572 9.239640 76.425400 129 95 114
-0.806524 9.415504 76.515732 121 88 104
-0.807467 9.591646 76.605179 119 87 99
-0.808398 9.768030 76.693512 122 90 100
-0.809315 9.944626 76.780525 123 91 101
-0.810217 10.121410 76.866127 124 92 101
-0.811104 10.298364 76.950233 126 93 101
-0.811975 10.475483 77.032883 127 94 103
-0.812832 10.652764 77.114136 129 95 105
-0.813675 10.830217 77.194115 131 97 108
-0.814506 11.007857 77.272995 131 98 110
-0.815328 11.185707 77.350960 132 98 112
-0.816142 11.363791 77.428238 133 99 115
-0.816952 11.542141 77.505058 133 98 116
-0.817760 11.720788 77.581657 134 97 117
-0.818567 11.899763 77.658241 134 96 117
-0.819376 12.079095 77.735001 134 94 116
-0.820189 12.258814 77.812111 131 93 114
-0.821007 12.438942 77.889702 129 91 112
-0.821831 12.619500 77.967888 127 90 110
-0.822662 12.800502 78.046715 124 89 108
-0.823500 12.981957 78.126236 122 88 107
-0.824345 13.163871 78.206436 119 88 106
-0.825198 13.346243 78.287300 117 87 105
-0.826056 13.529071 78.368782 114 85 103
-0.826921 13.712345 78.450806 111 83 101
-0.827791 13.896057 78.533310 108 80 99
-0.828665 14.080196 78.616211 107 77 97
-0.829542 14.264750 78.699432 106 75 96
-0.830421 14.449706 78.782883 106 74 94
-0.831303 14.635053 78.866508 105 73 94
-0.832185 14.820776 78.950218 106 73 93
-0.833068 15.006866 79.033958 106 74 92
-0.833950 15.193313 79.117668 105 74 90
-0.834832 15.380102 79.201294 104 74 89
-0.835712 15.567225 79.284775 103 75 88
-0.836589 15.754669 79.368057 101 76 87
-0.837465 15.942422 79.451096 100 77 87
-0.838337 16.130466 79.533813 100 77 87
-0.839204 16.318787 79.616119 100 77 87
-0.840067 16.507360 79.697952 100 76 86
-0.840923 16.696163 79.779182 98 74 85
-0.841772 16.885166 79.859711 96 72 83
-0.842612 17.074341 79.939415 96 71 82
-0.843442 17.263649 80.018143 95 70 81
-0.844260 17.453058 80.095779 95 70 80
-0.845065 17.642525 80.172157 94 71 80
-0.845856 17.832016 80.247162 94 71 79
-0.846631 18.021494 80.320663 93 72 78
-0.847389 18.210928 80.392578 92 72 78
-0.848129 18.400290 80.462814 91 71 77
-0.848851 18.589561 80.531357 90 70 76
-0.849556 18.778732 80.598190 89 69 74
-0.850243 18.967804 80.663383 88 68 74
-0.850914 19.156790 80.727020 89 68 74
-0.851570 19.345709 80.789238 90 67 75
-0.852213 19.534601 80.850235 90 67 76
-0.852845 19.723513 80.910240 91 68 77
-0.853470 19.912502 80.969498 91 68 79
-0.854090 20.101635 81.028313 90 66 78
-0.854708 20.290989 81.086990 89 64 76
-0.855329 20.480640 81.145851 87 62 73
-0.855954 20.670673 81.205208 86 61 71
-0.856588 20.861168 81.265373 85 61 69
-0.857234 21.052208 81.326637 84 61 69
-0.857894 21.243864 81.389252 83 61 70
-0.858571 21.436209 81.453453 83 60 70
-0.859266 21.629299 81.519424 82 60 70
-0.859982 21.823193 81.587334 82 60 70
-0.860719 22.017923 81.657265 81 59 70
-0.861478 22.213522 81.729286 80 59 69
-0.862260 22.410011 81.803413 78 59 67
-0.863063 22.607393 81.879623 77 59 65
-0.863888 22.805666 81.957855 75 58 64
-0.864732 23.004814 82.037994 74 58 62
-0.865596 23.204809 82.119919 72 57 60
-0.626159 -1.435324 74.676399 165 135 148
-0.625886 -1.273792 74.643875 168 139 153
-0.625628 -1.112425 74.613052 177 148 162
-0.625388 -0.951219 74.584412 178 150 163
-0.625170 -0.790165 74.558380 169 142 153
-0.624977 -0.629248 74.535393 170 142 153
-0.624812 -0.468451 74.515755 182 154 165
-0.624678 -0.307754 74.499748 183 156 166
-0.624576 -0.147134 74.487564 175 148 159
-0.624507 0.013435 74.479301 175 148 158
-0.624470 0.173977 74.474953 177 149 159
-0.624466 0.334518 74.474442 175 146 158
-0.624492 0.495080 74.477585 172 143 155
-0.624547 0.655686 74.484131 170 140 153
-0.624628 0.816355 74.493752 167 138 151
-0.624731 0.977099 74.506035 164 135 148
-0.624852 1.137931 74.520546 163 136 148
-0.624989 1.298855 74.536812 162 136 148
-0.625136 1.459875 74.554352 161 135 146
-0.625290 1.620987 74.572678 159 135 145
-0.625446 1.782186 74.591324 157 135 145
-0.625601 1.943463 74.609871 157 135 147
-0.625753 2.104807 74.627945 157 137 151
-0.625898 2.266205 74.645248 160 140 156
-0.626035 2.427644 74.661537 161 140 158
-0.626161 2.589113 74.676643 159 137 158
-0.626278 2.750601 74.690506 157 134 156
-0.626383 2.912100 74.703094 155 130 153
-0.626479 3.073604 74.714500 154 128 150
-0.626566 3.235111 74.724854 150 123 146
-0.626645 3.396625 74.734352 144 116 139
-0.626720 3.558150 74.743248 139 112 134
-0.626792 3.719698 74.751823 137 110 131
-0.626864 3.881283 74.760391 137 110 130
-0.626938 4.042923 74.769302 137 110 130
-0.627019 4.204639 74.778900 137 109 129
-0.627108 4.366458 74.789536 135 106 126
-0.627209 4.528408 74.801559 132 101 122
-0.627324 4.690517 74.815315 128 96 116
-0.627457 4.852820 74.831146 124 90 109
-0.627610 5.015352 74.849365 123 88 106
-0.627785 5.178147 74.870270 126 91 107
-0.627985 5.341245 74.894142 127 91 105
-0.628212 5.504683 74.921242 124 90 102
-0.628469 5.668499 74.951805 121 88 98
-0.628756 5.832734 74.986053 118 87 96
-0.629075 5.997424 75.024155 116 87 95
-0.629428 6.162609 75.066269 114 87 95
-0.629816 6.328324 75.112526 114 86 94
-0.630239 6.494601 75.162994 114 85 94
-0.630698 6.661474 75.217720 113 84 94
-0.631193 6.828967 75.276680 113 83 94
-0.631722 6.997105 75.339844 112 83 95
-0.632286 7.165903 75.407097 112 84 96
-0.632883 7.335374 75.478287 113 85 98
-0.633511 7.505523 75.553215 115 86 102
-0.634169 7.676349 75.631622 117 88 105
-0.634853 7.847842 75.713211 117 88 108
-0.635561 8.019987 75.797646 119 89 110
-0.636289 8.192762 75.884529 121 91 113
-0.637035 8.366138 75.973480 124 93 117
-0.637795 8.540080 76.064049 127 95 119
-0.638564 8.714548 76.155800 130 97 120
-0.639340 8.889499 76.248306 135 102 123
-0.640118 9.064888 76.341141 138 105 124
-0.640896 9.240669 76.433907 133 101 117
-0.641670 9.416796 76.526230 125 94 108
-0.642438 9.593225 76.617798 124 93 105
-0.643197 9.769918 76.708328 127 95 106
-0.643946 9.946841 76.797630 128 96 106
-0.644683 10.123967 76.885544 129 96 107
-0.645408 10.301275 76.971985 130 96 107
-0.646120 10.478754 77.056946 131 97 108
-0.646820 10.656400 77.140457 133 99 111
-0.647509 10.834214 77.222610 134 101 113
-0.648188 11.012211 77.303551 133 100 112
-0.648858 11.190405 77.383446 132 99 113
-0.649521 11.368818 77.462494 132 100 115
-0.650178 11.547477 77.540894 132 99 115
-0.650832 11.726408 77.618858 132 97 115
-0.651484 11.905641 77.696602 132 95 115
-0.652135 12.085202 77.774300 131 93 114
-0.652788 12.265117 77.852119 129 91 112
-0.653442 12.445409 77.930191 127 89 111
-0.654100 12.626095 78.008629 125 88 109
-0.654761 12.807192 78.087502 123 87 108
-0.655427 12.988708 78.166855 121 87 107
-0.656096 13.170650 78.246704 118 87 106
-0.656770 13.353019 78.327042 116 86 104
-0.657447 13.535811 78.407822 113 84 102
-0.658128 13.719025 78.489021 109 81 100
-0.658812 13.902651 78.570572 107 78 98
-0.659498 14.086679 78.652412 105 75 95
-0.660186 14.271100 78.734467 103 73 93
-0.660875 14.455905 78.816681 104 73 92
-0.661565 14.641079 78.898979 105 74 92
-0.662256 14.826612 78.981300 106 74 92
-0.662946 15.012493 79.063583 106 74 92
-0.663635 15.198713 79.145790 105 75 91
-0.664323 15.385258 79.227837 104 75 90
-0.665009 15.572120 79.309700 103 76 89
-0.665694 15.759282 79.391296 102 77 89
-0.666375 15.946734 79.472588 100 77 90
-0.667054 16.134460 79.553505 100 77 90
-0.667728 16.322441 79.633949 100 77 91
-0.668398 16.510656 79.713867 100 76 90
-0.669063 16.699081 79.793129 99 74 88
-0.669721 16.887690 79.871643 97 71 85
-0.670372 17.076452 79.949295 96 70 83
-0.671015 17.265331 80.025940 95 70 81
-0.671648 17.454294 80.101456 94 70 80
-0.672271 17.643309 80.175713 94 71 79
-0.672882 17.832335 80.248596 93 71 78
-0.673481 18.021343 80.319992 92 72 77
-0.674066 18.210304 80.389816 91 72 77
-0.674638 18.399193 80.458015 90 71 77
-0.675196 18.587997 80.524574 89 70 76
-0.675740 18.776705 80.589493 89 69 75
-0.676272 18.965328 80.652847 89 68 74
-0.676791 19.153877 80.714752 89 68 75
-0.677299 19.342382 80.775352 90 67 76
-0.677798 19.530880 80.834839 90 67 76
-0.678289 19.719427 80.893478 92 68 78
-0.678776 19.908081 80.951523 93 69 80
-0.679260 20.096914 81.009285 93 67 80
-0.679745 20.286009 81.067085 91 65 77
-0.680233 20.475443 81.125259 89 62 74
-0.680726 20.665306 81.184120 88 61 72
-0.681228 20.855682 81.244003 87 61 70
-0.681741 21.046658 81.305191 86 61 70
-0.682268 21.238310 81.367973 85 62 70
-0.682809 21.430712 81.432564 85 62 71
-0.683368 21.623924 81.499176 85 62 72
-0.683945 21.818008 81.567955 83 61 72
-0.684541 22.013002 81.639023 82 60 71
-0.685156 22.208941 81.712425 81 60 70
-0.685791 22.405836 81.788177 79 60 68
-0.686446 22.603703 81.866257 78 59 67
-0.687120 22.802534 81.946594 76 59 66
-0.687811 23.002310 82.029068 75 59 64
-0.688519 23.203005 82.113533 74 58 62
-0.465197 -1.435369 74.678772 167 136 149
-0.465013 -1.273882 74.649185 171 141 155
-0.464839 -1.112548 74.621323 177 148 163
-0.464679 -0.951363 74.595650 178 151 165
-0.464536 -0.790315 74.572601 173 145 159
-0.464411 -0.629393 74.552559 171 143 156
-0.464307 -0.468577 74.535858 178 151 163
-0.464225 -0.307849 74.522743 180 153 164
-0.464167 -0.147185 74.513397 175 148 159
-0.464132 0.013440 74.507896 175 149 159
-0.464122 0.174050 74.506241 178 151 162
-0.464135 0.334670 74.508324 176 148 159
-0.464170 0.495322 74.513947 171 144 155
-0.464226 0.656027 74.522835 169 141 153
-0.464299 0.816803 74.534645 167 138 150
-0.464388 0.977662 74.548943 163 136 148
-0.464490 1.138614 74.565277 164 138 149
-0.464601 1.299663 74.583160 164 139 150
-0.464719 1.460809 74.602081 163 138 148
-0.464840 1.622049 74.621544 161 138 148
-0.464962 1.783375 74.641075 161 139 149
-0.465081 1.944775 74.660240 161 139 152
-0.465196 2.106237 74.678658 161 141 155
-0.465304 2.267746 74.696022 163 142 158
-0.465404 2.429288 74.712090 160 140 157
-0.465495 2.590849 74.726700 158 136 156
-0.465577 2.752417 74.739792 157 134 155
-0.465649 2.913982 74.751373 157 132 153
-0.465712 3.075537 74.761513 156 130 150
-0.465768 3.237082 74.770378 152 126 145
-0.465816 3.398617 74.778183 144 117 137
-0.465860 3.560147 74.785202 138 111 129
-0.465901 3.721685 74.791756 136 109 128
-0.465941 3.883244 74.798164 137 111 129
-0.465982 4.044843 74.804810 137 110 129
-0.466027 4.206504 74.812065 134 106 125
-0.466079 4.368256 74.820320 132 102 122
-0.466139 4.530126 74.829933 130 98 119
-0.466209 4.692146 74.841293 127 94 115
-0.466293 4.854351 74.854752 124 90 109
-0.466392 5.016778 74.870651 124 88 106
-0.466508 5.179464 74.889297 124 89 105
-0.466644 5.342448 74.911011 124 89 104
-0.466800 5.505772 74.936058 123 88 101
-0.466978 5.669474 74.964691 121 88 99
-0.467180 5.833596 74.997131 119 88 98
-0.467407 5.998178 75.033569 118 88 98
-0.467660 6.163259 75.074188 117 89 99
-0.467940 6.328876 75.119080 116 90 100
-0.468247 6.495065 75.168358 116 90 100
-0.468581 6.661859 75.222061 117 91 101
-0.468943 6.829285 75.280182 116 90 99
-0.469333 6.997368 75.342682 115 88 98
-0.469748 7.166126 75.409447 116 89 99
-0.470190 7.335575 75.480354 118 91 101
-0.470656 7.505719 75.555183 121 94 106
-0.471145 7.676558 75.633698 125 97 111
-0.471656 7.848088 75.715584 127 99 116
-0.472185 8.020291 75.800522 127 98 117
-0.472730 8.193150 75.888123 126 95 116
-0.473290 8.366633 75.977974 126 95 117
-0.473861 8.540709 76.069656 128 97 118
-0.474441 8.715339 76.162712 131 99 119
-0.475026 8.890479 76.256714 137 105 123
-0.475615 9.066084 76.351212 142 111 127
-0.476204 9.242105 76.445793 138 107 122
-0.476792 9.418499 76.540070 130 100 114
-0.477375 9.595219 76.633720 128 97 110
-0.477952 9.772222 76.726418 127 97 109
-0.478523 9.949474 76.817955 129 98 110
-0.479084 10.126943 76.908134 132 101 112
-0.479637 10.304605 76.996864 134 101 113
-0.480180 10.482444 77.084076 133 100 113
-0.480714 10.660451 77.169785 133 100 113
-0.481239 10.838627 77.254059 134 102 115
-0.481756 11.016974 77.336990 135 103 116
-0.482265 11.195508 77.418739 135 103 116
-0.482768 11.374245 77.499458 133 101 116
-0.483265 11.553205 77.579353 131 99 115
-0.483759 11.732412 77.658600 129 96 114
-0.484250 11.911893 77.737404 129 94 113
-0.484739 12.091671 77.815933 128 92 112
-0.485228 12.271770 77.894348 127 90 110
-0.485716 12.452210 77.972786 126 89 109
-0.486206 12.633012 78.051361 124 87 108
-0.486697 12.814187 78.130157 123 87 107
-0.487189 12.995748 78.209221 120 86 106
-0.487684 13.177700 78.288589 118 85 104
-0.488180 13.360048 78.368279 115 84 102
-0.488678 13.542791 78.448257 112 82 100
-0.489178 13.725928 78.528519 108 80 99
-0.489679 13.909451 78.609001 106 77 97
-0.490182 14.093353 78.689674 104 75 95
-0.490685 14.277628 78.770477 102 73 92
-0.491189 14.462266 78.851364 103 73 92
-0.491693 14.647254 78.932259 105 74 92
-0.492197 14.832587 79.013130 106 75 92
-0.492700 15.018251 79.093910 106 76 92
-0.493202 15.204237 79.174553 105 76 92
-0.493704 15.390532 79.254997 104 76 92
-0.494203 15.577127 79.335197 103 77 92
-0.494701 15.764008 79.415100 102 77 92
-0.495196 15.951159 79.494644 101 77 93
-0.495689 16.138569 79.573753 101 77 94
-0.496179 16.326214 79.652359 100 77 94
-0.496665 16.514074 79.730370 100 75 94
-0.497146 16.702129 79.807686 100 74 91
-0.497623 16.890348 79.884216 98 72 88
-0.498094 17.078703 79.959839 96 71 85
-0.498559 17.267162 80.034431 95 70 82
-0.499016 17.455694 80.107880 95 70 80
-0.499466 17.644264 80.180061 94 71 79
-0.499907 17.832840 80.250862 93 71 78
-0.500339 18.021389 80.320198 92 71 77
-0.500761 18.209890 80.387993 91 71 76
-0.501174 18.398317 80.454193 90 70 75
-0.501576 18.586666 80.518806 90 69 75
-0.501969 18.774927 80.581863 90 68 74
-0.502353 18.963112 80.643433 90 67 74
-0.502728 19.151239 80.703636 90 67 75
-0.503095 19.339340 80.762650 90 67 75
-0.503457 19.527458 80.820679 90 67 76
-0.503814 19.715651 80.877983 92 68 78
-0.504168 19.903982 80.934853 95 70 82
-0.504521 20.092524 80.991585 95 69 82
-0.504876 20.281366 81.048538 93 66 78
-0.505234 20.470591 81.106026 90 63 75
-0.505598 20.660288 81.164413 89 62 73
-0.505969 20.850550 81.224007 88 62 71
-0.506350 21.041462 81.285126 87 62 70
-0.506742 21.233107 81.348038 86 62 70
-0.507146 21.425560 81.412994 86 63 72
-0.507565 21.618891 81.480194 86 63 73
-0.507999 21.813154 81.549812 84 61 72
-0.508448 22.008394 81.621933 82 61 72
-0.508913 22.204647 81.696625 80 60 71
-0.509395 22.401928 81.773911 79 60 70
-0.509892 22.600246 81.853745 78 59 68
-0.510405 22.799601 81.936050 77 59 67
-0.510932 22.999966 82.020714 76 59 66
-0.511473 23.201313 82.107544 75 59 64
-0.512026 23.403599 82.196373 74 58 62
-0.304370 -1.597166 74.716873 171 138 149
-0.304256 -1.435563 74.688828 170 138 152
-0.304147 -1.274102 74.662071 172 142 157
-0.304045 -1.112783 74.637062 175 146 162
-0.303952 -0.951600 74.614258 179 150 166
-0.303870 -0.790543 74.594070 178 150 164
-0.303799 -0.629598 74.576866 175 147 160
-0.303743 -0.468748 74.562981 178 151 162
-0.303701 -0.307973 74.552643 178 152 162
-0.303674 -0.147249 74.546028 174 148 158
-0.303662 0.013446 74.543198 174 148 158
-0.303666 0.174139 74.544121 176 149 159
-0.303685 0.334851 74.548691 172 146 155
-0.303717 0.495606 74.556686 168 141 152
-0.303763 0.656423 74.567818 166 139 150
-0.303819 0.817318 74.581711 164 137 149
-0.303885 0.978304 74.597931 162 136 147
-0.303959 1.139388 74.615990 163 138 149
-0.304038 1.300573 74.635384 164 140 150
-0.304120 1.461857 74.655594 162 138 148
-0.304204 1.623236 74.676109 160 136 147
-0.304287 1.784698 74.696426 160 137 148
-0.304367 1.946231 74.716118 159 137 150
-0.304443 2.107820 74.734787 160 138 152
-0.304513 2.269449 74.752121 159 138 154
-0.304578 2.431103 74.767883 155 134 151
-0.304635 2.592764 74.781929 153 131 149
-0.304685 2.754419 74.794174 155 132 151
-0.304727 2.916059 74.804649 157 132 151
-0.304763 3.077674 74.813446 156 129 147
-0.304793 3.239263 74.820740 151 125 141
-0.304818 3.400825 74.826782 143 116 133
-0.304838 3.562368 74.831848 134 107 123
-0.304856 3.723901 74.836281 133 106 122
-0.304873 3.885439 74.840454 137 110 127
-0.304891 4.047003 74.844757 138 109 127
-0.304911 4.208615 74.849602 133 104 123
-0.304934 4.370304 74.855392 130 100 119
-0.304963 4.532099 74.862534 129 97 117
-0.304999 4.694035 74.871422 127 93 115
-0.305044 4.856147 74.882446 125 90 111
-0.305099 5.018474 74.895958 124 88 108
-0.305166 5.181056 74.912315 124 87 105
-0.305245 5.343932 74.931816 123 87 103
-0.305339 5.507146 74.954773 122 87 101
-0.305448 5.670740 74.981438 121 88 100
-0.305572 5.834756 75.012047 121 90 101
-0.305714 5.999236 75.046806 120 91 102
-0.305873 6.164219 75.085892 120 93 103
-0.306050 6.329747 75.129425 119 94 105
-0.306246 6.495856 75.177505 120 95 106
-0.306461 6.662578 75.230186 122 97 108
-0.306694 6.829945 75.287453 121 96 106
-0.306946 6.997981 75.349281 119 93 102
-0.307216 7.166708 75.415573 120 93 101
-0.307504 7.336141 75.486176 122 95 104
-0.307808 7.506287 75.560905 125 97 108
-0.308128 7.677148 75.639503 130 101 114
-0.308463 7.848720 75.721687 135 105 121
-0.308811 8.020988 75.807106 135 105 122
-0.309171 8.193934 75.895393 130 100 119
-0.309540 8.367532 75.986130 128 97 116
-0.309918 8.541746 76.078888 128 97 116
-0.310302 8.716540 76.173210 131 100 117
-0.310691 8.891871 76.268654 136 106 120
-0.311083 9.067693 76.364761 141 110 125
-0.311475 9.243958 76.461105 139 109 123
-0.311867 9.420616 76.557281 133 103 117
-0.312257 9.597625 76.652931 128 98 112
-0.312643 9.774937 76.747734 127 97 110
-0.313024 9.952514 76.841423 130 99 113
-0.313401 10.130322 76.933800 135 103 117
-0.313771 10.308332 77.024719 137 104 118
-0.314135 10.486527 77.114105 136 102 117
-0.314493 10.664890 77.201920 135 101 116
-0.314844 10.843416 77.288193 135 102 116
-0.315190 11.022107 77.373016 137 104 118
-0.315530 11.200970 77.456505 136 103 117
-0.315865 11.380017 77.538795 132 101 115
-0.316196 11.559267 77.620064 129 98 113
-0.316524 11.738738 77.700470 126 95 112
-0.316849 11.918452 77.780205 125 93 111
-0.317172 12.098432 77.859436 125 92 110
-0.317493 12.278698 77.938324 126 92 110
-0.317813 12.459271 78.016998 127 91 111
-0.318133 12.640168 78.095581 127 90 110
-0.318454 12.821405 78.174164 124 88 108
-0.318774 13.002992 78.252815 120 86 105
-0.319095 13.184937 78.331589 118 84 102
-0.319416 13.367246 78.410500 115 83 101
-0.319738 13.549922 78.489563 112 82 100
-0.320061 13.732963 78.568764 109 80 98
-0.320384 13.916366 78.648087 107 78 97
-0.320708 14.100128 78.727501 105 76 96
-0.321031 14.284241 78.806969 104 75 94
-0.321355 14.468699 78.886444 104 75 93
-0.321679 14.653493 78.965881 105 76 92
-0.322002 14.838613 79.045235 105 77 92
-0.322325 15.024052 79.124458 105 77 92
-0.322647 15.209797 79.203506 105 76 92
-0.322968 15.395839 79.282326 104 76 92
-0.323288 15.582165 79.360863 103 77 93
-0.323606 15.768761 79.439049 102 77 94
-0.323923 15.955614 79.516846 101 77 95
-0.324238 16.142708 79.594162 101 77 95
-0.324551 16.330021 79.670937 101 76 96
-0.324861 16.517536 79.747078 100 74 95
-0.325168 16.705225 79.822487 100 73 93
-0.325472 16.893064 79.897072 99 72 90
-0.325772 17.081026 79.970711 98 71 86
-0.326068 17.269077 80.043304 97 70 83
-0.326359 17.457190 80.114738 96 70 81
-0.326645 17.645329 80.184891 96 71 79
-0.326925 17.833464 80.253677 95 71 78
-0.327199 18.021570 80.321007 94 71 77
-0.327467 18.209625 80.386826 92 70 76
-0.327729 18.397610 80.451096 91 69 75
-0.327985 18.585516 80.513824 91 68 74
-0.328234 18.773344 80.575058 90 67 74
-0.328478 18.961107 80.634903 90 66 74
-0.328716 19.148827 80.693466 91 66 74
-0.328950 19.336538 80.750946 90 65 75
-0.329181 19.524290 80.807564 90 64 76
-0.329409 19.712139 80.863579 93 67 79
-0.329636 19.900158 80.919304 98 72 85
-0.329863 20.088421 80.975044 98 72 85
-0.330092 20.277020 81.031166 94 67 80
-0.330324 20.466040 81.087997 91 64 76
-0.330559 20.655577 81.145905 89 63 74
-0.330801 20.845724 81.205208 88 63 72
-0.331050 21.036573 81.266243 87 63 71
-0.331306 21.228210 81.329277 86 62 71
-0.331572 21.420712 81.394569 85 62 72
-0.331848 21.614145 81.462311 85 62 72
-0.332135 21.808575 81.532692 83 61 72
-0.332433 22.004044 81.605789 81 61 72
-0.332742 22.200586 81.681686 80 60 72
-0.333063 22.398226 81.760391 79 60 71
-0.333394 22.596966 81.841858 78 59 70
-0.333737 22.796801 81.925995 77 59 69
-0.334090 22.997713 82.012680 77 59 68
-0.334453 23.199665 82.101715 76 59 66
-0.334825 23.402613 82.192902 75 59 64
-0.143333 -1.597475 74.731300 174 141 153
-0.143284 -1.435892 74.705948 172 141 155
-0.143238 -1.274441 74.681915 174 143 159
-0.143196 -1.113120 74.659660 177 147 163
-0.143157 -0.951923 74.639610 184 154 169
-0.143124 -0.790841 74.622177 182 154 167
-0.143096 -0.629858 74.607735 177 150 162
-0.143075 -0.468959 74.596565 178 151 162
-0.143060 -0.308123 74.588928 176 150 159
-0.143052 -0.147326 74.584946 172 146 154
-0.143052 0.013454 74.584679 171 145 153
-0.143058 0.174241 74.588104 170 144 153
-0.143072 0.335059 74.595070 166 140 149
-0.143092 0.495930 74.605354 163 137 146
-0.143117 0.656871 74.618637 162 136 146
-0.143148 0.817897 74.634537 161 136 146
-0.143182 0.979021 74.652596 160 135 145
-0.143220 1.140248 74.672302 161 137 147
-0.143260 1.301579 74.693138 161 138 147
-0.143301 1.463012 74.714561 159 135 144
-0.143342 1.624539 74.736046 157 133 143
-0.143383 1.786147 74.757095 155 131 143
-0.143421 1.947823 74.777245 154 131 144
-0.143457 2.109550 74.796104 154 131 146
-0.143490 2.271308 74.813354 153 131 147
-0.143520 2.433082 74.828758 149 127 145
-0.143546 2.594852 74.842163 149 125 144
-0.143568 2.756604 74.853508 153 129 148
-0.143585 2.918327 74.862831 154 128 146
-0.143600 3.080010 74.870232 149 122 140
-0.143610 3.241651 74.875908 146 119 135
-0.143619 3.403250 74.880119 142 115 130
-0.143624 3.564811 74.883171 134 106 121
-0.143629 3.726347 74.885452 133 105 120
-0.143632 3.887873 74.887329 138 109 125
-0.143636 4.049407 74.889236 138 108 126
-0.143641 4.210977 74.891609 134 103 122
-0.143647 4.372610 74.894890 132 99 119
-0.143656 4.534337 74.899490 129 96 117
-0.143668 4.696195 74.905869 127 92 114
-0.143684 4.858220 74.914406 125 89 111
-0.143706 5.020454 74.925507 123 87 108
-0.143732 5.182937 74.939522 123 85 106
-0.143766 5.345713 74.956787 123 86 104
-0.143806 5.508825 74.977615 123 87 102
-0.143853 5.672317 75.002289 122 89 102
-0.143908 5.836234 75.031052 123 91 104
-0.143971 6.000618 75.064110 123 94 106
-0.144043 6.165514 75.101646 123 96 108
-0.144124 6.330959 75.143806 123 97 110
-0.144214 6.496994 75.190681 124 99 112
-0.144313 6.663653 75.242317 127 102 115
-0.144421 6.830968 75.298737 128 103 114
-0.144539 6.998965 75.359879 125 99 110
-0.144665 7.167668 75.425674 123 95 106
-0.144800 7.337092 75.495964 123 95 105
-0.144943 7.507247 75.570572 124 95 107
-0.145094 7.678136 75.649239 127 97 111
-0.145252 7.849755 75.731674 134 104 120
-0.145416 8.022093 75.817543 138 107 124
-0.145587 8.195130 75.906471 134 104 121
-0.145763 8.368843 75.998039 130 100 117
-0.145943 8.543198 76.091812 129 99 114
-0.146126 8.718157 76.187340 131 101 115
-0.146311 8.893678 76.284149 134 105 118
-0.146499 9.069715 76.381783 137 107 121
-0.146687 9.246218 76.479797 135 105 120
-0.146875 9.423140 76.577782 132 102 117
-0.147062 9.600430 76.675339 129 99 113
-0.147247 9.778045 76.772133 129 99 114
-0.147431 9.955938 76.867867 132 101 117
-0.147612 10.134076 76.962318 135 103 119
-0.147791 10.312427 77.055305 138 104 120
-0.147966 10.490964 77.146729 138 104 120
-0.148138 10.669669 77.236519 138 104 119
-0.148307 10.848534 77.324669 137 103 117
-0.148473 11.027554 77.411255 135 102 116
-0.148636 11.206730 77.496338 132 100 113
-0.148797 11.386073 77.580055 129 98 111
-0.148955 11.565595 77.662552 126 96 110
-0.149111 11.745311 77.743973 124 94 109
-0.149266 11.925240 77.824501 124 93 109
-0.149419 12.105401 77.904289 125 92 110
-0.149571 12.285815 77.983498 127 94 112
-0.149722 12.466500 78.062263 132 97 116
-0.149872 12.647474 78.140717 133 97 116
-0.150022 12.828751 78.218956 129 93 111
-0.150172 13.010345 78.297066 123 87 106
-0.150322 13.192262 78.375107 119 85 102
-0.150471 13.374514 78.453133 116 83 101
-0.150621 13.557103 78.531166 113 82 99
-0.150771 13.740031 78.609207 111 81 98
-0.150921 13.923300 78.687271 108 79 97
-0.151070 14.106905 78.765343 107 78 97
-0.151220 14.290843 78.843391 106 77 95
-0.151370 14.475110 78.921394 106 77 93
-0.151519 14.659697 78.999313 105 77 92
-0.151668 14.844598 79.077110 105 77 92
-0.151817 15.029803 79.154755 105 77 91
-0.151966 15.215304 79.232185 104 76 91
-0.152114 15.401088 79.309357 103 76 92
-0.152261 15.587144 79.386223 103 76 93
-0.152408 15.773458 79.462715 102 76 93
-0.152554 15.960016 79.538780 101 75 94
-0.152699 16.146799 79.614334 101 75 95
-0.152842 16.333786 79.689308 101 74 95
-0.152985 16.520962 79.763618 100 73 94
-0.153126 16.708298 79.837166 100 72 92
-0.153265 16.895769 79.909851 99 71 90
-0.153403 17.083347 79.981583 99 70 86
-0.153539 17.271004 80.052231 99 70 83
-0.153672 17.458708 80.121712 99 70 81
-0.153803 17.646431 80.189911 98 71 79
-0.153931 17.834145 80.256737 97 71 78
-0.154056 18.021824 80.322136 96 71 77
-0.154179 18.209448 80.386040 95 71 76
-0.154298 18.397003 80.448448 94 70 75
-0.154415 18.584484 80.509361 93 69 75
-0.154529 18.771896 80.568848 92 67 74
-0.154641 18.959253 80.627014 92 66 74
-0.154750 19.146582 80.684006 92 65 75
-0.154858 19.333920 80.740005 91 64 75
-0.154964 19.521317 80.795258 91 63 76
-0.155069 19.708838 80.850037 94 66 80
-0.155173 19.896555 80.904655 99 71 86
-0.155279 20.084551 80.959442 99 72 87
-0.155385 20.272913 81.014755 96 69 83
-0.155492 20.461737 81.070953 93 66 79
-0.155603 20.651117 81.128380 90 64 77
-0.155716 20.841154 81.187408 88 64 75
-0.155833 21.031939 81.248337 87 63 73
-0.155954 21.223560 81.311462 86 62 72
-0.156080 21.416100 81.377045 84 62 71
-0.156210 21.609625 81.445282 83 61 71
-0.156347 21.804203 81.516350 81 61 71
-0.156489 21.999880 81.590355 80 60 71
-0.156636 22.196690 81.667351 79 60 71
-0.156790 22.394653 81.747353 78 60 71
-0.156949 22.593779 81.830315 78 59 71
-0.157113 22.794058 81.916138 77 58 70
-0.157283 22.995468 82.004669 77 58 68
-0.157458 23.197977 82.095741 76 59 67
-0.157637 23.401525 82.189087 76 60 65
-0.157820 23.606054 82.284447 75 59 63
0.017773 -1.759616 74.775749 178 142 153
0.017767 -1.597919 74.752068 177 143 155
0.017762 -1.436341 74.729309 174 142 156
0.017757 -1.274885 74.707924 175 144 160
0.017752 -1.113547 74.688324 183 152 168
0.017748 -0.952323 74.670952 189 159 174
0.017745 -0.791201 74.656204 184 155 168
0.017742 -0.630168 74.644424 177 149 159
0.017740 -0.469206 74.635910 176 148 157
0.017739 -0.308296 74.630882 173 146 154
0.017738 -0.147414 74.629471 169 143 151
0.017739 0.013462 74.631714 168 142 149
0.017740 0.174357 74.637566 166 140 148
0.017742 0.335292 74.646873 163 137 145
0.017745 0.496289 74.659386 161 135 143
0.017749 0.657365 74.674767 160 135 143
0.017753 0.818534 74.692612 159 134 143
0.017758 0.979806 74.712448 157 133 143
0.017763 1.141186 74.733757 157 134 142
0.017768 1.302675 74.755989 156 133 141
0.017774 1.464266 74.778580 154 130 138
0.017779 1.625950 74.801003 151 127 135
0.017784 1.787716 74.822739 149 124 134
0.017789 1.949544 74.843315 146 122 134
0.017794 2.111418 74.862335 145 121 135
0.017798 2.273316 74.879471 144 120 137
0.017801 2.435219 74.894485 143 119 138
0.017804 2.597108 74.907242 148 122 142
0.017807 2.758967 74.917664 154 128 148
0.017809 2.920781 74.925804 149 122 141
0.017810 3.082542 74.931786 139 112 129
0.017811 3.244245 74.935814 140 112 128
0.017812 3.405888 74.938179 142 114 128
0.017812 3.567479 74.939201 137 108 122
0.017812 3.729027 74.939293 137 107 122
0.017812 3.890548 74.938850 141 110 125
0.017812 4.052063 74.938339 140 107 125
0.017812 4.213598 74.938217 136 103 122
0.017812 4.375183 74.938957 133 100 120
0.017812 4.536850 74.941010 130 96 118
0.017813 4.698637 74.944839 127 92 115
0.017815 4.860585 74.950882 124 89 111
0.017817 5.022734 74.959534 122 85 108
0.017819 5.185126 74.971176 121 84 106
0.017823 5.347809 74.986176 123 86 106
0.017827 5.510827 75.004860 125 89 106
0.017833 5.674225 75.027519 124 91 105
0.017839 5.838051 75.054405 124 92 106
0.017847 6.002348 75.085754 124 95 108
0.017855 6.167161 75.121727 125 97 111
0.017865 6.332533 75.162491 126 100 114
0.017876 6.498502 75.208138 128 102 118
0.017888 6.665105 75.258720 130 104 120
0.017901 6.832375 75.314247 131 105 119
0.017915 7.000341 75.374695 128 101 115
0.017931 7.169025 75.439957 125 97 110
0.017947 7.338447 75.509903 123 95 107
0.017965 7.508615 75.584343 122 92 105
0.017984 7.679536 75.663033 125 94 108
0.018003 7.851206 75.745667 132 100 116
0.018024 8.023615 75.831932 137 106 122
0.018045 8.196746 75.921425 136 104 120
0.018067 8.370573 76.013748 133 101 116
0.018090 8.545065 76.108452 131 99 113
0.018113 8.720186 76.205078 131 100 113
0.018136 8.895893 76.303154 134 103 117
0.018160 9.072139 76.402206 135 105 118
0.018183 9.248874 76.501778 133 103 118
0.018207 9.426048 76.601425 131 101 117
0.018230 9.603612 76.700752 129 100 117
0.018254 9.781516 76.799393 130 101 118
0.018277 9.959716 76.897034 133 102 120
0.018300 10.138169 76.993401 135 102 120
0.018323 10.316841 77.088295 137 104 121
0.018345 10.495705 77.181595 140 106 123
0.018367 10.674736 77.273186 142 108 123
0.018388 10.853919 77.363060 140 106 120
0.018409 11.033247 77.451218 135 103 115
0.018429 11.212717 77.537735 130 99 110
0.018450 11.392334 77.622719 126 96 107
0.018469 11.572105 77.706268 123 94 106
0.018489 11.752044 77.788544 121 92 106
0.018508 11.932165 77.869698 121 91 106
0.018527 12.112488 77.949898 123 91 107
0.018546 12.293026 78.029274 126 93 110
0.018565 12.473802 78.107979 133 99 116
0.018584 12.654829 78.186157 138 102 119
0.018602 12.836126 78.263924 134 98 115
0.018620 13.017704 78.341362 127 91 107
0.018639 13.199575 78.418556 121 87 102
0.018657 13.381751 78.495583 118 85 100
0.018675 13.564237 78.572487 114 83 98
0.018694 13.747037 78.649284 112 81 97
0.018712 13.930155 78.726013 110 79 96
0.018730 14.113589 78.802666 108 78 96
0.018748 14.297339 78.879234 107 77 95
0.018766 14.481404 78.955711 106 77 94
0.018785 14.665777 79.032082 105 77 93
0.018803 14.850452 79.108299 105 77 92
0.018821 15.035419 79.184326 104 77 91
0.018839 15.220673 79.260139 104 76 91
0.018857 15.406199 79.335670 103 75 91
0.018875 15.591986 79.410873 103 75 92
0.018892 15.778019 79.485695 102 74 92
0.018910 15.964284 79.560051 101 74 93
0.018928 16.150764 79.633888 100 73 93
0.018945 16.337437 79.707108 100 72 92
0.018962 16.524281 79.779640 100 71 91
0.018979 16.711273 79.851379 100 71 90
0.018996 16.898388 79.922241 100 70 88
0.019013 17.085596 79.992111 100 70 86
0.019029 17.272873 80.060898 100 70 84
0.019045 17.460186 80.128494 100 70 82
0.019061 17.647511 80.194809 100 71 80
0.019076 17.834816 80.259766 99 71 79
0.019092 18.022085 80.323303 99 71 78
0.019106 18.209299 80.385384 98 71 78
0.019121 18.396444 80.445999 97 70 77
0.019135 18.583517 80.505173 96 69 76
0.019148 18.770529 80.562981 95 67 76
0.019162 18.957499 80.619553 94 66 76
0.019175 19.144451 80.675026 94 66 76
0.019188 19.331429 80.729607 93 65 77
0.019201 19.518488 80.783554 93 64 78
0.019214 19.705694 80.837135 94 66 81
0.019226 19.893122 80.890694 97 70 85
0.019239 20.080856 80.944550 99 71 87
0.019252 20.268991 80.999084 96 69 85
0.019265 20.457623 81.054649 93 67 81
0.019279 20.646851 81.111618 90 65 79
0.019293 20.836777 81.170349 88 64 76
0.019307 21.027493 81.231155 87 63 74
0.019322 21.219093 81.294350 85 62 72
0.019338 21.411657 81.360161 83 62 70
0.019354 21.605263 81.428833 81 61 69
0.019371 21.799971 81.500526 79 60 68
0.019389 21.995831 81.575333 77 60 69
0.019408 22.192879 81.653336 78 59 69
0.019427 22.391134 81.734512 77 59 69
0.019447 22.590607 81.818825 78 59 69
0.019468 22.791285 81.906174 77 58 69
0.019489 22.993147 81.996391 77 58 67
0.019511 23.196150 82.089279 76 59 66
0.019534 23.400244 82.184586 76 60 65
0.019557 23.605356 82.282013 75 60 63
0.179021 -1.760172 74.799377 181 144 156
0.178970 -1.598476 74.778160 180 146 157
0.178922 -1.436891 74.757942 177 144 157
0.178877 -1.275417 74.739113 178 146 161
0.178836 -1.114051 74.722122 187 155 170
0.178801 -0.952787 74.707367 190 159 172
0.178772 -0.791615 74.695236 182 152 163
0.178750 -0.630520 74.686073 174 145 155
0.178736 -0.469485 74.680168 172 143 151
0.178730 -0.308489 74.677696 170 142 149
0.178732 -0.147511 74.678810 168 142 148
0.178744 0.013472 74.683533 168 142 148
0.178763 0.174484 74.691772 166 139 146
0.178791 0.335546 74.703384 164 138 145
0.178826 0.496679 74.718094 163 137 145
0.178868 0.657900 74.735550 161 136 143
0.178915 0.819221 74.755325 158 133 141
0.178967 0.980652 74.776932 156 131 139
0.179022 1.142195 74.799820 153 129 137
0.179078 1.303850 74.823433 151 126 133
0.179135 1.465609 74.847191 149 124 130
0.179191 1.627462 74.870544 145 120 127
0.179245 1.789393 74.892967 142 117 125
0.179295 1.951385 74.913971 140 115 126
0.179341 2.113415 74.933159 138 113 126
0.179382 2.275463 74.950195 136 111 127
0.179417 2.437506 74.964836 137 112 130
0.179446 2.599525 74.976936 145 118 138
0.179469 2.761500 74.986458 151 124 144
0.179485 2.923418 74.993439 143 114 134
0.179496 3.085267 74.998016 132 103 120
0.179502 3.247041 75.000412 136 107 123
0.179503 3.408741 75.000938 142 113 127
0.179501 3.570370 74.999954 139 109 123
0.179496 3.731941 74.997856 140 108 122
0.179489 3.893468 74.995110 143 110 126
0.179482 4.054974 74.992180 142 107 125
0.179476 4.216485 74.989571 139 104 124
0.179472 4.378032 74.987770 136 101 122
0.179470 4.539650 74.987267 131 97 119
0.179474 4.701378 74.988548 127 92 116
0.179482 4.863256 74.992065 123 88 113
0.179497 5.025329 74.998260 120 84 109
0.179519 5.187641 75.007530 120 84 108
0.179549 5.350239 75.020256 125 88 111
0.179589 5.513172 75.036781 129 94 114
0.179638 5.676485 75.057404 128 94 112
0.179698 5.840228 75.082397 126 93 109
0.179769 6.004447 75.111992 125 95 110
0.179851 6.169186 75.146385 126 98 112
0.179945 6.334490 75.185722 128 101 117
0.180052 6.500400 75.230103 129 103 120
0.180170 6.666954 75.279594 129 103 121
0.180301 6.834186 75.334206 128 102 119
0.180444 7.002124 75.393890 127 99 116
0.180599 7.170795 75.458580 125 96 113
0.180765 7.340217 75.528122 124 94 110
0.180943 7.510402 75.602333 123 91 108
0.181131 7.681356 75.680962 126 94 110
0.181329 7.853077 75.763725 132 98 115
0.181536 8.025557 75.850281 134 101 118
0.181751 8.198778 75.940254 134 100 116
0.181974 8.372717 76.033218 133 99 113
0.182202 8.547343 76.128738 131 98 111
0.182436 8.722620 76.226341 131 99 110
0.182673 8.898503 76.325539 133 102 113
0.182914 9.074947 76.425858 134 103 116
0.183155 9.251903 76.526825 132 102 117
0.183397 9.429317 76.627991 131 100 119
0.183639 9.607138 76.728912 130 101 120
0.183879 9.785316 76.829224 132 101 121
0.184117 9.963801 76.928574 133 103 123
0.184352 10.142550 77.026672 134 103 122
0.184583 10.321525 77.123291 136 103 121
0.184810 10.500691 77.218262 139 107 123
0.185033 10.680024 77.311470 144 111 124
0.185252 10.859502 77.402855 142 110 121
0.185466 11.039114 77.492409 136 104 115
0.185676 11.218852 77.580162 129 99 109
0.185882 11.398716 77.666199 124 95 105
0.186084 11.578712 77.750633 121 93 103
0.186283 11.758848 77.833588 120 91 103
0.186478 11.939137 77.915199 119 90 103
0.186671 12.119593 77.995621 120 89 103
0.186861 12.300233 78.075012 122 90 105
0.187048 12.481074 78.153526 129 96 111
0.187235 12.662133 78.231293 136 102 117
0.187419 12.843428 78.308441 135 100 115
0.187603 13.024971 78.385086 128 93 107
0.187785 13.206777 78.461334 122 87 101
0.187967 13.388858 78.537270 118 85 99
0.188148 13.571222 78.612946 115 83 97
0.188329 13.753879 78.688431 113 81 96
0.188509 13.936832 78.763748 111 80 95
0.188689 14.120086 78.838936 109 78 94
0.188869 14.303639 78.913986 107 77 93
0.189048 14.487494 78.988914 106 76 92
0.189227 14.671645 79.063698 106 76 92
0.189405 14.856089 79.138329 105 76 91
0.189584 15.040817 79.212753 105 75 90
0.189761 15.225821 79.286949 104 75 90
0.189938 15.411090 79.360863 104 74 90
0.190114 15.596609 79.434425 104 74 90
0.190289 15.782369 79.507599 103 73 90
0.190463 15.968348 79.580299 101 72 90
0.190636 16.154531 79.652458 100 71 90
0.190807 16.340897 79.723999 100 71 89
0.190977 16.527422 79.794807 100 71 89
0.191144 16.714083 79.864815 100 71 87
0.191310 16.900856 79.933914 101 70 86
0.191473 17.087711 80.002014 101 70 85
0.191633 17.274622 80.069008 101 70 84
0.191790 17.461563 80.134811 101 70 82
0.191945 17.648504 80.199333 101 70 80
0.192096 17.835423 80.262489 101 70 80
0.192244 18.022299 80.324257 101 70 79
0.192388 18.209118 80.384583 100 70 78
0.192529 18.395872 80.443497 99 70 78
0.192667 18.582558 80.501015 98 69 77
0.192801 18.769188 80.557228 96 67 77
0.192933 18.955784 80.612267 95 67 77
0.193062 19.142376 80.666283 95 67 78
0.193190 19.329012 80.719513 95 67 79
0.193316 19.515747 80.772202 94 66 80
0.193441 19.702648 80.824646 94 67 82
0.193567 19.889797 80.877174 96 70 85
0.193694 20.077280 80.930138 97 71 87
0.193823 20.265194 80.983910 96 70 85
0.193954 20.453638 81.038864 93 68 83
0.194089 20.642714 81.095367 90 66 80
0.194229 20.832525 81.153786 88 65 78
0.194374 21.023167 81.214447 86 64 75
0.194526 21.214735 81.277649 85 63 72
0.194684 21.407316 81.343666 83 62 70
0.194849 21.600981 81.412697 80 60 68
0.195022 21.795797 81.484917 77 59 67
0.195202 21.991817 81.560448 77 59 67
0.195391 22.189072 81.639320 77 58 67
0.195588 22.387583 81.721542 78 58 67
0.195793 22.587358 81.807060 78 58 67
0.196005 22.788391 81.895767 78 59 67
0.196224 22.990646 81.987480 77 59 67
0.196451 23.194092 82.081993 77 59 65
0.196683 23.398663 82.179031 76 59 64
0.196920 23.604290 82.278297 74 59 62
0.197162 23.810883 82.379417 71 57 59
