ply
format ascii 1.0
element vertex 1170
property float x
property float y
property float z
property uchar red
property uchar green
property uchar blue
end_header
24.597872 4.297996 86.373421 38 25 25
24.580437 4.481009 86.312202 39 24 26
24.562227 4.663612 86.248260 42 24 26
24.543402 4.845818 86.182152 46 25 28
24.524122 5.027645 86.114456 51 27 30
24.504564 5.209121 86.045784 57 29 33
24.484892 5.390276 85.976700 63 31 35
24.465265 5.571143 85.907784 68 33 39
24.445829 5.751759 85.839539 76 38 46
24.426712 5.932157 85.772408 86 46 56
24.408014 6.112371 85.706749 96 54 67
24.389814 6.292430 85.642845 105 63 78
24.372160 6.472359 85.580849 113 73 89
24.355066 6.652174 85.520828 120 81 98
24.338524 6.831884 85.462738 125 88 103
24.322495 7.011492 85.406456 129 93 107
24.306913 7.190990 85.351746 130 97 109
24.291695 7.370362 85.298302 129 98 108
24.276730 7.549583 85.245758 131 101 110
24.261911 7.728623 85.193718 142 112 121
24.247112 7.907447 85.141762 159 129 138
24.232212 8.086012 85.089439 168 138 148
24.217094 8.264277 85.036346 165 135 145
24.201645 8.442197 84.982101 156 126 136
24.185770 8.619732 84.926361 151 121 131
24.169388 8.796843 84.868835 155 123 135
24.152443 8.973495 84.809334 162 130 142
24.134882 9.149658 84.747673 165 132 145
24.116690 9.325311 84.683784 163 130 144
24.097857 9.500436 84.617661 161 127 141
24.078400 9.675025 84.549339 157 126 137
24.058350 9.849076 84.478928 155 127 136
24.037746 10.022594 84.406586 157 133 139
24.016653 10.195592 84.332520 158 137 141
23.995136 10.368087 84.256966 156 138 140
23.973270 10.540103 84.180183 157 141 143
23.951141 10.711670 84.102478 163 148 150
23.928837 10.882823 84.024162 171 156 159
23.906450 11.053599 83.945549 182 166 169
23.884081 11.224046 83.867004 190 173 176
23.861824 11.394207 83.788849 189 171 174
23.839781 11.564135 83.711449 185 165 167
23.818048 11.733882 83.635132 181 160 162
23.796719 11.903502 83.560234 178 155 155
23.775888 12.073052 83.487099 173 148 148
23.755650 12.242592 83.416023 168 141 142
23.736076 12.412174 83.347298 165 135 139
23.717245 12.581852 83.281174 163 131 138
23.699221 12.751680 83.217880 161 129 137
23.682055 12.921704 83.157608 158 126 136
23.665787 13.091964 83.100479 157 124 135
23.650440 13.262494 83.046593 155 123 135
23.636021 13.433320 82.995964 154 122 134
23.622524 13.604459 82.948570 154 122 133
23.609922 13.775915 82.904320 153 122 132
23.598173 13.947684 82.863060 153 122 131
23.587212 14.119747 82.824570 153 122 130
23.576962 14.292075 82.788574 153 122 130
23.567326 14.464626 82.754745 154 122 129
23.558199 14.637346 82.722694 155 123 130
23.549452 14.810167 82.691978 157 123 131
23.540956 14.983016 82.662148 159 123 131
23.532574 15.155809 82.632713 161 123 133
23.524164 15.328458 82.603180 163 123 133
23.515583 15.500867 82.573059 159 119 128
23.506706 15.672947 82.541878 153 113 122
23.497404 15.844606 82.509216 147 108 118
23.487568 16.015762 82.474686 143 105 116
23.477116 16.186344 82.437981 141 105 117
23.465981 16.356291 82.398880 138 105 117
23.454121 16.525558 82.357231 134 103 115
23.441526 16.694122 82.313004 128 101 112
23.428217 16.861984 82.266273 126 101 110
23.414238 17.029156 82.217186 127 104 112
23.399666 17.195679 82.166016 131 110 118
23.384602 17.361618 82.113121 135 115 123
23.369167 17.527050 82.058929 136 117 126
23.353506 17.692076 82.003929 136 118 128
23.337770 17.856810 81.948677 134 117 128
23.322121 18.021370 81.893723 132 115 127
23.306721 18.185890 81.839653 130 114 126
23.291731 18.350498 81.787010 129 112 126
23.277294 18.515320 81.736320 127 109 124
23.263550 18.680479 81.688057 125 107 121
23.250612 18.846085 81.642632 123 103 117
23.238575 19.012230 81.600365 121 99 112
23.227509 19.178995 81.561501 118 95 108
23.217453 19.346436 81.526192 114 92 103
23.208429 19.514591 81.494507 112 89 101
23.200432 19.683481 81.466431 108 87 97
23.193432 19.853104 81.441849 105 85 94
23.187380 20.023439 81.420593 103 83 91
23.182213 20.194452 81.402451 100 82 89
23.177858 20.366102 81.387161 97 81 88
23.174229 20.538328 81.374413 96 80 87
23.171238 20.711071 81.363914 94 78 87
23.168806 20.884274 81.355377 92 77 87
23.166851 21.057871 81.348511 91 76 86
23.165302 21.231810 81.343071 89 74 85
23.164095 21.406044 81.338829 87 72 83
23.163183 21.580532 81.335632 86 71 82
23.162523 21.755245 81.333313 87 72 83
23.162085 21.930157 81.331772 87 74 83
23.161848 22.105255 81.330948 88 76 84
24.810856 3.557069 86.466797 37 27 28
24.797867 3.741503 86.421532 39 28 29
24.783665 3.925549 86.372032 40 28 29
24.768326 4.109193 86.318573 39 28 28
24.751947 4.292427 86.261497 39 26 27
24.734653 4.475248 86.201225 40 26 27
24.716583 4.657664 86.138245 41 25 27
24.697893 4.839686 86.073112 44 25 27
24.678747 5.021336 86.006393 48 25 28
24.659317 5.202637 85.938675 52 27 29
24.639767 5.383620 85.870544 58 28 31
24.620258 5.564319 85.802559 63 29 34
24.600935 5.744768 85.735214 69 32 39
24.581928 5.925003 85.668968 78 39 48
24.563339 6.105056 85.604187 87 46 58
24.545252 6.284959 85.541153 96 53 68
24.527719 6.464736 85.480049 105 63 79
24.510761 6.644405 85.420952 114 72 89
24.494375 6.823978 85.363846 121 81 98
24.478525 7.003459 85.308609 127 89 103
24.463152 7.182842 85.255028 128 94 106
24.448177 7.362114 85.202843 126 93 104
24.433498 7.541252 85.151688 123 91 100
24.419006 7.720229 85.101189 132 101 109
24.404583 7.899009 85.050911 152 122 129
24.390104 8.077556 85.000458 168 138 146
24.375454 8.255826 84.949402 170 139 148
24.360521 8.433779 84.897362 162 131 140
24.345207 8.611372 84.843994 152 121 131
24.329428 8.788567 84.788994 151 119 130
24.313116 8.965328 84.732147 157 124 136
24.296223 9.141626 84.673279 163 129 142
24.278717 9.317435 84.612274 164 130 143
24.260586 9.492736 84.549080 162 129 142
24.241838 9.667519 84.483742 159 127 138
24.222490 9.841776 84.416313 155 126 134
24.202579 10.015510 84.346924 154 129 134
24.182156 10.188728 84.275749 157 136 138
24.161276 10.361444 84.202980 161 143 144
24.140011 10.533678 84.128868 164 147 148
24.118437 10.705456 84.053680 167 151 152
24.096632 10.876805 83.977699 171 156 157
24.074694 11.047765 83.901237 180 164 166
24.052706 11.218372 83.824608 186 169 172
24.030769 11.388674 83.748161 185 167 169
24.008982 11.558717 83.672226 180 162 163
23.987438 11.728553 83.597153 178 157 158
23.966236 11.898234 83.523262 176 154 153
23.945477 12.067821 83.450912 173 149 148
23.925247 12.237366 83.380417 170 144 144
23.905636 12.406927 83.312065 166 138 141
23.886721 12.576561 83.246147 163 133 138
23.868570 12.746319 83.182892 159 128 136
23.851242 12.916248 83.122498 155 123 134
23.834780 13.086395 83.065132 151 120 132
23.819214 13.256792 83.010887 150 118 131
23.804562 13.427470 82.959816 151 119 132
23.790815 13.598446 82.911911 152 119 132
23.777954 13.769729 82.867088 152 119 131
23.765940 13.941315 82.825218 152 120 130
23.754713 14.113188 82.786095 152 121 129
23.744204 14.285323 82.749466 153 121 128
23.734312 14.457679 82.714996 153 122 127
23.724939 14.630204 82.682327 154 122 127
23.715961 14.802835 82.651047 156 122 128
23.707253 14.975502 82.620689 157 122 128
23.698673 15.148121 82.590790 157 121 127
23.690088 15.320607 82.560875 157 120 126
23.681358 15.492869 82.530449 155 117 123
23.672354 15.664819 82.499069 152 114 120
23.662951 15.836366 82.466301 149 111 118
23.653040 16.007427 82.431763 146 109 117
23.642540 16.177937 82.395164 142 106 115
23.631376 16.347832 82.356262 138 105 114
23.619513 16.517067 82.314911 134 104 112
23.606934 16.685619 82.271080 130 102 109
23.593658 16.853485 82.224815 126 100 107
23.579727 17.020679 82.176262 124 100 107
23.565212 17.187237 82.125679 126 104 110
23.550213 17.353220 82.073402 131 109 116
23.534845 17.518703 82.019844 133 113 121
23.519249 17.683783 81.965492 133 114 124
23.503571 17.848566 81.910851 132 114 125
23.487970 18.013176 81.856491 130 112 124
23.472610 18.177734 81.802956 128 111 124
23.457644 18.342371 81.750793 127 109 123
23.443216 18.507210 81.700516 125 108 122
23.429461 18.672365 81.652580 123 105 119
23.416498 18.837952 81.607399 122 103 116
23.404413 19.004059 81.565285 119 99 112
23.393280 19.170761 81.526482 116 95 106
23.383141 19.338120 81.491150 114 93 103
23.374016 19.506172 81.459351 111 90 100
23.365896 19.674934 81.431053 108 88 97
23.358757 19.844408 81.406174 106 86 94
23.352549 20.014570 81.384537 104 85 92
23.347208 20.185390 81.365921 102 83 90
23.342657 20.356819 81.350060 100 82 89
23.338814 20.528803 81.336670 98 81 88
23.335592 20.701279 81.325447 97 80 87
23.332905 20.874186 81.316078 95 78 87
23.330667 21.047457 81.308281 93 77 87
23.328810 21.221041 81.301804 91 75 85
23.327265 21.394882 81.296417 89 74 84
23.325977 21.568939 81.291939 89 73 84
23.324907 21.743179 81.288208 89 75 85
23.324020 21.917578 81.285118 90 77 85
24.935770 3.920191 86.254135 41 30 31
24.920614 4.103630 86.201714 42 29 31
24.904436 4.286667 86.145744 41 29 30
24.887354 4.469301 86.086662 41 27 29
24.869505 4.651536 86.024918 42 26 28
24.851042 4.833385 85.961052 43 25 26
24.832129 5.014869 85.895630 46 25 27
24.812927 5.196011 85.829216 50 25 27
24.793604 5.376839 85.762375 54 27 28
24.774321 5.557387 85.695671 59 28 30
24.755219 5.737691 85.629593 66 31 35
24.736427 5.917785 85.564598 73 36 42
24.718056 6.097701 85.501045 81 40 50
24.700186 6.277471 85.439232 88 45 58
24.682871 6.457119 85.379349 95 52 68
24.666143 6.636667 85.321480 104 62 78
24.649998 6.816127 85.265633 115 74 90
24.634407 6.995504 85.211708 122 83 98
24.619320 7.174795 85.159515 126 89 102
24.604654 7.353987 85.108788 124 90 101
24.590321 7.533062 85.059204 121 89 98
24.576210 7.711992 85.010391 126 95 103
24.562206 7.890748 84.961960 145 113 122
24.548191 8.069290 84.913475 164 133 142
24.534044 8.247580 84.864540 171 140 149
24.519661 8.425576 84.814789 168 136 145
24.504932 8.603237 84.763840 159 127 136
24.489777 8.780525 84.711418 151 119 129
24.474121 8.957405 84.657265 151 117 129
24.457911 9.133843 84.601189 156 122 134
24.441109 9.309815 84.543076 162 127 140
24.423693 9.485298 84.482834 162 129 141
24.405664 9.660278 84.420471 160 128 139
24.387030 9.834746 84.356018 155 126 134
24.367823 10.008699 84.289574 152 126 131
24.348076 10.182142 84.221268 159 137 138
24.327845 10.355083 84.151291 171 151 152
24.307190 10.527539 84.079842 174 156 156
24.286177 10.699530 84.007156 171 154 154
24.264885 10.871081 83.933510 171 154 155
24.243397 11.042226 83.859177 175 158 159
24.221798 11.213000 83.784470 179 161 162
24.200186 11.383445 83.709709 177 159 160
24.178654 11.553606 83.635223 174 155 156
24.157303 11.723534 83.561371 174 154 154
24.136227 11.893278 83.488472 174 153 151
24.115528 12.062899 83.416878 172 150 148
24.095304 12.232450 83.346916 170 146 146
24.075644 12.401990 83.278915 168 142 143
24.056627 12.571573 83.213135 164 137 141
24.038336 12.741257 83.149857 161 132 139
24.020824 12.911088 83.089287 156 126 135
24.004150 13.081115 83.031616 150 119 131
23.988344 13.251371 82.976944 149 118 131
23.973431 13.421891 82.925354 153 120 134
23.959408 13.592695 82.876846 156 123 136
23.946260 13.763793 82.831367 154 121 132
23.933952 13.935184 82.788795 152 120 129
23.922434 14.106856 82.748955 152 121 128
23.911633 14.278785 82.711586 152 121 128
23.901461 14.450933 82.676399 152 122 127
23.891815 14.623252 82.643044 154 122 126
23.882580 14.795681 82.611092 155 122 126
23.873632 14.968152 82.580139 155 122 126
23.864838 15.140589 82.549721 155 121 125
23.856058 15.312902 82.519356 155 120 124
23.847162 15.485010 82.488586 154 118 122
23.838017 15.656820 82.456947 152 116 119
23.828503 15.828250 82.424034 150 114 118
23.818512 15.999217 82.389481 147 112 117
23.807957 16.169653 82.352966 144 110 115
23.796766 16.339495 82.314262 141 108 114
23.784901 16.508699 82.273216 138 107 112
23.772346 16.677246 82.229790 133 104 109
23.759109 16.845121 82.184006 128 101 106
23.745237 17.012342 82.136017 124 98 103
23.730791 17.178944 82.086052 123 98 104
23.715868 17.344978 82.034424 125 102 109
23.700581 17.510523 81.981552 129 106 115
23.685062 17.675667 81.927872 130 110 119
23.669458 17.840513 81.873894 130 110 122
23.653925 18.005182 81.820168 129 109 122
23.638617 18.169792 81.767212 127 108 122
23.623688 18.334469 81.715576 125 107 121
23.609283 18.499332 81.665749 123 105 119
23.595531 18.664499 81.618179 122 104 117
23.582548 18.830074 81.573273 120 102 114
23.570425 18.996147 81.531334 118 98 110
23.559235 19.162800 81.492622 115 96 107
23.549015 19.330080 81.457275 112 93 103
23.539791 19.498035 81.425369 110 91 101
23.531551 19.666676 81.396866 108 89 98
23.524273 19.836002 81.371689 106 88 95
23.517908 20.005997 81.349670 105 86 94
23.512388 20.176624 81.330582 104 85 92
23.507643 20.347837 81.314171 102 84 91
23.503584 20.519579 81.300125 100 83 89
23.500124 20.691788 81.288162 99 82 88
23.497173 20.864397 81.277954 97 80 88
23.494646 21.037344 81.269211 96 78 88
23.492470 21.210567 81.261688 94 77 87
23.490576 21.384014 81.255127 93 76 86
23.488901 21.557638 81.249336 93 76 87
23.487408 21.731401 81.244171 93 78 87
23.486053 21.905273 81.239487 93 79 88
25.071386 4.097901 86.081367 47 34 35
25.055466 4.280743 86.026703 46 32 34
25.038666 4.463193 85.969025 45 30 32
25.021114 4.645255 85.908760 45 27 29
25.002962 4.826941 85.846436 45 26 26
24.984369 5.008270 85.782600 46 25 25
24.965494 5.189265 85.717796 49 26 25
24.946499 5.369955 85.652573 53 28 25
24.927542 5.550372 85.587486 61 32 29
24.908764 5.730549 85.523010 70 37 36
24.890291 5.910522 85.459587 75 39 41
24.872236 6.090322 85.397598 77 38 44
24.854679 6.269982 85.337318 81 39 49
24.837681 6.449527 85.278954 88 44 58
24.821270 6.628976 85.222603 97 53 69
24.805449 6.808345 85.168282 108 65 81
24.790194 6.987639 85.115906 117 77 92
24.775457 7.166858 85.065308 122 84 98
24.761168 7.345991 85.016251 124 88 101
24.747234 7.525020 84.968407 123 89 100
24.733557 7.703923 84.921440 126 93 102
24.720018 7.882668 84.874962 138 106 114
24.706503 8.061220 84.828560 154 123 131
24.692896 8.239541 84.781837 164 133 141
24.679085 8.417592 84.734421 166 135 143
24.664968 8.595332 84.685951 162 131 139
24.650459 8.772722 84.636139 154 123 132
24.635477 8.949726 84.584694 148 116 126
24.619963 9.126311 84.531425 151 118 129
24.603876 9.302450 84.476196 157 124 136
24.587189 9.478120 84.418900 161 128 140
24.569887 9.653301 84.359497 161 129 140
24.551979 9.827983 84.298004 157 127 136
24.533480 10.002159 84.234489 152 125 131
24.514423 10.175830 84.169060 160 135 138
24.494848 10.349000 84.101852 176 155 156
24.474808 10.521680 84.033043 181 161 162
24.454363 10.693886 83.962845 176 157 158
24.433584 10.865642 83.891510 172 153 155
24.412552 11.036975 83.819290 170 150 152
24.391346 11.207916 83.746483 170 150 152
24.370056 11.378506 83.673386 170 151 153
24.348783 11.548787 83.600349 170 151 153
24.327621 11.718807 83.527687 171 151 153
24.306669 11.888617 83.455750 173 152 152
24.286032 12.058272 83.384888 173 152 151
24.265804 12.227830 83.315445 173 150 150
24.246082 12.397346 83.247726 171 148 149
24.226955 12.566878 83.182060 169 144 147
24.208508 12.736485 83.118713 166 140 146
24.190798 12.906213 83.057915 161 133 141
24.173893 13.076114 82.999870 155 125 136
24.157829 13.246225 82.944717 154 124 136
24.142633 13.416581 82.892540 163 131 144
24.128311 13.587205 82.843369 168 135 149
24.114853 13.758108 82.797157 161 128 141
24.102232 13.929296 82.753822 153 120 130
24.090395 14.100759 82.713181 152 120 128
24.079281 14.272472 82.675026 152 122 128
24.068804 14.444405 82.639053 152 122 126
24.058867 14.616508 82.604927 153 123 125
24.049356 14.788729 82.572281 153 123 125
24.040152 14.960999 82.540672 154 122 125
24.031122 15.133242 82.509674 153 122 124
24.022137 15.305381 82.478821 153 122 123
24.013060 15.477326 82.447655 153 121 121
24.003765 15.648996 82.415741 152 119 120
23.994129 15.820304 82.382660 151 117 119
23.984051 15.991173 82.348053 149 115 118
23.973436 16.161533 82.311615 148 114 117
23.962219 16.331324 82.273102 146 113 116
23.950354 16.500502 82.232361 144 111 114
23.937824 16.669041 82.189339 139 108 111
23.924635 16.836933 82.144051 134 103 107
23.910826 17.004187 82.096642 127 96 101
23.896460 17.170837 82.047318 122 93 99
23.881622 17.336931 81.996368 122 95 102
23.866426 17.502544 81.944199 125 100 109
23.850998 17.667759 81.891220 128 104 114
23.835480 17.832680 81.837944 128 106 118
23.820024 17.997417 81.784882 127 106 119
23.804781 18.162086 81.732536 126 106 119
23.789900 18.326813 81.681450 124 105 119
23.775526 18.491709 81.632095 122 103 117
23.761784 18.656891 81.584915 120 102 115
23.748793 18.822464 81.540306 117 100 112
23.736639 18.988516 81.498581 116 98 109
23.725391 19.155119 81.459961 113 96 106
23.715099 19.322332 81.424622 111 94 103
23.705778 19.490192 81.392616 109 92 102
23.697424 19.658718 81.363937 107 91 100
23.690008 19.827904 81.338470 106 90 98
23.683485 19.997734 81.316078 106 89 96
23.677792 20.168175 81.296524 105 88 95
23.672848 20.339174 81.279556 104 86 93
23.668568 20.510677 81.264862 103 85 92
23.664865 20.682623 81.252151 101 84 91
23.661648 20.854939 81.241104 100 82 89
23.658831 21.027563 81.231430 98 80 88
23.656330 21.200430 81.222847 97 79 88
23.654076 21.373482 81.215103 96 78 88
23.652006 21.546669 81.207993 96 79 89
23.650074 21.719950 81.201363 95 80 90
25.188730 4.456955 85.848862 52 34 35
25.171547 4.638849 85.790298 50 30 31
25.153782 4.820380 85.729752 48 26 26
25.135590 5.001565 85.667747 50 26 25
25.117128 5.182426 85.604828 52 27 24
25.098553 5.362992 85.541519 54 29 23
25.080013 5.543293 85.478333 66 39 32
25.061653 5.723362 85.415756 83 53 48
25.043596 5.903234 85.354218 87 54 52
25.025948 6.082939 85.294060 80 43 45
25.008795 6.262509 85.235603 77 37 43
24.992195 6.441969 85.179024 82 39 50
24.976181 6.621341 85.124451 91 47 61
24.960762 6.800640 85.071892 101 59 74
24.945915 6.979872 85.021294 111 70 86
24.931595 7.159038 84.972488 119 80 95
24.917740 7.338130 84.925270 124 87 101
24.904259 7.517130 84.879326 125 91 103
24.891058 7.696020 84.834328 127 94 103
24.878027 7.874769 84.789917 133 101 109
24.865049 8.053345 84.745689 142 111 118
24.852011 8.231709 84.701248 151 120 126
24.838802 8.409824 84.656227 157 126 132
24.825319 8.587650 84.610275 160 130 136
24.811472 8.765150 84.563080 158 127 135
24.797180 8.942286 84.514374 153 122 130
24.782375 9.119023 84.463921 151 119 130
24.767017 9.295334 84.411568 154 122 133
24.751064 9.471192 84.357201 156 125 136
24.734503 9.646579 84.300751 159 128 139
24.717325 9.821478 84.242210 159 129 138
24.699543 9.995879 84.181602 154 125 133
24.681177 10.169779 84.119003 156 130 135
24.662262 10.343178 84.054543 169 145 149
24.642841 10.516084 83.988350 176 153 157
24.622971 10.688509 83.920624 177 155 158
24.602711 10.860470 83.851578 175 153 157
24.582136 11.031992 83.781456 170 147 152
24.561325 11.203104 83.710526 167 145 149
24.540365 11.373841 83.639091 169 147 152
24.519348 11.544244 83.567459 170 149 154
24.498373 11.714358 83.495972 170 149 153
24.477543 11.884233 83.424973 171 151 152
24.456957 12.053924 83.354820 173 153 153
24.436722 12.223487 83.285851 175 153 154
24.416935 12.392980 83.218407 175 153 154
24.397686 12.562460 83.152809 174 151 153
24.379068 12.731985 83.089355 171 147 151
24.361153 12.901609 83.028290 165 140 146
24.344002 13.071382 82.969833 159 132 140
24.327662 13.241343 82.914146 160 131 141
24.312168 13.411530 82.861336 172 141 153
24.297531 13.581971 82.811455 180 148 161
24.283747 13.752678 82.764473 169 137 149
24.270792 13.923658 82.720322 154 122 132
24.258621 14.094904 82.678848 151 119 127
24.247177 14.266398 82.639839 152 122 127
24.236380 14.438109 82.603035 151 122 125
24.226133 14.609994 82.568115 151 123 124
24.216331 14.782001 82.534706 151 123 123
24.206858 14.954065 82.502419 152 123 123
24.197582 15.126114 82.470810 152 123 124
24.188377 15.298072 82.439438 152 123 123
24.179113 15.469856 82.407860 152 122 122
24.169661 15.641382 82.375641 152 121 120
24.159901 15.812569 82.342377 151 120 119
24.149729 15.983339 82.307716 150 118 119
24.139055 16.153625 82.271339 150 117 119
24.127810 16.323364 82.233009 150 117 120
24.115946 16.492517 82.192574 149 116 119
24.103441 16.661055 82.149956 147 113 116
24.090303 16.828964 82.105179 141 106 111
24.076561 16.996254 82.058342 131 96 102
24.062277 17.162956 82.009659 123 89 96
24.047533 17.329117 81.959404 121 88 96
24.032433 17.494801 81.907944 122 91 101
24.017101 17.660093 81.855690 124 96 107
24.001677 17.825090 81.803116 125 99 111
23.986303 17.989902 81.750725 125 100 114
23.971132 18.154638 81.699013 124 101 115
23.956306 18.319416 81.648491 122 100 115
23.941969 18.484354 81.599617 121 100 114
23.928244 18.649559 81.552841 118 99 112
23.915247 18.815134 81.508545 116 98 109
23.903067 18.981167 81.467033 114 96 107
23.891771 19.147728 81.428535 112 95 105
23.881407 19.314878 81.393211 110 94 103
23.871994 19.482653 81.361130 108 93 102
23.863523 19.651066 81.332260 107 93 101
23.855976 19.820118 81.306534 106 92 99
23.849298 19.989792 81.283775 106 91 98
23.843428 20.160048 81.263771 105 90 97
23.838287 20.330841 81.246254 105 89 96
23.833792 20.502113 81.230927 105 87 94
23.829845 20.673798 81.217484 103 86 93
23.826361 20.845825 81.205605 102 84 91
23.823248 21.018129 81.194992 101 82 91
23.820417 21.190643 81.185349 100 81 90
23.817799 21.363300 81.176422 99 81 90
23.815327 21.536055 81.167992 98 80 91
25.303631 4.813730 85.611488 56 31 30
25.285913 4.994780 85.551537 62 36 33
25.267939 5.175519 85.490723 62 37 31
25.249859 5.355973 85.429558 56 31 23
25.231821 5.536172 85.368530 68 43 34
25.213963 5.716149 85.308098 100 73 65
25.196400 5.895935 85.248680 113 83 77
25.179243 6.075562 85.190636 94 61 59
25.162571 6.255061 85.134232 76 39 42
25.146448 6.434456 85.079674 76 35 44
25.130905 6.613769 85.027092 86 43 56
25.115953 6.793015 84.976501 97 54 69
25.101576 6.972201 84.927856 108 66 82
25.087734 7.151332 84.881027 117 77 93
25.074362 7.330398 84.835785 123 86 101
25.061386 7.509387 84.791878 127 92 105
25.048704 7.688277 84.748970 129 94 105
25.036213 7.867042 84.706711 130 97 106
25.023804 8.045651 84.664726 133 101 109
25.011362 8.224069 84.622635 137 106 112
24.998779 8.402258 84.580055 143 112 118
24.985950 8.580178 84.536652 151 121 127
24.972782 8.757792 84.492104 157 127 134
24.959194 8.935065 84.446129 156 127 135
24.945116 9.111959 84.398499 154 125 134
24.930494 9.288446 84.349022 153 122 133
24.915285 9.464498 84.297569 152 121 133
24.899469 9.640091 84.244057 154 125 136
24.883028 9.815207 84.188431 158 128 139
24.865969 9.989836 84.130714 155 126 136
24.848301 10.163967 84.070938 152 125 133
24.830051 10.337598 84.009193 155 130 137
24.811256 10.510731 83.945602 162 138 144
24.791964 10.683375 83.880325 169 145 151
24.772226 10.855544 83.813545 172 148 154
24.752111 11.027257 83.745491 170 146 153
24.731697 11.198541 83.676422 169 145 152
24.711067 11.369426 83.606621 169 146 153
24.690308 11.539951 83.536385 169 147 154
24.669521 11.710161 83.466057 168 147 154
24.648809 11.880103 83.395981 168 147 152
24.628275 12.049830 83.326508 170 150 152
24.608028 12.219400 83.258011 173 152 154
24.588169 12.388870 83.190811 175 153 155
24.568794 12.558298 83.125259 175 154 156
24.550001 12.727745 83.061676 173 150 153
24.531864 12.897263 83.000320 165 141 146
24.514458 13.066905 82.941422 159 133 140
24.497835 13.236717 82.885178 162 135 144
24.482031 13.406735 82.831711 176 147 157
24.467064 13.576987 82.781075 185 155 165
24.452944 13.747497 82.733292 173 142 153
24.439642 13.918266 82.688293 155 124 134
24.427126 14.089295 82.645943 150 119 126
24.415339 14.260568 82.606064 150 121 126
24.404209 14.432056 82.568413 150 122 124
24.393646 14.603723 82.532669 149 122 123
24.383545 14.775515 82.498497 149 122 122
24.373791 14.947372 82.465500 149 123 123
24.364265 15.119227 82.433266 150 124 124
24.354836 15.291006 82.401360 150 124 124
24.345377 15.462628 82.369362 151 123 123
24.335762 15.634012 82.336830 151 122 122
24.325876 15.805079 82.303383 151 121 122
24.315609 15.975753 82.268646 151 119 121
24.304876 16.145966 82.232330 151 119 122
24.293602 16.315659 82.194183 152 118 124
24.281738 16.484787 82.154045 153 119 125
24.269260 16.653322 82.111832 154 118 123
24.256172 16.821251 82.067543 148 110 117
24.242500 16.988581 82.021294 137 98 106
24.228300 17.155336 81.973244 127 89 98
24.213650 17.321562 81.923676 121 84 94
24.198648 17.487322 81.872925 118 83 94
24.183418 17.652695 81.821396 119 86 98
24.168085 17.817770 81.769516 120 90 103
24.152800 17.982656 81.717796 121 92 106
24.137699 18.147459 81.666710 121 94 108
24.122931 18.312294 81.616737 120 95 109
24.108631 18.477272 81.568359 118 95 108
24.094925 18.642502 81.521988 116 96 108
24.081926 18.808083 81.478004 115 95 107
24.069719 18.974100 81.436707 113 94 105
24.058378 19.140629 81.398338 111 93 104
24.047945 19.307718 81.363037 109 93 103
24.038439 19.475409 81.330879 108 93 102
24.029860 19.643717 81.301849 106 93 101
24.022179 19.812641 81.275864 106 93 101
24.015347 19.982161 81.252747 106 93 100
24.009306 20.152243 81.232307 105 92 99
24.003969 20.322834 81.214256 106 91 98
23.999258 20.493881 81.198311 106 90 97
23.995071 20.665312 81.184151 105 88 95
23.991318 20.837057 81.171448 104 87 94
23.987906 21.009047 81.159904 103 85 93
23.984747 21.181211 81.149216 102 84 93
23.981760 21.353481 81.139107 101 83 92
25.418026 5.168564 85.375847 86 60 52
25.400511 5.348917 85.317009 65 41 31
25.383039 5.529026 85.258331 68 44 34
25.365749 5.708923 85.200256 106 81 73
25.348753 5.888638 85.143166 131 104 98
25.332155 6.068202 85.087418 114 82 81
25.316036 6.247643 85.033272 85 49 53
25.300451 6.426988 84.980927 76 36 45
25.285444 6.606257 84.930519 83 40 53
25.271019 6.785465 84.882072 94 51 66
25.257168 6.964623 84.835541 106 64 80
25.243849 7.143731 84.790810 116 76 92
25.231010 7.322785 84.747688 123 85 101
25.218573 7.501772 84.705910 128 92 105
25.206450 7.680676 84.665184 131 96 107
25.194534 7.859468 84.625168 131 97 106
25.182724 8.038122 84.585495 130 97 104
25.170900 8.216600 84.545784 129 96 104
25.158964 8.394870 84.505692 131 100 107
25.146807 8.572891 84.464859 139 109 116
25.134336 8.750627 84.422966 149 120 126
25.121464 8.928040 84.379730 154 126 134
25.108120 9.105095 84.334908 155 128 137
25.094244 9.281760 84.288300 154 126 136
25.079788 9.458006 84.239754 152 123 134
25.064724 9.633808 84.189148 152 123 135
25.049030 9.809146 84.136436 155 125 138
25.032698 9.984002 84.081581 155 126 138
25.015736 10.158365 84.024605 151 124 135
24.998156 10.332228 83.965553 149 123 133
24.979992 10.505590 83.904549 153 127 136
24.961279 10.678455 83.841690 160 133 143
24.942070 10.850832 83.777168 164 138 147
24.922421 11.022738 83.711174 166 141 149
24.902407 11.194194 83.643951 166 142 150
24.882107 11.365231 83.575768 167 143 152
24.861612 11.535882 83.506927 168 144 153
24.841017 11.706189 83.437744 167 145 154
24.820423 11.876199 83.368576 167 145 152
24.799942 12.045965 83.299782 168 147 151
24.779682 12.215544 83.231728 169 148 151
24.759747 12.384992 83.164772 171 150 152
24.740244 12.554370 83.099258 172 151 153
24.721268 12.723738 83.035522 169 148 150
24.702909 12.893152 82.973862 163 141 144
24.685242 13.062667 82.914520 159 135 140
24.668324 13.232327 82.857689 163 138 144
24.652203 13.402176 82.803543 177 150 158
24.636904 13.572245 82.752151 184 156 164
24.622433 13.742554 82.703552 172 142 152
24.608780 13.913116 82.657692 156 126 135
24.595911 14.083930 82.614471 151 121 128
24.583778 14.254983 82.573715 151 121 126
24.572311 14.426252 82.535202 150 122 125
24.561424 14.597699 82.498627 149 122 123
24.551020 14.769280 82.463684 148 123 123
24.540985 14.940934 82.429977 147 123 123
24.531204 15.112599 82.397125 148 124 125
24.521551 15.284204 82.364700 149 124 126
24.511896 15.455667 82.332275 150 124 127
24.502121 15.626913 82.299438 151 124 127
24.492107 15.797864 82.265808 151 123 126
24.481749 15.968445 82.231010 151 121 125
24.470953 16.138588 82.194756 151 120 125
24.459650 16.308235 82.156784 151 118 125
24.447786 16.477341 82.116936 155 120 128
24.435337 16.645878 82.075119 159 121 130
24.422297 16.813826 82.031319 154 113 124
24.408695 16.981194 81.985634 144 101 112
24.394577 17.148005 81.938217 134 91 103
24.380016 17.314295 81.889305 125 82 95
24.365112 17.480127 81.839249 117 77 89
24.349977 17.645578 81.788406 114 76 89
24.334738 17.810732 81.737221 115 80 94
24.319532 17.975691 81.686150 117 85 99
24.304501 18.140558 81.635658 116 86 100
24.289785 18.305449 81.586235 115 87 101
24.275522 18.470469 81.538322 115 89 101
24.261833 18.635723 81.492348 113 89 101
24.248827 18.801310 81.448662 112 90 102
24.236597 18.967312 81.407578 111 90 102
24.225206 19.133804 81.369316 109 90 102
24.214703 19.300837 81.334038 108 91 101
24.205109 19.468449 81.301811 107 92 101
24.196417 19.636654 81.272621 106 93 102
24.188606 19.805454 81.246384 105 94 102
24.181623 19.974827 81.222931 105 94 102
24.175409 20.144739 81.202057 106 94 101
24.169882 20.315136 81.183495 106 93 100
24.164955 20.485964 81.166946 106 92 100
24.160530 20.657150 81.152084 106 91 98
24.156513 20.828623 81.138588 106 89 96
24.152803 21.000305 81.126129 105 87 95
24.149313 21.172125 81.114403 104 86 95
24.145956 21.344013 81.103127 103 85 94
25.533726 5.521868 85.147949 69 46 37
25.517059 5.701694 85.092361 99 74 68
25.500683 5.881347 85.037758 126 99 96
25.484699 6.060859 84.984459 120 89 91
25.469183 6.240255 84.932716 96 61 67
25.454195 6.419561 84.882729 82 43 53
25.439770 6.598798 84.834625 82 40 53
25.425920 6.777981 84.788445 91 49 64
25.412636 6.957119 84.744141 104 63 79
25.399887 7.136217 84.701630 114 76 91
25.387617 7.315270 84.660713 122 85 100
25.375759 7.494268 84.621170 130 94 107
25.364222 7.673192 84.582687 135 99 111
25.352911 7.852021 84.544975 135 99 109
25.341719 8.030725 84.507652 130 96 105
25.330542 8.209272 84.470375 126 92 102
25.319269 8.387628 84.432793 125 92 102
25.307800 8.565755 84.394547 129 98 107
25.296038 8.743615 84.355324 136 107 116
25.283897 8.921173 84.314835 144 117 126
25.271299 9.098392 84.272820 152 125 135
25.258181 9.275238 84.229073 155 129 139
25.244486 9.451680 84.183411 153 126 137
25.230183 9.627693 84.135712 152 124 136
25.215240 9.803252 84.085884 153 125 138
25.199642 9.978337 84.033867 153 125 139
25.183390 10.152933 83.979668 153 124 138
25.166487 10.327029 83.923309 151 123 136
25.148960 10.500621 83.864861 152 124 136
25.130836 10.673708 83.804420 156 128 139
25.112160 10.846295 83.742134 159 131 142
25.092985 11.018395 83.678192 162 135 146
25.073380 11.190027 83.612816 163 137 148
25.053417 11.361216 83.546242 165 139 150
25.033190 11.531996 83.478790 166 141 152
25.012791 11.702404 83.410767 166 142 153
24.992323 11.872486 83.342514 166 143 152
24.971897 12.042295 83.274399 167 144 151
24.951624 12.211884 83.206795 167 145 149
24.931618 12.381314 83.140083 167 146 149
24.911985 12.550646 83.074608 168 147 149
24.892828 12.719937 83.010727 166 145 147
24.874245 12.889251 82.948753 163 141 143
24.856312 13.058640 82.888954 161 138 141
24.839100 13.228154 82.831558 167 142 147
24.822659 13.397836 82.776726 177 152 158
24.807022 13.567723 82.724586 180 153 161
24.792202 13.737837 82.675163 169 140 149
24.778194 13.908195 82.628456 157 128 136
24.764971 14.078795 82.584358 153 123 131
24.752489 14.249635 82.542732 152 123 128
24.740683 14.420688 82.503365 151 123 126
24.729473 14.591923 82.465988 150 123 125
24.718767 14.763297 82.430283 148 123 124
24.708454 14.934755 82.395889 147 123 124
24.698421 15.106237 82.362434 148 124 125
24.688545 15.277672 82.329498 148 124 126
24.678701 15.448983 82.296669 149 125 128
24.668768 15.620097 82.263550 151 125 129
24.658630 15.790937 82.229736 152 124 130
24.648180 15.961431 82.194893 152 124 130
24.637327 16.131508 82.158699 153 123 130
24.625994 16.301113 82.120911 151 119 128
24.614132 16.470201 82.081352 153 118 128
24.601707 16.638739 82.039917 159 119 131
24.588717 16.806709 81.996597 157 115 127
24.575178 16.974115 81.951454 149 104 117
24.561138 17.140976 81.904633 140 93 107
24.546667 17.307331 81.856369 132 84 99
24.531853 17.473234 81.806969 121 74 90
24.516804 17.638756 81.756790 114 70 84
24.501648 17.803984 81.706245 114 73 88
24.486515 17.969009 81.655785 117 79 93
24.471548 18.133942 81.605873 115 79 93
24.456879 18.298880 81.556953 111 78 91
24.442642 18.463936 81.509483 110 79 92
24.428963 18.629210 81.463860 110 81 94
24.415947 18.794800 81.420464 109 83 95
24.403683 18.960785 81.379562 108 84 96
24.392241 19.127239 81.341400 107 86 97
24.381666 19.294216 81.306145 106 88 99
24.371979 19.461750 81.273834 106 90 101
24.363176 19.629856 81.244484 106 92 102
24.355230 19.798532 81.217987 105 93 103
24.348101 19.967764 81.194206 106 94 103
24.341715 20.137508 81.172920 106 94 102
24.335999 20.307720 81.153854 106 94 102
24.330860 20.478336 81.136719 106 93 101
24.326200 20.649284 81.121178 106 92 99
24.321918 20.820488 81.106903 106 90 98
24.317917 20.991873 81.093559 105 88 97
24.314096 21.163359 81.080818 104 87 96
25.652180 5.874062 84.932419 109 81 81
25.636850 6.053528 84.881660 110 78 83
25.621981 6.232887 84.832428 99 64 72
25.607624 6.412162 84.784897 88 49 60
25.593824 6.591376 84.739204 83 42 55
25.580587 6.770541 84.695374 89 48 63
25.567911 6.949670 84.653404 103 63 78
25.555761 7.128766 84.613182 113 76 90
25.544094 7.307825 84.574554 122 86 99
25.532839 7.486839 84.537285 131 96 108
25.521915 7.665792 84.501122 139 104 115
25.511230 7.844662 84.465744 140 105 116
25.500683 8.023423 84.430824 135 100 111
25.490168 8.202044 84.396011 128 93 105
25.479578 8.380490 84.360947 124 89 102
25.468811 8.558726 84.325302 122 90 102
25.457775 8.736715 84.288757 124 93 106
25.446375 8.914420 84.251007 130 102 114
25.434530 9.091803 84.211792 142 115 127
25.422178 9.268831 84.170898 150 124 136
25.409256 9.445472 84.128113 152 125 138
25.395721 9.621696 84.083305 151 124 139
25.381538 9.797477 84.036346 153 125 141
25.366688 9.972792 83.987175 153 124 141
25.351152 10.147622 83.935738 152 123 140
25.334938 10.321953 83.882050 152 123 139
25.318054 10.495775 83.826157 152 123 137
25.300529 10.669086 83.768127 153 124 137
25.282396 10.841886 83.708092 156 127 138
25.263704 11.014182 83.646202 160 131 142
25.244514 11.185992 83.582664 162 134 145
25.224903 11.357339 83.517738 163 137 148
25.204950 11.528249 83.451675 164 139 150
25.184757 11.698763 83.384819 165 141 151
25.164423 11.868921 83.317490 165 141 151
25.144060 12.038776 83.250069 166 142 149
25.123785 12.208383 83.182938 166 142 148
25.103710 12.377800 83.116478 166 143 147
25.083952 12.547088 83.051056 167 145 148
25.064621 12.716311 82.987053 167 144 148
25.045815 12.885527 82.924789 164 140 144
25.027620 13.054793 82.864540 163 139 143
25.010115 13.224166 82.806587 170 146 151
24.993355 13.393688 82.751099 177 152 158
24.977381 13.563396 82.698212 174 147 155
24.962214 13.733321 82.647987 164 137 144
24.947853 13.903480 82.600441 157 129 137
24.934278 14.073876 82.555496 155 125 133
24.921450 14.244506 82.513023 153 124 130
24.909309 14.415351 82.472832 152 123 128
24.897783 14.586381 82.434669 150 123 126
24.886780 14.757558 82.398232 148 123 125
24.876194 14.928828 82.363190 147 123 125
24.865917 15.100134 82.329163 146 124 125
24.855825 15.271407 82.295746 146 124 126
24.845797 15.442576 82.262543 147 124 128
24.835712 15.613567 82.229156 148 123 130
24.825457 15.784305 82.195198 150 124 131
24.814920 15.954716 82.160316 154 127 134
24.804014 16.124735 82.124199 157 128 137
24.792658 16.294304 82.086601 155 123 133
24.780798 16.463375 82.047333 154 119 130
24.768398 16.631916 82.006279 155 115 129
24.755455 16.799910 81.963425 155 111 125
24.741976 16.967352 81.918800 150 103 118
24.728008 17.134262 81.872551 144 94 110
24.713614 17.300676 81.824898 136 85 102
24.698879 17.466642 81.776108 126 76 92
24.683910 17.632233 81.726547 116 68 84
24.668827 17.797523 81.676605 114 68 84
24.653755 17.962610 81.626709 117 74 89
24.638836 18.127594 81.577309 116 75 90
24.624201 18.292574 81.528854 110 72 86
24.609980 18.457659 81.481773 107 71 84
24.596298 18.622946 81.436470 106 72 85
24.583261 18.788532 81.393311 105 74 87
24.570955 18.954496 81.352562 105 77 88
24.559452 19.120909 81.314476 104 80 91
24.548800 19.287825 81.279205 105 83 95
24.539015 19.455278 81.246811 106 87 99
24.530096 19.623285 81.217285 106 90 101
24.522020 19.791843 81.190544 106 92 102
24.514740 19.960934 81.166435 105 93 103
24.508188 20.130520 81.144745 105 94 102
24.502283 20.300549 81.125198 105 94 102
24.496937 20.470961 81.107498 105 94 102
24.492044 20.641678 81.091301 105 92 100
24.487503 20.812624 81.076263 104 90 98
24.483212 20.983717 81.062050 103 88 96
25.774363 6.225523 84.732201 94 55 66
25.760670 6.404772 84.687187 87 46 59
25.747519 6.583966 84.643951 83 41 55
25.734922 6.763120 84.602547 90 48 62
25.722878 6.942244 84.562943 103 64 77
25.711357 7.121342 84.525070 113 77 89
25.700314 7.300413 84.488770 121 87 98
25.689688 7.479448 84.453835 130 96 108
25.679398 7.658433 84.420006 140 105 118
25.669361 7.837350 84.387009 145 110 123
25.659473 8.016171 84.354507 141 105 119
25.649637 8.194868 84.322166 132 95 111
25.639746 8.373408 84.289650 124 88 104
25.629698 8.551756 84.256622 118 84 100
25.619396 8.729874 84.222748 115 82 98
25.608747 8.907726 84.187744 118 87 102
25.597673 9.085277 84.151344 128 99 114
25.586096 9.262487 84.113281 138 110 125
25.573957 9.439326 84.073380 144 116 132
25.561203 9.615762 84.031448 149 121 138
25.547791 9.791765 83.987350 153 125 143
25.533691 9.967310 83.941002 152 123 141
25.518887 10.142374 83.892334 152 122 140
25.503368 10.316940 83.841316 151 121 138
25.487144 10.490996 83.787987 151 121 135
25.470230 10.664532 83.732376 151 121 133
25.452652 10.837546 83.674591 153 124 134
25.434458 11.010045 83.614777 157 128 138
25.415701 11.182037 83.553108 160 132 143
25.396450 11.353543 83.489822 162 135 145
25.376791 11.524591 83.425194 163 137 147
25.356813 11.695214 83.359528 163 138 148
25.336626 11.865456 83.293159 164 139 147
25.316339 12.035363 83.226471 165 139 146
25.296072 12.204992 83.159836 165 140 145
25.275942 12.374402 83.093658 165 141 146
25.256069 12.543654 83.028336 168 143 148
25.236568 12.712811 82.964226 170 144 149
25.217548 12.881938 82.901695 165 139 145
25.199100 13.051092 82.841049 163 137 143
25.181307 13.220327 82.782555 171 144 151
25.164234 13.389695 82.726425 175 148 156
25.147928 13.559234 82.672821 168 141 149
25.132420 13.728976 82.621834 160 132 141
25.117712 13.898942 82.573486 158 129 137
25.103790 14.069141 82.527725 157 127 135
25.090624 14.239571 82.484436 154 125 132
25.078157 14.410216 82.443459 152 123 129
25.066324 14.581053 82.404549 150 123 127
25.055035 14.752041 82.367432 148 123 126
25.044188 14.923135 82.331779 147 123 125
25.033676 15.094276 82.297218 145 123 125
25.023380 15.265400 82.263374 145 123 125
25.013178 15.436437 82.229836 145 123 127
25.002954 15.607314 82.196228 145 122 128
24.992590 15.777959 82.162155 147 123 131
24.981976 15.948297 82.127258 155 130 137
24.971020 16.118263 82.091240 163 136 145
24.959644 16.287802 82.053848 165 136 146
24.947788 16.456861 82.014870 165 132 143
24.935415 16.625408 81.974190 159 121 135
24.922512 16.793423 81.931778 152 109 124
24.909090 16.960901 81.887650 147 100 116
24.895187 17.127857 81.841942 144 93 110
24.880861 17.294323 81.794853 139 86 103
24.866196 17.460348 81.746635 130 77 95
24.851290 17.625994 81.697639 122 69 86
24.836264 17.791342 81.648232 116 65 82
24.821239 17.956480 81.598846 117 69 85
24.806351 18.121502 81.549896 117 72 87
24.791733 18.286514 81.501839 112 70 84
24.777514 18.451616 81.455101 106 66 80
24.763813 18.616905 81.410057 103 65 78
24.750740 18.782476 81.367081 101 66 79
24.738380 18.948412 81.326447 101 70 82
24.726807 19.114777 81.288406 102 74 86
24.716064 19.281626 81.253082 103 78 90
24.706177 19.448996 81.220581 105 83 95
24.697138 19.616901 81.190865 106 87 99
24.688927 19.785341 81.163872 106 89 101
24.681492 19.954292 81.139435 105 91 101
24.674774 20.123722 81.117340 105 92 102
24.668684 20.293575 81.097328 105 93 102
24.663132 20.463787 81.079071 104 92 100
24.658010 20.634279 81.062241 103 90 99
24.653215 20.804977 81.046478 102 89 97
25.900734 6.576540 84.548470 82 38 51
25.888796 6.755682 84.509506 91 49 61
25.877401 6.934803 84.472305 105 66 77
25.866524 7.113905 84.436798 113 78 89
25.856127 7.292990 84.402863 119 87 97
25.846146 7.472049 84.370277 128 96 107
25.836512 7.651069 84.338829 139 105 119
25.827137 7.830033 84.308228 146 111 126
25.817926 8.008917 84.278168 145 107 125
25.808783 8.187691 84.248314 136 97 117
25.799604 8.366325 84.218353 126 88 107
25.790285 8.544785 84.187935 119 81 101
25.780733 8.723033 84.156754 114 78 96
25.770853 8.901034 84.124496 113 78 97
25.760557 9.078750 84.090889 117 84 103
25.749769 9.256144 84.055672 124 93 111
25.738420 9.433180 84.018631 132 101 120
25.726456 9.609826 83.979576 140 110 130
25.713825 9.786052 83.938347 147 117 137
25.700495 9.961827 83.894829 149 118 138
25.686434 10.137127 83.848930 150 119 138
25.671627 10.311929 83.800591 149 119 136
25.656075 10.486218 83.749825 148 119 133
25.639788 10.659984 83.696663 148 119 131
25.622784 10.833216 83.641151 150 122 132
25.605103 11.005918 83.583435 154 126 135
25.586794 11.178098 83.523674 157 130 139
25.567926 11.349771 83.462082 159 133 141
25.548578 11.520962 83.398918 160 135 143
25.528839 11.691702 83.334488 161 136 144
25.508816 11.862032 83.269127 163 137 144
25.488623 12.032000 83.203209 164 137 144
25.468380 12.201660 83.137131 165 138 143
25.448210 12.371070 83.071289 166 138 144
25.428238 12.540295 83.006096 170 140 147
25.408583 12.709395 82.941933 172 142 149
25.389359 12.878440 82.879181 168 139 146
25.370667 13.047486 82.818161 165 136 143
25.352596 13.216594 82.759171 168 139 148
25.335220 13.385815 82.702454 168 141 149
25.318594 13.555191 82.648178 163 135 144
25.302752 13.724760 82.596466 158 130 140
25.287706 13.894543 82.547348 157 129 139
25.273449 14.064553 82.500809 156 128 137
25.259954 14.234793 82.456757 154 125 133
25.247177 14.405252 82.415047 150 122 129
25.235044 14.575903 82.375450 148 121 126
25.223482 14.746716 82.337700 146 121 124
25.212389 14.917645 82.301491 145 121 124
25.201656 15.088634 82.266457 144 122 124
25.191172 15.259621 82.232231 144 122 124
25.180811 15.430537 82.198410 143 122 125
25.170462 15.601315 82.164627 142 121 126
25.159998 15.771874 82.130470 144 122 128
25.149319 15.942150 82.095604 155 131 139
25.138325 16.112076 82.059723 170 145 153
25.126936 16.281588 82.022545 182 156 165
25.115089 16.450642 81.983871 191 163 172
25.102741 16.619196 81.943565 182 148 159
25.089876 16.787231 81.901573 160 119 133
25.076508 16.954744 81.857925 147 100 116
25.062658 17.121742 81.812721 143 93 109
25.048391 17.288256 81.766151 140 88 104
25.033781 17.454329 81.718460 134 80 96
25.018925 17.620024 81.669960 125 72 87
25.003937 17.785414 81.621033 118 66 80
24.988939 17.950590 81.572083 116 65 80
24.974066 18.115643 81.523529 116 68 82
24.959444 18.280670 81.475792 113 67 81
24.945206 18.445776 81.429321 107 63 78
24.931469 18.611055 81.384476 102 61 75
24.918343 18.776602 81.341629 99 61 74
24.905914 18.942495 81.301056 100 65 77
24.894255 19.108803 81.262993 103 71 83
24.883413 19.275579 81.227608 104 76 88
24.873409 19.442860 81.194946 104 79 92
24.864243 19.610659 81.165024 105 83 95
24.855890 19.778976 81.137764 105 86 97
24.848301 19.947790 81.112991 104 88 98
24.841413 20.117065 81.090508 104 89 100
24.835140 20.286743 81.070023 103 90 98
24.829384 20.456760 81.051239 101 89 97
24.824039 20.627039 81.033791 101 88 96
26.031315 6.927304 84.380966 106 68 77
26.021097 7.106410 84.347839 113 79 88
26.011354 7.285507 84.316261 119 87 97
26.002033 7.464588 84.286041 131 99 111
25.993065 7.643644 84.256973 142 109 124
25.984369 7.822656 84.228790 146 111 129
25.975851 8.001600 84.201172 145 106 128
25.967417 8.180452 84.173836 138 97 120
25.958961 8.359180 84.146431 129 88 111
25.950390 8.537751 84.118645 122 82 104
25.941597 8.716128 84.090141 117 78 99
25.932495 8.894277 84.060631 113 75 96
25.922991 9.072157 84.029823 111 75 95
25.913004 9.249732 83.997452 112 78 98
25.902462 9.426966 83.963280 117 84 105
25.891302 9.603823 83.927109 125 93 114
25.879467 9.780269 83.888741 134 102 123
25.866917 9.956273 83.848061 140 109 130
25.853613 10.131808 83.804939 144 113 133
25.839537 10.306849 83.759308 145 116 132
25.824675 10.481374 83.711136 146 117 131
25.809034 10.655370 83.660439 145 117 128
25.792625 10.828824 83.607246 147 119 128
25.775480 11.001735 83.551666 150 124 131
25.757647 11.174108 83.493858 154 128 135
25.739183 11.345954 83.434013 157 132 137
25.720169 11.517295 83.372375 159 134 139
25.700695 11.688161 83.309250 160 134 140
25.680861 11.858589 83.244957 161 135 140
25.660784 12.028626 83.179878 163 135 140
25.640587 12.198325 83.114410 165 135 141
25.620399 12.367746 83.048973 167 136 141
25.600346 12.536952 82.983971 170 137 144
25.580553 12.706006 82.919807 171 138 147
25.561144 12.874977 82.856895 170 137 147
25.542225 13.043926 82.795563 170 138 148
25.523890 13.212915 82.736137 169 138 149
25.506227 13.381999 82.678879 162 132 143
25.489292 13.551223 82.623985 157 127 139
25.473129 13.720627 82.571594 156 126 138
25.457758 13.890236 82.521767 155 127 138
25.443178 14.060069 82.474510 154 127 136
25.429371 14.230129 82.429749 152 125 133
25.416292 14.400411 82.387360 149 121 128
25.403881 14.570891 82.347122 146 119 124
25.392059 14.741541 82.308807 144 119 123
25.380735 14.912317 82.272095 143 120 123
25.369802 15.083168 82.236656 143 120 123
25.359144 15.254031 82.202110 142 121 122
25.348644 15.424843 82.168076 141 121 123
25.338181 15.595530 82.134155 141 120 124
25.327639 15.766021 82.099983 141 120 125
25.316908 15.936245 82.065201 152 130 137
25.305887 16.106136 82.029472 172 149 157
25.294493 16.275633 81.992538 195 171 179
25.282660 16.444683 81.954178 217 192 201
25.270342 16.613251 81.914253 212 181 192
25.257517 16.781311 81.872688 179 140 153
25.244192 16.948854 81.829491 150 105 119
25.230394 17.115891 81.784767 141 92 107
25.216173 17.282444 81.738663 141 89 104
25.201605 17.448559 81.691444 137 83 97
25.186781 17.614290 81.643387 129 75 89
25.171814 17.779715 81.594879 121 68 81
25.156822 17.944912 81.546280 117 65 78
25.141941 18.109978 81.498039 116 65 79
25.127296 18.275009 81.450569 113 64 78
25.113016 18.440104 81.404282 108 62 76
25.099222 18.605360 81.359566 102 59 73
25.086020 18.770864 81.316772 100 58 73
25.073503 18.936703 81.276199 102 63 77
25.061741 19.102942 81.238068 107 71 85
25.050783 19.269634 81.202553 109 78 91
25.040651 19.436815 81.169708 109 81 94
25.031349 19.604504 81.139557 107 82 95
25.022846 19.772696 81.111992 105 84 96
25.015099 19.941368 81.086876 105 86 96
25.008039 20.110489 81.064003 103 86 95
25.001579 20.279995 81.043060 101 86 94
24.995625 20.449825 81.023758 98 86 94
26.165806 7.277912 84.228355 122 89 100
26.157154 7.457013 84.200508 146 113 127
26.148867 7.636101 84.173836 161 127 145
26.140860 7.815158 84.148056 155 119 141
26.133047 7.994163 84.122910 145 106 131
26.125334 8.173090 84.098076 137 96 122
26.117619 8.351911 84.073242 130 87 113
26.109802 8.530590 84.048088 125 82 106
26.101786 8.709095 84.022278 120 78 101
26.093472 8.887387 83.995522 115 74 95
26.084772 9.065430 83.967514 111 72 91
26.075602 9.243184 83.937988 109 71 90
26.065880 9.420612 83.906693 109 74 92
26.055536 9.597677 83.873405 113 80 98
26.044514 9.774343 83.837921 120 87 106
26.032761 9.950577 83.800087 127 95 113
26.020237 10.126348 83.759773 133 102 120
26.006910 10.301626 83.716873 139 109 124
25.992762 10.476390 83.671326 142 114 126
25.977791 10.650619 83.623138 144 117 126
25.962000 10.824299 83.572304 146 119 127
25.945419 10.997424 83.518936 148 123 130
25.928087 11.169996 83.463135 151 127 133
25.910059 11.342023 83.405106 155 130 135
25.891409 11.513522 83.345070 157 132 137
25.872225 11.684523 83.283318 159 133 138
25.852610 11.855059 83.220177 159 132 137
25.832680 12.025176 83.156021 161 132 137
25.812557 12.194925 83.091248 163 133 138
