ply
format ascii 1.0
element vertex 1175
property float x
property float y
property float z
property uchar red
property uchar green
property uchar blue
end_header
-4.553388 17.117058 78.553802 132 63 78
-4.534375 17.214211 78.225784 132 63 77
-4.516128 17.312887 77.910988 130 61 75
-4.498586 17.412939 77.608376 127 60 73
-4.481688 17.514202 77.316856 126 59 70
-4.465367 17.616480 77.035286 123 57 67
-4.449551 17.719559 76.762436 121 54 64
-4.434165 17.823189 76.497002 119 52 62
-4.419130 17.927095 76.237617 117 50 61
-4.404362 18.030979 75.982841 116 49 60
-4.389772 18.134501 75.731140 115 48 60
-4.375268 18.237293 75.480911 115 49 60
-4.360751 18.338959 75.230484 115 50 60
-4.346124 18.439072 74.978142 115 51 61
-4.331283 18.537178 74.722092 115 52 61
-4.316120 18.632797 74.460518 115 53 61
-4.300531 18.725433 74.191589 115 53 61
-4.284412 18.814581 73.913506 114 52 60
-4.267661 18.899729 73.624519 114 52 59
-4.250182 18.980379 73.322968 114 52 59
-4.231888 19.056065 73.007378 113 52 59
-4.212708 19.126364 72.676491 111 51 59
-4.192586 19.190922 72.329346 109 50 58
-4.171487 19.249477 71.965340 107 49 56
-4.149401 19.301874 71.584328 105 49 55
-4.126349 19.348099 71.186646 103 48 55
-4.102384 19.388288 70.773201 101 47 55
-4.077588 19.422741 70.345421 100 47 54
-4.052079 19.451929 69.905357 98 47 54
-4.026008 19.476498 69.455582 96 47 54
-3.999552 19.497248 68.999161 95 47 54
-3.972910 19.515123 68.539558 94 46 54
-3.946303 19.531185 68.080528 92 45 53
-3.919958 19.546576 67.626030 90 44 52
-3.894105 19.562483 67.180038 88 44 50
-3.868970 19.580097 66.746414 87 44 49
-3.844764 19.600573 66.328804 87 44 49
-3.821676 19.624996 65.930504 87 45 48
-3.799872 19.654343 65.554352 85 45 48
-3.779486 19.689453 65.202652 84 45 48
-3.760618 19.731012 64.877144 82 45 47
-3.743333 19.779535 64.578957 79 44 47
-3.727663 19.835363 64.308624 77 42 47
-3.713604 19.898657 64.066078 74 41 46
-3.701122 19.969416 63.850742 71 39 44
-3.690156 20.047483 63.661564 68 37 42
-3.680622 20.132566 63.497086 66 36 40
-3.672418 20.224262 63.355545 65 35 39
-3.665426 20.322071 63.234924 63 35 38
-3.659522 20.425432 63.133072 63 34 37
-3.654577 20.533741 63.047760 61 34 36
-3.650458 20.646357 62.976704 60 33 35
-3.647042 20.762661 62.917763 59 32 35
-3.644207 20.882050 62.868866 58 32 34
-3.641845 21.003948 62.828106 57 32 34
-3.639853 21.127823 62.793747 57 32 34
-3.638143 21.253195 62.764240 56 32 34
-3.636637 21.379642 62.738270 56 33 35
-3.635271 21.506798 62.714687 56 33 35
-3.633987 21.634350 62.692551 57 34 36
-3.632742 21.762035 62.671066 58 35 38
-3.631498 21.889631 62.649601 59 36 39
-3.630224 22.016956 62.627621 58 36 39
-3.628892 22.143837 62.604656 58 35 37
-3.627480 22.270123 62.580292 57 34 36
-3.625963 22.395653 62.554119 56 33 35
-3.624315 22.520258 62.525684 56 33 34
-3.622507 22.643742 62.494495 55 32 33
-3.620506 22.765875 62.459976 55 32 33
-3.618273 22.886395 62.421455 55 32 33
-3.615765 23.004993 62.378178 54 32 33
-3.612931 23.121323 62.329285 54 32 34
-3.609722 23.235031 62.273930 53 32 34
-3.606077 23.345678 62.211060 53 32 34
-3.601942 23.452858 62.139713 52 32 33
-3.597263 23.556168 62.058987 52 32 33
-3.591992 23.655239 61.968063 51 32 33
-3.586092 23.749748 61.866283 50 32 33
-3.579538 23.839460 61.753212 49 31 33
-3.572319 23.924229 61.628662 48 30 33
-3.564440 24.004025 61.492744 47 29 33
-3.555929 24.078947 61.345913 46 29 33
-3.546830 24.149237 61.188938 46 28 33
-3.537208 24.215269 61.022942 45 28 33
-3.527144 24.277544 60.849323 46 28 34
-3.516735 24.336679 60.669746 46 28 34
-3.587458 -10.935180 64.280350 134 60 78
-3.606172 -10.852935 64.615677 131 57 77
-3.625284 -10.770425 64.958122 128 54 75
-3.644806 -10.687642 65.307922 126 52 75
-3.664758 -10.604595 65.665428 128 53 77
-3.685162 -10.521297 66.031029 133 57 81
-3.706044 -10.437769 66.405197 138 60 84
-3.727436 -10.354043 66.788490 142 62 86
-3.749369 -10.270148 67.181496 146 64 88
-3.771878 -10.186114 67.584816 148 65 88
-3.794998 -10.101968 67.999084 148 64 86
-3.818765 -10.017731 68.424927 147 61 83
-3.843211 -9.933414 68.862953 146 58 80
-3.868366 -9.849017 69.313698 145 57 78
-3.894258 -9.764521 69.777618 146 57 77
-3.920904 -9.679888 70.255074 146 57 76
-3.948318 -9.595061 70.746269 147 58 78
-3.976500 -9.509955 71.251244 148 60 80
-4.005442 -9.424458 71.769814 149 61 82
-4.035120 -9.338432 72.301613 151 62 83
-4.065504 -9.251716 72.846016 152 64 86
-4.096542 -9.164119 73.402168 154 67 89
-4.128177 -9.075434 73.968994 157 71 93
-4.160336 -8.985438 74.545219 160 74 96
-4.192938 -8.893898 75.129387 160 74 97
-4.225896 -8.800583 75.719948 156 71 94
-4.259121 -8.705264 76.315269 154 68 91
-4.292524 -8.607737 76.913788 153 67 89
-4.326021 -8.507813 77.513992 153 66 86
-4.359541 -8.405347 78.114601 153 65 83
-4.393023 -8.300220 78.714546 153 64 82
-4.426429 -8.192366 79.313110 153 64 81
-4.459740 -8.081757 79.909966 153 65 81
-4.492960 -7.968416 80.505226 153 66 84
-4.526123 -7.852408 81.099434 153 68 87
-4.559282 -7.733832 81.693581 154 70 91
-4.592519 -7.612823 82.289116 156 74 95
-4.625932 -7.489532 82.887817 158 78 99
-4.659639 -7.364125 83.491783 162 81 104
-4.693771 -7.236769 84.103355 167 85 108
-4.728464 -7.107619 84.724991 169 86 109
-4.763858 -6.976817 85.359184 168 83 107
-4.800089 -6.844474 86.008385 167 81 103
-4.837286 -6.710671 86.674881 165 79 100
-4.875566 -6.575456 87.360779 165 79 98
-4.915031 -6.438835 88.067917 166 79 98
-4.955766 -6.300781 88.797806 167 81 99
-4.997838 -6.161229 89.551659 168 81 100
-5.041297 -6.020082 90.330360 168 82 103
-5.086174 -5.877217 91.134468 169 82 105
-5.132483 -5.732485 91.964241 170 84 108
-5.180226 -5.585721 92.819695 172 86 112
-5.229390 -5.436746 93.700623 174 87 115
-5.279951 -5.285372 94.606575 175 88 118
-5.331876 -5.131404 95.536972 176 89 121
-5.385124 -4.974649 96.491089 177 91 122
-5.439647 -4.814908 97.468033 177 92 123
-5.495388 -4.651985 98.466789 178 93 123
-5.552281 -4.485688 99.486214 177 95 122
-5.610255 -4.315827 100.524994 176 97 122
-5.669226 -4.142216 101.581635 174 98 122
-5.729099 -3.964674 102.654442 173 100 124
-5.789766 -3.783025 103.741493 173 105 129
-5.851110 -3.597106 104.840637 176 111 137
-5.912990 -3.406757 105.949417 179 115 143
-5.975255 -3.211835 107.065102 181 120 148
-6.037739 -3.012212 108.184692 186 124 151
-6.100258 -2.807778 109.304909 189 126 152
-6.162615 -2.598446 110.422218 190 126 150
-6.224598 -2.384154 111.532845 189 126 147
-6.285989 -2.164869 112.632843 191 127 146
-6.346561 -1.940592 113.718193 194 129 146
-6.406082 -1.711354 114.784676 193 128 145
-6.464317 -1.477225 115.828140 191 127 144
-6.521034 -1.238309 116.844406 199 136 154
-6.576010 -0.994748 117.829475 203 144 163
-6.629030 -0.746720 118.779480 188 134 154
-6.679893 -0.494436 119.690842 170 122 143
-6.728417 -0.238140 120.560318 165 122 144
-6.774442 0.021896 121.384995 171 130 155
-6.817830 0.285377 122.162415 182 143 171
-6.858469 0.551989 122.890579 200 159 191
-6.896271 0.821402 123.567924 224 183 216
-6.931178 1.093279 124.193405 230 187 221
-6.963158 1.367278 124.766418 206 155 193
-6.992201 1.643057 125.286812 187 128 168
-7.018323 1.920280 125.754875 186 125 162
-7.041565 2.198622 126.171326 187 125 160
-7.061986 2.477770 126.537231 187 125 157
-7.079667 2.757428 126.854027 186 126 155
-7.094709 3.037322 127.123566 185 129 155
-7.107241 3.317207 127.348099 184 130 155
-7.117405 3.596863 127.530228 181 130 153
-7.125370 3.876108 127.672943 176 129 150
-7.131327 4.154798 127.779678 177 131 150
-7.135493 4.432836 127.854324 181 138 155
-7.138100 4.710167 127.901039 179 139 153
-7.139406 4.986791 127.924446 178 140 152
-7.139683 5.262757 127.929398 201 165 177
-7.139210 5.538163 127.920921 224 189 201
-7.138268 5.813150 127.904045 215 178 193
-7.137128 6.087896 127.883621 205 167 183
-7.136043 6.362603 127.864189 201 162 181
-7.135237 6.637485 127.849731 187 148 168
-7.134882 6.912742 127.843384 177 138 159
-7.135100 7.188549 127.847290 182 142 163
-7.135939 7.465022 127.862320 191 150 172
-7.137376 7.742208 127.888062 201 160 182
-7.139299 8.020053 127.922516 212 172 194
-7.141516 8.298387 127.962242 207 167 191
-7.143755 8.576919 128.002365 181 143 168
-7.145665 8.855215 128.036591 163 127 153
-7.146828 9.132705 128.057419 167 133 159
-7.146776 9.408685 128.056488 172 141 166
-7.145010 9.682339 128.024841 168 138 161
-7.141023 9.952760 127.953407 162 133 153
-7.134317 10.218980 127.833252 168 140 156
-7.124431 10.480003 127.656120 194 167 180
-7.110967 10.734860 127.414864 226 201 213
-7.093602 10.982638 127.103714 239 215 226
-7.072105 11.222519 126.718536 229 200 211
-7.046351 11.453818 126.257072 209 169 183
-7.016322 11.676014 125.719009 196 150 166
-6.982102 11.888754 125.105858 189 142 159
-6.943868 12.091861 124.420776 184 137 154
-6.901879 12.285329 123.668411 180 134 149
-6.856457 12.469311 122.854538 171 127 141
-6.807970 12.644092 121.985741 167 126 138
-6.756805 12.810051 121.068977 180 141 150
-6.703358 12.967640 120.111290 197 159 166
-6.648009 13.117349 119.119545 205 166 171
-6.591114 13.259672 118.100105 203 162 166
-6.532991 13.395082 117.058655 197 154 156
-6.473915 13.524012 116.000122 192 146 149
-6.414118 13.646843 114.928673 184 137 140
-6.353786 13.763898 113.847649 176 128 131
-6.293066 13.875432 112.759651 176 128 132
-6.232069 13.981658 111.666702 179 132 137
-6.170881 14.082736 110.570335 180 133 140
-6.109569 14.178796 109.471733 182 134 144
-6.048186 14.269957 108.371880 187 138 152
-5.986789 14.356339 107.271751 187 138 155
-5.925435 14.438083 106.172401 179 129 148
-5.864187 14.515352 105.074966 168 118 138
-5.803125 14.588355 103.980850 161 110 130
-5.742336 14.657338 102.891624 157 107 126
-5.681922 14.722600 101.809143 156 106 125
-5.621999 14.784481 100.735420 155 105 123
-5.562685 14.843362 99.672638 154 104 123
-5.504107 14.899649 98.623016 160 107 127
-5.446389 14.953776 97.588829 172 117 137
-5.389657 15.006186 96.572289 183 125 145
-5.334025 15.057324 95.575493 182 120 139
-5.279604 15.107626 94.600365 168 104 121
-5.226491 15.157516 93.648674 155 87 103
-5.174771 15.207398 92.721954 146 76 91
-5.124516 15.257648 91.821480 143 71 86
-5.075782 15.308603 90.948273 147 74 89
-5.028615 15.360578 90.103119 149 76 92
-4.983043 15.413845 89.286560 149 75 92
-4.939085 15.468645 88.498917 146 74 91
-4.896747 15.525186 87.740303 144 73 90
-4.856025 15.583640 87.010635 143 72 89
-4.816902 15.644146 86.309631 143 72 90
-4.779358 15.706815 85.636917 145 74 92
-4.743361 15.771729 84.991920 145 74 92
-4.708877 15.838949 84.374023 144 72 89
-4.675862 15.908509 83.782471 143 70 87
-4.644273 15.980419 83.216446 142 69 85
-4.614060 16.054680 82.675095 139 67 83
-4.585174 16.131273 82.157509 136 66 81
-4.557562 16.210169 81.662750 134 63 79
-4.531172 16.291325 81.189903 132 61 77
-4.505953 16.374697 80.738022 130 59 76
-4.481853 16.460230 80.306198 129 58 75
-4.458822 16.547869 79.893524 128 57 74
-4.436809 16.637545 79.499092 128 56 74
-4.415765 16.729195 79.122032 129 57 74
-4.395641 16.822739 78.761452 129 58 75
-4.376380 16.918064 78.416328 131 60 76
-4.357937 17.015091 78.085854 132 62 76
-4.340259 17.113714 77.769112 132 62 75
-4.323292 17.213802 77.465096 130 61 73
-4.306978 17.315205 77.172775 127 59 70
-4.291257 17.417753 76.891083 125 58 67
-4.276065 17.521254 76.618874 123 57 65
-4.261334 17.625490 76.354919 120 55 63
-4.246993 17.730213 76.097954 118 52 61
-4.232965 17.835148 75.846596 117 50 60
-4.219170 17.939993 75.599419 116 49 59
-4.205524 18.044411 75.354912 115 49 59
-4.191938 18.148033 75.111481 115 49 59
-4.178320 18.250467 74.867477 115 49 59
-4.164575 18.351284 74.621178 115 50 60
-4.150603 18.450037 74.370827 115 52 60
-4.136303 18.546240 74.114616 115 53 61
-4.121577 18.639404 73.850739 115 52 61
-4.106322 18.729029 73.577408 114 52 60
-4.090444 18.814602 73.292900 114 51 59
-4.073851 18.895634 72.995590 113 51 59
-4.056462 18.971659 72.683998 112 50 58
-4.038207 19.042261 72.356911 111 50 58
-4.019035 19.107092 72.013390 109 49 57
-3.998914 19.165890 71.652847 107 48 56
-3.977835 19.218512 71.275162 105 48 55
-3.955820 19.264942 70.880692 104 47 56
-3.932919 19.305323 70.470352 102 48 56
-3.909214 19.339956 70.045601 101 48 55
-3.884819 19.369320 69.608482 100 48 55
-3.859878 19.394056 69.161591 98 48 55
-3.834561 19.414965 68.707977 97 47 55
-3.809064 19.432995 68.251106 95 47 55
-3.783595 19.449200 67.794754 94 46 55
-3.758375 19.464725 67.342857 92 45 53
-3.733624 19.480757 66.899376 91 45 52
-3.709560 19.498478 66.468185 89 45 50
-3.686384 19.519051 66.052925 88 45 50
-3.664281 19.543550 65.656883 87 46 49
-3.643410 19.572962 65.282913 85 45 49
-3.623899 19.608120 64.933311 83 45 48
-3.605846 19.649715 64.609833 81 44 48
-3.589315 19.698269 64.313622 78 43 47
-3.574335 19.754118 64.045219 76 41 46
-3.560905 19.817440 63.804585 73 40 45
-3.548994 19.888233 63.591164 70 38 44
-3.538544 19.966349 63.403915 67 36 42
-3.529475 20.051504 63.241421 65 35 40
-3.521690 20.143301 63.101921 64 34 38
-3.515077 20.241247 62.983433 63 34 38
-3.509517 20.344790 62.883812 62 34 37
-3.504887 20.453323 62.800842 61 33 36
-3.501059 20.566214 62.732250 60 33 35
-3.497914 20.682846 62.675892 60 32 35
-3.495336 20.802612 62.629704 59 32 34
-3.493218 20.924934 62.591759 58 32 34
-3.491463 21.049282 62.560318 57 32 34
-3.489984 21.175167 62.533813 57 32 34
-3.488705 21.302158 62.510899 57 32 35
-3.487562 21.429886 62.490410 56 33 35
-3.486500 21.558025 62.471375 57 33 37
-3.485473 21.686304 62.452976 59 35 39
-3.484444 21.814491 62.434540 60 36 39
-3.483382 21.942392 62.415524 60 36 39
-3.482261 22.069830 62.395424 59 36 38
-3.481054 22.196638 62.373802 58 35 37
-3.479738 22.322653 62.350220 57 35 36
-3.478287 22.447695 62.324219 56 34 35
-3.476672 22.571562 62.295292 56 33 34
-3.474861 22.694023 62.262840 55 33 34
-3.472816 22.814806 62.226200 55 33 34
-3.470495 22.933601 62.184593 54 32 34
-3.467848 23.050060 62.137180 54 32 34
-3.464830 23.163830 62.083099 53 33 34
-3.461382 23.274473 62.021309 53 33 34
-3.457450 23.381582 61.950863 52 33 33
-3.452985 23.484760 61.870861 52 33 34
-3.447942 23.583639 61.780499 51 32 33
-3.442286 23.677908 61.679146 50 32 32
-3.435992 23.767332 61.566372 49 31 32
-3.429051 23.851772 61.442013 48 29 32
-3.421473 23.931210 61.306213 47 29 32
-3.413281 24.005758 61.159447 46 28 32
-3.404523 24.075659 61.002510 46 28 33
-3.395260 24.141298 60.836536 46 28 33
-3.385573 24.203192 60.662971 45 27 33
-3.375556 24.261965 60.483486 46 27 33
-3.454294 -10.952311 64.381050 134 61 79
-3.472038 -10.869073 64.711761 131 59 78
-3.490149 -10.785543 65.049309 128 55 76
-3.508641 -10.701722 65.393959 126 53 75
-3.527532 -10.617617 65.746063 129 56 79
-3.546845 -10.533244 66.106010 136 61 86
-3.566605 -10.448630 66.474297 141 64 88
-3.586841 -10.363804 66.851456 144 64 88
-3.607585 -10.278799 67.238083 148 65 88
-3.628870 -10.193646 67.634789 150 65 87
-3.650730 -10.108377 68.042221 150 64 85
-3.673199 -10.023011 68.460991 149 62 83
-3.696308 -9.937563 68.891716 148 60 79
-3.720089 -9.852035 69.334938 145 56 75
-3.744565 -9.766410 69.791122 143 54 73
-3.769757 -9.680655 70.260635 143 55 74
-3.795675 -9.594712 70.743698 146 58 78
-3.822322 -9.508500 71.240349 149 60 81
-3.849690 -9.421912 71.750435 150 62 84
-3.877759 -9.334812 72.273582 151 63 86
-3.906497 -9.247040 72.809196 152 66 88
-3.935858 -9.158408 73.356430 154 68 91
-3.965786 -9.068715 73.914238 157 71 94
-3.996213 -8.977737 74.481331 160 74 97
-4.027063 -8.885246 75.056305 161 75 98
-4.058251 -8.791011 75.637596 159 73 96
-4.089693 -8.694808 76.223602 156 70 92
-4.121304 -8.596431 76.812767 155 68 89
-4.153004 -8.495697 77.403595 154 66 86
-4.184726 -8.392459 77.994827 153 65 82
-4.216412 -8.286601 78.585388 153 64 80
-4.248024 -8.178056 79.174576 153 63 79
-4.279546 -8.066799 79.762077 153 64 81
-4.310982 -7.952853 80.347984 153 67 84
-4.342362 -7.836278 80.932846 154 70 89
-4.373740 -7.717178 81.517662 156 73 93
-4.405190 -7.595681 82.103828 158 76 97
-4.436807 -7.471940 82.693115 160 80 101
-4.468703 -7.346115 83.287590 162 83 105
-4.501002 -7.218373 83.889565 165 86 108
-4.533832 -7.088867 84.501450 167 86 109
-4.567325 -6.957733 85.125710 167 84 108
-4.601611 -6.825083 85.764717 167 83 106
-4.636809 -6.690995 86.420746 166 82 103
-4.673031 -6.555515 87.095848 165 80 101
-4.710372 -6.418649 87.791817 166 81 100
-4.748913 -6.280369 88.510132 167 82 101
-4.788717 -6.140611 89.251991 168 83 102
-4.829830 -5.999282 90.018265 169 81 103
-4.872282 -5.856258 90.809479 171 82 106
-4.916087 -5.711395 91.625916 172 83 109
-4.961246 -5.564532 92.467598 172 84 111
-5.007751 -5.415493 93.334343 173 85 114
-5.055578 -5.264096 94.225754 173 86 116
-5.104700 -5.110151 95.141281 174 87 119
-5.155079 -4.953468 96.080246 175 90 122
-5.206672 -4.793853 97.041832 177 92 124
-5.259427 -4.631116 98.025070 177 94 124
-5.313286 -4.465068 99.028908 178 97 125
-5.368183 -4.295523 100.052071 178 99 126
-5.424041 -4.122297 101.093163 176 99 124
-5.480774 -3.945212 102.150536 173 99 124
-5.538280 -3.764094 103.222321 173 103 128
-5.596448 -3.578779 104.306473 176 108 135
-5.655149 -3.389108 105.400551 178 113 140
-5.714241 -3.194939 106.501892 180 117 144
-5.773563 -2.996142 107.607544 182 120 147
-5.832944 -2.792606 108.714272 184 122 148
-5.892195 -2.584241 109.818588 186 124 147
-5.951115 -2.370984 110.916748 187 125 145
-6.009494 -2.152798 112.004822 190 128 146
-6.067119 -1.929681 113.078827 194 132 148
-6.123765 -1.701662 114.134590 196 133 149
-6.179207 -1.468805 115.167923 195 131 149
-6.233225 -1.231211 116.174706 195 133 151
-6.285602 -0.989019 117.150909 193 134 153
-6.336133 -0.742402 118.092697 183 130 149
-6.384623 -0.491567 118.996452 178 130 151
-6.430897 -0.236755 119.858917 180 137 159
-6.474799 0.021768 120.677162 179 139 165
-6.516193 0.283710 121.448669 180 142 172
-6.554971 0.548759 122.171410 199 162 195
-6.591045 0.816588 122.843750 233 197 229
-6.624356 1.086863 123.464600 242 208 238
-6.654868 1.359243 124.033279 221 176 212
-6.682570 1.633388 124.549591 200 145 185
-6.707474 1.908963 125.013756 189 130 168
-6.729617 2.185642 125.426445 185 124 159
-6.749052 2.463112 125.788666 184 124 156
-6.765856 2.741078 126.101860 182 124 153
-6.780128 3.019267 126.367874 184 129 154
-6.791989 3.297432 126.588943 185 133 156
-6.801581 3.575357 126.767715 181 132 154
-6.809065 3.852860 126.907204 180 132 153
-6.814629 4.129801 127.010902 180 134 154
-6.818484 4.406085 127.082748 181 136 154
-6.820858 4.681662 127.126991 179 136 152
-6.821999 4.956534 127.148254 179 138 153
-6.822171 5.230755 127.151474 201 162 176
-6.821646 5.504427 127.141685 222 185 199
-6.820694 5.777695 127.123940 214 174 191
-6.819575 6.050738 127.103081 200 160 178
-6.818529 6.323760 127.083588 194 155 175
-6.817770 6.596974 127.069427 182 142 164
-6.817460 6.870581 127.063652 177 136 158
-6.817708 7.144748 127.068291 186 145 167
-6.818558 7.419589 127.084129 196 155 177
-6.819979 7.695143 127.110619 204 161 185
-6.821860 7.971348 127.145668 209 166 191
-6.824007 8.248026 127.185684 200 158 184
-6.826152 8.524875 127.225670 177 137 164
-6.827952 8.801451 127.259216 165 126 154
-6.829001 9.077173 127.278770 170 132 160
-6.828844 9.351329 127.275841 175 138 165
-6.826999 9.623091 127.241440 172 137 162
-6.822976 9.891548 127.166466 172 136 158
-6.816296 10.155724 127.041969 177 142 160
-6.806517 10.414621 126.859718 192 156 172
-6.793259 10.667269 126.612610 209 173 187
-6.776215 10.912754 126.294937 213 177 189
-6.755167 11.150262 125.902649 203 164 177
-6.730001 11.379115 125.433617 192 147 162
-6.700706 11.598797 124.887596 186 138 154
-6.667367 11.808964 124.266220 182 132 147
-6.630160 12.009447 123.572777 180 130 144
-6.589340 12.200249 122.811966 178 130 141
-6.545223 12.381534 121.989708 169 124 132
-6.498164 12.553593 121.112640 163 120 127
-6.448543 12.716814 120.187790 172 132 136
-6.396739 12.871659 119.222290 186 147 150
-6.343125 13.018624 118.223022 196 156 157
-6.288043 13.158211 117.196411 199 158 158
-6.231802 13.290898 116.148193 198 155 153
-6.174668 13.417126 115.083321 193 148 146
-6.116867 13.537286 114.006027 182 135 135
-6.058579 13.651706 112.919662 172 125 126
-5.999949 13.760656 111.826912 175 126 128
-5.941087 13.864354 110.729843 182 133 136
-5.882077 13.962972 109.630013 185 137 142
-5.822986 14.056653 108.528687 190 140 148
-5.763872 14.145528 107.426918 196 144 156
-5.704789 14.229730 106.325722 193 140 155
-5.645795 14.309412 105.226204 176 123 141
-5.586956 14.384749 104.129547 160 106 126
-5.528347 14.455963 103.037201 155 101 120
-5.470056 14.523311 101.950783 155 102 120
-5.412184 14.587103 100.872154 156 104 121
-5.354840 14.647691 99.803391 154 103 120
-5.298141 14.705461 98.746635 154 103 121
-5.242207 14.760827 97.704140 162 109 126
-5.187159 14.814231 96.678154 174 119 137
-5.133115 14.866119 95.670891 180 123 140
-5.080187 14.916940 94.684402 174 113 130
-5.028475 14.967129 93.720604 160 96 111
-4.978072 15.017110 92.781189 150 81 96
-4.929057 15.067284 91.867645 143 72 85
-4.881494 15.118018 90.981178 143 69 82
-4.835435 15.169648 90.122734 147 72 86
-4.790918 15.222475 89.293030 149 74 89
-4.747967 15.276763 88.492500 148 74 89
-4.706593 15.332738 87.721367 146 73 89
-4.666797 15.390594 86.979660 144 72 89
-4.628570 15.450487 86.267181 142 71 88
-4.591892 15.512543 85.583572 142 71 89
-4.556735 15.576850 84.928314 144 72 90
-4.523066 15.643478 84.300789 144 72 90
-4.490845 15.712469 83.700264 144 71 88
-4.460028 15.783839 83.125893 143 70 87
-4.430567 15.857587 82.576805 141 69 85
-4.402412 15.933694 82.052063 140 68 83
-4.375514 16.012135 81.550720 137 66 81
-4.349817 16.092861 81.071793 135 63 78
-4.325271 16.175827 80.614304 132 60 76
-4.301824 16.260973 80.177292 129 58 74
-4.279426 16.348244 79.759842 129 57 73
-4.258027 16.437571 79.361000 128 56 73
-4.237578 16.528887 78.979889 127 56 72
-4.218033 16.622118 78.615601 126 56 72
-4.199344 16.717188 78.267281 127 57 72
-4.181457 16.813978 77.933891 129 58 74
-4.164327 16.912411 77.614639 130 61 74
-4.147907 17.012377 77.308601 129 61 72
-4.132144 17.113743 77.014809 127 59 69
-4.116983 17.216362 76.732239 125 58 67
-4.102367 17.320063 76.459831 124 58 66
-4.088236 17.424654 76.196449 123 58 65
-4.074525 17.529921 75.940910 121 56 62
-4.061167 17.635614 75.691933 118 53 61
-4.048088 17.741461 75.448174 117 51 60
-4.035213 17.847157 75.208206 116 50 59
-4.022461 17.952370 74.970543 116 50 58
-4.009749 18.056734 74.733612 115 49 59
-3.996987 18.159853 74.495758 114 49 58
-3.984086 18.261307 74.255302 114 50 59
-3.970950 18.360641 74.010483 114 50 59
-3.957485 18.457382 73.759521 114 51 60
-3.943595 18.551041 73.500626 114 50 60
-3.929184 18.641113 73.232040 114 50 59
-3.914160 18.727098 72.952034 113 49 58
-3.898439 18.808508 72.659012 113 49 58
-3.881941 18.884878 72.351524 112 49 57
-3.864603 18.955799 72.028374 110 49 57
-3.846374 19.020926 71.688637 109 48 56
-3.827226 19.080002 71.331749 107 48 55
-3.807152 19.132885 70.957603 106 47 55
-3.786172 19.179569 70.566589 104 47 56
-3.764336 19.220196 70.159615 103 48 56
-3.741724 19.255072 69.738159 102 48 55
-3.718444 19.284670 69.304276 101 48 55
-3.694636 19.309639 68.860550 99 48 55
-3.670465 19.330780 68.410049 98 48 55
-3.646116 19.349035 67.956230 97 47 56
-3.621791 19.365461 67.502861 95 46 56
-3.597701 19.381199 67.053871 94 46 55
-3.574058 19.397429 66.613220 92 46 53
-3.551070 19.415339 66.184769 91 46 52
-3.528932 19.436081 65.772156 89 45 51
-3.507820 19.460737 65.378670 87 45 50
-3.487887 19.490284 65.007156 85 45 49
-3.469257 19.525564 64.659927 83 44 48
-3.452024 19.567268 64.338737 80 44 48
-3.436250 19.615917 64.044754 77 43 47
-3.421965 19.671856 63.778511 75 41 46
-3.409169 19.735266 63.540020 72 39 45
-3.397833 19.806154 63.328724 69 38 43
-3.387901 19.884378 63.143620 67 37 41
-3.379299 19.969666 62.983303 65 35 39
-3.371934 20.061617 62.846031 63 34 38
-3.365701 20.159756 62.729858 63 34 37
-3.360485 20.263529 62.632645 62 34 36
-3.356169 20.372343 62.552200 61 34 36
-3.352630 20.485563 62.486244 60 33 35
-3.349754 20.602575 62.432648 60 32 34
-3.347431 20.722773 62.389336 59 31 34
-3.345556 20.845581 62.354393 59 32 34
-3.344035 20.970457 62.326042 58 32 34
-3.342783 21.096914 62.302719 58 32 34
-3.341728 21.224514 62.283047 58 33 35
-3.340805 21.352873 62.265839 58 33 36
-3.339960 21.481665 62.250095 59 34 37
-3.339149 21.610605 62.234978 60 35 39
-3.338333 21.739452 62.219780 61 36 39
-3.337482 21.868004 62.203922 61 36 39
-3.336569 21.996069 62.186890 61 37 39
-3.335566 22.123476 62.168209 60 36 38
-3.334451 22.250050 62.147427 59 35 37
-3.333198 22.375605 62.124069 57 34 36
-3.331778 22.499931 62.097595 56 34 35
-3.330158 22.622791 62.067413 55 33 35
-3.328303 22.743908 62.032829 54 33 35
-3.326170 22.862970 61.993080 54 32 34
-3.323714 22.979628 61.947308 53 33 34
-3.320890 23.093523 61.894665 53 33 34
-3.317641 23.204224 61.834110 53 33 34
-3.313916 23.311317 61.764698 52 33 33
-3.309669 23.414417 61.685539 51 33 33
-3.304857 23.513155 61.595856 51 32 33
-3.299447 23.607225 61.495022 50 31 32
-3.293417 23.696400 61.382629 49 30 32
-3.286759 23.780548 61.258537 48 29 32
-3.279482 23.859659 61.122917 47 29 32
-3.271613 23.933855 60.976257 47 29 32
-3.263197 24.003386 60.819386 47 29 32
-3.254294 24.068651 60.653465 47 28 32
-3.244985 24.130173 60.479954 46 28 32
-3.235360 24.188589 60.300568 47 27 32
-3.320133 -10.967581 64.470810 135 62 79
-3.336902 -10.883296 64.796440 133 61 79
-3.354010 -10.798698 65.128647 130 59 78
-3.371470 -10.713789 65.467697 129 57 78
-3.389302 -10.628580 65.813950 133 60 82
-3.407525 -10.543092 66.167816 139 65 89
-3.426165 -10.457350 66.529770 144 67 90
-3.445251 -10.371388 66.900383 146 66 89
-3.464812 -10.285241 67.280220 149 66 89
-3.484881 -10.198942 67.669922 151 66 88
-3.505490 -10.112521 68.070114 151 65 86
-3.526673 -10.026004 68.481438 150 63 84
-3.548459 -9.939405 68.904480 148 60 80
-3.570878 -9.852729 69.339821 145 56 77
-3.593954 -9.765961 69.787910 143 54 75
-3.617705 -9.679069 70.249123 144 56 77
-3.642145 -9.591998 70.723686 146 59 80
-3.667274 -9.504671 71.211655 148 61 84
-3.693086 -9.416981 71.712875 150 63 86
-3.719562 -9.328794 72.226997 151 64 88
-3.746672 -9.239955 72.753410 152 66 91
-3.774372 -9.150278 73.291306 153 68 93
-3.802610 -9.059561 73.839622 156 70 95
-3.831319 -8.967586 74.397110 160 74 99
-3.860428 -8.874124 74.962349 163 77 100
-3.889857 -8.778948 75.533798 162 75 97
-3.919524 -8.681836 76.109886 159 72 93
-3.949350 -8.582584 76.689041 156 69 89
-3.979258 -8.481012 77.269806 154 66 85
-4.009184 -8.376974 77.850922 153 64 81
-4.039074 -8.270355 78.431320 152 63 79
-4.068892 -8.161091 79.010330 151 62 78
-4.098621 -8.049155 79.587616 152 64 80
-4.128268 -7.934573 80.163307 153 68 85
-4.157861 -7.817406 80.737938 156 72 91
-4.187449 -7.697754 81.312485 157 75 95
-4.217105 -7.575747 81.888359 159 78 99
-4.246920 -7.451535 82.467293 161 81 103
-4.276997 -7.325277 83.051338 162 83 106
-4.307454 -7.197136 83.642761 164 85 109
-4.338414 -7.067265 84.243942 166 85 109
-4.370001 -6.935795 84.857307 166 84 109
-4.402335 -6.802838 85.485184 166 84 108
-4.435532 -6.668468 86.129791 166 84 106
-4.469693 -6.532730 86.793137 166 83 104
-4.504909 -6.395630 87.476974 166 83 102
-4.541256 -6.257140 88.182762 167 83 102
-4.578794 -6.117197 88.911667 168 83 103
-4.617564 -5.975707 89.664520 169 82 104
-4.657596 -5.832551 90.441864 172 83 107
-4.698903 -5.687588 91.243980 174 84 110
-4.741488 -5.540659 92.070908 173 83 111
-4.785342 -5.391595 92.922462 172 83 113
-4.830446 -5.240216 93.798294 171 84 114
-4.876774 -5.086338 94.697906 172 86 118
-4.924295 -4.929774 95.620667 174 91 122
-4.972968 -4.770338 96.565804 175 94 125
-5.022747 -4.607841 97.532425 176 96 125
-5.073580 -4.442101 98.519508 177 99 127
-5.125406 -4.272932 99.525864 180 102 129
-5.178155 -4.100156 100.550171 178 102 127
-5.231747 -3.923594 101.590813 174 99 124
-5.286088 -3.743078 102.646019 173 101 126
-5.341074 -3.558442 103.713737 175 105 131
-5.396583 -3.369529 104.791626 177 110 135
-5.452481 -3.176195 105.877060 178 114 139
-5.508618 -2.978311 106.967148 180 117 142
-5.564830 -2.775765 108.058670 183 120 144
-5.620939 -2.568465 109.148193 185 123 144
-5.676754 -2.356347 110.232018 187 126 145
-5.732075 -2.139371 111.306259 191 130 147
-5.786699 -1.917533 112.366951 196 135 151
-5.840413 -1.690858 113.409973 198 136 153
-5.893003 -1.459409 114.431175 198 135 152
-5.944257 -1.223281 115.426437 195 133 151
-5.993970 -0.982611 116.391777 189 129 147
-6.041946 -0.737566 117.323372 182 128 145
-6.087998 -0.488350 118.217621 187 137 156
-6.131959 -0.235199 119.071259 195 150 171
-6.173676 0.021625 119.881340 187 147 171
-6.213021 0.281833 120.645340 177 140 168
-6.249886 0.545119 121.361176 194 159 190
-6.284184 0.811160 122.027184 228 193 225
-6.315856 1.079624 122.642212 238 203 235
-6.344867 1.350173 123.205544 230 188 222
-6.371201 1.622468 123.716896 221 174 209
-6.394867 1.896177 124.176445 208 155 188
-6.415897 2.170976 124.584816 195 138 169
-6.434342 2.446552 124.942978 188 130 160
-6.450274 2.722612 125.252350 183 127 154
-6.463788 2.998883 125.514755 185 131 156
-6.474998 3.275121 125.732452 185 134 156
-6.484044 3.551112 125.908096 182 133 153
-6.491081 3.826676 126.044746 184 136 156
-6.496294 4.101677 126.145966 185 138 157
-6.499886 4.376024 126.215714 182 135 154
-6.502079 4.649671 126.258301 179 134 152
-6.503115 4.922626 126.278419 181 138 155
-6.503248 5.194946 126.281006 198 156 172
-6.502741 5.466739 126.271156 214 172 189
-6.501852 5.738153 126.253906 208 167 185
-6.500831 6.009369 126.234062 199 158 177
-6.499905 6.280592 126.216080 194 153 174
-6.499275 6.552036 126.203850 183 142 165
-6.499093 6.823899 126.200325 180 138 162
-6.499459 7.096344 126.207436 192 150 174
-6.500407 7.369479 126.225845 201 159 183
-6.501902 7.643337 126.254868 203 161 186
-6.503828 7.917845 126.292274 205 162 188
-6.505994 8.192817 126.334335 199 155 183
-6.508137 8.467937 126.375931 185 142 171
-6.509919 8.742756 126.410545 178 136 165
-6.510947 9.016677 126.430496 181 138 168
-6.510779 9.288979 126.427238 180 139 168
-6.508949 9.558826 126.391708 177 136 163
-6.504987 9.825300 126.314774 177 135 160
-6.498434 10.087419 126.187515 181 139 160
-6.488864 10.344182 126.001694 189 146 165
-6.475916 10.594617 125.750275 195 151 168
-6.459301 10.837813 125.427635 190 144 161
-6.438814 11.072961 125.029808 181 133 150
-6.414350 11.299388 124.554771 178 127 144
-6.385904 11.516586 124.002411 177 125 142
-6.353567 11.724221 123.374474 177 124 139
-6.317512 11.922133 122.674347 179 126 140
-6.277988 12.110336 121.906876 179 129 138
-6.235304 12.289002 121.078041 168 121 127
-6.189808 12.458434 120.194588 158 114 118
-6.141865 12.619029 119.263611 164 123 124
-6.091843 12.771253 118.292282 179 140 140
-6.040102 12.915613 117.287575 192 153 152
-5.986973 13.052616 116.255913 198 158 156
-5.932755 13.182749 115.203079 196 154 152
-5.877703 13.306457 114.134079 189 146 144
-5.822036 13.424139 113.053139 180 135 134
-5.765931 13.536130 111.963676 175 128 128
-5.709525 13.642705 110.868370 180 132 133
-5.652927 13.744094 109.769363 189 140 143
-5.596222 13.840476 108.668243 192 141 146
-5.539474 13.932004 107.566292 192 140 148
-5.482740 14.018818 106.464630 194 139 152
-5.426075 14.101064 105.364319 188 132 147
-5.369539 14.178903 104.266487 171 114 132
-5.313195 14.252523 103.172386 155 98 117
-5.257117 14.322154 102.083458 151 95 113
-5.201392 14.388064 101.001381 154 99 116
-5.146118 14.450577 99.928055 154 101 117
-5.091400 14.510046 98.865532 151 100 115
-5.037351 14.566869 97.816002 152 101 117
-4.984087 14.621471 96.781715 164 113 128
-4.931724 14.674293 95.764915 180 127 142
-4.880373 14.725788 94.767784 183 127 142
-4.830142 14.776408 93.792389 171 111 125
-4.781126 14.826590 92.840584 160 95 108
-4.733409 14.876754 91.914024 153 84 97
-4.687068 14.927302 91.014160 147 75 86
-4.642160 14.978597 90.142136 145 70 82
-4.598731 15.030964 89.298813 146 71 82
-4.556812 15.084696 88.484833 147 72 85
-4.516423 15.140047 87.700554 147 72 87
-4.477570 15.197230 86.946106 146 72 87
-4.440250 15.256427 86.221413 144 71 87
-4.404447 15.317775 85.526184 142 70 86
-4.370138 15.381385 84.859970 142 70 87
-4.337291 15.447329 84.222137 142 70 88
-4.305869 15.515659 83.611992 143 70 88
-4.275831 15.586401 83.028694 143 71 87
-4.247128 15.659554 82.471344 143 70 87
-4.219712 15.735101 81.938972 142 69 86
-4.193531 15.813010 81.430588 141 68 84
-4.168533 15.893240 80.945183 139 67 82
-4.144666 15.975734 80.481728 136 64 79
-4.121878 16.060431 80.039215 132 60 76
-4.100117 16.147268 79.616653 130 58 74
-4.079335 16.236181 79.213104 129 57 73
-4.059483 16.327093 78.827614 128 56 72
-4.040514 16.419937 78.459290 127 56 72
-4.022385 16.514633 78.107239 126 56 72
-4.005048 16.611101 77.770599 127 57 72
-3.988453 16.709225 77.448349 128 58 73
-3.972559 16.808926 77.139717 129 60 73
-3.957319 16.910091 76.843788 127 59 70
-3.942684 17.012592 76.559616 124 57 67
-3.928603 17.116282 76.286186 123 57 66
-3.915023 17.220991 76.022476 123 58 66
-3.901886 17.326532 75.767372 122 57 64
-3.889131 17.432690 75.519699 119 55 62
-3.876694 17.539217 75.278198 117 54 61
-3.864507 17.645845 75.041557 117 52 60
-3.852498 17.752274 74.808365 116 51 59
-3.840591 17.858170 74.577156 116 50 59
-3.828707 17.963173 74.346375 114 49 58
-3.816760 18.066887 74.114388 113 48 58
-3.804665 18.168894 73.879532 113 49 58
-3.792333 18.268745 73.640060 113 49 59
-3.779672 18.365971 73.394218 113 49 59
-3.766592 18.460077 73.140228 113 48 59
-3.753002 18.550571 72.876343 113 48 58
-3.738816 18.636951 72.600861 113 48 57
-3.723950 18.718731 72.312195 112 49 57
-3.708332 18.795452 72.008919 112 49 57
-3.691900 18.866707 71.689842 111 49 57
-3.674608 18.932158 71.354073 109 48 56
-3.656429 18.991547 71.001053 108 48 56
-3.637356 19.044737 70.630692 106 47 56
-3.617410 19.091726 70.243393 105 47 56
-3.596640 19.132658 69.840073 104 47 56
-3.575121 19.167839 69.422218 103 47 55
-3.552960 19.197744 68.991890 101 48 55
-3.530289 19.223022 68.551666 100 48 55
-3.507267 19.244473 68.104614 99 48 56
-3.484071 19.263035 67.654190 98 47 56
-3.460894 19.279762 67.204140 96 47 56
-3.437939 19.295795 66.758400 95 47 55
-3.415410 19.312311 66.320915 93 46 54
-3.393504 19.330494 65.895546 91 46 53
-3.372408 19.351492 65.485901 90 46 52
-3.352292 19.376385 65.095284 88 45 51
-3.333302 19.406151 64.726540 85 45 50
-3.315558 19.441631 64.381981 82 44 49
-3.299150 19.483519 64.063362 79 43 48
-3.284138 19.532337 63.771870 77 42 47
-3.270553 19.588438 63.508064 75 41 46
-3.258394 19.652006 63.271954 72 39 44
-3.247634 19.723055 63.063023 69 38 43
-3.238223 19.801453 62.880283 67 37 41
-3.230090 19.886929 62.722359 65 36 39
-3.223147 19.979099 62.587536 63 35 37
-3.217294 20.077490 62.473873 63 35 37
-3.212422 20.181555 62.379269 62 34 36
-3.208419 20.290707 62.301533 61 34 35
-3.205168 20.404312 62.238407 60 33 35
-3.202559 20.521763 62.187759 60 32 35
-3.200487 20.642452 62.147518 60 32 34
-3.198851 20.765802 62.115753 60 32 34
-3.197560 20.891270 62.090687 60 33 34
-3.196533 21.018358 62.070736 60 33 34
-3.195696 21.146627 62.054493 60 33 35
-3.194989 21.275688 62.040760 60 34 37
-3.194358 21.405197 62.028507 61 35 38
-3.193758 21.534866 62.016861 62 36 39
-3.193153 21.664446 62.005104 62 36 39
-3.192509 21.793716 61.992611 62 37 39
-3.191801 21.922482 61.978844 63 37 39
-3.191000 22.050558 61.963306 61 37 39
-3.190085 22.177765 61.945526 59 36 38
-3.189028 22.303905 61.924999 58 35 37
-3.187801 22.428761 61.901173 56 34 36
-3.186373 22.552092 61.873440 54 33 35
-3.184707 22.673613 61.841103 53 32 35
-3.182765 22.793013 61.803387 53 32 34
-3.180501 22.909933 61.759430 52 33 34
-3.177872 23.024017 61.708378 52 33 34
-3.174824 23.134832 61.649197 52 33 33
-3.171310 23.241970 61.580956 51 33 32
-3.167284 23.345041 61.502769 50 33 32
-3.162706 23.443686 61.413872 50 32 32
-3.157545 23.537601 61.313656 49 31 32
-3.151781 23.626564 61.201733 49 30 32
-3.145408 23.710457 61.077984 48 29 32
-3.138436 23.789270 60.942596 47 29 32
-3.130891 23.863138 60.796093 47 29 32
-3.122818 23.932323 60.639328 48 29 32
-3.114277 23.997232 60.473484 48 29 32
-3.105346 24.058395 60.300053 49 29 33
-3.096113 24.116467 60.120770 49 29 33
-3.184994 -10.980815 64.548607 135 62 78
-3.200788 -10.895432 64.868698 134 62 79
-3.216894 -10.809719 65.195114 133 61 80
-3.233326 -10.723680 65.528137 133 61 81
-3.250102 -10.637327 65.868111 135 62 84
-3.267241 -10.550684 66.215462 139 65 88
-3.284769 -10.463781 66.570694 143 66 90
-3.302712 -10.376654 66.934341 146 67 90
-3.321101 -10.289338 67.307022 150 68 91
-3.339966 -10.201868 67.689339 152 68 91
-3.359337 -10.114277 68.081932 152 66 89
-3.379248 -10.026591 68.485451 152 64 87
-3.399726 -9.938828 68.900482 150 61 84
-3.420801 -9.850992 69.327599 147 59 81
-3.442496 -9.763071 69.767265 146 58 80
-3.464828 -9.675036 70.219864 147 59 81
-3.487809 -9.586833 70.685608 148 61 83
-3.511442 -9.498385 71.164566 149 62 86
-3.535720 -9.409589 71.656586 150 64 89
-3.560625 -9.320312 72.161316 151 65 91
-3.586128 -9.230399 72.678177 152 66 93
-3.612188 -9.139668 73.206322 153 68 95
-3.638754 -9.047919 73.744736 156 70 96
-3.665765 -8.954933 74.292145 162 74 101
-3.693151 -8.860488 74.847160 166 78 103
-3.720836 -8.764354 75.408241 164 76 99
-3.748743 -8.666314 75.973816 160 72 94
-3.776795 -8.566165 76.542328 157 69 89
-3.804922 -8.463732 77.112358 154 66 85
-3.833060 -8.358866 77.682632 152 64 81
-3.861160 -8.251458 78.252113 151 62 79
-3.889187 -8.141444 78.820129 150 63 80
-3.917128 -8.028804 79.386391 151 66 83
-3.944987 -7.913558 79.950989 154 70 88
-3.972791 -7.795771 80.514488 157 74 93
-4.000590 -7.675543 81.077873 159 77 98
-4.028451 -7.553005 81.642517 161 80 102
-4.056460 -7.428302 82.210167 162 82 105
-4.084717 -7.301595 82.782837 163 84 107
-4.113332 -7.173043 83.362755 164 84 109
-4.142421 -7.042797 83.952278 165 85 110
-4.172101 -6.910987 84.553787 166 84 109
-4.202485 -6.777721 85.169563 166 84 109
-4.233680 -6.643074 85.801788 167 84 107
-4.265785 -6.507086 86.452431 167 84 106
-4.298882 -6.369764 87.123192 168 84 104
-4.333042 -6.231080 87.815498 167 82 103
-4.368322 -6.090971 88.530495 168 81 103
-4.404761 -5.949347 89.268990 169 81 104
-4.442386 -5.806087 90.031509 172 82 108
-4.481210 -5.661057 90.818352 174 83 111
-4.521237 -5.514100 91.629555 173 83 112
-4.562459 -5.365050 92.464966 171 83 113
-4.604859 -5.213734 93.324280 170 85 115
-4.648415 -5.059970 94.207008 171 88 119
-4.693099 -4.903580 95.112587 173 92 123
-4.738874 -4.744377 96.040291 174 96 126
-4.785699 -4.582181 96.989273 175 97 127
-4.833528 -4.416809 97.958580 177 99 128
-4.882303 -4.248083 98.947083 179 102 130
-4.931961 -4.075824 99.953476 178 103 128
-4.982427 -3.899859 100.976250 174 99 124
-5.033614 -3.720017 102.013634 172 99 123
-5.085426 -3.536138 103.063675 174 102 126
-5.137747 -3.348063 104.124031 175 107 130
-5.190451 -3.155648 105.192154 177 111 133
-5.243395 -2.958765 106.265144 179 115 136
-5.296426 -2.757302 107.339905 182 119 139
-5.349375 -2.551165 108.412987 184 123 141
-5.402061 -2.340287 109.480751 186 126 143
-5.454296 -2.124631 110.539368 191 131 147
-5.505886 -1.904188 111.584915 195 134 150
-5.556629 -1.678981 112.613304 198 137 153
-5.606324 -1.449069 113.620445 200 138 155
-5.654771 -1.214547 114.602287 196 134 151
-5.701774 -0.975545 115.554878 188 128 144
-5.747147 -0.732229 116.474419 184 127 144
-5.790712 -0.484796 117.357346 190 137 155
-5.832313 -0.233479 118.200432 196 150 168
-5.871800 0.021466 119.000710 186 145 166
-5.909052 0.279755 119.755676 176 139 162
-5.943964 0.541086 120.463219 189 154 182
-5.976452 0.805141 121.121643 212 176 206
-6.006458 1.071591 121.729752 217 179 210
-6.033943 1.340104 122.286766 222 184 214
-6.058890 1.610344 122.792366 236 202 228
-6.081307 1.881980 123.246674 231 191 215
-6.101220 2.154691 123.650238 206 157 181
-6.118677 2.428166 124.004028 191 138 160
-6.133745 2.702115 124.309395 193 140 160
-6.146513 2.976267 124.568176 194 143 161
-6.157095 3.250380 124.782631 185 135 154
-6.165621 3.524243 124.955429 180 132 149
-6.172245 3.797681 125.089668 187 139 157
-6.177144 4.070560 125.188957 190 142 160
-6.180517 4.342795 125.257309 184 136 155
-6.182578 4.614346 125.299072 181 134 152
-6.183560 4.885224 125.318985 182 137 153
-6.183710 5.155495 125.322029 190 145 162
-6.183279 5.425269 125.313293 200 156 173
-6.182515 5.694698 125.297798 201 158 176
-6.181653 5.963967 125.280350 197 154 175
-6.180912 6.233282 125.265320 192 149 171
-6.180478 6.502855 125.256523 181 139 163
-6.180492 6.772881 125.256798 178 135 161
-6.181043 7.043520 125.267967 189 147 173
-6.182157 7.314874 125.290550 202 160 186
-6.183794 7.586966 125.323723 206 163 190
-6.185835 7.859715 125.365089 202 158 187
-6.188090 8.132924 125.410797 194 150 181
-6.190300 8.406268 125.455582 190 146 177
-6.192136 8.679282 125.492790 189 144 177
-6.193215 8.951362 125.514656 189 143 176
-6.193111 9.221774 125.512543 187 140 172
-6.191374 9.489675 125.477341 185 138 167
-6.187552 9.754137 125.399895 184 136 162
-6.181206 10.014174 125.271263 185 135 159
-6.171930 10.268784 125.083275 188 136 159
-6.159380 10.516994 124.828949 186 134 155
-6.143284 10.757895 124.502724 177 124 144
-6.123451 10.990685 124.100784 170 116 135
-6.099787 11.214696 123.621193 170 116 133
-6.072292 11.429431 123.063980 173 117 132
-6.041060 11.634565 122.431023 175 120 133
-6.006265 11.829951 121.725830 180 126 136
-5.968149 12.015613 120.953354 181 130 136
-5.927013 12.191733 120.119690 172 123 127
-5.883196 12.358625 119.231667 161 116 119
-5.837050 12.516696 118.296455 163 122 123
-5.788933 12.666421 117.321289 176 136 137
-5.739190 12.808312 116.313164 190 151 151
-5.688140 12.942885 115.278572 198 158 159
-5.636070 13.070630 114.223289 196 154 155
-5.583227 13.192000 113.152351 187 144 145
-5.529821 13.307400 112.070007 182 137 138
-5.476022 13.417167 110.979683 182 135 136
-5.421963 13.521585 109.884087 183 135 137
-5.367749 13.620889 108.785370 189 139 144
-5.313460 13.715262 107.685135 196 144 151
-5.259164 13.804871 106.584724 199 144 154
-5.204913 13.889858 105.485260 194 136 149
-5.150763 13.970377 104.387817 181 122 138
-5.096770 14.046600 103.293587 165 105 123
-5.042999 14.118725 102.203827 152 92 111
-4.989522 14.186986 101.120026 148 89 108
-4.936422 14.251666 100.043892 151 94 111
-4.883794 14.313089 98.977310 151 97 113
-4.831741 14.371624 97.922379 147 95 111
-4.780372 14.427672 96.881294 150 99 114
-4.729796 14.481664 95.856308 167 116 131
-4.680126 14.534049 94.849678 187 133 148
-4.631470 14.585284 93.863571 188 132 147
-4.583925 14.635820 92.900017 174 114 129
-4.537586 14.686101 91.960876 162 98 112
-4.492530 14.736546 91.047760 156 87 101
-4.448828 14.787550 90.162064 150 78 91
-4.406532 14.839474 89.304878 146 71 85
-4.365683 14.892637 88.477020 146 69 83
-4.326308 14.947325 87.679031 146 70 83
-4.288422 15.003778 86.911201 146 71 85
-4.252026 15.062201 86.173584 145 71 85
-4.217111 15.122759 85.465996 143 70 85
-4.183660 15.185575 84.788055 141 70 85
-4.151644 15.250741 84.139206 142 70 86
-4.121029 15.318316 83.518738 142 70 86
-4.091774 15.388333 82.925850 142 70 86
-4.063836 15.460802 82.359634 142 70 86
-4.037163 15.535703 81.819077 142 70 86
-4.011707 15.613007 81.303177 142 69 85
-3.987415 15.692663 80.810852 140 68 84
-3.964233 15.774620 80.341042 138 66 81
-3.942110 15.858809 79.892685 135 63 78
-3.920993 15.945157 79.464729 132 60 75
-3.900834 16.033594 79.056168 130 58 74
-3.881583 16.124046 78.666023 128 57 73
-3.863195 16.216434 78.293350 127 56 72
-3.845624 16.310686 77.937263 126 56 71
-3.828828 16.406719 77.596855 125 56 71
-3.812763 16.504454 77.271286 126 57 71
-3.797382 16.603767 76.959549 126 58 71
-3.782645 16.704586 76.660889 126 58 71
-3.768510 16.806803 76.374420 125 58 69
-3.754930 16.910286 76.099213 123 57 67
-3.741859 17.014891 75.834297 122 57 66
-3.729245 17.120455 75.578659 121 57 65
-3.717036 17.226791 75.331215 119 56 63
-3.705174 17.333689 75.090820 117 55 62
-3.693600 17.440908 74.856262 117 54 61
-3.682249 17.548178 74.626213 116 53 61
-3.671054 17.655209 74.399338 116 52 61
-3.659943 17.761667 74.174156 115 51 60
-3.648841 17.867197 73.949150 113 49 59
-3.637667 17.971407 73.722710 113 49 59
-3.626342 18.073883 73.493187 112 49 59
-3.614780 18.174177 73.258858 112 48 59
-3.602895 18.271822 73.017982 112 47 58
-3.590599 18.366333 72.768799 112 47 58
-3.577809 18.457212 72.509575 113 47 57
-3.564439 18.543964 72.238625 113 48 58
-3.550414 18.626106 71.954376 113 49 58
-3.535662 18.703184 71.655426 113 50 59
-3.520127 18.774792 71.340584 112 49 59
-3.503764 18.840590 71.008965 110 49 58
-3.486547 18.900330 70.660042 108 49 57
-3.468472 18.953876 70.293724 106 48 57
-3.449559 19.001225 69.910416 105 48 56
-3.429854 19.042524 69.511055 104 48 56
-3.409430 19.078079 69.097130 103 48 55
-3.388388 19.108370 68.670692 102 48 55
-3.366857 19.134035 68.234322 100 48 55
-3.344986 19.155878 67.791084 99 48 55
-3.322946 19.174835 67.344421 98 48 55
-3.300922 19.191956 66.898064 97 47 55
-3.279107 19.208374 66.455948 95 47 55
-3.257694 19.225266 66.021988 93 47 54
-3.236874 19.243809 65.600044 91 46 54
-3.216826 19.265150 65.193726 89 46 53
-3.197710 19.290369 64.806313 87 45 52
-3.179667 19.320440 64.440659 84 45 51
-3.162813 19.356205 64.099083 81 44 49
-3.147234 19.398355 63.783344 78 43 48
-3.132988 19.447422 63.494629 76 42 47
-3.120105 19.503761 63.233528 74 41 45
-3.108585 19.567562 63.000072 71 40 44
-3.098405 19.638844 62.793758 69 38 43
-3.089517 19.717482 62.613628 67 37 41
-3.081854 19.803215 62.458328 64 36 39
-3.075333 19.895668 62.326172 63 35 37
-3.069860 19.994371 62.215240 61 35 37
-3.065331 20.098789 62.123451 61 34 36
-3.061639 20.208340 62.048634 61 34 35
-3.058673 20.322392 61.988533 60 33 35
-3.056329 20.440342 61.941029 60 32 35
-3.054505 20.561584 61.904053 61 32 35
-3.053104 20.685535 61.875656 60 33 35
-3.052038 20.811655 61.854065 60 33 35
-3.051229 20.939440 61.837673 60 33 35
-3.050607 21.068443 61.825062 61 33 36
-3.050111 21.198265 61.814995 61 34 37
-3.049687 21.328558 61.806419 62 35 38
-3.049294 21.459023 61.798447 63 36 39
-3.048892 21.589399 61.790314 63 37 39
-3.048451 21.719456 61.781376 63 37 39
-3.047943 21.848989 61.771069 63 37 39
-3.047341 21.977806 61.758869 62 38 39
-3.046621 22.105713 61.744278 60 36 38
-3.045757 22.232508 61.726768 58 35 37
-3.044721 22.357964 61.705780 56 34 36
-3.043483 22.481833 61.680679 54 33 35
-3.042006 22.603825 61.650757 53 32 35
-3.040254 22.723623 61.615238 52 32 34
-3.038182 22.840868 61.573246 52 33 33
-3.035749 22.955200 61.523937 52 33 33
-3.032904 23.066187 61.466274 51 33 33
-3.029600 23.173422 61.399330 50 33 32
-3.025796 23.276514 61.322235 50 33 32
-3.021454 23.375111 61.234234 49 32 31
-3.016544 23.468914 61.134731 49 31 32
-3.011050 23.557709 61.023365 48 30 31
-3.004964 23.641376 60.900032 47 30 31
-2.998298 23.719925 60.764950 47 29 31
-2.991080 23.793491 60.618656 47 29 31
-2.983352 23.862352 60.462036 48 29 32
-2.975174 23.926924 60.296307 49 29 32
-2.966622 23.987747 60.122974 50 29 33
-2.957781 24.045481 59.943810 51 30 34
-3.048913 -10.991859 64.613533 134 61 76
-3.063735 -10.905335 64.927658 135 62 79
-3.078844 -10.818464 65.247856 134 63 81
-3.094254 -10.731253 65.574417 134 63 83
-3.109980 -10.643721 65.907700 136 63 85
-3.126045 -10.555892 66.248146 138 64 87
-3.142471 -10.467800 66.596252 142 65 89
-3.159285 -10.379481 66.952583 146 67 91
-3.176515 -10.290974 67.317726 149 69 93
-3.194190 -10.202315 67.692307 152 69 93
-3.212342 -10.113541 68.076981 152 67 92
-3.230999 -10.024676 68.472366 152 65 90
-3.250190 -9.935740 68.879082 151 63 88
-3.269943 -9.846741 69.297676 149 61 86
-3.290278 -9.757666 69.728638 149 61 86
-3.311214 -9.668486 70.172318 149 61 86
-3.332762 -9.579150 70.628960 150 62 87
-3.354923 -9.489583 71.098610 151 63 90
-3.377692 -9.399680 71.581131 151 64 92
-3.401051 -9.309314 72.076164 152 64 93
-3.424972 -9.218327 72.583115 152 65 94
-3.449418 -9.126539 73.101166 153 66 95
-3.474337 -9.033752 73.629272 156 68 96
-3.499672 -8.939750 74.166183 162 72 100
-3.525357 -8.844309 74.710495 166 77 102
