ply
format ascii 1.0
element vertex 1198
property float x
property float y
property float z
property uchar red
property uchar green
property uchar blue
end_header
-0.366618 5.973448 58.853703 254 254 254
-0.366655 6.100942 58.859745 254 254 254
-0.366701 6.228608 58.867149 254 254 254
-0.366755 6.356441 58.875816 254 254 254
-0.366817 6.484443 58.885674 254 254 254
-0.366885 6.612615 58.896664 254 254 254
-0.366961 6.740958 58.908741 252 253 253
-0.367042 6.869478 58.921890 253 253 253
-0.367131 6.998180 58.936089 254 254 254
-0.367226 7.127070 58.951340 254 254 254
-0.367327 7.256154 58.967628 254 254 254
-0.367435 7.385435 58.984936 253 253 253
-0.367549 7.514918 59.003242 251 252 251
-0.367669 7.644603 59.022491 252 252 252
-0.367794 7.774485 59.042610 253 253 253
-0.367925 7.904558 59.063515 249 250 250
-0.368059 8.034810 59.085072 245 246 246
-0.368196 8.165224 59.107121 248 249 249
-0.368336 8.295776 59.129478 250 251 251
-0.368475 8.426438 59.151939 243 244 243
-0.368615 8.557178 59.174255 239 239 238
-0.368751 8.687955 59.196182 245 245 244
-0.368883 8.818727 59.217438 252 252 252
-0.369010 8.949449 59.237743 254 254 254
-0.369129 9.080070 59.256828 250 250 250
-0.369238 9.210540 59.274414 242 243 241
-0.369337 9.340809 59.290245 243 244 243
-0.369423 9.470829 59.304081 251 251 251
-0.369496 9.600554 59.315731 254 254 254
-0.369554 9.729943 59.325024 253 254 253
-0.369596 9.858960 59.331837 252 253 253
-0.369623 9.987576 59.336098 252 252 253
-0.369633 10.115773 59.337788 252 253 253
-0.369628 10.243539 59.336937 253 254 254
-0.369607 10.370872 59.333633 253 253 254
-0.369572 10.497779 59.328007 250 251 254
-0.369524 10.624279 59.320240 246 247 252
-0.369463 10.750396 59.310539 228 231 240
-0.369393 10.876162 59.299156 205 210 225
-0.369313 11.001613 59.286343 208 213 227
-0.369226 11.126790 59.272366 235 239 245
-0.369133 11.251737 59.257492 249 252 254
-0.369036 11.376495 59.241970 247 251 254
-0.368937 11.501104 59.226025 246 250 254
-0.368836 11.625600 59.209850 241 246 251
-0.368735 11.750013 59.193611 233 238 244
-0.368634 11.874370 59.177437 231 235 241
-0.368534 11.998685 59.161407 238 241 244
-0.368436 12.122971 59.145569 242 246 246
-0.368338 12.247232 59.129944 242 245 245
-0.368242 12.371469 59.114517 245 247 247
-0.368147 12.495674 59.099262 250 252 251
-0.368053 12.619841 59.084133 252 252 252
-0.367959 12.743957 59.069077 252 253 253
-0.367866 12.868013 59.054039 254 254 254
-0.367772 12.992000 59.038979 253 253 254
-0.367678 13.115906 59.023849 247 248 250
-0.367583 13.239725 59.008621 240 241 245
-0.367487 13.363451 58.993275 236 238 243
-0.367391 13.487082 58.977795 233 235 242
-0.367293 13.610610 58.962170 228 230 238
-0.367195 13.734036 58.946388 222 223 232
-0.367096 13.857355 58.930443 217 218 227
-0.366995 13.980558 58.914299 215 215 225
-0.366893 14.103640 58.897938 211 211 220
-0.366790 14.226585 58.881306 200 199 209
-0.366684 14.349379 58.864346 190 188 198
-0.366576 14.471998 58.846973 187 185 194
-0.366464 14.594421 58.829109 183 181 190
-0.366350 14.716618 58.810650 173 170 180
-0.366230 14.838560 58.791500 161 158 168
-0.366106 14.960215 58.771542 153 150 161
-0.365976 15.081552 58.750683 147 143 155
-0.365840 15.202540 58.728825 140 135 148
-0.365697 15.323154 58.705894 133 126 140
-0.365547 15.443370 58.681824 127 118 133
-0.365390 15.563169 58.656574 122 111 127
-0.365225 15.682536 58.630119 116 102 119
-0.365053 15.801467 58.602467 103 88 103
-0.364873 15.919957 58.573631 83 68 80
-0.364686 16.038010 58.543655 66 52 61
-0.364493 16.155632 58.512585 57 45 51
-0.364293 16.272835 58.480488 55 44 47
-0.364087 16.389629 58.447437 53 44 46
-0.363876 16.506035 58.413502 52 44 46
-0.363659 16.622063 58.378761 51 43 46
-0.363438 16.737730 58.343288 49 43 45
-0.363213 16.853054 58.307156 47 42 43
-0.362984 16.968050 58.270424 44 40 41
-0.362752 17.082731 58.233162 43 39 40
-0.362517 17.197113 58.195438 42 39 41
-0.362280 17.311213 58.157307 44 42 43
-0.362040 17.425045 58.118835 48 45 48
-0.361799 17.538631 58.080093 52 50 53
-0.361556 17.651993 58.041161 58 55 58
-0.361313 17.765156 58.002129 63 60 63
-0.361070 17.878147 57.963093 67 64 66
-0.360827 17.991009 57.924179 68 65 67
-0.360586 18.103777 57.885494 67 65 66
-0.360348 18.216501 57.847206 66 64 65
-0.360113 18.329231 57.809456 64 62 63
-0.359882 18.442030 57.772434 59 57 58
-0.359657 18.554958 57.736313 53 51 52
-0.359439 18.668087 57.701286 46 44 45
-0.359229 18.781488 57.667564 42 40 41
-0.359028 18.895229 57.635319 40 38 38
-0.358838 19.009388 57.604763 39 37 36
-0.358659 19.124035 57.576069 38 36 35
-0.358493 19.239235 57.549408 37 35 34
-0.358340 19.355051 57.524914 36 35 35
-0.358202 19.471535 57.502705 36 35 35
-0.358078 19.588726 57.482849 36 34 35
-0.357969 19.706648 57.465374 36 34 35
-0.357875 19.825310 57.450268 35 34 34
-0.357795 19.944700 57.437447 35 33 33
-0.357729 20.064793 57.426788 35 33 32
-0.357675 20.185535 57.418110 33 32 31
-0.357632 20.306862 57.411190 32 31 31
-0.357598 20.428684 57.405750 31 30 30
-0.357571 20.550896 57.401463 31 30 30
-0.357550 20.673384 57.397987 31 30 29
-0.357531 20.796021 57.394966 31 29 28
-0.357512 20.918671 57.392021 30 29 28
-0.357492 21.041201 57.388786 30 28 28
-0.357468 21.163479 57.384899 29 28 28
-0.357438 21.285379 57.380039 28 27 27
-0.357400 21.406786 57.373913 27 27 27
-0.357352 21.527592 57.366261 26 27 25
-0.357294 21.647713 57.356880 25 26 24
-0.357223 21.767075 57.345600 24 26 23
-0.357141 21.885622 57.332317 24 25 23
-0.239732 5.085002 58.849491 252 250 251
-0.239698 5.211119 58.841103 252 250 251
-0.239673 5.337416 58.835102 253 253 253
-0.239658 5.463902 58.831409 254 254 254
-0.239652 5.590581 58.829918 254 254 254
-0.239654 5.717454 58.830494 254 254 254
-0.239665 5.844522 58.833004 254 254 254
-0.239682 5.971784 58.837311 254 254 254
-0.239706 6.099235 58.843273 254 254 254
-0.239737 6.226875 58.850777 254 254 254
-0.239773 6.354702 58.859707 254 254 254
-0.239815 6.482714 58.869972 254 254 254
-0.239862 6.610913 58.881508 254 254 254
-0.239914 6.739299 58.894245 254 254 254
-0.239971 6.867877 58.908150 254 254 254
-0.240032 6.996648 58.923187 254 254 254
-0.240098 7.125617 58.939320 254 254 254
-0.240168 7.254787 58.956528 254 254 254
-0.240242 7.384161 58.974766 252 253 252
-0.240320 7.513738 58.993977 250 251 250
-0.240402 7.643516 59.014099 252 252 251
-0.240488 7.773487 59.035038 253 254 254
-0.240576 7.903643 59.056675 251 252 252
-0.240666 8.033967 59.078869 250 251 251
-0.240758 8.164440 59.101448 252 252 252
-0.240851 8.295035 59.124203 252 253 253
-0.240943 8.425724 59.146927 249 249 249
-0.241035 8.556469 59.169353 247 247 247
-0.241124 8.687229 59.191235 250 250 250
-0.241210 8.817962 59.212292 253 253 253
-0.241291 8.948617 59.232243 254 254 254
-0.241367 9.079147 59.250813 249 250 249
-0.241436 9.209502 59.267738 241 242 240
-0.241497 9.339631 59.282764 241 242 241
-0.241549 9.469488 59.295685 249 250 249
-0.241593 9.599029 59.306305 253 253 253
-0.241626 9.728214 59.314484 252 252 252
-0.241649 9.857014 59.320126 251 252 252
-0.241661 9.985403 59.323185 250 251 252
-0.241663 10.113366 59.323669 251 252 253
-0.241655 10.240898 59.321644 252 253 253
-0.241637 10.368003 59.317219 251 252 254
-0.241610 10.494693 59.310562 249 249 254
-0.241575 10.620991 59.301876 244 244 251
-0.241532 10.746928 59.291412 226 226 236
-0.241483 10.872540 59.279415 203 203 219
-0.241429 10.997871 59.266186 206 208 223
-0.241371 11.122964 59.251984 234 236 244
-0.241311 11.247864 59.237095 249 251 254
-0.241248 11.372616 59.221767 249 252 254
-0.241185 11.497259 59.206223 247 251 253
-0.241122 11.621831 59.190651 238 243 247
-0.241059 11.746361 59.175209 228 233 238
-0.240997 11.870870 59.159996 235 239 242
-0.240936 11.995374 59.145081 246 248 250
-0.240876 12.119881 59.130493 242 246 246
-0.240818 12.244390 59.116219 239 242 242
-0.240761 12.368896 59.102226 245 247 247
-0.240705 12.493388 59.088455 249 251 250
-0.240650 12.617856 59.074841 249 251 250
-0.240595 12.742282 59.061310 250 251 251
-0.240540 12.866652 59.047791 253 254 254
-0.240484 12.990951 59.034210 254 254 254
-0.240428 13.115165 59.020515 250 250 252
-0.240372 13.239286 59.006668 242 243 247
-0.240315 13.363306 58.992634 236 237 244
-0.240257 13.487218 58.978394 234 235 242
-0.240198 13.611017 58.963932 231 232 241
-0.240138 13.734701 58.949242 225 225 234
-0.240077 13.858263 58.934303 219 219 227
-0.240015 13.981698 58.919102 216 216 225
-0.239952 14.104997 58.903606 213 212 221
-0.239888 14.228148 58.887772 201 200 207
-0.239822 14.351133 58.871540 189 187 195
-0.239754 14.473932 58.854836 187 184 191
-0.239683 14.596522 58.837582 184 181 188
-0.239610 14.718874 58.819664 173 169 177
-0.239534 14.840956 58.800991 159 156 164
-0.239455 14.962735 58.781445 149 146 156
-0.239371 15.084182 58.760929 143 140 151
-0.239283 15.205261 58.739334 137 132 144
-0.239190 15.325945 58.716587 130 123 137
-0.239093 15.446209 58.692612 124 115 131
-0.238990 15.566030 58.667358 118 108 124
-0.238882 15.685393 58.640800 110 97 113
-0.238768 15.804288 58.612926 95 81 95
-0.238649 15.922709 58.583759 77 63 75
-0.238525 16.040659 58.553326 64 51 60
-0.238396 16.158142 58.521679 58 46 52
-0.238263 16.275169 58.488880 55 45 49
-0.238125 16.391750 58.454998 53 45 47
-0.237983 16.507904 58.420120 52 45 46
-0.237837 16.623642 58.384312 51 44 46
-0.237688 16.738985 58.347664 49 43 44
-0.237535 16.853951 58.310253 47 41 43
-0.237380 16.968555 58.272163 44 39 40
-0.237222 17.082819 58.233463 43 39 39
-0.237062 17.196758 58.194233 43 39 40
-0.236901 17.310390 58.154545 45 41 43
-0.236738 17.423742 58.114483 48 44 47
-0.236573 17.536831 58.074127 52 49 51
-0.236408 17.649685 58.033569 58 54 56
-0.236242 17.762333 57.992920 62 59 61
-0.236077 17.874811 57.952278 66 63 65
-0.235912 17.987158 57.911781 67 64 66
-0.235748 18.099417 57.871555 66 63 65
-0.235586 18.211641 57.831776 64 62 63
-0.235426 18.323879 57.792583 62 59 60
-0.235270 18.436201 57.754177 57 55 56
-0.235117 18.548670 57.716740 50 49 49
-0.234970 18.661352 57.680466 44 43 43
-0.234827 18.774326 57.645569 40 39 39
-0.234692 18.887661 57.612232 38 37 36
-0.234563 19.001434 57.580658 37 36 35
-0.234442 19.115715 57.551022 37 36 35
-0.234330 19.230572 57.523491 37 35 34
-0.234227 19.346066 57.498203 36 35 35
-0.234134 19.462242 57.475262 36 34 35
-0.234050 19.579144 57.454731 36 34 35
-0.233976 19.696793 57.436638 36 34 35
-0.233912 19.815195 57.420956 36 34 35
-0.233858 19.934338 57.407600 36 34 34
-0.233813 20.054184 57.396423 35 33 33
-0.233775 20.174685 57.387249 34 32 33
-0.233745 20.295769 57.379829 33 31 32
-0.233721 20.417343 57.373878 32 30 30
-0.233701 20.539299 57.369068 31 30 29
-0.233685 20.661520 57.365051 31 30 29
-0.233670 20.783871 57.361439 31 30 29
-0.233655 20.906221 57.357864 31 29 28
-0.233639 21.028429 57.353951 30 29 28
-0.233621 21.150368 57.349346 29 29 27
-0.233598 21.271904 57.343712 27 28 27
-0.233569 21.392921 57.336758 27 28 27
-0.233535 21.513327 57.328243 25 27 26
-0.233493 21.633024 57.317955 25 27 25
-0.233443 21.751947 57.305748 24 26 24
-0.233385 21.870049 57.291519 24 25 23
-0.233319 21.987289 57.275215 24 24 23
-0.112849 5.083945 58.837261 252 248 249
-0.112830 5.209930 58.827675 250 245 247
-0.112817 5.336103 58.820625 252 249 250
-0.112808 5.462474 58.816036 254 254 254
-0.112804 5.589051 58.813816 254 254 254
-0.112804 5.715836 58.813839 254 254 254
-0.112808 5.842831 58.815975 254 254 254
-0.112816 5.970035 58.820080 254 254 254
-0.112827 6.097447 58.826023 254 254 254
-0.112842 6.225066 58.833675 254 254 254
-0.112860 6.352889 58.842915 254 254 254
-0.112880 6.480916 58.853642 254 254 254
-0.112903 6.609146 58.865765 254 254 254
-0.112929 6.737580 58.879219 254 254 254
-0.112957 6.866219 58.893932 254 254 254
-0.112988 6.995065 58.909855 254 254 254
-0.113021 7.124120 58.926937 254 254 254
-0.113056 7.253384 58.945118 254 254 254
-0.113092 7.382856 58.964340 253 254 253
-0.113131 7.512535 58.984528 252 252 252
-0.113172 7.642413 59.005589 253 253 253
-0.113213 7.772483 59.027412 254 254 254
-0.113256 7.902730 59.049854 254 254 254
-0.113300 8.033136 59.072762 254 254 254
-0.113345 8.163679 59.095940 254 254 254
-0.113389 8.294330 59.119175 251 251 251
-0.113434 8.425056 59.142231 244 245 244
-0.113477 8.555818 59.164848 245 245 244
-0.113519 8.686573 59.186768 251 251 250
-0.113559 8.817277 59.207699 253 253 253
-0.113597 8.947881 59.227367 253 253 253
-0.113632 9.078334 59.245502 250 251 250
-0.113663 9.208587 59.261845 245 246 245
-0.113690 9.338590 59.276157 245 246 245
-0.113714 9.468299 59.288239 250 251 250
-0.113732 9.597671 59.297916 252 253 253
-0.113746 9.726670 59.305069 251 253 252
-0.113755 9.855269 59.309628 251 252 252
-0.113758 9.983448 59.311573 251 252 252
-0.113757 10.111197 59.310944 250 251 252
-0.113751 10.238515 59.307835 251 252 253
-0.113741 10.365411 59.302391 251 251 254
-0.113726 10.491903 59.294796 249 249 254
-0.113708 10.618021 59.285297 244 244 250
-0.113687 10.743800 59.274155 226 225 235
-0.113663 10.869282 59.261650 203 201 216
-0.113637 10.994514 59.248089 205 205 220
-0.113609 11.119541 59.233753 231 232 242
-0.113581 11.244414 59.218925 246 248 253
-0.113552 11.369178 59.203865 247 250 252
-0.113523 11.493874 59.188786 246 250 252
-0.113494 11.618537 59.173874 234 240 242
-0.113466 11.743196 59.159267 224 230 232
-0.113439 11.867871 59.145054 237 240 242
-0.113413 11.992574 59.131275 246 248 249
-0.113387 12.117309 59.117947 238 242 242
-0.113362 12.242071 59.105026 239 243 243
-0.113338 12.366851 59.092457 246 248 248
-0.113315 12.491634 59.080158 245 248 247
-0.113291 12.616403 59.068039 244 247 246
-0.113268 12.741137 59.056000 249 250 250
-0.113245 12.865815 59.043953 253 254 254
-0.113222 12.990422 59.031811 254 254 254
-0.113198 13.114941 59.019505 250 251 252
-0.113174 13.239358 59.006985 242 243 247
-0.113150 13.363665 58.994217 234 235 242
-0.113125 13.487851 58.981159 233 234 243
-0.113099 13.611913 58.967812 232 233 241
-0.113073 13.735846 58.954155 225 224 233
-0.113046 13.859644 58.940178 218 218 226
-0.113019 13.983302 58.925861 218 217 224
-0.112990 14.106812 58.911182 215 213 220
-0.112962 14.230160 58.896099 202 199 205
-0.112932 14.353331 58.880554 189 186 192
-0.112901 14.476304 58.864479 186 182 188
-0.112869 14.599054 58.847786 183 178 184
-0.112835 14.721556 58.830383 169 165 171
-0.112801 14.843774 58.812157 154 151 157
-0.112764 14.965677 58.793003 145 142 150
-0.112725 15.087231 58.772804 140 136 147
-0.112684 15.208402 58.751469 134 130 141
-0.112641 15.329158 58.728893 127 122 135
-0.112595 15.449471 58.705006 122 114 129
-0.112547 15.569320 58.679756 115 105 121
-0.112495 15.688684 58.653103 104 93 108
-0.112442 15.807551 58.625034 88 76 90
-0.112385 15.925916 58.595554 73 61 72
-0.112326 16.043774 58.564697 64 53 61
-0.112264 16.161133 58.532509 60 49 55
-0.112200 16.277998 58.499050 56 47 51
-0.112134 16.394384 58.464390 54 46 48
-0.112065 16.510303 58.428612 52 45 46
-0.111994 16.625774 58.391796 51 44 46
-0.111922 16.740814 58.354042 48 43 44
-0.111848 16.855446 58.315426 46 41 43
-0.111772 16.969685 58.276043 44 39 40
-0.111695 17.083555 58.235977 43 38 39
-0.111617 17.197077 58.195316 43 39 39
-0.111538 17.310274 58.154152 44 41 42
-0.111459 17.423170 58.112579 47 44 45
-0.111378 17.535791 58.070690 52 48 49
-0.111298 17.648169 58.028591 56 53 54
-0.111217 17.760336 57.986393 61 58 59
-0.111136 17.872330 57.944229 65 62 63
-0.111055 17.984194 57.902233 66 64 65
-0.110975 18.095972 57.860542 64 62 62
-0.110896 18.207722 57.819332 61 59 60
-0.110818 18.319502 57.778770 59 56 57
-0.110742 18.431372 57.739048 55 52 53
-0.110668 18.543402 57.700348 49 47 48
-0.110596 18.655666 57.662895 43 42 42
-0.110527 18.768236 57.626873 39 38 37
-0.110461 18.881184 57.592480 36 35 35
-0.110399 18.994591 57.559921 36 35 34
-0.110340 19.108522 57.529369 36 35 34
-0.110286 19.223049 57.500992 36 35 34
-0.110236 19.338228 57.474915 36 35 34
-0.110190 19.454113 57.451252 36 35 35
-0.110150 19.570732 57.430050 36 34 35
-0.110114 19.688112 57.411327 36 34 35
-0.110083 19.806253 57.395050 36 34 35
-0.110056 19.925142 57.381123 36 34 34
-0.110033 20.044741 57.369400 36 33 34
-0.110015 20.164997 57.359692 35 32 33
-0.109999 20.285830 57.351730 34 31 32
-0.109987 20.407146 57.345226 33 30 31
-0.109977 20.528837 57.339848 32 30 30
-0.109968 20.650778 57.335224 32 30 30
-0.109960 20.772835 57.330982 32 30 29
-0.109951 20.894871 57.326725 32 30 28
-0.109943 21.016748 57.322090 30 29 28
-0.109932 21.138330 57.316708 29 29 28
-0.109920 21.259493 57.310257 27 28 27
-0.109905 21.380119 57.302444 27 28 27
-0.109887 21.500113 57.293030 25 28 27
-0.109865 21.619381 57.281811 25 28 26
-0.109840 21.737865 57.268646 24 27 25
-0.109811 21.855515 57.253445 24 26 25
-0.109778 21.972300 57.236168 25 26 24
0.013982 5.082809 58.824108 252 248 250
0.013979 5.208666 58.813408 249 243 246
0.013977 5.334720 58.805382 251 246 248
0.013976 5.460983 58.799976 254 252 253
0.013975 5.587462 58.797096 254 254 254
0.013975 5.714163 58.796631 255 255 255
0.013975 5.841090 58.798450 254 254 254
0.013976 5.968242 58.802414 254 254 254
0.013978 6.095619 58.808388 254 254 254
0.013980 6.223220 58.816235 254 254 254
0.013982 6.351044 58.825829 254 254 254
0.013985 6.479089 58.837055 254 254 254
0.013988 6.607355 58.849815 254 254 254
0.013991 6.735840 58.864017 254 254 254
0.013995 6.864546 58.879581 254 254 254
0.013999 6.993471 58.896431 254 254 254
0.014003 7.122615 58.914494 254 254 254
0.014008 7.251978 58.933693 252 252 251
0.014012 7.381555 58.953945 251 251 250
0.014017 7.511341 58.975151 252 252 252
0.014023 7.641326 58.997196 254 254 254
0.014028 7.771501 59.019947 254 254 254
0.014034 7.901846 59.043251 254 254 254
0.014039 8.032343 59.066921 255 255 255
0.014045 8.162964 59.090759 255 255 255
0.014051 8.293678 59.114525 248 248 248
0.014056 8.424450 59.137981 238 238 238
0.014062 8.555240 59.160854 239 239 238
0.014067 8.686003 59.182877 247 248 247
0.014072 8.816690 59.203762 250 251 250
0.014076 8.947254 59.223221 249 250 249
0.014081 9.077644 59.241001 249 250 249
0.014084 9.207809 59.256847 248 249 249
0.014088 9.337703 59.270523 248 249 249
0.014090 9.467278 59.281853 251 251 251
0.014092 9.596498 59.290676 253 253 253
0.014094 9.725331 59.296906 252 253 253
0.014095 9.853749 59.300484 252 253 253
0.014095 9.981740 59.301422 252 253 253
0.014095 10.109295 59.299789 251 252 253
0.014094 10.236420 59.295700 251 252 253
0.014092 10.363131 59.289345 252 252 254
0.014090 10.489450 59.280930 251 252 255
0.014088 10.615410 59.270721 247 247 251
0.014085 10.741055 59.259007 229 228 236
0.014082 10.866430 59.246098 206 203 217
0.014079 10.991584 59.232300 207 205 219
0.014075 11.116570 59.217918 230 230 240
0.014072 11.241436 59.203243 243 244 251
0.014068 11.366231 59.188522 244 246 250
0.014065 11.490996 59.173973 246 249 250
0.014061 11.615767 59.159771 235 241 242
0.014058 11.740570 59.146038 227 232 234
0.014055 11.865422 59.132847 240 243 244
0.014052 11.990333 59.120228 244 246 246
0.014049 12.115302 59.108158 235 239 239
0.014046 12.240322 59.096581 242 245 245
0.014044 12.365378 59.085419 247 249 249
0.014041 12.490451 59.074562 239 243 242
0.014039 12.615518 59.063896 238 242 241
0.014036 12.740555 59.053307 246 249 248
0.014033 12.865539 59.042683 252 253 253
0.014031 12.990448 59.031925 253 254 254
0.014028 13.115263 59.020954 250 251 253
0.014026 13.239967 59.009701 243 244 248
0.014023 13.364551 58.998131 236 236 244
0.014020 13.489004 58.986202 233 234 243
0.014017 13.613318 58.973904 230 230 240
0.014014 13.737492 58.961220 222 221 230
0.014011 13.861517 58.948143 217 215 223
0.014008 13.985390 58.934658 218 215 223
0.014004 14.109099 58.920738 215 211 218
0.014001 14.232637 58.906353 202 197 203
0.013998 14.355986 58.891449 188 183 188
0.013994 14.479125 58.875950 184 179 184
0.013990 14.602032 58.859787 179 174 179
0.013986 14.724675 58.842850 165 160 166
0.013982 14.847026 58.825043 150 146 152
0.013977 14.969049 58.806248 141 137 145
0.013973 15.090708 58.786350 136 132 142
0.013968 15.211968 58.765247 132 127 138
0.013962 15.332797 58.742836 126 120 133
0.013957 15.453165 58.719044 120 112 126
0.013951 15.573045 58.693798 112 103 117
0.013944 15.692417 58.667061 99 89 103
0.013937 15.811267 58.638809 83 72 84
0.013930 15.929584 58.609051 69 59 68
0.013923 16.047365 58.577805 64 53 60
0.013915 16.164614 58.545116 60 51 56
0.013907 16.281336 58.511044 57 48 51
0.013899 16.397545 58.475662 54 46 48
0.013890 16.513252 58.439053 52 45 46
0.013881 16.628479 58.401299 50 44 45
0.013872 16.743242 58.362507 47 42 44
0.013862 16.857565 58.322762 45 41 42
0.013853 16.971468 58.282166 43 39 40
0.013843 17.084976 58.240818 42 38 39
0.013833 17.198112 58.198822 42 38 39
0.013823 17.310904 58.156269 44 40 40
0.013813 17.423380 58.113277 46 42 43
0.013802 17.535566 58.069942 50 46 47
0.013792 17.647501 58.026394 54 50 51
0.013782 17.759220 57.982750 58 55 55
0.013771 17.870762 57.939152 62 59 59
0.013761 17.982174 57.895733 64 61 62
0.013751 18.093508 57.852661 61 58 59
0.013741 18.204819 57.810108 58 55 56
0.013731 18.316166 57.768250 56 54 55
0.013721 18.427616 57.727280 53 51 52
0.013711 18.539238 57.687397 49 47 48
0.013702 18.651108 57.648804 43 42 42
0.013693 18.763296 57.611706 37 37 37
0.013685 18.875883 57.576309 35 34 33
0.013677 18.988939 57.542797 35 34 33
0.013669 19.102541 57.511360 35 34 33
0.013663 19.216751 57.482147 35 34 33
0.013656 19.331627 57.455296 35 34 33
0.013650 19.447222 57.430901 35 34 34
0.013645 19.563564 57.409016 36 34 35
0.013641 19.680677 57.389645 36 34 35
0.013637 19.798559 57.372749 36 34 34
0.013633 19.917194 57.358231 36 33 33
0.013630 20.036539 57.345924 35 33 33
0.013628 20.156540 57.335636 35 32 33
0.013626 20.277113 57.327087 34 31 32
0.013624 20.398165 57.319988 33 30 31
0.013623 20.519575 57.313976 33 30 31
0.013621 20.641226 57.308704 33 30 31
0.013620 20.762976 57.303768 32 30 29
0.013619 20.884686 57.298782 32 30 28
0.013618 21.006220 57.293373 31 30 28
0.013616 21.127441 57.287182 29 29 28
0.013614 21.248220 57.279869 28 29 28
0.013612 21.368448 57.271160 27 29 28
0.013610 21.488018 57.260807 26 29 28
0.013607 21.606857 57.248627 26 29 28
0.013604 21.724897 57.234482 25 28 27
0.013600 21.842096 57.218300 26 28 26
0.013595 21.958427 57.200031 26 27 26
0.140754 5.081625 58.810410 253 251 252
0.140726 5.207363 58.798695 251 245 249
0.140704 5.333305 58.789787 251 247 250
0.140690 5.459466 58.783642 254 251 253
0.140681 5.585855 58.780182 254 254 254
0.140679 5.712479 58.779297 254 254 254
0.140683 5.839343 58.780869 254 254 254
0.140692 5.966448 58.784744 254 254 254
0.140707 6.093796 58.790802 254 254 254
0.140726 6.221385 58.798889 254 254 254
0.140750 6.349214 58.808876 254 254 254
0.140778 6.477282 58.820644 254 254 254
0.140810 6.605587 58.834068 254 254 254
0.140846 6.734128 58.849052 254 254 254
0.140886 6.862903 58.865490 254 254 254
0.140928 6.991911 58.883293 254 254 254
0.140974 7.121149 58.902363 253 253 253
0.141022 7.250613 58.922600 246 246 245
0.141073 7.380298 58.943905 243 243 242
0.141126 7.510195 58.966156 248 248 248
0.141182 7.640293 58.989216 252 252 252
0.141238 7.770576 59.012932 253 253 253
0.141296 7.901026 59.037125 254 254 254
0.141355 8.031618 59.061600 254 254 254
0.141414 8.162324 59.086128 254 254 254
0.141472 8.293110 59.110477 249 249 249
0.141529 8.423937 59.134377 238 238 238
0.141585 8.554764 59.157566 235 235 234
0.141638 8.685542 59.179741 244 245 244
0.141688 8.816226 59.200638 249 249 249
0.141734 8.946763 59.219967 246 247 246
0.141776 9.077102 59.237461 247 248 247
0.141813 9.207194 59.252884 249 250 249
0.141844 9.336992 59.266018 248 249 249
0.141870 9.466454 59.276688 250 251 251
0.141889 9.595542 59.284763 253 253 253
0.141902 9.724225 59.290165 254 254 254
0.141908 9.852485 59.292870 254 254 254
0.141908 9.980308 59.292915 254 254 254
0.141902 10.107693 59.290394 253 254 254
0.141891 10.234651 59.285454 253 253 254
0.141874 10.361199 59.278301 253 253 254
0.141852 10.487371 59.269184 253 254 255
0.141826 10.613201 59.258389 249 249 251
0.141797 10.738737 59.246223 230 228 235
0.141765 10.864030 59.233013 206 203 216
0.141732 10.989131 59.219082 208 206 218
0.141697 11.114098 59.204750 231 231 240
0.141663 11.238979 59.190304 241 243 249
0.141629 11.363826 59.175991 242 244 248
0.141595 11.488678 59.162033 247 249 250
0.141563 11.613571 59.148582 243 247 248
0.141532 11.738529 59.135757 239 243 243
0.141503 11.863569 59.123611 244 247 247
0.141476 11.988695 59.112152 241 244 244
0.141450 12.113903 59.101330 236 240 240
0.141425 12.239183 59.091084 246 247 247
0.141402 12.364514 59.081291 248 250 250
0.141379 12.489875 59.071838 240 243 242
0.141357 12.615236 59.062576 238 242 241
0.141335 12.740571 59.053379 246 248 248
0.141313 12.865852 59.044121 250 252 253
0.141290 12.991054 59.034679 251 252 254
0.141267 13.116156 59.024971 250 252 253
0.141243 13.241138 59.014923 246 247 251
0.141218 13.365988 59.004475 238 239 247
0.141192 13.490696 58.993603 231 231 241
0.141165 13.615252 58.982281 224 224 234
0.141137 13.739655 58.970505 218 217 227
0.141108 13.863896 58.958263 214 213 221
0.141077 13.987972 58.945541 214 211 219
0.141045 14.111874 58.932323 211 206 213
0.141013 14.235592 58.918583 198 192 199
0.140978 14.359109 58.904259 185 178 184
0.140942 14.482407 58.889294 181 174 180
0.140905 14.605461 58.873611 176 170 175
0.140865 14.728242 58.857105 163 158 163
0.140824 14.850719 58.839676 148 144 150
0.140780 14.972857 58.821209 138 134 141
0.140733 15.094619 58.801586 133 128 137
0.140683 15.215968 58.780701 130 125 135
0.140629 15.336871 58.758446 126 119 131
0.140573 15.457294 58.734737 119 111 124
0.140512 15.577212 58.709503 109 100 113
0.140448 15.696599 58.682693 94 85 96
0.140380 15.815439 58.654285 76 67 77
0.140308 15.933721 58.624271 65 56 63
0.140233 16.051439 58.592674 61 52 58
0.140153 16.168594 58.559532 59 50 54
0.140070 16.285192 58.524906 55 48 50
0.139984 16.401245 58.488861 52 46 47
0.139895 16.516768 58.451488 50 45 45
0.139802 16.631775 58.412876 48 44 44
0.139707 16.746288 58.373123 46 42 43
0.139610 16.860334 58.332340 44 40 42
0.139510 16.973934 58.290630 42 39 40
0.139408 17.087112 58.248100 41 38 39
0.139304 17.199898 58.204861 41 38 38
0.139199 17.312321 58.161026 42 39 39
0.139093 17.424410 58.116711 44 41 41
0.138987 17.536201 58.072044 47 43 44
0.138879 17.647730 58.027142 50 46 47
0.138771 17.759035 57.982151 53 49 50
0.138664 17.870165 57.937210 56 52 53
0.138557 17.981165 57.892479 58 54 56
0.138451 18.092089 57.848122 56 53 54
0.138346 18.202990 57.804306 55 52 53
0.138243 18.313940 57.761234 53 51 52
0.138142 18.425001 57.719090 51 49 50
0.138044 18.536245 57.678078 47 46 47
0.137949 18.647745 57.638412 42 42 42
0.137857 18.759581 57.600292 37 37 37
0.137770 18.871822 57.563919 34 33 33
0.137688 18.984550 57.529491 34 33 32
0.137611 19.097836 57.497192 34 33 32
0.137539 19.211740 57.467159 34 33 32
0.137473 19.326324 57.439537 34 33 32
0.137413 19.441637 57.414410 34 33 33
0.137359 19.557707 57.391827 34 33 33
0.137311 19.674553 57.371788 34 33 33
0.137269 19.792171 57.354240 34 32 33
0.137232 19.910547 57.339088 34 32 32
0.137201 20.029633 57.326157 34 32 32
0.137175 20.149368 57.315235 34 31 32
0.137153 20.269672 57.306049 34 31 32
0.137135 20.390444 57.298294 33 30 31
0.137119 20.511566 57.291607 33 30 31
0.137104 20.632912 57.285622 33 30 30
0.137091 20.754343 57.279942 33 30 29
0.137077 20.875717 57.274178 32 30 28
0.137062 20.996897 57.267944 31 30 28
0.137045 21.117744 57.260887 30 29 28
0.137025 21.238134 57.252678 29 29 28
0.137002 21.357952 57.243031 28 29 28
0.136975 21.477102 57.231716 28 29 28
0.136944 21.595505 57.218548 27 29 28
0.136908 21.713102 57.203407 27 29 28
0.136866 21.829851 57.186218 27 29 28
0.136820 21.945730 57.166958 28 28 27
0.267466 5.080431 58.796581 254 253 254
0.267409 5.206058 58.783955 253 251 252
0.267365 5.331897 58.774261 253 251 253
0.267334 5.457964 58.767475 254 252 253
0.267316 5.584271 58.763523 254 253 254
0.267310 5.710827 58.762302 254 253 254
0.267317 5.837636 58.763687 254 254 254
0.267334 5.964703 58.767544 254 254 254
0.267362 6.092028 58.773735 254 254 254
0.267400 6.219610 58.782112 254 254 254
0.267448 6.347449 58.792534 254 254 254
0.267504 6.475545 58.804867 254 254 254
0.267568 6.603893 58.818985 254 254 254
0.267640 6.732494 58.834774 254 254 254
0.267719 6.861342 58.852100 254 254 254
0.267804 6.990436 58.870869 254 254 254
0.267896 7.119771 58.890961 251 251 251
0.267992 7.249340 58.912254 240 240 239
0.268094 7.379136 58.934624 235 235 234
0.268200 7.509147 58.957928 243 243 243
0.268310 7.639360 58.982010 248 248 248
0.268422 7.769756 59.006702 249 249 248
0.268536 7.900314 59.031807 251 251 251
0.268651 8.031007 59.057102 254 254 254
0.268766 8.161803 59.082355 254 254 254
0.268880 8.292665 59.107311 252 252 252
0.268991 8.423554 59.131695 242 242 242
0.269098 8.554425 59.155224 235 235 234
0.269200 8.685230 59.177616 239 239 238
0.269295 8.815918 59.198574 240 241 240
0.269382 8.946439 59.217827 241 242 241
0.269461 9.076741 59.235111 241 242 241
0.269530 9.206776 59.250191 236 237 236
0.269587 9.336495 59.262863 238 239 239
0.269633 9.465859 59.272964 248 248 248
0.269667 9.594834 59.280392 254 254 254
0.269688 9.723392 59.285076 254 254 254
0.269697 9.851513 59.287025 254 254 254
0.269694 9.979194 59.286293 254 254 254
0.269679 10.106434 59.283009 254 254 254
0.269653 10.233250 59.277340 252 252 254
0.269618 10.359665 59.269520 252 252 254
0.269574 10.485715 59.259827 253 253 254
0.269522 10.611442 59.248562 248 248 249
0.269465 10.736897 59.236065 226 225 231
0.269404 10.862132 59.222668 202 200 211
0.269341 10.987206 59.208706 208 206 217
0.269276 11.112175 59.194511 232 233 240
0.269212 11.237094 59.180374 242 244 249
0.269149 11.362010 59.166542 243 244 247
0.269089 11.486967 59.153217 248 250 250
0.269031 11.611996 59.140560 250 252 253
0.268977 11.737122 59.128662 249 252 252
0.268926 11.862356 59.117569 244 246 246
0.268879 11.987702 59.107258 233 237 238
0.268836 12.113153 59.097668 235 239 239
0.268795 12.238691 59.088711 247 249 249
0.268757 12.364296 59.080250 251 252 252
0.268720 12.489939 59.072136 246 248 248
0.268684 12.615586 59.064220 244 247 246
0.268648 12.741211 59.056347 248 250 250
0.268612 12.866779 59.048374 250 252 253
0.268574 12.992263 59.040176 249 252 253
0.268536 13.117640 59.031647 249 251 253
0.268495 13.242887 59.022717 246 248 251
0.268452 13.367991 59.013317 235 237 244
0.268407 13.492941 59.003422 223 225 234
0.268360 13.617728 58.993004 217 217 228
0.268310 13.742347 58.982059 215 215 224
0.268258 13.866793 58.970577 214 213 221
0.268203 13.991059 58.958553 211 208 216
0.268146 14.115143 58.945972 206 201 209
0.268086 14.239029 58.932808 196 189 196
0.268023 14.362705 58.919014 184 177 184
0.267957 14.486154 58.904530 180 172 179
0.267888 14.609347 58.889275 175 168 175
0.267815 14.732260 58.873158 163 157 164
0.267737 14.854857 58.856071 148 143 150
0.267654 14.977107 58.837902 137 132 140
0.267566 15.098969 58.818531 131 126 135
0.267472 15.220407 58.797844 128 122 132
0.267371 15.341383 58.775730 124 117 128
0.267264 15.461866 58.752106 117 108 119
0.267149 15.581824 58.726887 105 95 106
0.267027 15.701234 58.700020 88 78 88
0.266897 15.820074 58.671474 70 61 69
0.266760 15.938333 58.641243 61 52 58
0.266614 16.056002 58.609333 59 51 54
0.266462 16.173082 58.575790 57 49 52
0.266302 16.289577 58.540665 54 47 49
0.266135 16.405499 58.504028 51 46 46
0.265962 16.520859 58.465965 49 45 44
0.265783 16.635675 58.426575 46 43 43
0.265598 16.749973 58.385963 44 42 42
0.265408 16.863773 58.344238 43 40 41
0.265214 16.977102 58.301510 41 39 39
0.265016 17.089987 58.257900 41 38 39
0.264814 17.202461 58.213535 40 38 38
0.264609 17.314552 58.168526 40 38 38
0.264402 17.426298 58.123013 41 39 39
0.264193 17.537733 58.077114 43 40 40
0.263983 17.648895 58.030979 45 42 42
0.263773 17.759830 57.984749 47 44 44
0.263563 17.870586 57.938580 50 46 47
0.263354 17.981209 57.892624 52 48 50
0.263147 18.091759 57.847069 53 50 51
0.262942 18.202291 57.802086 53 49 51
0.262741 18.312878 57.757881 51 48 50
0.262544 18.423580 57.714638 49 47 48
0.262353 18.534473 57.672569 46 45 46
0.262168 18.645634 57.631886 43 41 43
0.261990 18.757137 57.592793 38 37 38
0.261820 18.869059 57.555489 34 34 33
0.261660 18.981474 57.520172 33 33 32
0.261509 19.094456 57.487019 33 32 31
0.261369 19.208071 57.456184 33 32 31
0.261240 19.322371 57.427784 33 32 31
0.261122 19.437407 57.401917 33 32 32
0.261016 19.553204 57.378609 33 32 32
0.260922 19.669781 57.357872 33 32 32
0.260839 19.787134 57.339645 33 32 32
0.260767 19.905243 57.323811 33 31 32
0.260705 20.024061 57.310211 33 31 31
0.260652 20.143522 57.298607 33 31 31
0.260607 20.263544 57.288727 33 30 31
0.260568 20.384024 57.280254 33 29 30
0.260535 20.504845 57.272835 33 29 29
0.260504 20.625872 57.266079 32 29 29
0.260474 20.746969 57.259594 32 29 28
0.260444 20.867996 57.252995 31 29 28
0.260412 20.988811 57.245892 31 29 28
0.260376 21.109276 57.237923 30 29 28
0.260334 21.229265 57.228771 29 29 28
0.260286 21.348671 57.218155 29 29 28
0.260230 21.467396 57.205849 29 30 29
0.260165 21.585363 57.191677 28 30 29
0.260092 21.702515 57.175518 28 30 29
0.260009 21.818815 57.157310 29 30 29
0.259917 21.934250 57.137047 29 29 28
0.259816 22.048819 57.114773 29 29 27
0.394121 5.079260 58.783035 254 254 254
0.394031 5.204788 58.769615 254 254 254
0.393962 5.330535 58.759254 254 253 254
0.393912 5.456521 58.751934 254 252 254
0.393883 5.582756 58.747578 254 250 252
0.393873 5.709253 58.746101 254 251 252
0.393882 5.836017 58.747383 254 254 254
0.393908 5.963053 58.751286 254 254 254
0.393951 6.090362 58.757671 254 254 254
0.394009 6.217946 58.766384 254 254 254
0.394082 6.345803 58.777279 254 254 254
0.394169 6.473931 58.790215 254 254 254
0.394269 6.602329 58.805050 255 255 255
0.394380 6.730992 58.821651 254 254 254
0.394502 6.859918 58.839890 254 254 254
0.394635 6.989101 58.859631 254 254 254
0.394776 7.118535 58.880741 251 251 251
0.394926 7.248212 58.903088 239 239 238
0.395083 7.378121 58.926517 233 234 233
0.395246 7.508249 58.950878 242 242 242
0.395415 7.638579 58.975986 247 247 247
0.395587 7.769092 59.001656 246 246 245
0.395761 7.899761 59.027668 250 250 249
0.395936 8.030557 59.053795 254 254 253
0.396111 8.161447 59.079781 254 254 254
0.396282 8.292392 59.105358 253 253 253
0.396449 8.423348 59.130245 246 246 245
0.396609 8.554271 59.154156 237 238 237
0.396761 8.685109 59.176788 229 230 228
0.396902 8.815812 59.197861 218 219 217
0.397031 8.946328 59.217091 224 225 224
0.397146 9.076606 59.234226 224 225 224
0.397245 9.206596 59.249035 203 204 203
0.397328 9.336254 59.261330 212 213 213
0.397392 9.465539 59.270958 241 242 241
0.397438 9.594419 59.277832 253 253 253
0.397466 9.722872 59.281910 253 253 253
0.397475 9.850880 59.283215 254 254 254
0.397465 9.978442 59.281830 254 254 254
0.397439 10.105563 59.277901 253 254 254
0.397397 10.232265 59.271633 252 252 254
0.397341 10.358574 59.263279 251 251 253
0.397273 10.484530 59.253132 252 252 253
0.397195 10.610182 59.241524 247 246 248
0.397110 10.735580 59.228806 224 223 228
0.397019 10.860785 59.215324 200 199 208
0.396926 10.985857 59.201435 209 208 217
0.396833 11.110852 59.187466 236 236 241
0.396740 11.235827 59.173702 244 246 248
0.396651 11.360832 59.160404 243 245 246
0.396566 11.485906 59.147755 249 250 250
0.396487 11.611084 59.135918 253 254 254
0.396413 11.736385 59.124954 252 252 252
0.396346 11.861821 59.114899 238 240 240
0.396284 11.987390 59.105717 224 227 227
0.396228 12.113081 59.097321 232 235 235
0.396176 12.238877 59.089603 248 250 250
0.396128 12.364748 59.082409 252 253 253
0.396082 12.490665 59.075573 248 252 251
0.396038 12.616591 59.068924 246 250 250
0.395993 12.742493 59.062290 250 252 252
0.395948 12.868336 59.055519 252 253 254
0.395901 12.994089 59.048470 250 253 254
0.395851 13.119726 59.041039 248 251 253
0.395798 13.245224 59.033131 242 244 248
0.395741 13.370568 59.024693 229 231 239
0.395681 13.495746 59.015686 218 220 230
0.395616 13.620748 59.006084 215 216 226
0.395548 13.745569 58.995892 218 217 227
0.395476 13.870206 58.985096 218 216 225
0.395399 13.994653 58.973694 212 209 217
0.395319 14.118904 58.961681 205 200 208
0.395234 14.242949 58.949036 198 191 198
0.395145 14.366776 58.935707 188 181 189
0.395050 14.490363 58.921646 181 174 183
0.394951 14.613689 58.906776 174 167 176
0.394845 14.736726 58.891006 162 157 165
0.394732 14.859439 58.874222 149 144 153
0.394612 14.981794 58.856319 137 133 141
0.394484 15.103753 58.837170 131 125 135
0.394346 15.225278 58.816666 127 120 131
0.394199 15.346331 58.794685 122 114 125
0.394041 15.466875 58.771137 113 104 114
0.393872 15.586880 58.745941 99 89 98
0.393692 15.706320 58.719036 82 71 79
0.393500 15.825171 58.690376 66 56 63
0.393296 15.943419 58.659958 59 50 55
0.393080 16.061056 58.627785 57 49 52
0.392853 16.178082 58.593895 55 48 50
0.392614 16.294495 58.558334 52 47 47
0.392365 16.410309 58.521179 50 46 45
0.392106 16.525534 58.482513 47 44 43
0.391837 16.640192 58.442440 45 42 42
0.391560 16.754305 58.401062 43 41 41
0.391275 16.867895 58.358498 41 40 40
0.390982 16.980989 58.314865 40 39 39
0.390683 17.093624 58.270294 39 38 38
0.390379 17.205824 58.224915 39 37 37
0.390070 17.317627 58.178856 39 37 37
0.389758 17.429070 58.132252 39 37 37
0.389443 17.540190 58.085251 40 38 38
0.389126 17.651030 58.037994 41 39 39
0.388808 17.761637 57.990643 43 40 40
0.388491 17.872057 57.943348 45 41 43
0.388176 17.982346 57.896286 47 43 45
0.387863 18.092562 57.849636 50 46 48
0.387554 18.202761 57.803577 50 46 48
0.387251 18.313015 57.758312 49 46 48
0.386954 18.423391 57.714050 48 45 47
0.386665 18.533966 57.670986 46 43 45
0.386386 18.644812 57.629345 42 41 42
0.386118 18.756008 57.589329 39 38 38
0.385861 18.867630 57.551132 35 35 34
0.385619 18.979750 57.514950 33 33 32
0.385391 19.092443 57.480961 33 32 31
0.385179 19.205774 57.449318 32 32 31
0.384983 19.319798 57.420135 32 31 31
0.384805 19.434559 57.393505 33 32 32
0.384643 19.550083 57.369453 33 32 32
0.384499 19.666391 57.347988 33 32 32
0.384372 19.783474 57.329033 33 32 32
0.384261 19.901304 57.312473 33 32 32
0.384165 20.019842 57.298138 33 31 31
0.384082 20.139019 57.285797 34 31 31
0.384011 20.258745 57.275162 33 30 30
0.383949 20.378922 57.265915 33 29 30
0.383894 20.499424 57.257690 32 28 28
0.383843 20.620119 57.250103 32 28 28
0.383794 20.740873 57.242767 31 28 27
0.383744 20.861540 57.235279 31 28 27
0.383690 20.981974 57.227245 30 28 27
0.383630 21.102049 57.218330 30 28 27
0.383562 21.221634 57.208199 29 28 28
0.383484 21.340620 57.196579 29 28 28
0.383395 21.458914 57.183247 29 29 29
0.383293 21.576441 57.168037 29 30 29
0.383178 21.693150 57.150845 29 30 29
0.383049 21.809006 57.131611 30 31 30
0.382906 21.923998 57.110344 30 31 30
0.382750 22.038130 57.087086 30 30 29
0.520724 5.078152 58.770206 254 254 254
0.520599 5.203593 58.756119 254 254 254
0.520502 5.329261 58.745209 254 254 254
0.520434 5.455176 58.737461 254 252 253
0.520392 5.581353 58.732811 254 249 251
0.520378 5.707802 58.731174 254 250 251
0.520389 5.834532 58.732433 254 253 253
0.520425 5.961548 58.736458 254 254 254
0.520483 6.088851 58.743095 254 254 254
0.520564 6.216445 58.752197 254 254 254
0.520665 6.344326 58.763607 254 254 254
0.520786 6.472496 58.777176 254 254 254
0.520924 6.600948 58.792755 254 254 254
0.521078 6.729681 58.810192 254 254 254
0.521248 6.858689 58.829342 254 254 254
0.521431 6.987965 58.850060 254 254 254
0.521627 7.117501 58.872192 251 251 251
0.521835 7.247288 58.895584 243 243 243
0.522052 7.377314 58.920074 240 240 240
0.522277 7.507561 58.945473 247 247 247
0.522508 7.638011 58.971596 249 249 249
0.522744 7.768641 58.998230 245 245 244
0.522983 7.899424 59.025146 246 246 245
0.523221 8.030327 59.052097 252 252 251
0.523458 8.161314 59.078815 254 254 254
0.523690 8.292344 59.105019 254 254 254
0.523915 8.423373 59.130421 249 249 248
0.524131 8.554353 59.154724 239 240 238
0.524334 8.685232 59.177628 220 221 219
0.524522 8.815959 59.198845 198 199 197
0.524692 8.946481 59.218102 210 211 209
0.524843 9.076747 59.235142 210 211 209
0.524973 9.206707 59.249748 178 180 179
0.525079 9.336318 59.261738 193 195 194
0.525161 9.465543 59.270981 235 236 235
0.525218 9.594350 59.277397 251 252 251
0.525249 9.722717 59.280972 252 252 252
0.525256 9.850636 59.281742 254 254 254
0.525239 9.978104 59.279819 254 255 255
0.525200 10.105133 59.275375 254 254 254
0.525140 10.231747 59.268627 253 253 254
0.525062 10.357977 59.259861 251 251 253
0.524969 10.483867 59.249382 251 251 253
0.524864 10.609468 59.237545 246 246 248
0.524751 10.734839 59.224716 224 224 229
0.524632 10.860039 59.211254 202 202 210
0.524510 10.985130 59.197521 211 212 218
0.524389 11.110172 59.183842 238 239 242
0.524271 11.235223 59.170521 247 248 249
0.524158 11.360331 59.157795 244 246 247
0.524052 11.485538 59.145859 249 250 250
0.523955 11.610872 59.134838 253 253 253
0.523866 11.736355 59.124805 250 250 250
0.523785 11.861995 59.115765 236 238 237
0.523714 11.987786 59.107670 224 227 226
0.523650 12.113716 59.100418 236 238 238
0.523592 12.239761 59.093876 251 252 251
0.523538 12.365892 59.087875 249 251 251
0.523488 12.492072 59.082230 243 247 246
0.523440 12.618263 59.076752 245 248 248
0.523391 12.744429 59.071262 251 252 252
0.523341 12.870531 59.065594 253 254 254
0.523288 12.996536 59.059593 252 254 254
0.523231 13.122417 59.053150 248 250 253
0.523169 13.248151 59.046173 240 242 247
0.523102 13.373717 59.038593 227 228 237
0.523029 13.499106 59.030380 217 218 229
0.522950 13.624309 59.021511 217 218 229
0.522866 13.749318 59.011978 223 222 233
0.522776 13.874131 59.001785 222 220 230
0.522680 13.998745 58.990940 214 211 219
0.522577 14.123152 58.979424 206 202 210
0.522469 14.247345 58.967224 200 194 203
0.522355 14.371309 58.954308 191 185 194
0.522234 14.495028 58.940613 182 176 185
0.522105 14.618477 58.926075 172 167 177
0.521968 14.741630 58.910606 162 157 167
0.521821 14.864453 58.894089 149 144 155
0.521665 14.986912 58.876423 137 132 142
0.521497 15.108966 58.857475 129 123 134
0.521317 15.230577 58.837132 125 118 129
0.521123 15.351705 58.815277 120 110 122
0.520915 15.472315 58.791809 109 98 108
0.520692 15.592373 58.766644 93 82 91
0.520454 15.711850 58.739712 77 66 73
0.520199 15.830725 58.710972 65 54 60
0.519928 15.948978 58.680408 59 50 53
0.519641 16.066601 58.648018 56 49 50
0.519338 16.183588 58.613834 54 48 48
0.519020 16.299944 58.577915 51 46 46
0.518687 16.415676 58.540318 48 45 44
0.518340 16.530798 58.501137 46 43 42
0.517979 16.645327 58.460472 43 42 41
0.517607 16.759289 58.418434 41 41 40
0.517223 16.872705 58.375145 40 39 40
0.516830 16.985609 58.330723 39 38 38
0.516427 17.098028 58.285313 38 37 38
0.516017 17.209999 58.239040 38 37 37
0.515601 17.321556 58.192055 37 36 36
0.515180 17.432739 58.144493 37 36 36
0.514755 17.543589 58.096512 37 36 36
0.514327 17.654150 58.048256 39 37 37
0.513899 17.764471 57.999897 40 38 38
0.513471 17.874601 57.951595 42 39 39
0.513045 17.984596 57.903526 44 40 41
0.512623 18.094515 57.855885 46 42 43
0.512206 18.204420 57.808846 47 43 45
0.511796 18.314379 57.762611 47 44 45
0.511396 18.424461 57.717396 46 44 45
0.511006 18.534744 57.673409 45 43 44
0.510629 18.645302 57.630859 42 41 42
0.510266 18.756212 57.589954 39 39 39
0.509920 18.867552 57.550892 36 36 36
0.509592 18.979393 57.513866 35 35 34
0.509284 19.091812 57.479057 33 33 32
0.508996 19.204868 57.446606 32 32 32
0.508731 19.318617 57.416626 32 32 32
0.508488 19.433102 57.389206 33 32 32
0.508268 19.548355 57.364380 33 33 33
0.508071 19.664385 57.342140 33 32 32
0.507896 19.781189 57.322414 33 32 32
0.507742 19.898735 57.305073 33 32 32
0.507608 20.016983 57.289955 33 31 30
0.507492 20.135859 57.276806 33 30 30
0.507390 20.255276 57.265350 33 30 30
0.507301 20.375130 57.255260 32 29 29
0.507220 20.495298 57.246170 32 29 28
0.507145 20.615650 57.237694 32 29 28
0.507072 20.736044 57.229439 31 29 27
0.506997 20.856337 57.221004 30 29 27
0.506918 20.976387 57.212006 30 28 27
0.506830 21.096060 57.202087 29 27 27
0.506731 21.215231 57.190937 29 28 28
0.506619 21.333792 57.178280 29 27 28
0.506491 21.451651 57.163895 29 28 28
0.506347 21.568741 57.147633 29 29 28
0.506185 21.685001 57.129379 30 29 28
0.506006 21.800413 57.109100 31 30 29
0.505808 21.914963 57.086811 31 31 30
0.505593 22.028662 57.062561 31 31 30
0.647283 5.077140 58.758495 254 254 254
0.647122 5.202508 58.743877 254 254 254
0.646998 5.328113 58.732548 254 254 254
0.646909 5.453972 58.724499 254 252 254
0.646856 5.580104 58.719669 254 251 253
0.646837 5.706519 58.717976 254 252 252
0.646852 5.833228 58.719303 254 253 253
0.646898 5.960235 58.723522 255 253 254
0.646975 6.087544 58.730484 254 253 254
0.647080 6.215158 58.740032 254 254 254
0.647212 6.343074 58.752003 254 254 254
0.647369 6.471291 58.766243 254 254 254
0.647549 6.599806 58.782585 254 254 254
0.647750 6.728615 58.800877 254 254 254
0.647971 6.857710 58.820950 254 254 254
0.648210 6.987084 58.842644 254 254 254
0.648465 7.116727 58.865791 253 253 253
0.648735 7.246629 58.890224 250 250 250
0.649016 7.376773 58.915752 250 250 250
0.649307 7.507142 58.942184 252 252 252
0.649606 7.637713 58.969303 249 249 249
0.649910 7.768464 58.996883 237 238 237
0.650216 7.899362 59.024689 236 237 236
0.650522 8.030374 59.052444 246 246 245
0.650824 8.161461 59.079884 253 253 253
0.651119 8.292582 59.106709 254 254 254
0.651405 8.423688 59.132629 250 250 250
0.651677 8.554730 59.157333 239 240 237
0.651933 8.685658 59.180527 214 216 212
0.652168 8.816416 59.201916 194 195 192
0.652381 8.946953 59.221230 211 212 209
0.652568 9.077218 59.238220 210 211 209
0.652727 9.207162 59.252678 176 177 176
0.652857 9.336742 59.264431 191 193 192
0.652955 9.465923 59.273365 235 237 236
0.653022 9.594676 59.279411 252 252 252
0.653057 9.722981 59.282581 253 253 253
0.653061 9.850832 59.282925 254 254 254
0.653035 9.978230 59.280575 254 254 254
0.652981 10.105193 59.275726 254 254 254
0.652903 10.231745 59.268620 254 254 254
0.652803 10.357923 59.259548 252 253 253
0.652685 10.483774 59.248856 252 253 253
0.652554 10.609352 59.236897 247 247 249
0.652412 10.734719 59.224052 226 226 231
0.652265 10.859936 59.210693 205 205 213
0.652116 10.985068 59.197189 214 214 221
0.651969 11.110177 59.183868 239 240 242
0.651828 11.235319 59.171024 247 248 250
0.651694 11.360543 59.158897 244 246 248
0.651571 11.485889 59.147675 248 249 250
0.651458 11.611389 59.137470 251 253 252
0.651358 11.737057 59.128342 250 251 251
0.651269 11.862900 59.120277 242 243 243
0.651191 11.988910 59.113213 235 237 237
0.651123 12.115071 59.107029 245 245 245
0.651063 12.241358 59.101582 252 253 253
0.651009 12.367735 59.096680 242 245 244
0.650959 12.494164 59.092125 232 236 236
0.650910 12.620605 59.087715 239 242 243
0.650861 12.747017 59.083260 250 252 252
0.650810 12.873361 59.078575 254 254 254
0.650754 12.999600 59.073521 253 254 255
0.650692 13.125707 59.067951 251 252 254
0.650625 13.251656 59.061794 243 244 249
0.650549 13.377427 59.054974 228 229 237
0.650467 13.503010 59.047447 217 218 229
0.650376 13.628394 59.039211 220 220 232
0.650277 13.753576 59.030254 226 225 236
0.650171 13.878551 59.020584 223 221 231
0.650056 14.003318 59.010208 213 211 220
0.649934 14.127868 58.999115 205 202 211
0.649804 14.252195 58.987301 199 195 204
0.649666 14.376288 58.974731 191 186 196
0.649518 14.500129 58.961357 182 176 187
0.649361 14.623693 58.947102 171 167 178
0.649194 14.746957 58.931892 161 156 168
0.649014 14.869884 58.915611 148 143 156
0.648822 14.992441 58.898148 136 130 143
0.648615 15.114589 58.879379 127 120 134
0.648393 15.236285 58.859184 122 113 126
0.648153 15.357492 58.837448 115 104 116
0.647896 15.478172 58.814064 103 91 102
0.647619 15.598289 58.788940 88 76 85
0.647322 15.717814 58.762009 75 62 69
0.647005 15.836722 58.733219 65 54 59
0.646667 15.954995 58.702545 60 50 53
0.646309 16.072620 58.669994 56 49 49
0.645930 16.189592 58.635586 53 48 48
0.645531 16.305914 58.599373 51 46 46
0.645113 16.421593 58.561420 47 44 43
