ply
format ascii 1.0
element vertex 1236
property float x
property float y
property float z
property uchar red
property uchar green
property uchar blue
end_header
-5.150586 13.324241 72.646606 33 24 25
-5.153387 13.488172 72.686104 33 24 25
-5.155967 13.651692 72.722511 33 25 25
-5.158360 13.814865 72.756256 33 25 24
-5.160597 13.977762 72.787811 33 25 24
-5.162712 14.140462 72.817642 34 24 24
-5.164737 14.303041 72.846207 34 25 25
-5.166706 14.465585 72.873978 34 25 25
-5.168648 14.628172 72.901360 34 25 26
-5.170592 14.790884 72.928787 34 25 27
-5.172565 14.953798 72.956619 34 25 27
-5.174591 15.116986 72.985191 33 25 26
-5.176691 15.280516 73.014809 33 25 26
-5.178883 15.444449 73.045723 33 25 26
-5.181182 15.608837 73.078156 33 25 26
-5.183601 15.773729 73.112267 33 26 25
-5.186149 15.939164 73.148201 33 26 25
-5.188830 16.105169 73.186020 32 26 26
-5.191648 16.271769 73.225777 32 27 26
-5.194604 16.438972 73.267464 31 27 26
-5.197694 16.606783 73.311043 31 27 26
-5.200911 16.775194 73.356422 30 27 26
-5.204247 16.944189 73.403473 30 27 27
-5.207691 17.113739 73.452049 30 27 26
-5.211228 17.283810 73.501945 30 26 25
-5.214843 17.454351 73.552917 30 26 26
-5.218515 17.625309 73.604713 30 25 26
-5.222223 17.796614 73.657013 30 25 26
-5.225945 17.968189 73.709511 30 25 25
-5.229655 18.139950 73.761833 30 25 25
-5.233327 18.311806 73.813629 30 25 24
-5.236935 18.483656 73.864510 30 25 24
-5.240449 18.655396 73.914085 30 25 23
-5.243844 18.826918 73.961967 29 25 23
-5.247093 18.998116 74.007790 29 25 23
-5.250168 19.168880 74.051163 29 24 23
-5.253047 19.339108 74.091766 29 25 23
-4.754908 -9.679323 69.168800 57 40 42
-4.752710 -9.525814 69.136833 58 41 43
-4.750452 -9.372323 69.103981 57 42 43
-4.748129 -9.218849 69.070198 57 42 42
-4.745742 -9.065397 69.035477 56 41 41
-4.743295 -8.911982 68.999870 54 40 39
-4.740793 -8.758619 68.963486 50 37 36
-4.738247 -8.605333 68.926445 48 35 35
-4.735669 -8.452150 68.888939 50 36 37
-4.733075 -8.299100 68.851204 54 40 41
-4.730481 -8.146214 68.813477 56 41 43
-4.727908 -7.993524 68.776039 57 41 43
-4.725375 -7.841063 68.739197 57 40 42
-4.722903 -7.688860 68.703239 58 41 42
-4.720513 -7.536942 68.668465 58 42 42
-4.718223 -7.385332 68.635147 59 43 42
-4.716049 -7.234043 68.603531 59 43 42
-4.714006 -7.083088 68.573814 59 44 42
-4.712106 -6.932470 68.546173 58 42 41
-4.710354 -6.782186 68.520691 57 41 41
-4.708755 -6.632226 68.497437 56 40 40
-4.707309 -6.482576 68.476387 56 39 40
-4.706009 -6.333215 68.457481 57 39 41
-4.704848 -6.184119 68.440598 57 39 41
-4.703815 -6.035259 68.425575 56 39 41
-4.702897 -5.886606 68.412209 55 39 41
-4.702075 -5.738131 68.400261 54 39 40
-4.701335 -5.589802 68.389496 55 39 40
-4.700658 -5.441594 68.379646 55 39 40
-4.700027 -5.293480 68.370468 55 39 40
-4.699426 -5.145438 68.361725 55 39 41
-4.698839 -4.997448 68.353180 55 40 41
-4.698254 -4.849498 68.344673 55 40 41
-4.697660 -4.701576 68.336029 56 40 42
-4.697050 -4.553675 68.327148 57 40 42
-4.696418 -4.405791 68.317955 58 41 42
-4.695762 -4.257926 68.308426 60 43 44
-4.695083 -4.110082 68.298546 60 43 43
-4.694384 -3.962263 68.288368 56 39 39
-4.693668 -3.814475 68.277962 51 35 35
-4.692943 -3.666723 68.267403 50 34 34
-4.692214 -3.519016 68.256813 49 33 33
-4.691491 -3.371357 68.246292 50 34 34
-4.690779 -3.223752 68.235939 52 36 36
-4.690085 -3.076204 68.225845 53 37 37
-4.689414 -2.928712 68.216080 53 37 38
-4.688767 -2.781278 68.206665 53 37 38
-4.688146 -2.633898 68.197624 53 37 38
-4.687546 -2.486569 68.188896 52 37 37
-4.686961 -2.339285 68.180397 51 36 36
-4.686383 -2.192040 68.171989 50 35 35
-4.685799 -2.044830 68.163490 50 35 34
-4.685194 -1.897647 68.154678 50 35 35
-4.684549 -1.750487 68.145302 51 35 35
-4.683846 -1.603349 68.135086 51 35 35
-4.683067 -1.456230 68.123749 51 35 34
-4.682191 -1.309133 68.111008 50 35 34
-4.681201 -1.162063 68.096611 49 34 34
-4.680083 -1.015027 68.080338 47 33 34
-4.678823 -0.868035 68.062019 47 32 33
-4.677417 -0.721100 68.041565 46 32 32
-4.675863 -0.574234 68.018951 47 32 33
-4.674166 -0.427453 67.994270 48 33 33
-4.672338 -0.280771 67.967674 48 34 34
-4.670397 -0.134199 67.939430 49 34 34
-4.668367 0.012250 67.909912 49 34 34
-4.666280 0.158570 67.879547 50 35 35
-4.664171 0.304757 67.848877 50 35 36
-4.662081 0.450815 67.818466 49 35 36
-4.660052 0.596749 67.788948 48 35 35
-4.658129 0.742572 67.760971 47 34 34
-4.656357 0.888304 67.735199 46 32 32
-4.654781 1.033968 67.712273 45 31 29
-4.653442 1.179594 67.692802 44 30 28
-4.652380 1.325214 67.677345 45 30 29
-4.651628 1.470866 67.666420 46 31 30
-4.651218 1.616589 67.660439 46 32 30
-4.651171 1.762424 67.659752 47 33 31
-4.651505 1.908413 67.664619 47 32 30
-4.652233 2.054597 67.675209 44 29 28
-4.653359 2.201015 67.691597 42 27 26
-4.654884 2.347704 67.713783 43 29 28
-4.656802 2.494699 67.741676 44 31 30
-4.659101 2.642031 67.775124 43 30 29
-4.661766 2.789726 67.813881 42 30 29
-4.664776 2.937806 67.857681 41 29 28
-4.668110 3.086288 67.906174 40 29 29
-4.671741 3.235185 67.958984 41 30 30
-4.675639 3.384504 68.015694 43 31 31
-4.679775 3.534247 68.075867 44 33 32
-4.684119 3.684412 68.139046 44 34 34
-4.688636 3.834991 68.204758 44 34 34
-4.693295 3.985974 68.272530 44 33 34
-4.698062 4.137345 68.341873 43 32 33
-4.702906 4.289085 68.412338 44 32 31
-4.707795 4.441172 68.483467 45 32 32
-4.712701 4.593581 68.554832 46 33 32
-4.717597 4.746287 68.626038 46 34 32
-4.722456 4.899263 68.696732 47 34 32
-4.727259 5.052484 68.766602 47 34 32
-4.731988 5.205923 68.835388 47 34 32
-4.736628 5.359560 68.902893 48 35 33
-4.741171 5.513374 68.968979 48 34 32
-4.745612 5.667351 69.033577 48 34 31
-4.749951 5.821482 69.096695 48 33 30
-4.754192 5.975763 69.158394 47 32 29
-4.758346 6.130196 69.218819 48 33 29
-4.762426 6.284793 69.278175 50 35 31
-4.766450 6.439569 69.336700 50 37 33
-4.770438 6.594549 69.394714 50 37 35
-4.774415 6.749763 69.452568 50 37 35
-4.778406 6.905246 69.510620 48 36 35
-4.782439 7.061042 69.569290 46 35 34
-4.786541 7.217196 69.628960 45 34 33
-4.790740 7.373755 69.690048 43 33 32
-4.795062 7.530772 69.752922 43 32 32
-4.799532 7.688297 69.817955 43 32 32
-4.804173 7.846380 69.885460 44 32 32
-4.809004 8.005071 69.955727 45 33 32
-4.814040 8.164412 70.028984 45 34 33
-4.819293 8.324447 70.105415 45 35 33
-4.824772 8.485206 70.185112 44 35 33
-4.830480 8.646717 70.268135 43 34 32
-4.836414 8.809001 70.354462 42 33 32
-4.842570 8.972066 70.444008 42 31 32
-4.848936 9.135913 70.536606 41 30 32
-4.855495 9.300531 70.632034 41 30 31
-4.862230 9.465902 70.730011 41 29 30
-4.869117 9.631995 70.830185 40 29 30
-4.876127 9.798767 70.932152 40 29 30
-4.883229 9.966168 71.035477 40 29 29
-4.890391 10.134138 71.139656 39 29 28
-4.897576 10.302606 71.244171 39 29 27
-4.904747 10.471494 71.348488 38 29 27
-4.911865 10.640718 71.452042 38 29 27
-4.918893 10.810189 71.554268 38 29 27
-4.925792 10.979815 71.654625 38 29 28
-4.932526 11.149499 71.752579 37 29 28
-4.939060 11.319147 71.847633 37 29 29
-4.945364 11.488670 71.939323 37 29 29
-4.951408 11.657979 72.027252 36 28 28
-4.957170 11.826992 72.111069 36 28 28
-4.962631 11.995640 72.190514 35 27 28
-4.967776 12.163857 72.265366 34 27 27
-4.972600 12.331598 72.335526 34 27 27
-4.977096 12.498821 72.400932 34 26 27
-4.981270 12.665506 72.461655 34 26 27
-4.985130 12.831644 72.517807 34 25 27
-4.988688 12.997239 72.569565 33 25 26
-4.991964 13.162312 72.617218 33 24 25
-4.994978 13.326893 72.661072 33 24 25
-4.997757 13.491026 72.701492 33 25 25
-5.000328 13.654767 72.738884 33 25 25
-5.002721 13.818177 72.773697 34 26 25
-5.004968 13.981328 72.806374 33 25 25
-5.007099 14.144294 72.837379 33 25 25
-5.009146 14.307155 72.867157 34 25 25
-5.011139 14.469989 72.896164 34 25 25
-5.013108 14.632874 72.924797 34 25 26
-5.015079 14.795892 72.953476 34 25 27
-5.017078 14.959115 72.982552 34 25 27
-5.019128 15.122615 73.012360 33 25 27
-5.021246 15.286453 73.043175 32 24 26
-5.023451 15.450691 73.075249 33 25 26
-5.025756 15.615379 73.108780 33 25 26
-5.028172 15.780560 73.143929 33 26 25
-5.030707 15.946271 73.180809 32 26 25
-5.033367 16.112537 73.219505 32 26 26
-5.036154 16.279381 73.260033 31 27 26
-5.039065 16.446808 73.302391 30 26 25
-5.042099 16.614822 73.346527 30 26 25
-5.045250 16.783413 73.392357 29 26 26
-5.048507 16.952560 73.439743 29 26 26
-5.051862 17.122240 73.488541 30 26 26
-5.055299 17.292416 73.538544 30 25 25
-5.058803 17.463034 73.589508 30 25 25
-5.062356 17.634045 73.641190 29 24 25
-5.065938 17.805380 73.693298 30 24 25
-5.069527 17.976965 73.745506 30 25 25
-5.073099 18.148716 73.797478 30 25 25
-5.076631 18.320545 73.848862 30 25 25
-5.080097 18.492353 73.899269 30 26 25
-5.083471 18.664042 73.948349 30 26 24
-5.086727 18.835506 73.995712 30 26 24
-5.089839 19.006641 74.041000 29 25 23
-5.092785 19.177340 74.083847 29 25 23
-5.095541 19.347502 74.123932 29 24 23
-5.098086 19.517031 74.160950 29 24 24
-4.609218 -9.835715 69.220085 57 40 42
-4.606980 -9.681798 69.186485 57 39 42
-4.604691 -9.527917 69.152092 57 40 41
-4.602343 -9.374066 69.116829 57 41 41
-4.599934 -9.220245 69.080658 58 41 40
-4.597465 -9.066462 69.043579 57 42 41
-4.594939 -8.912727 69.005646 56 41 40
-4.592363 -8.759062 68.966965 54 39 38
-4.589747 -8.605487 68.927673 53 38 38
-4.587103 -8.452031 68.887970 53 39 39
-4.584446 -8.298722 68.848076 56 41 43
-4.581794 -8.145594 68.808243 57 42 44
-4.579165 -7.992678 68.768761 57 41 44
-4.576580 -7.840006 68.729935 57 40 42
-4.574058 -7.687610 68.692062 58 41 41
-4.571620 -7.535514 68.655449 58 41 41
-4.569283 -7.383741 68.620361 59 42 42
-4.567066 -7.232307 68.587067 59 42 42
-4.564982 -7.081223 68.555756 58 42 41
-4.563040 -6.930491 68.526604 57 41 41
-4.561249 -6.780109 68.499710 56 40 40
-4.559612 -6.630065 68.475121 55 39 40
-4.558128 -6.480346 68.452827 56 39 40
-4.556792 -6.330928 68.432762 56 39 40
-4.555596 -6.181788 68.414803 56 39 40
-4.554530 -6.032896 68.398788 55 39 40
-4.553578 -5.884222 68.384499 54 38 40
-4.552726 -5.735735 68.371712 53 38 39
-4.551958 -5.587405 68.360168 54 38 40
-4.551254 -5.439203 68.349602 55 39 41
-4.550600 -5.291103 68.339767 56 40 41
-4.549978 -5.143083 68.330437 56 40 42
-4.549375 -4.995123 68.321373 57 41 43
-4.548777 -4.847208 68.312393 57 41 43
-4.548175 -4.699327 68.303352 57 40 43
-4.547561 -4.551475 68.294144 57 40 41
-4.546932 -4.403646 68.284691 57 40 41
-4.546285 -4.255841 68.274963 58 41 41
-4.545619 -4.108062 68.264977 58 41 40
-4.544940 -3.960314 68.254768 56 39 38
-4.544250 -3.812600 68.244408 53 37 36
-4.543555 -3.664928 68.233978 52 35 35
-4.542864 -3.517303 68.223595 51 34 34
-4.542181 -3.369730 68.213348 51 35 35
-4.541516 -3.222213 68.203354 53 36 36
-4.540872 -3.074754 68.193680 54 37 37
-4.540254 -2.927353 68.184410 54 37 38
-4.539664 -2.780009 68.175545 54 37 38
-4.539103 -2.632719 68.167107 53 37 38
-4.538565 -2.485480 68.159042 51 36 36
-4.538046 -2.338284 68.151237 50 35 35
-4.537536 -2.191127 68.143578 49 34 34
-4.537022 -2.044001 68.135857 49 34 34
-4.536490 -1.896900 68.127876 50 35 35
-4.535923 -1.749821 68.119362 51 35 35
-4.535303 -1.602759 68.110046 51 35 35
-4.534610 -1.455715 68.099648 51 35 35
-4.533827 -1.308689 68.087883 50 35 35
-4.532936 -1.161686 68.074501 48 34 34
-4.531923 -1.014713 68.059296 48 33 34
-4.530777 -0.867781 68.042084 47 33 33
-4.529491 -0.720901 68.022766 47 33 33
-4.528064 -0.574086 68.001343 47 34 33
-4.526502 -0.427350 67.977875 48 34 34
-4.524813 -0.280708 67.952515 48 34 34
-4.523016 -0.134172 67.925529 48 34 34
-4.521134 0.012248 67.897270 49 34 34
-4.519196 0.158543 67.868156 49 34 34
-4.517235 0.304712 67.838707 49 35 35
-4.515289 0.450755 67.809486 48 35 35
-4.513399 0.596679 67.781097 48 35 35
-4.511606 0.742498 67.754173 47 33 33
-4.509954 0.888227 67.729362 46 32 31
-4.508483 1.033892 67.707283 44 31 29
-4.507235 1.179519 67.688530 43 30 28
-4.506245 1.325142 67.673660 43 30 28
-4.505546 1.470795 67.663162 45 31 29
-4.505166 1.616518 67.657448 47 32 31
-4.505127 1.762349 67.656868 48 34 32
-4.505447 1.908330 67.661674 48 33 32
-4.506137 2.054501 67.672035 47 32 31
-4.507203 2.200899 67.688049 46 31 31
-4.508645 2.347562 67.709702 46 32 31
-4.510458 2.494524 67.736931 45 33 31
-4.512632 2.641816 67.769585 44 31 29
-4.515155 2.789462 67.807472 43 30 28
-4.518007 2.937487 67.850304 42 29 28
-4.521168 3.085907 67.897781 41 29 28
-4.524615 3.234735 67.949539 41 29 29
-4.528321 3.383981 68.005188 43 31 30
-4.532259 3.533648 68.064331 44 32 32
-4.536399 3.683734 68.126511 46 33 34
-4.540713 3.834234 68.191299 47 34 35
-4.545170 3.985139 68.258224 46 34 35
-4.549738 4.136435 68.326843 46 33 34
-4.554390 4.288104 68.396690 46 33 33
-4.559095 4.440126 68.467346 47 33 33
-4.563826 4.592480 68.538399 47 33 33
-4.568557 4.745139 68.609451 47 33 32
-4.573265 4.898080 68.680153 45 33 31
-4.577929 5.051278 68.750198 44 31 29
-4.582532 5.204709 68.819328 44 31 29
-4.587062 5.358351 68.887344 46 33 31
-4.591507 5.512186 68.954109 48 33 31
-4.595864 5.666200 69.019547 48 33 30
-4.600133 5.820384 69.083656 48 33 30
-4.604317 5.974733 69.146484 49 34 29
-4.608425 6.129253 69.208168 50 35 30
-4.612468 6.283951 69.268890 50 36 32
-4.616464 6.438845 69.328903 50 37 34
-4.620431 6.593957 69.388489 50 37 35
-4.624393 6.749317 69.447983 50 37 35
-4.628372 6.904959 69.507729 49 36 35
-4.632393 7.060925 69.568130 48 36 34
-4.636484 7.217257 69.629555 46 34 33
-4.640667 7.374002 69.692383 45 33 33
-4.644969 7.531210 69.756981 45 33 33
-4.649410 7.688928 69.823685 45 33 33
-4.654013 7.847205 69.892807 45 33 33
-4.658794 8.006086 69.964600 46 34 33
-4.663767 8.165613 70.039284 46 35 34
-4.668942 8.325823 70.117012 46 35 34
-4.674327 8.486749 70.197876 46 35 34
-4.679923 8.648414 70.281921 45 35 34
-4.685729 8.810834 70.369110 44 34 33
-4.691738 8.974019 70.459343 43 33 33
-4.697939 9.137968 70.552475 43 31 32
-4.704318 9.302670 70.648270 42 30 32
-4.710856 9.468104 70.746460 41 30 31
-4.717531 9.634241 70.846695 41 30 30
-4.724316 9.801040 70.948601 41 30 30
-4.731184 9.968450 71.051735 40 30 29
-4.738101 10.136413 71.155624 40 30 28
-4.745037 10.304862 71.259781 39 29 27
-4.751955 10.473722 71.363670 39 29 27
-4.758820 10.642913 71.466774 38 28 27
-4.765596 10.812346 71.568542 38 28 27
-4.772250 10.981934 71.668457 38 28 28
-4.778745 11.151584 71.765999 38 29 29
-4.785051 11.321206 71.860695 38 29 29
-4.791137 11.490711 71.952103 37 29 29
-4.796979 11.660016 72.039841 37 28 28
-4.802554 11.829040 72.123550 36 27 27
-4.807844 11.997714 72.202995 35 27 27
-4.812836 12.165979 72.277969 35 27 27
-4.817523 12.333785 72.348351 35 27 27
-4.821901 12.501096 72.414108 35 26 27
-4.825975 12.667890 72.475296 35 26 27
-4.829751 12.834157 72.532005 35 26 27
-4.833243 12.999903 72.584442 34 25 26
-4.836467 13.165147 72.632858 34 25 26
-4.839445 13.329920 72.677574 34 25 26
-4.842199 13.494264 72.718933 33 26 26
-4.844757 13.658233 72.757347 33 26 26
-4.847147 13.821888 72.793243 33 26 26
-4.849399 13.985299 72.827057 33 26 25
-4.851542 14.148540 72.859238 34 26 26
-4.853605 14.311685 72.890228 34 25 25
-4.855619 14.474813 72.920471 34 25 25
-4.857609 14.638004 72.950363 34 25 26
-4.859602 14.801330 72.980286 34 25 27
-4.861621 14.964865 73.010605 34 25 27
-4.863687 15.128676 73.041626 33 25 27
-4.865817 15.292826 73.073624 32 24 26
-4.868028 15.457369 73.106834 32 24 25
-4.870333 15.622355 73.141441 32 25 25
-4.872740 15.787824 73.177597 32 26 24
-4.875258 15.953809 73.215408 32 26 25
-4.877890 16.120335 73.254936 32 26 25
-4.880638 16.287418 73.296196 31 26 25
-4.883500 16.455065 73.339188 30 26 25
-4.886474 16.623274 73.383842 30 26 26
-4.889552 16.792036 73.430069 29 26 26
-4.892726 16.961332 73.477745 29 26 26
-4.895987 17.131132 73.526703 29 25 26
-4.899319 17.301399 73.576752 29 25 25
-4.902709 17.472088 73.627663 29 24 25
-4.906139 17.643141 73.679176 29 24 25
-4.909592 17.814493 73.731018 30 24 25
-4.913045 17.986076 73.782883 30 25 25
-4.916477 18.157804 73.834435 30 25 25
-4.919866 18.329592 73.885323 30 25 25
-4.923188 18.501347 73.935211 30 26 25
-4.926418 18.672968 73.983711 30 26 25
-4.929532 18.844355 74.030479 30 26 25
-4.932507 19.015409 74.075157 30 25 24
-4.935319 19.186024 74.117393 30 25 24
-4.937948 19.356102 74.156876 29 25 24
-4.940375 19.525549 74.193314 29 24 24
-4.461220 -9.838399 69.238976 56 40 42
-4.458901 -9.684109 69.202995 56 39 41
-4.456533 -9.529865 69.166229 56 40 40
-4.454108 -9.375662 69.128601 57 40 40
-4.451626 -9.221502 69.090073 58 41 40
-4.449087 -9.067393 69.050674 59 42 41
-4.446495 -8.913347 69.010445 59 42 41
-4.443857 -8.759384 68.969498 58 42 41
-4.441182 -8.605526 68.927986 57 42 41
-4.438483 -8.451800 68.886093 57 42 42
-4.435774 -8.298238 68.844048 57 42 44
-4.433073 -8.144869 68.802116 57 42 44
-4.430397 -7.991729 68.760597 57 41 43
-4.427767 -7.838849 68.719788 57 40 42
-4.425204 -7.686260 68.680000 57 40 41
-4.422726 -7.533987 68.641533 58 41 41
-4.420351 -7.382054 68.604683 59 41 42
-4.418097 -7.230476 68.569702 58 41 42
-4.415977 -7.079263 68.536789 58 41 41
-4.414000 -6.928419 68.506119 57 40 41
-4.412176 -6.777940 68.477798 56 39 40
-4.410506 -6.627816 68.451881 56 39 39
-4.408989 -6.478029 68.428352 56 39 40
-4.407623 -6.328558 68.407135 57 40 41
-4.406397 -6.179377 68.388115 57 40 41
-4.405302 -6.030456 68.371124 55 39 40
-4.404324 -5.881764 68.355942 53 37 39
-4.403447 -5.733271 68.342331 52 36 38
-4.402656 -5.584943 68.330048 53 37 39
-4.401932 -5.436753 68.318810 55 38 40
-4.401260 -5.288673 68.308380 56 39 42
-4.400624 -5.140681 68.298523 57 41 43
-4.400011 -4.992755 68.288994 58 41 44
-4.399407 -4.844882 68.279625 58 41 44
-4.398804 -4.697051 68.270264 57 39 42
-4.398194 -4.549253 68.260811 56 38 40
-4.397574 -4.401485 68.251183 56 39 39
-4.396941 -4.253746 68.241364 57 39 38
-4.396297 -4.106039 68.231354 57 40 38
-4.395643 -3.958366 68.221207 56 39 37
-4.394984 -3.810733 68.210983 55 38 36
-4.394327 -3.663145 68.200783 54 37 36
-4.393677 -3.515607 68.190697 53 36 35
-4.393042 -3.368124 68.180832 53 35 35
-4.392426 -3.220698 68.171288 54 36 37
-4.391837 -3.073331 68.162140 55 37 38
-4.391277 -2.926024 68.153450 55 37 38
-4.390749 -2.778773 68.145248 55 37 38
-4.390251 -2.631577 68.137520 53 37 38
-4.389780 -2.484428 68.130211 51 35 36
-4.389330 -2.337323 68.123222 49 34 34
-4.388891 -2.190253 68.116417 48 33 33
-4.388452 -2.043213 68.109604 49 34 34
-4.387998 -1.896196 68.102562 50 35 35
-4.387513 -1.749196 68.095032 51 35 35
-4.386980 -1.602211 68.086746 51 36 35
-4.386378 -1.455240 68.077415 51 36 35
-4.385692 -1.308283 68.066772 50 35 35
-4.384905 -1.161345 68.054550 49 35 35
-4.384002 -1.014434 68.040535 48 34 34
-4.382973 -0.867558 68.024574 48 34 34
-4.381812 -0.720729 68.006546 48 34 34
-4.380517 -0.573960 67.986450 48 35 34
-4.379092 -0.427265 67.964340 48 34 34
-4.377548 -0.280658 67.940369 48 34 34
-4.375899 -0.134151 67.914787 48 34 34
-4.374168 0.012246 67.887924 48 33 33
-4.372383 0.158525 67.860207 48 33 33
-4.370574 0.304682 67.832123 48 34 34
-4.368776 0.450720 67.804222 49 34 34
-4.367028 0.596644 67.777100 48 35 34
-4.365369 0.742467 67.751358 48 34 34
-4.363840 0.888205 67.727623 46 33 32
-4.362480 1.033880 67.706512 44 31 30
-4.361326 1.179520 67.688599 43 29 28
-4.360412 1.325157 67.674423 43 29 28
-4.359770 1.470823 67.664452 45 30 30
-4.359426 1.616557 67.659111 47 32 32
-4.359401 1.762397 67.658722 50 35 34
-4.359712 1.908383 67.663559 51 35 35
-4.360370 2.054553 67.673775 51 35 35
-4.361382 2.200945 67.689468 50 35 35
-4.362747 2.347596 67.710655 49 35 34
-4.364462 2.494537 67.737267 48 34 32
-4.366518 2.641800 67.769188 46 33 31
-4.368905 2.789411 67.806221 44 31 29
-4.371603 2.937392 67.848114 43 30 28
-4.374598 3.085762 67.894592 42 29 28
-4.377866 3.234534 67.945305 42 29 28
-4.381383 3.383718 67.999901 43 30 30
-4.385126 3.533319 68.057991 45 32 32
-4.389068 3.683336 68.119156 47 33 34
-4.393179 3.833767 68.182976 48 34 35
-4.397435 3.984602 68.249023 48 35 36
-4.401806 4.135831 68.316856 49 35 35
-4.406264 4.287437 68.386047 49 35 34
-4.410782 4.439402 68.456177 48 34 34
-4.415335 4.591705 68.526833 47 33 33
-4.419898 4.744323 68.597649 46 32 32
-4.424449 4.897234 68.668282 45 31 30
-4.428968 5.050413 68.738419 43 29 28
-4.433439 5.203838 68.807816 43 29 28
-4.437849 5.357488 68.876259 45 31 30
-4.442189 5.511346 68.943604 48 32 30
-4.446453 5.665399 69.009789 48 33 30
-4.450641 5.819636 69.074783 49 33 30
-4.454755 5.974056 69.138649 50 34 30
-4.458805 6.128662 69.201492 50 35 31
-4.462800 6.283462 69.263496 50 36 33
-4.466755 6.438471 69.324875 50 36 34
-4.470689 6.593714 69.385933 50 36 35
-4.474621 6.749218 69.446960 50 37 36
-4.478573 6.905016 69.508308 50 37 36
-4.482570 7.061149 69.570335 49 36 36
-4.486634 7.217656 69.633400 48 35 35
-4.490788 7.374584 69.697876 46 34 34
-4.495055 7.531978 69.764091 46 34 33
-4.499454 7.689886 69.832382 46 34 33
-4.504006 7.848351 69.903015 46 34 33
-4.508724 8.007419 69.976250 47 34 33
-4.513622 8.167127 70.052269 47 35 34
-4.518709 8.327510 70.131210 47 35 35
-4.523989 8.488597 70.213165 47 35 35
-4.529465 8.650411 70.298149 47 35 35
-4.535134 8.812966 70.386131 47 35 35
-4.540989 8.976268 70.477005 46 34 34
-4.547020 9.140317 70.570610 44 33 33
-4.553213 9.305099 70.666725 43 31 32
-4.559550 9.470595 70.765076 42 31 31
-4.566010 9.636776 70.865341 42 31 30
-4.572569 9.803599 70.967133 41 31 30
-4.579200 9.971020 71.070053 41 31 29
-4.585874 10.138978 71.173630 40 30 28
-4.592560 10.307410 71.277397 40 30 27
-4.599226 10.476245 71.380859 39 29 27
-4.605840 10.645404 71.483505 38 29 27
-4.612367 10.814803 71.584808 38 28 27
-4.618776 10.984357 71.684273 38 28 28
-4.625035 11.153978 71.781410 38 28 29
-4.631114 11.323580 71.875763 38 28 29
-4.636986 11.493074 71.966904 37 28 29
-4.642627 11.662380 72.054443 37 28 28
-4.648015 11.831422 72.138077 37 27 27
-4.653135 12.000132 72.217545 36 27 26
-4.657975 12.168449 72.292648 36 27 26
-4.662526 12.336330 72.363281 36 27 27
-4.666786 12.503736 72.429405 36 27 27
-4.670759 12.670647 72.491058 36 26 27
-4.674451 12.837051 72.548355 36 26 27
-4.677874 13.002956 72.601486 35 26 27
-4.681044 13.168379 72.650688 35 26 27
-4.683981 13.333350 72.696274 34 26 27
-4.686708 13.497911 72.738594 33 26 27
-4.689250 13.662116 72.778038 33 26 27
-4.691633 13.826024 72.815025 33 26 26
-4.693885 13.989701 72.849983 33 26 26
-4.696034 14.153220 72.883347 33 26 26
-4.698110 14.316656 72.915550 33 25 26
-4.700138 14.480084 72.947021 34 25 26
-4.702144 14.643581 72.978157 35 26 26
-4.704152 14.807219 73.009323 35 26 27
-4.706184 14.971068 73.040871 34 25 27
-4.708261 15.135194 73.073090 34 25 27
-4.710397 15.299654 73.106255 33 25 26
-4.712608 15.464503 73.140572 32 24 25
-4.714906 15.629786 73.176231 32 25 25
-4.717299 15.795541 73.213364 32 26 24
-4.719793 15.961799 73.252075 32 26 25
-4.722392 16.128580 73.292404 32 26 26
-4.725095 16.295900 73.334373 32 26 26
-4.727903 16.463762 73.377953 31 26 26
-4.730812 16.632166 73.423096 31 26 26
-4.733814 16.801096 73.469681 30 26 26
-4.736901 16.970533 73.517601 29 25 26
-4.740064 17.140448 73.566681 29 24 25
-4.743289 17.310804 73.616745 29 24 25
-4.746562 17.481552 73.667549 29 24 25
-4.749868 17.652641 73.718857 29 23 24
-4.753189 17.824005 73.770386 30 24 24
-4.756505 17.995575 73.821854 30 24 24
-4.759796 18.167271 73.872925 30 25 25
-4.763040 18.339008 73.923286 30 25 25
-4.766216 18.510695 73.972565 30 25 25
-4.769300 18.682238 74.020439 30 25 25
-4.772271 18.853537 74.066544 30 25 25
-4.775105 19.024492 74.110542 30 25 24
-4.777783 19.195007 74.152092 29 25 23
-4.780283 19.364983 74.190895 29 25 24
-4.782588 19.534327 74.226669 29 24 24
-4.784680 19.702951 74.259148 29 24 24
-4.315361 -9.995523 69.293518 57 42 43
-4.313022 -9.840813 69.255959 57 40 42
-4.310639 -9.686168 69.217705 56 39 40
-4.308208 -9.531577 69.178658 56 39 40
-4.305722 -9.377039 69.138748 57 40 40
-4.303182 -9.222554 69.097954 58 41 41
-4.300588 -9.068132 69.056305 59 42 42
-4.297944 -8.913787 69.013847 61 43 43
-4.295257 -8.759536 68.970695 60 43 43
-4.292536 -8.605404 68.927010 59 44 43
-4.289793 -8.451417 68.882965 59 44 43
-4.287044 -8.297607 68.838821 58 44 44
-4.284304 -8.144007 68.794830 57 43 44
-4.281593 -7.990647 68.751289 57 42 43
-4.278929 -7.837564 68.708519 56 41 42
-4.276332 -7.684785 68.666824 57 41 42
-4.273823 -7.532340 68.626526 58 41 42
-4.271418 -7.380249 68.587914 58 41 43
-4.269134 -7.228529 68.551239 58 41 43
-4.266985 -7.077191 68.516724 58 41 42
-4.264981 -6.926238 68.484543 57 41 42
-4.263129 -6.775664 68.454803 57 40 41
-4.261431 -6.625460 68.427551 57 40 40
-4.259889 -6.475608 68.402786 57 40 40
-4.258496 -6.326087 68.380424 58 41 41
-4.257246 -6.176868 68.360352 59 42 42
-4.256128 -6.027922 68.342392 56 39 40
-4.255128 -5.879217 68.326332 52 35 37
-4.254230 -5.730720 68.311928 51 34 36
-4.253421 -5.582400 68.298927 53 36 38
-4.252682 -5.434226 68.287064 55 37 39
-4.251998 -5.286172 68.276077 56 39 41
-4.251354 -5.138213 68.265732 58 40 43
-4.250735 -4.990329 68.255798 58 41 44
-4.250132 -4.842505 68.246101 58 40 43
-4.249533 -4.694727 68.236496 57 38 41
-4.248933 -4.546990 68.226860 56 37 39
-4.248327 -4.399289 68.217133 55 37 37
-4.247715 -4.251623 68.207298 56 38 37
-4.247096 -4.103992 68.197357 56 39 37
-4.246472 -3.956402 68.187347 56 39 37
-4.245850 -3.808855 68.177361 56 39 36
-4.245234 -3.661356 68.167465 55 38 36
-4.244630 -3.513910 68.157768 54 37 35
-4.244045 -3.366520 68.148376 54 37 36
-4.243485 -3.219190 68.139374 55 37 37
-4.242953 -3.071920 68.130844 56 37 38
-4.242455 -2.924709 68.122841 55 37 38
-4.241991 -2.777555 68.115387 54 37 38
-4.241560 -2.630455 68.108467 52 36 37
-4.241158 -2.483401 68.102020 50 35 35
-4.240781 -2.336387 68.095955 48 33 33
-4.240417 -2.189408 68.090118 47 32 32
-4.240056 -2.042455 68.084320 48 33 33
-4.239684 -1.895521 68.078346 50 35 35
-4.239284 -1.748602 68.071922 51 35 35
-4.238840 -1.601694 68.064789 51 36 35
-4.238334 -1.454796 68.056664 51 36 36
-4.237749 -1.307908 68.047264 51 36 36
-4.237068 -1.161035 68.036339 50 35 35
-4.236279 -1.014182 68.023674 49 35 35
-4.235372 -0.867360 68.009094 49 35 35
-4.234338 -0.720580 67.992508 49 35 35
-4.233179 -0.573854 67.973885 49 35 35
-4.231895 -0.427195 67.953270 49 35 35
-4.230497 -0.280618 67.930832 49 34 35
-4.229000 -0.134135 67.906784 49 34 34
-4.227424 0.012245 67.881477 49 33 33
-4.225793 0.158513 67.855286 49 32 33
-4.224138 0.304667 67.828712 49 33 34
-4.222491 0.450707 67.802269 50 34 34
-4.220888 0.596639 67.776535 49 35 34
-4.219367 0.742475 67.752106 48 35 34
-4.217964 0.888230 67.729584 47 33 32
-4.216717 1.033927 67.709564 44 31 29
-4.215661 1.179590 67.692604 43 29 28
-4.214828 1.325251 67.679230 43 29 28
-4.214248 1.470942 67.669914 45 31 31
-4.213945 1.616699 67.665047 48 33 33
-4.213940 1.762560 67.664963 51 35 36
-4.214248 1.908563 67.669914 53 36 37
-4.214881 2.054744 67.680077 54 36 37
-4.215845 2.201143 67.695557 53 36 37
-4.217140 2.347793 67.716354 51 36 36
-4.218765 2.494727 67.742432 50 35 34
-4.220710 2.641975 67.773682 48 34 32
-4.222968 2.789563 67.809921 46 32 31
-4.225522 2.937514 67.850929 45 30 30
-4.228356 3.085846 67.896446 44 30 29
-4.231452 3.234575 67.946152 43 30 29
-4.234787 3.383708 67.999710 45 31 30
-4.238340 3.533255 68.056763 46 32 32
-4.242086 3.683215 68.116913 48 34 34
-4.246001 3.833587 68.179779 49 35 36
-4.250058 3.984363 68.244926 51 36 37
-4.254232 4.135534 68.311951 51 36 36
-4.258498 4.287086 68.380447 50 35 36
-4.262829 4.439001 68.449997 49 34 35
-4.267202 4.591261 68.520218 48 33 33
-4.271595 4.743846 68.590752 47 32 32
-4.275985 4.896732 68.661240 46 31 31
-4.280354 5.049897 68.731407 45 30 30
-4.284687 5.203321 68.800980 45 30 30
-4.288971 5.356983 68.869766 46 31 30
-4.293197 5.510868 68.937622 48 32 31
-4.297359 5.664960 69.004456 48 33 31
-4.301456 5.819254 69.070251 49 33 31
-4.305491 5.973745 69.135048 50 34 31
-4.309471 6.128437 69.198952 50 35 32
-4.313406 6.283337 69.262123 50 35 33
-4.317308 6.438463 69.324783 50 35 34
-4.321195 6.593834 69.387192 50 35 35
-4.325084 6.749479 69.449654 49 36 35
-4.328997 6.905431 69.512482 49 36 35
-4.332954 7.061726 69.576027 49 36 35
-4.336978 7.218405 69.640633 48 35 35
-4.341088 7.375511 69.706642 47 35 34
-4.345307 7.533088 69.774368 47 34 34
-4.349651 7.691180 69.844131 47 34 33
-4.354138 7.849830 69.916183 46 34 33
-4.358782 8.009078 69.990753 47 34 33
-4.363593 8.168962 70.068008 47 34 33
-4.368580 8.329513 70.148079 47 35 34
-4.373746 8.490757 70.231033 47 35 34
-4.379093 8.652717 70.316887 47 35 34
-4.384617 8.815402 70.405594 47 35 34
-4.390312 8.978820 70.497032 46 34 34
-4.396167 9.142965 70.591057 45 33 33
-4.402169 9.307827 70.687439 44 32 32
-4.408302 9.473385 70.785919 43 31 31
-4.414546 9.639608 70.886169 42 31 30
-4.420877 9.806458 70.987831 41 31 31
-4.427271 9.973889 71.090508 41 31 30
-4.433701 10.141846 71.193756 41 30 29
-4.440139 10.310266 71.297142 40 30 28
-4.446555 10.479077 71.400162 39 30 27
-4.452919 10.648210 71.502342 38 29 27
-4.459199 10.817580 71.603188 37 28 27
-4.465366 10.987107 71.702217 37 28 28
-4.471391 11.156705 71.798958 37 28 29
-4.477246 11.326292 71.892982 37 28 29
-4.482905 11.495781 71.983856 37 28 29
-4.488347 11.665096 72.071228 37 27 28
-4.493551 11.834163 72.154793 37 27 27
-4.498502 12.002915 72.234299 37 27 26
-4.503189 12.171296 72.309555 37 27 27
-4.507605 12.339258 72.380455 37 27 27
-4.511746 12.506767 72.446960 36 27 27
-4.515617 12.673801 72.509109 36 27 27
-4.519223 12.840352 72.567017 36 27 27
-4.522575 13.006423 72.620842 36 27 27
-4.525689 13.172033 72.670853 35 27 27
-4.528583 13.337210 72.717316 34 27 27
-4.531279 13.501996 72.760605 33 27 27
-4.533800 13.666442 72.801079 33 27 27
-4.536171 13.830606 72.839157 32 27 26
-4.538419 13.994555 72.875259 33 26 27
-4.540570 14.158359 72.909805 33 26 27
-4.542652 14.322089 72.943222 34 26 27
-4.544688 14.485821 72.975922 34 26 27
-4.546704 14.649627 73.008286 35 26 27
-4.548721 14.813578 73.040680 36 26 27
-4.550761 14.977742 73.073433 35 26 27
-4.552841 15.142182 73.106834 35 25 26
-4.554977 15.306955 73.141136 34 25 26
-4.557183 15.472111 73.176552 33 25 24
-4.559467 15.637691 73.213242 32 25 24
-4.561840 15.803732 73.251335 31 26 24
-4.564304 15.970261 73.290909 32 26 25
-4.566864 16.137299 73.332016 32 26 26
-4.569520 16.304853 73.374664 32 26 26
-4.572269 16.472929 73.418808 32 26 27
-4.575109 16.641523 73.464401 31 26 27
-4.578031 16.810617 73.511322 30 25 26
-4.581028 16.980194 73.559456 30 25 26
-4.584091 17.150221 73.608635 29 24 25
-4.587207 17.320662 73.658669 29 23 24
-4.590363 17.491468 73.709335 29 23 24
-4.593542 17.662588 73.760391 30 23 24
-4.596730 17.833960 73.811584 30 24 25
-4.599908 18.005510 73.862610 30 24 24
-4.603057 18.177168 73.913170 30 24 25
-4.606156 18.348848 73.962944 30 24 25
-4.609186 18.520458 74.011589 30 24 25
-4.612124 18.691912 74.058777 29 25 24
-4.614951 18.863111 74.104164 29 25 24
-4.617645 19.033960 74.147423 29 25 24
-4.620186 19.204359 74.188225 29 25 24
-4.622556 19.374216 74.226280 28 24 24
-4.624737 19.543440 74.261299 28 24 24
-4.626714 19.711945 74.293037 28 24 24
-4.169330 -10.153037 69.349121 59 44 43
-4.166982 -9.997910 69.310059 58 43 43
-4.164597 -9.842864 69.270393 57 41 42
-4.162169 -9.687888 69.230003 56 39 40
-4.159692 -9.532975 69.188805 57 39 40
-4.157164 -9.378123 69.146751 58 40 41
-4.154582 -9.223335 69.103813 59 41 43
-4.151949 -9.068620 69.060020 61 42 44
-4.149269 -8.913992 69.015442 61 43 46
-4.146548 -8.759470 68.970177 61 44 45
-4.143795 -8.605078 68.924393 60 44 45
-4.141024 -8.450843 68.878288 59 44 45
-4.138247 -8.296797 68.832100 58 44 45
-4.135481 -8.142973 68.786102 57 44 44
-4.132745 -7.989405 68.740601 56 43 43
-4.130058 -7.836125 68.695900 57 43 43
-4.127439 -7.683164 68.652344 58 42 43
-4.124907 -7.530551 68.610229 59 42 44
-4.122481 -7.378307 68.569870 59 43 44
-4.120176 -7.226451 68.531525 59 43 44
-4.118005 -7.074990 68.495422 59 43 44
-4.115979 -6.923930 68.461723 59 42 43
-4.114106 -6.773265 68.430565 59 41 42
-4.112387 -6.622984 68.401978 58 40 41
-4.110824 -6.473071 68.375977 57 40 41
-4.109411 -6.323501 68.352470 58 40 41
-4.108140 -6.174247 68.331345 58 40 40
-4.107003 -6.025279 68.312424 56 38 38
-4.105986 -5.876564 68.295502 53 34 36
-4.105073 -5.728068 68.280319 52 34 36
-4.104249 -5.579760 68.266624 54 35 37
-4.103500 -5.431607 68.254150 56 37 39
-4.102808 -5.283583 68.242645 57 38 41
-4.102159 -5.135663 68.231857 57 39 42
-4.101541 -4.987825 68.221565 57 39 42
-4.100941 -4.840055 68.211586 57 38 41
-4.100351 -4.692339 68.201782 56 37 39
-4.099765 -4.544669 68.192032 55 36 37
-4.099178 -4.397041 68.182274 55 36 36
-4.098590 -4.249453 68.172485 56 37 36
-4.098000 -4.101906 68.162682 56 38 36
-4.097412 -3.954403 68.152901 56 39 36
-4.096830 -3.806947 68.143211 56 39 36
-4.096259 -3.659543 68.133705 56 39 36
-4.095704 -3.512193 68.124481 55 39 36
-4.095172 -3.364903 68.115639 55 38 36
-4.094668 -3.217673 68.107262 56 38 37
-4.094198 -3.070504 68.099434 56 38 38
-4.093763 -2.923394 68.092201 55 38 38
-4.093366 -2.776340 68.085587 54 37 37
-4.093004 -2.629339 68.079575 52 36 36
-4.092674 -2.482382 68.074089 49 34 34
-4.092371 -2.335464 68.069046 47 32 32
-4.092084 -2.188577 68.064278 46 31 31
-4.091804 -2.041713 68.059608 47 33 33
-4.091515 -1.894866 68.054810 49 34 34
-4.091204 -1.748030 68.049629 50 35 35
-4.090852 -1.601200 68.043777 50 36 36
-4.090443 -1.454375 68.036987 51 36 36
-4.089962 -1.307557 68.028969 51 36 37
-4.089391 -1.160747 68.019478 51 36 36
-4.088719 -1.013953 68.008301 50 36 36
-4.087934 -0.867184 67.995255 51 36 36
-4.087032 -0.720450 67.980240 51 36 36
-4.086009 -0.573764 67.963226 51 36 36
-4.084869 -0.427139 67.944267 51 35 36
-4.083620 -0.280588 67.923492 50 34 36
-4.082276 -0.134124 67.901131 50 33 34
-4.080855 0.012244 67.877502 49 32 34
-4.079381 0.158508 67.852989 50 32 34
-4.077882 0.304664 67.828049 50 33 35
-4.076387 0.450713 67.803192 51 35 35
-4.074932 0.596661 67.778976 51 36 35
-4.073550 0.742517 67.755989 50 36 34
-4.072276 0.888299 67.734802 48 34 32
-4.071145 1.034025 67.715988 46 32 30
-4.070190 1.179721 67.700111 44 30 29
-4.069442 1.325416 67.687668 44 30 29
-4.068928 1.471142 67.679115 46 32 32
-4.068671 1.616933 67.674843 50 34 35
-4.068691 1.762826 67.675171 52 35 37
-4.069003 1.908857 67.680367 54 36 38
-4.069618 2.055063 67.690582 54 36 38
-4.070540 2.201481 67.705940 54 36 39
-4.071774 2.348143 67.726456 53 36 38
-4.073316 2.495083 67.752098 52 36 36
-4.075159 2.642329 67.782761 51 34 34
-4.077296 2.789908 67.818298 49 33 33
-4.079713 2.937842 67.858505 47 32 32
-4.082396 3.086150 67.903122 46 31 30
-4.085327 3.234847 67.951874 46 31 30
-4.088488 3.383945 68.004456 47 32 31
-4.091857 3.533449 68.060509 48 33 33
-4.095415 3.683364 68.119675 50 35 35
-4.099137 3.833689 68.181595 51 36 36
-4.103001 3.984417 68.245850 52 37 38
-4.106982 4.135541 68.312073 52 37 38
-4.111057 4.287048 68.379852 51 36 38
-4.115203 4.438924 68.448814 50 35 37
-4.119397 4.591151 68.518570 49 34 36
-4.123617 4.743709 68.588768 49 33 34
-4.127844 4.896577 68.659073 48 32 33
-4.132060 5.049736 68.729202 47 32 32
-4.136250 5.203164 68.798897 47 32 32
-4.140402 5.356843 68.867958 47 32 32
-4.144507 5.510756 68.936234 48 31 32
-4.148560 5.664893 69.003639 48 32 32
-4.152558 5.819245 69.070145 49 33 32
-4.156504 5.973808 69.135780 50 34 33
-4.160403 6.128586 69.200638 50 34 34
-4.164266 6.283587 69.264877 50 34 34
-4.168103 6.438827 69.328705 49 34 35
-4.171930 6.594326 69.392365 49 35 35
-4.175764 6.750110 69.456139 49 35 35
-4.179624 6.906211 69.520332 49 35 36
-4.183528 7.062665 69.585281 49 35 36
-4.187498 7.219512 69.651306 49 35 36
-4.191551 7.376790 69.718727 48 35 35
-4.195707 7.534544 69.787857 48 35 34
-4.199983 7.692814 69.858978 47 34 34
-4.204393 7.851642 69.932327 47 34 34
-4.208950 8.011065 70.008125 47 33 34
-4.213663 8.171120 70.086517 47 33 33
-4.218539 8.331833 70.167618 47 33 33
-4.223582 8.493231 70.251495 47 34 33
-4.228790 8.655330 70.338127 47 34 33
-4.234162 8.818143 70.427483 47 35 33
-4.239690 8.981672 70.519432 46 34 34
-4.245365 9.145913 70.613815 45 33 33
-4.251173 9.310853 70.710419 44 32 32
-4.257098 9.476472 70.808983 43 32 31
-4.263124 9.642739 70.909195 42 31 31
-4.269226 9.809619 71.010704 42 31 31
-4.275384 9.977063 71.113129 42 31 31
-4.281572 10.145021 71.216057 41 31 30
-4.287763 10.313432 71.319038 40 31 29
-4.293931 10.482229 71.421631 39 30 29
-4.300047 10.651340 71.523361 38 29 28
-4.306084 10.820688 71.623764 37 28 28
-4.312012 10.990195 71.722374 37 28 29
-4.317806 11.159778 71.818733 37 27 29
-4.323439 11.329357 71.912437 37 27 29
-4.328888 11.498851 72.003075 37 26 28
-4.334133 11.668184 72.090309 37 26 26
-4.339154 11.837284 72.173820 38 27 26
-4.343937 12.006087 72.253387 38 27 27
-4.348472 12.174537 72.328812 38 28 27
-4.352752 12.342589 72.400002 37 28 28
-4.356774 12.510209 72.466904 37 28 28
-4.360541 12.677376 72.529564 37 28 28
-4.364059 12.844079 72.588081 37 28 28
-4.367339 13.010324 72.642624 36 28 28
-4.370393 13.176127 72.693436 35 28 28
-4.373241 13.341516 72.740799 33 28 28
-4.375901 13.506533 72.785049 33 28 27
-4.378397 13.671226 72.826561 32 27 26
-4.380752 13.835652 72.865738 33 27 26
-4.382990 13.999877 72.902969 33 27 27
-4.385138 14.163967 72.938690 34 26 27
-4.387219 14.327995 72.973305 34 26 27
-4.389258 14.492033 73.007217 35 26 27
-4.391277 14.656152 73.040810 36 26 27
-4.393298 14.820420 73.074417 36 26 27
-4.395339 14.984901 73.108360 35 26 26
-4.397418 15.149658 73.142929 35 26 26
-4.399547 15.314744 73.178360 35 26 25
-4.401741 15.480206 73.214844 34 25 24
-4.404007 15.646085 73.252541 33 25 24
-4.406353 15.812411 73.291565 32 26 25
-4.408784 15.979213 73.331993 32 26 25
-4.411301 16.146503 73.373856 32 26 26
-4.413904 16.314295 73.417145 32 26 27
-4.416591 16.482584 73.461845 32 26 27
-4.419357 16.651369 73.507866 31 26 27
-4.422197 16.820629 73.555099 31 25 26
-4.425103 16.990343 73.603424 30 25 25
-4.428064 17.160484 73.652679 30 24 25
-4.431069 17.331007 73.702660 29 23 24
-4.434106 17.501873 73.753174 29 23 24
-4.437160 17.673021 73.803963 30 23 24
-4.440215 17.844397 73.854782 30 23 24
-4.443255 18.015930 73.905350 30 24 24
-4.446261 18.187544 73.955368 30 24 25
-4.449216 18.359159 74.004509 29 24 25
-4.452100 18.530691 74.052475 29 24 24
-4.454893 18.702049 74.098938 29 24 24
-4.457576 18.873138 74.143555 29 24 24
-4.460128 19.043867 74.186012 29 24 24
-4.462533 19.214140 74.226006 29 24 24
-4.464771 19.383863 74.263237 28 24 24
-4.466827 19.552950 74.297440 28 24 24
-4.468687 19.721315 74.328362 28 24 24
-4.470337 19.888885 74.355812 28 24 24
-4.023054 -10.310774 69.404610 59 45 42
-4.020710 -10.155244 69.364197 59 45 42
-4.018337 -9.999811 69.323250 58 43 42
-4.015926 -9.844464 69.281654 58 41 42
-4.013472 -9.689191 69.239311 57 39 40
-4.010970 -9.533987 69.196152 56 39 40
-4.008417 -9.378850 69.152107 57 40 42
-4.005813 -9.223785 69.107185 59 41 44
-4.003159 -9.068802 69.061401 61 42 46
-4.000460 -8.913915 69.014839 61 44 47
-3.997721 -8.759142 68.967590 61 44 47
-3.994953 -8.604508 68.919838 60 44 46
-3.992167 -8.450044 68.871773 59 44 45
-3.989377 -8.295777 68.823639 59 44 45
-3.986599 -8.141743 68.775711 58 44 44
-3.983851 -7.987977 68.728310 58 44 44
-3.981153 -7.834511 68.681755 58 43 44
-3.978522 -7.681377 68.636375 58 43 44
-3.975979 -7.528605 68.592491 59 43 45
-3.973540 -7.376215 68.550423 59 43 45
-3.971222 -7.224226 68.510429 60 43 45
-3.969038 -7.072649 68.472748 61 43 45
-3.966998 -6.921485 68.437553 61 43 45
-3.965109 -6.770732 68.404976 60 42 43
-3.963376 -6.620378 68.375069 59 41 42
-3.961796 -6.470406 68.347824 58 40 41
-3.960368 -6.320790 68.323174 57 39 40
-3.959082 -6.171504 68.300995 56 38 38
-3.957930 -6.022517 68.281120 55 37 37
-3.956898 -5.873795 68.263321 54 36 36
-3.955974 -5.725304 68.247375 54 35 36
-3.955141 -5.577011 68.233002 55 36 38
-3.954383 -5.428884 68.219933 56 37 39
-3.953687 -5.280895 68.207924 57 38 40
-3.953038 -5.133018 68.196724 57 38 41
-3.952422 -4.985233 68.186104 56 38 40
-3.951830 -4.837522 68.175888 55 37 39
-3.951253 -4.689872 68.165924 54 36 37
-3.950684 -4.542275 68.156113 53 36 37
-3.950119 -4.394726 68.146378 54 36 36
-3.949558 -4.247222 68.136696 55 37 37
-3.949001 -4.099764 68.127083 56 38 37
-3.948451 -3.952354 68.117584 57 39 37
-3.947911 -3.804995 68.108269 57 39 37
-3.947386 -3.657690 68.099220 57 39 36
-3.946882 -3.510443 68.090530 56 39 36
-3.946406 -3.363257 68.082314 56 39 37
-3.945961 -3.216132 68.074638 56 39 38
-3.945553 -3.069068 68.067589 57 39 38
-3.945183 -2.922064 68.061211 56 39 38
-3.944853 -2.775114 68.055519 54 37 37
-3.944561 -2.628215 68.050491 51 36 36
-3.944305 -2.481360 68.046066 49 34 34
-3.944077 -2.334541 68.042137 46 32 32
-3.943870 -2.187750 68.038551 45 31 32
-3.943671 -2.040979 68.035126 47 33 33
-3.943467 -1.894220 68.031616 49 34 34
-3.943245 -1.747468 68.027786 50 35 35
-3.942987 -1.600719 68.023338 50 36 36
-3.942678 -1.453970 68.018005 51 36 37
-3.942302 -1.307221 68.011505 52 36 37
-3.941843 -1.160476 68.003586 52 37 38
-3.941289 -1.013740 67.994034 52 37 38
-3.940629 -0.867023 67.982658 53 37 38
-3.939858 -0.720335 67.969353 53 37 38
-3.938974 -0.573687 67.954102 52 36 37
-3.937979 -0.427093 67.936920 52 35 37
-3.936879 -0.280565 67.917961 51 34 36
-3.935689 -0.134116 67.897423 50 33 35
-3.934424 0.012244 67.875610 50 33 35
-3.933107 0.158508 67.852890 51 33 35
-3.931764 0.304671 67.829720 52 34 36
-3.930423 0.450736 67.806580 52 35 36
-3.929115 0.596705 67.784012 52 36 36
-3.927873 0.742590 67.762581 51 37 35
-3.926729 0.888404 67.742851 49 36 34
-3.925716 1.034168 67.725380 47 34 32
-3.924865 1.179905 67.710693 46 32 31
-3.924205 1.325644 67.699303 46 32 31
-3.923760 1.471414 67.691635 48 33 34
-3.923554 1.617249 67.688072 51 35 37
-3.923604 1.763185 67.688942 53 36 38
-3.923926 1.909256 67.694489 54 36 39
-3.924529 2.055498 67.704895 54 36 40
-3.925419 2.201946 67.720245 55 36 39
-3.926598 2.348634 67.740593 55 37 39
-3.928066 2.495592 67.765907 55 37 38
-3.929816 2.642849 67.796104 54 35 37
-3.931841 2.790432 67.831039 52 34 36
-3.934130 2.938363 67.870529 50 33 34
-3.936671 3.086660 67.914360 49 32 33
-3.939446 3.235341 67.962242 49 32 32
-3.942441 3.384415 68.013908 49 33 33
-3.945636 3.533892 68.069031 50 35 34
-3.949012 3.683775 68.127274 51 36 35
-3.952549 3.834065 68.188286 53 37 37
-3.956224 3.984758 68.251694 53 37 38
-3.960017 4.135847 68.317123 53 37 38
-3.963905 4.287321 68.384209 52 36 38
-3.967868 4.439167 68.452568 51 35 38
-3.971883 4.591370 68.521835 51 34 37
-3.975931 4.743910 68.591675 50 34 36
-3.979994 4.896770 68.661774 49 33 34
-3.984055 5.049928 68.731819 48 33 34
-3.988099 5.203367 68.801582 48 33 33
-3.992114 5.357068 68.870857 48 32 33
-3.996092 5.511016 68.939484 47 32 33
-4.000028 5.665200 69.007378 48 32 33
-4.003919 5.819613 69.074501 49 33 34
-4.007766 5.974249 69.140884 50 34 34
-4.011576 6.129115 69.206612 50 34 35
-4.015356 6.284216 69.271812 50 34 35
-4.019117 6.439569 69.336693 49 34 36
-4.022872 6.595192 69.401489 49 34 36
-4.026638 6.751112 69.466454 50 34 36
-4.030431 6.907360 69.531891 50 35 36
-4.034270 7.063968 69.598114 50 35 37
-4.038172 7.220975 69.665428 50 35 37
-4.042155 7.378421 69.734146 49 35 37
-4.046236 7.536345 69.804543 49 35 36
-4.050429 7.694788 69.876892 48 34 35
-4.054750 7.853787 69.951431 47 33 35
-4.059207 8.013379 70.028336 47 33 34
-4.063812 8.173596 70.107765 47 33 34
-4.068567 8.334466 70.189796 47 33 33
-4.073476 8.496011 70.274490 47 33 32
-4.078538 8.658246 70.361824 47 34 32
-4.083751 8.821181 70.451744 46 34 33
-4.089107 8.984819 70.544136 46 34 34
-4.094595 9.149153 70.638832 45 33 34
-4.100205 9.314171 70.735619 44 33 33
-4.105922 9.479851 70.834236 43 32 32
-4.111727 9.646165 70.934387 42 32 31
-4.117601 9.813075 71.035728 42 32 31
-4.123523 9.980538 71.137894 42 32 31
-4.129470 10.148503 71.240494 42 32 31
-4.135418 10.316911 71.343094 41 31 31
-4.141340 10.485698 71.445267 40 30 31
-4.147212 10.654796 71.546570 39 29 30
-4.153008 10.824130 71.646545 37 29 30
-4.158700 10.993625 71.744759 37 28 30
-4.164266 11.163202 71.840775 37 27 30
-4.169681 11.332783 71.934181 37 27 29
-4.174922 11.502291 72.024612 37 26 28
-4.179971 11.671650 72.111717 37 26 27
-4.184811 11.840793 72.195213 38 27 27
-4.189428 12.009655 72.274857 38 28 27
-4.193811 12.178185 72.350487 38 28 28
-4.197955 12.346335 72.421974 38 29 28
-4.201858 12.514075 72.489296 37 29 29
-4.205520 12.681381 72.552475 37 29 29
-4.208948 12.848244 72.611618 37 29 29
-4.212152 13.014669 72.666885 36 29 29
-4.215144 13.180672 72.718506 35 29 29
-4.217942 13.346280 72.766769 33 28 28
-4.220563 13.511532 72.811989 32 28 27
-4.223029 13.676476 72.854538 33 28 27
-4.225362 13.841170 72.894791 33 27 26
-4.227586 14.005674 72.933159 34 27 27
-4.229724 14.170057 72.970047 35 27 27
-4.231800 14.334387 73.005852 35 27 27
-4.233836 14.498734 73.040970 35 27 26
-4.235852 14.663166 73.075760 36 26 26
-4.237870 14.827752 73.110565 36 26 26
-4.239906 14.992554 73.145699 36 26 26
-4.241976 15.157629 73.181412 36 26 25
-4.244094 15.323030 73.217949 36 26 24
-4.246270 15.488799 73.255486 35 26 24
-4.248513 15.654977 73.294174 34 26 24
-4.250828 15.821591 73.334114 33 26 25
-4.253220 15.988667 73.375374 32 26 25
-4.255689 16.156214 73.417976 32 26 26
-4.258236 16.324242 73.461914 32 26 26
-4.260858 16.492748 73.507141 32 26 26
-4.263549 16.661724 73.553574 31 25 26
-4.266304 16.831152 73.601112 31 25 26
-4.269116 17.001007 73.649620 31 25 25
-4.271975 17.171261 73.698936 30 24 24
-4.274869 17.341871 73.748863 30 24 24
-4.277786 17.512793 73.799194 30 23 24
-4.280714 17.683975 73.849701 30 23 25
-4.283638 17.855354 73.900139 30 23 25
-4.286541 18.026867 73.950218 30 23 25
-4.289407 18.198439 73.999664 30 23 25
-4.292218 18.369989 74.048164 29 23 25
-4.294957 18.541437 74.095421 29 23 24
-4.297606 18.712694 74.141106 29 24 24
-4.300145 18.883669 74.184921 29 24 23
-4.302557 19.054266 74.226524 29 24 23
-4.304824 19.224401 74.265648 29 24 24
-4.306931 19.393978 74.301987 28 24 24
-4.308861 19.562910 74.335281 28 24 24
-4.310602 19.731121 74.365318 28 24 24
-4.312141 19.898531 74.391869 29 24 24
-3.874137 -10.312629 69.417091 58 44 42
-3.871792 -10.156837 69.375084 58 44 42
-3.869415 -10.001144 69.332489 58 43 42
-3.866999 -9.845536 69.289200 58 41 42
-3.864540 -9.690004 69.245132 57 39 40
-3.862033 -9.534546 69.200211 57 39 40
-3.859476 -9.379160 69.154396 57 39 42
-3.856869 -9.223851 69.107674 59 41 45
-3.854213 -9.068629 69.060089 60 42 47
-3.851513 -8.913510 69.011711 60 43 47
-3.848774 -8.758513 68.962646 61 44 47
-3.846007 -8.603662 68.913063 60 44 46
-3.843223 -8.448988 68.863167 60 44 45
-3.840434 -8.294519 68.813210 59 44 45
-3.837658 -8.140293 68.763466 59 44 44
-3.834912 -7.986344 68.714264 58 44 44
-3.832215 -7.832705 68.665924 59 44 45
-3.829584 -7.679410 68.618797 59 43 45
-3.827040 -7.526486 68.573196 60 43 45
-3.824599 -7.373959 68.529457 60 43 45
-3.822277 -7.221846 68.487854 61 43 45
-3.820087 -7.070157 68.448624 62 42 45
-3.818041 -6.918896 68.411949 62 41 44
-3.816144 -6.768059 68.377968 61 41 43
-3.814401 -6.617635 68.346733 60 41 42
-3.812811 -6.467607 68.318253 59 40 42
-3.811372 -6.317949 68.292458 58 39 40
-3.810075 -6.168634 68.269234 57 38 39
-3.808912 -6.019631 68.248390 55 37 37
-3.807871 -5.870905 68.229736 54 37 36
-3.806938 -5.722422 68.213013 54 37 37
-3.806098 -5.574147 68.197960 55 37 37
-3.805336 -5.426049 68.184311 56 38 39
-3.804638 -5.278099 68.171814 57 39 40
-3.803991 -5.130270 68.160210 56 39 40
-3.803381 -4.982541 68.149284 55 38 39
-3.802799 -4.834895 68.138863 54 37 37
-3.802237 -4.687316 68.128777 53 35 36
-3.801687 -4.539797 68.118927 52 35 36
-3.801147 -4.392332 68.109253 53 36 37
-3.800615 -4.244917 68.099724 54 37 37
-3.800093 -4.097554 68.090363 55 38 38
-3.799581 -3.950242 68.081192 57 38 38
-3.799085 -3.802985 68.072296 58 38 38
-3.798608 -3.655786 68.063759 58 39 37
-3.798157 -3.508646 68.055672 57 39 37
-3.797736 -3.361569 68.048134 57 39 37
-3.797351 -3.214554 68.041229 57 39 38
-3.797004 -3.067600 68.035027 57 39 38
-3.796700 -2.920705 68.029572 56 39 38
-3.796438 -2.773865 68.024879 53 38 37
-3.796218 -2.627074 68.020927 51 36 35
-3.796035 -2.480324 68.017647 48 34 34
-3.795883 -2.333607 68.014931 46 33 32
