ply
format ascii 1.0
element vertex 1230
property float x
property float y
property float z
property uchar red
property uchar green
property uchar blue
end_header
16.025053 -3.219521 71.404411 64 48 48
16.002316 -3.061247 71.303108 65 48 49
15.979234 -2.903348 71.200256 63 45 47
15.955901 -2.745849 71.096291 62 43 45
15.932417 -2.588773 70.991653 60 41 42
15.908883 -2.432142 70.886787 57 39 39
15.885399 -2.275969 70.782150 55 36 36
15.862058 -2.120266 70.678146 52 33 34
15.838953 -1.965042 70.575195 50 32 32
15.816164 -1.810297 70.473648 48 31 32
15.793762 -1.656031 70.373833 47 31 32
15.771811 -1.502237 70.276016 47 31 32
15.750353 -1.348908 70.180405 46 31 32
15.729424 -1.196032 70.087158 45 30 30
15.709040 -1.043593 69.996323 42 29 28
15.689201 -0.891577 69.907928 40 27 27
15.669897 -0.739968 69.821915 38 27 26
15.651099 -0.588748 69.738152 37 27 25
15.632760 -0.437903 69.656441 37 28 25
15.614827 -0.287417 69.576530 38 28 26
15.597232 -0.137278 69.498131 38 29 27
15.579895 0.012522 69.420883 38 30 28
15.562731 0.161992 69.344398 38 30 29
15.545646 0.311133 69.268280 36 30 28
15.528548 0.459946 69.192093 33 28 25
15.511337 0.608425 69.115402 29 25 22
15.493919 0.756564 69.037788 24 22 18
15.476200 0.904351 68.958839 21 20 15
15.458092 1.051771 68.878151 20 18 15
15.439518 1.198807 68.795387 21 19 16
15.420404 1.345439 68.710228 24 21 19
15.400692 1.491646 68.622391 30 24 24
15.380333 1.637405 68.531677 36 29 30
15.359292 1.782694 68.437920 42 33 34
15.337549 1.927491 68.341034 47 36 38
15.315095 2.071774 68.240990 50 39 40
15.291941 2.215523 68.137817 51 40 40
15.268106 2.358724 68.031616 50 40 39
15.243630 2.501361 67.922554 45 37 34
15.218562 2.643425 67.810860 40 32 29
15.192966 2.784910 67.696808 35 27 23
15.166915 2.925816 67.580727 31 23 19
15.140492 3.066146 67.462990 31 22 18
15.113790 3.205909 67.344009 33 23 19
15.086905 3.345119 67.224213 36 25 22
15.059937 3.483794 67.104057 40 27 25
15.032991 3.621956 66.983994 44 31 29
15.006169 3.759630 66.864479 49 36 35
14.979570 3.896848 66.745956 53 41 41
14.953285 4.033639 66.628838 51 42 41
14.927402 4.170038 66.513504 45 38 37
14.901996 4.306077 66.400299 40 33 34
14.877134 4.441792 66.289520 36 30 30
14.852869 4.577212 66.181404 34 28 27
14.829241 4.712368 66.076118 33 26 26
14.806274 4.847287 65.973785 32 26 25
14.783979 4.981991 65.874443 33 27 26
14.762352 5.116498 65.778076 33 27 26
14.741374 5.250822 65.684601 33 27 26
14.721014 5.384967 65.593880 33 26 26
14.701231 5.518939 65.505730 32 25 25
14.681973 5.652733 65.419922 32 24 24
14.663180 5.786341 65.336189 31 23 23
14.644793 5.919750 65.254257 31 22 22
14.626743 6.052948 65.173828 32 22 22
14.608969 6.185914 65.094627 33 23 22
14.591407 6.318631 65.016380 33 24 23
14.574000 6.451079 64.938820 33 25 23
14.556699 6.583241 64.861725 33 25 23
14.539462 6.715100 64.784920 32 24 23
14.522253 6.846641 64.708244 32 24 23
14.505048 6.977854 64.631577 32 25 24
14.487829 7.108729 64.554855 32 26 25
14.470591 7.239264 64.478050 33 26 26
14.453330 7.369456 64.401138 33 26 27
14.436050 7.499306 64.324142 34 26 27
14.418763 7.628821 64.247116 35 27 28
14.401481 7.758006 64.170105 35 27 28
14.384218 7.886870 64.093185 35 28 28
14.366993 8.015424 64.016434 38 30 30
14.349824 8.143678 63.939934 40 32 32
14.332728 8.271645 63.863758 42 33 33
14.315724 8.399337 63.787994 42 33 32
14.298832 8.526769 63.712723 42 31 32
14.282067 8.653954 63.638020 44 33 32
14.265450 8.780908 63.563980 47 35 33
14.249000 8.907646 63.490681 48 37 34
14.232736 9.034186 63.418209 49 37 34
14.216678 9.160548 63.346661 50 37 34
14.200846 9.286749 63.276119 51 38 34
14.185263 9.412810 63.206680 52 38 35
14.169950 9.538754 63.138447 53 39 37
14.154925 9.664601 63.071507 54 39 38
14.140209 9.790373 63.005932 55 38 38
14.125819 9.916091 62.941811 54 37 36
14.111770 10.041775 62.879211 54 36 35
14.098073 10.167443 62.818184 56 39 38
14.084739 10.293114 62.758766 61 44 42
14.071771 10.418799 62.700985 66 49 47
14.059175 10.544514 62.644855 69 53 51
14.046946 10.670265 62.590366 70 54 51
14.035081 10.796063 62.537502 69 53 50
14.023578 10.921913 62.486244 68 53 49
14.012424 11.047819 62.436550 71 56 52
14.001616 11.173785 62.388386 74 59 55
13.991140 11.299814 62.341713 74 59 56
13.980990 11.425906 62.296482 74 58 56
13.971157 11.552066 62.252670 71 54 54
13.961634 11.678296 62.210236 66 48 49
13.952413 11.804599 62.169147 63 42 45
13.943488 11.930978 62.129383 64 42 46
13.934857 12.057440 62.090927 68 45 48
13.926515 12.183989 62.053753 72 48 51
13.918457 12.310629 62.017849 79 54 55
13.910680 12.437365 61.983196 84 59 59
13.903180 12.564202 61.949780 84 61 60
13.895950 12.691142 61.917564 82 60 60
13.888984 12.818186 61.886524 81 60 61
13.882274 12.945335 61.856625 81 61 64
13.875808 13.072585 61.827812 81 62 67
13.869576 13.199934 61.800045 81 63 69
13.863562 13.327373 61.773247 78 61 68
13.857753 13.454896 61.747364 73 57 65
13.852136 13.582494 61.722336 73 57 65
13.846696 13.710160 61.698093 78 61 70
13.841419 13.837885 61.674583 85 67 77
13.836295 13.965663 61.651752 90 72 82
13.831317 14.093491 61.629570 96 78 87
13.826479 14.221368 61.608013 98 79 88
13.821781 14.349296 61.587078 92 72 81
13.817225 14.477283 61.566780 83 62 70
13.812821 14.605344 61.547157 77 55 63
13.808581 14.733495 61.528263 75 52 61
13.804520 14.861756 61.510166 78 55 64
13.800657 14.990157 61.492958 87 64 74
13.797015 15.118724 61.476730 101 79 90
13.793618 15.247492 61.461590 110 88 100
13.790487 15.376492 61.447643 106 86 96
13.787647 15.505758 61.434990 98 78 89
13.785119 15.635324 61.423721 100 80 91
13.782920 15.765217 61.413921 105 87 98
13.781065 15.895465 61.405659 108 93 103
13.779565 16.026091 61.398972 109 96 106
13.778424 16.157108 61.393890 109 99 108
13.777642 16.288528 61.390408 108 98 108
13.777213 16.420353 61.388493 104 96 104
15.945478 -12.426902 70.373894 23 17 17
15.976817 -12.299325 70.512207 24 18 18
16.007860 -12.170927 70.649208 24 18 18
16.038494 -12.041631 70.784409 24 18 18
16.068607 -11.911366 70.917313 24 19 18
16.098095 -11.780070 71.047455 24 19 18
16.126858 -11.647691 71.174400 25 20 19
16.154799 -11.514176 71.297707 26 21 19
16.181828 -11.379490 71.417000 26 22 20
16.207869 -11.243604 71.531929 28 23 22
16.232851 -11.106498 71.642181 31 25 25
16.256718 -10.968164 71.747520 32 26 26
16.279425 -10.828605 71.847733 33 26 28
16.300940 -10.687832 71.942688 34 27 29
16.321243 -10.545867 72.032303 35 27 30
16.340332 -10.402742 72.116547 36 27 30
16.358210 -10.258494 72.195442 37 29 30
16.374893 -10.113169 72.269073 39 30 32
16.390409 -9.966817 72.337555 41 32 32
16.404789 -9.819488 72.401016 46 37 36
16.418066 -9.671237 72.459618 62 52 50
16.430283 -9.522119 72.513527 92 81 79
16.441469 -9.372181 72.562904 123 111 109
16.451664 -9.221474 72.607895 141 127 126
16.460896 -9.070042 72.648636 143 127 127
16.469185 -8.917925 72.685219 133 117 118
16.476549 -8.765158 72.717728 119 102 105
16.483000 -8.611773 72.746201 108 91 94
16.488541 -8.457799 72.770653 98 81 84
16.493172 -8.303262 72.791092 87 71 74
16.496891 -8.148185 72.807503 79 64 66
16.499685 -7.992591 72.819839 79 63 63
16.501553 -7.836502 72.828072 81 65 63
16.502481 -7.679942 72.832176 82 66 63
16.502470 -7.522935 72.832123 82 66 62
16.501514 -7.365507 72.827911 86 69 66
16.499615 -7.207685 72.819519 95 79 76
16.496775 -7.049497 72.806992 107 90 89
16.493004 -6.890974 72.790352 113 96 95
16.488314 -6.732147 72.769646 105 89 87
16.482712 -6.573047 72.744926 87 71 68
16.476217 -6.413705 72.716263 69 53 50
16.468845 -6.254154 72.683731 62 45 43
16.460608 -6.094422 72.647369 71 53 53
16.451513 -5.934538 72.607239 91 72 74
16.441578 -5.774532 72.563385 104 85 88
16.430805 -5.614429 72.515839 101 81 85
16.419197 -5.454253 72.464607 87 66 72
16.406755 -5.294029 72.409698 74 53 59
16.393480 -5.133781 72.351105 70 49 56
16.379368 -4.973531 72.288826 73 53 60
16.364416 -4.813303 72.222832 84 65 72
16.348623 -4.653120 72.153137 100 81 88
16.331993 -4.493007 72.079742 104 87 91
16.314535 -4.332991 72.002693 88 71 74
16.296265 -4.173099 71.922058 66 50 51
16.277206 -4.013360 71.837952 54 39 39
16.257395 -3.853805 71.750504 51 36 35
16.236872 -3.694466 71.659927 50 36 35
16.215696 -3.535374 71.566475 54 40 39
16.193930 -3.376562 71.470413 60 45 44
16.171652 -3.218063 71.372093 64 48 49
16.148949 -3.059907 71.271889 65 48 49
16.125910 -2.902123 71.170204 63 46 47
16.102631 -2.744736 71.067474 61 44 45
16.079218 -2.587770 70.964142 59 42 43
16.055771 -2.431245 70.860657 57 39 40
16.032389 -2.275175 70.757469 54 36 36
16.009171 -2.119572 70.654991 51 33 34
15.986207 -1.964442 70.553642 50 32 32
15.963580 -1.809787 70.453789 48 31 32
15.941361 -1.655604 70.355728 48 31 32
15.919613 -1.501889 70.259735 48 32 33
15.898379 -1.348632 70.166031 47 32 33
15.877696 -1.195820 70.074738 45 30 30
15.857575 -1.043438 69.985939 43 29 28
15.838021 -0.891472 69.899643 40 27 27
15.819017 -0.739903 69.815773 39 27 26
15.800534 -0.588715 69.734192 38 27 25
15.782524 -0.437892 69.654709 37 27 25
15.764928 -0.287419 69.577049 38 28 26
15.747677 -0.137284 69.500916 38 28 26
15.730686 0.012523 69.425934 38 29 28
15.713868 0.162009 69.351700 37 29 29
15.697124 0.311176 69.277802 35 28 28
15.680354 0.460023 69.203789 33 27 25
15.663457 0.608547 69.129219 29 24 22
15.646333 0.756738 69.053642 25 22 18
15.628885 0.904585 68.976639 22 20 16
15.611022 1.052071 68.897804 21 19 15
15.592659 1.199179 68.816757 22 19 17
15.573723 1.345889 68.733185 25 21 20
15.554152 1.492177 68.646812 30 24 24
15.533895 1.638020 68.557404 36 29 30
15.512918 1.783395 68.464821 41 33 34
15.491196 1.928278 68.368958 46 35 37
15.468726 2.072648 68.269791 48 37 38
15.445518 2.216484 68.167366 48 37 38
15.421597 2.359770 68.061790 46 36 36
15.396998 2.502490 67.953232 43 34 33
15.371779 2.644635 67.841927 40 31 29
15.346005 2.786201 67.728180 36 27 25
15.319756 2.927184 67.612320 33 24 21
15.293115 3.067590 67.494751 32 23 20
15.266180 3.207426 67.375877 35 24 21
15.239052 3.346708 67.256142 39 26 24
15.211834 3.485454 67.136024 43 29 27
15.184633 3.623685 67.015976 46 32 30
15.157555 3.761429 66.896461 50 36 35
15.130699 3.898715 66.777939 52 40 38
15.104162 4.035576 66.660820 50 39 38
15.078032 4.172044 66.545502 46 37 35
15.052387 4.308154 66.432320 41 33 32
15.027296 4.443940 66.321579 37 30 29
15.002813 4.579433 66.213531 33 27 26
14.978977 4.714665 66.108330 32 25 24
14.955816 4.849662 66.006111 31 25 24
14.933342 4.984447 65.906921 32 26 25
14.911550 5.119040 65.810745 33 26 26
14.890425 5.253452 65.717514 33 26 26
14.869936 5.387693 65.627083 33 26 26
14.850041 5.521766 65.539284 32 25 25
14.830693 5.655668 65.453888 31 24 24
14.811832 5.789392 65.370651 30 22 22
14.793396 5.922928 65.289284 30 21 21
14.775321 6.056262 65.209511 31 22 21
14.757543 6.189375 65.131050 32 23 22
14.739998 6.322250 65.053619 33 24 23
14.722630 6.454869 64.976967 33 24 23
14.705388 6.587214 64.900871 32 23 23
14.688228 6.719268 64.825134 30 23 22
14.671112 6.851017 64.749596 29 23 22
14.654015 6.982448 64.674141 30 24 23
14.636916 7.113554 64.598679 31 26 24
14.619805 7.244328 64.523155 32 26 25
14.602675 7.374768 64.447556 33 27 27
14.585531 7.504873 64.371887 34 27 27
14.568375 7.634646 64.296173 34 27 27
14.551216 7.764092 64.220444 34 27 27
14.534067 7.893216 64.144760 35 28 28
14.516942 8.022028 64.069183 35 28 28
14.499854 8.150534 63.993767 37 29 29
14.482819 8.278745 63.918579 39 30 30
14.465850 8.406671 63.843689 40 30 31
14.448964 8.534322 63.769165 41 30 31
14.432178 8.661713 63.695084 44 32 32
14.415507 8.788855 63.621510 47 34 33
14.398970 8.915761 63.548523 48 36 34
14.382586 9.042450 63.476215 49 36 34
14.366376 9.168937 63.404671 49 37 34
14.350358 9.295240 63.333977 51 37 35
14.334557 9.421382 63.264240 52 38 36
14.318993 9.547381 63.195553 53 39 38
14.303690 9.673261 63.128014 55 40 39
14.288667 9.799041 63.061710 55 39 39
14.273944 9.924744 62.996731 54 37 37
14.259541 10.050391 62.933163 54 35 35
14.245470 10.176003 62.871063 57 38 38
14.231744 10.301596 62.810486 61 43 42
14.218371 10.427188 62.751469 67 50 49
14.205359 10.552792 62.694035 72 55 54
14.192708 10.678421 62.638206 72 55 54
14.180420 10.804086 62.583973 69 52 50
14.168491 10.929793 62.531322 68 52 49
14.156918 11.055552 62.480244 71 56 52
14.145695 11.181367 62.430714 74 60 55
14.134817 11.307244 62.382710 76 61 58
14.124279 11.433190 62.336197 76 61 59
14.114074 11.559208 62.291161 74 58 57
14.104198 11.685306 62.247574 68 50 52
14.094648 11.811487 62.205425 64 44 47
14.085421 11.937760 62.164700 63 41 46
14.076510 12.064131 62.125378 66 43 46
14.067919 12.190606 62.087460 74 50 52
14.059640 12.317193 62.050919 88 64 64
14.051670 12.443896 62.015747 101 76 76
14.044007 12.570722 61.981926 100 76 76
14.036642 12.697672 61.949425 90 67 67
14.029569 12.824748 61.918205 83 61 63
14.022775 12.951947 61.888218 82 62 64
14.016250 13.079268 61.859421 83 64 68
14.009977 13.206704 61.831738 85 66 72
14.003940 13.334244 61.805092 83 65 72
13.998121 13.461879 61.779411 77 62 68
13.992502 13.589598 61.754616 75 60 66
13.987067 13.717389 61.730625 78 62 69
13.981795 13.845240 61.707359 82 66 73
13.976673 13.973139 61.684753 85 69 76
13.971689 14.101080 61.662758 88 71 79
13.966833 14.229057 61.641327 91 73 80
13.962102 14.357069 61.620441 89 70 77
13.957492 14.485119 61.600101 84 63 71
13.953012 14.613215 61.580326 79 58 66
13.948669 14.741373 61.561161 78 55 65
13.944477 14.869608 61.542660 80 57 67
13.940453 14.997943 61.524899 89 65 76
13.936614 15.126404 61.507957 103 79 91
13.932986 15.255022 61.491947 113 90 102
13.929590 15.383827 61.476955 109 86 98
13.926447 15.512850 61.463085 97 76 87
13.923580 15.642123 61.450432 94 73 86
13.921008 15.771675 61.439083 98 78 92
13.918746 15.901532 61.429096 101 85 98
13.916807 16.031719 61.420540 103 89 103
13.915199 16.162254 61.413445 105 93 106
13.913926 16.293150 61.407825 106 95 108
13.912985 16.424414 61.403671 102 93 105
16.118525 -12.291475 70.467201 24 19 19
16.149597 -12.162975 70.603050 24 19 19
16.180267 -12.033587 70.737129 24 19 19
16.210417 -11.903241 70.868935 23 19 18
16.239935 -11.771870 70.997993 23 19 18
16.268723 -11.639417 71.123840 23 20 18
16.296679 -11.505835 71.246056 24 20 18
16.323711 -11.371083 71.364243 25 21 18
16.349741 -11.235134 71.478043 26 22 19
16.374701 -11.097967 71.587158 28 23 22
16.398529 -10.959575 71.691330 30 24 23
16.421181 -10.819959 71.790367 31 24 24
16.442631 -10.679133 71.884140 31 24 25
16.462860 -10.537124 71.972580 31 25 26
16.481865 -10.393959 72.055656 33 26 26
16.499653 -10.249681 72.133423 35 27 28
16.516247 -10.104338 72.205971 38 29 30
16.531673 -9.957978 72.273415 41 32 32
16.545969 -9.810658 72.335915 47 39 38
16.559175 -9.662433 72.393654 65 56 55
16.571331 -9.513354 72.446793 94 84 82
16.582476 -9.363477 72.495514 119 107 106
16.592648 -9.212848 72.539978 128 115 114
16.601873 -9.061513 72.580322 126 111 111
16.610186 -8.909512 72.616653 122 107 107
16.617598 -8.756881 72.649055 124 109 110
16.624119 -8.603649 72.677574 127 112 113
16.629759 -8.449846 72.702225 118 102 103
16.634512 -8.295495 72.723007 101 85 86
16.638376 -8.140619 72.739899 89 72 73
16.641340 -7.985240 72.752861 85 68 68
16.643396 -7.829376 72.761848 84 66 66
16.644535 -7.673051 72.766823 82 65 64
16.644747 -7.516285 72.767754 82 64 63
16.644026 -7.359104 72.764603 86 68 66
16.642368 -7.201531 72.757347 93 76 75
16.639776 -7.043593 72.746017 100 83 82
16.636251 -6.885319 72.730614 98 82 81
16.631804 -6.726737 72.711166 88 72 70
16.626440 -6.567878 72.687721 73 58 56
16.620173 -6.408771 72.660316 62 47 45
16.613012 -6.249445 72.629013 61 45 43
16.604969 -6.089932 72.593849 74 56 56
16.596054 -5.930259 72.554871 94 75 76
16.586275 -5.770453 72.512123 104 85 88
16.575638 -5.610540 72.465622 96 76 80
16.564144 -5.450547 72.415375 80 59 64
16.551798 -5.290497 72.361389 71 50 56
16.538593 -5.130415 72.303673 71 49 56
16.524536 -4.970324 72.242210 77 55 63
16.509621 -4.810248 72.177002 94 73 81
16.493851 -4.650213 72.108063 115 95 103
16.477232 -4.490243 72.035408 115 97 102
16.459776 -4.330367 71.959091 88 70 74
16.441502 -4.170612 71.879204 61 44 46
16.422436 -4.011008 71.795853 51 35 36
16.402618 -3.851587 71.709206 49 35 34
16.382093 -3.692380 71.619476 50 36 35
16.360922 -3.533420 71.526924 54 40 39
16.339172 -3.374740 71.431839 59 44 43
16.316925 -3.216372 71.334572 62 46 45
16.294264 -3.058345 71.235504 62 45 45
16.271286 -2.900689 71.135048 61 45 45
16.248089 -2.743429 71.033638 60 43 44
16.224775 -2.586588 70.931717 58 41 42
16.201450 -2.430184 70.829742 55 38 38
16.178215 -2.274233 70.728165 52 35 35
16.155165 -2.118744 70.627388 50 33 33
16.132393 -1.963723 70.527832 49 31 32
16.109980 -1.809172 70.429848 48 30 31
16.087999 -1.655087 70.333755 48 30 31
16.066509 -1.501463 70.239807 49 31 32
16.045559 -1.348289 70.148216 48 32 32
16.025179 -1.195553 70.059113 46 30 30
16.005383 -1.043239 69.972565 43 28 28
15.986169 -0.891330 69.888573 41 27 27
15.967524 -0.739810 69.807053 40 27 27
15.949411 -0.588661 69.727875 39 26 25
15.931784 -0.437867 69.650810 37 27 25
15.914579 -0.287413 69.575592 37 27 25
15.897723 -0.137286 69.501900 37 28 26
15.881128 0.012524 69.429352 37 28 27
15.864701 0.162022 69.357536 36 28 28
15.848341 0.311213 69.286011 34 27 27
15.831944 0.460093 69.214325 31 26 25
15.815400 0.608660 69.142006 28 24 22
15.798609 0.756902 69.068588 25 21 19
15.781466 0.904808 68.993645 22 19 17
15.763878 1.052361 68.916756 21 19 16
15.745755 1.199541 68.837524 22 19 17
15.727023 1.346328 68.755630 25 21 20
15.707616 1.492698 68.670792 30 23 24
15.687483 1.638626 68.582771 36 28 29
15.666586 1.784088 68.491409 41 32 34
15.644905 1.929059 68.396629 44 34 36
15.622435 2.073516 68.298393 46 35 36
15.599185 2.217440 68.196747 45 35 36
15.575185 2.360811 68.091820 43 34 34
15.550476 2.503616 67.983803 41 32 32
15.525114 2.645844 67.872925 40 31 29
15.499169 2.787489 67.759499 38 29 26
15.472726 2.928550 67.643890 35 25 22
15.445873 3.069032 67.526497 34 25 21
15.418711 3.208944 67.407753 37 26 23
15.391344 3.348299 67.288109 41 28 25
15.363881 3.487116 67.168045 44 30 28
15.336430 3.625418 67.048035 48 33 31
15.309100 3.763233 66.928551 50 35 34
15.281996 3.900590 66.810059 50 36 34
15.255214 4.037522 66.692970 48 36 34
15.228845 4.174062 66.577690 46 35 34
15.202970 4.310246 66.464569 43 33 32
15.177657 4.446105 66.353905 38 30 28
15.152963 4.581676 66.245949 35 27 25
15.128929 4.716986 66.140877 32 25 23
15.105584 4.852065 66.038818 31 24 23
15.082939 4.986935 65.939819 31 24 24
15.060995 5.121617 65.843880 31 24 24
15.039734 5.256124 65.750931 32 24 25
15.019127 5.390465 65.660843 32 24 25
14.999136 5.524644 65.573448 31 24 24
14.979711 5.658660 65.488525 31 23 23
14.960794 5.792508 65.405823 30 22 22
14.942326 5.926176 65.325081 29 21 20
14.924241 6.059652 65.246017 30 21 21
14.906475 6.192919 65.168350 31 22 22
14.888967 6.325961 65.091805 32 23 23
14.871655 6.458759 65.016129 32 23 23
14.854491 6.591296 64.941086 31 23 22
14.837428 6.723555 64.866486 29 22 21
14.820428 6.855521 64.792168 29 23 21
14.803460 6.987183 64.717987 29 24 22
14.786504 7.118530 64.643860 31 25 23
14.769543 7.249555 64.569702 32 26 24
14.752569 7.380254 64.495499 33 27 26
14.735579 7.510625 64.421227 33 28 27
14.718576 7.640668 64.346893 33 28 27
14.701563 7.770387 64.272514 34 28 28
14.684548 7.899784 64.198128 34 27 27
14.667542 8.028864 64.123779 34 27 27
14.650553 8.157633 64.049507 34 28 28
14.633592 8.286098 63.975353 36 29 29
14.616673 8.414268 63.901386 37 29 30
14.599808 8.542150 63.827656 40 30 31
14.583010 8.669754 63.754215 43 32 33
14.566295 8.797092 63.681145 46 34 34
14.549679 8.924175 63.608501 49 36 35
14.533179 9.051019 63.536369 49 36 35
14.516819 9.177638 63.464844 49 36 35
14.500616 9.304051 63.394009 51 37 36
14.484595 9.430277 63.323967 53 39 38
14.468779 9.556335 63.254822 55 41 39
14.453192 9.682250 63.186676 55 40 40
14.437855 9.808041 63.119629 55 39 39
14.422792 9.933730 63.053776 54 36 37
14.408024 10.059342 62.989212 54 35 35
14.393566 10.184896 62.926006 56 37 36
14.379436 10.310411 62.864235 60 42 41
14.365645 10.435906 62.803940 65 48 47
14.352202 10.561399 62.745171 70 53 52
14.339114 10.686902 62.687954 70 54 52
14.326385 10.812428 62.632301 67 51 49
14.314014 10.937990 62.578220 67 51 49
14.302004 11.063597 62.525715 71 57 53
14.290352 11.189258 62.474773 75 61 57
14.279056 11.314981 62.425388 77 63 60
14.268113 11.440775 62.377548 80 64 62
14.257523 11.566648 62.331249 78 62 62
14.247282 11.692609 62.286480 73 55 57
14.237392 11.818667 62.243244 68 48 52
14.227849 11.944831 62.201519 64 43 47
14.218653 12.071110 62.161320 65 43 47
14.209805 12.197513 62.122635 76 53 56
14.201299 12.324047 62.085449 99 75 76
14.193134 12.450721 62.049755 121 96 96
14.185307 12.577538 62.015533 121 96 96
14.177807 12.704502 61.982746 105 81 81
14.170627 12.831614 61.951355 91 68 69
14.163753 12.958872 61.921307 86 65 66
14.157172 13.086270 61.892536 88 67 71
14.150866 13.213801 61.864967 91 72 76
14.144813 13.341452 61.838501 91 73 78
14.138992 13.469210 61.813057 85 69 73
14.133383 13.597061 61.788532 81 65 69
14.127961 13.724990 61.764828 83 66 71
14.122705 13.852979 61.741856 87 70 74
14.117598 13.981015 61.719524 86 69 75
14.112620 14.109085 61.697762 85 68 73
14.107759 14.237180 61.676514 84 66 72
14.103008 14.365293 61.655739 83 65 71
14.098361 14.493424 61.635422 82 62 69
14.093820 14.621578 61.615570 80 58 67
14.089389 14.749763 61.596199 79 57 67
14.085081 14.877994 61.577370 82 59 70
14.080910 15.006288 61.559128 90 67 78
14.076892 15.134668 61.541561 101 78 89
14.073050 15.263164 61.524765 109 86 98
14.069402 15.391801 61.508820 105 83 95
14.065972 15.520609 61.493828 96 74 87
14.062782 15.649618 61.479881 93 72 86
14.059852 15.778859 61.467068 95 75 90
14.057197 15.908357 61.455460 97 79 95
14.054832 16.038136 61.445126 99 84 99
14.052770 16.168219 61.436108 101 88 103
14.051015 16.298618 61.428436 103 92 106
14.049573 16.429352 61.422131 101 91 104
16.259695 -12.283367 70.420715 25 19 19
16.290789 -12.154763 70.555382 25 20 20
16.321480 -12.025283 70.688309 25 20 20
16.351652 -11.894852 70.818985 24 20 20
16.381195 -11.763404 70.946938 24 20 19
16.409998 -11.630880 71.071678 23 20 18
16.437962 -11.497232 71.192787 23 20 17
16.464993 -11.362419 71.309868 24 21 18
16.491011 -11.226411 71.422546 26 22 19
16.515944 -11.089189 71.530533 28 23 20
16.539734 -10.950745 71.633568 28 23 21
16.562340 -10.811082 71.731476 28 23 21
16.583729 -10.670216 71.824112 29 23 22
16.603891 -10.528172 71.911430 29 23 22
16.622820 -10.384980 71.993416 31 25 23
16.640532 -10.240687 72.070122 34 26 26
16.657047 -10.095338 72.141655 37 29 28
16.672403 -9.948987 72.208153 41 33 32
16.686632 -9.801689 72.269783 47 40 38
16.699781 -9.653501 72.326729 63 54 53
16.711891 -9.504477 72.379181 83 74 73
16.723009 -9.354671 72.427338 99 89 88
16.733170 -9.204131 72.471344 104 93 92
16.742409 -9.052902 72.511353 104 91 91
16.750751 -8.901025 72.547485 108 94 94
16.758215 -8.748534 72.579811 121 106 106
16.764814 -8.595460 72.608391 130 114 115
16.770550 -8.441828 72.633232 123 106 108
16.775425 -8.287663 72.654343 107 90 92
16.779428 -8.132985 72.671684 96 78 80
16.782553 -7.977815 72.685219 92 72 74
16.784784 -7.822170 72.694878 88 68 70
16.786112 -7.666071 72.700630 85 66 67
16.786524 -7.509537 72.702415 85 65 65
16.786011 -7.352591 72.700195 86 67 67
16.784569 -7.195255 72.693947 90 73 72
16.782190 -7.037554 72.683647 92 75 75
16.778879 -6.879515 72.669312 86 71 70
16.774639 -6.721166 72.650940 75 61 59
16.769474 -6.562533 72.628571 65 51 48
16.763391 -6.403647 72.602226 58 44 41
16.756401 -6.244536 72.571953 60 45 42
16.748512 -6.085229 72.537781 71 54 53
16.739731 -5.925754 72.499756 85 67 68
16.730064 -5.766137 72.457893 91 73 75
16.719521 -5.606406 72.412216 85 65 69
16.708097 -5.446586 72.362747 75 54 59
16.695799 -5.286703 72.309486 71 49 56
16.682625 -5.126779 72.252434 73 50 58
16.668579 -4.966842 72.191597 81 57 67
16.653660 -4.806915 72.126984 102 79 88
16.637875 -4.647024 72.058617 124 102 110
16.621229 -4.487197 71.986526 115 95 101
16.603743 -4.327460 71.910789 80 62 66
16.585436 -4.167845 71.831505 55 37 41
16.566341 -4.008380 71.748802 48 32 33
16.546499 -3.849098 71.662865 47 33 33
16.525961 -3.690031 71.573914 49 35 34
16.504789 -3.531212 71.482224 52 38 37
16.483055 -3.372674 71.388092 55 41 39
16.460840 -3.214447 71.291885 57 41 40
16.438238 -3.056563 71.193985 57 41 41
16.415340 -2.899049 71.094818 58 42 41
16.392248 -2.741930 70.994812 58 41 41
16.369068 -2.585228 70.894417 56 39 39
16.345903 -2.428961 70.794090 53 36 36
16.322853 -2.273143 70.694260 50 34 34
16.300016 -2.117783 70.595352 49 32 32
16.277487 -1.962886 70.497772 49 31 32
16.255341 -1.808453 70.401863 47 29 31
16.233654 -1.654480 70.307938 47 30 30
16.212482 -1.500960 70.216240 48 31 31
16.191872 -1.347881 70.126976 48 31 31
16.171852 -1.195232 70.040268 46 29 29
16.152435 -1.042995 69.956177 43 27 27
16.133621 -0.891153 69.874695 42 27 27
16.115387 -0.739690 69.795723 41 27 27
16.097700 -0.588588 69.719124 39 26 25
16.080507 -0.437828 69.644661 37 26 24
16.063744 -0.287398 69.572060 37 26 24
16.047331 -0.137284 69.500969 37 27 25
16.031178 0.012524 69.431015 36 27 26
16.015186 0.162032 69.361748 35 27 27
15.999251 0.311243 69.292740 33 26 27
15.983262 0.460154 69.223488 30 25 25
15.967110 0.608761 69.153534 28 23 23
15.950683 0.757053 69.082390 25 21 20
15.933877 0.905017 69.009605 23 20 17
15.916593 1.052635 68.934746 22 18 16
15.898738 1.199888 68.857414 23 19 17
15.880235 1.346752 68.777283 25 20 19
15.861014 1.493203 68.694038 29 23 23
15.841025 1.639216 68.607460 35 28 29
15.820229 1.784764 68.517395 41 32 33
15.798605 1.929823 68.423737 43 34 35
15.776149 2.074369 68.326477 43 34 35
15.752872 2.218380 68.225670 43 34 34
15.728806 2.361838 68.121445 41 32 32
15.703997 2.504728 68.013992 40 31 31
15.678502 2.647039 67.903572 40 30 29
15.652398 2.788765 67.790520 38 29 26
15.625771 2.929906 67.675194 36 26 23
15.598715 3.070465 67.558014 36 26 22
15.571333 3.210452 67.439423 40 28 24
15.543736 3.349881 67.319901 43 30 27
15.516035 3.488771 67.199928 46 32 29
15.488344 3.627147 67.080002 48 34 32
15.460773 3.765034 66.960587 50 35 33
15.433426 3.902464 66.842148 48 34 32
15.406408 4.039470 66.725136 47 33 32
15.379810 4.176084 66.609940 47 34 33
15.353713 4.312343 66.496910 44 34 32
15.328189 4.448281 66.386368 39 30 28
15.303294 4.583930 66.278549 35 27 25
15.279073 4.719323 66.173645 32 25 22
15.255552 4.854487 66.071777 30 23 22
15.232750 4.989446 65.973022 29 23 22
15.210662 5.124221 65.877357 30 23 23
15.189276 5.258826 65.784737 30 23 23
15.168563 5.393271 65.695030 30 23 23
15.148485 5.527561 65.608070 30 23 23
15.128996 5.661697 65.523666 30 22 23
15.110038 5.795672 65.441551 30 21 21
15.091549 5.929478 65.361481 29 21 21
15.073468 6.063102 65.283173 30 22 21
15.055730 6.196530 65.206352 30 22 22
15.038274 6.329746 65.130745 31 23 22
15.021038 6.462730 65.056099 31 23 23
15.003970 6.595467 64.982178 30 23 23
14.987024 6.727939 64.908783 29 22 22
14.970160 6.860132 64.835747 28 23 21
14.953342 6.992033 64.762909 29 24 22
14.936549 7.123631 64.690178 31 25 23
14.919761 7.254917 64.617462 32 26 24
14.902964 7.385886 64.544716 32 27 25
14.886152 7.516533 64.471909 33 28 27
14.869323 7.646858 64.399017 33 28 28
14.852477 7.776860 64.326057 33 28 28
14.835615 7.906539 64.253029 33 27 27
14.818746 8.035899 64.179970 32 27 27
14.801872 8.164942 64.106895 33 27 28
14.785004 8.293673 64.033836 34 28 29
14.768148 8.422095 63.960835 36 29 30
14.751316 8.550218 63.887932 39 30 32
14.734518 8.678045 63.815182 42 33 34
14.717768 8.805587 63.742634 46 35 36
14.701080 8.932855 63.670361 50 38 38
14.684472 9.059860 63.598434 50 37 37
14.667965 9.186618 63.526939 50 36 36
14.651580 9.313146 63.455975 52 38 37
14.635339 9.439460 63.385632 55 41 39
14.619267 9.565583 63.316032 56 41 40
14.603393 9.691536 63.247276 56 40 39
14.587738 9.817340 63.179474 55 38 38
14.572328 9.943019 63.112732 53 35 36
14.557184 10.068595 63.047150 52 33 34
14.542332 10.194091 62.982822 54 35 35
14.527785 10.319529 62.919823 58 39 39
14.513562 10.444926 62.858223 62 44 44
14.499676 10.570304 62.798077 66 49 48
14.486135 10.695679 62.739437 67 50 49
14.472949 10.821064 62.682327 64 49 47
14.460122 10.946476 62.626770 64 49 47
14.447659 11.071926 62.572792 69 56 52
14.435560 11.197428 62.520393 75 61 57
14.423830 11.322992 62.469589 79 65 61
14.412469 11.448631 62.420383 82 67 65
14.401479 11.574356 62.372791 83 66 67
14.390862 11.700179 62.326809 78 60 63
14.380618 11.826111 62.282440 72 52 56
14.370751 11.952164 62.239708 66 46 51
14.361261 12.078350 62.198605 65 45 50
14.352148 12.204679 62.159134 78 56 60
14.343411 12.331163 62.121296 104 81 83
14.335049 12.457808 62.085079 127 103 104
14.327053 12.584620 62.050449 128 103 103
14.319418 12.711602 62.017384 112 87 87
14.312133 12.838756 61.985832 97 73 73
14.305183 12.966077 61.955730 91 68 69
14.298552 13.093559 61.927010 92 70 72
14.292216 13.221193 61.899574 96 76 79
14.286154 13.348963 61.873314 98 79 82
14.280339 13.476853 61.848133 95 76 79
14.274747 13.604847 61.823914 93 73 76
14.269350 13.732924 61.800537 97 77 80
14.264123 13.861066 61.777897 103 84 86
14.259039 13.989251 61.755882 101 82 85
14.254082 14.117466 61.734409 90 71 74
14.249229 14.245693 61.713398 81 61 65
14.244473 14.373926 61.692791 78 58 63
14.239800 14.502157 61.672558 78 58 64
14.235212 14.630387 61.652687 79 58 66
14.230711 14.758621 61.633194 80 59 68
14.226304 14.886869 61.614105 83 62 72
14.222002 15.015147 61.595474 91 69 80
14.217821 15.143474 61.577370 99 78 88
14.213781 15.271873 61.559868 103 82 93
14.209901 15.400370 61.543064 101 80 92
14.206203 15.528994 61.527050 95 73 86
14.202707 15.657771 61.511909 92 71 86
14.199435 15.786733 61.497738 93 73 89
14.196405 15.915903 61.484615 95 77 92
14.193632 16.045309 61.472607 97 81 96
14.191132 16.174973 61.461773 99 85 100
14.188912 16.304913 61.452160 102 90 103
14.186982 16.435148 61.443806 102 90 103
16.400320 -12.275001 70.372757 25 20 20
16.431421 -12.146291 70.506203 26 21 21
16.462124 -12.016716 70.637955 26 22 22
16.492311 -11.886201 70.767487 26 22 22
16.521864 -11.754676 70.894295 25 22 21
16.550676 -11.622084 71.017929 24 22 19
16.578644 -11.488373 71.137932 24 21 18
16.605669 -11.353501 71.253899 25 22 18
16.631674 -11.217441 71.365479 26 23 19
16.656582 -11.080171 71.472359 27 23 20
16.680338 -10.941684 71.574295 27 23 20
16.702900 -10.801984 71.671104 27 23 20
16.724239 -10.661089 71.762672 27 23 20
16.744343 -10.519022 71.848938 28 22 20
16.763212 -10.375819 71.929901 30 24 22
16.780861 -10.231524 72.005630 32 26 24
16.797318 -10.086185 72.076241 36 29 27
16.812614 -9.939857 72.141884 40 33 31
16.826796 -9.792596 72.202736 46 39 37
16.839905 -9.644460 72.258987 55 47 46
16.851992 -9.495503 72.310852 67 58 58
16.863096 -9.345780 72.358505 76 66 66
16.873264 -9.195340 72.402122 80 69 70
16.882524 -9.044227 72.441864 85 72 73
16.890909 -8.892481 72.477844 93 79 81
16.898436 -8.740136 72.510139 105 91 92
16.905115 -8.587221 72.538803 113 97 98
16.910952 -8.433763 72.563843 110 93 94
16.915941 -8.279782 72.585251 102 84 86
16.920078 -8.125299 72.603004 96 76 79
16.923349 -7.970332 72.617043 91 71 74
16.925741 -7.814898 72.627304 88 67 69
16.927238 -7.659016 72.633728 86 66 66
16.927828 -7.502703 72.636253 85 65 65
16.927498 -7.345981 72.634842 84 65 64
16.926235 -7.188869 72.629425 84 66 65
16.924040 -7.031392 72.620003 82 66 64
16.920906 -6.873575 72.606560 76 61 59
16.916834 -6.715443 72.589081 68 53 52
16.911827 -6.557024 72.567596 60 46 44
16.905888 -6.398345 72.542107 55 41 39
16.899025 -6.239434 72.512665 56 42 40
16.891243 -6.080321 72.479279 63 47 47
16.882551 -5.921031 72.441978 69 52 54
16.872952 -5.761593 72.400787 72 55 57
16.862452 -5.602033 72.355736 71 52 56
16.851055 -5.442378 72.306831 69 49 55
16.838760 -5.282651 72.254074 70 48 57
16.825573 -5.122880 72.197487 73 51 60
16.811495 -4.963091 72.137077 83 60 70
16.796530 -4.803308 72.072868 105 81 91
16.780689 -4.643560 72.004890 118 96 105
16.763985 -4.483874 71.933212 100 80 86
16.746433 -4.324278 71.857903 68 49 53
16.728067 -4.164804 71.779091 49 31 35
16.708918 -4.005482 71.696922 45 29 31
16.689034 -3.846344 71.611603 47 30 31
16.668468 -3.687425 71.523361 49 33 33
16.647289 -3.528755 71.432487 51 35 35
16.625572 -3.370368 71.339302 52 37 36
16.603401 -3.212295 71.244156 53 37 36
16.580868 -3.054565 71.147469 54 37 36
16.558071 -2.897207 71.049660 54 38 37
16.535112 -2.740243 70.951141 55 38 37
16.512098 -2.583695 70.852386 54 37 36
16.489130 -2.427580 70.753830 52 35 35
16.466309 -2.271910 70.655907 50 33 33
16.443733 -2.116693 70.559036 48 32 32
16.421492 -1.961935 70.463608 48 31 31
16.399666 -1.807633 70.369949 47 30 30
16.378325 -1.653784 70.278374 47 30 30
16.357525 -1.500380 70.189125 46 30 30
16.337311 -1.347409 70.102379 46 29 29
16.317707 -1.194856 70.018265 44 29 28
16.298725 -1.042706 69.936821 43 28 27
16.280363 -0.890941 69.858025 43 28 27
16.262594 -0.739542 69.781776 41 27 26
16.245382 -0.588493 69.707932 39 27 25
16.228672 -0.437775 69.636223 37 26 23
16.212395 -0.287375 69.566376 36 26 23
16.196466 -0.137278 69.498032 36 27 25
16.180796 0.012524 69.430786 35 27 26
16.165277 0.162038 69.364197 34 27 26
16.149801 0.311266 69.297798 32 26 26
16.134256 0.460205 69.231087 30 25 25
16.118525 0.608850 69.163589 27 23 23
16.102491 0.757189 69.094795 25 22 20
16.086050 0.905209 69.024239 24 20 18
16.069094 1.052891 68.951485 23 19 16
16.051531 1.200214 68.876122 23 19 17
16.033278 1.347154 68.797798 25 20 19
16.014265 1.493685 68.716217 29 22 22
15.994439 1.639782 68.631142 35 27 27
15.973761 1.785416 68.542412 39 31 31
15.952209 1.930562 68.449936 42 33 33
15.929782 2.075196 68.353706 42 33 33
15.906494 2.219294 68.253777 41 32 32
15.882379 2.362839 68.150299 40 31 31
15.857482 2.505813 68.043472 39 30 29
15.831869 2.648208 67.933563 39 29 28
15.805617 2.790016 67.820923 38 28 25
15.778818 2.931236 67.705933 37 26 22
15.751572 3.071874 67.589012 38 26 22
15.723984 3.211938 67.470634 41 29 25
15.696169 3.351443 67.351288 45 31 28
15.668243 3.490408 67.231461 47 33 30
15.640323 3.628859 67.111649 48 34 32
15.612519 3.766820 66.992348 49 34 33
15.584946 3.904326 66.874031 47 32 32
15.557703 4.041407 66.757133 45 32 31
15.530886 4.178098 66.642067 46 34 32
15.504580 4.314436 66.529182 44 34 32
15.478854 4.450454 66.418800 40 31 29
15.453769 4.586186 66.311165 35 27 25
15.429370 4.721664 66.206467 31 24 23
15.405686 4.856916 66.104843 30 23 22
15.382733 4.991967 66.006355 29 23 21
15.360513 5.126838 65.911011 29 22 21
15.339012 5.261545 65.818748 29 22 21
15.318203 5.396098 65.729454 29 22 22
15.298050 5.530503 65.642982 29 21 22
15.278506 5.664761 65.559120 29 21 22
15.259516 5.798867 65.477638 29 21 22
15.241020 5.932815 65.398270 29 21 21
15.222957 6.066593 65.320763 29 22 21
15.205260 6.200187 65.244827 30 23 22
15.187869 6.333580 65.170204 30 23 22
15.170724 6.466757 65.096634 30 23 23
15.153770 6.599700 65.023888 30 23 22
15.136959 6.732392 64.951752 29 22 21
15.120247 6.864819 64.880043 28 23 21
15.103601 6.996967 64.808617 29 24 22
15.086991 7.128824 64.737343 30 25 23
15.070394 7.260380 64.666122 32 26 24
15.053796 7.391628 64.594902 33 27 25
15.037183 7.522563 64.523613 33 28 27
15.020549 7.653178 64.452240 34 29 28
15.003888 7.783473 64.380753 34 29 29
14.987201 7.913445 64.309151 33 28 28
14.970487 8.043094 64.237427 32 28 28
14.953748 8.172420 64.165604 32 28 29
14.936987 8.301424 64.093681 33 28 30
14.920210 8.430109 64.021698 35 29 30
14.903423 8.558478 63.949665 37 30 32
14.886637 8.686538 63.877636 41 33 34
14.869862 8.814292 63.805653 46 36 38
14.853111 8.941751 63.733776 51 39 41
14.836401 9.068926 63.662075 52 39 40
14.819753 9.195829 63.590637 51 37 38
14.803187 9.322477 63.519558 53 38 38
14.786728 9.448887 63.448933 56 41 40
14.770402 9.575077 63.378876 56 41 40
14.754237 9.701073 63.309517 56 39 39
14.738260 9.826894 63.240959 54 37 37
14.722495 9.952562 63.173313 52 34 35
14.706973 10.078106 63.106705 50 32 33
14.691715 10.203547 63.041237 51 32 33
14.676743 10.328905 62.976990 55 37 37
14.662078 10.454206 62.914062 59 41 41
14.647734 10.579468 62.852516 63 46 45
14.633727 10.704710 62.792416 64 49 46
14.620070 10.829953 62.733814 62 48 46
14.606771 10.955212 62.676750 63 49 46
14.593840 11.080503 62.621258 67 54 51
14.581282 11.205842 62.567375 74 60 56
14.569102 11.331244 62.515114 77 63 61
14.557309 11.456724 62.464512 81 66 66
14.545907 11.582297 62.415585 84 67 69
14.534901 11.707978 62.368355 80 62 66
14.524294 11.833782 62.322842 73 55 59
14.514092 11.959723 62.279068 68 49 54
14.504298 12.085814 62.237041 68 48 53
14.494915 12.212071 62.196781 79 58 64
14.485942 12.338504 62.158276 102 80 84
14.477375 12.465120 62.121517 121 98 101
14.469212 12.591928 62.086487 122 97 100
14.461443 12.718933 62.053150 109 84 86
14.454053 12.846131 62.021446 97 73 73
14.447028 12.973520 61.991302 94 70 70
14.440350 13.101093 61.962643 96 73 72
14.433991 13.228836 61.935360 100 78 77
14.427925 13.356732 61.909332 103 82 80
14.422124 13.484764 61.884438 102 82 81
14.416557 13.612910 61.860554 104 83 81
14.411194 13.741146 61.837540 112 90 90
14.406003 13.869450 61.815262 123 102 101
14.400956 13.997797 61.793610 123 102 101
14.396029 14.126168 61.772465 104 85 85
14.391198 14.254544 61.751740 83 63 65
14.386448 14.382911 61.731354 73 53 56
14.381765 14.511258 61.711262 73 54 58
14.377147 14.639584 61.691444 76 57 62
14.372589 14.767887 61.671890 80 61 67
14.368099 14.896175 61.652622 84 65 73
14.363684 15.024459 61.633675 91 72 81
14.359358 15.152756 61.615112 98 79 88
14.355139 15.281086 61.597008 102 83 93
14.351045 15.409472 61.579441 100 81 93
14.347096 15.537941 61.562500 95 75 88
14.343316 15.666520 61.546276 91 72 86
14.339723 15.795235 61.530857 92 74 89
14.336337 15.924113 61.516331 96 79 94
14.333176 16.053181 61.502766 99 82 98
14.330256 16.182465 61.490242 101 86 101
14.327593 16.311983 61.478809 102 89 102
16.571493 -12.137564 70.455544 29 24 24
16.602196 -12.007893 70.586082 29 25 25
16.632385 -11.877291 70.714439 28 25 24
16.661943 -11.745690 70.840103 27 24 23
16.690758 -11.613031 70.962608 27 24 21
16.718721 -11.479260 71.081505 26 23 20
16.745739 -11.344336 71.196373 27 23 19
16.771727 -11.208228 71.306862 27 23 19
16.796614 -11.070918 71.412674 27 23 19
16.820341 -10.932398 71.513557 27 23 19
16.842867 -10.792673 71.609329 27 23 19
16.864164 -10.651759 71.699875 27 23 19
16.884224 -10.509684 71.785156 27 22 19
16.903046 -10.366483 71.865181 29 24 21
16.920649 -10.222199 71.940018 31 26 23
16.937059 -10.076886 72.009796 34 28 25
16.952320 -9.930596 72.074677 38 32 29
16.966473 -9.783388 72.134850 43 36 34
16.979565 -9.635319 72.190506 48 40 39
16.991642 -9.486444 72.241859 54 46 45
17.002754 -9.336817 72.289108 59 50 50
17.012943 -9.186487 72.332420 63 52 54
17.022242 -9.035499 72.371956 69 56 58
17.030680 -8.883890 72.407829 77 63 65
17.038275 -8.731696 72.440125 86 71 73
17.045040 -8.578945 72.468887 92 76 78
17.050976 -8.425659 72.494118 92 75 77
17.056080 -8.271862 72.515823 90 72 75
17.060343 -8.117570 72.533943 88 69 72
17.063749 -7.962801 72.548431 86 66 69
17.066284 -7.807571 72.559204 85 64 67
17.067932 -7.651896 72.566208 86 64 65
17.068676 -7.495795 72.569374 85 63 63
17.068499 -7.339284 72.568626 81 61 60
17.067392 -7.182384 72.563919 77 58 56
17.065344 -7.025118 72.555206 72 55 53
17.062349 -6.867508 72.542480 67 51 50
17.058409 -6.709581 72.525719 62 47 46
17.053516 -6.551361 72.504921 57 43 41
17.047678 -6.392875 72.480095 54 39 39
17.040897 -6.234152 72.451271 54 39 39
17.033182 -6.075219 72.418465 56 41 42
17.024532 -5.916104 72.381691 58 43 45
17.014954 -5.756833 72.340973 60 43 46
17.004454 -5.597433 72.296326 61 44 49
16.993034 -5.437932 72.247772 63 44 52
16.980698 -5.278356 72.195320 66 47 56
16.967449 -5.118731 72.139000 72 51 61
16.953297 -4.959083 72.078827 83 61 72
16.938246 -4.799441 72.014839 99 77 87
16.922312 -4.639832 71.947090 100 80 88
16.905510 -4.480286 71.875656 79 59 65
16.887865 -4.320832 71.800636 56 37 42
16.869410 -4.161501 71.722176 46 29 31
16.850185 -4.002326 71.640434 45 28 29
16.830242 -3.843339 71.555641 47 29 30
16.809639 -3.684573 71.468056 49 31 31
16.788450 -3.526062 71.377960 50 33 32
16.766750 -3.367836 71.285706 51 33 32
16.744629 -3.209928 71.191650 51 33 32
16.722181 -3.052365 71.096214 52 33 32
16.699509 -2.895175 70.999817 52 34 33
16.676708 -2.738379 70.902878 53 35 34
16.653891 -2.581999 70.805862 52 35 34
16.631155 -2.426049 70.709206 52 35 35
16.608606 -2.270541 70.613335 51 34 34
16.586336 -2.115482 70.518654 49 33 32
16.564434 -1.960875 70.425529 49 32 31
16.542976 -1.806718 70.334305 47 31 30
16.522034 -1.653005 70.245262 46 29 29
16.501657 -1.499728 70.158630 45 29 29
16.481888 -1.346874 70.074577 44 28 28
16.462753 -1.194429 69.993225 43 29 28
16.444256 -1.042374 69.914581 43 29 28
16.426392 -0.890694 69.838631 43 29 28
16.409134 -0.739367 69.765259 41 28 27
16.392443 -0.588378 69.694290 39 28 26
16.376257 -0.437708 69.625481 38 27 24
16.360504 -0.287342 69.558502 37 27 25
16.345098 -0.137268 69.493004 37 27 25
16.329943 0.012524 69.428566 36 27 26
16.314928 0.162039 69.364731 34 27 26
16.299944 0.311280 69.301018 32 26 26
16.284866 0.460244 69.236916 30 26 25
16.269579 0.608923 69.171928 27 25 24
16.253965 0.757307 69.105537 26 23 21
16.237907 0.905380 69.037270 25 21 18
16.221300 1.053123 68.966667 24 20 17
16.204046 1.200513 68.893311 24 19 17
16.186062 1.347527 68.816841 25 20 18
16.167274 1.494136 68.736961 29 22 21
16.147627 1.640314 68.653435 34 27 26
16.127083 1.786033 68.566086 39 31 31
16.105621 1.931265 68.474846 41 33 32
16.083241 2.075984 68.379684 41 32 32
16.059958 2.220169 68.280701 40 31 30
16.035807 2.363799 68.178017 39 29 29
16.010839 2.506859 68.071861 38 28 28
15.985123 2.649337 67.962532 39 28 28
15.958741 2.791227 67.850365 40 28 26
15.931787 2.932528 67.735764 38 26 23
15.904366 3.073245 67.619179 39 26 22
15.876588 3.213387 67.501083 43 29 26
15.848571 3.352969 67.381966 47 33 30
15.820436 3.492012 67.262344 49 34 32
15.792300 3.630538 67.142723 49 34 33
15.764283 3.768578 67.023605 49 34 34
15.736495 3.906160 66.905457 48 34 34
15.709043 4.043320 66.788742 47 33 33
15.682020 4.180091 66.673859 46 34 34
15.655515 4.316510 66.561165 45 34 33
15.629601 4.452610 66.450989 41 32 30
15.604339 4.588428 66.343582 37 28 27
15.579772 4.723994 66.239136 33 25 24
15.555935 4.859337 66.137787 31 24 22
15.532844 4.994483 66.039612 30 23 21
15.510500 5.129452 65.944611 30 22 21
15.488893 5.264263 65.852753 30 22 22
15.467996 5.398926 65.763908 29 22 22
15.447776 5.533448 65.677940 29 21 22
15.428187 5.667831 65.594658 29 21 22
15.409174 5.802072 65.513817 29 21 22
15.390681 5.936165 65.435196 29 21 22
15.372644 6.070099 65.358505 29 22 21
15.355001 6.203862 65.283501 30 23 22
15.337688 6.337437 65.209892 30 24 22
15.320648 6.470810 65.137436 30 23 22
15.303821 6.603964 65.065895 29 23 22
15.287160 6.736882 64.995064 29 23 21
15.270618 6.869548 64.924736 28 23 21
15.254160 7.001949 64.854759 29 24 22
15.237751 7.134071 64.784996 30 25 23
15.221366 7.265904 64.715332 32 26 24
15.204985 7.397439 64.645683 33 27 26
15.188590 7.528667 64.575981 34 29 27
15.172170 7.659581 64.506165 35 29 28
15.155715 7.790177 64.436211 35 30 29
15.139219 7.920450 64.366074 34 29 29
15.122678 8.050396 64.295746 33 29 29
15.106090 8.180013 64.225220 33 28 29
15.089453 8.309299 64.154488 33 29 30
15.072768 8.438254 64.083549 34 28 30
15.056043 8.566880 64.012436 36 29 31
15.039279 8.695177 63.941170 40 31 34
15.022490 8.823152 63.869785 46 36 39
15.005685 8.950809 63.798336 51 40 42
14.988880 9.078159 63.726891 53 40 41
14.972096 9.205215 63.655537 52 38 39
14.955356 9.331988 63.584358 53 39 39
14.938682 9.458497 63.513466 55 40 40
14.922102 9.584762 63.442978 56 41 39
14.905647 9.710803 63.373020 55 39 38
14.889345 9.836644 63.303707 54 37 36
14.873225 9.962308 63.235168 53 35 35
14.857317 10.087820 63.167534 51 33 33
14.841647 10.213205 63.100914 51 33 33
14.826241 10.338487 63.035416 54 36 36
14.811124 10.463690 62.971142 57 40 39
14.796313 10.588836 62.908173 60 43 43
14.781831 10.713947 62.846596 63 47 45
14.767691 10.839045 62.786480 63 49 47
14.753907 10.964149 62.727879 64 50 48
14.740495 11.089278 62.670853 67 53 50
14.727463 11.214453 62.615448 71 58 55
14.714824 11.339689 62.561707 75 60 59
14.702584 11.465008 62.509670 79 62 64
14.690757 11.590425 62.459385 81 64 67
14.679349 11.715962 62.410885 79 61 66
14.668368 11.841635 62.364201 73 56 61
14.657824 11.967462 62.319366 69 51 56
14.647718 12.093458 62.276405 69 51 56
14.638058 12.219641 62.235332 79 59 66
14.628842 12.346022 62.196152 98 77 83
14.620070 12.472612 62.158855 113 90 95
14.611736 12.599420 62.123425 115 91 95
14.603830 12.726447 62.089809 106 81 84
14.596337 12.853693 62.057953 97 73 73
14.589240 12.981154 62.027779 94 70 68
14.582517 13.108821 61.999191 96 73 70
14.576138 13.236678 61.972076 102 80 76
14.570075 13.364708 61.946297 105 83 79
14.564294 13.492887 61.921715 105 83 78
14.558760 13.621192 61.898186 108 85 81
14.553438 13.749596 61.875561 118 94 92
14.548294 13.878071 61.853687 130 106 104
14.543292 14.006590 61.832424 134 110 109
14.538406 14.135129 61.811649 119 97 96
14.533607 14.263665 61.791252 94 72 74
14.528877 14.392180 61.771141 76 55 58
14.524199 14.520660 61.751244 72 52 55
14.519562 14.649096 61.731533 74 56 59
14.514963 14.777488 61.711979 79 61 66
14.510405 14.905835 61.692600 85 68 73
14.505893 15.034147 61.673416 91 74 81
14.501440 15.162438 61.654484 97 82 90
14.497060 15.290726 61.635864 103 88 97
14.492771 15.419028 61.617630 103 87 96
14.488594 15.547373 61.599869 97 80 91
14.484550 15.675784 61.582672 92 76 88
14.480658 15.804288 61.566128 94 78 91
14.476939 15.932911 61.550316 99 83 96
14.473413 16.061680 61.535324 104 88 101
14.470099 16.190622 61.521236 105 91 103
14.467014 16.319761 61.508121 103 89 101
16.711008 -12.128591 70.403458 31 26 26
16.741699 -11.998821 70.532761 31 27 26
16.771881 -11.868134 70.659912 30 27 26
16.801434 -11.736458 70.784416 30 26 25
16.830240 -11.603731 70.905777 29 26 23
16.858196 -11.469903 71.023560 28 25 22
16.885202 -11.334930 71.137344 28 24 21
16.911177 -11.198782 71.246765 28 23 20
16.936043 -11.061439 71.351532 27 23 19
16.959745 -10.922895 71.451393 27 23 18
16.982243 -10.783154 71.546173 26 22 18
17.003510 -10.642236 71.635773 26 22 18
17.023535 -10.500165 71.720131 27 23 18
17.042326 -10.356979 71.799301 28 24 20
17.059898 -10.212724 71.873329 30 26 22
17.076284 -10.067451 71.942368 32 28 25
17.091528 -9.921215 72.006584 35 30 28
17.105669 -9.774074 72.066170 38 33 31
17.118761 -9.626084 72.121315 42 35 34
17.130850 -9.477304 72.172256 46 38 37
17.141987 -9.327785 72.219177 49 40 41
17.152214 -9.177576 72.262260 52 42 44
17.161566 -9.026722 72.301659 56 45 47
17.170067 -8.875258 72.337479 62 49 51
17.177742 -8.723221 72.369812 68 54 55
17.184597 -8.570635 72.398689 73 57 59
17.190636 -8.417524 72.424126 75 59 61
17.195848 -8.263908 72.446098 77 59 61
17.200232 -8.109805 72.464554 78 59 62
17.203764 -7.955229 72.479439 80 60 63
17.206429 -7.800196 72.490669 83 62 64
17.208208 -7.644722 72.498169 85 64 64
17.209084 -7.488821 72.501854 84 63 62
17.209036 -7.332510 72.501648 78 57 56
17.208052 -7.175811 72.497498 70 50 49
17.206120 -7.018743 72.489357 64 45 44
17.203230 -6.861328 72.477188 61 43 42
17.199379 -6.703590 72.460968 58 42 41
17.194567 -6.545557 72.440689 56 40 40
17.188787 -6.387252 72.416344 55 39 40
17.182049 -6.228703 72.387955 55 40 42
17.174353 -6.069939 72.355522 56 41 44
17.165701 -5.910986 72.319077 56 41 45
17.156099 -5.751872 72.278625 56 41 45
17.145552 -5.592623 72.234192 57 41 46
17.134066 -5.433268 72.185799 58 42 49
17.121643 -5.273833 72.133461 62 44 53
17.108292 -5.114347 72.077217 67 48 57
17.094023 -4.954836 72.017097 76 56 66
17.078846 -4.795331 71.953163 83 63 73
17.062780 -4.635859 71.885475 77 58 65
17.045849 -4.476451 71.814140 60 42 47
17.028080 -4.317140 71.739288 49 31 35
17.009512 -4.157955 71.661057 46 28 31
16.990191 -3.998930 71.579659 46 27 29
16.970175 -3.840099 71.495331 48 28 28
