ply
format ascii 1.0
element vertex 1203
property float x
property float y
property float z
property uchar red
property uchar green
property uchar blue
end_header
-2.934566 3.553346 68.443756 30 23 19
-2.933886 3.700031 68.427910 29 23 19
-2.933164 3.846591 68.411064 29 22 19
-2.932383 3.992999 68.392845 28 21 19
-2.931529 4.139225 68.372932 28 21 19
-2.930592 4.285244 68.351074 27 20 19
-2.929562 4.431028 68.327057 26 20 18
-2.928435 4.576557 68.300766 26 20 17
-2.927207 4.721810 68.272133 25 20 16
-2.925880 4.866775 68.241180 25 20 16
-2.924458 5.011442 68.208015 25 20 16
-2.922947 5.155811 68.172783 26 20 17
-2.921358 5.299886 68.135719 26 21 17
-2.919702 5.443676 68.097092 25 21 17
-2.917992 5.587196 68.057213 26 21 17
-2.916243 5.730468 68.016426 26 20 17
-2.914471 5.873517 67.975082 27 20 17
-2.912690 6.016370 67.933556 27 20 17
-2.910917 6.159060 67.892204 27 19 17
-2.909166 6.301620 67.851364 27 18 18
-2.907451 6.444084 67.811363 28 18 18
-2.905785 6.586485 67.772491 29 19 19
-2.904178 6.728857 67.735016 29 19 20
-2.902640 6.871230 67.699158 29 20 21
-2.901179 7.013634 67.665070 29 20 21
-2.899800 7.156094 67.632904 28 21 22
-2.898507 7.298631 67.602745 28 22 22
-2.897301 7.441263 67.574623 28 23 22
-2.896183 7.584004 67.548553 29 24 23
-2.895151 7.726861 67.524475 31 24 24
-2.894200 7.869836 67.502304 32 25 25
-2.893326 8.012927 67.481918 32 25 25
-2.892521 8.156126 67.463142 32 24 25
-2.891778 8.299419 67.445801 31 23 25
-2.891085 8.442786 67.429642 31 23 24
-2.890432 8.586204 67.414413 30 22 22
-2.889807 8.729640 67.399849 30 23 21
-2.889198 8.873060 67.385643 30 23 21
-2.888591 9.016425 67.371475 30 23 22
-2.887971 9.159690 67.357025 31 23 23
-2.887325 9.302807 67.341949 31 23 24
-2.886637 9.445724 67.325920 32 24 25
-2.885895 9.588387 67.308594 33 24 26
-2.885082 9.730743 67.289650 34 24 27
-2.884187 9.872732 67.268768 34 25 27
-2.883196 10.014297 67.245644 34 25 27
-2.882097 10.155383 67.220009 35 25 27
-2.880878 10.295934 67.191597 36 26 27
-2.879533 10.435899 67.160210 38 27 29
-2.878051 10.575231 67.125656 40 28 29
-2.876429 10.713887 67.087814 41 29 28
-2.874661 10.851833 67.046593 42 30 28
-2.872747 10.989042 67.001953 43 30 29
-2.870689 11.125498 66.953941 44 31 29
-2.868489 11.261190 66.902626 44 31 30
-2.866154 11.396128 66.848183 44 30 30
-2.863694 11.530326 66.790810 44 30 31
-2.861121 11.663815 66.730797 44 29 31
-2.858449 11.796636 66.668472 44 29 30
-2.855695 11.928848 66.604248 44 28 30
-2.852879 12.060519 66.538567 44 29 30
-2.850021 12.191725 66.471893 45 29 30
-2.847142 12.322556 66.404747 46 29 31
-2.844266 12.453110 66.337669 48 31 32
-2.841415 12.583486 66.271172 50 33 34
-2.838611 12.713787 66.205780 52 35 36
-2.835876 12.844117 66.141998 55 37 38
-2.833230 12.974581 66.080284 57 38 40
-2.830691 13.105273 66.021072 57 38 40
-2.828275 13.236282 65.964706 57 37 39
-2.825994 13.367689 65.911499 58 38 41
-2.823858 13.499562 65.861687 60 40 43
-2.821875 13.631958 65.815437 63 43 46
-2.820048 13.764916 65.772827 68 47 51
-2.818378 13.898468 65.733887 74 53 56
-2.816865 14.032628 65.698586 82 61 65
-2.815502 14.167393 65.666794 92 71 75
-2.814283 14.302754 65.638367 101 80 84
-2.813200 14.438691 65.613113 101 79 83
-2.812243 14.575173 65.590805 92 70 75
-2.811402 14.712160 65.571167 80 58 63
-2.810663 14.849607 65.553940 75 53 59
-2.810015 14.987463 65.538834 80 59 65
-2.809445 15.125674 65.525536 84 64 70
-2.808941 15.264186 65.513779 82 62 69
-2.808489 15.402932 65.503235 81 61 68
-2.808076 15.541852 65.493614 82 62 69
-2.807690 15.680875 65.484596 84 64 70
-2.807315 15.819927 65.475861 87 67 73
-2.806937 15.958921 65.467049 90 71 76
-2.806540 16.097765 65.457764 96 77 81
-2.806103 16.236347 65.447601 104 85 89
-2.805609 16.374542 65.436058 116 97 101
-2.805032 16.512203 65.422600 125 107 109
-2.804347 16.649168 65.406631 125 108 109
-2.803527 16.785252 65.387505 117 100 100
-2.802540 16.920250 65.364494 107 91 90
-2.801356 17.053942 65.336868 104 89 87
-2.799941 17.186102 65.303871 111 97 95
-2.798264 17.316498 65.264755 121 107 106
-2.796294 17.444899 65.218819 120 106 106
-2.794006 17.571098 65.165451 108 94 96
-2.791378 17.694910 65.104141 95 82 85
-2.788394 17.816191 65.034561 90 77 80
-2.785050 17.934847 64.956558 96 83 85
-2.719437 -13.232613 66.783951 122 123 125
-2.720309 -13.092849 66.805382 132 132 137
-2.721301 -12.953558 66.829727 137 136 143
-2.722398 -12.814660 66.856674 139 139 148
-2.723588 -12.676077 66.885887 136 135 145
-2.724856 -12.537731 66.917046 125 124 135
-2.726191 -12.399550 66.949821 127 125 138
-2.727578 -12.261467 66.983894 150 147 158
-2.729007 -12.123419 67.018982 174 170 181
-2.730466 -11.985354 67.054817 179 174 183
-2.731948 -11.847233 67.091209 161 155 164
-2.733446 -11.709023 67.127991 141 136 144
-2.734956 -11.570704 67.165062 139 135 143
-2.736475 -11.432266 67.202377 150 146 154
-2.738004 -11.293708 67.239929 156 153 160
-2.739545 -11.155037 67.277779 159 157 163
-2.741103 -11.016268 67.316025 170 170 174
-2.742682 -10.877420 67.354805 172 173 175
-2.744289 -10.738515 67.394279 143 144 143
-2.745932 -10.599575 67.434608 122 123 120
-2.747616 -10.460621 67.475975 154 155 151
-2.749348 -10.321671 67.518524 200 200 195
-2.751135 -10.182737 67.562408 204 202 198
-2.752981 -10.043829 67.607735 188 185 183
-2.754888 -9.904944 67.654556 200 196 196
-2.756856 -9.766078 67.702896 218 214 216
-2.758885 -9.627214 67.752731 203 198 204
-2.760972 -9.488334 67.803978 176 171 179
-2.763112 -9.349410 67.856522 172 167 175
-2.765296 -9.210411 67.910172 178 173 180
-2.767519 -9.071303 67.964745 180 171 178
-2.769768 -8.932051 68.020004 183 173 176
-2.772037 -8.792616 68.075699 174 163 162
-2.774312 -8.652965 68.131577 151 139 132
-2.776584 -8.513062 68.187378 157 145 134
-2.778843 -8.372881 68.242867 198 191 176
-2.781081 -8.232395 68.297813 228 224 209
-2.783288 -8.091586 68.352020 231 230 219
-2.785459 -7.950438 68.405327 230 229 225
-2.787588 -7.808942 68.457611 230 232 234
-2.789671 -7.667095 68.508759 230 233 238
-2.791705 -7.524898 68.558723 235 238 243
-2.793690 -7.382353 68.607468 245 248 250
-2.795625 -7.239469 68.654984 249 251 252
-2.797511 -7.096255 68.701294 237 238 240
-2.799348 -6.952723 68.746422 209 211 215
-2.801139 -6.808882 68.790398 194 197 201
-2.802885 -6.664743 68.833267 199 203 207
-2.804587 -6.520319 68.875061 198 200 206
-2.806245 -6.375615 68.915794 193 193 201
-2.807861 -6.230641 68.955467 204 203 211
-2.809433 -6.085401 68.994072 222 221 229
-2.810960 -5.939900 69.031578 220 220 227
-2.812440 -5.794141 69.067932 195 197 206
-2.813871 -5.648126 69.103073 180 183 194
-2.815250 -5.501858 69.136925 172 173 185
-2.816572 -5.355335 69.169395 161 160 172
-2.817833 -5.208561 69.200378 159 153 164
-2.819031 -5.061538 69.229774 159 149 158
-2.820158 -4.914268 69.257469 155 142 150
-2.821213 -4.766754 69.283379 147 134 140
-2.822190 -4.619001 69.307373 141 128 134
-2.823086 -4.471017 69.329369 138 126 135
-2.823897 -4.322807 69.349281 132 122 133
-2.824620 -4.174382 69.367035 122 114 128
-2.825252 -4.025751 69.382568 114 105 122
-2.825793 -3.876927 69.395844 107 95 115
-2.826239 -3.727922 69.406807 99 84 106
-2.826592 -3.578751 69.415466 99 80 104
-2.826851 -3.429429 69.421822 109 87 110
-2.827016 -3.279971 69.425896 113 88 109
-2.827091 -3.130395 69.427734 103 76 94
-2.827078 -2.980718 69.427399 90 64 77
-2.826979 -2.830957 69.424980 84 57 67
-2.826799 -2.681130 69.420563 82 55 62
-2.826542 -2.531252 69.414253 77 52 56
-2.826214 -2.381342 69.406189 70 45 48
-2.825819 -2.231414 69.396492 65 40 43
-2.825363 -2.081482 69.385284 63 38 42
-2.824851 -1.931561 69.372704 62 37 41
-2.824287 -1.781661 69.358879 61 37 42
-2.823678 -1.631794 69.343910 61 37 42
-2.823026 -1.481970 69.327904 63 39 44
-2.822336 -1.332197 69.310951 64 42 46
-2.821609 -1.182481 69.293106 65 44 48
-2.820848 -1.032830 69.274414 65 46 50
-2.820053 -0.883249 69.254890 65 47 49
-2.819224 -0.733743 69.234535 63 47 48
-2.818361 -0.584317 69.213326 59 45 45
-2.817461 -0.434978 69.191246 51 39 37
-2.816525 -0.285730 69.168236 41 32 28
-2.815549 -0.136579 69.144272 34 25 22
-2.814532 0.012468 69.119316 31 22 20
-2.813475 0.161405 69.093338 33 26 24
-2.812376 0.310226 69.066353 39 32 31
-2.811238 0.458924 69.038406 43 37 37
-2.810063 0.607494 69.009567 45 40 41
-2.808857 0.755930 68.979950 48 43 45
-2.807626 0.904231 68.949699 44 39 42
-2.806377 1.052395 68.919037 32 27 29
-2.805121 1.200424 68.888184 27 21 23
-2.803867 1.348321 68.857391 31 24 24
-2.802627 1.496092 68.826950 34 26 25
-2.801413 1.643748 68.797134 34 26 25
-2.800236 1.791298 68.768219 33 26 25
-2.799105 1.938756 68.740440 33 24 23
-2.798028 2.086134 68.714012 33 25 23
-2.797014 2.233448 68.689087 33 25 23
-2.796064 2.380710 68.665756 33 25 23
-2.795180 2.527931 68.644051 33 25 23
-2.794360 2.675119 68.623917 33 24 23
-2.793599 2.822281 68.605232 33 24 23
-2.792889 2.969415 68.587784 33 24 22
-2.792218 3.116519 68.571320 32 23 20
-2.791575 3.263584 68.555534 31 23 19
-2.790945 3.410596 68.540054 30 22 19
-2.790312 3.557539 68.524506 30 22 19
-2.789660 3.704389 68.508499 29 22 19
-2.788974 3.851123 68.491661 29 22 19
-2.788240 3.997715 68.473618 28 21 19
-2.787443 4.144136 68.454048 28 20 19
-2.786573 4.290361 68.432686 27 20 18
-2.785622 4.436363 68.409325 27 20 18
-2.784583 4.582121 68.383812 26 20 17
-2.783453 4.727616 68.356079 25 20 17
-2.782234 4.872832 68.326118 25 20 17
-2.780926 5.017760 68.294006 26 20 17
-2.779536 5.162397 68.259865 26 20 17
-2.778071 5.306745 68.223892 27 21 17
-2.776541 5.450809 68.186325 27 21 17
-2.774958 5.594604 68.147453 27 21 17
-2.773335 5.738147 68.107574 27 20 17
-2.771683 5.881460 68.067017 27 19 17
-2.770018 6.024568 68.026115 27 19 17
-2.768352 6.167498 67.985214 28 19 17
-2.766699 6.310281 67.944618 28 19 18
-2.765071 6.452949 67.904648 29 20 19
-2.763480 6.595531 67.865578 30 20 20
-2.761937 6.738060 67.827667 31 21 21
-2.760449 6.880565 67.791122 31 21 21
-2.759024 7.023073 67.756134 30 22 22
-2.757668 7.165608 67.722832 29 22 22
-2.756385 7.308194 67.691322 29 22 22
-2.755177 7.450848 67.661659 29 23 21
-2.754045 7.593583 67.633873 30 24 22
-2.752989 7.736411 67.607933 31 25 24
-2.752005 7.879334 67.583771 32 25 25
-2.751090 8.022353 67.561295 31 25 25
-2.750238 8.165463 67.540375 30 23 24
-2.749442 8.308653 67.520828 30 23 24
-2.748695 8.451905 67.502464 30 23 23
-2.747985 8.595200 67.485046 30 23 22
-2.747304 8.738507 67.468315 30 23 21
-2.746639 8.881797 67.451996 30 23 21
-2.745979 9.025031 67.435783 30 23 21
-2.745311 9.168169 67.419380 30 22 22
-2.744622 9.311163 67.402443 30 23 23
-2.743897 9.453964 67.384651 31 23 24
-2.743125 9.596521 67.365692 32 24 25
-2.742292 9.738779 67.345222 33 24 26
-2.741384 9.880681 67.322929 34 25 26
-2.740390 10.022172 67.298523 34 25 26
-2.739298 10.163194 67.271706 35 25 26
-2.738098 10.303694 67.242241 36 26 27
-2.736781 10.443619 67.209892 37 27 28
-2.735339 10.582921 67.174477 39 28 28
-2.733766 10.721560 67.135857 41 29 28
-2.732059 10.859497 67.093941 42 30 28
-2.730216 10.996705 67.048676 43 31 29
-2.728237 11.133163 67.000076 45 32 30
-2.726126 11.268865 66.948219 45 32 30
-2.723888 11.403812 66.893257 45 32 31
-2.721531 11.538021 66.835381 45 31 32
-2.719066 11.671516 66.774857 44 30 31
-2.716507 11.804339 66.712006 43 29 31
-2.713869 11.936543 66.647217 43 29 30
-2.711169 12.068193 66.580902 44 29 30
-2.708426 12.199365 66.513542 45 30 30
-2.705660 12.330142 66.445625 45 30 30
-2.702893 12.460620 66.377670 47 31 31
-2.700145 12.590895 66.310188 49 32 33
-2.697438 12.721068 66.243698 51 33 35
-2.694791 12.851244 66.178696 54 35 37
-2.692222 12.981520 66.115623 55 36 38
-2.689750 13.111991 66.054916 55 36 38
-2.687389 13.242748 65.996925 55 36 38
-2.685152 13.373871 65.941978 57 37 40
-2.683047 13.505426 65.890297 59 39 42
-2.681083 13.637472 65.842056 63 42 46
-2.679263 13.770053 65.797363 67 46 50
-2.677589 13.903198 65.756256 73 52 55
-2.676060 14.036927 65.718719 81 60 62
-2.674672 14.171241 65.684631 89 68 70
-2.673420 14.306132 65.653870 96 75 78
-2.672296 14.441584 65.626259 98 78 81
-2.671290 14.577567 65.601578 94 73 77
-2.670395 14.714048 65.579582 82 61 66
-2.669598 14.850984 65.560020 75 54 59
-2.668889 14.988325 65.542603 79 58 63
-2.668256 15.126023 65.527046 81 61 66
-2.667687 15.264022 65.513077 80 58 64
-2.667170 15.402261 65.500381 79 57 63
-2.666693 15.540679 65.488670 81 59 65
-2.666244 15.679208 65.477638 84 62 68
-2.665808 15.817774 65.466949 88 67 72
-2.665373 15.956292 65.456261 93 72 78
-2.664922 16.094669 65.445183 99 78 84
-2.664438 16.232796 65.433281 106 86 92
-2.663900 16.370546 65.420090 113 94 100
-2.663289 16.507778 65.405067 118 99 104
-2.662578 16.644325 65.387604 119 99 104
-2.661741 16.780005 65.367065 115 96 99
-2.660750 16.914614 65.342728 109 92 93
-2.659574 17.047934 65.313850 108 91 92
-2.658183 17.179737 65.279678 113 97 98
-2.656546 17.309790 65.239471 119 103 103
-2.654634 17.437862 65.192513 117 101 102
-2.652421 17.563745 65.138184 109 94 96
-2.649887 17.687250 65.075958 99 83 87
-2.647018 17.808231 65.005501 91 76 79
-2.643808 17.926590 64.926651 93 77 80
-2.576001 -13.379318 66.797646 103 105 107
-2.576664 -13.238730 66.814827 119 120 125
-2.577442 -13.098657 66.835014 133 134 141
-2.578326 -12.959023 66.857925 144 144 153
-2.579303 -12.819757 66.883263 149 149 160
-2.580362 -12.680781 66.910713 140 138 151
-2.581489 -12.542025 66.939957 122 119 134
-2.582675 -12.403416 66.970688 118 114 129
-2.583906 -12.264894 67.002625 136 132 145
-2.585173 -12.126405 67.035484 163 157 170
-2.586468 -11.987901 67.069061 175 170 181
-2.587784 -11.849347 67.103188 168 162 171
-2.589116 -11.710720 67.137726 150 144 153
-2.590461 -11.572002 67.172600 144 139 147
-2.591819 -11.433191 67.207817 156 153 159
-2.593192 -11.294291 67.243408 165 163 169
-2.594582 -11.155314 67.279457 166 165 170
-2.595995 -11.016279 67.316101 176 177 181
-2.597437 -10.877208 67.353493 180 183 185
-2.598916 -10.738126 67.391838 148 151 152
-2.600438 -10.599056 67.431305 123 125 125
-2.602011 -10.460020 67.472099 157 159 157
-2.603642 -10.321037 67.514381 203 204 202
-2.605336 -10.182121 67.558319 202 201 200
-2.607098 -10.043275 67.604004 180 178 179
-2.608929 -9.904497 67.651497 183 180 183
-2.610832 -9.765779 67.700829 199 195 200
-2.612803 -9.627103 67.751953 196 192 200
-2.614840 -9.488443 67.804764 180 175 185
-2.616936 -9.349771 67.859131 174 169 180
-2.619086 -9.211047 67.914864 177 170 181
-2.621278 -9.072234 67.971718 171 161 171
-2.623505 -8.933290 68.029449 161 149 154
-2.625753 -8.794174 68.087761 150 136 135
-2.628014 -8.654845 68.146385 144 131 122
-2.630275 -8.515264 68.205009 174 165 151
-2.632526 -8.375398 68.263374 222 218 202
-2.634757 -8.235217 68.321220 241 240 224
-2.636959 -8.094699 68.378319 225 224 212
-2.639124 -7.953826 68.434479 200 200 192
-2.641248 -7.812585 68.489540 199 201 198
-2.643324 -7.670971 68.543388 213 217 220
-2.645351 -7.528983 68.595947 223 227 233
-2.647326 -7.386624 68.647163 236 239 244
-2.649249 -7.243902 68.697021 245 245 248
-2.651120 -7.100825 68.745537 227 227 231
-2.652940 -6.957405 68.792717 195 196 203
-2.654710 -6.813653 68.838615 185 187 193
-2.656431 -6.669583 68.883255 197 199 204
-2.658105 -6.525204 68.926674 205 206 212
-2.659734 -6.380528 68.968895 202 203 211
-2.661316 -6.235562 69.009926 203 203 211
-2.662853 -6.090314 69.049774 209 209 219
-2.664343 -5.944791 69.088417 208 209 219
-2.665785 -5.798997 69.125809 201 205 214
-2.667177 -5.652935 69.161903 196 200 210
-2.668516 -5.506608 69.196625 179 180 193
-2.669800 -5.360021 69.229904 160 157 171
-2.671024 -5.213174 69.261658 152 145 156
-2.672185 -5.066071 69.291779 157 146 154
-2.673281 -4.918717 69.320183 170 156 162
-2.674307 -4.771116 69.346786 161 147 150
-2.675259 -4.623274 69.371483 138 124 128
-2.676135 -4.475198 69.394203 128 116 122
-2.676932 -4.326895 69.414871 123 114 123
-2.677648 -4.178377 69.433418 113 106 118
-2.678280 -4.029653 69.449806 104 95 111
-2.678827 -3.880734 69.463989 101 88 108
-2.679287 -3.731635 69.475937 104 88 109
-2.679662 -3.582370 69.485657 115 95 116
-2.679951 -3.432952 69.493149 125 101 120
-2.680156 -3.283399 69.498451 119 94 110
-2.680277 -3.133725 69.501595 104 78 91
-2.680318 -2.983949 69.502647 89 63 72
-2.680280 -2.834085 69.501686 79 53 59
-2.680169 -2.684151 69.498795 76 50 53
-2.679987 -2.534163 69.494072 73 48 50
-2.679739 -2.384136 69.487633 69 44 45
-2.679428 -2.234086 69.479591 66 41 42
-2.679061 -2.084025 69.470055 64 39 40
-2.678640 -1.933967 69.459145 63 38 41
-2.678170 -1.783924 69.446960 62 37 40
-2.677655 -1.633905 69.433609 61 36 40
-2.677098 -1.483921 69.419151 61 37 41
-2.676501 -1.333979 69.403671 63 39 43
-2.675866 -1.184087 69.387207 64 42 45
-2.675194 -1.034252 69.369789 64 45 47
-2.674485 -0.884480 69.351410 64 46 48
-2.673739 -0.734776 69.332069 63 47 47
-2.672955 -0.585148 69.311737 59 46 45
-2.672131 -0.435601 69.290367 52 41 39
-2.671265 -0.286142 69.267914 42 32 30
-2.670356 -0.136777 69.244339 34 25 23
-2.669402 0.012486 69.219604 31 22 21
-2.668403 0.161640 69.193695 33 25 23
-2.667359 0.310676 69.166618 37 29 29
-2.666271 0.459589 69.138412 40 34 34
-2.665143 0.608370 69.109161 45 39 41
-2.663980 0.757016 69.079002 49 43 46
-2.662787 0.905521 69.048080 45 39 41
-2.661574 1.053885 69.016609 34 27 30
-2.660349 1.202108 68.984840 29 22 24
-2.659122 1.350194 68.953049 32 24 25
-2.657907 1.498148 68.921516 34 25 25
-2.656712 1.645979 68.890533 34 26 25
-2.655550 1.793699 68.860405 34 26 25
-2.654430 1.941320 68.831375 34 26 24
-2.653362 2.088857 68.803680 33 25 23
-2.652352 2.236322 68.777481 33 25 23
-2.651404 2.383731 68.752907 33 25 23
-2.650520 2.531095 68.729980 33 25 23
-2.649699 2.678424 68.708687 33 24 24
-2.648937 2.825723 68.688911 33 24 23
-2.648226 2.972995 68.670479 33 24 22
-2.647557 3.120238 68.653137 32 24 20
-2.646919 3.267443 68.636597 31 23 20
-2.646299 3.414600 68.620514 30 23 20
-2.645682 3.561693 68.604523 30 23 19
-2.645054 3.708700 68.588242 29 23 19
-2.644400 3.855600 68.571281 29 22 19
-2.643707 4.002367 68.553307 29 21 19
-2.642962 4.148975 68.533989 28 20 19
-2.642154 4.295398 68.513039 27 20 18
-2.641275 4.441611 68.490242 26 19 18
-2.640318 4.587591 68.465439 26 19 17
-2.639281 4.733319 68.438538 25 19 17
-2.638162 4.878779 68.409515 25 19 17
-2.636962 5.023962 68.378410 26 19 17
-2.635686 5.168860 68.345322 27 20 17
-2.634340 5.313475 68.310425 27 20 17
-2.632932 5.457810 68.273911 27 20 17
-2.631471 5.601876 68.236031 27 20 17
-2.629968 5.745687 68.197060 27 19 17
-2.628435 5.889261 68.157295 27 19 17
-2.626883 6.032620 68.117043 27 18 17
-2.625323 6.175789 68.076607 28 19 18
-2.623769 6.318795 68.036285 29 19 19
-2.622230 6.461666 67.996384 30 20 20
-2.620717 6.604430 67.957153 31 20 20
-2.619239 6.747118 67.918839 31 21 21
-2.617805 6.889754 67.881660 31 21 21
-2.616422 7.032367 67.845802 31 22 22
-2.615096 7.174981 67.811409 30 22 22
-2.613831 7.317616 67.778587 30 22 22
-2.612629 7.460292 67.747429 30 23 21
-2.611493 7.603025 67.717964 30 24 22
-2.610422 7.745825 67.690201 31 24 23
-2.609415 7.888699 67.664093 31 24 24
-2.608470 8.031649 67.639580 31 24 24
-2.607581 8.174672 67.616547 30 23 24
-2.606744 8.317760 67.594841 29 23 23
-2.605952 8.460899 67.574295 30 24 23
-2.605196 8.604071 67.554703 31 24 23
-2.604469 8.747252 67.535828 31 24 22
-2.603759 8.890412 67.517418 30 24 22
-2.603055 9.033516 67.499184 30 23 21
-2.602348 9.176526 67.480827 30 22 21
-2.601623 9.319397 67.462044 29 22 22
-2.600870 9.462082 67.442520 30 23 23
-2.600076 9.604532 67.421921 31 24 24
-2.599228 9.746693 67.399940 33 24 25
-2.598315 9.888509 67.376259 34 25 26
-2.597325 10.029924 67.350578 34 25 26
-2.596246 10.170885 67.322617 35 25 26
-2.595070 10.311336 67.292114 35 25 26
-2.593787 10.451224 67.258842 36 26 25
-2.592390 10.590505 67.222610 38 27 26
-2.590873 10.729131 67.183273 39 28 27
-2.589231 10.867068 67.140724 41 29 28
-2.587465 11.004287 67.094902 43 31 29
-2.585572 11.140764 67.045822 45 33 30
-2.583555 11.276492 66.993530 46 33 31
-2.581421 11.411470 66.938179 47 33 33
-2.579174 11.545711 66.879929 46 32 33
-2.576826 11.679238 66.819038 45 30 32
-2.574388 11.812090 66.755806 43 29 32
-2.571873 11.944316 66.690613 43 29 31
-2.569299 12.075977 66.623848 44 29 31
-2.566681 12.207148 66.555977 45 30 31
-2.564039 12.337906 66.487465 45 30 31
-2.561392 12.468343 66.418816 47 31 32
-2.558759 12.598555 66.350533 49 32 32
-2.556159 12.728638 66.283112 51 33 34
-2.553611 12.858692 66.217049 52 34 35
-2.551132 12.988815 66.152779 53 34 36
-2.548739 13.119101 66.090729 54 35 37
-2.546446 13.249635 66.031250 55 35 38
-2.544263 13.380500 65.974663 56 36 39
-2.542202 13.511763 65.921211 58 38 41
-2.540268 13.643480 65.871063 61 41 44
-2.538467 13.775701 65.824356 66 45 48
-2.536799 13.908454 65.781120 71 50 52
-2.535266 14.041762 65.741348 77 56 58
-2.533863 14.175628 65.704964 83 63 64
-2.532585 14.310048 65.671844 91 70 72
-2.531428 14.445009 65.641823 97 76 79
-2.530382 14.580486 65.614716 94 73 78
-2.529440 14.716449 65.590286 84 63 68
-2.528592 14.852855 65.568283 76 55 61
-2.527827 14.989661 65.548447 77 56 62
-2.527135 15.126820 65.530502 78 56 63
-2.526505 15.264278 65.514175 77 54 61
-2.525927 15.401979 65.499184 76 53 60
-2.525389 15.539862 65.485229 79 56 62
-2.524879 15.677861 65.472015 84 61 67
-2.524385 15.815904 65.459213 90 67 74
-2.523894 15.953906 65.446472 95 74 81
-2.523391 16.091776 65.433418 102 81 89
-2.522859 16.229408 65.419632 109 89 97
-2.522280 16.366676 65.404625 112 92 101
-2.521634 16.503437 65.387863 111 91 100
-2.520897 16.639526 65.368759 111 91 100
-2.520045 16.774765 65.346649 112 93 100
-2.519049 16.908949 65.320847 111 94 99
-2.517883 17.041862 65.290588 112 94 99
-2.516515 17.173275 65.255127 115 98 102
-2.514918 17.302958 65.213722 118 101 104
-2.513064 17.430677 65.165649 116 98 102
-2.510929 17.556221 65.110275 110 93 97
-2.508492 17.679401 65.047081 100 83 87
-2.505739 17.800068 64.975708 90 73 78
-2.502664 17.918118 64.895966 90 73 76
-2.433229 -13.386040 66.831200 101 103 108
-2.433817 -13.245170 66.847328 116 118 125
-2.434506 -13.104781 66.866264 136 136 145
-2.435289 -12.964806 66.887756 151 150 161
-2.436153 -12.825167 66.911484 156 155 168
-2.437088 -12.685796 66.937172 149 146 161
-2.438083 -12.546623 66.964500 134 129 144
-2.439128 -12.407584 66.993195 120 115 130
-2.440212 -12.268622 67.022987 126 119 133
-2.441328 -12.129688 67.053635 150 143 155
-2.442469 -11.990742 67.084961 172 165 176
-2.443628 -11.851753 67.116814 173 167 176
-2.444804 -11.712705 67.149101 156 150 158
-2.445994 -11.573586 67.181793 145 140 147
-2.447200 -11.434400 67.214920 155 152 158
-2.448424 -11.295155 67.248543 167 166 171
-2.449671 -11.155868 67.282791 167 168 173
-2.450947 -11.016562 67.317818 172 175 179
-2.452258 -10.877262 67.353828 175 178 182
-2.453612 -10.737996 67.391022 149 153 155
-2.455017 -10.598790 67.429611 126 130 131
-2.456481 -10.459665 67.469810 149 151 151
-2.458009 -10.320642 67.511795 183 183 183
-2.459609 -10.181731 67.555733 186 185 187
-2.461284 -10.042938 67.601730 174 171 174
-2.463036 -9.904258 67.649864 167 164 169
-2.464866 -9.765676 67.700119 171 167 175
-2.466771 -9.627175 67.752457 177 173 183
-2.468749 -9.488726 67.806778 178 175 186
-2.470793 -9.350291 67.862915 185 181 193
-2.472895 -9.211831 67.920647 196 191 203
-2.475046 -9.073303 67.979721 190 182 193
-2.477235 -8.934658 68.039856 169 158 164
-2.479452 -8.795850 68.100739 152 141 139
-2.481684 -8.656834 68.162041 158 147 138
-2.483920 -8.517567 68.223450 198 190 177
-2.486148 -8.378009 68.284660 237 233 218
-2.488359 -8.238130 68.345375 242 239 225
-2.490542 -8.097899 68.405350 214 213 200
-2.492691 -7.957298 68.464355 177 178 168
-2.494797 -7.816312 68.522217 164 166 161
-2.496857 -7.674933 68.578789 171 174 177
-2.498866 -7.533158 68.633980 183 186 195
-2.500823 -7.390989 68.687729 201 203 213
-2.502726 -7.248433 68.739998 209 211 219
-2.504575 -7.105500 68.790787 194 194 204
-2.506372 -6.962200 68.840126 170 171 182
-2.508116 -6.818546 68.888039 163 165 173
-2.509810 -6.674551 68.934563 169 170 178
-2.511455 -6.530228 68.979729 175 176 184
-2.513051 -6.385587 69.023575 175 175 185
-2.514600 -6.240639 69.066116 177 177 187
-2.516101 -6.095393 69.107353 193 194 204
-2.517554 -5.949855 69.147263 211 213 223
-2.518959 -5.804033 69.185837 214 216 225
-2.520312 -5.657930 69.223022 193 194 205
-2.521614 -5.511553 69.258759 156 155 169
-2.522860 -5.364904 69.292984 133 127 142
-2.524048 -5.217988 69.325623 130 121 132
-2.525175 -5.070810 69.356590 154 141 150
-2.526239 -4.923374 69.385811 187 172 177
-2.527237 -4.775686 69.413208 178 163 165
-2.528165 -4.627753 69.438690 144 130 131
-2.529021 -4.479583 69.462204 127 115 119
-2.529803 -4.331185 69.483681 118 108 116
-2.530509 -4.182569 69.503075 105 97 108
-2.531137 -4.033745 69.520348 98 89 103
-2.531688 -3.884727 69.535454 101 88 106
-2.532159 -3.735527 69.548393 113 96 114
-2.532551 -3.586159 69.559166 132 110 129
-2.532865 -3.436639 69.567780 137 112 128
-2.533101 -3.286981 69.574272 120 94 106
-2.533262 -3.137201 69.578682 100 73 82
-2.533349 -2.987315 69.581070 86 59 65
-2.533365 -2.837340 69.581512 77 50 54
-2.533312 -2.687290 69.580078 73 47 49
-2.533195 -2.537182 69.576866 72 46 47
-2.533017 -2.387030 69.571976 69 44 44
-2.532782 -2.236848 69.565506 66 41 41
-2.532492 -2.086650 69.557556 65 40 39
-2.532152 -1.936448 69.548225 64 40 39
-2.531766 -1.786252 69.537598 62 38 38
-2.531335 -1.636074 69.525757 60 35 37
-2.530862 -1.485922 69.512764 60 36 37
-2.530348 -1.335805 69.498665 62 38 39
-2.529796 -1.185730 69.483498 63 41 42
-2.529205 -1.035705 69.467262 64 44 44
-2.528575 -0.885737 69.449959 63 46 46
-2.527905 -0.735831 69.431549 62 47 46
-2.527193 -0.585995 69.412003 59 46 44
-2.526438 -0.436235 69.391273 53 42 40
-2.525638 -0.286561 69.369301 43 34 32
-2.524791 -0.136978 69.346031 34 25 24
-2.523896 0.012504 69.321457 31 23 22
-2.522952 0.161878 69.295532 32 24 23
-2.521960 0.311133 69.268280 35 27 27
-2.520921 0.460262 69.239746 38 31 31
-2.519839 0.609258 69.210022 43 36 38
-2.518718 0.758114 69.179230 50 42 45
-2.517565 0.906826 69.147552 47 39 42
-2.516387 1.055391 69.115211 35 27 30
-2.515194 1.203809 69.082451 30 22 24
-2.513997 1.352084 69.049568 32 23 24
-2.512806 1.500220 69.016861 34 25 25
-2.511633 1.648228 68.984634 35 26 25
-2.510489 1.796116 68.953201 35 26 25
-2.509383 1.943900 68.922829 34 26 24
-2.508325 2.091592 68.893768 33 25 23
-2.507321 2.239207 68.866203 33 25 22
-2.506377 2.386760 68.840271 33 25 22
-2.505495 2.534264 68.816032 33 25 23
-2.504673 2.681729 68.793472 33 24 24
-2.503910 2.829162 68.772507 33 24 24
-2.503199 2.976567 68.752975 33 24 23
-2.502532 3.123943 68.734657 32 24 21
-2.501899 3.271283 68.717262 31 23 20
-2.501287 3.418579 68.700470 31 23 20
-2.500684 3.565815 68.683922 30 24 20
-2.500078 3.712973 68.667259 29 23 20
-2.499453 3.860032 68.650101 29 22 20
-2.498798 4.006968 68.632103 29 21 20
-2.498100 4.153755 68.612930 28 21 19
-2.497349 4.300368 68.592308 27 20 19
-2.496537 4.446784 68.570007 26 20 18
-2.495657 4.592978 68.545845 26 19 18
-2.494706 4.738934 68.519722 25 19 18
-2.493681 4.884632 68.491577 25 18 17
-2.492584 5.030062 68.461441 26 18 17
-2.491417 5.175217 68.429375 27 19 18
-2.490184 5.320093 68.395508 27 19 18
-2.488892 5.464694 68.360023 27 19 17
-2.487548 5.609026 68.323120 26 19 17
-2.486162 5.753100 68.285057 26 19 17
-2.484743 5.896933 68.246078 26 19 17
-2.483301 6.040540 68.206474 26 18 17
-2.481847 6.183946 68.166519 27 18 18
-2.480389 6.327173 68.126495 28 19 19
-2.478939 6.470246 68.086670 30 20 20
-2.477506 6.613191 68.047295 31 21 21
-2.476097 6.756035 68.008606 32 21 21
-2.474722 6.898804 67.970825 32 21 21
-2.473386 7.041523 67.934135 31 21 21
-2.472095 7.184215 67.898682 30 22 21
-2.470854 7.326901 67.864594 30 22 21
-2.469666 7.469602 67.831970 30 22 21
-2.468534 7.612333 67.800873 30 23 21
-2.467458 7.755107 67.771317 30 23 22
-2.466438 7.897933 67.743301 30 23 22
-2.465472 8.040814 67.716774 29 23 23
-2.464557 8.183753 67.691658 29 23 23
-2.463690 8.326740 67.667824 30 24 23
-2.462863 8.469768 67.645126 30 24 23
-2.462072 8.612819 67.623390 31 25 23
-2.461308 8.755874 67.602394 31 25 23
-2.460562 8.898903 67.581909 31 24 22
-2.459825 9.041878 67.561661 30 23 22
-2.459086 9.184759 67.541374 30 22 21
-2.458335 9.327507 67.520760 29 21 21
-2.457561 9.470077 67.499496 30 22 22
-2.456753 9.612418 67.477280 31 23 24
-2.455897 9.754480 67.453796 33 24 25
-2.454985 9.896210 67.428734 34 25 25
-2.454004 10.037552 67.401794 34 25 25
-2.452945 10.178451 67.372696 34 25 25
-2.451797 10.318855 67.341187 35 25 25
-2.450553 10.458712 67.307022 36 26 24
-2.449206 10.597973 67.270020 37 27 24
-2.447749 10.736594 67.230003 38 28 25
-2.446179 10.874539 67.186882 41 29 26
-2.444494 11.011779 67.140579 43 31 28
-2.442692 11.148288 67.091095 45 33 30
-2.440776 11.284057 67.038475 47 33 32
-2.438750 11.419082 66.982826 47 33 34
-2.436620 11.553376 66.924332 47 33 34
-2.434395 11.686958 66.863205 45 31 33
-2.432084 11.819864 66.799744 44 30 33
-2.429701 11.952140 66.734291 43 29 32
-2.427260 12.083843 66.667244 44 30 32
-2.424776 12.215042 66.599022 45 30 33
-2.422266 12.345815 66.530083 46 31 33
-2.419748 12.476247 66.460915 48 32 33
-2.417239 12.606428 66.391998 50 33 33
-2.414757 12.736455 66.323822 52 33 33
-2.412319 12.866423 66.256859 53 34 34
-2.409940 12.996426 66.191544 53 35 36
-2.407638 13.126557 66.128296 53 35 36
-2.405423 13.256900 66.067459 54 35 37
-2.403307 13.387535 66.009354 55 36 38
-2.401300 13.518530 65.954224 57 38 40
-2.399408 13.649942 65.902267 60 40 43
-2.397636 13.781820 65.853600 64 43 46
-2.395987 13.914197 65.808281 68 47 48
-2.394459 14.047095 65.766319 71 50 52
-2.393050 14.180520 65.727638 77 56 58
-2.391758 14.314474 65.692154 85 64 66
-2.390577 14.448943 65.659698 92 70 74
-2.389500 14.583910 65.630119 92 70 75
-2.388519 14.719343 65.603188 85 63 68
-2.387627 14.855208 65.578674 78 56 62
-2.386813 14.991464 65.556320 75 53 60
-2.386069 15.128064 65.535889 75 53 59
-2.385385 15.264960 65.517105 75 52 58
-2.384751 15.402099 65.499695 75 51 58
-2.384157 15.539418 65.483360 78 55 61
-2.383591 15.676858 65.467827 85 62 68
-2.383043 15.814345 65.452766 92 69 76
-2.382499 15.951800 65.437836 100 78 85
-2.381947 16.089132 65.422668 108 87 96
-2.381370 16.226233 65.406830 114 94 103
-2.380753 16.362982 65.389862 112 91 103
-2.380074 16.499237 65.371223 105 85 97
-2.379313 16.634836 65.350334 103 85 96
-2.378447 16.769600 65.326530 109 91 101
-2.377449 16.903328 65.299126 115 98 106
-2.376293 17.035803 65.267372 118 101 109
-2.374951 17.166798 65.230522 120 103 110
-2.373396 17.296080 65.187805 119 101 108
-2.371602 17.423424 65.138535 115 97 103
-2.369545 17.548609 65.082047 108 90 96
-2.367207 17.671448 65.017822 99 81 86
-2.364573 17.791786 64.945473 90 73 77
-2.361636 17.909515 64.864815 90 73 76
-2.358397 18.024588 64.775848 105 88 89
-2.290365 -13.393064 66.866272 102 103 111
-2.290882 -13.251913 66.881355 115 116 125
-2.291489 -13.111211 66.899071 137 136 146
-2.292176 -12.970891 66.919151 154 152 164
-2.292936 -12.830883 66.941307 162 159 171
-2.293756 -12.691117 66.965248 160 155 170
-2.294627 -12.551531 66.990700 151 146 160
-2.295542 -12.412065 67.017387 133 127 140
-2.296490 -12.272666 67.045074 122 115 127
-2.297465 -12.133290 67.073547 140 133 143
-2.298462 -11.993904 67.102654 171 165 174
-2.299477 -11.854485 67.132271 183 177 185
-2.300508 -11.715018 67.162369 167 161 168
-2.301554 -11.575501 67.192909 150 146 152
-2.302618 -11.435942 67.223984 153 150 156
-2.303704 -11.296353 67.255676 162 161 167
-2.304816 -11.156756 67.288155 163 164 169
-2.305961 -11.017179 67.321594 164 167 172
-2.307148 -10.877650 67.356232 164 168 172
-2.308383 -10.738197 67.392281 150 154 157
-2.309675 -10.598849 67.429993 136 139 142
-2.311030 -10.459630 67.469582 144 145 148
-2.312458 -10.320558 67.511246 160 160 162
-2.313962 -10.181644 67.555161 169 168 171
-2.315547 -10.042892 67.601425 170 166 171
-2.317214 -9.904295 67.650116 159 155 162
-2.318965 -9.765839 67.701241 154 150 158
-2.320798 -9.627498 67.754730 163 161 170
-2.322707 -9.489242 67.810471 177 174 185
-2.324687 -9.351029 67.868271 192 189 202
-2.326730 -9.212817 67.927917 207 204 217
-2.328826 -9.074555 67.989113 204 198 210
-2.330965 -8.936194 68.051559 179 171 179
-2.333134 -8.797679 68.114899 160 152 153
-2.335323 -8.658961 68.178795 175 167 162
-2.337519 -8.519994 68.242897 212 205 195
-2.339710 -8.380733 68.306870 234 227 214
-2.341886 -8.241144 68.370392 231 225 212
-2.344036 -8.101193 68.433174 217 214 203
-2.346153 -7.960858 68.494987 200 199 192
-2.348230 -7.820121 68.555611 176 178 177
-2.350260 -7.678973 68.614891 147 150 156
-2.352241 -7.537409 68.672714 136 141 151
-2.354169 -7.395431 68.729004 142 148 160
-2.356043 -7.253043 68.783714 145 150 163
-2.357863 -7.110256 68.836838 146 149 162
-2.359629 -6.967081 68.888390 146 149 161
-2.361341 -6.823529 68.938385 148 150 160
-2.363003 -6.679617 68.986885 151 152 161
-2.364613 -6.535356 69.033905 154 155 165
-2.366174 -6.390758 69.079475 159 159 169
-2.367687 -6.245836 69.123627 173 172 181
-2.369150 -6.100598 69.166367 202 202 209
-2.370565 -5.955053 69.207680 225 226 232
-2.371931 -5.809210 69.247551 206 207 214
-2.373246 -5.663074 69.285950 149 147 159
-2.374509 -5.516651 69.322815 104 99 114
-2.375718 -5.369946 69.358101 105 95 109
-2.376870 -5.222965 69.391739 135 123 133
-2.377963 -5.075713 69.423653 179 164 171
-2.378995 -4.928196 69.453773 204 188 191
-2.379963 -4.780422 69.482048 188 171 172
-2.380866 -4.632398 69.508392 158 143 144
-2.381700 -4.484133 69.532761 134 121 124
-2.382465 -4.335636 69.555092 110 100 107
-2.383160 -4.186919 69.575363 96 87 98
-2.383782 -4.037992 69.593529 96 86 99
-2.384332 -3.888868 69.609581 103 90 105
-2.384809 -3.739561 69.623505 122 104 119
-2.385213 -3.590085 69.635315 147 125 139
-2.385546 -3.440455 69.645027 147 122 133
-2.385808 -3.290685 69.652672 117 91 98
-2.386000 -3.140791 69.658295 93 67 71
-2.386126 -2.990788 69.661964 84 58 60
-2.386187 -2.840693 69.663734 79 53 53
-2.386185 -2.690520 69.663689 75 49 49
-2.386124 -2.540283 69.661911 73 47 46
-2.386007 -2.389998 69.658485 70 45 44
-2.385836 -2.239678 69.653503 67 43 41
-2.385615 -2.089335 69.647049 65 41 39
-2.385346 -1.938981 69.639206 64 40 38
-2.385033 -1.788627 69.630051 62 37 37
-2.384676 -1.638283 69.619637 60 36 36
-2.384278 -1.487958 69.608025 60 36 36
-2.383840 -1.337661 69.595222 61 38 38
-2.383362 -1.187399 69.581268 62 41 40
-2.382844 -1.037179 69.566139 62 44 42
-2.382285 -0.887010 69.549820 62 46 44
-2.381684 -0.736898 69.532280 61 47 44
-2.381039 -0.586851 69.513451 58 46 43
-2.380348 -0.436877 69.493286 53 42 41
-2.379610 -0.286984 69.471733 45 35 35
-2.378822 -0.137181 69.448730 36 28 28
-2.377983 0.012523 69.424248 32 24 24
-2.377093 0.162118 69.398254 32 24 24
-2.376152 0.311593 69.370781 34 26 26
-2.375162 0.460941 69.341873 36 29 29
-2.374126 0.610153 69.311623 40 32 34
-2.373048 0.759220 69.280167 47 39 41
-2.371936 0.908139 69.247688 48 39 40
-2.370796 1.056906 69.214409 38 29 30
-2.369638 1.205520 69.180618 31 22 23
-2.368473 1.353984 69.146591 33 23 23
-2.367311 1.502303 69.112656 34 25 24
-2.366162 1.650485 69.079132 35 25 25
-2.365039 1.798542 69.046333 35 25 25
-2.363951 1.946487 69.014565 34 25 24
-2.362907 2.094334 68.984085 33 25 23
-2.361913 2.242097 68.955093 32 24 22
-2.360976 2.389793 68.927734 32 24 22
-2.360099 2.537434 68.902115 32 24 22
-2.359280 2.685033 68.878220 32 24 23
-2.358519 2.832596 68.855988 32 24 23
-2.357810 2.980130 68.835281 32 24 23
-2.357146 3.127635 68.815903 32 24 21
-2.356518 3.275106 68.797569 31 23 20
-2.355916 3.422536 68.779991 31 23 20
-2.355328 3.569911 68.762817 30 23 20
-2.354741 3.717214 68.745697 30 23 20
-2.354144 3.864426 68.728256 29 23 21
-2.353524 4.011525 68.710159 29 22 21
-2.352870 4.158485 68.691071 28 21 20
-2.352172 4.305283 68.670700 27 21 20
-2.351423 4.451895 68.648827 27 20 19
-2.350615 4.598299 68.625244 26 20 19
-2.349745 4.744474 68.599838 26 19 18
-2.348809 4.890405 68.572525 25 19 18
-2.347808 5.036077 68.543297 25 18 18
-2.346743 5.181481 68.512207 26 18 18
-2.345618 5.326614 68.479347 26 18 18
-2.344436 5.471476 68.444855 26 19 18
-2.343205 5.616069 68.408913 25 19 18
-2.341932 5.760403 68.371727 25 18 17
-2.340623 5.904488 68.333527 25 18 17
-2.339288 6.048342 68.294563 25 18 17
-2.337936 6.191980 68.255089 26 18 18
-2.336576 6.335426 68.215355 28 19 19
-2.335214 6.478699 68.175621 29 20 20
-2.333861 6.621823 68.136116 31 21 21
-2.332524 6.764823 68.097076 32 21 21
-2.331210 6.907723 68.058708 32 21 20
-2.329925 7.050547 68.021194 31 21 21
-2.328675 7.193317 67.984711 30 21 21
-2.327465 7.336055 67.949379 30 21 20
-2.326298 7.478781 67.915329 29 22 20
-2.325178 7.621511 67.882614 29 22 20
-2.324106 7.764261 67.851311 29 23 21
-2.323081 7.907039 67.821411 29 23 22
-2.322105 8.049854 67.792900 30 23 23
-2.321174 8.192707 67.765724 30 24 23
-2.320286 8.335595 67.739784 30 24 23
-2.319436 8.478512 67.714966 31 25 24
-2.318618 8.621443 67.691101 32 26 24
-2.317827 8.764371 67.668007 32 26 24
-2.317055 8.907271 67.645454 31 25 23
-2.316293 9.050116 67.623215 31 24 22
-2.315532 9.192869 67.601013 30 23 21
-2.314764 9.335494 67.578568 30 22 21
-2.313976 9.477945 67.555580 30 22 22
-2.313160 9.620177 67.531754 31 23 23
-2.312304 9.762141 67.506767 33 24 24
-2.311399 9.903783 67.480339 34 25 25
-2.310434 10.045051 67.452156 33 25 24
-2.309398 10.185890 67.421936 34 26 24
-2.308285 10.326247 67.389427 34 25 23
-2.307085 10.466074 67.354401 35 25 23
-2.305792 10.605319 67.316650 36 26 22
-2.304400 10.743941 67.276009 37 27 23
-2.302905 10.881902 67.232361 40 29 25
-2.301305 11.019170 67.185646 42 30 27
-2.299598 11.155721 67.135826 45 32 29
-2.297787 11.291543 67.082954 47 33 32
-2.295875 11.426632 67.027115 47 33 35
-2.293866 11.560996 66.968468 47 33 35
-2.291768 11.694654 66.907227 45 31 34
-2.289591 11.827636 66.843666 44 30 33
-2.287345 11.959986 66.778107 44 30 33
-2.285044 12.091757 66.710907 44 30 33
-2.282700 12.223014 66.642487 45 30 33
-2.280330 12.353831 66.573280 47 32 33
-2.277948 12.484287 66.503754 49 32 33
-2.275571 12.614472 66.434364 51 34 34
-2.273215 12.744474 66.365585 53 34 34
-2.270896 12.874388 66.297874 54 35 35
-2.268628 13.004303 66.231659 54 36 37
-2.266425 13.134310 66.167351 54 36 37
-2.264299 13.264491 66.105286 54 37 37
-2.262261 13.394925 66.045784 53 37 37
-2.260319 13.525677 65.989098 55 37 38
-2.258481 13.656807 65.935410 58 39 41
-2.256749 13.788363 65.884857 61 41 43
-2.255127 13.920379 65.837517 64 43 45
-2.253617 14.052880 65.793404 67 45 47
-2.252214 14.185876 65.752464 71 49 51
-2.250918 14.319368 65.714615 78 55 58
-2.249723 14.453351 65.679733 85 61 65
-2.248624 14.587806 65.647652 86 62 67
-2.247615 14.722708 65.618187 83 59 65
-2.246687 14.858025 65.591103 78 55 61
-2.245833 14.993717 65.566177 75 52 58
-2.245046 15.129746 65.543182 75 51 58
-2.244315 15.266066 65.521851 75 52 58
-2.243632 15.402621 65.501915 76 52 59
-2.242988 15.539358 65.483109 79 56 62
-2.242373 15.676215 65.465141 86 63 69
-2.241776 15.813126 65.447716 94 71 78
-2.241185 15.950006 65.430473 104 82 90
-2.240589 16.086771 65.413071 115 94 103
-2.239973 16.223316 65.395073 119 99 109
-2.239320 16.359520 65.376022 111 91 103
-2.238613 16.495241 65.355392 99 80 92
-2.237832 16.630322 65.332596 97 79 91
-2.236955 16.764584 65.306984 106 89 101
-2.235958 16.897827 65.277870 118 102 113
-2.234815 17.029837 65.244514 128 112 122
-2.233502 17.160387 65.206154 131 114 124
-2.231991 17.289249 65.162056 123 106 115
-2.230259 17.416191 65.111496 114 96 103
-2.228284 17.540998 65.053825 106 88 94
-2.226046 17.663479 64.988495 98 80 85
-2.223533 17.783476 64.915146 92 74 79
-2.220738 17.900877 64.833527 94 76 79
-2.217659 18.015627 64.743645 108 91 92
-2.147395 -13.400371 66.902740 105 107 115
-2.147847 -13.258940 66.916824 119 120 129
-2.148377 -13.117929 66.933350 137 136 147
-2.148978 -12.977271 66.952065 153 150 163
-2.149640 -12.836897 66.972687 163 158 171
-2.150354 -12.696745 66.994942 164 157 171
-2.151113 -12.556753 67.018570 159 152 164
-2.151907 -12.416867 67.043320 144 136 147
-2.152730 -12.277040 67.068970 126 119 128
-2.153577 -12.137232 67.095337 134 127 135
-2.154442 -11.997416 67.122299 168 162 169
-2.155324 -11.857574 67.149773 191 186 192
-2.156221 -11.717699 67.177734 183 179 184
-2.157135 -11.577793 67.206215 164 161 165
-2.158069 -11.437868 67.235306 156 155 159
-2.159027 -11.297942 67.265137 157 157 162
-2.160014 -11.158041 67.295898 158 160 165
-2.161038 -11.018196 67.327812 161 164 169
-2.162107 -10.878438 67.361107 163 166 171
-2.163229 -10.738797 67.396049 157 160 163
-2.164411 -10.599306 67.432899 151 153 155
-2.165663 -10.459987 67.471878 157 158 160
-2.166989 -10.320859 67.513214 167 167 169
-2.168397 -10.181932 67.557068 173 171 174
-2.169889 -10.043209 67.603561 172 169 174
-2.171468 -9.904682 67.652763 166 163 169
-2.173134 -9.766333 67.704666 168 165 173
-2.174885 -9.628135 67.759209 179 177 186
-2.176716 -9.490053 67.816269 186 186 196
-2.178622 -9.352043 67.875633 191 191 202
-2.180593 -9.214057 67.937057 195 195 207
-2.182622 -9.076042 68.000244 188 186 197
-2.184695 -8.937941 68.064857 169 166 174
-2.186803 -8.799698 68.130531 164 160 161
-2.188933 -8.661259 68.196884 179 174 170
-2.191073 -8.522573 68.263550 205 199 189
-2.193211 -8.383592 68.330154 223 218 204
-2.195336 -8.244275 68.396362 233 230 216
-2.197438 -8.104589 68.461861 238 236 227
-2.199509 -7.964507 68.526382 232 231 227
-2.201541 -7.824009 68.589691 195 196 199
-2.203529 -7.683084 68.651627 137 140 148
-2.205468 -7.541726 68.712044 108 114 125
-2.207356 -7.399933 68.770844 110 117 130
-2.209190 -7.257712 68.827988 121 127 140
-2.210970 -7.115071 68.883453 140 145 157
-2.212697 -6.972022 68.937248 156 160 171
-2.214370 -6.828577 68.989380 166 170 178
-2.215992 -6.684750 69.039902 174 178 184
-2.217562 -6.540556 69.088837 181 183 189
-2.219083 -6.396008 69.136223 192 193 198
-2.220555 -6.251116 69.182068 208 207 212
-2.221978 -6.105894 69.226402 219 217 223
-2.223352 -5.960349 69.269218 214 212 219
-2.224677 -5.814490 69.310493 169 166 177
-2.225952 -5.668326 69.350204 102 96 110
-2.227175 -5.521862 69.388298 78 68 82
-2.228344 -5.375105 69.424744 113 100 111
-2.229459 -5.228062 69.459465 169 156 163
-2.230516 -5.080739 69.492401 207 192 196
-2.231514 -4.933145 69.523514 207 189 191
-2.232452 -4.785285 69.552719 188 170 170
-2.233327 -4.637170 69.579979 168 151 152
-2.234138 -4.488808 69.605240 134 119 122
-2.234883 -4.340210 69.628471 99 86 93
-2.235563 -4.191389 69.649635 92 80 90
-2.236175 -4.042354 69.668716 101 88 100
-2.236720 -3.893121 69.685699 110 95 108
-2.237198 -3.743702 69.700592 131 112 125
-2.237610 -3.594112 69.713409 156 134 145
-2.237955 -3.444365 69.724182 147 123 131
-2.238236 -3.294477 69.732933 108 83 87
-2.238454 -3.144462 69.739716 85 59 62
-2.238611 -2.994336 69.744598 85 59 60
-2.238708 -2.844114 69.747635 85 58 59
-2.238749 -2.693810 69.748901 79 54 54
-2.238735 -2.543440 69.748466 74 49 49
-2.238669 -2.393015 69.746422 71 46 44
-2.238554 -2.242550 69.742836 68 43 41
-2.238392 -2.092057 69.737793 65 41 39
-2.238186 -1.941547 69.731354 64 39 37
-2.237936 -1.791029 69.723572 62 38 37
-2.237645 -1.640515 69.714508 61 37 36
-2.237313 -1.490014 69.704178 60 36 36
-2.236942 -1.339532 69.692604 61 38 38
-2.236530 -1.189080 69.679787 61 40 39
-2.236078 -1.038664 69.665695 62 43 42
-2.235584 -0.888292 69.650299 62 46 44
-2.235046 -0.737972 69.633553 61 47 44
-2.234463 -0.587712 69.615395 59 47 45
-2.233833 -0.437521 69.595757 55 44 43
-2.233153 -0.287409 69.574570 47 38 38
-2.232422 -0.137384 69.551788 38 30 30
-2.231638 0.012542 69.527359 33 25 25
-2.230801 0.162358 69.501282 32 24 25
-2.229911 0.312055 69.473557 33 25 25
-2.228970 0.461622 69.444244 35 27 27
-2.227981 0.611049 69.413437 38 28 29
-2.226949 0.760329 69.381294 43 32 34
-2.225881 0.909455 69.347992 45 35 36
-2.224782 1.058423 69.313774 38 29 30
-2.223664 1.207233 69.278923 33 23 23
-2.222534 1.355886 69.243736 33 23 23
-2.221405 1.504387 69.208549 34 25 24
-2.220287 1.652745 69.173706 34 25 25
-2.219190 1.800970 69.139534 34 25 25
-2.218124 1.949075 69.106339 33 25 24
-2.217099 2.097076 69.074402 32 24 23
-2.216121 2.244987 69.043945 31 24 22
-2.215197 2.392823 69.015144 31 23 22
-2.214329 2.540601 68.988098 31 23 22
-2.213518 2.688331 68.962830 31 23 22
-2.212762 2.836023 68.939293 32 24 22
-2.212059 2.983684 68.917374 32 24 22
-2.211401 3.131316 68.896889 31 24 21
-2.210782 3.278915 68.877571 31 24 21
-2.210190 3.426475 68.859154 31 23 20
-2.209617 3.573985 68.841301 31 23 20
-2.209051 3.721430 68.823654 30 23 21
-2.208480 3.868791 68.805878 30 23 21
-2.207894 4.016047 68.787621 29 22 21
-2.207282 4.163176 68.768555 29 22 21
-2.206635 4.310154 68.748398 28 21 21
-2.205945 4.456957 68.726883 27 21 20
-2.205205 4.603564 68.703827 27 20 19
-2.204410 4.749955 68.679077 26 20 19
-2.203558 4.896111 68.652542 26 19 18
-2.202648 5.042020 68.624184 26 19 18
-2.201680 5.187669 68.594025 25 18 18
-2.200656 5.333053 68.562119 25 17 19
-2.199580 5.478169 68.528587 24 18 19
-2.198456 5.623019 68.493568 24 18 18
-2.197290 5.767607 68.457230 25 19 18
-2.196088 5.911942 68.419792 26 19 18
-2.194857 6.056037 68.381454 26 19 18
-2.193605 6.199905 68.342438 26 19 18
-2.192339 6.343565 68.302994 28 20 19
-2.191066 6.487035 68.263344 29 21 20
-2.189794 6.630336 68.223709 30 21 20
-2.188530 6.773490 68.184319 30 21 20
-2.187280 6.916520 68.145378 31 20 20
-2.186050 7.059447 68.107063 31 20 20
-2.184846 7.202295 68.069557 30 20 20
-2.183673 7.345084 68.033005 29 21 19
-2.182535 7.487834 67.997536 28 21 19
-2.181434 7.630564 67.963242 28 22 19
-2.180373 7.773288 67.930199 29 23 20
-2.179354 7.916020 67.898445 30 23 22
-2.178376 8.058769 67.867973 30 24 23
-2.177438 8.201537 67.838760 31 24 24
-2.176539 8.344327 67.810745 32 25 24
-2.175675 8.487132 67.783813 33 26 24
-2.174841 8.629945 67.757851 33 26 24
-2.174033 8.772746 67.732666 33 26 24
-2.173244 8.915517 67.708076 33 25 23
-2.172466 9.058230 67.683853 32 24 22
-2.171692 9.200855 67.659744 31 23 21
-2.170913 9.343354 67.635475 30 23 22
-2.170120 9.485688 67.610771 31 23 23
-2.169304 9.627810 67.585327 32 23 24
-2.168454 9.769673 67.558861 33 24 25
-2.167562 9.911227 67.531059 33 25 25
-2.166618 10.052420 67.501633 33 26 25
-2.165612 10.193198 67.470306 33 26 24
-2.164537 10.333510 67.436829 33 26 23
-2.163386 10.473307 67.400948 34 26 22
-2.162151 10.612539 67.362473 35 25 22
-2.160827 10.751164 67.321243 36 26 22
-2.159411 10.889145 67.277115 39 27 23
-2.157900 11.026448 67.230026 41 29 25
-2.156292 11.163050 67.179932 44 30 28
-2.154589 11.298936 67.126877 45 32 31
-2.152793 11.434100 67.070923 46 33 34
-2.150909 11.568550 67.012222 46 33 35
-2.148943 11.702299 66.950974 45 32 34
-2.146903 11.835378 66.887421 43 30 33
-2.144799 11.967822 66.821861 43 29 32
-2.142641 12.099685 66.754646 44 29 32
-2.140443 12.231025 66.686165 46 30 32
-2.138218 12.361912 66.616829 48 32 32
-2.135979 12.492422 66.547081 50 33 33
-2.133741 12.622638 66.477364 53 35 35
-2.131519 12.752645 66.408134 55 36 36
-2.129327 12.882534 66.339828 56 37 37
-2.127177 13.012392 66.272858 57 39 39
-2.125083 13.142303 66.207619 57 40 40
-2.123056 13.272350 66.144455 55 38 39
-2.121105 13.402609 66.083672 52 37 37
-2.119239 13.533144 66.025528 52 36 37
-2.117463 13.664015 65.970207 55 37 38
-2.115783 13.795269 65.917862 58 39 40
-2.114201 13.926943 65.868561 61 40 42
-2.112717 14.059065 65.822357 64 42 44
-2.111332 14.191644 65.779198 68 44 46
-2.110042 14.324685 65.739014 72 47 51
-2.108845 14.458187 65.701706 76 50 55
-2.107735 14.592134 65.667130 77 53 58
-2.106707 14.726505 65.635109 77 53 59
-2.105755 14.861272 65.605438 75 51 58
-2.104871 14.996400 65.577911 73 49 56
-2.104049 15.131850 65.552292 74 50 57
-2.103281 15.267582 65.528358 76 53 59
-2.102558 15.403544 65.505836 78 55 61
-2.101873 15.539685 65.484482 80 58 63
-2.101216 15.675946 65.464020 86 63 69
-2.100577 15.812261 65.444138 94 72 78
-2.099947 15.948551 65.424507 107 85 92
-2.099314 16.084732 65.404770 120 99 107
-2.098664 16.220699 65.384521 122 102 112
