ply
format ascii 1.0
element vertex 1238
property float x
property float y
property float z
property uchar red
property uchar green
property uchar blue
end_header
12.892352 9.404326 70.269905 21 21 17
12.893787 9.556869 70.277733 21 21 17
12.895008 9.709282 70.284386 20 20 18
12.895981 9.861536 70.289680 20 20 18
12.896680 10.013599 70.293495 20 20 18
12.897093 10.165454 70.295746 20 19 19
12.897218 10.317088 70.296425 20 20 20
12.897064 10.468498 70.295593 21 21 21
12.896653 10.619694 70.293350 21 20 20
12.896022 10.770695 70.289909 20 20 20
12.895211 10.921530 70.285492 20 19 19
12.894282 11.072244 70.280426 19 19 18
12.893302 11.222892 70.275085 19 18 18
12.892349 11.373541 70.269890 18 18 17
12.891514 11.524272 70.265335 18 18 17
12.890888 11.675175 70.261932 19 18 16
12.890579 11.826352 70.260246 19 18 16
12.890695 11.977917 70.260872 19 17 15
12.891346 12.129988 70.264420 19 17 15
12.892647 12.282693 70.271515 19 17 15
12.894709 12.436164 70.282753 19 17 15
12.897643 12.590534 70.298744 19 18 15
12.901554 12.745938 70.320061 19 18 15
12.906538 12.902508 70.347229 19 18 15
12.912685 13.060369 70.380730 18 18 15
12.825191 -11.306914 69.092049 20 18 19
12.843915 -11.174265 69.192917 21 18 18
12.863025 -11.041512 69.295868 21 19 18
12.882483 -10.908609 69.400688 21 19 19
12.902244 -10.775509 69.507149 22 20 19
12.922260 -10.642160 69.614983 22 20 19
12.942481 -10.508512 69.723915 22 20 19
12.962852 -10.374514 69.833656 23 19 19
12.983321 -10.240120 69.943932 23 20 20
13.003841 -10.105290 70.054474 23 21 20
13.024362 -9.969985 70.165024 23 21 20
13.044843 -9.834173 70.275360 22 21 20
13.065247 -9.697827 70.385277 22 21 20
13.085541 -9.560929 70.494614 22 21 19
13.105702 -9.423463 70.603226 22 21 19
13.125708 -9.285419 70.710999 22 21 19
13.145544 -9.146791 70.817856 23 21 19
13.165198 -9.007580 70.923744 23 21 20
13.184664 -8.867785 71.028610 24 22 20
13.203935 -8.727408 71.132423 24 22 22
13.223007 -8.586455 71.235168 25 23 22
13.241875 -8.444929 71.336815 26 23 23
13.260535 -8.302835 71.437340 26 23 23
13.278983 -8.160176 71.536720 27 23 24
13.297209 -8.016955 71.634911 27 23 24
13.315207 -7.873177 71.731873 27 24 24
13.332964 -7.728841 71.827530 28 24 25
13.350470 -7.583950 71.921837 28 25 25
13.367710 -7.438504 72.014717 29 25 25
13.384668 -7.292504 72.106071 29 26 26
13.401330 -7.145952 72.195839 29 26 26
13.417675 -6.998848 72.283890 30 26 26
13.433686 -6.851194 72.370148 30 27 26
13.449342 -6.702991 72.454483 29 27 26
13.464620 -6.554240 72.536789 29 27 27
13.479496 -6.404944 72.616928 29 27 28
13.493945 -6.255104 72.694771 29 27 27
13.507938 -6.104722 72.770157 28 26 26
13.521447 -5.953803 72.842926 28 26 27
13.534437 -5.802347 72.912910 27 27 26
13.546879 -5.650361 72.979935 27 27 26
13.558736 -5.497849 73.043808 27 28 26
13.569974 -5.344817 73.104355 28 28 26
13.580556 -5.191274 73.161362 28 28 27
13.590453 -5.037231 73.214684 28 28 27
13.599634 -4.882701 73.264137 27 27 26
13.608071 -4.727699 73.309593 26 26 25
13.615742 -4.572245 73.350914 27 26 26
13.622626 -4.416357 73.388008 29 28 27
13.628715 -4.260060 73.420807 31 29 27
13.633999 -4.103380 73.449272 32 29 27
13.638475 -3.946343 73.473389 33 29 27
13.642150 -3.788980 73.493179 32 29 27
13.645030 -3.631320 73.508698 31 28 27
13.647127 -3.473393 73.519997 30 27 26
13.648458 -3.315232 73.527161 29 26 26
13.649043 -3.156868 73.530319 28 25 25
13.648904 -2.998331 73.529572 27 25 24
13.648066 -2.839651 73.525055 26 24 23
13.646553 -2.680859 73.516899 25 23 23
13.644396 -2.521983 73.505280 26 23 23
13.641624 -2.363050 73.490349 26 23 23
13.638268 -2.204087 73.472275 26 24 24
13.634367 -2.045120 73.451256 26 24 24
13.629954 -1.886174 73.427483 26 23 24
13.625072 -1.727270 73.401176 26 23 24
13.619759 -1.568430 73.372559 25 23 24
13.614060 -1.409673 73.341858 25 24 24
13.608021 -1.251018 73.309326 25 24 24
13.601686 -1.092479 73.275192 25 24 24
13.595098 -0.934069 73.239708 25 23 23
13.588300 -0.775801 73.203079 24 23 23
13.581329 -0.617683 73.165527 25 23 23
13.574220 -0.459722 73.127228 25 23 23
13.566997 -0.301924 73.088318 25 23 23
13.559681 -0.144292 73.048904 25 22 23
13.552285 0.013170 73.009064 26 23 23
13.544811 0.170459 72.968796 26 22 22
13.537251 0.327572 72.928070 25 22 22
13.529592 0.484506 72.886810 25 22 21
13.521809 0.641256 72.844879 25 21 21
13.513871 0.797816 72.802116 24 21 21
13.505743 0.954179 72.758331 24 21 21
13.497383 1.110334 72.713295 24 21 21
13.488749 1.266269 72.666779 24 22 21
13.479795 1.421969 72.618546 25 22 22
13.470482 1.577420 72.568367 25 22 22
13.460769 1.732602 72.516045 25 22 22
13.450620 1.887498 72.461372 26 23 21
13.440009 2.042089 72.404205 26 23 21
13.428913 2.196353 72.344429 25 23 21
13.417320 2.350272 72.281975 24 22 21
13.405226 2.503829 72.216820 24 22 21
13.392635 2.657006 72.148994 23 23 21
13.379560 2.809789 72.078552 23 22 22
13.366020 2.962165 72.005615 23 22 22
13.352046 3.114126 71.930328 23 21 21
13.337674 3.265665 71.852905 22 20 21
13.322946 3.416778 71.773560 22 19 20
13.307908 3.567467 71.692551 21 19 19
13.292613 3.717734 71.610153 21 20 19
13.277119 3.867588 71.526680 22 21 19
13.261483 4.017039 71.442451 23 22 20
13.245770 4.166102 71.357796 24 22 20
13.230042 4.314796 71.273071 24 22 21
13.214369 4.463143 71.188629 24 22 21
13.198818 4.611169 71.104858 24 22 21
13.183459 4.758904 71.022118 24 22 21
13.168366 4.906380 70.940811 24 22 21
13.153609 5.053635 70.861305 23 22 21
13.139258 5.200707 70.783997 23 22 21
13.125387 5.347642 70.709267 24 22 21
13.112062 5.494484 70.637489 24 22 21
13.099353 5.641281 70.569016 24 22 21
13.087318 5.788082 70.504189 24 22 21
13.076017 5.934936 70.443306 25 23 21
13.065500 6.081892 70.386650 25 23 21
13.055810 6.228999 70.334442 26 23 21
13.046981 6.376301 70.286880 26 23 21
13.039038 6.523842 70.244087 26 23 21
13.031997 6.671660 70.206154 25 23 21
13.025860 6.819788 70.173096 25 23 20
13.020620 6.968253 70.144867 24 22 20
13.016261 7.117078 70.121384 23 22 19
13.012753 7.266277 70.102486 23 21 18
13.010057 7.415858 70.087959 22 21 19
13.008125 7.565821 70.077560 22 21 20
13.006901 7.716158 70.070961 22 22 20
13.006319 7.866855 70.067825 22 22 20
13.006312 8.017894 70.067795 21 22 20
13.006804 8.169246 70.070442 21 22 20
13.007719 8.320879 70.075363 21 22 20
13.008974 8.472755 70.082130 21 22 20
13.010493 8.624835 70.090309 21 22 19
13.012194 8.777073 70.099472 21 21 19
13.014001 8.929424 70.109215 21 21 18
13.015841 9.081841 70.119125 21 21 18
13.017648 9.234275 70.128853 21 21 17
13.019358 9.386683 70.138069 21 21 17
13.020917 9.539019 70.146469 21 21 17
13.022279 9.691244 70.153801 20 20 18
13.023407 9.843325 70.159882 20 20 19
13.024276 9.995233 70.164566 20 20 19
13.024870 10.146946 70.167763 19 20 20
13.025184 10.298452 70.169456 20 21 21
13.025225 10.449747 70.169678 20 21 21
13.025014 10.600838 70.168541 20 20 20
13.024583 10.751741 70.166214 20 20 20
13.023973 10.902487 70.162933 20 19 19
13.023244 11.053115 70.159004 19 19 18
13.022459 11.203678 70.154778 19 19 17
13.021697 11.354244 70.150673 19 19 17
13.021046 11.504889 70.147163 18 18 17
13.020598 11.655704 70.144753 18 18 16
13.020462 11.806787 70.144012 18 18 16
13.020741 11.958251 70.145523 18 17 15
13.021551 12.110214 70.149879 18 17 15
13.023005 12.262803 70.157715 18 17 14
13.025216 12.416147 70.169632 18 17 14
13.028298 12.570383 70.186234 19 18 14
13.032355 12.725643 70.208092 19 18 14
13.037489 12.882060 70.235748 19 18 14
13.043786 13.039760 70.269669 18 18 14
12.987282 -11.169286 69.162086 21 19 18
13.006845 -11.036796 69.266273 21 19 18
13.026759 -10.904150 69.372322 22 19 19
13.046978 -10.771298 69.479988 22 20 20
13.067451 -10.638191 69.589020 22 20 20
13.088123 -10.504772 69.699112 22 20 20
13.108942 -10.370996 69.809975 22 20 19
13.129852 -10.236811 69.921326 23 20 20
13.150802 -10.102177 70.032890 23 21 21
13.171744 -9.967057 70.144417 23 21 21
13.192636 -9.831419 70.255676 22 21 21
13.213440 -9.695235 70.366463 22 21 20
13.234123 -9.558488 70.476608 22 21 20
13.254660 -9.421161 70.585976 22 21 20
13.275028 -9.283245 70.694443 22 21 19
13.295216 -9.144737 70.801949 22 22 19
13.315208 -9.005633 70.908417 23 22 20
13.334999 -8.865937 71.013809 24 22 21
13.354581 -8.725650 71.118088 24 23 22
13.373948 -8.584775 71.221230 25 23 23
13.393098 -8.443318 71.323204 26 24 23
13.412021 -8.301282 71.423981 27 23 24
13.430712 -8.158670 71.523514 28 23 24
13.449162 -8.015485 71.621765 28 24 25
13.467358 -7.871728 71.718674 29 24 25
13.485289 -7.727402 71.814163 29 25 26
13.502937 -7.582506 71.908142 29 25 26
13.520288 -7.437039 72.000542 30 26 27
13.537319 -7.291004 72.091240 30 27 28
13.554014 -7.144399 72.180145 30 27 28
13.570348 -6.997225 72.267128 31 27 28
13.586301 -6.849484 72.352089 31 27 28
13.601848 -6.701177 72.434883 30 27 28
13.616962 -6.552305 72.515373 30 27 28
13.631620 -6.402871 72.593430 29 27 28
13.645795 -6.252879 72.668915 29 27 27
13.659454 -6.102332 72.741653 29 27 27
13.672572 -5.951235 72.811508 28 27 27
13.685115 -5.799593 72.878304 28 27 27
13.697053 -5.647415 72.941879 28 28 27
13.708355 -5.494707 73.002068 28 28 27
13.718989 -5.341479 73.058701 28 28 27
13.728927 -5.187744 73.111618 28 28 27
13.738140 -5.033516 73.160690 28 28 28
13.746605 -4.878810 73.205765 28 28 27
13.754302 -4.723647 73.246758 27 27 26
13.761213 -4.568046 73.283562 28 27 26
13.767329 -4.412031 73.316132 29 29 27
13.772643 -4.255628 73.344429 31 30 27
13.777156 -4.098865 73.368454 33 30 27
13.780869 -3.941770 73.388237 33 29 27
13.783794 -3.784372 73.403816 32 29 27
13.785945 -3.626704 73.415268 31 28 27
13.787333 -3.468795 73.422661 30 27 27
13.787984 -3.310677 73.426125 29 26 26
13.787916 -3.152379 73.425766 29 25 25
13.787156 -2.993933 73.421715 27 24 24
13.785727 -2.835366 73.414101 26 23 23
13.783658 -2.676708 73.403084 25 22 22
13.780976 -2.517986 73.388802 25 23 23
13.777713 -2.359226 73.371422 26 23 23
13.773899 -2.200453 73.351112 26 24 24
13.769570 -2.041691 73.328064 26 24 24
13.764764 -1.882962 73.302467 26 23 24
13.759518 -1.724290 73.274529 26 23 24
13.753872 -1.565692 73.244469 26 23 24
13.747870 -1.407187 73.212502 25 24 24
13.741557 -1.248792 73.178879 25 24 24
13.734973 -1.090520 73.143822 25 24 24
13.728165 -0.932384 73.107559 26 24 24
13.721169 -0.774394 73.070312 26 23 23
13.714025 -0.616558 73.032272 26 23 24
13.706764 -0.458882 72.993599 27 24 24
13.699410 -0.301371 72.954437 26 23 24
13.691981 -0.144027 72.914871 26 23 24
13.684487 0.013145 72.874962 26 23 23
13.676927 0.170145 72.834702 26 22 22
13.669291 0.326970 72.794044 26 23 22
13.661566 0.483616 72.752899 25 22 21
13.653723 0.640079 72.711136 25 22 21
13.645729 0.796353 72.668564 24 21 21
13.637547 0.952430 72.624985 24 20 21
13.629132 1.108301 72.580177 24 21 21
13.620442 1.263953 72.533897 25 22 22
13.611432 1.419372 72.485916 25 22 22
13.602057 1.574542 72.435997 26 23 23
13.592279 1.729446 72.383926 26 23 23
13.582062 1.884064 72.329514 26 23 22
13.571377 2.038377 72.272606 25 22 21
13.560203 2.192366 72.213104 25 22 21
13.548527 2.346011 72.150925 24 22 21
13.536345 2.499295 72.086052 23 21 21
13.523661 2.652201 72.018509 23 22 21
13.510489 2.804714 71.948357 23 22 21
13.496850 2.956822 71.875725 23 21 21
13.482773 3.108516 71.800758 23 21 21
13.468294 3.259790 71.723656 22 21 20
13.453455 3.410640 71.644630 22 20 19
13.438304 3.561067 71.563942 21 19 18
13.422893 3.711074 71.481873 20 19 18
13.407276 3.860668 71.398712 21 20 18
13.391517 4.009861 71.314789 22 21 19
13.375675 4.158666 71.230423 23 21 20
13.359816 4.307102 71.145966 24 22 21
13.344007 4.455191 71.061783 24 22 21
13.328317 4.602957 70.978226 24 22 21
13.312819 4.750432 70.895691 24 22 21
13.297580 4.897647 70.814537 24 23 21
13.282675 5.044638 70.735168 23 23 21
13.268175 5.191446 70.657951 23 23 21
13.254153 5.338114 70.583275 24 23 21
13.240678 5.484685 70.511513 24 23 21
13.227816 5.631209 70.443016 24 23 21
13.215629 5.777732 70.378120 24 23 21
13.204176 5.924305 70.317131 24 23 21
13.193508 6.070976 70.260315 25 23 21
13.183669 6.217794 70.207924 25 23 21
13.174693 6.364802 70.160118 25 23 21
13.166607 6.512044 70.117058 25 23 21
13.159425 6.659559 70.078812 25 24 21
13.153152 6.807378 70.045410 24 23 20
13.147782 6.955532 70.016815 24 22 19
13.143298 7.104041 69.992928 23 22 18
13.139672 7.252921 69.973625 23 21 18
13.136867 7.402179 69.958679 22 21 19
13.134833 7.551817 69.947853 22 21 19
13.133519 7.701831 69.940857 22 22 20
13.132859 7.852205 69.937340 22 22 20
13.132787 8.002922 69.936951 21 22 20
13.133227 8.153956 69.939301 21 22 19
13.134106 8.305277 69.943977 21 22 19
13.135342 8.456849 69.950562 21 22 19
13.136859 8.608633 69.958641 21 22 19
13.138577 8.760585 69.967789 20 21 18
13.140420 8.912663 69.977608 20 21 18
13.142316 9.064818 69.987701 20 21 18
13.144195 9.217006 69.997704 21 20 17
13.145997 9.369182 70.007309 20 20 17
13.147666 9.521303 70.016197 21 20 18
13.149155 9.673329 70.024124 20 20 18
13.150426 9.825228 70.030891 20 20 19
13.151450 9.976968 70.036346 20 20 19
13.152211 10.128529 70.040398 20 20 20
13.152703 10.279896 70.043015 19 20 20
13.152930 10.431066 70.044228 19 20 20
13.152910 10.582041 70.044121 19 20 20
13.152674 10.732840 70.042862 19 20 20
13.152262 10.883488 70.040665 19 19 19
13.151727 11.034022 70.037819 19 19 18
13.151137 11.184499 70.034676 19 19 17
13.150566 11.334978 70.031639 19 19 17
13.150101 11.485536 70.029160 18 18 16
13.149836 11.636261 70.027748 18 18 16
13.149873 11.787251 70.027946 18 18 16
13.150324 11.938617 70.030350 17 17 15
13.151298 12.090474 70.035530 17 16 14
13.152911 12.242949 70.044128 17 16 14
13.155279 12.396172 70.056740 17 17 13
13.158513 12.550275 70.073959 18 18 13
13.162723 12.705394 70.096375 18 18 14
13.168008 12.861660 70.124519 18 18 15
13.150779 -11.032282 69.237938 21 19 18
13.171139 -10.899877 69.345131 22 19 19
13.191803 -10.767259 69.453926 22 20 19
13.212719 -10.634374 69.564049 22 20 20
13.233831 -10.501169 69.675201 22 20 20
13.255080 -10.367594 69.787079 22 20 19
13.276413 -10.233600 69.899391 23 20 20
13.297776 -10.099145 70.011871 24 21 21
13.319120 -9.964190 70.124245 23 21 21
13.340403 -9.828706 70.236290 22 21 21
13.361583 -9.692665 70.347809 22 21 21
13.382628 -9.556046 70.458611 22 21 20
13.403516 -9.418839 70.568581 22 21 20
13.424220 -9.281032 70.677589 21 22 20
13.444728 -9.142620 70.785561 22 22 20
13.465027 -9.003604 70.892433 22 22 20
13.485109 -8.863983 70.998161 23 23 21
13.504966 -8.723762 71.102707 24 23 22
13.524591 -8.582944 71.206032 25 23 23
13.543981 -8.441532 71.308121 26 23 23
13.563125 -8.299530 71.408913 28 23 24
13.582015 -8.156941 71.508369 28 23 24
13.600641 -8.013769 71.606430 29 24 25
13.618989 -7.870012 71.703033 29 24 26
13.637044 -7.725673 71.798088 29 25 26
13.654785 -7.580750 71.891495 30 26 27
13.672194 -7.435244 71.983154 30 27 28
13.689248 -7.289153 72.072945 31 28 28
13.705924 -7.142478 72.160736 31 28 28
13.722195 -6.995218 72.246407 31 28 28
13.738038 -6.847376 72.329819 32 28 28
13.753425 -6.698952 72.410828 31 28 28
13.768328 -6.549948 72.489288 31 28 28
13.782718 -6.400368 72.565056 30 28 28
13.796568 -6.250217 72.637970 30 28 28
13.809848 -6.099499 72.707893 30 28 27
13.822527 -5.948222 72.774651 29 27 27
13.834579 -5.796393 72.838097 28 27 27
13.845971 -5.644023 72.898079 28 28 28
13.856677 -5.491122 72.954445 28 28 28
13.866670 -5.337703 73.007050 29 28 28
13.875923 -5.183782 73.055779 29 29 28
13.884418 -5.029375 73.100494 29 29 28
13.892135 -4.874503 73.141129 29 29 28
13.899060 -4.719186 73.177589 29 29 28
13.905185 -4.563450 73.209831 30 29 27
13.910506 -4.407320 73.237846 31 30 27
13.915024 -4.250824 73.261635 32 30 28
13.918744 -4.093991 73.281219 33 30 28
13.921676 -3.936851 73.296661 33 30 27
13.923837 -3.779434 73.308037 32 28 26
13.925243 -3.621773 73.315437 31 27 26
13.925915 -3.463897 73.318977 30 26 26
13.925876 -3.305836 73.318771 29 26 26
13.925152 -3.147622 73.314957 29 25 25
13.923766 -2.989282 73.307663 27 24 24
13.921749 -2.830845 73.297043 26 23 23
13.919126 -2.672338 73.283234 25 23 22
13.915926 -2.513786 73.266388 25 23 23
13.912180 -2.355214 73.246658 25 23 23
13.907918 -2.196646 73.224220 26 23 23
13.903174 -2.038104 73.199249 26 24 24
13.897986 -1.879609 73.171936 26 23 24
13.892390 -1.721182 73.142471 26 23 24
13.886426 -1.562840 73.111069 26 23 24
13.880137 -1.404601 73.077965 25 23 23
13.873565 -1.246479 73.043358 25 24 24
13.866751 -1.088487 73.007477 26 24 24
13.859737 -0.930637 72.970558 26 24 24
13.852563 -0.772937 72.932785 27 23 24
13.845262 -0.615394 72.894341 27 24 24
13.837864 -0.458013 72.855392 27 24 24
13.830393 -0.300799 72.816063 27 24 24
13.822864 -0.143754 72.776413 26 24 24
13.815284 0.013121 72.736511 26 23 23
13.807650 0.169822 72.696320 26 23 22
13.799952 0.326349 72.655792 26 22 21
13.792170 0.482698 72.614815 25 22 20
13.784276 0.638865 72.573257 25 21 21
13.776237 0.794845 72.530930 25 21 21
13.768008 0.950629 72.487610 25 21 21
13.759549 1.106207 72.443077 25 21 21
13.750814 1.261569 72.397079 25 22 22
13.741755 1.416699 72.349388 25 22 23
13.732329 1.571581 72.299767 26 23 23
13.722497 1.726198 72.247993 26 23 23
13.712221 1.880531 72.193893 26 23 22
13.701472 2.034561 72.137306 25 22 21
13.690231 2.188267 72.078117 24 21 20
13.678484 2.341633 72.016273 23 21 20
13.666228 2.494638 71.951744 22 20 20
13.653466 2.647268 71.884552 22 21 20
13.640213 2.799506 71.814774 22 21 20
13.626490 2.951343 71.742523 23 21 20
13.612326 3.102767 71.667953 23 21 20
13.597756 3.253772 71.591248 23 21 19
13.582826 3.404357 71.512634 22 20 19
13.567579 3.554520 71.432365 21 20 18
13.552071 3.704265 71.350708 21 19 18
13.536355 3.853599 71.267967 21 19 18
13.520493 4.002532 71.184456 22 20 19
13.504546 4.151081 71.100494 23 21 20
13.488581 4.299261 71.016441 24 21 21
13.472663 4.447094 70.932640 24 22 21
13.456863 4.594606 70.849457 24 22 21
13.441253 4.741827 70.767265 24 22 21
13.425901 4.888787 70.686440 24 23 21
13.410882 5.035524 70.607368 23 24 21
13.396269 5.182077 70.530426 23 23 21
13.382132 5.328487 70.455994 23 23 21
13.368542 5.474801 70.384445 23 23 21
13.355564 5.621064 70.316116 23 23 21
13.343264 5.767326 70.251358 23 23 21
13.331697 5.913633 70.190460 24 23 20
13.320917 6.060036 70.133705 24 23 20
13.310966 6.206581 70.081314 25 22 21
13.301880 6.353313 70.033478 25 23 21
13.293685 6.500274 69.990326 25 23 21
13.286395 6.647502 69.951950 25 23 21
13.280018 6.795032 69.918373 24 23 20
13.274546 6.942891 69.889557 23 22 19
13.269961 7.091100 69.865425 23 22 18
13.266239 7.239675 69.845833 22 21 18
13.263343 7.388625 69.830582 22 21 18
13.261225 7.537952 69.819427 22 22 18
13.259831 7.687652 69.812096 22 22 19
13.259103 7.837712 69.808258 21 22 20
13.258969 7.988115 69.807556 21 22 20
13.259361 8.138837 69.809616 21 22 20
13.260202 8.289849 69.814049 21 22 20
13.261416 8.441117 69.820435 21 22 19
13.262925 8.592604 69.828377 20 21 18
13.264652 8.744268 69.837471 20 21 18
13.266521 8.896068 69.847313 19 21 18
13.268458 9.047956 69.857513 20 20 18
13.270398 9.199890 69.867729 20 20 17
13.272279 9.351827 69.877625 20 19 17
13.274044 9.503723 69.886917 20 19 18
13.275645 9.655540 69.895348 20 19 18
13.277044 9.807245 69.902718 20 20 19
13.278211 9.958807 69.908859 20 20 19
13.279127 10.110204 69.913681 20 20 19
13.279785 10.261422 69.917145 20 20 19
13.280188 10.412457 69.919266 19 20 19
13.280350 10.563308 69.920120 18 19 19
13.280301 10.713992 69.919861 18 19 19
13.280080 10.864535 69.918701 18 18 18
13.279737 11.014973 69.916901 18 18 17
13.279340 11.165356 69.914803 18 18 17
13.278960 11.315744 69.912804 18 18 17
13.278683 11.466213 69.911339 18 18 16
13.278603 11.616848 69.910919 18 18 16
13.278821 11.767746 69.912071 18 18 16
13.279446 11.919014 69.915359 17 17 15
13.280591 12.070769 69.921394 16 17 14
13.282371 12.223134 69.930763 16 17 13
13.284902 12.376238 69.944084 16 17 13
13.288295 12.530214 69.961952 17 18 13
13.292662 12.685196 69.984940 18 18 15
13.294847 -11.027981 69.210945 21 19 18
13.315641 -10.895801 69.319199 21 19 18
13.336739 -10.763398 69.429024 21 20 18
13.358084 -10.630719 69.540146 21 20 19
13.379618 -10.497709 69.652245 22 20 19
13.401280 -10.364317 69.765022 22 21 20
13.423018 -10.230494 69.878181 23 20 20
13.444773 -10.096197 69.991432 23 20 21
13.466497 -9.961389 70.104530 23 20 20
13.488145 -9.826037 70.217224 22 21 20
13.509675 -9.690116 70.329308 22 21 20
13.531058 -9.553607 70.440628 22 21 20
13.552264 -9.416495 70.551018 22 21 21
13.573273 -9.278772 70.660385 22 22 21
13.594069 -9.140435 70.768646 21 22 21
13.614638 -9.001482 70.875725 22 23 20
13.634972 -8.861914 70.981583 23 23 21
13.655064 -8.721734 71.086174 24 24 21
13.674905 -8.580946 71.189468 25 24 23
13.694489 -8.439555 71.291420 27 24 23
13.713807 -8.297564 71.391983 28 24 23
13.732849 -8.154974 71.491112 29 24 24
13.751602 -8.011789 71.588745 29 24 25
13.770050 -7.868009 71.684776 29 24 25
13.788176 -7.723633 71.779137 29 25 25
13.805957 -7.578663 71.871704 30 26 26
13.823371 -7.433095 71.962357 30 27 27
13.840393 -7.286931 72.050972 32 28 29
13.856995 -7.140168 72.137398 32 29 29
13.873152 -6.992808 72.221512 33 30 29
13.888832 -6.844851 72.303139 34 31 29
13.904007 -6.696298 72.382133 34 31 30
13.918647 -6.547153 72.458351 33 31 29
13.932721 -6.397419 72.531616 31 30 29
13.946200 -6.247103 72.601791 31 30 29
13.959054 -6.096212 72.668709 31 29 28
13.971254 -5.944754 72.732216 30 28 28
13.982772 -5.792739 72.792175 29 27 28
13.993580 -5.640180 72.848434 29 28 28
14.003653 -5.487090 72.900879 30 28 29
14.012967 -5.333486 72.949371 30 28 29
14.021504 -5.179385 72.993813 30 29 29
14.029250 -5.024809 73.034134 30 30 29
14.036191 -4.869780 73.070267 30 30 29
14.042318 -4.714323 73.102165 31 31 29
14.047632 -4.558463 73.129829 32 31 29
14.052136 -4.402231 73.153275 33 31 29
14.055838 -4.245655 73.172546 33 31 29
14.058747 -4.088766 73.187691 34 31 29
14.060885 -3.931596 73.198822 33 30 28
14.062269 -3.774175 73.206032 32 29 27
14.062922 -3.616536 73.209427 31 28 26
14.062871 -3.458708 73.209160 30 26 26
14.062139 -3.300722 73.205345 29 25 25
14.060755 -3.142607 73.198143 28 24 25
14.058745 -2.984390 73.187683 27 23 24
14.056140 -2.826098 73.174118 26 23 23
14.052967 -2.667757 73.157600 25 23 22
14.049255 -2.509391 73.138283 25 23 23
14.045033 -2.351022 73.116295 26 23 23
14.040332 -2.192674 73.091827 26 23 23
14.035185 -2.034367 73.065033 26 24 24
14.029628 -1.876120 73.036102 25 23 23
14.023697 -1.717952 73.005226 25 23 23
14.017428 -1.559880 72.972588 25 22 23
14.010866 -1.401919 72.938431 25 23 23
14.004049 -1.244083 72.902939 26 23 24
13.997020 -1.086383 72.866348 26 24 24
13.989816 -0.928829 72.828842 27 24 24
13.982474 -0.771430 72.790627 27 23 24
13.975030 -0.614191 72.751869 28 24 24
13.967509 -0.457116 72.712723 28 24 24
13.959933 -0.300209 72.673279 27 24 23
13.952315 -0.143472 72.633621 27 24 23
13.944660 0.013095 72.593773 26 23 22
13.936963 0.169489 72.553703 26 23 21
13.929211 0.325709 72.513344 25 22 20
13.921382 0.481752 72.472588 24 22 20
13.913445 0.637615 72.431274 25 22 20
13.905366 0.793292 72.389214 25 21 20
13.897100 0.948774 72.346184 25 21 20
13.888605 1.104053 72.301956 26 22 21
13.879830 1.259115 72.256279 25 22 21
13.870731 1.413948 72.208908 25 23 23
13.861263 1.568535 72.159622 25 23 23
13.851384 1.722858 72.108192 25 23 23
13.841058 1.876898 72.054436 25 22 22
13.830257 2.030638 71.998207 24 21 21
13.818961 2.184056 71.939400 23 20 20
13.807157 2.337135 71.877945 22 20 19
13.794838 2.489856 71.813820 21 20 19
13.782012 2.642204 71.747055 22 20 19
13.768693 2.794163 71.677711 22 21 19
13.754901 2.945723 71.605919 23 21 19
13.740666 3.096873 71.531807 23 21 19
13.726026 3.247607 71.455589 23 21 20
13.711020 3.397923 71.377480 23 21 19
13.695699 3.547820 71.297722 23 21 19
13.680114 3.697301 71.216583 22 20 19
13.664322 3.846375 71.134377 22 20 20
13.648381 3.995051 71.051392 23 21 20
13.632356 4.143343 70.967964 24 21 21
13.616311 4.291269 70.884438 24 22 21
13.600314 4.438851 70.801163 24 22 21
13.584435 4.586114 70.718498 24 22 21
13.568744 4.733086 70.636810 24 22 21
13.553313 4.879799 70.556480 23 23 20
13.538216 5.026289 70.477882 22 23 20
13.523523 5.172597 70.401398 22 23 21
13.509309 5.318762 70.327400 22 23 21
13.495643 5.464830 70.256256 22 23 21
13.482590 5.610847 70.188309 22 23 21
13.470216 5.756861 70.123886 22 23 21
13.458575 5.902919 70.063293 23 22 20
13.447722 6.049070 70.006790 24 22 20
13.437699 6.195360 69.954613 24 22 20
13.428540 6.341833 69.906929 25 22 21
13.420272 6.488531 69.863892 25 22 21
13.412911 6.635493 69.825569 24 22 21
13.406460 6.782749 69.791985 23 22 21
13.400914 6.930329 69.763115 22 21 20
13.396257 7.078254 69.738869 22 21 19
13.392463 7.226541 69.719116 22 21 19
13.389495 7.375196 69.703667 22 21 19
13.387309 7.524226 69.692291 22 22 19
13.385851 7.673623 69.684692 22 22 19
13.385061 7.823378 69.680588 21 22 19
13.384874 7.973475 69.679611 21 22 19
13.385220 8.123890 69.681412 21 22 20
13.386024 8.274597 69.685600 21 22 20
13.387213 8.425563 69.691780 20 21 19
13.388706 8.576753 69.699562 19 21 18
13.390433 8.728127 69.708549 19 20 18
13.392317 8.879643 69.718361 19 20 17
13.394287 9.031261 69.728615 19 20 17
13.396275 9.182935 69.738960 19 19 17
13.398220 9.334624 69.749092 19 19 17
13.400066 9.486287 69.758705 20 19 18
13.401766 9.637885 69.767548 20 19 18
13.403278 9.789386 69.775421 20 20 19
13.404574 9.940759 69.782166 20 21 19
13.405633 10.091983 69.787682 20 21 19
13.406445 10.243041 69.791901 20 20 19
13.407012 10.393929 69.794853 19 20 19
13.407349 10.544647 69.796608 18 19 18
13.407479 10.695210 69.797287 18 18 17
13.407443 10.845640 69.797104 17 17 17
13.407290 10.995975 69.796310 17 17 17
13.407083 11.146258 69.795227 18 18 17
13.406894 11.296555 69.794243 18 18 17
13.406806 11.446932 69.793785 18 19 17
13.406913 11.597476 69.794342 18 19 16
13.407314 11.748281 69.796432 18 19 15
13.408121 11.899455 69.800629 17 18 15
13.409443 12.051109 69.807510 17 18 14
13.411394 12.203367 69.817673 17 17 14
13.414093 12.356356 69.831718 16 17 13
13.417652 12.510208 69.850250 16 17 13
13.422182 12.665056 69.873825 17 17 15
13.460301 -10.891942 69.294647 20 19 17
13.481819 -10.759738 69.405418 21 20 18
13.503576 -10.627247 69.517433 21 20 18
13.525515 -10.494412 69.630371 21 20 19
13.547573 -10.361183 69.743927 22 20 20
13.569694 -10.227510 69.857803 23 20 20
13.591818 -10.093350 69.971703 23 20 20
13.613897 -9.958666 70.085365 22 20 20
13.635882 -9.823424 70.198555 22 21 20
13.657737 -9.687602 70.311058 22 21 20
13.679424 -9.551177 70.422707 22 21 21
13.700918 -9.414138 70.533356 22 22 21
13.722196 -9.276476 70.642899 22 22 22
13.743240 -9.138186 70.751236 22 22 21
13.764040 -8.999270 70.858315 22 23 21
13.784585 -8.859729 70.964081 23 24 21
13.804865 -8.719563 71.068489 24 24 22
13.824876 -8.578781 71.171501 25 25 22
13.844606 -8.437384 71.273071 27 25 23
13.864049 -8.295376 71.373169 28 25 24
13.883190 -8.152761 71.471710 29 25 24
13.902016 -8.009538 71.568626 29 25 24
13.920509 -7.865709 71.663834 29 25 24
13.938650 -7.721275 71.757225 29 25 25
13.956415 -7.576235 71.848679 29 26 26
13.973779 -7.430586 71.938065 30 28 27
13.990713 -7.284329 72.025246 32 29 29
14.007188 -7.137462 72.110062 33 31 30
14.023173 -6.989985 72.192352 35 33 31
14.038639 -6.841900 72.271973 36 34 31
14.053553 -6.693208 72.348747 36 35 32
14.067880 -6.543914 72.422508 35 33 31
14.081591 -6.394021 72.493088 33 32 29
14.094654 -6.243537 72.560341 33 32 29
14.107039 -6.092470 72.624100 32 31 29
14.118719 -5.940832 72.684227 31 29 29
14.129664 -5.788633 72.740578 31 28 29
14.139852 -5.635889 72.793022 30 27 29
14.149258 -5.482617 72.841446 30 27 29
14.157866 -5.328835 72.885757 31 28 29
14.165657 -5.174564 72.925873 31 29 30
14.172626 -5.019829 72.961746 31 30 30
14.178765 -4.864654 72.993355 32 31 30
14.184075 -4.709068 73.020683 33 32 31
14.188559 -4.553099 73.043770 34 33 31
14.192228 -4.396778 73.062660 35 33 31
14.195097 -4.240136 73.077431 35 33 31
14.197186 -4.083207 73.088181 35 32 30
14.198516 -3.926021 73.095032 34 31 29
14.199115 -3.768612 73.098114 33 30 28
14.199009 -3.611010 73.097572 32 28 27
14.198226 -3.453246 73.093536 31 27 27
14.196798 -3.295349 73.086189 30 25 26
14.194754 -3.137348 73.075661 29 24 25
14.192122 -2.979270 73.062119 28 23 25
14.188933 -2.821138 73.045700 27 23 24
14.185215 -2.662978 73.026558 26 24 23
14.180997 -2.504812 73.004837 26 24 23
14.176308 -2.346662 72.980698 26 23 23
14.171176 -2.188548 72.954285 26 23 23
14.165635 -2.030489 72.925758 26 23 23
14.159719 -1.872503 72.895302 25 23 23
14.153463 -1.714608 72.863098 25 23 23
14.146904 -1.556818 72.829330 26 23 24
14.140080 -1.399147 72.794205 25 23 23
14.133033 -1.241608 72.757919 26 23 24
14.125799 -1.084211 72.720680 27 23 24
14.118417 -0.926965 72.682671 27 23 24
14.110921 -0.769877 72.644089 27 23 24
14.103345 -0.612952 72.605087 28 24 23
14.095711 -0.456192 72.565781 28 24 23
14.088040 -0.299602 72.526291 27 24 23
14.080341 -0.143181 72.486656 27 24 23
14.072618 0.013068 72.446899 26 24 22
14.064864 0.169146 72.406982 26 24 21
14.057065 0.325051 72.366829 26 24 21
14.049193 0.480780 72.326309 25 23 20
14.041221 0.636330 72.285263 24 22 20
14.033108 0.791695 72.243500 24 21 19
14.024811 0.946867 72.200783 25 21 20
14.016282 1.101837 72.156876 25 21 20
14.007476 1.256593 72.111542 25 22 21
13.998343 1.411121 72.064522 25 23 22
13.988839 1.565404 72.015602 25 24 24
13.978922 1.719426 71.964546 25 24 24
13.968556 1.873167 71.911179 25 23 23
13.957714 2.026609 71.855362 24 22 21
13.946372 2.179732 71.796974 23 21 20
13.934520 2.332518 71.735954 22 21 19
13.922153 2.484950 71.672295 21 20 18
13.909278 2.637010 71.606010 22 20 18
13.895906 2.788685 71.537178 22 20 18
13.882063 2.939963 71.465904 22 20 19
13.867775 3.090835 71.392349 23 21 19
13.853081 3.241295 71.316704 23 21 19
13.838022 3.391339 71.239182 23 21 20
13.822647 3.540968 71.160027 23 21 20
13.807009 3.690185 71.079521 23 21 20
13.791162 3.838998 70.997948 23 21 21
13.775169 3.987416 70.915611 23 21 21
13.759092 4.135454 70.832840 24 22 21
13.742996 4.283129 70.749977 25 23 22
13.726950 4.430463 70.667374 24 22 22
13.711021 4.577481 70.585373 24 22 22
13.695284 4.724210 70.504356 24 22 21
13.679810 4.870684 70.424690 23 22 21
13.664670 5.016938 70.346748 22 22 20
13.649938 5.163009 70.270912 21 22 20
13.635686 5.308941 70.197540 21 22 20
13.621984 5.454776 70.126999 21 22 20
13.608898 5.600561 70.059631 21 22 20
13.596490 5.746342 69.995758 21 22 20
13.584818 5.892167 69.935669 22 21 20
13.573933 6.038083 69.879631 22 21 20
13.563877 6.184135 69.827866 23 21 20
13.554686 6.330367 69.780540 23 21 20
13.546382 6.476820 69.737793 23 21 21
13.538982 6.623532 69.699699 23 21 21
13.532492 6.770533 69.666290 22 21 21
13.526902 6.917852 69.637512 22 21 20
13.522201 7.065510 69.613304 22 21 20
13.518358 7.213522 69.593529 22 21 20
13.515340 7.361898 69.577988 22 22 19
13.513103 7.510642 69.566467 22 22 19
13.511593 7.659748 69.558701 21 22 18
13.510753 7.809207 69.554375 21 22 18
13.510519 7.959005 69.553169 20 22 19
13.510821 8.109120 69.554726 20 22 19
13.511589 8.259526 69.558678 20 21 19
13.512749 8.410192 69.564651 20 21 19
13.514225 8.561086 69.572250 19 20 18
13.515944 8.712169 69.581100 18 20 18
13.517835 8.863401 69.590836 18 19 17
13.519824 9.014743 69.601074 18 18 17
13.521848 9.166151 69.611496 18 18 17
13.523845 9.317585 69.621773 19 19 17
13.525758 9.469006 69.631622 19 19 18
13.527541 9.620377 69.640800 20 20 19
13.529154 9.771664 69.649101 20 20 19
13.530565 9.922838 69.656372 21 21 19
13.531754 10.073878 69.662483 21 21 19
13.532708 10.224769 69.667397 20 20 18
13.533429 10.375501 69.671112 19 20 18
13.533929 10.526077 69.673683 18 18 17
13.534233 10.676510 69.675255 17 17 16
13.534376 10.826820 69.675987 17 17 16
13.534408 10.977044 69.676147 17 17 16
13.534388 11.127226 69.676048 17 18 16
13.534388 11.277424 69.676048 18 18 17
13.534490 11.427709 69.676575 18 19 17
13.534786 11.578161 69.678101 18 19 16
13.535376 11.728874 69.681129 18 19 15
13.536366 11.879952 69.686234 17 18 14
13.537868 12.031507 69.693962 17 18 14
13.539998 12.183661 69.704933 17 17 14
13.542871 12.336538 69.719719 16 17 13
13.546601 12.490270 69.738922 15 16 13
13.627092 -10.756312 69.383316 21 19 17
13.649247 -10.623989 69.496124 21 19 18
13.671573 -10.491311 69.609787 21 20 19
13.694005 -10.358223 69.724007 22 20 19
13.716484 -10.224679 69.838463 22 20 20
13.738954 -10.090633 69.952866 22 20 20
13.761360 -9.956049 70.066948 22 20 20
13.783655 -9.820894 70.180466 22 21 20
13.805799 -9.685143 70.293221 22 21 20
13.827759 -9.548779 70.405022 22 21 21
13.849502 -9.411785 70.515732 22 22 21
13.871010 -9.274158 70.625237 22 22 22
13.892263 -9.135890 70.733452 22 23 22
13.913250 -8.996984 70.840309 23 23 22
13.933958 -8.857439 70.945747 23 24 22
13.954381 -8.717262 71.049728 24 25 22
13.974510 -8.576456 71.152214 25 25 23
13.994335 -8.435026 71.253159 27 26 24
14.013847 -8.292974 71.352509 29 26 24
14.033031 -8.150305 71.450188 29 26 24
14.051875 -8.007020 71.546127 29 26 24
14.070357 -7.863119 71.640236 28 25 24
14.088456 -7.718603 71.732384 28 26 25
14.106147 -7.573470 71.822456 28 27 25
14.123403 -7.427720 71.910316 29 28 27
14.140192 -7.281351 71.995804 31 30 28
14.156486 -7.134364 72.078758 33 32 30
14.172247 -6.986756 72.159012 35 34 31
14.187446 -6.838532 72.236397 37 36 32
14.202045 -6.689692 72.310730 37 36 33
14.216014 -6.540240 72.381851 35 35 32
14.229316 -6.390183 72.449577 34 33 30
14.241921 -6.239529 72.513763 34 32 30
14.253798 -6.088287 72.574234 33 31 30
14.264919 -5.936470 72.630859 32 30 30
14.275258 -5.784091 72.683502 31 29 29
14.284793 -5.631168 72.732048 30 28 29
14.293505 -5.477721 72.776398 30 27 29
14.301376 -5.323770 72.816483 31 28 29
14.308399 -5.169340 72.852242 32 29 30
14.314570 -5.014456 72.883659 33 31 31
14.319890 -4.859149 72.910744 34 32 32
14.324362 -4.703446 72.933517 35 34 32
14.328000 -4.547381 72.952042 37 34 33
14.330821 -4.390985 72.966400 38 35 33
14.332848 -4.234293 72.976715 38 34 33
14.334105 -4.077337 72.983116 37 34 32
14.334620 -3.920151 72.985748 36 32 31
14.334427 -3.762768 72.984764 35 31 30
14.333557 -3.605218 72.980331 34 29 29
14.332044 -3.447533 72.972626 32 27 28
14.329917 -3.289741 72.961800 31 26 27
14.327214 -3.131869 72.948036 29 25 26
14.323961 -2.973942 72.931473 29 24 25
14.320191 -2.815985 72.912277 28 24 24
14.315931 -2.658020 72.890594 27 24 24
14.311213 -2.500068 72.866562 27 24 24
14.306062 -2.342149 72.840340 27 24 23
14.300508 -2.184282 72.812057 26 23 23
14.294583 -2.026483 72.781891 26 23 23
14.288319 -1.868771 72.749992 25 23 23
14.281748 -1.711159 72.716545 25 22 23
14.274907 -1.553662 72.681717 25 22 23
14.267833 -1.396293 72.645691 26 22 23
14.260563 -1.239061 72.608681 26 23 23
14.253135 -1.081977 72.570854 27 23 24
14.245584 -0.925049 72.532410 27 23 24
14.237944 -0.768281 72.493507 27 23 24
14.230242 -0.611679 72.454292 27 23 23
14.222502 -0.455244 72.414886 27 24 22
14.214741 -0.298978 72.375374 27 24 22
14.206967 -0.142883 72.335793 27 25 22
14.199183 0.013041 72.296150 26 25 22
14.191376 0.168794 72.256409 26 25 21
14.183532 0.324375 72.216469 26 25 21
14.175623 0.479782 72.176201 26 24 21
14.167617 0.635011 72.135437 25 23 20
14.159473 0.790056 72.093971 25 22 20
14.151147 0.944910 72.051575 24 21 19
14.142591 1.099564 72.008011 25 21 20
14.133756 1.254005 71.963028 25 21 20
14.124595 1.408220 71.916382 25 23 22
14.115061 1.562192 71.867844 25 24 24
14.105113 1.715905 71.817192 25 24 24
14.094714 1.869339 71.764244 24 23 23
14.083838 2.022477 71.708870 24 23 21
14.072462 2.175299 71.650948 23 22 20
14.060575 2.327786 71.590424 22 21 19
14.048173 2.479922 71.527275 21 20 18
14.035260 2.631689 71.461533 22 21 18
14.021854 2.783075 71.393272 21 20 18
14.007975 2.934068 71.322601 22 20 18
13.993651 3.084658 71.249680 23 21 19
13.978924 3.234840 71.174690 23 21 20
13.963832 3.384611 71.097847 23 22 20
13.948424 3.533970 71.019402 23 22 21
13.932755 3.682922 70.939621 23 22 21
13.916882 3.831474 70.858803 23 22 22
13.900863 3.979635 70.777237 24 22 22
13.884761 4.127421 70.695251 24 22 22
13.868644 4.274848 70.613190 24 22 22
13.852578 4.421938 70.531395 24 22 22
13.836636 4.568716 70.450218 23 22 22
13.820886 4.715210 70.370033 23 22 21
13.805404 4.861452 70.291199 22 22 21
13.790260 5.007477 70.214096 21 21 20
13.775528 5.153324 70.139084 20 21 20
13.761278 5.299033 70.066536 20 21 20
13.747582 5.444649 69.996796 20 21 20
13.734504 5.590215 69.930206 21 21 20
13.722106 5.735779 69.867081 21 21 20
13.710444 5.881386 69.807709 22 21 20
13.699570 6.027084 69.752342 22 21 20
13.689522 6.172915 69.701180 22 20 20
13.680336 6.318925 69.654411 22 20 20
13.672036 6.465151 69.612152 22 20 21
13.664635 6.611630 69.574463 22 21 21
13.658136 6.758394 69.541374 22 21 21
13.652535 6.905469 69.512863 22 21 21
13.647815 7.052876 69.488823 22 21 20
13.643949 7.200630 69.469139 22 21 20
13.640901 7.348740 69.453621 22 22 19
13.638630 7.497210 69.442062 22 22 19
13.637083 7.646037 69.434189 22 22 19
13.636204 7.795210 69.429703 22 22 19
13.635929 7.944717 69.428307 21 22 19
13.636193 8.094539 69.429657 20 22 19
13.636926 8.244648 69.433380 20 21 19
13.638056 8.395019 69.439133 19 21 19
13.639509 8.545617 69.446533 19 20 19
13.641215 8.696407 69.455223 18 19 18
13.643103 8.847354 69.464836 17 19 17
13.645103 8.998415 69.475014 17 18 17
13.647150 9.149552 69.485435 18 18 18
13.649186 9.300728 69.495811 19 19 18
13.651155 9.451900 69.505829 19 19 18
13.653008 9.603035 69.515266 20 20 19
13.654707 9.754100 69.523918 21 20 20
13.656220 9.905067 69.531624 21 21 20
13.657526 10.055916 69.538269 21 21 19
13.658609 10.206627 69.543785 21 20 18
13.659474 10.357195 69.548195 19 19 18
13.660129 10.507621 69.551521 18 17 16
13.660598 10.657916 69.553909 17 17 16
13.660913 10.808101 69.555519 16 16 15
13.661123 10.958207 69.556587 16 17 15
13.661288 11.108282 69.557426 17 18 16
13.661475 11.258378 69.558380 18 18 16
13.661767 11.408566 69.559860 18 19 16
13.662252 11.558926 69.562332 18 19 16
13.663031 11.709545 69.566299 18 18 15
13.664209 11.860530 69.572296 17 18 14
13.665897 12.011988 69.580894 17 18 14
13.668209 12.164039 69.592667 17 18 14
13.671261 12.316806 69.608200 16 17 14
13.772625 -10.753161 69.362999 22 19 18
13.795159 -10.620988 69.476486 22 19 18
13.817851 -10.488444 69.590767 22 19 18
13.840635 -10.355476 69.705513 23 20 19
13.863450 -10.222037 69.820419 23 20 19
13.886236 -10.088082 69.935181 22 20 19
13.908940 -9.953573 70.049522 22 20 19
13.931514 -9.818479 70.163208 22 21 20
13.953914 -9.682774 70.276016 22 22 21
13.976106 -9.546440 70.387787 22 22 21
13.998059 -9.409466 70.498352 23 22 22
14.019753 -9.271843 70.607613 23 23 22
14.041171 -9.133568 70.715469 23 23 23
14.062297 -8.994642 70.821869 23 24 23
14.083121 -8.855067 70.926750 24 25 23
14.103635 -8.714849 71.030060 25 25 23
14.123828 -8.573990 71.131760 26 26 24
14.143692 -8.432498 71.231804 27 26 25
14.163218 -8.290375 71.330132 28 27 25
14.182388 -8.147624 71.426682 28 27 24
14.201189 -8.004250 71.521370 28 26 24
14.219600 -7.860250 71.614098 27 26 24
14.237598 -7.715628 71.704742 27 26 24
14.255157 -7.570382 71.793167 28 27 25
14.272246 -7.424510 71.879234 29 29 26
14.288836 -7.278012 71.962791 31 30 28
14.304890 -7.130888 72.043640 33 33 29
14.320376 -6.983138 72.121635 34 34 30
14.335257 -6.834762 72.196579 36 35 31
14.349496 -6.685765 72.268288 36 36 32
14.363058 -6.536151 72.336594 35 35 32
14.375910 -6.385926 72.401321 35 34 32
14.388017 -6.235100 72.462296 35 33 32
14.399350 -6.083684 72.519371 34 32 32
14.409880 -5.931691 72.572395 32 30 30
14.419581 -5.779138 72.621262 31 29 29
14.428436 -5.626044 72.665855 30 28 28
14.436427 -5.472430 72.706100 30 27 29
14.443542 -5.318320 72.741936 31 28 29
14.449778 -5.163741 72.773338 32 30 30
14.455132 -5.008722 72.800308 34 32 32
14.459617 -4.853294 72.822891 35 33 32
14.463240 -4.697489 72.841133 36 34 33
14.466021 -4.541341 72.855141 38 35 35
14.467985 -4.384885 72.865036 40 36 36
14.469161 -4.228156 72.870956 40 36 36
14.469580 -4.071189 72.873062 40 35 35
14.469275 -3.914017 72.871536 38 34 32
14.468288 -3.756674 72.866562 36 32 31
14.466652 -3.599191 72.858322 35 30 31
14.464405 -3.441598 72.847000 34 28 29
14.461582 -3.283924 72.832794 31 27 28
14.458220 -3.126194 72.815857 30 26 27
14.454349 -2.968433 72.796356 29 25 25
14.450001 -2.810663 72.774460 29 24 25
14.445204 -2.652904 72.750305 29 25 25
14.439990 -2.495178 72.724045 28 25 25
14.434384 -2.337502 72.695816 28 24 25
14.428414 -2.179892 72.665749 28 24 24
14.422111 -2.022365 72.633995 27 24 24
14.415504 -1.864936 72.600731 26 23 23
14.408628 -1.707619 72.566093 25 22 23
14.401511 -1.550425 72.530258 25 22 22
14.394194 -1.393365 72.493401 26 22 23
14.386710 -1.236451 72.455711 26 22 23
14.379093 -1.079689 72.417351 26 23 23
14.371379 -0.923086 72.378502 26 23 23
14.363599 -0.766647 72.339317 26 23 23
14.355777 -0.610375 72.299919 26 23 22
14.347935 -0.454273 72.260429 26 23 22
14.340088 -0.298340 72.220909 26 24 22
14.332242 -0.142578 72.181396 27 25 23
14.324397 0.013013 72.141884 27 25 22
14.316539 0.168434 72.102303 27 25 22
14.308651 0.323684 72.062584 26 25 22
14.300704 0.478761 72.022560 26 24 22
14.292665 0.633661 71.982071 25 23 21
14.284492 0.788379 71.940903 25 22 20
14.276137 0.942907 71.898834 24 21 19
14.267555 1.097237 71.855614 24 20 19
14.258696 1.251356 71.810989 24 21 20
14.249509 1.405250 71.764725 24 23 22
14.239949 1.558904 71.716583 25 24 24
14.229976 1.712301 71.666351 25 24 24
14.219553 1.865422 71.613861 24 23 22
14.208652 2.018249 71.558952 24 23 21
14.197250 2.170763 71.501534 23 22 19
14.185339 2.322945 71.441544 22 21 18
14.172914 2.474780 71.378967 21 20 18
14.159980 2.626250 71.313835 21 20 17
14.146552 2.777342 71.246201 21 20 17
14.132654 2.928046 71.176208 22 21 18
14.118315 3.078351 71.103996 23 21 19
14.103572 3.228252 71.029739 24 22 20
14.088469 3.377748 70.953674 24 22 21
14.073052 3.526836 70.876038 24 22 21
14.057377 3.675523 70.797089 24 22 22
14.041499 3.823814 70.717125 24 22 22
14.025481 3.971720 70.636452 24 22 22
14.009384 4.119255 70.555382 24 23 22
13.993277 4.266438 70.474258 23 22 22
13.977224 4.413288 70.393425 23 23 22
13.961301 4.559832 70.313225 23 22 21
13.945577 4.706097 70.234032 23 21 21
13.930123 4.852115 70.156204 22 21 20
13.915013 4.997921 70.080109 21 21 20
13.900321 5.143554 70.006111 20 20 19
13.886116 5.289053 69.934570 19 20 19
13.872467 5.434461 69.865829 19 20 19
13.859439 5.579823 69.800217 20 20 19
13.847094 5.725185 69.738045 21 20 19
13.835485 5.870591 69.679581 21 20 20
13.824661 6.016087 69.625069 22 20 20
13.814664 6.161716 69.574715 22 20 20
13.805523 6.307519 69.528687 22 21 19
13.797263 6.453536 69.487083 22 21 19
13.789897 6.599801 69.449982 22 21 20
13.783425 6.746344 69.417389 21 20 20
13.777842 6.893191 69.389275 21 21 19
13.773130 7.040363 69.365547 21 20 19
13.769264 7.187873 69.346069 22 21 19
13.766210 7.335732 69.330688 22 21 19
13.763923 7.483942 69.319168 22 22 19
13.762352 7.632500 69.311264 22 22 19
13.761445 7.781399 69.306694 22 22 19
13.761139 7.930624 69.305145 22 22 19
13.761369 8.080158 69.306305 21 21 19
13.762068 8.229978 69.309830 20 21 19
13.763167 8.380055 69.315361 19 20 19
13.764594 8.530360 69.322548 19 20 18
13.766282 8.680861 69.331055 18 19 18
13.768159 8.831519 69.340508 17 19 17
13.770161 8.982299 69.350586 17 18 17
13.772223 9.133162 69.360970 18 18 18
13.774285 9.284072 69.371361 18 18 18
13.776297 9.434991 69.381485 19 19 19
13.778209 9.585884 69.391121 20 20 20
13.779982 9.736721 69.400047 21 20 20
13.781584 9.887474 69.408119 21 20 20
13.782993 10.038120 69.415215 21 20 19
13.784197 10.188646 69.421280 21 20 18
13.785193 10.339043 69.426300 20 19 17
13.785994 10.489311 69.430328 19 18 16
13.786617 10.639461 69.433464 17 17 15
13.787099 10.789513 69.435890 16 17 15
13.787481 10.939496 69.437820 16 17 15
13.787826 11.089458 69.439552 17 18 16
13.788197 11.239449 69.441422 18 18 16
13.788675 11.389536 69.443832 18 19 16
13.789351 11.539799 69.447227 18 19 15
13.790318 11.690325 69.452110 18 18 15
13.791685 11.841213 69.458992 17 18 14
13.793561 11.992574 69.468437 17 18 15
13.796058 12.144523 69.481010 17 18 15
13.799292 12.297182 69.497299 17 17 15
13.941387 -10.618291 69.458847 23 18 18
13.964425 -10.485861 69.573631 23 19 19
13.987537 -10.352990 69.688782 25 21 21
14.010661 -10.219631 69.803986 24 21 20
14.033734 -10.085740 69.918945 22 20 19
14.056704 -9.951280 70.033379 22 20 19
14.079518 -9.816217 70.147049 22 21 20
14.102136 -9.680530 70.259735 23 22 21
14.124520 -9.544199 70.371254 23 23 22
14.146643 -9.407213 70.481476 23 23 22
14.168478 -9.269565 70.590263 24 24 23
14.190011 -9.131252 70.697540 24 24 24
14.211226 -8.992276 70.803246 24 25 23
14.232112 -8.852639 70.907303 24 25 23
14.252661 -8.712348 71.009682 25 26 24
14.272863 -8.571407 71.110329 26 26 24
14.292708 -8.429823 71.209206 27 27 25
14.312187 -8.287599 71.306252 28 27 25
14.331285 -8.144740 71.401398 28 27 25
14.349982 -8.001248 71.494553 28 26 24
14.368262 -7.857126 71.585632 27 26 24
14.386100 -7.712374 71.674500 27 27 24
14.403466 -7.566992 71.761024 28 28 25
14.420333 -7.420979 71.845055 29 29 25
14.436666 -7.274335 71.926430 30 30 27
14.452428 -7.127059 72.004959 32 32 29
14.467586 -6.979153 72.080475 34 34 29
14.482099 -6.830617 72.152786 35 34 30
14.495933 -6.681456 72.221710 35 35 31
14.509048 -6.531674 72.287056 35 34 31
14.521409 -6.381280 72.348640 35 34 32
14.532983 -6.230282 72.406303 35 33 32
14.543738 -6.078694 72.459885 34 33 32
14.553648 -5.926530 72.509262 33 31 31
14.562687 -5.773808 72.554291 32 30 29
14.570839 -5.620551 72.594910 31 29 28
14.578090 -5.466779 72.631035 30 28 28
14.584431 -5.312521 72.662628 31 28 28
14.589862 -5.157805 72.689682 33 30 30
14.594391 -5.002663 72.712250 35 32 31
14.598028 -4.847128 72.730370 35 32 32
14.600794 -4.691234 72.744148 37 33 34
14.602712 -4.535018 72.753708 39 35 36
14.603814 -4.378516 72.759193 41 36 38
14.604134 -4.221764 72.760788 43 38 39
14.603712 -4.064799 72.758690 42 37 38
14.602588 -3.907655 72.753082 40 35 35
14.600803 -3.750365 72.744194 38 33 33
14.598401 -3.592962 72.732224 36 31 32
14.595421 -3.435474 72.717377 35 30 31
14.591902 -3.277930 72.699852 32 28 29
14.587883 -3.120354 72.679825 30 27 27
14.583395 -2.962769 72.657463 30 25 26
14.578473 -2.805197 72.632942 29 25 25
14.573144 -2.647656 72.606392 29 25 25
14.567437 -2.490166 72.577957 29 25 25
14.561379 -2.332742 72.547783 29 25 25
14.554998 -2.175400 72.515991 29 24 25
14.548322 -2.018153 72.482719 27 24 25
14.541378 -1.861017 72.448128 27 23 24
14.534199 -1.704001 72.412361 26 22 23
14.526814 -1.547118 72.375565 25 22 22
14.519258 -1.390377 72.337914 26 22 22
14.511561 -1.233786 72.299576 26 22 23
14.503762 -1.077354 72.260719 26 22 23
14.495887 -0.921083 72.221481 26 22 23
14.487967 -0.764980 72.182022 26 22 22
14.480026 -0.609046 72.142464 26 23 22
14.472084 -0.453282 72.102890 26 24 21
14.464149 -0.297690 72.063362 26 24 21
14.456231 -0.142267 72.023911 27 25 22
14.448323 0.012985 71.984505 27 25 22
14.440412 0.168067 71.945091 27 25 22
14.432479 0.322979 71.905571 26 25 22
14.424492 0.477719 71.865776 26 24 22
14.416419 0.632283 71.825554 25 23 21
14.408214 0.786667 71.784676 25 22 20
14.399832 0.940863 71.742912 24 21 20
14.391223 1.094861 71.700020 24 20 20
14.382338 1.248651 71.655754 23 21 20
14.373128 1.402218 71.609871 24 22 21
14.363545 1.555547 71.562126 24 23 22
14.353552 1.708621 71.512337 23 23 22
14.343109 1.861422 71.460312 23 23 22
14.332190 2.013932 71.405907 23 23 20
14.320773 2.166133 71.349030 23 22 19
14.308849 2.318006 71.289619 22 21 18
14.296412 2.469533 71.227654 21 20 17
14.283470 2.620702 71.163177 21 20 17
14.270038 2.771497 71.096252 21 20 17
14.256137 2.921907 71.027000 22 21 18
14.241799 3.071925 70.955566 23 21 19
14.227062 3.221544 70.882141 24 22 19
14.211967 3.370762 70.806938 25 23 20
14.196565 3.519579 70.730194 24 22 21
14.180908 3.668000 70.652191 24 22 22
14.165054 3.816031 70.573204 24 23 22
14.149064 3.963684 70.493538 24 22 22
14.133001 4.110972 70.413513 23 22 22
14.116935 4.257914 70.333466 22 22 21
14.100929 4.404530 70.253723 22 22 20
14.085059 4.550845 70.174652 22 22 20
14.069394 4.696889 70.096611 21 21 20
14.054008 4.842691 70.019951 21 21 20
