ply
format ascii 1.0
element vertex 1200
property float x
property float y
property float z
property uchar red
property uchar green
property uchar blue
end_header
4.787023 -13.144520 67.069023 120 113 124
4.783881 -12.991410 67.025017 118 112 123
4.780463 -12.837748 66.977119 117 111 123
4.776761 -12.683538 66.925262 115 108 120
4.772771 -12.528796 66.869362 113 106 119
4.768493 -12.373548 66.809425 115 106 120
4.763930 -12.217826 66.745483 118 108 122
4.759087 -12.061671 66.677635 121 110 124
4.753974 -11.905132 66.606003 123 113 125
4.748604 -11.748266 66.530762 125 115 127
4.742992 -11.591134 66.452133 128 118 127
4.737158 -11.433804 66.370392 131 121 129
4.731121 -11.276342 66.285812 134 123 130
4.724903 -11.118821 66.198692 137 124 132
4.718528 -10.961309 66.109375 139 125 134
4.712020 -10.803878 66.018196 141 127 137
4.705403 -10.646593 65.925491 143 127 138
4.698699 -10.489515 65.831573 143 126 137
4.691935 -10.332707 65.736794 141 125 135
4.685130 -10.176220 65.641449 133 118 128
4.678305 -10.020103 65.545837 124 109 118
4.671481 -9.864397 65.450218 123 109 117
4.664674 -9.709141 65.354858 131 117 124
4.657902 -9.554366 65.259972 139 125 133
4.651178 -9.400099 65.165764 143 130 138
4.644515 -9.246358 65.072411 145 132 140
4.637923 -9.093161 64.980057 146 132 142
4.631413 -8.940518 64.888847 146 132 143
4.624991 -8.788437 64.798874 146 132 143
4.618663 -8.636919 64.710220 145 132 143
4.612433 -8.485963 64.622925 144 133 143
4.606303 -8.335565 64.537033 144 134 143
4.600272 -8.185714 64.452545 143 134 143
4.594340 -8.036399 64.369431 143 135 143
4.588502 -7.887605 64.287643 143 135 144
4.582754 -7.739316 64.207108 142 133 144
4.577088 -7.591509 64.127724 137 128 142
4.571496 -7.444165 64.049370 130 119 136
4.565967 -7.297260 63.971909 125 111 131
4.560490 -7.150771 63.895176 123 106 128
4.555053 -7.004673 63.819004 122 103 126
4.549644 -6.858945 63.743206 123 101 126
4.544247 -6.713564 63.667599 118 94 119
4.538851 -6.568509 63.592003 97 73 96
4.533443 -6.423763 63.516232 70 48 68
4.528010 -6.279309 63.440113 67 47 64
4.522541 -6.135135 63.363483 96 78 93
4.517026 -5.991229 63.286217 127 110 123
4.511456 -5.847586 63.208172 140 123 135
4.505824 -5.704200 63.129265 144 126 137
4.500124 -5.561072 63.049419 147 128 138
4.494356 -5.418205 62.968601 147 126 138
4.488517 -5.275602 62.886787 146 124 136
4.482608 -5.133273 62.804001 148 125 136
4.476633 -4.991227 62.720287 148 123 136
4.470598 -4.849476 62.635731 147 121 135
4.464509 -4.708034 62.550426 148 122 137
4.458377 -4.566915 62.464512 150 125 139
4.452211 -4.426133 62.378128 150 125 138
4.446025 -4.285704 62.291454 149 125 137
4.439830 -4.145640 62.204659 149 124 136
4.433640 -4.005955 62.117935 150 125 137
4.427470 -3.866661 62.031483 152 128 139
4.421331 -3.727766 61.945469 153 130 141
4.415237 -3.589278 61.860092 154 132 142
4.409200 -3.451203 61.775505 154 134 144
4.403230 -3.313544 61.691868 154 135 146
4.397337 -3.176301 61.609310 153 137 148
4.391530 -3.039472 61.527943 155 141 152
4.385814 -2.903055 61.447865 157 146 157
4.380196 -2.767045 61.369144 159 149 160
4.374678 -2.631435 61.291836 162 154 164
4.369263 -2.496217 61.215969 165 156 167
4.363953 -2.361382 61.141579 167 158 169
4.358750 -2.226924 61.068684 170 160 172
4.353655 -2.092831 60.997299 168 159 170
4.348670 -1.959095 60.927441 165 156 168
4.343794 -1.825707 60.859135 164 155 168
4.339031 -1.692657 60.792404 162 152 168
4.334383 -1.559937 60.727287 159 148 165
4.329854 -1.427536 60.663834 157 144 164
4.325449 -1.295445 60.602100 158 144 164
4.321170 -1.163656 60.542160 165 147 167
4.317024 -1.032156 60.484077 167 145 165
4.313017 -0.900935 60.427925 167 141 160
4.309153 -0.769983 60.373787 168 138 156
4.305436 -0.639285 60.321716 169 135 153
4.301872 -0.508830 60.271778 165 128 146
4.298462 -0.378605 60.224007 150 112 128
4.295208 -0.248594 60.178413 127 89 104
4.292109 -0.118783 60.134998 114 76 91
4.289163 0.010840 60.093727 123 86 100
4.286366 0.140290 60.054535 148 113 125
4.283711 0.269581 60.017345 167 132 144
4.281193 0.398723 59.982056 169 136 148
4.278800 0.527729 59.948524 165 133 146
4.276523 0.656608 59.916630 163 131 145
4.274352 0.785369 59.886208 161 131 146
4.272275 0.914020 59.857113 160 131 146
4.270282 1.042565 59.829182 158 131 146
4.268361 1.171009 59.802269 155 131 145
4.266502 1.299357 59.776230 155 131 144
4.264697 1.427610 59.750935 156 134 145
4.262935 1.555770 59.726257 156 136 146
4.261210 1.683838 59.702084 156 138 146
4.259513 1.811813 59.678303 159 140 149
4.257837 1.939696 59.654823 162 143 152
4.256175 2.067485 59.631542 165 144 154
4.254520 2.195176 59.608356 166 142 155
4.252864 2.322767 59.585155 159 134 148
4.251200 2.450253 59.561832 134 110 123
4.249517 2.577628 59.538258 95 74 86
4.247807 2.704883 59.514294 68 50 59
4.246059 2.832011 59.489815 63 47 56
4.244265 2.959000 59.464668 66 51 59
4.242413 3.085838 59.438721 65 52 58
4.240494 3.212514 59.411839 62 51 55
4.238501 3.339016 59.383915 58 48 52
4.236426 3.465331 59.354851 55 46 49
4.234267 3.591449 59.324596 52 43 47
4.232021 3.717359 59.293125 48 41 45
4.229690 3.843057 59.260464 45 40 43
4.227278 3.968539 59.226673 44 38 41
4.224794 4.093804 59.191868 43 37 40
4.222248 4.218858 59.156200 43 36 39
4.219655 4.343710 59.119869 43 36 39
4.217031 4.468371 59.083103 42 35 38
4.214393 4.592860 59.046146 40 35 36
4.211761 4.717196 59.009277 38 34 35
4.209155 4.841403 58.972759 36 32 34
4.206593 4.965503 58.936859 32 31 31
4.204092 5.089524 58.901825 29 29 28
4.201668 5.213490 58.867867 26 27 26
4.199335 5.337422 58.835171 24 25 24
4.197101 5.461345 58.803875 21 23 22
4.194973 5.585273 58.774059 20 20 19
4.192953 5.709220 58.745762 19 20 18
4.191040 5.833192 58.718952 19 19 18
4.189228 5.957194 58.693565 19 19 18
4.187508 6.081220 58.669468 18 19 18
4.185868 6.205261 58.646496 18 18 18
4.184294 6.329301 58.624439 18 18 18
4.182769 6.453323 58.603073 18 17 18
4.181274 6.577302 58.582142 19 17 18
4.179792 6.701209 58.561378 19 16 19
4.178305 6.825017 58.540531 19 16 19
4.176793 6.948695 58.519341 19 16 18
4.175240 7.072213 58.497593 19 16 18
4.173633 7.195543 58.475071 19 16 17
4.171958 7.318658 58.451611 19 16 17
4.170207 7.441535 58.427071 19 17 17
4.168372 7.564155 58.401367 18 17 17
4.166449 7.686501 58.374428 17 17 16
4.164438 7.808566 58.346249 16 17 15
4.162339 7.930341 58.316841 16 16 15
4.160155 8.051826 58.286247 15 16 14
4.157893 8.173024 58.254551 14 15 13
4.155558 8.293941 58.221836 15 15 14
4.153158 8.414586 58.188213 16 16 15
4.150702 8.534969 58.153801 17 17 16
4.148197 8.655104 58.118710 19 19 18
4.955653 -15.823728 67.396133 130 95 112
4.954935 -15.676172 67.386368 130 95 112
4.954178 -15.528539 67.376076 130 95 112
4.953380 -15.380821 67.365227 132 96 112
4.952537 -15.233010 67.353752 133 97 113
4.951640 -15.085086 67.341560 135 99 114
4.950681 -14.937026 67.328514 139 101 116
4.949648 -14.788805 67.314476 144 103 118
4.948530 -14.640387 67.299255 146 104 119
4.947310 -14.491740 67.282677 146 103 118
4.945973 -14.342825 67.264496 143 102 116
4.944502 -14.193601 67.244476 136 98 111
4.942877 -14.044029 67.222389 124 91 102
4.941082 -13.894071 67.197968 107 79 90
4.939095 -13.743686 67.170944 95 72 82
4.936899 -13.592842 67.141083 99 81 91
4.934476 -13.441510 67.108139 112 99 109
4.931811 -13.289665 67.071892 120 111 121
4.928888 -13.137288 67.032127 121 114 124
4.925694 -12.984370 66.988693 118 113 123
4.922219 -12.830909 66.941444 117 111 122
4.918457 -12.676908 66.890274 115 109 120
4.914402 -12.522383 66.835129 114 108 120
4.910054 -12.367357 66.775993 116 109 121
4.905416 -12.211864 66.712914 120 111 124
4.900493 -12.055942 66.645958 123 113 125
4.895295 -11.899640 66.575272 126 116 127
4.889834 -11.743012 66.501007 128 118 128
4.884127 -11.586121 66.423393 130 120 128
4.878192 -11.429029 66.342682 132 122 129
4.872049 -11.271805 66.259140 134 123 130
4.865722 -11.114519 66.173080 137 125 132
4.859232 -10.957238 66.084824 140 126 135
4.852605 -10.800032 65.994698 142 127 137
4.845864 -10.642964 65.903023 144 127 138
4.839034 -10.486099 65.810135 144 127 138
4.832138 -10.329494 65.716347 142 125 136
4.825198 -10.173201 65.621971 137 120 130
4.818237 -10.017268 65.527298 131 115 123
4.811272 -9.861738 65.432579 130 114 121
4.804323 -9.706648 65.338074 134 119 125
4.797406 -9.552028 65.243996 139 124 130
4.790534 -9.397903 65.150543 143 127 135
4.783721 -9.244296 65.057892 146 130 139
4.776978 -9.091220 64.966194 147 131 141
4.770314 -8.938687 64.875557 147 131 141
4.763736 -8.786704 64.786095 146 131 141
4.757249 -8.635272 64.697876 145 130 140
4.750858 -8.484391 64.610954 144 131 140
4.744564 -8.334055 64.525352 144 132 140
4.738366 -8.184257 64.441071 144 132 140
4.732265 -8.034983 64.358086 144 133 141
4.726254 -7.886220 64.276344 144 133 143
4.720331 -7.737951 64.195786 142 131 144
4.714486 -7.590157 64.116302 134 123 138
4.708712 -7.442817 64.037773 124 111 130
4.702999 -7.295910 63.960075 119 104 125
4.697334 -7.149412 63.883038 117 100 123
4.691706 -7.003301 63.806499 114 96 120
4.686103 -6.857556 63.730293 115 95 119
4.680510 -6.712154 63.654232 115 94 116
4.674915 -6.567077 63.578136 101 80 100
4.669304 -6.422307 63.501831 76 56 74
4.663666 -6.277829 63.425152 71 52 68
4.657989 -6.133630 63.347942 97 80 93
4.652262 -5.989700 63.270061 127 111 122
4.646477 -5.846033 63.191387 141 124 134
4.640627 -5.702624 63.111828 145 128 137
4.634707 -5.559475 63.031315 149 130 140
4.628713 -5.416587 62.949799 150 129 141
4.622644 -5.273965 62.867268 149 127 139
4.616502 -5.131616 62.783733 149 125 138
4.610290 -4.989552 62.699245 147 122 137
4.604012 -4.847784 62.613869 146 120 136
4.597677 -4.706325 62.527710 146 120 136
4.591293 -4.565189 62.440903 146 122 137
4.584872 -4.424391 62.353577 147 123 137
4.578426 -4.283947 62.265911 148 124 138
4.571968 -4.143868 62.178074 149 125 138
4.565511 -4.004170 62.090260 150 126 139
4.559069 -3.864864 62.002655 151 128 140
4.552657 -3.725959 61.915455 152 130 142
4.546288 -3.587465 61.828838 154 132 142
4.539975 -3.449386 61.742973 154 134 144
4.533728 -3.311726 61.658020 154 136 147
4.527559 -3.174486 61.574120 154 138 150
4.521476 -3.037667 61.491394 156 142 154
4.515487 -2.901264 61.409946 157 146 158
4.509598 -2.765273 61.329849 159 150 160
4.503813 -2.629689 61.251179 163 155 163
4.498136 -2.494504 61.173977 166 158 166
4.492570 -2.359710 61.098278 166 158 166
4.487117 -2.225298 61.024117 167 159 167
4.481779 -2.091260 60.951515 166 158 166
4.476557 -1.957586 60.880501 165 156 165
4.471454 -1.824266 60.811100 164 155 166
4.466472 -1.691291 60.743340 161 151 166
4.461613 -1.558652 60.677269 158 148 164
4.456882 -1.426338 60.612934 157 145 164
4.452283 -1.294340 60.550385 157 144 164
4.447821 -1.162647 60.489697 162 146 165
4.443500 -1.031249 60.430927 164 145 164
4.439325 -0.900134 60.374153 164 141 160
4.435301 -0.769290 60.319431 164 138 156
4.431433 -0.638704 60.266827 166 134 153
4.427724 -0.508363 60.216385 165 130 148
4.424176 -0.378253 60.168125 159 121 139
4.420789 -0.248361 60.122063 145 107 123
4.417562 -0.118671 60.078182 126 88 103
4.414493 0.010830 60.036446 119 81 95
4.411577 0.140155 59.996784 139 101 114
4.408807 0.269319 59.959114 164 127 139
4.406176 0.398333 59.923325 170 134 146
4.403673 0.527208 59.889286 165 129 143
4.401289 0.655953 59.856865 161 126 140
4.399013 0.784579 59.825909 158 126 140
4.396832 0.913090 59.796261 158 127 142
4.394739 1.041495 59.767784 157 128 143
4.392719 1.169796 59.740322 155 128 143
4.390765 1.297998 59.713745 154 128 142
4.388866 1.426104 59.687920 153 130 141
4.387014 1.554115 59.662727 153 132 142
4.385201 1.682032 59.638065 155 136 145
4.383418 1.809856 59.613831 159 140 149
4.381660 1.937586 59.589924 161 142 152
4.379919 2.065221 59.566242 162 143 154
4.378188 2.192758 59.542690 163 142 156
4.376457 2.320195 59.519161 156 133 149
4.374719 2.447526 59.495525 128 106 121
4.372965 2.574745 59.471664 89 68 83
4.371183 2.701844 59.447430 67 48 61
4.369363 2.828815 59.422684 64 48 60
4.367495 2.955646 59.397274 66 52 61
4.365567 3.082325 59.371048 64 52 59
4.363568 3.208839 59.343868 61 50 56
4.361490 3.335176 59.315613 57 47 52
4.359326 3.461322 59.286179 53 44 49
4.357070 3.587266 59.255505 50 42 46
4.354721 3.712998 59.223553 47 40 44
4.352280 3.838510 59.190350 44 39 42
4.349751 3.963800 59.155952 42 37 40
4.347141 4.088866 59.120464 42 37 40
4.344462 4.213712 59.084038 42 36 39
4.341730 4.338346 59.046871 42 35 38
4.338959 4.462781 59.009186 42 35 38
4.336169 4.587034 58.971245 41 35 36
4.333379 4.711123 58.933308 39 34 35
4.330610 4.835073 58.895649 36 32 33
4.327882 4.958905 58.858540 33 31 31
4.325212 5.082647 58.822231 29 29 28
4.322617 5.206322 58.786934 26 27 26
4.320109 5.329953 58.752838 23 25 24
4.317701 5.453562 58.720081 21 23 22
4.315397 5.577166 58.688751 20 21 20
4.313201 5.700777 58.658890 20 20 19
4.311112 5.824403 58.630474 20 20 18
4.309124 5.948046 58.603436 19 19 18
4.307228 6.071703 58.577656 19 18 17
4.305413 6.195365 58.552975 18 17 17
4.303665 6.319018 58.529194 17 17 16
4.301966 6.442644 58.506088 17 16 16
4.300299 6.566217 58.483414 18 16 16
4.298644 6.689713 58.460915 18 16 17
4.296985 6.813104 58.438351 18 15 17
4.295302 6.936360 58.415466 19 15 17
4.293581 7.059454 58.392059 19 15 17
4.291806 7.182358 58.367924 18 15 17
4.289967 7.305047 58.342899 18 16 17
4.288052 7.427498 58.316860 18 16 17
4.286057 7.549694 58.289722 17 16 16
4.283976 7.671622 58.261433 16 16 15
4.281810 7.793272 58.231979 15 16 14
4.279561 7.914640 58.201385 15 15 13
4.277231 8.035727 58.169701 15 16 13
4.274827 8.156534 58.137009 16 16 14
4.272356 8.277070 58.103401 17 16 15
4.269825 8.397345 58.068985 18 17 16
4.267244 8.517369 58.033875 19 18 17
5.098181 -15.815182 67.359734 127 94 111
5.097374 -15.667497 67.349075 129 96 112
5.096536 -15.519762 67.337997 129 96 113
5.095663 -15.371970 67.326462 131 97 114
5.094751 -15.224112 67.314415 133 98 114
5.093793 -15.076169 67.301758 136 99 115
5.092779 -14.928116 67.288353 139 101 117
5.091697 -14.779926 67.274063 144 103 119
5.090535 -14.631564 67.258698 145 104 119
5.089275 -14.482993 67.242065 144 103 117
5.087902 -14.334174 67.223923 141 102 115
5.086398 -14.185065 67.204041 134 98 110
5.084742 -14.035626 67.182167 119 88 98
5.082916 -13.885817 67.158043 102 75 85
5.080900 -13.735596 67.131409 95 74 83
5.078675 -13.584930 67.102005 103 87 97
5.076221 -13.433788 67.069588 116 104 114
5.073523 -13.282146 67.033936 121 113 123
5.070565 -13.129982 66.994850 122 116 125
5.067333 -12.977287 66.952156 119 114 124
5.063818 -12.824059 66.905701 116 111 121
5.060010 -12.670299 66.855400 116 110 121
5.055906 -12.516021 66.801170 116 111 121
5.051505 -12.361249 66.743019 119 112 123
5.046808 -12.206015 66.680962 122 114 125
5.041821 -12.050354 66.615074 125 116 127
5.036554 -11.894318 66.545494 127 118 128
5.031020 -11.737955 66.472366 130 120 129
5.025234 -11.581328 66.395920 131 122 129
5.019214 -11.424499 66.316376 133 123 129
5.012981 -11.267534 66.234032 135 124 129
5.006558 -11.110500 66.149162 137 125 131
4.999967 -10.953467 66.062080 140 126 134
4.993234 -10.796501 65.973122 142 127 136
4.986382 -10.639666 65.882591 143 127 137
4.979437 -10.483023 65.790825 144 126 137
4.972421 -10.326630 65.698128 143 124 135
4.965358 -10.170539 65.604805 140 122 132
4.958268 -10.014796 65.511131 137 119 126
4.951171 -9.859446 65.417366 136 118 125
4.944087 -9.704521 65.323761 138 120 126
4.937030 -9.550055 65.230522 139 122 128
4.930016 -9.396072 65.137856 143 126 133
4.923057 -9.242592 65.045906 146 129 137
4.916165 -9.089632 64.954842 147 130 140
4.909348 -8.937201 64.864777 146 130 140
4.902614 -8.785307 64.775795 145 129 139
4.895967 -8.633951 64.687981 145 128 138
4.889412 -8.483133 64.601379 145 129 138
4.882951 -8.332849 64.516006 146 130 139
4.876584 -8.183089 64.431877 146 131 139
4.870308 -8.033844 64.348961 146 131 140
4.864121 -7.885098 64.267212 146 132 143
4.858016 -7.736837 64.186546 142 127 141
4.851987 -7.589043 64.106895 129 114 130
4.846025 -7.441695 64.028122 115 100 119
4.840121 -7.294773 63.950108 111 95 116
4.834262 -7.148255 63.872704 110 94 116
4.828438 -7.002121 63.795750 108 90 113
4.822634 -6.856348 63.719070 109 91 112
4.816839 -6.710917 63.642498 111 92 112
4.811038 -6.565809 63.565857 103 84 102
4.805220 -6.421007 63.488983 82 65 80
4.799371 -6.276497 63.411697 77 60 74
4.793480 -6.132267 63.333866 101 84 96
4.787537 -5.988307 63.255341 129 112 123
4.781532 -5.844610 63.176010 142 125 135
4.775459 -5.701174 63.095772 146 129 139
4.769312 -5.557997 63.014553 149 131 141
4.763088 -5.415082 62.932312 150 131 142
4.756784 -5.272435 62.849030 150 128 141
4.750403 -5.130062 62.764713 149 126 140
4.743947 -4.987974 62.679405 148 122 138
4.737421 -4.846182 62.593182 145 118 135
4.730832 -4.704700 62.506130 142 116 132
4.724190 -4.563542 62.418377 142 117 132
4.717507 -4.422723 62.330070 144 120 134
4.710793 -4.282258 62.241367 146 122 136
4.704063 -4.142160 62.152447 148 124 137
4.697331 -4.002444 62.063496 149 126 139
4.690611 -3.863122 61.974709 151 128 141
4.683918 -3.724203 61.886272 152 130 143
4.677265 -3.585697 61.798378 153 131 143
4.670667 -3.447611 61.711205 154 133 145
4.664136 -3.309947 61.624916 154 135 148
4.657684 -3.172709 61.539658 154 138 151
4.651319 -3.035896 61.455563 157 142 155
4.645051 -2.899506 61.372742 159 147 159
4.638885 -2.763535 61.291286 162 152 162
4.632830 -2.627976 61.211273 166 158 165
4.626887 -2.492823 61.132755 167 159 166
4.621062 -2.358069 61.055790 167 158 164
4.615356 -2.223705 60.980412 167 158 165
4.609774 -2.089721 60.906651 166 157 164
4.604316 -1.956108 60.834541 163 154 163
4.598986 -1.822857 60.764118 162 153 164
4.593786 -1.689957 60.695412 161 151 165
4.588720 -1.557398 60.628471 158 148 164
4.583790 -1.425171 60.563343 157 146 163
4.579002 -1.293265 60.500076 157 145 163
4.574359 -1.161668 60.438736 159 145 163
4.569867 -1.030369 60.379383 160 143 161
4.565530 -0.899357 60.322075 161 140 158
4.561351 -0.768619 60.266865 162 138 155
4.557335 -0.638142 60.213802 164 135 153
4.553485 -0.507912 60.162930 166 132 150
4.549801 -0.377915 60.114258 165 129 146
4.546284 -0.248137 60.067787 159 120 137
4.542932 -0.118563 60.023495 141 102 117
4.539741 0.010820 59.981335 124 85 99
4.536705 0.140026 59.941235 133 94 108
4.533819 0.269067 59.903099 157 119 131
4.531074 0.397957 59.866829 166 128 140
4.528460 0.526706 59.832283 162 125 138
4.525966 0.655323 59.799335 159 123 136
4.523582 0.783817 59.767834 157 122 136
4.521296 0.912195 59.737633 156 123 138
4.519097 1.040463 59.708584 156 125 140
4.516976 1.168626 59.680553 155 125 140
4.514922 1.296687 59.653416 152 125 139
4.512926 1.424650 59.627045 151 126 138
4.510980 1.552516 59.601330 152 129 140
4.509075 1.680286 59.576168 155 135 144
4.507205 1.807963 59.551464 159 140 149
4.505363 1.935544 59.527119 159 141 151
4.503541 2.063029 59.503040 159 141 152
4.501730 2.190417 59.479122 161 141 156
4.499924 2.317704 59.455261 152 131 148
4.498113 2.444885 59.431324 120 99 116
4.496286 2.571954 59.407188 81 61 78
4.494432 2.698902 59.382694 65 47 62
4.492540 2.825721 59.357697 65 50 63
4.490597 2.952399 59.332031 66 52 63
4.488592 3.078924 59.305534 63 51 60
4.486513 3.205281 59.278069 59 49 56
4.484350 3.331458 59.249493 55 46 51
4.482095 3.457440 59.219692 51 43 48
4.479742 3.583216 59.188602 48 41 45
4.477288 3.708774 59.156178 45 39 43
4.474734 3.834106 59.122437 43 38 41
4.472084 3.959208 59.087421 41 37 40
4.469346 4.084078 59.051239 41 36 39
4.466530 4.208720 59.014046 41 36 39
4.463653 4.333141 58.976021 41 35 38
4.460730 4.457353 58.937408 42 35 38
4.457781 4.581371 58.898441 41 35 37
4.454826 4.705216 58.859406 39 33 35
4.451887 4.828909 58.820572 36 32 33
4.448983 4.952474 58.782207 33 31 31
4.446135 5.075936 58.744564 30 29 28
4.443357 5.199319 58.707870 27 27 26
4.440665 5.322648 58.672302 24 26 24
4.438070 5.445941 58.638020 22 24 22
4.435579 5.569217 58.605103 21 23 20
4.433195 5.692489 58.573605 21 21 19
4.430917 5.815763 58.543503 20 20 18
4.428740 5.939044 58.514744 19 18 17
4.426656 6.062328 58.487206 19 17 16
4.424653 6.185606 58.460743 18 17 15
4.422717 6.308867 58.435162 17 16 14
4.420832 6.432090 58.410252 17 16 14
4.418979 6.555254 58.385773 17 15 15
4.417141 6.678335 58.361485 18 15 16
4.415299 6.801306 58.337151 18 15 16
4.413436 6.924139 58.312538 18 14 16
4.411536 7.046806 58.287434 18 14 16
4.409585 7.169282 58.261658 17 15 16
4.407572 7.291543 58.235054 17 15 16
4.405486 7.413569 58.207500 17 15 16
4.403323 7.535343 58.178921 16 15 15
4.401079 7.656853 58.149269 15 14 14
4.398754 7.778091 58.118542 14 15 13
4.396348 7.899053 58.086758 14 15 13
4.393867 8.019741 58.053986 15 16 13
4.391317 8.140159 58.020294 16 16 14
4.388706 8.260316 57.985790 17 17 16
4.386041 8.380221 57.950573 19 17 17
4.383330 8.499887 57.914764 19 18 18
5.240381 -15.806116 67.321121 125 93 109
5.239484 -15.658315 67.309601 127 95 111
5.238563 -15.510490 67.297768 129 97 113
5.237616 -15.362641 67.285599 131 97 114
5.236637 -15.214753 67.273033 133 98 115
5.235620 -15.066809 67.259964 136 100 117
5.234554 -14.918781 67.246277 140 102 118
5.233428 -14.770641 67.231804 143 104 118
5.232226 -14.622355 67.216370 144 104 118
5.230934 -14.473884 67.199768 143 104 117
5.229533 -14.325184 67.181763 140 102 114
5.228004 -14.176217 67.162117 131 96 107
5.226326 -14.026937 67.140579 114 84 94
5.224481 -13.877303 67.116867 99 74 82
5.222447 -13.727276 67.090744 98 78 87
5.220204 -13.576817 67.061928 110 95 103
5.217733 -13.425896 67.030182 120 109 118
5.215017 -13.274487 66.995285 123 115 124
5.212039 -13.122568 66.957024 123 117 126
5.208785 -12.970130 66.915222 121 116 126
5.205244 -12.817165 66.869743 118 114 123
5.201408 -12.663677 66.820465 116 113 122
5.197272 -12.509680 66.767334 118 114 124
5.192835 -12.355194 66.710320 120 116 125
5.188097 -12.200248 66.649460 122 118 127
5.183065 -12.044881 66.584816 125 119 129
5.177747 -11.889135 66.516502 128 121 130
5.172157 -11.733066 66.444679 131 123 131
5.166309 -11.576729 66.369553 133 124 131
5.160221 -11.420186 66.291344 135 125 130
5.153914 -11.263502 66.210327 136 126 130
5.147412 -11.106743 66.126785 138 126 131
5.140736 -10.949975 66.041023 140 126 133
5.133911 -10.793265 65.953346 141 126 135
5.126963 -10.636677 65.864090 143 126 135
5.119915 -10.480268 65.773537 143 126 135
5.112791 -10.324099 65.682022 143 124 134
5.105614 -10.168217 65.589828 142 123 132
5.098405 -10.012671 65.497223 140 121 128
5.091186 -9.857502 65.404472 139 120 125
5.083972 -9.702745 65.311806 138 120 124
5.076783 -9.548432 65.219444 138 119 125
5.069631 -9.394588 65.127563 141 123 130
5.062529 -9.241232 65.036331 145 128 136
5.055490 -9.088380 64.945900 147 130 139
5.048521 -8.936044 64.856369 146 129 139
5.041629 -8.784228 64.767845 145 127 139
5.034822 -8.632937 64.680382 144 126 138
5.028101 -8.482171 64.594048 145 127 138
5.021469 -8.331924 64.508850 148 129 140
5.014926 -8.182190 64.424805 150 130 141
5.008471 -8.032958 64.341873 148 130 141
5.002100 -7.884217 64.260025 146 128 140
4.995807 -7.735950 64.179184 138 120 134
4.989586 -7.588140 64.099266 120 104 119
4.983429 -7.440771 64.020172 106 89 107
4.977326 -7.293821 63.941761 103 86 106
4.971266 -7.147272 63.863911 104 87 107
4.965237 -7.001101 63.786453 103 86 106
4.959226 -6.855290 63.709236 105 88 107
4.953220 -6.709819 63.632084 109 92 109
4.947208 -6.564672 63.554844 105 88 104
4.941175 -6.419830 63.477337 91 74 88
4.935108 -6.275280 63.399406 86 70 83
4.928998 -6.131012 63.320908 105 89 100
4.922832 -5.987015 63.241699 130 114 124
4.916602 -5.843283 63.161663 142 126 136
4.910300 -5.699812 63.080708 146 129 139
4.903921 -5.556603 62.998753 149 130 141
4.897460 -5.413657 62.915752 150 130 142
4.890916 -5.270980 62.831684 150 128 141
4.884289 -5.128578 62.746555 150 126 140
4.877583 -4.986461 62.660400 148 123 138
4.870801 -4.844642 62.573284 143 117 133
4.863953 -4.703133 62.485306 138 113 128
4.857047 -4.561949 62.396580 137 113 126
4.850093 -4.421104 62.307247 140 116 129
4.843105 -4.280614 62.217476 143 121 132
4.836096 -4.140493 62.127434 146 124 136
4.829081 -4.000755 62.037312 148 126 138
4.822074 -3.861414 61.947308 150 128 141
4.815093 -3.722479 61.857620 151 129 143
4.808151 -3.583960 61.768433 152 130 143
4.801262 -3.445864 61.679939 153 133 145
4.794440 -3.308196 61.592304 154 135 148
4.787698 -3.170958 61.505688 156 138 152
4.781046 -3.034151 61.420227 158 142 157
4.774493 -2.897773 61.336048 162 148 161
4.768049 -2.761820 61.253258 166 154 165
4.761718 -2.626287 61.171936 171 160 169
4.755508 -2.491168 61.092155 171 160 168
4.749422 -2.356454 61.013969 168 158 165
4.743464 -2.222138 60.937435 168 158 166
4.737638 -2.088209 60.862587 166 156 164
4.731946 -1.954659 60.789463 161 152 162
4.726392 -1.821476 60.718109 161 152 163
4.720977 -1.688652 60.648556 161 152 166
4.715707 -1.556175 60.580841 159 149 164
4.710583 -1.424034 60.515026 157 147 163
4.705611 -1.292219 60.451149 157 146 163
4.700794 -1.160717 60.389263 158 145 162
4.696136 -1.029517 60.329426 159 142 160
4.691642 -0.898606 60.271690 160 141 158
4.687314 -0.767972 60.216091 162 140 155
4.683156 -0.637600 60.162674 164 137 153
4.679169 -0.507477 60.111458 167 135 152
4.675354 -0.377589 60.062450 169 134 150
4.671710 -0.247921 60.015636 166 129 144
4.668235 -0.118459 59.970993 152 113 128
4.664924 0.010810 59.928459 133 93 108
4.661771 0.139901 59.887955 133 93 107
4.658770 0.268826 59.849392 150 110 123
4.655910 0.397597 59.812653 159 120 132
4.653182 0.526224 59.777611 158 120 132
4.650576 0.654718 59.744137 156 120 131
4.648081 0.783086 59.712078 154 119 131
4.645686 0.911335 59.681309 153 120 133
4.643380 1.039472 59.651684 154 122 135
4.641152 1.167500 59.623070 153 122 136
4.638994 1.295425 59.595348 151 122 135
4.636898 1.423249 59.568409 150 124 136
4.634853 1.550974 59.542145 152 128 139
4.632854 1.678603 59.516464 155 134 144
4.630893 1.806135 59.491272 157 138 148
4.628963 1.933572 59.466476 156 138 149
4.627056 2.060912 59.441982 156 139 151
4.625165 2.188155 59.417690 158 140 155
4.623281 2.315296 59.393486 147 129 145
4.621394 2.442331 59.369244 112 92 110
4.619493 2.569253 59.344822 76 57 76
4.617566 2.696056 59.320061 65 47 65
4.615600 2.822727 59.294807 66 51 65
4.613582 2.949257 59.268883 65 52 63
4.611499 3.075632 59.242123 62 51 59
4.609338 3.201837 59.214363 58 48 54
4.607088 3.327858 59.185459 53 45 49
4.604740 3.453680 59.155296 49 43 46
4.602287 3.579291 59.123779 46 41 43
4.599725 3.704679 59.090874 44 39 42
4.597055 3.829835 59.056576 42 37 41
4.594281 3.954753 59.020931 40 36 40
4.591409 4.079431 58.984039 40 36 39
4.588452 4.203871 58.946049 40 35 38
4.585423 4.328080 58.907143 40 35 38
4.582342 4.452071 58.867561 41 35 37
4.579227 4.575856 58.827541 41 34 37
4.576099 4.699457 58.787365 39 32 35
4.572981 4.822894 58.747299 37 31 34
4.569892 4.946190 58.707626 34 31 31
4.566855 5.069372 58.668598 31 29 29
4.563884 5.192462 58.630440 29 28 27
4.560997 5.315485 58.593342 26 26 25
4.558203 5.438459 58.557457 23 25 23
4.555512 5.561404 58.522888 22 23 21
4.552927 5.684331 58.489674 21 22 19
4.550447 5.807250 58.457809 20 20 18
4.548068 5.930164 58.427250 20 18 16
4.545782 6.053070 58.397884 19 17 15
4.543578 6.175960 58.369572 18 16 14
4.541442 6.298822 58.342133 17 16 13
4.539358 6.421640 58.315357 17 15 14
4.537308 6.544392 58.289028 17 15 14
4.535275 6.667055 58.262905 18 15 15
4.533240 6.789603 58.236767 18 15 16
4.531187 6.912009 58.210388 18 14 16
4.529100 7.034249 58.183575 17 14 16
4.526964 7.156298 58.156143 17 14 16
4.524769 7.278132 58.127945 17 14 15
4.522507 7.399735 58.098881 16 14 15
4.520170 7.521089 58.068863 15 14 14
4.517757 7.642183 58.037861 14 14 14
4.515266 7.763011 58.005867 13 14 13
4.512701 7.883571 57.972912 13 15 13
4.510067 8.003865 57.939060 15 15 13
4.507367 8.123897 57.904381 16 16 14
4.504612 8.243677 57.868988 17 16 16
4.501809 8.363215 57.832977 18 17 17
5.382218 -15.796477 67.280067 123 92 107
5.381230 -15.648572 67.267723 125 94 109
5.380228 -15.500678 67.255196 128 96 112
5.379208 -15.352786 67.242439 130 97 113
5.378165 -15.204887 67.229408 133 98 115
5.377093 -15.056961 67.216003 137 100 117
5.375980 -14.908979 67.202095 140 102 118
5.374815 -14.760913 67.187523 142 104 119
5.373581 -14.612724 67.172104 143 104 119
5.372263 -14.464375 67.155624 142 104 117
5.370842 -14.315822 67.137856 139 102 114
5.369297 -14.167021 67.118553 127 94 104
5.367609 -14.017926 67.097450 109 81 90
5.365756 -13.868498 67.074287 99 75 83
5.363716 -13.718691 67.048782 104 86 93
5.361469 -13.568470 67.020699 117 103 111
5.358994 -13.417801 66.989769 124 114 122
5.356275 -13.266656 66.955765 124 118 126
5.353292 -13.115015 66.918480 123 118 126
5.350033 -12.962864 66.877739 121 118 126
5.346484 -12.810196 66.833382 119 116 124
5.342638 -12.657014 66.785301 118 115 124
5.338489 -12.503328 66.733429 121 118 127
5.334033 -12.349158 66.677734 123 120 128
5.329273 -12.194532 66.618240 124 120 129
5.324214 -12.039487 66.555000 125 122 130
5.318865 -11.884064 66.488121 128 122 130
5.313237 -11.728314 66.417770 131 124 131
5.307344 -11.572293 66.344116 134 126 132
5.301208 -11.416061 66.267403 136 127 131
5.294845 -11.259681 66.187866 137 128 131
5.288280 -11.103218 66.105797 139 128 132
5.281535 -10.946736 66.021484 140 127 133
5.274634 -10.790300 65.935226 141 127 134
5.267604 -10.633973 65.847343 143 127 134
5.260467 -10.477813 65.758125 144 126 134
5.253248 -10.321876 65.667885 145 125 133
5.245969 -10.166213 65.576897 145 124 132
5.238653 -10.010870 65.485443 143 122 128
5.231318 -9.855886 65.393753 140 120 124
5.223985 -9.701301 65.302078 137 117 121
5.216668 -9.547140 65.210617 136 117 121
5.209383 -9.393432 65.119553 140 121 128
5.202142 -9.240195 65.029037 146 128 136
5.194956 -9.087445 64.939217 148 130 140
5.187836 -8.935194 64.850212 146 128 140
5.180787 -8.783448 64.762093 143 125 138
5.173815 -8.632212 64.674942 142 123 136
5.166925 -8.481483 64.588814 145 125 137
5.160118 -8.331261 64.503716 151 129 142
5.153393 -8.181538 64.419662 153 131 144
5.146751 -8.032305 64.336632 151 129 142
5.140188 -7.883551 64.254593 144 123 135
5.133699 -7.735262 64.173477 130 109 123
5.127278 -7.587423 64.093208 109 90 105
5.120916 -7.440017 64.013687 95 76 94
5.114605 -7.293026 63.934792 95 77 95
5.108334 -7.146431 63.856400 100 81 101
5.102090 -7.000212 63.778355 102 83 102
5.095863 -6.854351 63.700512 105 86 103
5.089640 -6.708831 63.622715 110 92 107
5.083406 -6.563633 63.544792 111 94 107
5.077150 -6.418743 63.466591 102 85 98
5.070859 -6.274147 63.387951 97 81 93
5.064522 -6.129833 63.308727 111 94 105
5.058126 -5.985792 63.228783 131 115 124
5.051664 -5.842019 63.148006 142 126 134
5.045127 -5.698510 63.066288 146 129 138
5.038509 -5.555263 62.983559 148 130 140
5.031806 -5.412282 62.899761 150 130 141
5.025015 -5.269569 62.814873 150 129 141
5.018137 -5.127134 62.728893 150 127 139
5.011174 -4.984986 62.641861 148 123 137
5.004132 -4.843135 62.553829 143 118 132
4.997017 -4.701596 62.464890 136 111 124
4.989839 -4.560382 62.375156 131 107 119
4.982609 -4.419509 62.284779 135 112 123
4.975339 -4.278992 62.193905 141 120 129
4.968045 -4.138846 62.102722 145 124 134
4.960741 -3.999085 62.011414 148 126 138
4.953442 -3.859723 61.920181 150 128 140
4.946166 -3.720770 61.829231 151 129 143
4.938928 -3.582237 61.738743 152 130 144
4.931743 -3.444132 61.648930 153 133 146
4.924625 -3.306458 61.559956 155 136 150
4.917589 -3.169221 61.472000 157 139 154
4.910645 -3.032421 61.385201 160 143 158
4.903806 -2.896056 61.299706 164 147 161
4.897079 -2.760123 61.215618 167 153 165
4.890473 -2.624617 61.133041 173 160 171
4.883994 -2.489532 61.052052 175 163 172
4.877647 -2.354861 60.972717 171 158 168
4.871439 -2.220594 60.895103 167 156 165
4.865371 -2.086722 60.819256 164 153 163
4.859448 -1.953236 60.745216 161 151 162
4.853673 -1.820124 60.673027 161 151 163
4.848049 -1.687376 60.602726 161 151 166
4.842580 -1.554981 60.534359 158 148 164
4.837269 -1.422927 60.467968 157 146 163
4.832119 -1.291202 60.403595 157 145 162
4.827135 -1.159795 60.341286 158 144 162
4.822319 -1.028692 60.281082 159 144 160
4.817674 -0.897881 60.223026 160 143 158
4.813204 -0.767347 60.167145 162 142 156
4.808910 -0.637078 60.113468 165 140 154
4.804793 -0.507060 60.062008 167 138 153
4.800853 -0.377276 60.012749 168 136 150
4.797087 -0.247715 59.965675 166 132 146
4.793492 -0.118360 59.920742 160 122 137
4.790064 0.010801 59.877888 144 105 120
4.786795 0.139782 59.837025 136 96 110
4.783678 0.268596 59.798061 143 103 116
4.780704 0.397253 59.760880 152 112 124
4.777862 0.525764 59.725353 154 117 127
4.775142 0.654140 59.691353 152 116 125
4.772533 0.782386 59.658741 149 115 124
4.770025 0.910512 59.627388 149 116 127
4.767607 1.038522 59.597160 151 118 130
4.765269 1.166421 59.567944 150 119 132
4.763003 1.294213 59.539616 149 120 132
4.760801 1.421903 59.512085 150 122 133
4.758654 1.549492 59.485245 151 127 137
4.756556 1.676982 59.459019 154 132 142
4.754499 1.804375 59.433308 155 136 145
4.752477 1.931672 59.408035 153 136 146
4.750483 2.058871 59.383102 154 137 149
4.748507 2.185972 59.358414 157 139 153
4.746542 2.312971 59.333847 143 125 142
4.744576 2.439864 59.309273 105 87 105
4.742599 2.566644 59.284550 73 55 74
4.740596 2.693304 59.259510 66 49 67
4.738553 2.819832 59.233978 67 52 67
4.736457 2.946217 59.207783 64 52 63
4.734294 3.072445 59.180737 60 50 58
4.732049 3.198501 59.152668 56 47 53
4.729709 3.324369 59.123421 51 44 47
4.727265 3.450036 59.092869 48 42 44
4.724709 3.575485 59.060913 45 40 42
4.722035 3.700706 59.027500 43 38 41
4.719245 3.825688 58.992622 41 37 41
4.716341 3.950424 58.956322 40 36 40
4.713331 4.074911 58.918694 39 35 39
4.710226 4.199152 58.879875 38 35 38
4.707040 4.323151 58.840054 39 34 38
4.703793 4.446920 58.799458 40 34 37
4.700503 4.570474 58.758339 40 33 37
4.697194 4.693830 58.716969 39 32 36
4.693887 4.817009 58.675625 37 31 34
4.690604 4.940037 58.634590 35 30 31
4.687366 5.062936 58.594112 32 30 29
4.684191 5.185730 58.554428 30 29 27
4.681096 5.308444 58.515732 27 27 25
4.678091 5.431096 58.478176 25 25 23
4.675187 5.553705 58.441872 24 23 22
4.672387 5.676285 58.406876 22 22 20
4.669692 5.798843 58.373184 21 20 18
4.667098 5.921385 58.340755 20 19 16
4.664597 6.043908 58.309498 19 17 15
4.662179 6.166406 58.279274 18 16 14
4.659831 6.288867 58.249912 18 16 14
4.657536 6.411275 58.221230 17 15 14
4.655278 6.533611 58.193005 17 16 15
4.653039 6.655853 58.165016 18 16 15
4.650802 6.777977 58.137051 18 15 16
4.648550 6.899957 58.108891 18 15 16
4.646266 7.021770 58.080353 18 15 17
4.643939 7.143392 58.051262 17 15 17
4.641557 7.264802 58.021484 16 15 15
4.639112 7.385984 57.990913 15 15 15
4.636597 7.506921 57.959476 15 14 14
4.634010 7.627604 57.927139 14 14 13
4.631351 7.748028 57.893906 13 14 13
4.628623 7.868189 57.859798 13 15 12
4.625830 7.988093 57.824894 14 16 13
4.622979 8.107744 57.789253 15 16 13
4.620078 8.227153 57.752991 16 16 14
5.522586 -15.638235 67.223289 123 92 107
5.521504 -15.490288 67.210114 126 93 109
5.520413 -15.342375 67.196838 129 95 111
5.519311 -15.194485 67.183411 132 98 114
5.518188 -15.046598 67.169746 136 100 116
5.517033 -14.898685 67.155693 139 102 118
5.515834 -14.750714 67.141098 141 103 119
5.514576 -14.602648 67.125778 142 104 119
5.513240 -14.454445 67.109520 142 105 118
5.511807 -14.306062 67.092087 137 102 114
5.510258 -14.157453 67.073219 123 92 102
5.508570 -14.008572 67.052673 106 80 89
5.506721 -13.859375 67.030167 102 80 88
5.504688 -13.709819 67.005424 111 94 101
5.502450 -13.559863 66.978188 123 111 118
5.499988 -13.409475 66.948204 127 118 126
5.497279 -13.258626 66.915237 125 119 127
5.494309 -13.107293 66.879082 123 119 126
5.491061 -12.955461 66.839539 120 118 125
5.487522 -12.803122 66.796471 119 117 124
5.483684 -12.650276 66.749748 120 117 126
5.479539 -12.496934 66.699295 123 121 130
5.475085 -12.343112 66.645088 125 123 132
5.470323 -12.188836 66.587120 125 123 132
5.465257 -12.034142 66.525452 126 124 132
5.459896 -11.879069 66.460182 128 124 131
5.454249 -11.723667 66.391457 131 126 131
5.448333 -11.567989 66.319450 134 127 132
5.442166 -11.412094 66.244370 136 128 132
5.435766 -11.256042 66.166473 137 129 131
5.429156 -11.099895 66.086014 139 129 132
5.422360 -10.943720 66.003288 140 128 132
5.415401 -10.787577 65.918587 141 128 132
5.408304 -10.631527 65.832199 143 127 133
5.401093 -10.475629 65.744423 145 127 134
5.393793 -10.319938 65.655556 147 127 135
5.386425 -10.164503 65.565872 148 126 133
5.379011 -10.009370 65.475632 145 123 129
5.371572 -9.854579 65.385078 142 121 125
5.364126 -9.700165 65.294434 139 118 122
5.356688 -9.546158 65.203903 136 116 121
5.349275 -9.392584 65.113663 140 121 128
5.341898 -9.239462 65.023872 147 129 137
5.334569 -9.086807 64.934662 149 131 142
5.327297 -8.934633 64.846138 147 128 141
5.320088 -8.782947 64.758392 141 123 136
5.312950 -8.631751 64.671501 140 120 134
5.305884 -8.481049 64.585495 144 122 137
5.298895 -8.330836 64.500427 151 128 143
5.291983 -8.181108 64.416290 155 131 145
5.285146 -8.031858 64.333061 151 128 141
5.278383 -7.883078 64.250740 139 115 129
5.271688 -7.734751 64.169243 120 96 110
5.265056 -7.586867 64.088516 98 76 91
5.258479 -7.439409 64.008453 87 66 82
5.251949 -7.292362 63.928970 91 71 87
5.245456 -7.145707 63.849934 99 79 95
5.238988 -6.999428 63.771210 103 83 99
5.232534 -6.853505 63.692650 108 88 103
5.226082 -6.707923 63.614105 116 96 109
5.219618 -6.562666 63.535427 120 101 113
5.213130 -6.417717 63.456451 114 96 107
5.206606 -6.273066 63.377037 107 90 100
5.200033 -6.128700 63.297028 115 98 108
5.193400 -5.984610 63.216293 132 115 124
5.186698 -5.840790 63.134716 142 127 134
5.179919 -5.697236 63.052189 145 130 138
5.173055 -5.553947 62.968643 147 130 139
5.166102 -5.410926 62.884010 149 130 140
5.159058 -5.268176 62.798264 150 130 141
5.151922 -5.125705 62.711407 149 128 139
5.144697 -4.983521 62.623455 148 125 136
5.137387 -4.841637 62.534481 144 120 132
5.130000 -4.700066 62.444557 134 110 121
5.122544 -4.558821 62.353802 127 104 113
5.115032 -4.417919 62.262356 132 110 118
5.107475 -4.277373 62.170376 141 120 127
5.099889 -4.137201 62.078037 145 125 133
5.092290 -3.997417 61.985538 148 127 137
5.084694 -3.858033 61.893078 150 128 140
5.077119 -3.719064 61.800865 151 128 142
5.069580 -3.580517 61.709099 152 131 145
5.062094 -3.442403 61.617981 154 134 149
5.054677 -3.304726 61.527699 157 137 153
5.047344 -3.167491 61.438435 159 140 156
5.040107 -3.030699 61.350342 162 144 160
5.032979 -2.894349 61.263573 165 148 163
5.025969 -2.758438 61.178249 170 152 166
5.019088 -2.622962 61.094486 177 160 173
5.012341 -2.487914 61.012363 180 163 176
5.005737 -2.353287 60.931973 171 156 167
4.999279 -2.219072 60.853371 162 148 160
4.992974 -2.085259 60.776619 160 148 160
4.986825 -1.951838 60.701763 160 149 162
4.980834 -1.818799 60.628849 160 149 163
4.975008 -1.686128 60.557922 158 148 164
4.969347 -1.553816 60.489017 155 145 162
4.963855 -1.421849 60.422173 155 144 161
4.958536 -1.290215 60.357430 156 144 161
4.953393 -1.158901 60.294815 158 145 161
4.948427 -1.027895 60.234367 160 145 161
4.943640 -0.897181 60.176109 161 145 159
4.939036 -0.766747 60.120064 163 144 157
4.934614 -0.636578 60.066235 165 143 155
4.930374 -0.506660 60.014622 166 141 153
4.926314 -0.376978 59.965202 166 138 150
4.922431 -0.247518 59.917942 165 134 147
4.918722 -0.118265 59.872791 164 130 143
4.915180 0.010792 59.829674 153 116 130
4.911798 0.139669 59.788502 139 101 115
4.908566 0.268376 59.749172 137 99 112
4.905477 0.396925 59.711571 145 107 118
4.902520 0.525326 59.675571 150 113 122
4.899684 0.653588 59.641052 148 112 120
4.896959 0.781719 59.607883 145 110 119
4.894334 0.909726 59.575935 147 114 123
4.891800 1.037614 59.545090 150 118 128
4.889348 1.165389 59.515240 150 118 129
4.886969 1.293054 59.486279 148 118 129
4.884655 1.420614 59.458118 149 121 131
4.882401 1.548070 59.430676 151 126 135
4.880198 1.675427 59.403862 152 130 139
4.878041 1.802684 59.377605 153 133 142
4.875922 1.929844 59.351814 153 135 145
4.873835 2.056906 59.326412 156 138 150
4.871771 2.183868 59.301289 157 139 153
4.869721 2.310729 59.276329 139 121 137
4.867672 2.437483 59.251396 100 82 100
4.865614 2.564124 59.226337 71 54 72
4.863531 2.690644 59.200981 66 50 67
4.861409 2.817031 59.175152 67 53 67
4.859232 2.943274 59.148651 64 52 63
4.856984 3.069358 59.121288 60 49 57
4.854650 3.195268 59.092884 55 46 50
4.852217 3.320987 59.063267 49 42 45
4.849673 3.446499 59.032291 47 40 42
4.847008 3.571790 58.999863 44 39 41
4.844219 3.696845 58.965912 42 37 40
4.841303 3.821654 58.930416 41 36 40
4.838264 3.946209 58.893425 40 35 40
4.835109 4.070507 58.855015 39 35 39
4.831848 4.194548 58.815327 38 34 38
4.828498 4.318338 58.774548 39 33 38
4.825076 4.441886 58.732895 40 33 38
4.821604 4.565207 58.690628 40 32 38
4.818103 4.688317 58.648014 39 32 36
4.814597 4.811239 58.605339 38 31 35
4.811109 4.933995 58.562874 36 30 33
4.807659 5.056609 58.520889 33 30 30
4.804268 5.179104 58.479610 31 29 27
4.800952 5.301505 58.439247 29 27 25
4.797724 5.423831 58.399956 27 25 24
4.794594 5.546102 58.361858 25 23 22
4.791567 5.668328 58.325008 24 22 20
4.788644 5.790523 58.289421 22 20 18
4.785821 5.912688 58.255066 21 19 17
4.783093 6.034824 58.221855 20 18 16
4.780448 6.156925 58.189667 19 17 15
4.777875 6.278980 58.158344 18 16 15
4.775359 6.400977 58.127708 18 16 15
4.772882 6.522895 58.097557 18 17 16
4.770427 6.644715 58.067680 18 17 16
4.767978 6.766414 58.037868 18 17 16
4.765518 6.887968 58.007923 19 17 17
4.763032 7.009355 57.977665 18 17 18
4.760507 7.130554 57.946930 18 16 17
4.757931 7.251542 57.915577 16 16 16
4.755298 7.372306 57.883526 15 15 15
4.752601 7.492831 57.850697 14 14 14
4.749837 7.613109 57.817059 14 13 13
4.747008 7.733133 57.782612 13 14 13
4.744114 7.852904 57.747395 14 15 13
4.741162 7.972424 57.711460 15 16 13
4.738158 8.091699 57.674885 15 16 14
4.735110 8.210741 57.637783 15 15 13
5.663527 -15.627280 67.176193 123 90 105
5.662367 -15.479300 67.162437 125 92 108
5.661211 -15.331389 67.148727 128 94 110
5.660052 -15.183531 67.134979 133 97 114
5.658883 -15.035705 67.121117 136 99 116
5.657693 -14.887882 67.107002 138 100 117
5.656468 -14.740031 67.092476 140 101 118
5.655193 -14.592111 67.077339 141 102 118
5.653848 -14.444079 67.061394 141 104 118
5.652414 -14.295891 67.044388 134 101 113
5.650870 -14.147499 67.026070 120 90 101
5.649192 -13.998857 67.006172 108 82 91
5.647359 -13.849918 66.984428 108 87 95
5.645347 -13.700639 66.960556 119 102 110
5.643133 -13.550978 66.934296 128 116 123
5.640696 -13.400901 66.905396 129 121 128
5.638016 -13.250376 66.873604 126 120 127
5.635074 -13.099380 66.838707 123 119 126
5.631855 -12.947897 66.800522 121 118 126
5.628344 -12.795917 66.758881 120 118 125
5.624532 -12.643438 66.713669 121 120 127
5.620411 -12.490468 66.664787 124 123 131
5.615979 -12.337024 66.612213 126 125 133
5.611234 -12.183128 66.555939 127 125 134
5.606181 -12.028814 66.496002 128 126 134
5.600827 -11.874121 66.432495 129 127 133
5.595183 -11.719094 66.365555 131 127 132
5.589264 -11.563786 66.295349 134 128 132
5.583086 -11.408252 66.222069 135 129 132
5.576669 -11.252550 66.145950 137 129 132
5.570034 -11.096745 66.067261 138 130 132
5.563205 -10.940895 65.986259 138 129 132
5.556205 -10.785063 65.903229 139 128 131
5.549058 -10.629309 65.818459 142 127 132
5.541789 -10.473688 65.732239 145 127 134
5.534421 -10.318255 65.644852 148 127 135
5.526977 -10.163058 65.556557 148 127 134
5.519479 -10.008144 65.467613 147 125 130
5.511945 -9.853550 65.378250 144 122 127
5.504395 -9.699312 65.288696 139 118 123
5.496844 -9.545460 65.199135 136 115 121
5.489307 -9.392017 65.109741 139 120 127
5.481798 -9.239006 65.020668 146 128 137
5.474326 -9.086442 64.932045 149 131 143
5.466902 -8.934337 64.843987 146 127 141
5.459532 -8.782699 64.756569 140 121 135
5.452222 -8.631534 64.669868 138 118 132
5.444978 -8.480844 64.583939 143 120 136
5.437800 -8.330627 64.498810 152 126 142
5.430692 -8.180881 64.414490 155 128 145
5.423651 -8.031599 64.330978 147 121 136
5.416677 -7.882773 64.248260 129 103 117
5.409765 -7.734394 64.166275 107 82 96
5.402911 -7.586449 64.084976 90 66 81
5.396107 -7.438924 64.004280 83 61 76
5.389347 -7.291805 63.924091 89 67 83
5.382620 -7.145077 63.844299 98 77 92
5.375916 -6.998723 63.764786 105 84 97
5.369224 -6.852726 63.685410 113 91 103
5.362532 -6.707071 63.606030 123 100 111
5.355826 -6.561744 63.526501 129 107 117
5.349096 -6.416728 63.446671 125 104 113
5.342328 -6.272013 63.366394 114 94 103
5.335511 -6.127587 63.285530 116 99 106
5.328632 -5.983440 63.203938 132 116 122
5.321682 -5.839568 63.121506 141 127 133
5.314652 -5.695964 63.038120 143 129 135
5.307535 -5.552630 62.953705 145 130 137
5.300326 -5.409565 62.868198 148 131 139
5.293022 -5.266775 62.781559 149 130 139
5.285622 -5.124265 62.693787 148 128 138
5.278128 -4.982045 62.604904 148 126 135
5.270545 -4.840126 62.514954 145 122 131
5.262879 -4.698521 62.424030 135 112 121
5.255140 -4.557244 62.332237 129 106 113
5.247340 -4.416312 62.239719 134 112 118
5.239491 -4.275740 62.146626 141 121 127
5.231610 -4.135542 62.053143 145 125 133
5.223711 -3.995735 61.959461 148 128 137
5.215814 -3.856332 61.865788 150 128 140
5.207935 -3.717347 61.772335 150 128 142
5.200093 -3.578789 61.679314 152 131 146
5.192304 -3.440668 61.586929 156 136 151
5.184586 -3.302990 61.495388 158 139 155
5.176954 -3.165760 61.404865 161 142 158
5.169424 -3.028979 61.315536 164 146 161
5.162006 -2.892648 61.227566 168 149 164
5.154716 -2.756762 61.141083 174 153 168
5.147560 -2.621319 61.056206 180 160 174
5.140549 -2.486311 60.973045 181 161 175
5.133689 -2.351731 60.891685 168 150 163
5.126988 -2.217571 60.812199 155 139 152
5.120450 -2.083820 60.734653 156 143 155
5.114080 -1.950467 60.659100 159 148 161
5.107882 -1.817501 60.585587 159 148 163
5.101860 -1.684910 60.514153 156 146 162
5.096015 -1.552681 60.444832 154 144 161
5.090353 -1.420802 60.377659 154 144 161
5.084873 -1.289258 60.312668 156 144 161
5.079579 -1.158038 60.249874 158 145 161
5.074472 -1.027126 60.189304 160 146 161
5.069554 -0.896508 60.130966 160 146 159
5.064824 -0.766170 60.074863 161 145 156
5.060282 -0.636098 60.020992 163 144 154
5.055926 -0.506277 59.969326 164 142 152
5.051754 -0.376692 59.919842 164 139 150
5.047761 -0.247330 59.872475 164 136 148
5.043941 -0.118175 59.827175 165 133 147
5.040289 0.010784 59.783852 157 123 137
5.036796 0.139561 59.742413 143 107 121
5.033452 0.268167 59.702755 136 99 112
5.030249 0.396614 59.664757 140 103 113
5.027175 0.524910 59.628304 144 109 118
5.024221 0.653065 59.593266 146 111 119
5.021377 0.781085 59.559528 146 111 119
5.018632 0.908978 59.526970 148 115 123
5.015978 1.036750 59.495487 151 118 127
5.013405 1.164405 59.464977 148 117 126
5.010908 1.291947 59.435352 147 117 126
5.008478 1.419381 59.406532 150 122 130
5.006109 1.546710 59.378437 152 126 134
5.003796 1.673936 59.350998 152 127 136
5.001532 1.801061 59.324146 152 130 139
4.999311 1.928088 59.297806 155 134 144
4.997126 2.055015 59.271881 160 140 152
4.994967 2.181842 59.246281 159 139 153
4.992826 2.308567 59.220879 136 116 132
4.990690 2.435185 59.195541 95 76 94
4.988545 2.561690 59.170109 68 51 69
4.986378 2.688072 59.144402 66 50 66
4.984171 2.814321 59.118221 67 53 67
4.981908 2.940424 59.091377 64 52 62
4.979571 3.066366 59.063660 60 50 56
4.977144 3.192131 59.034874 54 46 49
4.974612 3.317702 59.004837 49 42 44
4.971961 3.443061 58.973404 46 39 41
4.969184 3.568193 58.940460 43 38 39
4.966272 3.693084 58.905926 41 37 39
4.963225 3.817721 58.869778 40 36 39
4.960043 3.942096 58.832043 40 35 39
4.956736 4.066205 58.792809 39 34 39
4.953313 4.190047 58.752209 38 33 38
4.949790 4.313626 58.710419 39 32 38
4.946185 4.436953 58.667664 39 32 38
4.942520 4.560039 58.624191 39 32 38
4.938818 4.682903 58.580280 39 31 37
4.935102 4.805564 58.536213 38 31 35
4.931397 4.928046 58.492264 36 30 33
4.927725 5.050372 58.448711 34 29 31
4.924106 5.172565 58.405777 32 28 28
4.920557 5.294650 58.363686 30 27 26
4.917093 5.416647 58.322601 29 25 24
4.913724 5.538573 58.282639 27 23 23
4.910457 5.660444 58.243881 26 22 22
4.907292 5.782269 58.206345 24 21 20
