ply
format ascii 1.0
element vertex 1242
property float x
property float y
property float z
property uchar red
property uchar green
property uchar blue
end_header
5.899377 0.852284 64.988632 120 57 66
5.894973 0.991637 64.940109 119 56 66
5.890585 1.130784 64.891777 118 56 64
5.886238 1.269731 64.843887 116 55 62
5.881950 1.408486 64.796646 114 54 60
5.877738 1.547057 64.750244 112 53 59
5.873613 1.685453 64.704803 112 52 59
5.869585 1.823683 64.660431 112 53 59
5.865655 1.961755 64.617149 113 54 61
5.861825 2.099675 64.574944 114 55 63
5.858086 2.237449 64.533752 114 55 64
5.854427 2.375078 64.493446 114 55 65
5.850833 2.512561 64.453865 113 56 66
5.847287 2.649895 64.414795 112 56 65
5.843766 2.787072 64.376007 111 55 64
5.840246 2.924083 64.337234 110 54 63
5.836704 3.060915 64.298210 108 53 61
5.833115 3.197552 64.258675 108 52 60
5.829458 3.333981 64.218384 108 52 60
5.825710 3.470181 64.177101 110 53 61
5.821856 3.606138 64.134636 111 54 61
5.817879 3.741833 64.090836 112 54 62
5.813772 3.877252 64.045586 112 53 63
5.809528 4.012382 63.998833 112 54 63
5.805145 4.147211 63.950554 112 54 64
5.800627 4.281731 63.900776 110 54 64
5.795979 4.415938 63.849571 108 53 63
5.791210 4.549830 63.797039 106 51 62
5.786334 4.683408 63.743324 105 49 61
5.781363 4.816677 63.688568 104 48 60
5.776315 4.949642 63.632950 103 47 59
5.771204 5.082312 63.576656 102 47 59
5.766049 5.214700 63.519863 102 46 58
5.760866 5.346817 63.462765 102 46 57
5.755672 5.478677 63.405544 101 46 56
5.750483 5.610295 63.348385 100 46 55
5.745315 5.741688 63.291451 99 46 54
5.740184 5.872874 63.234928 98 45 53
5.735104 6.003869 63.178967 97 45 52
5.730091 6.134694 63.123737 95 44 51
5.725158 6.265369 63.069397 96 44 50
5.720320 6.395916 63.016102 96 44 51
5.715591 6.526359 62.964008 97 44 52
5.710985 6.656719 62.913269 98 44 53
5.706517 6.787024 62.864044 98 45 53
5.702199 6.917300 62.816479 99 46 53
5.698046 7.047574 62.770725 98 46 53
5.694070 7.177875 62.726929 97 45 52
5.690285 7.308232 62.685230 98 45 54
5.686702 7.438673 62.645756 99 47 55
5.683332 7.569229 62.608639 100 49 57
5.680185 7.699926 62.573975 101 50 59
5.677271 7.830794 62.541866 101 51 59
5.674595 7.961859 62.512390 100 52 59
5.672165 8.093147 62.485619 100 52 59
5.669984 8.224682 62.461590 99 51 59
5.668055 8.356483 62.440334 98 50 58
5.666377 8.488570 62.421856 98 48 57
5.664949 8.620958 62.406132 97 47 57
5.663769 8.753660 62.393124 95 46 56
5.662829 8.886684 62.382778 95 45 55
5.662124 9.020038 62.375004 94 45 55
5.661643 9.153719 62.369705 93 45 55
5.661376 9.287728 62.366760 92 45 55
5.661309 9.422059 62.366024 91 45 54
5.661429 9.556703 62.367352 91 45 53
5.661722 9.691647 62.370575 90 45 53
5.662171 9.826876 62.375523 89 46 53
5.662760 9.962373 62.382011 88 47 53
5.663473 10.098119 62.389870 88 47 53
5.664295 10.234095 62.398918 87 48 53
5.665209 10.370279 62.408989 86 48 53
5.666202 10.506653 62.419930 85 47 52
5.667262 10.643199 62.431602 83 45 50
5.668377 10.779902 62.443890 83 44 49
5.669540 10.916751 62.456707 84 43 49
5.670745 11.053735 62.469978 85 43 49
5.671988 11.190852 62.483677 85 43 49
5.673270 11.328104 62.497787 86 44 50
5.674592 11.465498 62.512348 86 44 50
5.675957 11.603045 62.527390 85 44 50
5.677374 11.740764 62.543003 83 44 49
5.678851 11.878675 62.559269 81 43 48
5.680397 12.016802 62.576302 81 42 47
5.682022 12.155171 62.594204 80 41 47
5.683735 12.293810 62.613083 79 41 48
5.685546 12.432742 62.633026 79 42 49
5.687459 12.571987 62.654102 79 42 49
5.689478 12.711558 62.676342 79 43 49
5.691601 12.851461 62.699730 79 44 49
5.693822 12.991689 62.724197 79 45 49
5.696130 13.132221 62.749622 79 46 50
5.698508 13.273027 62.775818 79 46 50
5.700933 13.414058 62.802536 78 45 49
5.703378 13.555249 62.829468 77 43 47
5.705809 13.696522 62.856239 77 42 46
5.708187 13.837786 62.882446 77 41 47
5.710473 13.978935 62.907627 79 43 49
5.712623 14.119855 62.931309 80 45 52
6.090023 -15.809994 65.532600 85 49 52
6.088231 -15.664116 65.513313 85 48 53
6.086298 -15.517965 65.492523 85 48 52
6.084248 -15.371605 65.470459 86 47 52
6.082098 -15.225092 65.447327 87 48 52
6.079868 -15.078478 65.423332 89 48 52
6.077571 -14.931806 65.398621 90 48 52
6.075222 -14.785109 65.373329 90 48 51
6.072826 -14.638413 65.347557 91 47 51
6.070393 -14.491735 65.321373 92 47 51
6.067923 -14.345085 65.294792 94 47 51
6.065416 -14.198464 65.267822 95 47 52
6.062873 -14.051874 65.240456 98 49 54
6.060290 -13.905312 65.212662 99 50 55
6.057665 -13.758774 65.184418 99 50 54
6.054997 -13.612260 65.155701 99 50 54
6.052285 -13.465771 65.126518 99 52 56
6.049529 -13.319312 65.096863 100 54 57
6.046734 -13.172897 65.066788 100 55 58
6.043907 -13.026543 65.036369 99 55 58
6.041058 -12.880271 65.005714 98 54 58
6.038200 -12.734113 64.974953 98 53 57
6.035348 -12.588101 64.944267 98 52 58
6.032522 -12.442274 64.913857 99 52 60
6.029743 -12.296674 64.883949 100 52 61
6.027033 -12.151342 64.854790 102 52 63
6.024418 -12.006326 64.826653 104 54 65
6.021924 -11.861668 64.799812 106 55 66
6.019574 -11.717407 64.774529 108 56 66
6.017396 -11.573586 64.751091 110 57 66
6.015413 -11.430238 64.729752 111 57 66
6.013650 -11.287393 64.710777 111 58 66
6.012127 -11.145074 64.694389 110 58 65
6.010864 -11.003303 64.680801 110 58 65
6.009878 -10.862090 64.670189 111 58 64
6.009182 -10.721443 64.662704 111 58 64
6.008790 -10.581362 64.658493 111 58 64
6.008710 -10.441841 64.657631 111 58 64
6.008949 -10.302870 64.660194 111 59 65
6.009508 -10.164431 64.666214 111 59 66
6.010391 -10.026505 64.675713 110 58 66
6.011595 -9.889067 64.688675 109 58 66
6.013118 -9.752089 64.705055 108 57 65
6.014953 -9.615541 64.724800 107 57 64
6.017093 -9.479386 64.747833 106 57 64
6.019529 -9.343594 64.774040 106 56 63
6.022249 -9.208120 64.803307 107 56 63
6.025239 -9.072930 64.835495 107 56 62
6.028485 -8.937980 64.870422 109 56 63
6.031968 -8.803224 64.907898 110 57 64
6.035668 -8.668617 64.947708 111 58 65
6.039561 -8.534113 64.989594 112 58 66
6.043620 -8.399659 65.033279 114 59 67
6.047817 -8.265204 65.078438 117 59 70
6.052119 -8.130697 65.124733 119 60 71
6.056491 -7.996082 65.171783 120 61 72
6.060895 -7.861307 65.219177 121 61 73
6.065292 -7.726317 65.266487 121 61 73
6.069640 -7.591063 65.313271 121 61 72
6.073899 -7.455496 65.359100 121 60 72
6.078026 -7.319574 65.403511 121 59 71
6.081984 -7.183261 65.446098 119 58 70
6.085736 -7.046526 65.486481 118 58 68
6.089250 -6.909346 65.524284 118 59 67
6.092498 -6.771708 65.559242 118 59 65
6.095459 -6.633607 65.591103 117 60 64
6.098118 -6.495047 65.619713 117 60 63
6.100466 -6.356039 65.644981 118 61 62
6.102501 -6.216604 65.666885 118 62 61
6.104229 -6.076769 65.685478 119 62 62
6.105660 -5.936564 65.700867 120 63 63
6.106810 -5.796026 65.713242 121 63 65
6.107698 -5.655193 65.722801 121 62 66
6.108350 -5.514105 65.729813 120 61 66
6.108788 -5.372799 65.734535 119 60 66
6.109041 -5.231314 65.737244 118 60 66
6.109132 -5.089683 65.738228 117 59 66
6.109087 -4.947937 65.737740 116 58 65
6.108926 -4.806102 65.736015 116 58 65
6.108671 -4.664203 65.733269 116 59 65
6.108336 -4.522256 65.729668 117 60 67
6.107936 -4.380278 65.725357 119 60 68
6.107477 -4.238278 65.720428 121 61 70
6.106969 -4.096265 65.714951 123 62 72
6.106413 -3.954246 65.708969 124 64 74
6.105810 -3.812223 65.702484 125 65 76
6.105160 -3.670200 65.695488 126 65 75
6.104459 -3.528178 65.687950 125 64 73
6.103704 -3.386158 65.679825 124 63 71
6.102890 -3.244142 65.671066 124 63 70
6.102011 -3.102130 65.661606 126 62 69
6.101063 -2.960126 65.651398 127 62 68
6.100038 -2.818130 65.640366 129 63 69
6.098930 -2.676145 65.628456 130 63 70
6.097734 -2.534175 65.615578 127 60 68
6.096442 -2.392223 65.601677 123 58 66
6.095047 -2.250293 65.586662 122 58 67
6.093540 -2.108389 65.570450 123 60 69
6.091914 -1.966516 65.552956 123 60 69
6.090160 -1.824681 65.534073 121 61 70
6.088267 -1.682888 65.513710 120 61 70
6.086227 -1.541146 65.491753 119 59 70
6.084029 -1.399462 65.468102 118 58 70
6.081665 -1.257846 65.442665 116 56 70
6.079125 -1.116307 65.415344 115 55 69
6.076405 -0.974858 65.386063 114 55 67
6.073496 -0.833508 65.354767 114 54 66
6.070398 -0.692272 65.321426 114 54 65
6.067109 -0.551162 65.286041 115 54 64
6.063633 -0.410192 65.248634 117 56 63
6.059976 -0.269376 65.209274 120 58 65
6.056147 -0.128725 65.168076 122 59 66
6.052159 0.011748 65.125160 122 58 65
6.048028 0.152032 65.080711 122 57 64
6.043773 0.292118 65.034920 121 57 65
6.039415 0.432000 64.988037 121 57 66
6.034980 0.571672 64.940300 120 57 67
6.030490 0.711132 64.891991 119 57 67
6.025972 0.850380 64.843376 118 56 67
6.021452 0.989417 64.794739 118 56 66
6.016954 1.128250 64.746338 117 55 65
6.012501 1.266883 64.698418 115 55 63
6.008113 1.405324 64.651199 114 55 62
6.003806 1.543583 64.604851 113 55 61
5.999594 1.681669 64.559532 112 55 61
5.995484 1.819590 64.515305 113 55 62
5.991480 1.957355 64.472221 114 56 63
5.987581 2.094971 64.430260 114 57 65
5.983779 2.232443 64.389359 115 57 66
5.980064 2.369772 64.349380 115 57 67
5.976420 2.506959 64.310165 113 57 67
5.972827 2.644000 64.271507 111 56 65
5.969265 2.780888 64.233162 110 55 64
5.965707 2.917613 64.194885 109 53 62
5.962130 3.054163 64.156387 108 52 60
5.958508 3.190523 64.117424 108 51 59
5.954820 3.326678 64.077728 109 52 60
5.951043 3.462610 64.037086 111 53 61
5.947159 3.598303 63.995293 112 54 62
5.943155 3.733740 63.952206 112 54 62
5.939019 3.868905 63.907703 111 53 61
5.934747 4.003787 63.861736 111 54 63
5.930336 4.138373 63.814274 112 56 65
5.925791 4.272657 63.765358 111 56 65
5.921115 4.406635 63.715050 108 55 63
5.916321 4.540304 63.663464 105 53 61
5.911420 4.673666 63.610725 103 50 60
5.906428 4.806726 63.556999 102 48 59
5.901359 4.939491 63.502453 101 48 58
5.896230 5.071969 63.447269 101 47 58
5.891060 5.204173 63.391632 101 46 57
5.885864 5.336113 63.335724 101 47 56
5.880661 5.467805 63.279728 101 47 55
5.875465 5.599264 63.223820 101 47 55
5.870293 5.730504 63.168167 100 47 54
5.865160 5.861543 63.112930 99 46 54
5.860080 5.992399 63.058266 98 46 53
5.855067 6.123089 63.004330 98 46 53
5.850136 6.253634 62.951263 98 46 53
5.845300 6.384054 62.899220 98 46 53
5.840571 6.514369 62.848343 98 46 53
5.835965 6.644604 62.798771 98 45 53
5.831493 6.774782 62.750652 99 47 54
5.827170 6.904929 62.704136 99 47 54
5.823009 7.035070 62.659355 98 46 53
5.819021 7.165233 62.616451 96 45 52
5.815221 7.295445 62.575554 97 45 53
5.811619 7.425735 62.536800 99 47 55
5.808227 7.556130 62.500294 100 49 57
5.805054 7.686658 62.466148 101 51 59
5.802108 7.817345 62.434452 102 52 59
5.799398 7.948218 62.405289 102 53 60
5.796929 8.079302 62.378719 101 52 60
5.794705 8.210618 62.354786 100 51 59
5.792728 8.342187 62.333515 99 49 58
5.790999 8.474028 62.314911 98 47 57
5.789516 8.606153 62.298958 96 46 56
5.788276 8.738577 62.285614 95 45 55
5.787274 8.871308 62.274834 94 45 55
5.786503 9.004351 62.266529 94 45 55
5.785952 9.137707 62.260605 93 45 54
5.785613 9.271375 62.256950 92 46 54
5.785471 9.405350 62.255428 92 45 54
5.785515 9.539624 62.255901 91 45 53
5.785729 9.674186 62.258209 90 46 53
5.786100 9.809021 62.262192 89 45 53
5.786610 9.944115 62.267685 88 46 52
5.787245 10.079449 62.274517 87 46 52
5.787989 10.215004 62.282520 87 47 51
5.788827 10.350764 62.291546 86 47 51
5.789747 10.486710 62.301441 84 45 49
5.790736 10.622824 62.312080 82 43 47
5.791784 10.759095 62.323360 82 41 47
5.792883 10.895511 62.335190 83 42 48
5.794028 11.032064 62.347511 84 42 48
5.795216 11.168754 62.360291 85 42 49
5.796447 11.305582 62.373531 85 43 50
5.797722 11.442555 62.387257 85 43 50
5.799048 11.579688 62.401524 85 43 50
5.800431 11.716999 62.416409 83 43 49
5.801881 11.854511 62.432014 81 43 48
5.803408 11.992249 62.448441 80 42 47
5.805022 12.130239 62.465809 79 41 46
5.806734 12.268510 62.484226 78 41 46
5.808551 12.407088 62.503788 78 41 47
5.810482 12.545994 62.524563 79 42 48
5.812529 12.685243 62.546589 78 43 48
5.814691 12.824841 62.569851 78 43 48
5.816961 12.964781 62.594284 78 44 48
5.819329 13.105044 62.619759 78 44 49
5.821776 13.245599 62.646091 78 44 49
5.824278 13.386395 62.673023 78 44 48
5.826807 13.527367 62.700230 78 43 47
5.829327 13.668435 62.727341 77 42 46
5.831797 13.809503 62.753922 77 41 46
5.834174 13.950464 62.779507 78 43 48
5.836413 14.091202 62.803600 79 47 52
6.214928 -15.768483 65.360542 85 48 52
6.213052 -15.622870 65.340813 85 47 52
6.211040 -15.477003 65.319649 85 47 52
6.208912 -15.330942 65.297272 85 46 52
6.206688 -15.184744 65.273888 86 46 52
6.204387 -15.038456 65.249680 87 46 52
6.202022 -14.892122 65.224808 89 47 52
6.199605 -14.745771 65.199394 90 46 51
6.197146 -14.599429 65.173531 91 46 51
6.194649 -14.453112 65.147278 93 46 52
6.192118 -14.306828 65.120651 95 46 52
6.189551 -14.160577 65.093658 96 46 52
6.186948 -14.014361 65.066284 99 49 55
6.184306 -13.868174 65.038490 101 50 55
6.181621 -13.722013 65.010262 100 50 54
6.178892 -13.575877 64.981560 100 50 54
6.176117 -13.429765 64.952377 102 52 56
6.173298 -13.283684 64.922729 102 54 58
6.170438 -13.137642 64.892647 101 55 58
6.167544 -12.991660 64.862213 100 55 57
6.164626 -12.845758 64.831528 99 54 56
6.161696 -12.699965 64.800720 99 52 56
6.158773 -12.554317 64.769974 99 52 57
6.155874 -12.408851 64.739479 100 52 59
6.153021 -12.263610 64.709488 102 53 60
6.150239 -12.118636 64.680229 104 54 63
6.147554 -11.973976 64.651985 106 55 64
6.144991 -11.829676 64.625038 108 55 65
6.142579 -11.685776 64.599663 110 56 65
6.140342 -11.542316 64.576141 111 57 65
6.138308 -11.399334 64.554749 112 58 65
6.136500 -11.256860 64.535736 112 58 65
6.134942 -11.114920 64.519348 112 58 65
6.133653 -10.973532 64.505798 112 58 64
6.132652 -10.832710 64.495262 112 58 64
6.131952 -10.692460 64.487907 112 58 64
6.131567 -10.552783 64.483856 112 58 64
6.131505 -10.413671 64.483200 112 58 63
6.131771 -10.275114 64.486000 112 58 63
6.132370 -10.137094 64.492294 111 58 63
6.133301 -9.999588 64.502090 110 58 63
6.134562 -9.862571 64.515350 108 57 64
6.136150 -9.726014 64.532051 107 56 64
6.138057 -9.589884 64.552101 106 56 63
6.140274 -9.454145 64.575424 107 56 64
6.142791 -9.318761 64.601898 107 56 64
6.145596 -9.183692 64.631393 108 56 64
6.148673 -9.048898 64.663757 109 56 64
6.152007 -8.914334 64.698814 110 57 64
6.155578 -8.779960 64.736366 111 57 64
6.159364 -8.645725 64.776192 112 58 65
6.163343 -8.511584 64.818039 113 58 66
6.167488 -8.377488 64.861626 114 59 67
6.171768 -8.243384 64.906631 117 60 70
6.176151 -8.109223 64.952736 119 60 71
6.180603 -7.974951 64.999550 120 60 72
6.185084 -7.840515 65.046684 120 60 72
6.189558 -7.705865 65.093727 121 60 72
6.193981 -7.570952 65.140244 121 59 72
6.198314 -7.435730 65.185814 120 58 71
6.202515 -7.300156 65.229996 119 57 69
6.206547 -7.164196 65.272400 118 57 68
6.210374 -7.027822 65.312645 117 57 66
6.213964 -6.891010 65.350395 117 58 65
6.217288 -6.753748 65.385361 117 59 65
6.220328 -6.616032 65.417328 117 60 64
6.223067 -6.477866 65.446129 118 62 63
6.225497 -6.339261 65.471695 119 63 62
6.227617 -6.200236 65.493988 119 63 61
6.229431 -6.060818 65.513062 119 63 62
6.230950 -5.921038 65.529045 120 63 63
6.232191 -5.780930 65.542091 120 63 64
6.233172 -5.640532 65.552406 120 62 65
6.233918 -5.499880 65.560249 119 61 66
6.234453 -5.359015 65.565872 118 59 66
6.234802 -5.217969 65.569550 118 59 66
6.234992 -5.076777 65.571548 117 58 65
6.235045 -4.935469 65.572105 116 58 65
6.234984 -4.794071 65.571465 116 59 65
6.234827 -4.652604 65.569817 117 60 66
6.234591 -4.511087 65.567337 118 60 67
6.234288 -4.369534 65.564140 119 60 68
6.233926 -4.227954 65.560341 120 61 69
6.233513 -4.086357 65.555992 121 61 70
6.233051 -3.944748 65.551132 122 62 72
6.232540 -3.803130 65.545761 123 62 73
6.231979 -3.661506 65.539856 123 62 72
6.231365 -3.519877 65.533401 123 62 70
6.230694 -3.378245 65.526344 123 62 69
6.229960 -3.236611 65.518631 125 63 69
6.229158 -3.094977 65.510193 127 64 71
6.228281 -2.953343 65.500977 129 65 70
6.227324 -2.811713 65.490898 130 65 71
6.226278 -2.670088 65.479904 131 65 72
6.225137 -2.528472 65.467903 128 62 70
6.223893 -2.386868 65.454819 124 59 68
6.222538 -2.245281 65.440575 123 59 68
6.221064 -2.103714 65.425064 123 59 69
6.219460 -1.962174 65.408203 123 60 69
6.217719 -1.820666 65.389885 122 61 69
6.215828 -1.679197 65.370010 121 61 70
6.213780 -1.537774 65.348465 121 60 70
6.211562 -1.396406 65.325142 119 59 70
6.209167 -1.255103 65.299950 118 58 69
6.206584 -1.113875 65.272789 117 57 69
6.203809 -0.972734 65.243599 117 57 68
6.200835 -0.831692 65.212326 116 56 67
6.197660 -0.690762 65.178940 116 57 66
6.194286 -0.549958 65.143448 117 56 65
6.190714 -0.409295 65.105888 119 57 65
6.186954 -0.268785 65.066338 121 58 65
6.183014 -0.128442 65.024910 123 59 66
6.178910 0.011722 64.981750 123 58 66
6.174658 0.151696 64.937035 122 57 65
6.170280 0.291471 64.890984 121 57 65
6.165797 0.431041 64.843834 120 57 66
6.161235 0.570400 64.795860 119 57 67
6.156620 0.709547 64.747330 119 57 68
6.151979 0.848480 64.698532 118 57 68
6.147339 0.987203 64.649727 117 57 67
6.142725 1.125721 64.601204 116 56 66
6.138161 1.264039 64.553207 116 55 65
6.133667 1.402167 64.505943 114 56 64
6.129261 1.540113 64.459610 113 56 63
6.124956 1.677886 64.414330 112 56 63
6.120760 1.815497 64.370201 113 56 64
6.116677 1.952954 64.327271 114 57 66
6.112706 2.090264 64.285500 115 57 67
6.108839 2.227432 64.244835 115 57 68
6.105065 2.364461 64.205147 115 57 68
6.101368 2.501350 64.166267 113 57 67
6.097729 2.638096 64.127991 110 55 65
6.094124 2.774693 64.090080 108 53 63
6.090529 2.911131 64.052269 108 52 61
6.086918 3.047399 64.014305 107 51 59
6.083268 3.183481 63.975906 107 50 59
6.079552 3.319364 63.936832 109 52 60
6.075751 3.455028 63.896854 111 53 62
6.071845 3.590459 63.855778 114 55 64
6.067820 3.725639 63.813450 113 54 63
6.063665 3.860554 63.769753 109 51 60
6.059375 3.995191 63.724636 110 53 62
6.054948 4.129541 63.678082 113 57 67
6.050388 4.263596 63.630116 112 58 67
6.045699 4.397350 63.580811 108 56 65
6.040894 4.530805 63.530277 105 54 62
6.035985 4.663961 63.478642 102 51 59
6.030985 4.796824 63.426064 100 49 58
6.025913 4.929399 63.372723 99 48 57
6.020784 5.061698 63.318787 99 47 57
6.015618 5.193732 63.264454 99 46 56
6.010429 5.325511 63.209885 100 46 55
6.005236 5.457051 63.155270 100 47 54
6.000053 5.588366 63.100769 100 47 54
5.994898 5.719471 63.046547 100 47 54
5.989783 5.850382 62.992756 100 47 55
5.984723 5.981117 62.939545 99 47 54
5.979731 6.111691 62.887043 100 48 56
5.974820 6.242124 62.835396 102 50 58
5.970004 6.372435 62.784744 101 49 57
5.965294 6.502643 62.735214 99 46 54
5.960703 6.632771 62.686935 98 45 53
5.956245 6.762841 62.640049 99 47 54
5.951931 6.892876 62.594685 99 47 54
5.947775 7.022902 62.550972 98 47 54
5.943789 7.152943 62.509048 97 46 53
5.939984 7.283027 62.469036 97 45 54
5.936372 7.413178 62.431053 99 47 55
5.932965 7.543426 62.395214 100 49 57
5.929771 7.673796 62.361626 101 51 59
5.926799 7.804313 62.330368 102 52 59
5.924057 7.935003 62.301529 103 54 60
5.921549 8.065889 62.275162 103 53 60
5.919281 8.196993 62.251312 101 52 59
5.917255 8.328334 62.230003 99 49 57
5.915472 8.459930 62.211246 97 47 55
5.913929 8.591795 62.195023 95 45 54
5.912624 8.723942 62.181301 95 44 53
5.911552 8.856378 62.170025 94 44 53
5.910706 8.989108 62.161129 94 45 54
5.910078 9.122136 62.154514 94 46 54
5.909656 9.255460 62.150082 93 47 54
5.909430 9.389075 62.147701 92 47 54
5.909387 9.522976 62.147251 91 46 53
5.909513 9.657150 62.148575 90 46 52
5.909793 9.791586 62.151527 88 45 51
5.910214 9.926271 62.155952 87 46 50
5.910760 10.061188 62.161694 86 46 49
5.911416 10.196319 62.168591 86 45 48
5.912169 10.331649 62.176506 85 45 48
5.913004 10.467159 62.185299 83 44 47
5.913912 10.602839 62.194847 81 42 45
5.914883 10.738671 62.205055 81 40 45
5.915908 10.874650 62.215839 82 41 47
5.916983 11.010766 62.227142 83 41 48
5.918105 11.147020 62.238941 84 42 49
5.919275 11.283416 62.251240 84 43 50
5.920494 11.419960 62.264061 84 42 49
5.921768 11.556667 62.277466 84 43 49
5.923106 11.693559 62.291538 82 43 48
5.924517 11.830654 62.306370 81 42 47
5.926011 11.967983 62.322086 79 41 45
5.927599 12.105573 62.338791 78 40 44
5.929294 12.243452 62.356606 77 40 44
5.931102 12.381647 62.375626 77 41 45
5.933033 12.520183 62.395927 77 42 46
5.935088 12.659071 62.417545 77 42 47
5.937268 12.798323 62.440475 77 42 47
5.939567 12.937928 62.464642 77 43 48
5.941971 13.077874 62.489933 77 43 48
5.944463 13.218122 62.516144 77 43 48
5.947019 13.358628 62.543022 77 43 48
5.949607 13.499320 62.570236 78 42 47
5.952189 13.640120 62.597397 77 41 45
5.954726 13.780928 62.624069 77 41 45
5.957170 13.921636 62.649769 77 44 47
6.337353 -15.582172 65.170593 85 47 53
6.335280 -15.436635 65.149277 85 46 53
6.333095 -15.290921 65.126808 85 45 52
6.330818 -15.145081 65.103394 86 44 51
6.328465 -14.999165 65.079201 87 44 51
6.326051 -14.853208 65.054375 88 45 51
6.323588 -14.707244 65.029045 90 45 51
6.321084 -14.561294 65.003288 92 45 51
6.318542 -14.415372 64.977158 94 45 52
6.315967 -14.269485 64.950676 96 45 52
6.313357 -14.123633 64.923836 97 46 53
6.310709 -13.977815 64.896606 100 47 54
6.308021 -13.832026 64.868965 102 48 54
6.305290 -13.686260 64.840874 102 49 55
6.302511 -13.540516 64.812294 102 51 56
6.299684 -13.394791 64.783226 104 53 58
6.296810 -13.249092 64.753670 105 55 59
6.293891 -13.103429 64.723656 104 55 59
6.290934 -12.957816 64.693245 103 55 58
6.287950 -12.812279 64.662560 102 54 57
6.284950 -12.666842 64.631714 101 53 56
6.281953 -12.521544 64.600891 101 53 57
6.278978 -12.376422 64.570290 102 53 58
6.276047 -12.231518 64.540154 104 54 60
6.273186 -12.086878 64.510727 106 55 62
6.270421 -11.942549 64.482292 108 56 63
6.267779 -11.798574 64.455132 110 56 64
6.265290 -11.655000 64.429535 112 57 64
6.262981 -11.511868 64.405785 113 58 64
6.260879 -11.369213 64.384171 113 58 64
6.259010 -11.227071 64.364960 113 58 64
6.257399 -11.085466 64.348381 113 58 64
6.256064 -10.944419 64.334663 113 58 64
6.255027 -10.803943 64.323990 113 58 64
6.254302 -10.664046 64.316536 113 58 63
6.253901 -10.524727 64.312416 113 58 63
6.253834 -10.385980 64.311729 113 58 63
6.254107 -10.247793 64.314537 112 58 63
6.254722 -10.110147 64.320854 111 58 62
6.255679 -9.973018 64.330696 110 57 62
6.256976 -9.836381 64.344032 108 56 62
6.258606 -9.700204 64.360802 107 55 63
6.260564 -9.564454 64.380928 107 55 63
6.262837 -9.429094 64.404312 107 55 64
6.265416 -9.294086 64.430832 108 55 64
6.268286 -9.159387 64.460335 109 55 64
6.271431 -9.024959 64.492683 110 56 64
6.274834 -8.890756 64.527679 111 57 65
6.278476 -8.756736 64.565132 112 57 65
6.282334 -8.622849 64.604805 112 57 64
6.286384 -8.489053 64.646454 112 57 65
6.290599 -8.355295 64.689796 114 57 66
6.294949 -8.221527 64.734535 115 58 68
6.299401 -8.087697 64.780312 117 58 69
6.303921 -7.953755 64.826797 118 58 70
6.308470 -7.819650 64.873581 119 58 71
6.313011 -7.685332 64.920273 119 58 71
6.317502 -7.550754 64.966461 120 57 70
6.321903 -7.415871 65.011719 119 57 69
6.326175 -7.280643 65.055649 118 56 68
6.330278 -7.145037 65.097839 116 55 66
6.334177 -7.009023 65.137947 115 56 64
6.337843 -6.872582 65.175636 116 57 64
6.341246 -6.735700 65.210632 116 59 64
6.344367 -6.598373 65.242722 117 60 64
6.347190 -6.460606 65.271759 118 62 63
6.349708 -6.322410 65.297653 119 63 62
6.351919 -6.183802 65.320389 119 63 62
6.353827 -6.044809 65.340012 119 63 62
6.355444 -5.905460 65.356644 119 63 63
6.356785 -5.765789 65.370430 119 63 64
6.357869 -5.625832 65.381577 119 62 65
6.358720 -5.485625 65.390320 119 61 66
6.359360 -5.345204 65.396912 118 59 65
6.359818 -5.204605 65.401611 117 59 65
6.360115 -5.063858 65.404671 116 58 65
6.360277 -4.922992 65.406334 116 59 64
6.360323 -4.782033 65.406815 117 60 65
6.360274 -4.641003 65.406311 118 60 67
6.360145 -4.499917 65.404976 119 60 68
6.359946 -4.358789 65.402939 119 60 68
6.359688 -4.217632 65.400276 119 60 68
6.359375 -4.076450 65.397064 119 60 69
6.359012 -3.935251 65.393333 119 60 69
6.358597 -3.794038 65.389069 119 60 70
6.358130 -3.652813 65.384262 120 60 70
6.357606 -3.511577 65.378876 122 60 68
6.357022 -3.370333 65.372871 122 61 68
6.356372 -3.229081 65.366188 125 63 70
6.355650 -3.087822 65.358757 128 66 71
6.354848 -2.946559 65.350510 129 67 71
6.353960 -2.805293 65.341377 130 67 72
6.352979 -2.664028 65.331291 129 65 72
6.351896 -2.522765 65.320152 125 61 69
6.350703 -2.381510 65.307884 124 60 68
6.349391 -2.240265 65.294395 123 59 68
6.347953 -2.099037 65.279602 122 59 68
6.346376 -1.957830 65.263390 121 59 68
6.344651 -1.816650 65.245644 121 60 68
6.342767 -1.675505 65.226273 120 60 68
6.340714 -1.534402 65.205154 120 60 68
6.338480 -1.393350 65.182190 119 60 69
6.336057 -1.252361 65.157272 119 59 69
6.333436 -1.111444 65.130318 120 60 69
6.330610 -0.970611 65.101250 120 60 69
6.327574 -0.829877 65.070030 119 59 68
6.324326 -0.689254 65.036636 119 60 68
6.320868 -0.548756 65.001076 119 59 68
6.317204 -0.408399 64.963387 121 59 67
6.313341 -0.268196 64.923668 122 59 67
6.309292 -0.128160 64.882034 123 59 67
6.305072 0.011696 64.838631 123 58 67
6.300699 0.151361 64.793663 122 57 66
6.296196 0.290826 64.747353 121 57 66
6.291585 0.430085 64.699944 121 57 67
6.286895 0.569131 64.651718 120 58 68
6.282153 0.707964 64.602943 120 58 69
6.277386 0.846584 64.553925 119 58 68
6.272623 0.984992 64.504936 118 57 68
6.267889 1.123195 64.456261 117 57 67
6.263210 1.261199 64.408142 115 56 66
6.258607 1.399012 64.360809 114 56 65
6.254097 1.536644 64.314430 113 56 65
6.249696 1.674105 64.269173 113 56 65
6.245411 1.811405 64.225105 113 55 66
6.241246 1.948552 64.182274 114 55 67
6.237199 2.085555 64.140656 114 56 68
6.233264 2.222417 64.100197 114 56 68
6.229431 2.359144 64.060768 113 57 67
6.225680 2.495734 64.022202 111 56 66
6.221993 2.632184 63.984287 108 53 63
6.218347 2.768490 63.946793 107 52 61
6.214716 2.904640 63.909454 106 51 61
6.211076 3.040625 63.872017 107 50 60
6.207398 3.176430 63.834202 107 50 60
6.203661 3.312040 63.795769 109 51 60
6.199841 3.447438 63.756485 111 53 62
6.195920 3.582608 63.716160 115 55 65
6.191882 3.717535 63.674637 114 55 64
6.187717 3.852203 63.631809 110 51 60
6.183420 3.986601 63.587620 110 52 61
6.178988 4.120719 63.542042 112 56 65
6.174425 4.254550 63.495117 110 57 65
6.169737 4.388090 63.446915 106 56 64
6.164936 4.521339 63.397537 103 54 61
6.160034 4.654298 63.347122 100 51 59
6.155045 4.786973 63.295822 98 49 57
6.149987 4.919373 63.243813 96 48 56
6.144878 5.051504 63.191265 96 47 55
6.139734 5.183381 63.138367 97 46 54
6.134572 5.315013 63.085285 98 45 53
6.129409 5.446416 63.032188 99 45 53
6.124260 5.577603 62.979244 99 46 54
6.119141 5.708590 62.926601 100 46 54
6.114065 5.839391 62.874405 100 47 55
6.109045 5.970021 62.822777 101 48 56
6.104094 6.100497 62.771862 102 50 58
6.099224 6.230836 62.721775 104 52 61
6.094446 6.361057 62.672642 104 52 61
6.089772 6.491176 62.624580 100 48 56
6.085214 6.621214 62.577713 98 46 54
6.080785 6.751194 62.532166 98 46 54
6.076496 6.881135 62.488056 98 47 54
6.072358 7.011060 62.445507 97 46 53
6.068384 7.140995 62.404636 97 46 53
6.064586 7.270965 62.365578 97 45 54
6.060973 7.400993 62.328430 98 46 55
6.057558 7.531106 62.293304 99 48 56
6.054348 7.661328 62.260303 100 49 57
6.051354 7.791685 62.229515 102 51 58
6.048583 7.922200 62.201008 104 53 59
6.046038 8.052896 62.174843 104 53 59
6.043726 8.183793 62.151066 101 51 57
6.041649 8.314911 62.129707 98 48 55
6.039807 8.446266 62.110767 96 46 52
6.038200 8.577873 62.094242 95 44 51
6.036825 8.709743 62.080097 94 43 50
6.035676 8.841885 62.068287 94 44 51
6.034749 8.974303 62.058750 94 45 52
6.034034 9.107002 62.051395 94 48 54
6.033522 9.239980 62.046127 94 49 55
6.033202 9.373234 62.042843 92 48 54
6.033063 9.506758 62.041412 90 46 52
6.033091 9.640542 62.041695 89 45 51
6.033273 9.774578 62.043568 87 45 50
6.033594 9.908852 62.046875 86 45 48
6.034042 10.043348 62.051479 85 44 47
6.034601 10.178053 62.057224 84 44 46
6.035258 10.312951 62.063988 83 43 46
6.036002 10.448027 62.071629 82 42 46
6.036820 10.583268 62.080051 81 41 45
6.037704 10.718661 62.089142 81 41 45
6.038647 10.854198 62.098839 81 40 46
6.039643 10.989876 62.109081 82 41 47
6.040691 11.125691 62.119854 82 41 49
6.041790 11.261648 62.131153 83 42 49
6.042943 11.397758 62.143013 83 42 49
6.044156 11.534033 62.155487 83 43 49
6.045438 11.670493 62.168667 82 42 48
6.046797 11.807161 62.182648 80 41 46
6.048245 11.944066 62.197540 78 41 44
6.049794 12.081237 62.213470 77 40 43
6.051455 12.218701 62.230549 76 40 42
6.053238 12.356489 62.248882 76 40 43
6.055150 12.494621 62.268539 76 41 45
6.057195 12.633117 62.289570 76 41 46
6.059372 12.771982 62.311966 75 41 46
6.061676 12.911212 62.335655 74 41 46
6.064094 13.050790 62.360519 73 40 45
6.066607 13.190682 62.386360 74 40 45
6.069189 13.330838 62.412918 77 41 46
6.071809 13.471193 62.439861 78 41 46
6.074429 13.611662 62.466797 78 41 47
6.077003 13.752146 62.493279 78 42 47
6.079486 13.892534 62.518810 78 45 48
6.459040 -15.396873 64.981468 86 46 54
6.456819 -15.251551 64.959122 86 45 53
6.454509 -15.106113 64.935883 87 44 52
6.452127 -14.960609 64.911919 88 44 51
6.449686 -14.815075 64.887360 89 44 51
6.447196 -14.669536 64.862312 90 45 51
6.444666 -14.524014 64.836868 92 45 52
6.442101 -14.378520 64.811050 94 45 52
6.439500 -14.233062 64.784889 96 45 53
6.436864 -14.087638 64.758369 98 46 53
6.434188 -13.942243 64.731453 100 47 53
6.431471 -13.796873 64.704109 102 48 54
6.428706 -13.651522 64.676292 103 50 55
6.425890 -13.506183 64.647964 104 52 57
6.423021 -13.360857 64.619102 105 53 59
6.420101 -13.215548 64.589722 106 55 60
6.417130 -13.070263 64.559830 106 55 59
6.414116 -12.925020 64.529510 105 55 58
6.411068 -12.779841 64.498848 104 54 57
6.408000 -12.634753 64.467979 103 54 57
6.404929 -12.489794 64.437080 104 54 57
6.401874 -12.344998 64.406349 105 54 58
6.398860 -12.200413 64.376030 107 56 60
6.395912 -12.056084 64.346367 109 57 62
6.393058 -11.912056 64.317657 110 57 63
6.390327 -11.768381 64.290184 112 58 63
6.387749 -11.625100 64.264244 112 58 63
6.385353 -11.482260 64.240143 113 58 63
6.383168 -11.339898 64.218163 113 58 63
6.381221 -11.198049 64.198570 113 58 63
6.379537 -11.056739 64.181625 113 58 63
6.378138 -10.915991 64.167549 113 58 63
6.377044 -10.775819 64.156548 113 58 62
6.376272 -10.636231 64.148781 114 57 62
6.375834 -10.497228 64.144379 114 57 62
6.375741 -10.358802 64.143440 113 58 63
6.375997 -10.220941 64.146011 112 58 63
6.376606 -10.083626 64.152138 112 58 63
6.377566 -9.946834 64.161804 111 57 63
6.378875 -9.810535 64.174965 109 56 63
6.380527 -9.674701 64.191582 108 54 62
6.382512 -9.539292 64.211563 107 54 63
6.384821 -9.404274 64.234787 108 54 64
6.387440 -9.269607 64.261131 109 54 65
6.390355 -9.135248 64.290459 110 54 65
6.393548 -9.001156 64.322586 111 55 65
6.397003 -8.867287 64.357346 112 56 65
6.400698 -8.733595 64.394516 112 56 65
6.404610 -8.600036 64.433876 112 56 64
6.408715 -8.466560 64.475174 112 56 64
6.412985 -8.333122 64.518127 112 56 65
6.417390 -8.199672 64.562447 113 56 66
6.421898 -8.066159 64.607803 114 56 67
6.426474 -7.932535 64.653839 116 56 68
6.431081 -7.798750 64.700188 117 56 69
6.435679 -7.664755 64.746452 118 56 69
6.440230 -7.530504 64.792236 119 56 69
6.444693 -7.395956 64.837128 119 57 69
6.449028 -7.261069 64.880745 118 56 68
6.453197 -7.125813 64.922691 116 55 65
6.457168 -6.990159 64.962631 115 56 64
6.460907 -6.854088 65.000252 115 57 64
6.464388 -6.717587 65.035278 116 58 64
6.467591 -6.580652 65.067505 117 59 64
6.470502 -6.443287 65.096786 118 60 63
6.473111 -6.305502 65.123039 118 61 62
6.475418 -6.167316 65.146248 118 62 62
6.477427 -6.028752 65.166451 119 63 62
6.479147 -5.889839 65.183762 118 63 62
6.480596 -5.750610 65.198334 118 63 64
6.481790 -5.611098 65.210342 119 63 65
6.482752 -5.471339 65.220032 119 62 66
6.483508 -5.331367 65.227631 118 61 66
6.484079 -5.191216 65.233376 117 60 66
6.484492 -5.050917 65.237534 117 60 66
6.484769 -4.910497 65.240318 117 60 66
6.484931 -4.769979 65.241951 118 61 67
6.484995 -4.629385 65.242592 119 61 67
6.484977 -4.488732 65.242416 119 60 68
6.484888 -4.348032 65.241516 119 59 67
6.484737 -4.207295 65.239998 118 58 67
6.484529 -4.066530 65.237907 117 58 67
6.484268 -3.925740 65.235275 117 58 67
6.483952 -3.784931 65.232101 116 58 67
6.483581 -3.644104 65.228371 118 59 68
6.483150 -3.503260 65.224030 120 60 68
6.482655 -3.362403 65.219055 123 62 68
6.482090 -3.221531 65.213364 125 64 71
6.481449 -3.080648 65.206917 127 66 72
6.480723 -2.939755 65.199623 128 67 72
6.479908 -2.798855 65.191414 128 67 72
6.478992 -2.657948 65.182205 126 65 71
6.477970 -2.517040 65.171913 123 61 68
6.476831 -2.376134 65.160454 122 60 67
6.475566 -2.235233 65.147736 121 60 67
6.474166 -2.094344 65.133652 120 59 67
6.472619 -1.953471 65.118088 120 59 67
6.470914 -1.812621 65.100937 120 60 66
6.469041 -1.671801 65.082092 119 60 67
6.466988 -1.531020 65.061432 120 61 68
6.464744 -1.390286 65.038857 120 62 70
6.462298 -1.249612 65.014252 122 62 71
6.459643 -1.109007 64.987534 122 63 71
6.456770 -0.968485 64.958641 123 63 71
6.453677 -0.828059 64.927521 122 62 70
6.450361 -0.687744 64.894157 122 62 71
6.446824 -0.547553 64.858566 123 61 70
6.443069 -0.407503 64.820801 122 60 69
6.439108 -0.267606 64.780945 122 59 68
6.434952 -0.127878 64.739136 123 58 68
6.430619 0.011670 64.695541 123 58 68
6.426126 0.151026 64.650345 122 57 67
6.421499 0.290181 64.603790 122 58 67
6.416762 0.429129 64.556129 122 58 68
6.411944 0.567863 64.507660 122 59 69
6.407073 0.706383 64.458649 121 59 69
6.402178 0.844688 64.409409 120 59 68
6.397290 0.982782 64.360229 119 58 68
6.392435 1.120670 64.311386 118 57 67
6.387639 1.258359 64.263138 116 56 66
6.382924 1.395858 64.215706 115 56 66
6.378310 1.533176 64.169281 114 56 66
6.373809 1.670324 64.124001 113 55 66
6.369432 1.807312 64.079971 113 54 67
6.365183 1.944149 64.037224 113 54 67
6.361061 2.080843 63.995747 112 54 67
6.357058 2.217400 63.955475 111 53 65
6.353162 2.353823 63.916283 110 53 64
6.349358 2.490113 63.878014 108 53 63
6.345625 2.626267 63.840458 107 52 61
6.341939 2.762281 63.803375 106 51 60
6.338276 2.898144 63.766518 107 50 60
6.334608 3.033846 63.729614 107 50 60
6.330909 3.169374 63.692402 108 50 61
6.327155 3.304713 63.654633 109 50 61
6.323322 3.439846 63.616074 111 51 62
6.319393 3.574758 63.576546 113 52 63
6.315351 3.709434 63.535885 113 52 63
6.311186 3.843859 63.493984 110 51 61
6.306892 3.978022 63.450783 110 52 61
6.302468 4.111914 63.406269 110 54 62
6.297915 4.245527 63.360466 108 55 62
6.293243 4.378860 63.313461 105 54 61
6.288460 4.511911 63.265343 102 53 60
6.283580 4.644683 63.216251 99 51 58
6.278620 4.777182 63.166348 97 49 56
6.273595 4.909415 63.115791 95 47 55
6.268523 5.041392 63.064762 94 46 54
6.263420 5.173124 63.013428 95 45 54
6.258305 5.304624 62.961964 97 45 54
6.253192 5.435904 62.910526 98 45 54
6.248097 5.566978 62.859276 99 46 54
6.243035 5.697862 62.808346 100 46 55
6.238018 5.828568 62.757874 101 47 55
6.233058 5.959111 62.707973 101 48 56
6.228167 6.089506 62.658764 102 49 58
6.223356 6.219769 62.610363 103 50 59
6.218635 6.349915 62.562866 103 50 59
6.214015 6.479962 62.516392 101 48 56
6.209508 6.609928 62.471043 99 46 54
6.205123 6.739831 62.426926 98 46 52
6.200872 6.869694 62.384159 97 46 52
6.196766 6.999535 62.342854 97 45 52
6.192817 7.129378 62.303120 96 45 52
6.189034 7.259246 62.265064 97 45 53
6.185430 7.389163 62.228802 97 45 54
6.182014 7.519153 62.194439 98 46 55
6.178795 7.649239 62.162056 99 47 55
6.175783 7.779444 62.131748 100 49 55
6.172984 7.909792 62.103588 102 51 56
6.170403 8.040305 62.077629 101 50 55
6.168047 8.171001 62.053925 99 49 54
6.165917 8.301902 62.032497 97 47 52
6.164015 8.433020 62.013359 95 45 49
6.162340 8.564372 61.996506 93 44 48
6.160889 8.695967 61.981907 93 43 48
6.159658 8.827816 61.969528 93 44 49
6.158643 8.959924 61.959309 93 46 51
6.157834 9.092293 61.951176 94 48 53
6.157224 9.224925 61.945042 94 50 55
6.156803 9.357818 61.940804 92 49 53
6.156560 9.490967 61.938354 89 46 51
6.156482 9.624363 61.937576 87 45 50
6.156557 9.757998 61.938328 86 44 49
6.156772 9.891862 61.940491 85 43 47
6.157114 10.025941 61.943924 84 43 46
6.157568 10.160220 61.948498 84 43 45
6.158123 10.294688 61.954079 83 42 45
6.158766 10.429330 61.960552 82 42 45
6.159489 10.564135 61.967819 82 41 45
6.160280 10.699091 61.975777 81 41 45
6.161133 10.834190 61.984364 80 40 45
6.162043 10.969428 61.993523 80 40 46
6.163009 11.104805 62.003235 82 41 48
6.164029 11.240324 62.013500 82 42 49
6.165108 11.375996 62.024357 82 42 49
6.166251 11.511832 62.035854 82 42 48
6.167467 11.647856 62.048080 81 42 47
6.168764 11.784089 62.061131 79 42 45
6.170154 11.920558 62.075123 77 41 43
6.171650 12.057294 62.090172 76 40 42
6.173263 12.194325 62.106400 75 40 42
6.175004 12.331682 62.123909 75 40 42
6.176879 12.469386 62.142780 75 40 43
6.178894 12.607455 62.163048 75 41 43
6.181047 12.745899 62.184715 74 40 44
6.183333 12.884712 62.207714 72 39 44
6.185740 13.023878 62.231926 70 37 42
6.188248 13.163364 62.257160 70 37 41
6.190831 13.303120 62.283142 74 39 44
6.193456 13.443080 62.309555 77 40 46
6.196084 13.583159 62.335995 78 41 47
6.198669 13.723258 62.362003 78 43 48
6.582345 -15.357740 64.816307 87 47 55
6.580111 -15.212852 64.794304 87 46 54
6.577790 -15.067863 64.771454 88 46 53
6.575400 -14.922813 64.747925 89 46 53
6.572954 -14.777738 64.723831 90 45 52
6.570460 -14.632662 64.699280 91 45 52
6.567927 -14.487604 64.674332 93 46 53
6.565357 -14.342574 64.649025 94 46 53
6.562751 -14.197576 64.623367 96 46 53
6.560107 -14.052606 64.597336 98 46 54
6.557422 -13.907660 64.570885 101 47 54
6.554689 -13.762729 64.543983 103 48 55
6.551906 -13.617808 64.516571 104 50 56
6.549066 -13.472891 64.488609 106 52 58
6.546167 -13.327973 64.460068 107 53 59
6.543210 -13.183060 64.430939 108 55 60
6.540195 -13.038158 64.401253 108 55 60
6.537129 -12.893285 64.371071 107 55 59
6.534022 -12.748461 64.340469 106 55 59
6.530887 -12.603713 64.309601 106 55 58
6.527741 -12.459079 64.278618 107 55 58
6.524604 -12.314596 64.247734 109 56 59
6.521502 -12.170311 64.217186 110 58 61
6.518462 -12.026270 64.187248 112 58 62
6.515511 -11.882523 64.158188 113 58 62
6.512680 -11.739117 64.130318 113 58 62
6.510001 -11.596101 64.103935 113 58 61
6.507504 -11.453521 64.079353 113 58 62
6.505221 -11.311416 64.056862 113 58 62
6.503178 -11.169823 64.036751 114 57 62
6.501403 -11.028770 64.019279 114 57 62
6.499920 -10.888283 64.004677 114 57 62
6.498751 -10.748375 63.993156 114 57 62
6.497910 -10.609056 63.984879 114 57 62
6.497414 -10.470325 63.979992 114 57 63
6.497271 -10.332179 63.978584 114 58 64
6.497488 -10.194603 63.980717 114 59 64
6.498067 -10.057579 63.986423 113 59 64
6.499008 -9.921082 63.995689 112 58 64
6.500307 -9.785084 64.008476 110 55 63
6.501957 -9.649551 64.024727 109 53 63
6.503948 -9.514449 64.044334 109 53 63
6.506270 -9.379739 64.067200 110 54 65
6.508909 -9.245379 64.093178 111 54 65
6.511847 -9.111328 64.122116 111 54 66
6.515069 -8.977542 64.153847 112 54 66
6.518556 -8.843978 64.188171 112 55 66
6.522285 -8.710590 64.224899 112 55 65
6.526234 -8.577332 64.263779 112 55 64
6.530376 -8.444159 64.304573 111 54 63
6.534686 -8.311021 64.347008 111 54 63
6.539132 -8.177870 64.390785 111 53 63
6.543681 -8.044659 64.435585 113 53 64
6.548300 -7.911337 64.481071 114 54 65
6.552952 -7.777859 64.526871 116 55 67
6.557597 -7.644176 64.572617 117 55 68
6.562197 -7.510243 64.617912 118 56 69
6.566712 -7.376021 64.662369 119 57 69
6.571104 -7.241470 64.705612 118 57 69
6.575335 -7.106559 64.747276 117 57 68
6.579370 -6.971262 64.787010 116 57 67
6.583179 -6.835558 64.824524 116 57 66
6.586737 -6.699437 64.859558 115 57 65
6.590022 -6.562893 64.891907 116 57 64
6.593020 -6.425930 64.921425 116 58 63
6.595722 -6.288558 64.948029 117 59 62
6.598127 -6.150794 64.971718 117 60 62
6.600239 -6.012660 64.992508 117 61 62
6.602067 -5.874185 65.010513 117 62 63
6.603627 -5.735398 65.025871 118 62 64
6.604936 -5.596334 65.038757 118 63 66
6.606016 -5.457024 65.049393 118 63 68
6.606889 -5.317503 65.057999 118 64 68
6.607581 -5.177802 65.064812 118 63 69
6.608114 -5.037951 65.070061 117 63 68
6.608510 -4.897975 65.073959 118 63 68
6.608790 -4.757899 65.076714 118 62 68
6.608971 -4.617742 65.078491 118 61 67
6.609067 -4.477520 65.079437 118 60 67
6.609090 -4.337245 65.079666 117 58 66
6.609048 -4.196929 65.079254 117 58 66
6.608946 -4.056577 65.078247 116 57 66
6.608788 -3.916197 65.076683 116 57 67
6.608572 -3.775789 65.074554 115 57 67
6.608296 -3.635360 65.071854 117 59 68
6.607958 -3.494908 65.068520 120 60 70
6.607552 -3.354436 65.064522 123 63 71
6.607073 -3.213945 65.059799 124 65 72
6.606513 -3.073438 65.054291 126 66 73
6.605865 -2.932915 65.047905 127 66 73
6.605122 -2.792379 65.040588 127 66 72
6.604274 -2.651834 65.032242 125 65 71
6.603314 -2.511281 65.022789 122 62 68
6.602232 -2.370725 65.012131 121 61 67
6.601016 -2.230170 65.000160 119 60 66
6.599658 -2.089622 64.986786 119 59 66
6.598144 -1.949085 64.971878 119 59 66
6.596464 -1.808567 64.955338 119 60 67
6.594606 -1.668075 64.937050 120 62 69
6.592558 -1.527618 64.916878 122 63 71
6.590308 -1.387205 64.894722 123 64 73
6.587846 -1.246848 64.870476 124 65 73
6.585163 -1.106558 64.844048 124 65 73
6.582251 -0.966349 64.815376 125 64 73
6.579106 -0.826234 64.784409 125 64 73
6.575727 -0.686228 64.751144 125 64 73
6.572116 -0.546346 64.715584 125 62 72
6.568278 -0.406604 64.677788 122 59 69
6.564223 -0.267015 64.637863 120 57 67
6.559966 -0.127595 64.595932 122 58 68
6.555521 0.011644 64.552177 123 58 68
6.550914 0.150691 64.506805 123 58 68
6.546165 0.289536 64.460045 123 58 67
6.541305 0.428172 64.412178 123 59 68
6.536360 0.566594 64.363487 123 60 68
6.531362 0.704801 64.314270 122 60 68
6.526340 0.842792 64.264832 121 60 68
6.521327 0.980572 64.215469 120 59 68
6.516352 1.118145 64.166466 118 58 67
6.511438 1.255519 64.118088 117 56 66
6.506612 1.392703 64.070564 115 55 65
6.501891 1.529707 64.024078 114 55 66
6.497292 1.666541 63.978790 113 54 67
6.492824 1.803217 63.934792 113 53 68
6.488491 1.939743 63.892120 112 53 67
6.484292 2.076129 63.850777 111 52 66
6.480221 2.212380 63.810692 110 51 64
6.476265 2.348500 63.771740 108 51 63
6.472409 2.484490 63.733772 107 51 61
6.468632 2.620348 63.696575 107 51 60
6.464909 2.756070 63.659916 107 51 60
6.461216 2.891646 63.623550 107 51 60
6.457525 3.027067 63.587200 108 51 61
6.453809 3.162318 63.550610 109 51 62
6.450044 3.297388 63.513538 110 51 62
6.446207 3.432258 63.475750 111 51 62
6.442277 3.566915 63.437057 112 50 62
6.438241 3.701343 63.397312 111 50 60
6.434085 3.835530 63.356396 109 50 59
6.429806 3.969463 63.314255 108 50 59
6.425401 4.103134 63.270874 108 52 59
6.420872 4.236537 63.226284 107 53 60
6.416229 4.369668 63.180557 104 53 59
6.411480 4.502530 63.133801 102 52 58
6.406640 4.635123 63.086143 100 50 57
6.401725 4.767455 63.037739 98 49 56
6.396749 4.899533 62.988750 95 48 55
6.391733 5.031366 62.939350 95 47 54
6.386692 5.162967 62.889706 95 46 54
6.381642 5.294347 62.839985 97 46 55
6.376599 5.425518 62.790329 98 46 55
6.371578 5.556494 62.740891 99 47 56
6.366593 5.687289 62.691799 100 47 56
6.361655 5.817915 62.643169 101 47 56
6.356774 5.948386 62.595112 101 47 56
6.351962 6.078714 62.547726 100 48 56
6.347229 6.208916 62.501114 100 48 56
6.342583 6.339004 62.455368 100 48 56
6.338034 6.468994 62.410576 99 47 54
6.333592 6.598902 62.366837 99 46 52
6.329266 6.728745 62.324242 98 45 51
6.325068 6.858542 62.282894 97 45 50
6.321006 6.988313 62.242901 97 45 51
6.317091 7.118077 62.204357 97 44 52
6.313335 7.247856 62.167366 98 44 53
6.309747 7.377672 62.132034 98 45 54
6.306337 7.507549 62.098457 98 45 54
6.303114 7.637508 62.066727 98 45 54
6.300087 7.767570 62.036919 99 47 53
6.297264 7.897760 62.009113 99 48 53
6.294649 8.028096 61.983368 99 48 53
6.292249 8.158599 61.959728 98 48 52
6.290065 8.289285 61.938225 97 47 51
6.288100 8.420172 61.918873 95 46 49
6.286353 8.551271 61.901672 93 44 48
6.284822 8.682596 61.886604 92 43 47
6.283505 8.814156 61.873634 92 44 48
6.282396 8.945955 61.862717 92 46 50
6.281489 9.077999 61.853779 93 48 52
6.280776 9.210288 61.846752 92 49 53
6.280247 9.342823 61.841549 90 48 52
6.279893 9.475598 61.838066 88 46 51
6.279703 9.608610 61.836193 86 44 50
6.279665 9.741848 61.835815 85 43 49
6.279767 9.875306 61.836823 84 42 48
6.279996 10.008970 61.839077 84 42 47
6.280340 10.142831 61.842468 83 42 46
6.280787 10.276874 61.846870 83 42 46
6.281326 10.411088 61.852177 82 42 46
6.281946 10.545462 61.858284 82 41 46
6.282640 10.679985 61.865108 81 41 46
6.283398 10.814651 61.872574 81 40 46
6.284217 10.949455 61.880642 80 40 46
6.285095 11.084397 61.889294 81 42 47
6.286032 11.219481 61.898514 82 43 48
6.287030 11.354716 61.908340 83 43 49
6.288095 11.490116 61.918831 83 43 48
6.289236 11.625701 61.930065 82 43 46
6.290462 11.761494 61.942135 80 42 45
6.291784 11.897520 61.955151 78 42 44
6.293214 12.033810 61.969242 77 41 43
6.294766 12.170394 61.984516 76 41 42
6.296448 12.307301 62.001083 75 41 42
6.298270 12.444553 62.019020 75 41 43
6.300235 12.582170 62.038372 75 41 44
6.302344 12.720160 62.059135 74 40 45
6.304590 12.858520 62.081253 72 39 44
6.306962 12.997232 62.104607 69 35 41
6.309439 13.136268 62.129002 69 35 41
6.311996 13.275575 62.154182 73 38 44
6.314599 13.415088 62.179810 77 41 47
6.317207 13.554723 62.205494 79 42 48
6.703003 -15.174861 64.632492 88 48 54
6.700696 -15.030359 64.610245 89 47 54
6.698322 -14.885804 64.587341 90 47 54
6.695892 -14.741227 64.563919 91 47 53
6.693417 -14.596651 64.540054 93 46 53
6.690902 -14.452091 64.515800 94 47 54
6.688349 -14.307556 64.491180 95 47 54
6.685758 -14.163046 64.466202 96 47 54
6.683125 -14.018557 64.440819 98 47 54
6.680447 -13.874083 64.414993 101 47 55
6.677718 -13.729613 64.388672 103 49 56
6.674930 -13.585140 64.361801 105 50 58
6.672080 -13.440656 64.334312 107 52 60
6.669164 -13.296159 64.306190 108 53 61
6.666179 -13.151648 64.277420 108 54 61
6.663129 -13.007133 64.248001 109 55 62
6.660018 -12.862627 64.218010 109 56 62
6.656855 -12.718153 64.187515 109 56 61
6.653656 -12.573739 64.156662 109 56 60
6.650435 -12.429420 64.125610 110 56 60
6.647215 -12.285237 64.094566 111 57 60
6.644022 -12.141234 64.063766 112 58 61
6.640882 -11.997463 64.033501 113 58 62
6.637827 -11.853971 64.004036 114 58 62
6.634887 -11.710812 63.975685 114 58 62
6.632095 -11.568032 63.948769 114 57 61
6.629485 -11.425681 63.923599 113 57 61
6.627088 -11.283802 63.900486 113 56 62
6.624934 -11.142431 63.879715 114 56 62
6.623051 -11.001601 63.861565 114 56 62
6.621466 -10.861337 63.846279 114 56 62
6.620200 -10.721655 63.834064 114 56 61
6.619270 -10.582564 63.825108 114 57 62
6.618694 -10.444069 63.819550 114 58 64
6.618480 -10.306163 63.817486 115 59 65
6.618635 -10.168832 63.818981 115 60 66
6.619163 -10.032059 63.824066 115 59 66
6.620061 -9.895819 63.832729 114 58 65
6.621326 -9.760082 63.844933 111 55 64
6.622952 -9.624817 63.860607 109 53 63
6.624928 -9.489985 63.879658 110 52 64
6.627241 -9.355547 63.901958 111 54 65
6.629876 -9.221461 63.927372 112 54 66
6.632819 -9.087687 63.955742 112 55 67
6.636048 -8.954179 63.986889 113 55 67
6.639546 -8.820891 64.020615 113 55 66
6.643291 -8.687781 64.056717 113 55 65
6.647257 -8.554801 64.094963 112 55 64
6.651420 -8.421906 64.135109 111 54 63
6.655752 -8.289046 64.176872 110 53 62
6.660222 -8.156177 64.219971 110 52 62
6.664798 -8.023249 64.264099 112 53 63
6.669446 -7.890215 64.308907 114 54 64
6.674128 -7.757029 64.354065 115 55 65
6.678808 -7.623645 64.399185 117 56 67
6.683445 -7.490019 64.443901 118 56 68
6.688003 -7.356113 64.487854 119 57 69
6.692441 -7.221889 64.530647 119 58 70
6.696725 -7.087316 64.571953 118 57 70
6.700819 -6.952368 64.611427 117 57 69
6.704693 -6.817027 64.648788 116 57 67
6.708322 -6.681280 64.683777 115 56 66
6.711686 -6.545124 64.716202 115 56 64
6.714768 -6.408559 64.745926 115 56 63
6.717562 -6.271597 64.772873 116 57 62
6.720065 -6.134253 64.796997 116 58 62
6.722280 -5.996549 64.818359 117 60 63
6.724216 -5.858510 64.837029 117 61 64
6.725888 -5.720165 64.853149 117 62 65
6.727314 -5.581546 64.866898 118 64 67
