ply
format ascii 1.0
element vertex 1269
property float x
property float y
property float z
property uchar red
property uchar green
property uchar blue
end_header
2.423205 3.383970 55.897404 41 23 25
2.421075 3.501385 55.848255 42 23 25
2.419083 3.618796 55.802326 44 24 26
2.417248 3.736251 55.759998 45 24 26
2.415582 3.853791 55.721546 46 24 26
2.414091 3.971456 55.687157 47 25 26
2.412779 4.089274 55.656891 46 24 26
2.411645 4.207274 55.630737 46 24 25
2.410685 4.325473 55.608601 46 24 25
2.409891 4.443882 55.590282 45 24 24
2.409253 4.562508 55.575569 45 23 23
2.408759 4.681350 55.564167 45 23 23
2.408395 4.800402 55.555763 44 23 22
2.408146 4.919652 55.550014 43 23 22
2.407997 5.039088 55.546585 43 23 23
2.407933 5.158691 55.545113 42 22 23
2.407940 5.278442 55.545269 43 22 22
2.408003 5.398322 55.546738 43 22 23
2.408111 5.518307 55.549210 44 22 23
2.408250 5.638380 55.552433 46 22 23
2.408412 5.758520 55.556171 47 22 23
2.408588 5.878709 55.560226 48 23 23
2.408771 5.998933 55.564438 50 23 25
2.408955 6.119180 55.568691 52 24 25
2.409137 6.239438 55.572887 53 25 26
2.409314 6.359701 55.576965 54 25 26
2.409484 6.479964 55.580891 55 25 27
2.409646 6.600222 55.584629 56 24 27
2.409800 6.720471 55.588169 57 23 27
2.409943 6.840708 55.591476 58 22 27
2.410075 6.960927 55.594532 61 22 27
2.410194 7.081120 55.597279 64 23 27
2.410297 7.201275 55.599644 69 26 29
2.410379 7.321379 55.601543 75 29 32
2.410437 7.441415 55.602871 83 35 39
2.410465 7.561363 55.603512 92 42 46
2.410457 7.681201 55.603329 96 45 50
2.410409 7.800907 55.602222 99 47 52
2.410316 7.920464 55.600094 102 49 54
2.410177 8.039854 55.596878 105 51 56
2.409991 8.159071 55.592583 106 52 57
2.409760 8.278115 55.587246 107 54 59
2.409488 8.396996 55.580986 109 56 59
2.409184 8.515738 55.573978 108 56 57
2.408860 8.634376 55.566509 107 55 56
2.408530 8.752954 55.558872 106 55 56
2.408208 8.871536 55.551456 107 55 56
2.407913 8.990188 55.544662 107 55 57
2.407665 9.108982 55.538929 107 55 57
2.407480 9.227999 55.534676 105 54 56
2.407378 9.347316 55.532314 104 52 54
2.407373 9.467006 55.532200 101 50 52
2.407479 9.587133 55.534630 101 50 52
2.407704 9.707756 55.539829 104 53 56
2.408055 9.828913 55.547924 108 57 62
2.408533 9.950629 55.558941 110 60 65
2.409134 10.072911 55.572819 108 59 66
2.409852 10.195745 55.589382 105 56 63
2.410676 10.319105 55.608395 101 52 59
2.411592 10.442945 55.629520 97 48 57
2.412583 10.567203 55.652378 95 46 55
2.413630 10.691808 55.676525 93 46 54
2.414713 10.816681 55.701519 94 47 55
2.415813 10.941735 55.726883 94 48 55
2.416910 11.066887 55.752190 95 48 54
2.417986 11.192049 55.777008 96 49 54
2.419024 11.317144 55.800964 96 49 53
2.420011 11.442099 55.823727 95 49 53
2.420935 11.566850 55.845039 95 50 53
2.421787 11.691345 55.864689 95 51 54
2.422561 11.815544 55.882538 94 51 54
2.423253 11.939417 55.898495 94 53 55
2.423862 12.062945 55.912540 92 53 55
2.424387 12.186117 55.924671 91 54 55
2.424831 12.308927 55.934917 90 54 55
2.425196 12.431373 55.943329 86 50 51
2.425484 12.553456 55.949966 80 45 46
2.425697 12.675179 55.954880 79 43 46
2.425837 12.796538 55.958115 81 45 49
2.425905 12.917527 55.959682 84 46 52
2.425901 13.038134 55.959579 86 47 56
2.425823 13.158343 55.957790 91 53 63
2.425670 13.278133 55.954269 106 69 79
2.425441 13.397482 55.948967 119 82 92
2.425131 13.516364 55.941826 107 71 80
2.424739 13.634754 55.932793 83 48 56
2.424265 13.752635 55.921848 73 40 46
2.423708 13.869994 55.908993 72 40 44
2.423070 13.986834 55.894283 68 40 42
2.422355 14.103160 55.877789 65 39 40
2.421569 14.218997 55.859653 63 37 39
2.420720 14.334387 55.840076 62 37 38
2.419819 14.449381 55.819302 61 37 38
2.418880 14.564050 55.797623 60 36 38
2.417914 14.678472 55.775356 60 36 37
2.416939 14.792732 55.752850 61 35 37
2.415967 14.906924 55.730446 61 35 36
2.415016 15.021140 55.708488 61 34 35
2.414097 15.135468 55.687290 61 34 36
2.413222 15.249985 55.667122 62 34 36
2.412401 15.364755 55.648182 62 35 36
2.411639 15.479824 55.630611 62 35 37
2.410939 15.595213 55.614449 61 35 37
2.664094 -9.454367 58.543022 84 52 62
2.664405 -9.329257 58.549858 90 58 65
2.664395 -9.203009 58.549637 97 64 68
2.664088 -9.075747 58.542877 98 65 66
2.663512 -8.947616 58.530231 97 66 65
2.662704 -8.818766 58.512466 96 66 64
2.661700 -8.689356 58.490406 91 63 61
2.660541 -8.559541 58.464935 82 58 54
2.659266 -8.429469 58.436920 71 51 47
2.657914 -8.299277 58.407211 60 43 39
2.656521 -8.169087 58.376602 50 36 32
2.655119 -8.039002 58.345787 42 29 25
2.653734 -7.909101 58.315361 36 23 21
2.652388 -7.779445 58.285782 33 21 19
2.651096 -7.650072 58.257381 32 20 18
2.649866 -7.520998 58.230358 31 19 18
2.648702 -7.392224 58.204777 30 18 17
2.647601 -7.263734 58.180592 29 17 17
2.646558 -7.135503 58.157658 29 17 17
2.645561 -7.007494 58.135754 29 17 17
2.644599 -6.879671 58.114613 29 17 17
2.643657 -6.751991 58.093925 28 17 17
2.642723 -6.624417 58.073387 28 17 17
2.641782 -6.496916 58.052708 28 17 17
2.640822 -6.369461 58.031628 27 17 17
2.639835 -6.242030 58.009941 27 17 16
2.638814 -6.114612 57.987484 26 16 16
2.637752 -5.987202 57.964165 26 16 16
2.636650 -5.859800 57.939938 25 16 16
2.635507 -5.732416 57.914825 25 16 17
2.634328 -5.605062 57.888905 25 16 17
2.633115 -5.477750 57.862263 25 16 17
2.631877 -5.350502 57.835052 25 16 17
2.630619 -5.223331 57.807415 26 16 17
2.629350 -5.096257 57.779518 26 17 17
2.628075 -4.969294 57.751511 26 16 16
2.626802 -4.842455 57.723541 26 17 17
2.625537 -4.715749 57.695728 25 17 17
2.624283 -4.589184 57.668171 25 17 18
2.623043 -4.462762 57.640934 25 17 18
2.621820 -4.336484 57.614056 26 16 18
2.620613 -4.210348 57.587528 27 16 18
2.619421 -4.084350 57.561333 27 16 18
2.618241 -3.958484 57.535404 28 15 18
2.617071 -3.832743 57.509686 28 15 17
2.615904 -3.707118 57.484043 27 15 16
2.614737 -3.581603 57.458397 27 15 16
2.613564 -3.456190 57.432617 28 15 16
2.612380 -3.330876 57.406605 29 16 16
2.611180 -3.205654 57.380249 30 16 15
2.609962 -3.080523 57.353462 30 17 15
2.608720 -2.955481 57.326176 30 17 15
2.607452 -2.830530 57.298328 30 17 15
2.606158 -2.705670 57.269894 30 17 15
2.604838 -2.580908 57.240883 30 17 15
2.603492 -2.456245 57.211292 29 17 15
2.602122 -2.331690 57.181190 28 17 14
2.600731 -2.207246 57.150635 29 18 14
2.599325 -2.082921 57.119724 29 18 15
2.597907 -1.958721 57.088566 30 18 16
2.596483 -1.834652 57.057281 30 18 16
2.595060 -1.710718 57.026016 30 18 16
2.593645 -1.586923 56.994919 31 18 17
2.592244 -1.463270 56.964134 31 18 17
2.590865 -1.339762 56.933826 31 17 17
2.589514 -1.216397 56.904140 31 17 16
2.588199 -1.093175 56.875233 31 17 16
2.586925 -0.970094 56.847248 31 18 17
2.585699 -0.847149 56.820309 32 18 17
2.584527 -0.724334 56.794533 32 17 17
2.583411 -0.601645 56.770023 33 17 17
2.582356 -0.479072 56.746841 33 17 17
2.581365 -0.356608 56.725060 34 17 18
2.580438 -0.234244 56.704689 34 18 19
2.579574 -0.111970 56.685711 34 18 19
2.578772 0.010222 56.668079 35 18 19
2.578027 0.132341 56.651699 35 18 19
2.577331 0.254394 56.636421 36 19 19
2.576678 0.376388 56.622063 37 19 20
2.576055 0.498326 56.608379 38 20 21
2.575450 0.620208 56.595074 39 21 22
2.574846 0.742034 56.581802 39 22 23
2.574225 0.863797 56.568169 39 21 22
2.573569 0.985488 56.553753 39 21 21
2.572857 1.107092 56.538101 41 23 22
2.572067 1.228592 56.520752 41 24 23
2.571180 1.349966 56.501240 40 24 22
2.570174 1.471188 56.479137 39 23 23
2.569032 1.592230 56.454052 39 23 24
2.567740 1.713064 56.425663 38 23 24
2.566287 1.833661 56.393726 38 23 24
2.564667 1.953992 56.358116 37 23 24
2.562878 2.074033 56.318810 38 22 23
2.560926 2.193765 56.275909 39 22 23
2.558820 2.313174 56.229652 40 22 22
2.556579 2.432254 56.180386 41 22 22
2.554221 2.551005 56.128578 41 23 21
2.551773 2.669439 56.074787 41 23 22
2.549265 2.787574 56.019665 40 22 21
2.546727 2.905438 55.963894 40 22 21
2.544193 3.023066 55.908203 40 22 22
2.541694 3.140498 55.853302 39 22 23
2.539264 3.257781 55.799892 40 23 24
2.536930 3.374962 55.748611 41 23 25
2.534720 3.492092 55.700039 42 24 26
2.532655 3.609220 55.654663 43 24 26
2.530753 3.726393 55.612877 45 25 27
2.529028 3.843653 55.574963 46 25 27
2.527488 3.961041 55.541122 47 25 27
2.526137 4.078587 55.511429 47 25 27
2.524974 4.196319 55.485886 46 25 26
2.523996 4.314256 55.464394 46 24 26
2.523195 4.432411 55.446785 46 24 25
2.522561 4.550791 55.432846 46 24 25
2.522081 4.669398 55.422306 46 24 25
2.521741 4.788225 55.414841 45 24 24
2.521527 4.907263 55.410126 45 24 23
2.521422 5.026500 55.407822 44 24 24
2.521411 5.145918 55.407589 43 23 23
2.521479 5.265500 55.409073 43 22 23
2.521610 5.385224 55.411964 44 22 23
2.521792 5.505070 55.415958 45 22 23
2.522012 5.625019 55.420788 46 22 24
2.522259 5.745049 55.426212 47 23 24
2.522523 5.865144 55.432018 49 23 25
2.522797 5.985287 55.438038 50 24 26
2.523075 6.105464 55.444141 52 25 26
2.523351 6.225665 55.450218 54 25 26
2.523623 6.345881 55.456196 55 25 27
2.523888 6.466105 55.462021 55 25 27
2.524145 6.586333 55.467663 56 24 27
2.524392 6.706558 55.473083 57 23 27
2.524627 6.826775 55.478252 59 22 27
2.524849 6.946979 55.483139 62 21 27
2.525056 7.067161 55.487682 65 22 28
2.525244 7.187308 55.491810 69 24 28
2.525409 7.307406 55.495430 74 27 31
2.525545 7.427438 55.498432 83 34 38
2.525649 7.547383 55.500706 93 42 47
2.525713 7.667218 55.502110 98 46 52
2.525733 7.786923 55.502548 101 49 54
2.525703 7.906476 55.501907 104 50 56
2.525623 8.025864 55.500134 107 52 58
2.525490 8.145076 55.497223 108 54 59
2.525308 8.264112 55.493214 109 55 59
2.525080 8.382981 55.488213 110 56 59
2.524816 8.501706 55.482410 109 56 58
2.524527 8.620319 55.476051 109 56 57
2.524227 8.738868 55.469460 108 56 58
2.523933 8.857409 55.462994 109 56 58
2.523663 8.976010 55.457069 108 56 58
2.523437 9.094743 55.452106 108 55 58
2.523275 9.213685 55.448536 107 55 57
2.523194 9.332913 55.446754 106 54 56
2.523211 9.452502 55.447124 104 52 54
2.523339 9.572515 55.449959 104 52 55
2.523590 9.693009 55.455463 105 54 58
2.523968 9.814024 55.463779 107 56 62
2.524477 9.935587 55.474957 108 58 64
2.525113 10.057705 55.488930 107 58 65
2.525869 10.180370 55.505554 104 56 64
2.526736 10.303555 55.524593 99 51 60
2.527698 10.427217 55.545742 95 48 57
2.528740 10.551300 55.568626 93 46 55
2.529842 10.675737 55.592842 91 44 54
2.530984 10.800451 55.617947 91 45 53
2.532147 10.925364 55.643501 92 45 53
2.533311 11.050389 55.669083 93 46 53
2.534457 11.175448 55.694271 94 47 54
2.535569 11.300463 55.718712 95 49 54
2.536633 11.425366 55.742096 95 49 55
2.537637 11.550094 55.764141 95 50 55
2.538571 11.674597 55.784664 95 51 56
2.539428 11.798835 55.803509 95 51 56
2.540206 11.922778 55.820595 95 53 57
2.540901 12.046406 55.835876 93 54 57
2.541514 12.169705 55.849354 91 54 56
2.542046 12.292667 55.861034 89 53 54
2.542498 12.415292 55.870964 84 49 50
2.542872 12.537578 55.879192 78 44 45
2.543171 12.659522 55.885761 77 42 45
2.543395 12.781117 55.890678 79 44 48
2.543545 12.902359 55.893974 82 46 51
2.543620 13.023232 55.895618 85 48 55
2.543618 13.143716 55.895588 89 52 61
2.543539 13.263792 55.893833 97 60 70
2.543377 13.383430 55.890289 103 66 76
2.543132 13.502610 55.884899 96 61 69
2.542801 13.621303 55.877613 81 48 55
2.542381 13.739490 55.868397 74 42 48
2.541875 13.857162 55.857265 72 41 46
2.541282 13.974314 55.844250 68 40 43
2.540608 14.090958 55.829445 65 38 41
2.539859 14.207115 55.812973 63 37 39
2.539044 14.322831 55.795063 62 36 38
2.538174 14.438156 55.775940 61 36 37
2.537262 14.553164 55.755917 60 36 37
2.536324 14.667930 55.735298 60 35 37
2.535376 14.782546 55.714455 60 35 36
2.534432 14.897101 55.693726 60 34 36
2.533510 15.011697 55.673466 60 34 36
2.532624 15.126413 55.653980 61 35 37
2.531785 15.241333 55.635540 61 35 38
2.531003 15.356521 55.618359 62 37 39
2.530284 15.472020 55.602566 62 36 38
2.529630 15.587852 55.588200 60 36 38
2.786491 -9.441484 58.463253 83 53 65
2.786762 -9.316360 58.468922 85 54 64
2.786692 -9.190092 58.467464 90 58 63
2.786309 -9.062809 58.459423 92 61 62
2.785643 -8.934654 58.445446 93 63 62
2.784731 -8.805781 58.426315 94 65 63
2.783613 -8.676350 58.402855 89 63 61
2.782330 -8.546513 58.375946 80 57 54
2.780925 -8.416421 58.346462 70 49 46
2.779437 -8.286210 58.315250 60 42 39
2.777904 -8.156001 58.283085 51 35 32
2.776359 -8.025895 58.250660 44 30 27
2.774829 -7.895973 58.218563 38 25 24
2.773336 -7.766294 58.187244 35 22 21
2.771896 -7.636893 58.157028 33 21 20
2.770517 -7.507791 58.128101 31 19 19
2.769203 -7.378985 58.100540 30 18 18
2.767952 -7.250463 58.074287 29 17 18
2.766757 -7.122197 58.049206 29 17 18
2.765607 -6.994154 58.025082 29 17 18
2.764490 -6.866297 58.001648 29 17 18
2.763392 -6.738588 57.978611 29 17 18
2.762299 -6.610990 57.955677 29 17 18
2.761198 -6.483471 57.932575 28 17 17
2.760076 -6.356005 57.909042 27 17 17
2.758926 -6.228576 57.884903 27 17 16
2.757739 -6.101169 57.859997 27 17 16
2.756511 -5.973783 57.834248 26 17 17
2.755243 -5.846420 57.807636 26 17 17
2.753935 -5.719090 57.780190 25 17 17
2.752591 -5.591805 57.751987 25 16 17
2.751216 -5.464581 57.723152 24 15 17
2.749819 -5.337436 57.693829 25 15 17
2.748405 -5.210388 57.664173 26 16 17
2.746985 -5.083455 57.634369 26 17 17
2.745565 -4.956651 57.604576 26 17 16
2.744153 -4.829990 57.574959 26 18 17
2.742755 -4.703481 57.545628 26 18 17
2.741377 -4.577130 57.516705 25 17 18
2.740020 -4.450941 57.488251 25 17 18
2.738688 -4.324912 57.460297 26 16 18
2.737380 -4.199040 57.432854 27 16 17
2.736095 -4.073321 57.405899 27 16 18
2.734831 -3.947748 57.379360 28 15 17
2.733582 -3.822311 57.353157 28 15 17
2.732344 -3.697002 57.327183 27 15 16
2.731111 -3.571811 57.301319 27 14 15
2.729877 -3.446732 57.275444 28 15 15
2.728638 -3.321756 57.249432 29 16 15
2.727386 -3.196878 57.223164 30 17 15
2.726117 -3.072094 57.196541 30 17 15
2.724827 -2.947402 57.169468 30 18 15
2.723511 -2.822801 57.141872 30 18 15
2.722170 -2.698292 57.113728 30 18 15
2.720801 -2.573879 57.085003 30 18 15
2.719404 -2.449565 57.055698 29 17 15
2.717982 -2.325356 57.025867 29 18 15
2.716537 -2.201257 56.995552 31 19 16
2.715074 -2.077273 56.964844 31 19 16
2.713596 -1.953413 56.933838 30 19 16
2.712110 -1.829680 56.902657 31 19 16
2.710622 -1.706080 56.871433 31 19 16
2.709138 -1.582618 56.840313 31 19 17
2.707667 -1.459297 56.809444 30 18 17
2.706215 -1.336118 56.778980 30 18 17
2.704790 -1.213082 56.749081 30 17 16
2.703399 -1.090189 56.719898 30 17 17
2.702049 -0.967437 56.691578 31 17 17
2.700747 -0.844822 56.664265 31 17 17
2.699499 -0.722339 56.638077 32 17 17
2.698309 -0.599982 56.613113 32 16 17
2.697183 -0.477744 56.589478 33 16 17
2.696122 -0.355616 56.567215 33 17 18
2.695128 -0.233590 56.546364 33 17 19
2.694201 -0.111656 56.526924 33 18 19
2.693341 0.010193 56.508858 34 18 19
2.692541 0.131968 56.492077 35 18 19
2.691796 0.253676 56.476456 35 19 20
2.691098 0.375323 56.461811 36 20 21
2.690436 0.496913 56.447918 37 21 22
2.689796 0.618449 56.434486 38 22 23
2.689162 0.739928 56.421192 39 22 23
2.688516 0.861346 56.407642 40 22 23
2.687838 0.982694 56.393414 40 22 23
2.687107 1.103959 56.378067 41 23 22
2.686300 1.225123 56.361134 41 23 23
2.685395 1.346165 56.342155 40 23 23
2.684372 1.467061 56.320694 40 23 23
2.683212 1.587782 56.296349 39 23 23
2.681898 1.708302 56.268795 39 23 24
2.680420 1.828590 56.237778 39 23 24
2.678770 1.948619 56.203152 39 23 24
2.676945 2.068364 56.164875 39 22 23
2.674952 2.187806 56.123047 40 22 23
2.672799 2.306930 56.077873 41 22 23
2.670502 2.425730 56.029697 41 22 23
2.668084 2.544205 55.978966 41 22 22
2.665570 2.662366 55.926220 40 22 21
2.662991 2.780231 55.872108 40 22 21
2.660379 2.897828 55.817303 39 22 21
2.657768 3.015188 55.762516 39 21 22
2.655192 3.132354 55.708466 39 22 23
2.652684 3.249371 55.655846 40 23 24
2.650275 3.366286 55.605301 41 23 25
2.647992 3.483150 55.557407 42 24 26
2.645860 3.600012 55.512669 43 25 26
2.643897 3.716919 55.471481 44 25 27
2.642117 3.833914 55.434139 45 25 27
2.640531 3.951037 55.400856 45 25 27
2.639142 4.068322 55.371719 46 25 27
2.637952 4.185797 55.346752 46 25 26
2.636956 4.303481 55.325859 46 24 26
2.636147 4.421389 55.308899 47 24 26
2.635516 4.539529 55.295658 47 24 27
2.635050 4.657903 55.285873 47 25 27
2.634735 4.776509 55.279255 47 25 26
2.634555 4.895338 55.275475 46 25 26
2.634493 5.014377 55.274193 45 24 25
2.634536 5.133612 55.275078 45 23 25
2.634665 5.253024 55.277786 44 23 24
2.634866 5.372593 55.282001 45 23 24
2.635124 5.492301 55.287418 46 22 24
2.635426 5.612125 55.293755 47 22 25
2.635760 5.732046 55.300762 48 23 26
2.636116 5.852046 55.308228 49 24 26
2.636484 5.972106 55.315960 51 24 26
2.636859 6.092215 55.323826 52 25 27
2.637234 6.212358 55.331699 54 26 27
2.637606 6.332527 55.339493 56 26 27
2.637971 6.452713 55.347149 56 26 27
2.638326 6.572909 55.354610 57 24 27
2.638671 6.693109 55.361843 58 23 27
2.639003 6.813308 55.368809 60 22 27
2.639320 6.933497 55.375465 63 21 27
2.639620 7.053669 55.381748 66 22 28
2.639899 7.173810 55.387596 69 23 28
2.640151 7.293906 55.392899 74 26 30
2.640373 7.413938 55.397564 83 33 38
2.640559 7.533886 55.401455 93 42 47
2.640702 7.653728 55.404457 100 47 53
2.640798 7.773442 55.406460 103 50 56
2.640840 7.893006 55.407349 106 52 58
2.640827 8.012406 55.407078 108 53 60
2.640758 8.131632 55.405621 110 55 60
2.640634 8.250680 55.403019 111 55 59
2.640460 8.369560 55.399380 111 56 59
2.640245 8.488292 55.394867 111 56 59
2.640000 8.606907 55.389732 111 56 59
2.639741 8.725450 55.384285 111 57 60
2.639483 8.843977 55.378880 111 57 60
2.639246 8.962551 55.373913 111 57 60
2.639050 9.081244 55.369797 110 57 60
2.638915 9.200130 55.366955 110 56 60
2.638859 9.319284 55.365784 110 56 60
2.638900 9.438782 55.366646 109 55 59
2.639052 9.558684 55.369835 108 55 59
2.639326 9.679048 55.375584 108 55 61
2.639729 9.799913 55.384033 108 56 63
2.640263 9.921309 55.395233 108 57 64
2.640925 10.043243 55.409142 107 57 65
2.641711 10.165710 55.425625 103 55 63
2.642609 10.288687 55.444473 98 51 60
2.643606 10.412133 55.465393 94 48 57
2.644686 10.535998 55.488041 91 46 55
2.645830 10.660221 55.512043 90 44 54
2.647018 10.784727 55.536968 89 44 53
2.648230 10.909441 55.562408 89 43 52
2.649448 11.034286 55.587959 89 43 51
2.650653 11.159185 55.613228 91 44 52
2.651827 11.284065 55.637863 93 47 54
2.652956 11.408860 55.661568 94 48 55
2.654030 11.533510 55.684078 94 49 56
2.655036 11.657969 55.705204 94 50 56
2.655970 11.782192 55.724796 94 51 56
2.656826 11.906153 55.742760 94 52 57
2.657603 12.029831 55.759052 93 53 57
2.658299 12.153212 55.773663 89 52 54
2.658915 12.276284 55.786583 85 49 51
2.659452 12.399046 55.797852 82 46 48
2.659912 12.521490 55.807491 79 44 45
2.660296 12.643617 55.815548 77 43 46
2.660604 12.765416 55.822018 79 45 48
2.660837 12.886876 55.826900 81 46 51
2.660993 13.007984 55.830181 82 47 54
2.661071 13.128718 55.831810 85 49 58
2.661067 13.249055 55.831730 87 52 61
2.660979 13.368967 55.829887 88 54 62
2.660804 13.488429 55.826206 85 52 59
2.660538 13.607412 55.820633 78 47 53
2.660181 13.725901 55.813141 74 43 48
2.659732 13.843878 55.803722 71 42 46
2.659194 13.961347 55.792431 68 40 44
2.658570 14.078314 55.779346 65 38 42
2.657868 14.194804 55.764606 64 37 40
2.657096 14.310858 55.748421 62 36 38
2.656267 14.426532 55.731033 61 35 37
2.655396 14.541896 55.712746 60 35 37
2.654497 14.657032 55.693890 59 35 37
2.653588 14.772027 55.674812 59 34 37
2.652685 14.886977 55.655872 60 34 37
2.651806 15.001976 55.637417 60 34 37
2.650964 15.117114 55.619762 61 35 38
2.650174 15.232467 55.603176 61 36 39
2.649444 15.348103 55.587868 62 37 40
2.648781 15.464063 55.573967 62 37 39
2.648187 15.580367 55.561508 60 36 39
2.908702 -9.429114 58.386658 80 52 64
2.908925 -9.303964 58.391121 81 51 61
2.908789 -9.177664 58.388397 86 57 62
2.908322 -9.050345 58.379025 90 61 62
2.907557 -8.922153 58.363670 92 64 62
2.906533 -8.793242 58.343113 95 68 64
2.905291 -8.663771 58.318184 93 67 64
2.903876 -8.533895 58.289768 83 59 57
2.902330 -8.403767 58.258736 70 49 46
2.900696 -8.273519 58.225933 60 42 39
2.899011 -8.143273 58.192127 53 37 34
2.897312 -8.013129 58.158009 47 32 30
2.895625 -7.883169 58.124153 41 26 26
2.893974 -7.753448 58.091007 36 23 24
2.892374 -7.624007 58.058891 34 21 22
2.890835 -7.494860 58.027992 32 19 20
2.889359 -7.366010 57.998375 30 18 19
2.887945 -7.237442 57.969994 30 17 18
2.886586 -7.109131 57.942711 29 17 18
2.885271 -6.981044 57.916317 29 17 18
2.883988 -6.853146 57.890553 29 17 18
2.882722 -6.725400 57.865139 29 17 18
2.881459 -6.597771 57.839790 29 17 18
2.880186 -6.470229 57.814247 28 17 17
2.878892 -6.342750 57.788269 28 18 16
2.877567 -6.215316 57.761673 27 18 16
2.876205 -6.087917 57.734325 27 18 16
2.874802 -5.960552 57.706161 26 18 17
2.873357 -5.833225 57.677170 26 18 17
2.871874 -5.705945 57.647396 26 17 17
2.870356 -5.578727 57.616928 25 16 17
2.868810 -5.451586 57.585892 25 16 16
2.867244 -5.324543 57.554466 25 16 17
2.865667 -5.197615 57.522804 26 16 17
2.864088 -5.070819 57.491112 27 17 17
2.862516 -4.944172 57.459545 26 17 17
2.860958 -4.817685 57.428280 26 17 17
2.859422 -4.691369 57.397438 25 17 17
2.857913 -4.565229 57.367153 24 17 17
2.856435 -4.439268 57.337482 24 16 17
2.854990 -4.313484 57.308475 25 16 17
2.853578 -4.187874 57.280132 27 17 17
2.852197 -4.062431 57.252422 27 16 17
2.850845 -3.937147 57.225277 27 15 16
2.849517 -3.812012 57.198624 27 14 15
2.848207 -3.687015 57.172333 27 14 15
2.846909 -3.562147 57.146278 27 14 15
2.845617 -3.437397 57.120327 28 15 15
2.844322 -3.312757 57.094341 28 17 15
2.843019 -3.188220 57.068184 29 18 15
2.841702 -3.063780 57.041744 30 18 16
2.840365 -2.939434 57.014908 29 19 16
2.839004 -2.815179 56.987587 29 19 16
2.837616 -2.691017 56.959732 29 18 15
2.836200 -2.566949 56.931309 29 18 15
2.834755 -2.442980 56.902302 29 18 15
2.833282 -2.319112 56.872738 30 18 15
2.831784 -2.195352 56.842659 31 19 16
2.830263 -2.071705 56.812138 31 19 16
2.828725 -1.948178 56.781269 31 19 16
2.827176 -1.824777 56.750168 31 19 16
2.825621 -1.701506 56.718952 31 19 16
2.824068 -1.578371 56.687775 31 19 17
2.822524 -1.455375 56.656780 31 18 17
2.820996 -1.332521 56.626125 30 18 17
2.819494 -1.209809 56.595970 30 17 17
2.818024 -1.087240 56.566463 30 18 18
2.816595 -0.964813 56.537777 31 18 18
2.815213 -0.842523 56.510040 32 17 18
2.813885 -0.720366 56.483387 32 17 18
2.812618 -0.598337 56.457943 32 16 17
2.811415 -0.476429 56.433792 32 16 17
2.810280 -0.354634 56.411011 33 17 18
2.809216 -0.232942 56.389652 32 17 18
2.808223 -0.111346 56.369728 33 17 19
2.807300 0.010165 56.351204 34 18 19
2.806444 0.131599 56.334015 34 18 19
2.805648 0.252964 56.318039 35 18 20
2.804905 0.374268 56.303127 35 19 21
2.804204 0.495515 56.289051 36 20 22
2.803531 0.616707 56.275539 37 22 24
2.802870 0.737844 56.262268 39 22 24
2.802202 0.858922 56.248867 40 22 24
2.801507 0.979932 56.234917 40 22 24
2.800763 1.100863 56.219982 40 23 23
2.799947 1.221698 56.203590 40 23 24
2.799035 1.342417 56.185291 40 24 24
2.798006 1.462996 56.164635 40 24 24
2.796839 1.583407 56.141220 40 24 24
2.795518 1.703624 56.114700 40 23 23
2.794029 1.823616 56.084816 40 23 23
2.792365 1.943358 56.051399 41 23 24
2.790522 2.062823 56.014400 41 23 23
2.788503 2.181992 55.973881 41 23 23
2.786319 2.300849 55.930046 42 23 24
2.783986 2.419388 55.883213 42 23 24
2.781525 2.537608 55.833809 41 22 22
2.778962 2.655518 55.782360 40 21 21
2.776328 2.773135 55.729488 40 22 21
2.773656 2.890485 55.675861 40 22 21
2.770982 3.007601 55.622189 40 22 22
2.768341 3.124522 55.569168 39 23 22
2.765767 3.241294 55.517502 40 23 23
2.763292 3.357964 55.467827 41 23 24
2.760946 3.474581 55.420727 41 24 25
2.758753 3.591195 55.376713 42 25 26
2.756734 3.707853 55.336182 43 25 26
2.754905 3.824599 55.299454 44 26 26
2.753275 3.941473 55.266739 44 26 26
2.751850 4.058508 55.238152 45 26 26
2.750633 4.175736 55.213722 45 25 26
2.749620 4.293176 55.193386 46 25 26
2.748804 4.410845 55.177002 47 25 27
2.748175 4.528752 55.164383 48 25 28
2.747722 4.646901 55.155281 48 25 28
2.747430 4.765290 55.149410 48 26 28
2.747283 4.883912 55.146458 47 25 27
2.747265 5.002757 55.146103 46 25 27
2.747360 5.121809 55.148003 46 24 26
2.747550 5.241054 55.151829 46 24 25
2.747821 5.360471 55.157265 46 23 25
2.748156 5.480039 55.163986 46 23 25
2.748542 5.599741 55.171734 47 22 25
2.748965 5.719553 55.180233 48 23 26
2.749415 5.839458 55.189262 49 24 26
2.749882 5.959439 55.198631 51 25 26
2.750357 6.079479 55.208164 52 26 27
2.750834 6.199565 55.217747 55 26 28
2.751309 6.319686 55.227276 56 26 28
2.751777 6.439833 55.236671 56 26 28
2.752235 6.559998 55.245880 57 25 27
2.752682 6.680173 55.254848 59 23 27
2.753115 6.800354 55.263538 61 22 27
2.753531 6.920530 55.271896 64 22 27
2.753929 7.040692 55.279865 67 22 27
2.754303 7.160830 55.287373 70 22 28
2.754649 7.280925 55.294319 74 25 30
2.754962 7.400962 55.300606 83 32 38
2.755236 7.520920 55.306107 94 41 47
2.755465 7.640776 55.310703 100 47 53
2.755643 7.760509 55.314278 104 50 57
2.755765 7.880097 55.316730 107 53 59
2.755828 7.999524 55.317993 109 54 60
2.755831 8.118779 55.318050 110 55 59
2.755775 8.237860 55.316929 111 55 59
2.755665 8.356771 55.314728 111 56 59
2.755510 8.475533 55.311604 112 56 59
2.755320 8.594173 55.307793 112 57 61
2.755110 8.712736 55.303585 113 57 62
2.754898 8.831271 55.299324 113 57 62
2.754702 8.949841 55.295395 113 57 63
2.754543 9.068516 55.292194 113 58 63
2.754440 9.187365 55.290134 113 58 63
2.754413 9.306461 55.289600 113 58 63
2.754481 9.425878 55.290951 112 58 62
2.754657 9.545675 55.294483 111 57 63
2.754952 9.665908 55.300411 110 57 64
2.755375 9.786619 55.308899 109 57 65
2.755928 9.907836 55.320007 108 57 65
2.756610 10.029568 55.333694 106 57 66
2.757416 10.151814 55.349861 103 56 65
2.758335 10.274553 55.368309 99 52 61
2.759354 10.397751 55.388775 95 50 58
2.760459 10.521360 55.410946 92 47 56
2.761630 10.645323 55.434464 90 45 55
2.762849 10.769573 55.458935 90 45 55
2.764097 10.894041 55.483978 89 44 54
2.765354 11.018655 55.509209 88 42 52
2.766602 11.143342 55.534267 88 42 51
2.767825 11.268032 55.558811 91 45 53
2.769008 11.392667 55.582558 92 47 55
2.770139 11.517184 55.605255 93 48 56
2.771208 11.641543 55.626724 93 48 56
2.772208 11.765701 55.646801 92 49 55
2.773135 11.889629 55.665401 91 49 55
2.773985 12.013308 55.682465 90 49 54
2.774758 12.136719 55.697971 87 49 52
2.775453 12.259854 55.711922 84 47 50
2.776070 12.382705 55.724316 82 45 48
2.776612 12.505267 55.735191 81 44 47
2.777078 12.627535 55.744556 80 44 48
2.777470 12.749497 55.752407 81 46 49
2.777785 12.871142 55.758739 81 46 50
2.778023 12.992451 55.763508 82 47 52
2.778181 13.113403 55.766678 81 47 53
2.778256 13.233975 55.768188 81 47 53
2.778244 13.354136 55.767952 81 47 54
2.778143 13.473863 55.765919 79 47 53
2.777948 13.593121 55.762005 76 45 50
2.777658 13.711896 55.756195 73 43 47
2.777274 13.830176 55.748489 70 41 45
2.776798 13.947956 55.738922 68 40 43
2.776233 14.065248 55.727581 66 38 41
2.775586 14.182076 55.714603 64 37 40
2.774869 14.298479 55.700199 63 36 39
2.774092 14.414515 55.684608 62 35 38
2.773272 14.530255 55.668148 61 35 37
2.772424 14.645778 55.651131 60 34 38
2.771567 14.761177 55.633919 60 34 38
2.770717 14.876545 55.616871 60 34 38
2.769893 14.991976 55.600330 60 35 38
2.769111 15.107561 55.584618 61 35 39
2.768383 15.223378 55.570000 61 36 39
2.767719 15.339490 55.556679 62 37 40
2.767126 15.455940 55.544777 60 37 40
2.766605 15.572745 55.534325 59 36 39
3.030738 -9.417225 58.313038 79 51 63
3.030907 -9.292040 58.316288 78 50 58
3.030698 -9.165698 58.312271 84 56 61
3.030141 -9.038333 58.301540 89 61 62
3.029269 -8.910091 58.284771 92 65 63
3.028124 -8.781128 58.262737 97 71 67
3.026749 -8.651605 58.236290 95 71 66
3.025191 -8.521677 58.206306 83 60 56
3.023494 -8.391495 58.173664 69 48 45
3.021703 -8.261194 58.139198 62 42 40
3.019857 -8.130897 58.103683 57 39 38
3.017992 -8.000700 58.067795 50 33 33
3.016137 -7.870685 58.032112 42 27 27
3.014316 -7.740911 57.997066 37 23 24
3.012545 -7.611413 57.962982 35 21 22
3.010833 -7.482210 57.930050 33 19 21
3.009184 -7.353303 57.898323 31 18 20
3.007596 -7.224679 57.867764 30 18 19
3.006061 -7.096313 57.838238 29 17 18
3.004570 -6.968174 57.809547 29 17 18
3.003109 -6.840229 57.781433 29 17 18
3.001664 -6.712440 57.753635 29 17 18
3.000221 -6.584776 57.725868 29 17 18
2.998766 -6.457206 57.697887 28 17 17
2.997289 -6.329710 57.669464 28 18 17
2.995780 -6.202269 57.640419 27 18 16
2.994232 -6.074876 57.610649 27 18 16
2.992644 -5.947530 57.580090 26 18 17
2.991014 -5.820236 57.548733 27 19 17
2.989347 -5.693005 57.516651 27 18 17
2.987647 -5.565850 57.483936 26 18 17
2.985921 -5.438791 57.450737 26 17 17
2.984179 -5.311847 57.417221 26 17 17
2.982430 -5.185034 57.383572 27 17 17
2.980685 -5.058372 57.349995 27 17 17
2.978953 -4.931877 57.316658 27 17 17
2.977243 -4.805562 57.283760 26 17 17
2.975562 -4.679434 57.251427 25 16 16
2.973918 -4.553502 57.219784 24 16 16
2.972313 -4.427764 57.188908 24 15 15
2.970751 -4.302222 57.158855 25 16 16
2.969231 -4.176869 57.129612 26 16 16
2.967753 -4.051699 57.101170 26 16 16
2.966312 -3.926700 57.073441 26 14 15
2.964904 -3.801863 57.046345 25 14 15
2.963521 -3.677176 57.019753 26 14 15
2.962158 -3.552625 56.993523 26 14 15
2.960806 -3.428201 56.967510 27 15 16
2.959458 -3.303893 56.941563 27 17 16
2.958105 -3.179692 56.915539 28 18 15
2.956741 -3.055592 56.889294 28 19 16
2.955359 -2.931587 56.862705 28 19 16
2.953954 -2.807675 56.835678 29 19 16
2.952523 -2.683855 56.808125 29 18 16
2.951061 -2.560127 56.780003 29 19 16
2.949569 -2.436496 56.751293 30 19 16
2.948046 -2.312965 56.721989 30 19 16
2.946494 -2.189538 56.692142 31 19 16
2.944917 -2.066223 56.661797 31 19 17
2.943319 -1.943024 56.631042 31 19 17
2.941705 -1.819948 56.599987 31 19 16
2.940081 -1.697000 56.568752 31 19 16
2.938456 -1.574186 56.537483 31 18 16
2.936837 -1.451510 56.506325 31 18 16
2.935231 -1.328975 56.475437 30 18 17
2.933648 -1.206582 56.444973 30 18 17
2.932096 -1.084331 56.415108 31 19 18
2.930583 -0.962222 56.385994 32 19 19
2.929117 -0.840253 56.357784 32 18 19
2.927705 -0.718418 56.330620 32 18 18
2.926354 -0.596713 56.304630 32 17 17
2.925070 -0.475130 56.279926 32 17 17
2.923857 -0.353663 56.256588 32 16 17
2.922719 -0.232302 56.234684 33 17 18
2.921656 -0.111039 56.214230 33 17 19
2.920668 0.010137 56.195221 33 18 19
2.919752 0.131234 56.177601 34 18 19
2.918903 0.252260 56.161278 34 18 20
2.918114 0.373224 56.146095 35 19 21
2.917374 0.494131 56.131855 35 20 22
2.916669 0.614983 56.118294 36 22 23
2.915984 0.735783 56.105103 37 22 24
2.915299 0.856525 56.091923 39 22 24
2.914593 0.977204 56.078342 40 22 24
2.913844 1.097807 56.063923 40 23 23
2.913027 1.218321 56.048214 40 23 24
2.912119 1.338724 56.030743 40 24 24
2.911096 1.458995 56.011066 40 24 24
2.909937 1.579107 55.988766 40 24 23
2.908624 1.699033 55.963490 40 23 23
2.907141 1.818744 55.934959 41 23 23
2.905479 1.938212 55.902992 42 23 23
2.903636 2.057414 55.867512 43 23 23
2.901612 2.176327 55.828571 43 23 24
2.899416 2.294937 55.786335 43 23 24
2.897065 2.413235 55.741100 43 23 24
2.894580 2.531221 55.693272 42 22 23
2.891986 2.648901 55.643368 42 22 22
2.889315 2.766292 55.591972 42 22 22
2.886601 2.883418 55.539753 41 22 22
2.883879 3.000312 55.487396 41 23 22
2.881187 3.117012 55.435593 40 24 22
2.878560 3.233561 55.385040 40 24 23
2.876031 3.350006 55.336380 41 24 24
2.873630 3.466397 55.290188 42 24 24
2.871384 3.582782 55.246979 41 25 25
2.869315 3.699208 55.207176 42 25 25
2.867440 3.815721 55.171097 43 26 25
2.865770 3.932360 55.138969 43 26 24
2.864313 4.049161 55.110931 44 26 24
2.863070 4.166153 55.087017 44 25 24
2.862040 4.283360 55.067192 46 25 25
2.861216 4.400799 55.051331 47 25 27
2.860588 4.518480 55.039257 48 25 28
2.860146 4.636409 55.030754 48 26 28
2.859875 4.754587 55.025543 48 26 28
2.859760 4.873007 55.023327 48 26 28
2.859784 4.991661 55.023792 47 26 28
2.859931 5.110536 55.026611 47 25 27
2.860183 5.229615 55.031456 47 24 26
2.860523 5.348881 55.038006 47 23 25
2.860936 5.468314 55.045959 46 23 25
2.861407 5.587893 55.055012 47 22 25
2.861921 5.707599 55.064911 48 23 25
2.862467 5.827412 55.075417 49 24 26
2.863034 5.947313 55.086311 51 25 27
2.863612 6.067286 55.097435 52 26 27
2.864194 6.187315 55.108643 55 26 28
2.864775 6.307389 55.119812 56 26 28
2.865350 6.427498 55.130871 57 26 28
2.865914 6.547632 55.141739 57 25 27
2.866467 6.667784 55.152367 59 24 27
2.867004 6.787945 55.162701 61 23 27
2.867523 6.908108 55.172684 64 23 27
2.868021 7.028263 55.182274 68 22 27
2.868495 7.148397 55.191383 71 22 28
2.868938 7.268495 55.199921 75 24 30
2.869347 7.388541 55.207790 83 31 37
2.869715 7.508513 55.214870 95 41 48
2.870036 7.628390 55.221039 102 49 55
2.870303 7.748150 55.226185 106 52 58
2.870513 7.867772 55.230213 108 54 58
2.870660 7.987240 55.233047 108 55 59
2.870744 8.106541 55.234657 109 55 58
2.870765 8.225670 55.235077 109 54 58
2.870729 8.344633 55.234383 110 55 58
2.870643 8.463446 55.232719 112 56 59
2.870517 8.582133 55.230305 112 57 61
2.870368 8.700737 55.227421 114 58 63
2.870210 8.819304 55.224388 114 58 64
2.870063 8.937892 55.221565 114 58 64
2.869948 9.056566 55.219341 115 59 65
2.869883 9.175396 55.218105 115 59 65
2.869890 9.294449 55.218235 115 58 65
2.869986 9.413795 55.220078 115 59 65
2.870186 9.533495 55.223923 114 59 66
2.870502 9.653601 55.230000 112 58 66
2.870941 9.774153 55.238445 110 58 66
2.871507 9.895182 55.249352 108 57 66
2.872201 10.016699 55.262695 106 57 66
2.873016 10.138704 55.278381 103 56 65
2.873945 10.261181 55.296249 100 54 63
2.874974 10.384099 55.316055 97 52 61
2.876090 10.507418 55.337521 94 49 59
2.877275 10.631084 55.360313 93 48 58
2.878510 10.755038 55.384083 92 47 57
2.879777 10.879216 55.408474 92 46 56
2.881058 11.003551 55.433117 91 45 55
2.882335 11.127975 55.457691 90 45 54
2.883592 11.252428 55.481873 91 46 54
2.884814 11.376848 55.505386 91 46 54
2.885990 11.501185 55.528011 91 46 55
2.887110 11.625392 55.549545 91 46 54
2.888165 11.749432 55.569855 90 46 53
2.889152 11.873278 55.588840 88 46 52
2.890066 11.996904 55.606438 87 46 51
2.890908 12.120299 55.622620 85 45 50
2.891674 12.243448 55.637367 84 45 49
2.892366 12.366343 55.650684 84 46 49
2.892984 12.488976 55.662579 84 46 49
2.893529 12.611340 55.673058 83 46 49
2.894000 12.733424 55.682121 82 47 49
2.894395 12.855211 55.689728 82 47 50
2.894713 12.976686 55.695847 80 46 50
2.894951 13.097823 55.700420 79 46 50
2.895105 13.218598 55.703388 77 45 49
2.895172 13.338982 55.704662 76 44 49
2.895147 13.458946 55.704185 74 43 48
2.895027 13.578463 55.701874 73 42 47
2.894810 13.697512 55.697704 71 41 45
2.894496 13.816080 55.691669 69 40 43
2.894088 13.934167 55.683815 68 39 42
2.893589 14.051782 55.674225 67 38 41
2.893008 14.168946 55.663025 65 37 40
2.892353 14.285705 55.650436 64 37 39
2.891639 14.402113 55.636700 63 36 39
2.890881 14.518241 55.622116 62 35 38
2.890097 14.634171 55.607021 61 35 38
2.889304 14.749992 55.591763 61 34 38
2.888521 14.865799 55.576698 61 35 38
2.887766 14.981688 55.562172 61 35 39
2.887056 15.097746 55.548504 61 35 39
2.886404 15.214053 55.535961 61 35 39
2.885820 15.330670 55.524734 61 36 40
2.885311 15.447637 55.514938 59 36 39
2.884878 15.564971 55.506599 57 35 38
3.152601 -9.405769 58.242100 81 54 64
3.152712 -9.280542 58.244133 81 52 60
3.152424 -9.154154 58.238823 85 57 60
3.151769 -9.026734 58.226719 88 61 61
3.150784 -8.898434 58.208511 91 64 62
3.149510 -8.769409 58.184982 94 69 64
3.147995 -8.639823 58.156986 90 66 62
3.146285 -8.509831 58.125397 78 56 52
3.144428 -8.379584 58.091091 67 46 42
3.142469 -8.249219 58.054916 62 42 40
3.140451 -8.118855 58.017632 58 40 39
3.138410 -7.988592 57.979916 52 35 35
3.136376 -7.858511 57.942345 43 28 28
3.134373 -7.728668 57.905346 38 23 24
3.132420 -7.599104 57.869251 35 21 23
3.130524 -7.469834 57.834229 33 19 21
3.128690 -7.340861 57.800354 31 18 20
3.126916 -7.212172 57.767586 30 17 19
3.125196 -7.083744 57.735798 29 17 18
3.123518 -6.955548 57.704792 29 17 18
3.121868 -6.827549 57.674324 28 17 18
3.120234 -6.699713 57.644131 28 17 18
3.118601 -6.572010 57.613960 28 17 17
3.116955 -6.444410 57.583546 27 17 17
3.115285 -6.316894 57.552696 27 18 17
3.113582 -6.189445 57.521240 27 18 16
3.111841 -6.062056 57.489071 27 18 16
3.110058 -5.934727 57.456139 27 18 17
3.108235 -5.807465 57.422462 27 19 17
3.106375 -5.680280 57.388096 27 19 16
3.104484 -5.553189 57.353165 27 19 17
3.102571 -5.426208 57.317814 28 18 18
3.100645 -5.299358 57.282234 28 17 18
3.098717 -5.172658 57.246613 29 17 18
3.096798 -5.046128 57.211170 28 17 17
3.094900 -4.919782 57.176094 27 17 17
3.093031 -4.793633 57.141571 26 17 16
3.091200 -4.667691 57.107754 25 15 15
3.089415 -4.541961 57.074768 25 15 15
3.087679 -4.416444 57.042702 25 14 15
3.085995 -4.291139 57.011597 25 15 15
3.084365 -4.166039 56.981480 25 16 16
3.082786 -4.041135 56.952297 25 16 16
3.081254 -3.916418 56.923992 25 15 16
3.079763 -3.791875 56.896465 24 15 16
3.078308 -3.667491 56.869579 25 15 16
3.076879 -3.543254 56.843182 25 15 16
3.075469 -3.419151 56.817123 26 15 16
3.074067 -3.295170 56.791233 26 17 16
3.072666 -3.171301 56.765339 27 18 16
3.071256 -3.047535 56.739304 27 18 16
3.069831 -2.923867 56.712967 27 18 15
3.068383 -2.800292 56.686226 29 18 16
3.066909 -2.676808 56.658985 29 18 16
3.065403 -2.553416 56.631168 29 19 16
3.063865 -2.430119 56.602745 30 19 16
3.062292 -2.306918 56.573700 30 19 16
3.060688 -2.183819 56.544060 31 19 16
3.059054 -2.060828 56.513874 31 19 17
3.057395 -1.937952 56.483215 31 19 17
3.055715 -1.815195 56.452190 31 18 16
3.054022 -1.692565 56.420906 30 18 16
3.052322 -1.570066 56.389503 30 18 16
3.050624 -1.447704 56.358143 30 18 16
3.048937 -1.325481 56.326969 31 18 16
3.047269 -1.203400 56.296146 31 18 17
3.045629 -1.081463 56.265862 31 19 17
3.044028 -0.959667 56.236271 32 19 18
3.042472 -0.838012 56.207527 32 19 19
3.040971 -0.716494 56.179794 32 17 17
3.039532 -0.595108 56.153214 32 17 17
3.038161 -0.473847 56.127892 33 17 17
3.036865 -0.352703 56.103943 33 18 18
3.035647 -0.231669 56.081440 34 18 18
3.034509 -0.110735 56.060421 34 18 18
3.033452 0.010109 56.040890 34 18 19
3.032474 0.130872 56.022820 34 18 19
3.031570 0.251563 56.006126 34 19 20
3.030734 0.372191 55.990673 34 19 21
3.029954 0.492761 55.976280 35 20 22
3.029220 0.613278 55.962704 35 21 23
3.028513 0.733744 55.949642 36 21 23
3.027815 0.854156 55.936749 36 22 23
3.027104 0.974508 55.923622 38 22 23
3.026358 1.094790 55.909843 38 23 23
3.025552 1.214989 55.894936 39 23 23
3.024659 1.335086 55.878448 40 23 23
3.023656 1.455058 55.859924 40 23 22
3.022520 1.574881 55.838936 40 23 22
3.021231 1.694528 55.815121 41 23 22
3.019773 1.813971 55.788177 42 23 22
3.018134 1.933182 55.757896 43 23 22
3.016309 2.052136 55.724197 43 23 23
3.014300 2.170811 55.687080 43 23 23
3.012115 2.289193 55.646706 43 22 24
3.009767 2.407271 55.603329 44 22 24
3.007278 2.525043 55.557343 44 22 23
3.004673 2.642515 55.509228 44 22 23
3.001985 2.759702 55.459553 43 22 23
2.999246 2.876628 55.408966 43 23 22
2.996494 2.993322 55.358128 42 23 22
2.993767 3.109822 55.307735 42 24 23
2.991100 3.226171 55.258465 41 24 23
2.988528 3.342413 55.210949 42 24 23
2.986083 3.458597 55.165783 42 24 24
2.983793 3.574773 55.123478 43 24 24
2.981681 3.690986 55.084465 43 25 24
2.979766 3.807282 55.049076 43 25 24
2.978060 3.923702 55.017559 44 25 24
2.976571 4.040280 54.990055 44 26 23
2.975303 4.157049 54.966640 44 25 23
2.974256 4.274033 54.947281 45 25 24
2.973423 4.391251 54.931892 46 25 26
2.972795 4.508714 54.920307 47 26 27
2.972363 4.626431 54.912319 48 26 28
2.972112 4.744403 54.907692 48 27 28
2.972028 4.862628 54.906128 48 27 28
2.972093 4.981095 54.907326 48 26 28
2.972290 5.099796 54.910976 48 25 27
2.972603 5.218714 54.916748 48 24 26
2.973013 5.337833 54.924332 48 23 26
2.973505 5.457133 54.933407 48 22 25
2.974061 5.576594 54.943680 48 22 24
2.974667 5.696195 54.954884 49 23 25
2.975311 5.815917 54.966778 50 24 26
2.975979 5.935740 54.979122 52 25 27
2.976662 6.055647 54.991745 53 26 28
2.977352 6.175622 55.004494 56 27 28
2.978042 6.295650 55.017227 57 27 28
2.978725 6.415721 55.029858 58 26 28
2.979399 6.535825 55.042305 58 25 27
2.980059 6.655952 55.054501 59 24 26
2.980703 6.776095 55.066399 62 23 26
2.981328 6.896245 55.077946 65 23 26
2.981931 7.016393 55.089081 69 23 27
2.982507 7.136526 55.099728 72 23 28
2.983052 7.256628 55.109795 76 24 30
2.983562 7.376685 55.119202 84 31 37
2.984028 7.496675 55.127823 95 41 48
2.984446 7.616579 55.135544 104 51 56
2.984809 7.736374 55.142250 108 55 59
2.985112 7.856039 55.147846 109 55 59
2.985351 7.975557 55.152260 109 56 58
2.985524 8.094916 55.155457 108 55 57
2.985631 8.214109 55.157444 108 54 56
2.985678 8.333140 55.158310 109 54 57
2.985671 8.452021 55.158165 110 56 59
2.985619 8.570776 55.157215 112 57 61
2.985538 8.689440 55.155712 114 59 63
2.985443 8.808057 55.153961 115 60 65
2.985353 8.926682 55.152306 116 60 67
2.985288 9.045375 55.151104 117 60 67
2.985268 9.164201 55.150734 116 59 65
2.985313 9.283226 55.151562 115 59 65
2.985440 9.402514 55.153900 117 62 67
2.985664 9.522121 55.158039 118 63 69
2.985998 9.642101 55.164207 114 61 67
2.986450 9.762495 55.172562 110 58 64
2.987024 9.883329 55.183174 107 57 64
2.987721 10.004621 55.196056 105 57 64
2.988538 10.126370 55.211136 103 56 64
2.989465 10.248565 55.228260 101 55 64
2.990492 10.371181 55.247234 100 54 63
2.991605 10.494180 55.267799 98 52 62
2.992788 10.617517 55.289661 96 51 61
2.994025 10.741138 55.312508 95 49 60
2.995297 10.864987 55.336002 94 48 58
2.996586 10.989002 55.359829 93 47 57
2.997877 11.113123 55.383667 91 47 55
2.999152 11.237291 55.407234 90 46 54
3.000400 11.361453 55.430275 89 46 53
3.001606 11.485559 55.452568 88 45 52
3.002763 11.609568 55.473930 88 44 51
3.003861 11.733440 55.494221 87 44 50
3.004896 11.857152 55.513348 85 44 48
3.005865 11.980681 55.531242 85 44 47
3.006764 12.104009 55.547859 84 43 47
3.007594 12.227123 55.563183 84 44 47
3.008353 12.350014 55.577198 85 46 49
3.009041 12.472672 55.589916 87 48 51
3.009658 12.595087 55.601315 87 49 52
3.010203 12.717249 55.611389 85 50 52
3.010675 12.839140 55.620102 83 49 51
3.011070 12.960739 55.627403 80 47 50
3.011386 13.082025 55.633236 77 45 49
3.011618 13.202970 55.637527 75 43 47
3.011763 13.323545 55.640198 73 41 46
3.011815 13.443720 55.641167 72 40 45
3.011772 13.563470 55.640369 71 40 44
3.011631 13.682774 55.637775 70 40 44
3.011393 13.801617 55.633369 69 40 43
3.011059 13.920000 55.627201 68 39 42
3.010634 14.037930 55.619343 67 39 41
3.010124 14.155432 55.609932 66 38 40
3.009542 14.272547 55.599178 66 37 40
3.008901 14.389335 55.587337 65 37 40
3.008216 14.505860 55.574684 64 36 39
3.007506 14.622207 55.561565 63 35 39
3.006790 14.738467 55.548328 62 35 38
3.006086 14.854733 55.535328 62 35 38
3.005414 14.971101 55.522907 62 35 38
3.004790 15.087656 55.511383 61 35 39
3.004228 15.204476 55.501003 61 35 39
3.003739 15.321623 55.491966 60 35 39
3.003329 15.439135 55.484383 59 35 39
3.002997 15.557021 55.478252 57 34 37
3.002738 15.675265 55.473480 56 34 36
3.274287 -9.394679 58.173428 85 57 65
3.274334 -9.269410 58.174267 87 58 64
3.273963 -9.142970 58.167671 89 61 63
3.273205 -9.015493 58.154213 90 62 61
3.272100 -8.887130 58.134571 90 63 60
3.270691 -8.758039 58.109539 88 63 59
3.269027 -8.628382 58.079971 83 58 54
3.267157 -8.498319 58.046761 74 51 47
3.265132 -8.367998 58.010773 66 45 42
3.262997 -8.237557 57.972847 62 42 40
3.260797 -8.107118 57.933762 58 40 39
3.258570 -7.976780 57.894188 52 36 35
3.256347 -7.846622 57.854694 45 30 30
3.254153 -7.716704 57.815708 39 25 26
3.252005 -7.587063 57.777554 36 22 23
3.249915 -7.457718 57.740425 33 20 21
3.247886 -7.328672 57.704380 31 18 20
3.245917 -7.199911 57.669380 29 18 19
3.243999 -7.071416 57.635319 29 17 19
3.242124 -6.943156 57.601994 29 17 19
3.240276 -6.815101 57.569172 28 17 18
3.238444 -6.687216 57.536610 28 17 18
3.236610 -6.559472 57.504044 28 17 17
3.234764 -6.431842 57.471241 27 17 17
3.232893 -6.304304 57.437996 27 18 17
3.230988 -6.176846 57.404152 27 18 16
3.229044 -6.049460 57.369617 27 18 16
3.227059 -5.922148 57.334351 27 18 15
3.225035 -5.794916 57.298382 27 19 15
3.222974 -5.667777 57.261768 27 19 16
3.220885 -5.540745 57.224651 27 19 17
3.218777 -5.413842 57.187191 28 18 18
3.216659 -5.287086 57.149574 29 17 18
3.214545 -5.160496 57.112011 29 17 18
3.212446 -5.034093 57.074726 29 17 17
3.210375 -4.907892 57.037918 28 17 16
3.208341 -4.781907 57.001789 27 16 16
3.206354 -4.656145 56.966492 26 15 16
3.204423 -4.530614 56.932175 26 14 15
3.202551 -4.405312 56.898914 26 15 15
3.200742 -4.280239 56.866779 26 15 15
3.198997 -4.155386 56.835777 25 16 16
3.197314 -4.030746 56.805870 25 16 17
3.195688 -3.906304 56.776985 25 16 17
3.194114 -3.782048 56.749027 25 16 17
3.192585 -3.657964 56.721851 25 16 17
3.191090 -3.534035 56.695293 25 16 17
3.189620 -3.410248 56.669182 25 16 17
3.188166 -3.286589 56.643341 26 17 17
3.186717 -3.163047 56.617596 26 17 16
3.185263 -3.039611 56.591763 27 18 16
3.183795 -2.916274 56.565689 27 18 15
3.182307 -2.793031 56.539238 28 18 15
3.180790 -2.669878 56.512299 29 18 16
3.179242 -2.546816 56.484783 29 19 16
3.177657 -2.423846 56.456638 30 19 16
3.176037 -2.300970 56.427841 30 19 16
3.174380 -2.178194 56.398403 30 19 16
3.172688 -2.055522 56.368351 30 19 16
3.170967 -1.932961 56.337765 30 18 16
3.169220 -1.810518 56.306728 30 18 16
3.167454 -1.688199 56.275356 30 18 16
3.165677 -1.566009 56.243793 30 17 16
3.163898 -1.443954 56.212177 31 18 16
3.162125 -1.322038 56.180672 31 18 16
3.160367 -1.200264 56.149452 32 19 16
3.158636 -1.078634 56.118683 32 19 17
3.156940 -0.957147 56.088554 33 19 18
3.155289 -0.835801 56.059219 33 19 18
3.153692 -0.714595 56.030853 33 19 17
3.152158 -0.593522 56.003605 33 18 17
3.150695 -0.472578 55.977604 33 18 17
3.149309 -0.351754 55.952984 34 18 18
3.148006 -0.231043 55.929821 34 18 18
3.146788 -0.110434 55.908184 34 18 19
3.145657 0.010081 55.888100 34 19 19
3.144613 0.130514 55.869541 34 19 19
3.143651 0.250873 55.852451 34 19 20
3.142766 0.371168 55.836731 34 19 21
3.141948 0.491405 55.822189 34 20 21
3.141184 0.611590 55.808620 35 21 22
3.140458 0.731725 55.795734 35 21 22
3.139753 0.851811 55.783199 36 22 22
3.139045 0.971841 55.770618 37 22 22
3.138310 1.091809 55.757572 38 22 21
3.137525 1.211700 55.743610 39 22 21
3.136661 1.331497 55.728256 40 22 21
3.135693 1.451181 55.711063 40 22 21
3.134596 1.570726 55.691582 40 22 21
3.133350 1.690105 55.669434 41 22 21
3.131935 1.809293 55.644299 42 22 21
3.130340 1.928260 55.615955 43 23 21
3.128556 2.046983 55.584274 43 23 22
3.126585 2.165438 55.549248 43 22 22
3.124432 2.283610 55.510998 43 21 23
3.122110 2.401487 55.469742 44 21 23
3.119639 2.519066 55.425846 45 21 24
3.117046 2.636352 55.379768 44 22 23
3.114361 2.753358 55.332058 44 22 23
3.111617 2.870105 55.283314 43 23 23
3.108853 2.986622 55.234207 44 24 23
3.106106 3.102944 55.185398 43 25 24
3.103414 3.219112 55.137569 43 25 25
3.100812 3.335172 55.091347 43 25 25
3.098334 3.451170 55.047318 43 25 25
3.096009 3.567154 55.006004 44 25 25
3.093861 3.683172 54.967850 45 25 25
3.091910 3.799268 54.933193 45 26 25
3.090172 3.915482 54.902306 45 26 24
3.088655 4.031852 54.875351 45 26 23
3.087364 4.148411 54.852417 45 26 22
3.086299 4.265182 54.833496 45 26 24
3.085457 4.382188 54.818527 45 26 26
3.084829 4.499443 54.807373 47 26 27
3.084405 4.616956 54.799854 48 27 28
3.084173 4.734729 54.795731 48 27 28
3.084117 4.852762 54.794735 48 27 28
3.084222 4.971050 54.796593 48 26 28
3.084469 5.089581 54.800983 49 25 28
3.084841 5.208342 54.807602 49 24 27
3.085321 5.327317 54.816128 49 23 26
3.085891 5.446487 54.826244 49 22 25
3.086534 5.565833 54.837662 49 22 25
3.087233 5.685333 54.850090 50 23 25
3.087976 5.804967 54.863285 51 24 26
3.088748 5.924715 54.877003 53 25 27
3.089538 6.044557 54.891041 55 26 28
3.090337 6.164478 54.905243 57 27 28
3.091137 6.284462 54.919456 59 27 28
3.091932 6.404496 54.933578 59 27 28
3.092717 6.524570 54.947521 60 26 27
3.093488 6.644674 54.961220 61 24 26
3.094241 6.764800 54.974606 63 24 26
3.094974 6.884937 54.987629 66 23 26
3.095684 7.005078 55.000240 70 24 27
