ply
format ascii 1.0
element vertex 1273
property float x
property float y
property float z
property uchar red
property uchar green
property uchar blue
end_header
1.662897 12.334901 51.051960 96 68 62
1.664237 12.454987 51.093128 99 71 67
1.665597 12.575396 51.134884 107 80 77
1.666972 12.696091 51.177071 106 81 80
1.668356 12.817043 51.219555 97 73 74
1.669744 12.938212 51.262177 85 61 63
1.671131 13.059557 51.304768 76 52 55
1.672512 13.181033 51.347149 73 48 52
1.673880 13.302594 51.389156 72 47 51
1.675230 13.424191 51.430611 71 47 50
1.676556 13.545774 51.471329 70 46 49
1.677854 13.667298 51.511162 68 45 48
1.679118 13.788716 51.549957 66 44 46
1.680345 13.909997 51.587627 64 42 43
1.681532 14.031112 51.624084 62 42 43
1.682679 14.152046 51.659309 60 42 43
1.683788 14.272802 51.693340 60 42 43
1.684860 14.393398 51.726269 60 43 43
1.685902 14.513869 51.758244 61 44 44
1.686920 14.634272 51.789490 66 48 49
1.687922 14.754674 51.820259 72 53 53
1.688919 14.875163 51.850872 73 53 53
1.689922 14.995834 51.881660 69 48 48
1.690942 15.116790 51.912968 65 44 45
1.691990 15.238139 51.945152 66 45 46
1.693078 15.359985 51.978554 69 49 51
1.694216 15.482430 52.013477 75 55 59
1.695411 15.605559 52.050190 81 61 66
1.696673 15.729455 52.088909 83 64 70
1.698005 15.854184 52.129822 81 62 69
1.699414 15.979805 52.173073 76 59 65
1.700902 16.106358 52.218742 73 56 62
1.702471 16.233889 52.266922 72 55 61
1.704124 16.362431 52.317669 72 54 60
1.705862 16.492016 52.371040 72 53 60
1.707688 16.622684 52.427101 73 54 61
1.709605 16.754478 52.485928 78 58 65
1.711614 16.887445 52.547615 90 70 77
1.713720 17.021639 52.612270 104 84 90
1.659089 -4.419667 47.773407 68 42 44
1.658471 -4.315076 47.755615 66 41 43
1.657862 -4.210585 47.738083 65 38 40
1.657262 -4.106191 47.720806 65 37 39
1.656672 -4.001894 47.703804 64 37 39
1.656092 -3.897696 47.687103 64 37 40
1.655524 -3.793599 47.670765 64 38 40
1.654971 -3.689605 47.654850 65 38 41
1.654436 -3.585717 47.639439 66 39 42
1.653922 -3.481939 47.624626 66 39 42
1.653431 -3.378274 47.610497 66 38 41
1.652968 -3.274724 47.597149 65 37 39
1.652534 -3.171288 47.584671 64 36 38
1.652134 -3.067969 47.573143 64 35 37
1.651769 -2.964762 47.562637 64 34 37
1.651441 -2.861665 47.553192 63 34 36
1.651151 -2.758672 47.544849 63 34 37
1.650900 -2.655777 47.537613 63 35 37
1.650687 -2.552972 47.531467 64 36 38
1.650510 -2.450247 47.526371 65 38 40
1.650367 -2.347593 47.522255 67 40 42
1.650254 -2.244998 47.519024 69 42 43
1.650169 -2.142452 47.516560 70 44 45
1.650105 -2.039944 47.514725 70 43 44
1.650058 -1.937462 47.513363 69 40 42
1.650021 -1.834999 47.512314 69 38 41
1.649990 -1.732546 47.511410 69 38 40
1.649958 -1.630095 47.510490 69 37 40
1.649921 -1.527644 47.509415 71 39 42
1.649874 -1.425189 47.508057 72 40 43
1.649813 -1.322729 47.506313 72 40 43
1.649737 -1.220266 47.504128 72 40 43
1.649644 -1.117800 47.501461 72 40 43
1.649536 -1.015336 47.498329 71 40 42
1.649412 -0.912877 47.494766 71 39 42
1.649277 -0.810428 47.490868 71 38 42
1.649133 -0.707992 47.486736 71 38 42
1.648986 -0.605573 47.482506 72 38 42
1.648841 -0.503172 47.478317 72 39 41
1.648702 -0.400791 47.474327 72 38 39
1.648576 -0.298429 47.470684 72 38 38
1.648466 -0.196086 47.467529 71 37 38
1.648377 -0.093757 47.464973 69 37 38
1.648313 0.008562 47.463112 68 37 38
1.648274 0.110873 47.462006 69 37 39
1.648263 0.213184 47.461681 69 38 41
1.648279 0.315499 47.462143 68 38 41
1.648321 0.417822 47.463360 67 37 41
1.648388 0.520158 47.465279 66 36 40
1.648477 0.622510 47.467834 65 36 39
1.648585 0.724883 47.470947 65 36 38
1.648710 0.827277 47.474545 65 36 38
1.648849 0.929694 47.478554 65 36 39
1.649001 1.032137 47.482918 66 36 40
1.649163 1.134606 47.487610 65 34 38
1.649338 1.237104 47.492622 64 33 37
1.649524 1.339633 47.497982 65 33 36
1.649724 1.442198 47.503754 66 34 38
1.649941 1.544804 47.510010 67 36 39
1.650180 1.647457 47.516884 69 36 40
1.650445 1.750168 47.524502 70 37 40
1.650741 1.852947 47.533024 71 37 40
1.651074 1.955807 47.542618 72 37 40
1.651450 2.058762 47.553455 72 37 40
1.651876 2.161828 47.565704 72 37 40
1.652356 2.265022 47.579529 72 36 39
1.652895 2.368361 47.595070 73 38 40
1.653499 2.471863 47.612457 75 39 41
1.654171 2.575545 47.631798 76 40 42
1.654913 2.679424 47.653164 76 40 42
1.655727 2.783517 47.676605 76 40 42
1.656614 2.887837 47.702141 75 40 40
1.657573 2.992398 47.729752 73 39 39
1.658602 3.097210 47.759399 72 38 37
1.659700 3.202281 47.791008 71 38 37
1.660863 3.307618 47.824486 69 37 37
1.662086 3.413223 47.859703 70 38 39
1.663365 3.519098 47.896526 70 40 42
1.664693 3.625241 47.934795 69 39 42
1.666067 3.731649 47.974346 67 38 42
1.667480 3.838317 48.015026 67 39 43
1.668926 3.945239 48.056660 68 40 44
1.670400 4.052409 48.099098 69 41 45
1.671897 4.159819 48.142208 69 40 45
1.673413 4.267464 48.185871 69 40 44
1.674945 4.375340 48.229996 68 39 42
1.676492 4.483443 48.274525 68 38 41
1.678051 4.591773 48.319412 69 39 42
1.679622 4.700331 48.364666 70 41 43
1.681207 4.809122 48.410297 72 42 43
1.682806 4.918153 48.456356 72 42 43
1.684423 5.027433 48.502903 71 40 43
1.686059 5.136973 48.550011 69 39 43
1.687718 5.246787 48.597771 68 38 41
1.689401 5.356886 48.646255 67 37 41
1.691113 5.467284 48.695530 66 36 40
1.692853 5.577991 48.745655 66 36 41
1.694625 5.689017 48.796665 67 38 41
1.696427 5.800369 48.848572 68 39 42
1.698261 5.912052 48.901356 68 39 42
1.700122 6.024065 48.954971 67 38 42
1.702011 6.136403 49.009346 66 37 41
1.703922 6.249060 49.064377 65 37 40
1.705852 6.362023 49.119942 64 36 40
1.707795 6.475277 49.175896 64 35 39
1.709746 6.588804 49.232090 65 35 40
1.711700 6.702582 49.288349 65 35 40
1.713651 6.816591 49.344517 65 35 40
1.715592 6.930804 49.400425 65 35 40
1.717519 7.045199 49.455910 64 36 39
1.719426 7.159749 49.510815 64 36 39
1.721308 7.274431 49.565006 64 36 39
1.723160 7.389220 49.618347 64 36 39
1.724979 7.504092 49.670715 65 37 40
1.726760 7.619023 49.721996 66 38 41
1.728499 7.733990 49.772079 66 39 42
1.730193 7.848967 49.820866 67 40 42
1.731840 7.963934 49.868263 68 41 43
1.733434 8.078864 49.914173 69 41 42
1.734974 8.193736 49.958527 69 41 42
1.736458 8.308527 50.001240 70 40 42
1.737882 8.423217 50.042252 70 40 42
1.739245 8.537784 50.081512 71 40 42
1.740547 8.652212 50.118988 71 40 43
1.741786 8.766488 50.154667 71 41 43
1.742963 8.880603 50.188568 72 42 43
1.744080 8.994553 50.220726 71 42 43
1.745138 9.108336 50.251205 70 42 42
1.746142 9.221962 50.280109 69 41 42
1.747096 9.335444 50.307568 67 40 42
1.748004 9.448800 50.333721 66 39 41
1.748873 9.562056 50.358753 64 37 39
1.749710 9.675241 50.382851 62 36 38
1.750522 9.788387 50.406227 63 36 37
1.751316 9.901534 50.429081 64 36 38
1.752100 10.014721 50.451649 65 37 39
1.752880 10.127990 50.474133 66 38 40
1.753666 10.241382 50.496746 68 40 42
1.754462 10.354937 50.519680 71 43 44
1.755276 10.468696 50.543125 73 44 45
1.756114 10.582698 50.567245 76 46 46
1.756981 10.696980 50.592197 77 47 46
1.757880 10.811572 50.618103 77 47 46
1.758817 10.926509 50.645081 77 46 45
1.759794 11.041813 50.673218 76 46 44
1.760815 11.157513 50.702599 77 48 45
1.761879 11.273623 50.733257 80 52 48
1.762990 11.390160 50.765228 86 57 53
1.764146 11.507133 50.798515 88 58 53
1.765347 11.624551 50.833115 84 52 46
1.766593 11.742412 50.868992 77 44 38
1.767882 11.860712 50.906094 78 45 39
1.769210 11.979445 50.944359 92 60 53
1.770577 12.098600 50.983700 107 76 69
1.771977 12.218159 51.024017 103 74 67
1.773408 12.338103 51.065216 92 63 57
1.774864 12.458407 51.107159 99 70 65
1.776343 12.579044 51.149723 113 86 83
1.777837 12.699985 51.192764 113 86 85
1.779343 12.821190 51.236130 98 72 72
1.780855 12.942625 51.279659 83 58 59
1.782366 13.064242 51.323170 75 50 53
1.783871 13.186001 51.366501 73 47 51
1.785363 13.307850 51.409458 72 47 51
1.786835 13.429739 51.451862 72 47 50
1.788283 13.551620 51.493542 70 46 49
1.789699 13.673445 51.534328 69 44 47
1.791080 13.795168 51.574078 67 43 45
1.792420 13.916754 51.612686 65 43 44
1.793719 14.038177 51.650078 63 43 44
1.794975 14.159422 51.686234 62 44 45
1.796188 14.280491 51.721184 63 45 46
1.797364 14.401400 51.755024 64 46 47
1.798506 14.522187 51.787907 66 47 49
1.799621 14.642904 51.820038 71 51 53
1.800721 14.763624 51.851696 76 55 57
1.801814 14.884432 51.883183 76 54 55
1.802913 15.005422 51.914829 70 48 48
1.804030 15.126698 51.946991 66 43 44
1.805177 15.248367 51.980019 66 44 46
1.806366 15.370535 52.014252 69 48 50
1.807608 15.493300 52.049999 76 56 59
1.808911 15.616753 52.087521 85 66 70
1.810283 15.740972 52.127048 87 69 74
1.811732 15.866025 52.168758 83 66 72
1.813261 15.991971 52.212795 76 60 66
1.814875 16.118855 52.259251 72 57 63
1.816575 16.246712 52.308205 71 57 63
1.818364 16.375584 52.359726 73 58 64
1.820243 16.505499 52.413853 75 58 65
1.822216 16.636497 52.470661 77 58 66
1.824285 16.768618 52.530216 81 62 69
1.826452 16.901909 52.592617 90 70 76
1.828721 17.036421 52.657959 99 79 85
1.759030 -4.412035 47.690914 67 41 42
1.758398 -4.307683 47.673790 65 39 41
1.757774 -4.203423 47.656879 63 37 38
1.757159 -4.099255 47.640202 63 36 37
1.756552 -3.995180 47.623760 64 37 38
1.755957 -3.891198 47.607597 65 38 39
1.755373 -3.787313 47.591770 63 36 38
1.754804 -3.683527 47.576359 64 37 39
1.754254 -3.579846 47.561436 65 38 40
1.753725 -3.476271 47.547104 66 39 41
1.753222 -3.372807 47.533451 66 38 40
1.752747 -3.269456 47.520588 65 37 39
1.752305 -3.166219 47.508602 65 36 38
1.751899 -3.063095 47.497578 64 36 38
1.751530 -2.960084 47.487587 64 34 37
1.751202 -2.857181 47.478687 63 33 36
1.750915 -2.754381 47.470905 62 32 36
1.750670 -2.651679 47.464268 62 33 36
1.750466 -2.549066 47.458744 62 34 37
1.750303 -2.446532 47.454308 64 36 39
1.750176 -2.344067 47.450890 66 38 41
1.750084 -2.241661 47.448383 69 41 43
1.750021 -2.139302 47.446682 71 43 45
1.749982 -2.036977 47.445629 70 42 44
1.749962 -1.934678 47.445084 68 39 41
1.749954 -1.832394 47.444866 68 38 40
1.749952 -1.730117 47.444817 68 37 40
1.749950 -1.627840 47.444756 70 37 41
1.749942 -1.525558 47.444542 72 39 43
1.749924 -1.423269 47.444038 73 41 44
1.749891 -1.320971 47.443142 74 42 44
1.749840 -1.218664 47.441772 74 41 44
1.749771 -1.116351 47.439896 73 41 43
1.749683 -1.014036 47.437523 73 40 43
1.749579 -0.911722 47.434692 72 39 43
1.749460 -0.809414 47.431473 72 39 42
1.749331 -0.707116 47.427979 73 39 42
1.749197 -0.604831 47.424339 74 39 42
1.749063 -0.502561 47.420696 75 40 41
1.748934 -0.400309 47.417206 74 40 41
1.748816 -0.298073 47.414021 74 40 40
1.748715 -0.195853 47.411274 73 39 40
1.748635 -0.093646 47.409100 72 39 40
1.748579 0.008552 47.407585 71 39 40
1.748550 0.110744 47.406788 70 38 41
1.748549 0.212937 47.406761 70 38 42
1.748576 0.315135 47.407497 69 38 42
1.748631 0.417343 47.408978 68 38 41
1.748711 0.519565 47.411160 68 37 40
1.748815 0.621804 47.413982 67 37 39
1.748940 0.724065 47.417377 67 37 39
1.749084 0.826348 47.421268 67 37 40
1.749244 0.928657 47.425602 67 38 41
1.749418 1.030994 47.430328 67 37 41
1.749606 1.133359 47.435417 65 35 38
1.749807 1.235756 47.440884 65 33 37
1.750024 1.338188 47.446747 66 33 36
1.750257 1.440659 47.453072 67 34 37
1.750511 1.543176 47.459953 68 35 38
1.750789 1.645745 47.467503 70 36 39
1.751098 1.748377 47.475864 71 37 39
1.751442 1.851083 47.485195 72 37 40
1.751827 1.953875 47.495647 73 38 40
1.752261 2.056769 47.507408 73 37 40
1.752749 2.159780 47.520626 73 37 40
1.753296 2.262924 47.535469 73 37 39
1.753908 2.366221 47.552067 74 38 40
1.754590 2.469687 47.570553 76 40 42
1.755345 2.573339 47.591011 77 40 43
1.756175 2.677195 47.613525 77 40 43
1.757083 2.781270 47.638126 76 40 42
1.758067 2.885579 47.664833 75 40 41
1.759129 2.990133 47.693623 74 40 39
1.760266 3.094943 47.724445 72 39 39
1.761475 3.200018 47.757229 71 38 38
1.762753 3.305362 47.791874 70 38 38
1.764095 3.410980 47.828259 70 39 40
1.765496 3.516872 47.866234 71 41 43
1.766950 3.623037 47.905655 70 40 44
1.768451 3.729471 47.946358 70 40 43
1.769994 3.836171 47.988174 70 41 44
1.771571 3.943129 48.030949 71 41 45
1.773179 4.050339 48.074528 71 42 46
1.774810 4.157794 48.118771 73 42 46
1.776463 4.265489 48.163570 73 42 46
1.778132 4.373420 48.208832 73 42 45
1.779816 4.481582 48.254486 73 42 44
1.781514 4.589975 48.300507 74 43 45
1.783224 4.698601 48.346870 75 44 46
1.784947 4.807463 48.393597 74 45 47
1.786686 4.916567 48.440731 73 44 46
1.788441 5.025922 48.488327 71 42 45
1.790216 5.135538 48.536449 69 40 44
1.792014 5.245428 48.585178 67 38 42
1.793836 5.355601 48.634583 67 37 41
1.795685 5.466071 48.684723 67 37 41
1.797564 5.576847 48.735661 66 36 41
1.799473 5.687941 48.787430 66 38 41
1.801413 5.799356 48.840031 66 38 42
1.803384 5.911098 48.893459 67 38 42
1.805383 6.023166 48.947666 67 38 42
1.807409 6.135558 49.002594 66 37 41
1.809458 6.248265 49.058136 65 37 41
1.811525 6.361277 49.114185 65 36 40
1.813607 6.474581 49.170612 65 35 41
1.815696 6.588158 49.227264 66 36 41
1.817789 6.701990 49.283997 67 36 42
1.819878 6.816055 49.340645 68 36 42
1.821958 6.930331 49.397049 67 36 41
1.824024 7.044792 49.453053 66 37 40
1.826070 7.159416 49.508511 66 37 40
1.828089 7.274177 49.563274 66 37 40
1.830079 7.389053 49.617222 66 37 40
1.832034 7.504016 49.670212 67 38 41
1.833949 7.619044 49.722126 68 39 42
1.835820 7.734110 49.772854 68 40 43
1.837643 7.849190 49.822277 68 41 44
1.839414 7.964258 49.870293 69 42 43
1.841129 8.079289 49.916801 69 42 43
1.842785 8.194259 49.961708 70 41 42
1.844379 8.309140 50.004929 70 41 42
1.845909 8.423914 50.046394 71 41 42
1.847371 8.538556 50.086044 72 41 43
1.848765 8.653049 50.123837 72 42 43
1.850091 8.767381 50.159771 72 43 43
1.851348 8.881539 50.193855 72 43 43
1.852538 8.995520 50.226128 72 42 43
1.853665 9.109327 50.256672 71 42 42
1.854731 9.222966 50.285583 70 41 42
1.855742 9.336452 50.313000 68 40 42
1.856704 9.449806 50.339081 66 39 41
1.857624 9.563055 50.364014 64 38 40
1.858509 9.676230 50.388008 64 37 39
1.859367 9.789367 50.411266 65 37 39
1.860206 9.902503 50.434017 65 37 39
1.861035 10.015681 50.456482 66 37 39
1.861861 10.128945 50.478893 67 38 40
1.862693 10.242336 50.501453 70 41 42
1.863538 10.355897 50.524368 73 43 45
1.864404 10.469669 50.547825 76 46 46
1.865295 10.583693 50.571999 78 47 46
1.866219 10.698002 50.597034 78 47 46
1.867179 10.812634 50.623074 78 47 46
1.868180 10.927615 50.650215 78 46 45
1.869226 11.042978 50.678566 78 47 46
1.870319 11.158746 50.708199 80 50 48
1.871461 11.274935 50.739159 85 57 54
1.872653 11.391562 50.771473 92 64 61
1.873895 11.508639 50.805164 93 63 60
1.875188 11.626172 50.840210 85 54 50
1.876530 11.744164 50.876587 77 46 41
1.877918 11.862610 50.914242 76 45 40
1.879352 11.981503 50.953110 84 53 48
1.880827 12.100833 50.993107 93 62 57
1.882341 12.220582 51.034134 93 63 57
1.883888 12.340732 51.076096 89 60 54
1.885465 12.461255 51.118843 96 68 64
1.887066 12.582128 51.162258 110 83 80
1.888687 12.703314 51.206184 108 82 81
1.890320 12.824779 51.250469 95 68 70
1.891960 12.946481 51.294937 84 58 59
1.893600 13.068376 51.339409 77 51 54
1.895234 13.190419 51.383713 74 47 51
1.896855 13.312559 51.427650 73 47 50
1.898455 13.434744 51.471039 73 47 50
1.900029 13.556924 51.513691 72 46 49
1.901569 13.679049 51.555447 70 45 48
1.903070 13.801074 51.596157 69 44 46
1.904529 13.922962 51.635708 67 44 45
1.905942 14.044686 51.674026 65 44 46
1.907310 14.166231 51.711090 65 45 48
1.908631 14.287599 51.746929 67 47 50
1.909912 14.408806 51.781639 70 50 54
1.911156 14.529888 51.815369 73 52 56
1.912371 14.650899 51.848331 77 55 59
1.913569 14.771909 51.880791 79 56 60
1.914759 14.893003 51.913059 77 53 57
1.915954 15.014279 51.945477 72 47 49
1.917168 15.135840 51.978386 68 43 45
1.918414 15.257791 52.012142 68 44 46
1.919702 15.380238 52.047089 71 48 50
1.921047 15.503284 52.083538 80 58 60
1.922457 15.627017 52.121758 89 70 72
1.923940 15.751517 52.161972 91 73 77
1.925503 15.876855 52.204369 84 68 73
1.927153 16.003088 52.249092 75 61 66
1.928892 16.130262 52.296238 70 57 62
1.930723 16.258415 52.345886 71 58 64
1.932649 16.387587 52.398106 76 62 69
1.934672 16.517809 52.452946 81 65 73
1.936794 16.649117 52.510464 84 66 73
1.939017 16.781551 52.570736 85 66 73
1.941344 16.915157 52.633842 89 68 74
1.943780 17.049984 52.699883 92 71 76
1.858627 -4.404433 47.608742 66 39 40
1.857985 -4.300318 47.592289 64 37 39
1.857349 -4.196290 47.576015 63 36 37
1.856721 -4.092348 47.559925 63 36 36
1.856101 -3.988492 47.544044 64 36 37
1.855491 -3.884726 47.528416 63 36 37
1.854893 -3.781052 47.513096 62 35 36
1.854310 -3.677474 47.498169 62 35 36
1.853746 -3.573995 47.483711 63 36 37
1.853204 -3.470622 47.469837 64 37 38
1.852689 -3.367357 47.456642 65 37 39
1.852204 -3.264202 47.444225 65 38 40
1.851754 -3.161160 47.432693 67 39 41
1.851342 -3.058230 47.422134 66 38 40
1.850970 -2.955410 47.412617 64 35 37
1.850642 -2.852699 47.404209 62 33 36
1.850359 -2.750090 47.396950 62 32 36
1.850121 -2.647578 47.390854 61 32 36
1.849928 -2.545153 47.385906 62 32 37
1.849778 -2.442808 47.382072 64 34 39
1.849669 -2.340530 47.379288 66 36 40
1.849598 -2.238310 47.377453 68 39 42
1.849559 -2.136135 47.376453 70 41 44
1.849546 -2.033994 47.376137 70 41 43
1.849554 -1.931875 47.376347 69 39 40
1.849577 -1.829770 47.376915 68 37 39
1.849606 -1.727668 47.377659 68 37 39
1.849635 -1.625564 47.378410 71 38 41
1.849658 -1.523451 47.379005 73 41 44
1.849670 -1.421327 47.379311 75 43 45
1.849666 -1.319190 47.379204 75 43 45
1.849643 -1.217041 47.378613 75 42 44
1.849599 -1.114883 47.377495 75 41 44
1.849535 -1.012718 47.375843 75 41 44
1.849451 -0.910550 47.373699 74 40 43
1.849351 -0.808385 47.371128 74 39 42
1.849238 -0.706225 47.368240 75 39 42
1.849118 -0.604076 47.365162 76 40 42
1.848996 -0.501940 47.362038 76 41 42
1.848878 -0.399818 47.359028 76 41 42
1.848771 -0.297710 47.356274 76 41 42
1.848679 -0.195616 47.353928 75 41 41
1.848608 -0.093534 47.352116 74 40 42
1.848562 0.008541 47.350925 73 40 42
1.848543 0.110613 47.350437 72 40 43
1.848553 0.212686 47.350697 72 39 43
1.848592 0.314764 47.351700 71 39 43
1.848660 0.416854 47.353447 69 38 41
1.848756 0.518959 47.355896 68 38 40
1.848877 0.621083 47.358994 68 38 40
1.849021 0.723229 47.362675 69 39 41
1.849185 0.825400 47.366882 69 39 41
1.849367 0.927599 47.371555 69 39 42
1.849566 1.029827 47.376656 69 39 43
1.849782 1.132087 47.382175 69 38 41
1.850014 1.234382 47.388107 69 36 39
1.850263 1.336715 47.394497 70 36 39
1.850533 1.439091 47.401405 70 36 39
1.850826 1.541517 47.408928 71 37 39
1.851149 1.644001 47.417183 72 37 39
1.851505 1.746552 47.426311 73 37 39
1.851901 1.849183 47.436466 75 38 40
1.852344 1.951907 47.447807 75 39 41
1.852840 2.054738 47.460495 75 39 41
1.853394 2.157692 47.474701 74 37 40
1.854014 2.260787 47.490566 74 38 40
1.854703 2.364040 47.508236 75 38 41
1.855467 2.467468 47.527809 76 40 42
1.856310 2.571089 47.549389 76 41 43
1.857233 2.674919 47.573040 76 41 43
1.858239 2.778974 47.598793 75 41 42
1.859326 2.883267 47.626656 74 40 41
1.860496 2.987812 47.656605 73 40 40
1.861744 3.092618 47.688591 72 40 40
1.863069 3.197693 47.722530 71 39 39
1.864467 3.303042 47.758327 70 39 39
1.865932 3.408669 47.795853 71 40 41
1.867459 3.514575 47.834976 72 41 44
1.869043 3.620759 47.875534 72 42 44
1.870676 3.727216 47.917366 72 41 44
1.872352 3.833943 47.960312 72 41 45
1.874066 3.940933 48.004211 73 41 45
1.875811 4.048181 48.048916 74 43 47
1.877583 4.155679 48.094292 77 44 48
1.879376 4.263421 48.140217 78 45 49
1.881187 4.371403 48.186604 79 46 48
1.883013 4.479622 48.233383 80 47 48
1.884853 4.588076 48.280514 79 47 49
1.886706 4.696765 48.327984 80 48 50
1.888573 4.805695 48.375801 79 49 51
1.890454 4.914868 48.423996 77 47 50
1.892353 5.024294 48.472622 73 43 47
1.894270 5.133982 48.521744 69 40 44
1.896210 5.243943 48.571426 67 38 42
1.898174 5.354186 48.621735 67 37 41
1.900164 5.464723 48.672726 67 37 41
1.902184 5.575565 48.724457 67 37 41
1.904234 5.686719 48.776958 66 37 41
1.906314 5.798193 48.830242 67 37 41
1.908424 5.909989 48.884289 68 37 42
1.910563 6.022108 48.939072 68 37 42
1.912728 6.134548 48.994526 68 37 42
1.914915 6.247301 49.050568 68 38 42
1.917122 6.360359 49.107094 66 36 41
1.919343 6.473707 49.163971 67 36 41
1.921572 6.587331 49.221085 69 37 43
1.923805 6.701211 49.278267 70 37 43
1.926034 6.815328 49.335381 70 37 43
1.928255 6.929661 49.392273 70 38 43
1.930462 7.044185 49.448792 69 38 42
1.932648 7.158877 49.504784 68 38 41
1.934808 7.273714 49.560120 68 38 41
1.936937 7.388669 49.614647 69 39 41
1.939029 7.503719 49.668247 69 39 42
1.941080 7.618837 49.720779 70 40 44
1.943085 7.733997 49.772125 70 40 44
1.945038 7.849172 49.822159 70 41 44
1.946936 7.964334 49.870766 71 42 44
1.948773 8.079456 49.917835 71 42 43
1.950547 8.194512 49.963257 71 42 43
1.952252 8.309476 50.006950 72 42 43
1.953887 8.424321 50.048817 72 42 43
1.955448 8.539027 50.088802 73 43 43
1.956934 8.653572 50.126865 73 44 44
1.958344 8.767942 50.162987 72 43 43
1.959679 8.882130 50.197197 71 43 43
1.960941 8.996127 50.229519 70 42 42
1.962133 9.109940 50.260052 70 41 41
1.963260 9.223576 50.288906 69 41 41
1.964326 9.337049 50.316216 68 40 41
1.965339 9.450384 50.342159 67 40 41
1.966306 9.563608 50.366928 66 39 40
1.967235 9.676756 50.390743 66 39 40
1.968136 9.789864 50.413826 66 39 41
1.969018 9.902972 50.436409 68 40 42
1.969889 10.016127 50.458729 69 40 42
1.970759 10.129370 50.481010 70 40 42
1.971636 10.242746 50.503471 73 42 43
1.972529 10.356299 50.526329 75 44 46
1.973443 10.470071 50.549763 77 46 47
1.974388 10.584102 50.573956 78 47 46
1.975368 10.698429 50.599052 78 47 46
1.976388 10.813088 50.625202 78 47 46
1.977454 10.928108 50.652496 79 48 46
1.978569 11.043519 50.681049 79 49 48
1.979735 11.159346 50.710926 81 52 51
1.980955 11.275607 50.742184 88 59 58
1.982231 11.392321 50.774857 96 68 66
1.983562 11.509497 50.808945 95 67 65
1.984948 11.627144 50.844456 85 56 54
1.986388 11.745262 50.881344 75 45 44
1.987880 11.863852 50.919571 72 43 41
1.989422 11.982904 50.959064 77 46 43
1.991011 12.102410 50.999752 82 52 48
1.992642 12.222351 51.041527 84 55 51
1.994310 12.342707 51.084270 85 57 53
1.996012 12.463453 51.127857 91 63 61
1.997741 12.584561 51.172157 99 72 70
1.999492 12.705997 51.216999 99 72 73
2.001258 12.827724 51.262238 94 68 70
2.003032 12.949697 51.307682 88 61 64
2.004807 13.071875 51.353157 80 53 57
2.006576 13.194206 51.398464 74 47 52
2.008331 13.316639 51.443413 74 46 50
2.010064 13.439121 51.487808 75 47 50
2.011769 13.561602 51.531467 74 47 50
2.013437 13.684027 51.574207 72 46 48
2.015064 13.806350 51.615883 71 44 47
2.016645 13.928537 51.656384 70 45 47
2.018178 14.050557 51.695625 68 45 48
2.019659 14.172394 51.733585 68 47 51
2.021092 14.294047 51.770287 72 51 56
2.022480 14.415537 51.805828 77 55 62
2.023828 14.536895 51.840359 79 57 64
2.025145 14.658178 51.874092 80 56 63
2.026441 14.779453 51.907288 79 54 61
2.027728 14.900808 51.940266 77 51 57
2.029020 15.022339 51.973358 73 47 51
2.030330 15.144152 52.006927 70 43 47
2.031673 15.266350 52.041321 71 44 46
2.033062 15.389044 52.076889 74 50 51
2.034508 15.512333 52.113941 83 61 62
2.036024 15.636312 52.152760 93 72 74
2.037617 15.761060 52.193573 93 75 77
2.039296 15.886648 52.236568 85 69 72
2.041065 16.013138 52.281906 75 60 64
2.042930 16.140574 52.329674 70 56 60
2.044894 16.269001 52.379971 73 59 64
2.046958 16.398453 52.432846 81 66 73
2.049126 16.528965 52.488373 89 73 80
2.051399 16.660572 52.546593 91 73 80
2.053780 16.793314 52.607582 89 69 75
2.056272 16.927233 52.671417 87 66 72
2.058879 17.062378 52.738190 87 66 70
1.958549 -4.500843 47.543049 68 41 43
1.957893 -4.396883 47.527130 66 39 41
1.957244 -4.293005 47.511356 65 37 39
1.956599 -4.189208 47.495720 64 36 37
1.955961 -4.085489 47.480221 63 35 36
1.955330 -3.981852 47.464893 61 35 36
1.954707 -3.878299 47.449783 60 34 35
1.954096 -3.774833 47.434952 60 34 35
1.953500 -3.671459 47.420486 60 34 35
1.952923 -3.568183 47.406483 60 34 35
1.952369 -3.465007 47.393040 62 35 36
1.951843 -3.361938 47.380264 64 37 38
1.951349 -3.258976 47.368271 67 40 42
1.950891 -3.156126 47.357155 70 43 45
1.950474 -3.053386 47.347019 69 41 43
1.950100 -2.950756 47.337940 64 36 39
1.949772 -2.848232 47.329983 62 33 36
1.949492 -2.745811 47.323189 63 32 37
1.949261 -2.643485 47.317589 63 32 38
1.949079 -2.541246 47.313160 64 33 38
1.948943 -2.439085 47.309875 65 34 39
1.948853 -2.336992 47.307667 67 36 40
1.948802 -2.234955 47.306446 69 38 41
1.948788 -2.132962 47.306087 71 41 43
1.948802 -2.031002 47.306446 73 42 43
1.948840 -1.929062 47.307358 72 41 42
1.948893 -1.827133 47.308651 69 38 39
1.948954 -1.725206 47.310131 68 36 39
1.949016 -1.623273 47.311638 71 38 43
1.949072 -1.521329 47.312996 77 44 48
1.949116 -1.419369 47.314053 78 45 49
1.949142 -1.317394 47.314697 77 43 46
1.949148 -1.215403 47.314835 76 42 45
1.949131 -1.113399 47.314426 77 41 45
1.949091 -1.011384 47.313454 77 41 45
1.949029 -0.909363 47.311954 77 40 44
1.948949 -0.807341 47.309998 77 39 43
1.948853 -0.705322 47.307682 77 40 42
1.948748 -0.603310 47.305138 78 40 42
1.948640 -0.501309 47.302505 78 41 43
1.948534 -0.399319 47.299942 78 42 43
1.948438 -0.297341 47.297604 78 42 43
1.948357 -0.195376 47.295635 77 42 43
1.948296 -0.093419 47.294167 76 42 44
1.948260 0.008531 47.293293 75 42 45
1.948253 0.110479 47.293106 74 41 45
1.948275 0.212429 47.293636 74 42 45
1.948327 0.314387 47.294918 73 41 44
1.948410 0.416357 47.296932 71 40 42
1.948522 0.518343 47.299652 70 38 41
1.948662 0.620349 47.303028 71 40 41
1.948826 0.722379 47.307014 71 41 41
1.949012 0.824436 47.311543 72 41 42
1.949220 0.926522 47.316574 73 41 43
1.949446 1.028641 47.322075 73 41 44
1.949692 1.130793 47.328033 74 42 44
1.949956 1.232984 47.334457 76 42 44
1.950242 1.335217 47.341396 77 41 43
1.950552 1.437497 47.348911 77 40 43
1.950889 1.539832 47.357101 77 40 42
1.951259 1.642229 47.366077 77 39 42
1.951667 1.744699 47.375988 77 40 41
1.952120 1.847254 47.386982 78 40 42
1.952624 1.949908 47.399212 78 41 43
1.953185 2.052675 47.412846 78 41 42
1.953811 2.155571 47.428036 77 40 42
1.954507 2.258615 47.444931 77 39 42
1.955279 2.361821 47.463654 77 40 42
1.956130 2.465210 47.484314 78 41 43
1.957064 2.568797 47.507000 77 42 44
1.958085 2.672598 47.531773 76 42 43
1.959192 2.776630 47.558655 75 41 42
1.960387 2.880906 47.587650 74 41 41
1.961667 2.985438 47.618736 73 40 41
1.963031 3.090236 47.651852 72 40 41
1.964476 3.195307 47.686928 71 40 41
1.965997 3.300658 47.723846 71 40 40
1.967589 3.406291 47.762497 72 41 42
1.969247 3.512206 47.802727 73 42 44
1.970963 3.618404 47.844395 73 41 44
1.972732 3.724880 47.887337 73 41 44
1.974547 3.831631 47.931389 73 41 45
1.976401 3.938650 47.976395 74 41 45
1.978288 4.045930 48.022205 77 43 47
1.980203 4.153467 48.068687 80 46 49
1.982141 4.261252 48.115723 83 48 51
1.984097 4.369282 48.163216 85 51 52
1.986070 4.477552 48.211102 86 52 53
1.988056 4.586062 48.259323 86 53 54
1.990057 4.694812 48.307877 87 54 56
1.992070 4.803803 48.356758 86 54 57
1.994098 4.913041 48.405994 81 51 54
1.996143 5.022533 48.455631 75 44 48
1.998207 5.132288 48.505722 70 40 43
2.000292 5.242313 48.556332 69 39 42
2.002400 5.352621 48.607517 69 38 42
2.004535 5.463220 48.659336 68 38 42
2.006698 5.574121 48.711842 67 37 42
2.008890 5.685331 48.765049 67 36 41
2.011112 5.796857 48.818989 68 36 41
2.013363 5.908701 48.873642 69 37 42
2.015643 6.020866 48.928982 70 38 42
2.017949 6.133348 48.984951 70 38 42
2.020278 6.246143 49.041477 71 39 43
2.022625 6.359241 49.098457 70 37 42
2.024987 6.472629 49.155788 70 37 42
2.027357 6.586294 49.213337 71 38 44
2.029732 6.700219 49.270969 72 39 45
2.032103 6.814384 49.328541 72 39 45
2.034466 6.928768 49.385910 72 39 45
2.036815 7.043350 49.442928 71 39 43
2.039144 7.158106 49.499451 69 39 42
2.041446 7.273011 49.555332 70 39 42
2.043716 7.388042 49.610435 71 40 43
2.045948 7.503171 49.664619 71 40 43
2.048136 7.618372 49.717747 72 40 44
2.050276 7.733618 49.769684 72 41 44
2.052361 7.848878 49.820297 72 41 44
2.054387 7.964126 49.869465 72 41 44
2.056347 8.079329 49.917046 72 42 44
2.058238 8.194461 49.962944 73 43 43
2.060054 8.309492 50.007046 74 43 43
2.061793 8.424397 50.049263 74 44 44
2.063452 8.539150 50.089523 73 44 44
2.065028 8.653732 50.127789 73 44 44
2.066522 8.768127 50.164043 72 43 43
2.067933 8.882325 50.198299 70 41 42
2.069264 8.996324 50.230614 70 40 41
2.070519 9.110125 50.261070 70 40 41
2.071702 9.223737 50.289783 70 40 41
2.072819 9.337180 50.316917 69 41 41
2.073880 9.450478 50.342655 69 40 42
2.074891 9.563659 50.367195 68 40 42
2.075862 9.676761 50.390770 68 40 42
2.076803 9.789822 50.413612 69 41 43
2.077724 9.902886 50.435970 71 42 44
2.078635 10.015999 50.458084 72 42 44
2.079545 10.129205 50.480186 73 42 44
2.080465 10.242550 50.502510 75 43 45
2.081402 10.356081 50.525265 76 45 46
2.082365 10.469838 50.548637 78 46 47
2.083361 10.583864 50.572819 78 46 47
2.084397 10.698196 50.597954 78 47 47
2.085478 10.812872 50.624187 78 47 47
2.086608 10.927919 50.651623 79 48 48
2.087792 11.043369 50.680363 80 50 50
2.089033 11.159249 50.710487 81 52 53
2.090333 11.275577 50.742046 88 59 60
2.091693 11.392368 50.775066 96 67 69
2.093115 11.509638 50.809574 95 67 69
2.094597 11.627394 50.845551 85 57 58
2.096138 11.745638 50.882973 74 45 47
2.097737 11.864368 50.921787 70 41 42
2.099391 11.983580 50.961937 71 42 42
2.101096 12.103259 51.003330 75 46 45
2.102849 12.223392 51.045868 79 50 48
2.104644 12.343955 51.089436 82 54 52
2.106475 12.464925 51.133892 86 59 57
2.108338 12.586271 51.179108 90 65 63
2.110225 12.707959 51.224915 93 68 69
2.112129 12.829950 51.271137 96 71 74
2.114043 12.952199 51.317593 94 69 72
2.115958 13.074660 51.364098 83 57 62
2.117868 13.197282 51.410450 74 48 53
2.119762 13.320011 51.456440 73 45 50
2.121634 13.442794 51.501877 75 46 50
2.123475 13.565575 51.546566 75 47 49
2.125277 13.688299 51.590313 74 46 48
2.127035 13.810923 51.632977 73 45 47
2.128743 13.933404 51.674435 73 46 48
2.130397 14.055714 51.714600 72 46 50
2.131997 14.177833 51.753437 72 48 54
2.133544 14.299764 51.790989 77 53 61
2.135041 14.421521 51.827332 82 59 68
2.136496 14.543141 51.862633 84 60 69
2.137915 14.664674 51.897083 82 56 66
2.139311 14.786195 51.930969 79 52 62
2.140696 14.907787 51.964592 77 49 58
2.142085 15.029548 51.998299 75 47 54
2.143491 15.151582 52.032444 74 45 50
2.144931 15.274000 52.067402 74 45 49
2.146419 15.396910 52.103508 78 50 53
2.147967 15.520416 52.141094 87 62 63
2.149588 15.644610 52.180439 96 73 74
2.151291 15.769578 52.221779 95 74 76
2.153085 15.895393 52.265324 85 67 69
2.154975 16.022118 52.311222 75 57 60
2.156967 16.149797 52.359577 71 55 58
2.159065 16.278481 52.410488 76 60 64
2.161270 16.408201 52.464020 87 70 76
2.163585 16.538998 52.520229 96 78 84
2.166013 16.670898 52.579163 96 77 83
2.168556 16.803949 52.640900 90 70 75
2.171218 16.938187 52.705502 86 65 69
2.174001 17.073658 52.773060 86 63 67
2.176909 17.210411 52.843655 86 64 66
2.057502 -4.493126 47.461536 70 41 42
2.056844 -4.389409 47.446339 68 40 40
2.056189 -4.285766 47.431232 67 38 39
2.055538 -4.182196 47.416214 65 37 37
2.054891 -4.078698 47.401295 64 36 36
2.054250 -3.975276 47.386501 62 35 36
2.053616 -3.871933 47.371891 60 34 35
2.052994 -3.768672 47.357533 58 33 34
2.052386 -3.665499 47.343513 58 32 33
2.051797 -3.562420 47.329926 58 32 33
2.051232 -3.459440 47.316887 60 34 34
2.050695 -3.356562 47.304512 62 36 38
2.050192 -3.253791 47.292904 67 41 43
2.049727 -3.151128 47.282173 71 44 46
2.049304 -3.048575 47.272423 68 40 43
2.048928 -2.946130 47.263737 62 33 37
2.048600 -2.843791 47.256184 61 31 36
2.048324 -2.741553 47.249813 63 33 38
2.048100 -2.639410 47.244648 65 33 40
2.047928 -2.537354 47.240688 66 34 40
2.047807 -2.435374 47.237896 68 35 41
2.047734 -2.333463 47.236217 69 37 41
2.047705 -2.231606 47.235546 72 39 42
2.047715 -2.129792 47.235775 74 41 43
2.047758 -2.028009 47.236748 75 42 44
2.047825 -1.926246 47.238300 74 42 44
2.047909 -1.824492 47.240253 72 40 42
2.048004 -1.722737 47.242424 71 38 42
2.048099 -1.620973 47.244621 73 40 46
2.048188 -1.519196 47.246677 78 45 51
2.048265 -1.417401 47.248440 80 46 51
2.048322 -1.315587 47.249775 78 44 49
2.048358 -1.213753 47.250595 77 42 47
2.048369 -1.111903 47.250843 78 42 46
2.048354 -1.010038 47.250511 78 41 45
2.048316 -0.908165 47.249619 79 40 44
2.048255 -0.806287 47.248234 79 39 44
2.048178 -0.704409 47.246452 80 40 43
2.048090 -0.602536 47.244408 81 41 43
2.047996 -0.500670 47.242237 81 42 44
2.047903 -0.398814 47.240097 81 43 45
2.047818 -0.296968 47.238148 81 44 45
2.047748 -0.195131 47.236538 80 44 46
2.047699 -0.093303 47.235401 79 44 47
2.047675 0.008520 47.234837 79 45 48
2.047679 0.110343 47.234932 78 45 48
2.047714 0.212169 47.235744 77 45 48
2.047781 0.314004 47.237293 76 44 46
2.047880 0.415852 47.239578 73 42 43
2.048010 0.517717 47.242577 72 40 41
2.048169 0.619604 47.246246 72 41 41
2.048356 0.721517 47.250546 73 41 41
2.048567 0.823458 47.255417 73 41 41
2.048801 0.925431 47.260826 75 42 42
2.049058 1.027438 47.266743 78 44 44
2.049336 1.129483 47.273167 82 47 48
2.049637 1.231568 47.280106 84 49 50
2.049963 1.333700 47.287609 85 48 50
2.050315 1.435883 47.295750 85 47 49
2.050700 1.538125 47.304615 85 46 49
2.051121 1.640435 47.314335 84 45 47
2.051585 1.742823 47.325035 83 44 46
2.052098 1.845301 47.336876 83 44 45
2.052667 1.947884 47.350006 83 44 45
2.053299 2.050585 47.364578 82 44 45
2.054000 2.153422 47.380753 82 43 45
2.054777 2.256412 47.398663 81 43 45
2.055634 2.359571 47.418427 81 43 45
2.056576 2.462917 47.440155 80 44 45
2.057606 2.566467 47.463921 80 44 46
2.058727 2.670238 47.489784 79 44 45
2.059940 2.774243 47.517765 77 43 44
2.061245 2.878498 47.547867 75 42 43
2.062640 2.983013 47.580048 74 41 42
2.064123 3.087798 47.614265 73 41 42
2.065691 3.192862 47.650429 72 41 42
2.067339 3.298209 47.688442 72 41 42
2.069061 3.403843 47.728172 73 42 43
2.070852 3.509764 47.769485 73 42 44
2.072705 3.615971 47.812225 73 41 43
2.074613 3.722462 47.856243 73 40 44
2.076569 3.829231 47.901363 74 40 44
2.078567 3.936274 47.947449 75 41 44
2.080600 4.043582 47.994335 78 43 47
2.082662 4.151152 48.041897 81 46 50
2.084747 4.258975 48.090008 85 50 53
2.086853 4.367047 48.138580 88 53 55
2.088975 4.475364 48.187534 91 55 57
2.091112 4.583924 48.236824 92 57 59
2.093262 4.692727 48.286427 93 58 61
2.095426 4.801775 48.336346 92 58 61
2.097604 4.911072 48.386589 85 52 55
2.099798 5.020623 48.437199 77 45 48
2.102010 5.130436 48.488232 73 41 45
2.104243 5.240521 48.539730 72 40 44
2.106499 5.350886 48.591766 72 39 43
2.108780 5.461541 48.644382 71 39 43
2.111088 5.572494 48.697620 69 37 42
2.113425 5.683754 48.751522 68 36 40
2.115790 5.795325 48.806091 69 36 41
2.118185 5.907213 48.861328 71 38 43
2.120607 6.019417 48.917206 73 39 43
2.123055 6.131937 48.973675 74 40 44
2.125526 6.244767 49.030674 74 40 44
2.128016 6.357900 49.088108 74 39 44
2.130520 6.471323 49.145874 74 40 45
2.133034 6.585025 49.203857 75 41 47
2.135551 6.698989 49.261929 75 41 47
2.138067 6.813197 49.319954 74 40 47
2.140574 6.927629 49.377792 74 40 46
2.143067 7.042264 49.435303 72 40 45
2.145540 7.157078 49.492340 72 40 44
2.147985 7.272046 49.548756 72 40 44
2.150398 7.387145 49.604412 72 40 44
2.152771 7.502347 49.659161 72 40 43
2.155099 7.617622 49.712849 72 40 43
2.157374 7.732943 49.765343 73 41 43
2.159592 7.848279 49.816498 73 41 43
2.161746 7.963600 49.866173 73 41 43
2.163829 8.078873 49.914230 73 42 42
2.165837 8.194067 49.960545 74 43 43
2.167764 8.309153 50.005001 74 44 43
2.169607 8.424102 50.047508 74 44 44
2.171361 8.538887 50.087982 73 44 44
2.173026 8.653489 50.126385 73 43 44
2.174600 8.767891 50.162693 72 43 43
2.176085 8.882084 50.196938 71 41 42
2.177481 8.996063 50.229160 71 41 42
2.178795 9.109834 50.259464 71 41 42
2.180031 9.223406 50.287979 71 41 42
2.181197 9.336800 50.314869 71 41 42
2.182301 9.450040 50.340324 71 42 42
2.183352 9.563161 50.364571 72 42 43
2.184361 9.676198 50.387840 72 43 44
2.185338 9.789196 50.410389 73 44 46
2.186295 9.902198 50.432461 74 45 46
2.187242 10.015251 50.454315 74 44 45
2.188191 10.128404 50.476196 74 44 45
2.189150 10.241703 50.498329 75 43 45
2.190130 10.355194 50.520939 74 43 44
2.191140 10.468923 50.544224 75 44 44
2.192186 10.582931 50.568359 75 44 44
2.193276 10.697256 50.593506 76 45 45
2.194416 10.811935 50.619804 77 46 47
2.195611 10.927000 50.647362 79 48 49
2.196865 11.042480 50.676281 80 50 52
2.198181 11.158403 50.706646 82 53 55
2.199562 11.274788 50.738495 87 57 60
2.201009 11.391652 50.771877 93 63 66
2.202523 11.509009 50.806797 93 65 67
2.204103 11.626870 50.843258 87 59 61
2.205749 11.745234 50.881222 78 49 51
2.207458 11.864102 50.920647 72 43 45
2.209228 11.983468 50.961464 71 43 43
2.211054 12.103320 51.003586 73 46 44
2.212932 12.223641 51.046913 76 49 46
2.214857 12.344413 51.091331 79 53 50
2.216824 12.465606 51.136688 84 59 56
2.218825 12.587192 51.182850 89 65 63
2.220853 12.709132 51.229637 94 71 70
2.222901 12.831389 51.276886 102 79 80
2.224961 12.953916 51.324394 102 78 81
2.227023 13.076664 51.371971 89 63 68
2.229079 13.199578 51.419395 77 49 55
2.231120 13.322607 51.466469 74 45 50
2.233136 13.445691 51.512978 75 46 49
2.235119 13.568772 51.558716 75 46 49
2.237061 13.691799 51.603500 75 46 48
2.238954 13.814719 51.647171 75 46 48
2.240793 13.937492 51.689594 75 47 50
2.242574 14.060085 51.730686 75 47 51
2.244297 14.182485 51.770420 75 49 55
2.245960 14.304682 51.808804 81 55 64
2.247570 14.426698 51.845940 87 62 72
2.249132 14.548564 51.881969 87 62 72
2.250656 14.670336 51.917118 83 56 67
2.252153 14.792083 51.951645 80 52 62
2.253636 14.913889 51.985863 79 50 58
2.255122 15.035858 52.020130 78 48 55
2.256625 15.158093 52.054806 78 48 53
2.258162 15.280708 52.090267 79 48 52
2.259748 15.403811 52.126858 82 52 55
2.261399 15.527508 52.164921 90 62 64
2.263125 15.651897 52.204742 97 72 74
2.264938 15.777066 52.246578 95 72 74
2.266848 15.903090 52.290627 86 64 66
2.268861 16.030031 52.337059 77 57 59
2.270982 16.157946 52.385998 76 57 60
2.273216 16.286877 52.437523 81 62 67
2.275565 16.416862 52.491711 91 71 77
2.278033 16.547939 52.548626 98 78 84
2.280620 16.680141 52.608318 96 76 82
2.283331 16.813507 52.670841 90 69 74
2.286167 16.948074 52.736271 87 65 69
2.289132 17.083885 52.804668 87 64 68
2.292230 17.220989 52.876133 88 64 66
2.156151 -4.485508 47.381065 71 42 42
2.155492 -4.382029 47.366566 70 41 41
2.154834 -4.278616 47.352112 69 40 40
2.154178 -4.175270 47.337692 67 39 40
2.153524 -4.071989 47.323322 66 38 39
2.152874 -3.968778 47.309044 64 37 38
2.152231 -3.865640 47.294907 62 36 37
2.151597 -3.762581 47.280991 60 34 35
2.150978 -3.659606 47.267387 58 32 33
2.150378 -3.556720 47.254200 57 32 32
2.149802 -3.453931 47.241539 58 33 33
2.149255 -3.351241 47.229519 60 35 36
2.148743 -3.248656 47.218266 64 38 40
2.148270 -3.146177 47.207882 67 40 43
2.147843 -3.043807 47.198483 65 37 40
2.147464 -2.941543 47.190147 60 32 35
2.147136 -2.839385 47.182957 61 31 35
2.146863 -2.737326 47.176964 65 34 39
2.146646 -2.635362 47.172192 67 36 42
2.146485 -2.533484 47.168644 69 37 43
2.146378 -2.431683 47.166294 71 38 43
2.146323 -2.329948 47.165077 73 40 43
2.146315 -2.228268 47.164909 75 41 43
2.146349 -2.126631 47.165661 76 42 44
2.146419 -2.025023 47.167187 77 44 46
2.146516 -1.923433 47.169323 78 45 47
2.146632 -1.821851 47.171879 77 44 48
2.146759 -1.720266 47.174671 75 42 48
2.146888 -1.618671 47.177502 77 44 50
2.147011 -1.517059 47.180202 80 45 53
2.147120 -1.415426 47.182610 80 46 53
2.147210 -1.313771 47.184586 80 45 51
2.147276 -1.212095 47.186039 80 43 49
2.147316 -1.110398 47.186897 80 42 48
2.147327 -1.008684 47.187149 80 41 48
2.147312 -0.906958 47.186821 81 41 47
2.147273 -0.805225 47.185963 83 41 46
2.147215 -0.703489 47.184681 84 42 46
2.147143 -0.601754 47.183098 85 43 45
2.147063 -0.500025 47.181358 85 44 45
2.146984 -0.398303 47.179623 85 45 46
2.146912 -0.296590 47.178040 85 47 47
2.146855 -0.194884 47.176769 84 47 48
2.146817 -0.093186 47.175945 84 48 50
2.146805 0.008510 47.175682 83 49 51
2.146822 0.110206 47.176060 83 49 52
2.146872 0.211906 47.177151 84 50 51
2.146955 0.313616 47.178970 81 49 50
2.147071 0.415341 47.181534 76 45 44
2.147221 0.517084 47.184818 73 41 41
2.147402 0.618851 47.188797 74 41 41
2.147612 0.720645 47.193420 75 42 41
2.147851 0.822469 47.198654 76 42 41
2.148115 0.924327 47.204460 78 43 42
2.148404 1.026222 47.210819 82 46 46
2.148718 1.128158 47.217724 90 53 53
2.149058 1.230138 47.225197 96 59 59
2.149426 1.332168 47.233284 96 57 59
2.149826 1.434253 47.242065 94 54 57
2.150261 1.536402 47.251629 95 54 58
2.150738 1.638624 47.262096 94 54 58
2.151261 1.740929 47.273598 92 52 55
2.151838 1.843329 47.286285 90 50 53
2.152477 1.945839 47.300312 89 49 51
2.153183 2.048474 47.315823 88 48 49
2.153962 2.151250 47.332958 87 48 48
2.154823 2.254184 47.351864 87 48 49
2.155769 2.357293 47.372650 87 49 49
2.156804 2.460594 47.395412 87 50 49
2.157934 2.564105 47.420227 85 49 50
2.159159 2.667840 47.447147 83 48 49
2.160480 2.771816 47.476189 81 46 46
2.161898 2.876045 47.507347 78 44 45
2.163411 2.980539 47.540588 76 43 44
2.165016 3.085307 47.575855 75 42 44
2.166709 3.190358 47.613068 74 42 43
2.168486 3.295697 47.652119 74 42 43
2.170341 3.401326 47.692890 74 42 43
2.172269 3.507247 47.735237 74 42 43
2.174261 3.613459 47.779015 74 41 43
2.176311 3.719959 47.824059 74 40 43
2.178411 3.826741 47.870220 75 40 43
2.180555 3.933801 47.917332 76 41 44
2.182736 4.041132 47.965260 79 43 46
2.184947 4.148728 48.013855 81 45 49
2.187184 4.256583 48.063007 84 47 52
2.189442 4.364691 48.112614 88 50 54
2.191716 4.473048 48.162601 91 53 56
2.194006 4.581652 48.212910 92 55 58
2.196309 4.690501 48.263527 94 58 61
2.198626 4.799598 48.314434 94 58 61
2.200956 4.908946 48.365643 87 52 55
2.203302 5.018548 48.417187 80 46 49
2.205665 5.128414 48.469116 77 43 46
2.208048 5.238550 48.521473 76 42 45
2.210452 5.348965 48.574318 75 42 45
2.212881 5.459667 48.627686 74 41 44
2.215336 5.570665 48.681641 72 39 42
2.217819 5.681967 48.736195 70 36 40
2.220330 5.793578 48.791374 70 36 40
2.222869 5.905502 48.847176 73 38 43
2.225436 6.017740 48.903576 76 41 46
2.228028 6.130291 48.960533 77 43 47
2.230642 6.243152 49.017990 77 42 46
2.233276 6.356314 49.075867 76 41 45
2.235925 6.469769 49.134068 77 43 47
2.238583 6.583503 49.192482 79 44 49
2.241246 6.697502 49.250992 78 43 49
2.243906 6.811748 49.309464 76 41 47
2.246559 6.926222 49.367767 74 41 45
2.249198 7.040904 49.425758 74 41 45
2.251817 7.155770 49.483299 74 41 45
2.254408 7.270795 49.540230 75 42 45
2.256964 7.385954 49.596416 74 41 44
2.259480 7.501219 49.651699 73 40 43
2.261948 7.616561 49.705925 73 41 42
2.264360 7.731947 49.758938 74 42 43
2.266711 7.847349 49.810589 74 41 42
2.268992 7.962730 49.860729 73 40 41
2.271198 8.078059 49.909199 73 41 41
2.273322 8.193301 49.955875 73 42 42
2.275359 8.308426 50.000626 73 43 43
2.277303 8.423403 50.043358 73 43 43
2.279152 8.538205 50.083981 73 43 43
2.280903 8.652810 50.122448 72 42 43
2.282555 8.767202 50.158752 71 42 42
2.284109 8.881371 50.192905 71 41 42
2.285568 8.995314 50.224976 72 41 43
2.286937 9.109035 50.255062 72 41 43
2.288222 9.222548 50.283302 72 41 43
2.289432 9.335873 50.309875 73 42 43
2.290575 9.449039 50.334991 75 43 44
2.291662 9.562079 50.358879 76 45 46
2.292704 9.675035 50.381786 76 44 47
2.293714 9.787951 50.403980 76 45 48
2.294703 9.900873 50.425716 77 45 48
2.295683 10.013850 50.447258 76 45 47
2.296667 10.126933 50.468864 76 44 46
2.297664 10.240170 50.490772 75 44 45
2.298684 10.353607 50.513195 74 43 44
2.299738 10.467293 50.536350 73 43 43
2.300833 10.581267 50.560413 72 42 43
2.301976 10.695573 50.585548 73 43 43
2.303175 10.810244 50.611885 74 45 46
2.304434 10.925314 50.639545 78 48 50
2.305758 11.040813 50.668633 82 52 55
2.307149 11.156770 50.699219 83 53 57
2.308612 11.273202 50.731361 84 53 58
2.310147 11.390130 50.765095 86 56 60
2.311755 11.507568 50.800434 90 60 63
2.313437 11.625525 50.837376 88 59 61
2.315189 11.744004 50.875893 81 53 54
2.317011 11.863005 50.915936 75 47 48
2.318900 11.982520 50.957432 73 46 45
2.320851 12.102542 51.000309 73 47 44
2.322860 12.223050 51.044445 74 48 44
2.324920 12.344026 51.089725 76 52 45
2.327026 12.465441 51.136009 84 60 54
2.329171 12.587264 51.183147 95 73 67
2.331347 12.709458 51.230957 102 80 76
2.333545 12.831982 51.279255 109 86 85
2.335756 12.954787 51.327850 108 84 85
2.337971 13.077823 51.376522 93 67 70
2.340180 13.201034 51.425064 79 52 56
2.342373 13.324361 51.473244 76 47 51
2.344539 13.447749 51.520863 76 46 50
2.346671 13.571135 51.567692 77 46 50
2.348757 13.694462 51.613537 77 46 49
2.350791 13.817678 51.658234 77 46 49
2.352767 13.940742 51.701649 77 47 49
2.354680 14.063620 51.743687 77 48 51
2.356528 14.186290 51.784309 77 49 55
2.358313 14.308749 51.823536 84 57 64
2.360039 14.431014 51.861450 92 65 73
2.361712 14.553119 51.898212 90 63 71
2.363341 14.675113 51.934021 84 55 64
2.364940 14.797071 51.969166 81 52 60
2.366524 14.919081 52.003960 81 52 58
2.368107 15.041241 52.038754 83 52 58
2.369707 15.163660 52.073921 84 53 57
2.371342 15.286452 52.109848 86 54 58
2.373028 15.409730 52.146893 87 56 59
2.374780 15.533604 52.185398 92 63 65
2.376613 15.658172 52.225670 96 68 70
2.378538 15.783528 52.267979 93 67 69
2.380566 15.909751 52.312531 86 62 64
2.382703 16.036905 52.359501 82 58 62
2.384956 16.165047 52.409012 83 60 64
2.387330 16.294224 52.461178 87 65 70
2.389828 16.424479 52.516060 93 70 77
2.392452 16.555843 52.573723 96 73 81
2.395205 16.688354 52.634216 94 72 79
2.398088 16.822046 52.697590 91 69 75
2.401107 16.956961 52.763916 90 67 73
2.404262 17.093130 52.833244 91 66 72
2.407557 17.230604 52.905655 92 67 70
2.254512 -4.478006 47.301819 75 44 44
2.253853 -4.374759 47.287987 74 44 43
2.253193 -4.271572 47.274143 74 44 43
2.252532 -4.168442 47.260288 74 44 44
2.251873 -4.065374 47.246445 73 44 44
2.251215 -3.962369 47.232643 69 41 42
2.250562 -3.859432 47.218952 65 39 40
2.249919 -3.756569 47.205448 62 37 38
2.249289 -3.653787 47.192230 60 35 36
2.248677 -3.551091 47.179401 59 33 35
2.248090 -3.448487 47.167088 59 33 35
2.247533 -3.345982 47.155399 59 34 37
2.247012 -3.243578 47.144459 61 36 39
2.246532 -3.141279 47.134388 64 37 40
2.246098 -3.039087 47.125294 64 35 40
2.245716 -2.937001 47.117271 63 34 38
2.245389 -2.835018 47.110405 64 34 39
2.245119 -2.733135 47.104740 66 36 41
2.244908 -2.631346 47.100315 69 37 42
2.244756 -2.529643 47.097130 71 39 44
2.244663 -2.428016 47.095169 74 42 46
2.244624 -2.326455 47.094368 77 44 47
2.244637 -2.224948 47.094639 78 45 47
2.244695 -2.123483 47.095860 78 45 47
2.244792 -2.022047 47.097878 78 45 48
2.244918 -1.920628 47.100533 81 48 51
2.245066 -1.819215 47.103634 80 48 52
2.245226 -1.717798 47.106991 79 45 51
2.245389 -1.616369 47.110405 79 44 52
2.245545 -1.514920 47.113689 80 45 54
2.245688 -1.413449 47.116684 81 45 54
2.245810 -1.311952 47.119247 81 45 53
2.245907 -1.210431 47.121269 81 45 52
2.245975 -1.108887 47.122696 82 44 51
2.246012 -1.007323 47.123489 82 43 51
2.246021 -0.905744 47.123672 84 42 50
2.246004 -0.804155 47.123306 86 43 49
2.245965 -0.702561 47.122486 88 43 48
2.245910 -0.600966 47.121334 89 44 47
2.245846 -0.499374 47.119999 89 45 46
2.245781 -0.397788 47.118629 90 48 47
2.245722 -0.296208 47.117390 91 50 49
2.245677 -0.194635 47.116447 90 51 52
2.245652 -0.093067 47.115925 90 53 54
2.245653 0.008499 47.115955 89 53 55
2.245685 0.110067 47.116615 88 53 53
2.245750 0.211640 47.117977 86 52 53
2.245850 0.313225 47.120079 84 51 51
2.245986 0.414825 47.122929 79 46 46
2.246157 0.516445 47.126514 75 43 42
2.246361 0.618091 47.130814 76 43 42
2.246598 0.719765 47.135788 77 44 43
2.246866 0.821471 47.141399 77 43 42
2.247163 0.923214 47.147625 78 43 43
2.247488 1.024997 47.154438 83 47 47
2.247841 1.126823 47.161854 94 58 57
2.248224 1.228697 47.169880 102 66 66
2.248638 1.330625 47.178574 99 62 63
2.249088 1.432612 47.188011 96 57 60
2.249577 1.534668 47.198280 100 60 65
2.250112 1.636800 47.209503 104 64 69
2.250699 1.739021 47.221809 104 63 68
2.251343 1.841343 47.235340 101 60 64
2.252054 1.943780 47.250248 96 55 57
