ply
format ascii 1.0
element vertex 1195
property float x
property float y
property float z
property uchar red
property uchar green
property uchar blue
end_header
1.279113 15.091532 53.407696 152 53 69
1.279271 15.208533 53.414272 149 51 66
1.279433 15.325617 53.421036 145 47 62
1.279611 15.442931 53.428497 143 44 58
1.279819 15.560635 53.437183 141 43 57
1.280069 15.678884 53.447601 141 43 57
1.280371 15.797831 53.460232 142 44 58
1.280737 15.917619 53.475506 144 46 61
1.281175 16.038376 53.493790 145 48 63
1.281692 16.160208 53.515369 147 50 65
1.282292 16.283195 53.540443 148 52 68
1.362802 1.809942 52.203342 254 221 249
1.363534 1.923508 52.231403 254 219 248
1.364218 2.037122 52.257595 254 217 248
1.364844 2.150759 52.281586 254 204 239
1.365404 2.264389 52.303024 254 191 230
1.365889 2.377981 52.321606 254 194 236
1.366292 2.491503 52.337044 254 201 243
1.366606 2.604923 52.349068 254 201 241
1.366825 2.718206 52.357464 254 194 233
1.366945 2.831319 52.362057 254 178 214
1.366962 2.944231 52.362724 254 162 196
1.366875 3.056913 52.359383 254 159 191
1.366683 3.169336 52.352016 254 162 191
1.366386 3.281477 52.340652 251 161 186
1.365988 3.393316 52.325394 247 163 186
1.365491 3.504838 52.306374 249 182 200
1.364902 3.616030 52.283787 248 195 211
1.364225 3.726889 52.257881 238 189 202
1.363470 3.837413 52.228935 222 176 187
1.362643 3.947606 52.197269 205 160 172
1.361755 4.057478 52.163231 209 170 181
1.360814 4.167043 52.127193 235 214 222
1.359830 4.276320 52.089523 252 243 249
1.358815 4.385330 52.050625 254 246 253
1.357777 4.494098 52.010864 246 225 234
1.356726 4.602651 51.970615 231 184 197
1.355672 4.711018 51.930218 231 173 189
1.354622 4.819227 51.890007 245 194 210
1.353584 4.927308 51.850269 253 205 222
1.352566 5.035289 51.811264 254 203 219
1.351573 5.143196 51.773201 254 210 223
1.350609 5.251054 51.736279 254 229 239
1.349678 5.358884 51.700630 254 242 251
1.348784 5.466709 51.666370 254 242 253
1.347927 5.574543 51.633575 254 231 246
1.347111 5.682402 51.602287 248 189 212
1.346334 5.790298 51.572517 233 130 158
1.345596 5.898237 51.544266 232 105 135
1.344898 6.006230 51.517509 245 116 147
1.344237 6.114281 51.492218 253 124 156
1.343614 6.222394 51.468338 254 122 152
1.343027 6.330574 51.445839 253 115 145
1.342474 6.438825 51.424683 250 108 136
1.341956 6.547153 51.404846 248 105 132
1.341473 6.655565 51.386326 246 107 132
1.341024 6.764071 51.369122 244 109 134
1.340610 6.872687 51.353287 245 113 138
1.340234 6.981427 51.338867 249 122 147
1.339897 7.090312 51.325958 250 127 152
1.339602 7.199371 51.314674 244 124 147
1.339353 7.308630 51.305141 238 120 142
1.339154 7.418124 51.297516 234 118 140
1.339009 7.527889 51.291962 229 114 136
1.338923 7.637965 51.288658 229 113 137
1.338900 7.748391 51.287766 236 118 144
1.338944 7.859210 51.289463 244 129 155
1.339060 7.970462 51.293896 251 141 166
1.339251 8.082189 51.301224 250 137 162
1.339521 8.194426 51.311546 238 118 143
1.339871 8.307208 51.324970 228 103 128
1.340304 8.420568 51.341553 225 100 125
1.340820 8.534529 51.361328 225 102 126
1.341420 8.649114 51.384304 227 107 130
1.342103 8.764339 51.410458 231 112 137
1.342867 8.880218 51.439735 234 116 142
1.343711 8.996753 51.472054 234 119 145
1.344631 9.113945 51.507294 235 120 147
1.345624 9.231789 51.545326 234 121 147
1.346685 9.350274 51.585991 234 121 147
1.347811 9.469383 51.629101 234 122 146
1.348994 9.589093 51.674450 234 122 146
1.350231 9.709378 51.721817 235 123 146
1.351514 9.830204 51.770958 235 123 145
1.352836 9.951532 51.821617 234 123 144
1.354192 10.073325 51.873539 234 123 143
1.355573 10.195536 51.926449 233 123 143
1.356973 10.318117 51.980080 234 124 144
1.358385 10.441022 52.034164 234 124 146
1.359802 10.564201 52.088459 234 124 147
1.361219 10.687606 52.142708 235 125 148
1.362629 10.811193 52.196716 236 126 149
1.364027 10.934921 52.250275 235 126 149
1.365409 11.058753 52.303234 234 125 148
1.366773 11.182655 52.355457 231 124 147
1.368114 11.306602 52.406841 228 124 145
1.369432 11.430573 52.457321 225 123 143
1.370725 11.554554 52.506855 223 123 142
1.371993 11.678535 52.555431 222 124 142
1.373236 11.802512 52.603054 221 124 143
1.374455 11.926481 52.649734 221 125 143
1.375650 12.050442 52.695503 221 125 142
1.376821 12.174395 52.740376 220 125 142
1.377969 12.298332 52.784359 220 124 141
1.379094 12.422252 52.827454 220 123 141
1.380196 12.546142 52.869644 220 121 139
1.381272 12.669985 52.910877 220 118 138
1.382322 12.793756 52.951080 221 115 136
1.383342 12.917426 52.990158 221 112 133
1.384329 13.040956 53.027977 221 107 130
1.385280 13.164305 53.064407 220 102 127
1.386191 13.287418 53.099274 218 96 121
1.387056 13.410247 53.132416 215 90 116
1.387871 13.532736 53.163658 212 85 111
1.388633 13.654824 53.192818 209 81 107
1.389336 13.776461 53.219746 205 77 103
1.389977 13.897598 53.244320 197 70 95
1.390554 14.018192 53.266422 185 60 85
1.391065 14.138212 53.286007 174 52 76
1.391510 14.257639 53.303055 168 49 71
1.391890 14.376469 53.317616 164 49 69
1.392209 14.494718 53.329807 161 50 69
1.392470 14.612415 53.339798 160 51 69
1.392679 14.729615 53.347828 158 52 70
1.392846 14.846392 53.354214 157 53 70
1.392980 14.962841 53.359333 155 54 70
1.393091 15.079077 53.363621 153 53 69
1.393194 15.195232 53.367558 150 51 66
1.393301 15.311455 53.371670 146 47 62
1.393427 15.427899 53.376492 144 44 59
1.393586 15.544733 53.382576 142 43 57
1.393792 15.662116 53.390446 142 43 58
1.394057 15.780211 53.400608 144 44 59
1.394394 15.899167 53.413513 144 46 61
1.394812 16.019112 53.429539 146 47 63
1.395320 16.140158 53.448975 147 49 65
1.395922 16.262392 53.472042 148 51 68
1.396622 16.385872 53.498856 150 54 71
1.472908 1.806964 52.117470 254 228 251
1.473770 1.920436 52.147991 254 227 252
1.474581 2.033967 52.176666 254 227 250
1.475328 2.147531 52.203114 254 214 242
1.476002 2.261096 52.226967 254 202 237
1.476594 2.374631 52.247898 254 204 242
1.477093 2.488101 52.265579 254 205 244
1.477494 2.601473 52.279747 254 203 241
1.477788 2.714711 52.290157 254 198 234
1.477970 2.827780 52.296616 254 178 212
1.478038 2.940648 52.298992 253 158 189
1.477987 3.053282 52.297207 253 157 186
1.477818 3.165657 52.291241 254 165 191
1.477533 3.277745 52.281128 252 166 189
1.477133 3.389528 52.266979 248 165 185
1.476623 3.500989 52.248940 249 179 195
1.476009 3.612118 52.227226 250 196 210
1.475299 3.722910 52.202091 241 194 206
1.474501 3.833365 52.173851 218 171 183
1.473624 3.943488 52.142826 195 148 161
1.472679 4.053290 52.109394 203 164 176
1.471677 4.162786 52.073940 234 214 221
1.470629 4.271995 52.036850 252 246 250
1.469546 4.380940 51.998524 254 245 250
1.468439 4.489647 51.959351 243 213 221
1.467319 4.598143 51.919716 224 170 181
1.466195 4.706458 51.879963 228 173 186
1.465078 4.814621 51.840412 246 208 220
1.463974 4.922661 51.801369 254 217 229
1.462892 5.030606 51.763077 254 202 217
1.461837 5.138482 51.725758 254 203 218
1.460815 5.246315 51.689590 254 224 238
1.459829 5.354124 51.654705 254 234 249
1.458883 5.461931 51.621212 254 231 249
1.457977 5.569749 51.589172 254 216 237
1.457114 5.677595 51.558636 245 168 195
1.456293 5.785478 51.529594 230 114 146
1.455515 5.893405 51.502041 234 104 137
1.454777 6.001385 51.475952 248 119 152
1.454080 6.109419 51.451275 254 125 158
1.453422 6.217515 51.427979 254 122 153
1.452801 6.325672 51.406006 252 114 145
1.452216 6.433896 51.385319 248 106 135
1.451667 6.542192 51.365894 246 104 131
1.451153 6.650565 51.347717 245 107 133
1.450675 6.759026 51.330803 245 110 136
1.450234 6.867587 51.315178 246 116 143
1.449830 6.976264 51.300907 251 125 151
1.449468 7.085080 51.288078 250 127 151
1.449149 7.194056 51.276794 243 121 145
1.448877 7.303223 51.267185 238 119 142
1.448658 7.412614 51.259418 233 116 139
1.448495 7.522264 51.253639 229 113 137
1.448393 7.632213 51.250031 232 115 139
1.448357 7.742499 51.248768 238 119 146
1.448392 7.853166 51.250015 246 129 156
1.448503 7.964253 51.253941 252 139 166
1.448694 8.075802 51.260681 250 135 161
1.448967 8.187848 51.270363 240 117 143
1.449327 8.300429 51.283089 231 105 130
1.449774 8.413576 51.298923 228 102 126
1.450311 8.527315 51.317921 227 102 126
1.450938 8.641671 51.340088 227 105 129
1.451654 8.756662 51.365421 229 109 134
1.452458 8.872299 51.393864 231 113 139
1.453348 8.988592 51.425362 232 115 142
1.454321 9.105543 51.459812 233 118 145
1.455375 9.223149 51.497086 234 120 147
1.456504 9.341403 51.537045 235 122 147
1.457704 9.460289 51.579517 235 122 147
1.458970 9.579789 51.624313 236 122 147
1.460296 9.699880 51.671223 236 122 147
1.461675 9.820530 51.720013 236 123 146
1.463100 9.941706 51.770447 236 123 144
1.464565 10.063369 51.822269 236 124 143
1.466061 10.185477 51.875221 235 124 144
1.467582 10.307984 51.929031 235 124 145
1.469120 10.430846 51.983456 234 124 146
1.470668 10.554015 52.038235 235 125 147
1.472220 10.677444 52.093128 236 126 148
1.473768 10.801087 52.147919 236 126 148
1.475308 10.924905 52.202412 236 126 148
1.476835 11.048859 52.256439 234 126 148
1.478345 11.172915 52.309853 232 126 147
1.479833 11.297044 52.362537 229 125 145
1.481300 11.421225 52.414417 226 124 143
1.482741 11.545436 52.465424 224 124 142
1.484157 11.669669 52.515533 223 124 141
1.485548 11.793912 52.564724 222 124 141
1.486912 11.918159 52.612995 222 125 141
1.488250 12.042402 52.660343 221 125 140
1.489562 12.166637 52.706772 221 125 140
1.490848 12.290855 52.752266 220 125 139
1.492106 12.415044 52.796803 220 124 139
1.493337 12.539187 52.840336 220 123 138
1.494537 12.663261 52.882801 221 121 137
1.495704 12.787238 52.924103 221 119 136
1.496835 12.911080 52.964123 221 115 134
1.497926 13.034746 53.002728 221 110 131
1.498972 13.158187 53.039749 220 104 128
1.499969 13.281348 53.075016 218 98 122
1.500911 13.404171 53.108341 215 92 117
1.501793 13.526596 53.139538 212 86 111
1.502609 13.648563 53.168430 208 81 106
1.503356 13.770017 53.194855 203 76 101
1.504029 13.890906 53.218681 195 70 95
1.504627 14.011189 53.239815 187 62 87
1.505146 14.130832 53.258186 177 56 79
1.505587 14.249816 53.273808 170 51 73
1.505952 14.368142 53.286736 163 49 69
1.506245 14.485824 53.297085 160 49 67
1.506471 14.602901 53.305069 158 51 68
1.506637 14.719429 53.310936 157 52 69
1.506752 14.835487 53.315025 157 54 70
1.506829 14.951179 53.317745 156 55 70
1.506880 15.066624 53.319550 153 54 69
1.506919 15.181961 53.320946 150 51 66
1.506963 15.297344 53.322483 147 47 63
1.507026 15.412940 53.324734 145 45 60
1.507126 15.528914 53.328255 144 43 59
1.507277 15.645440 53.333599 144 43 59
1.507494 15.762684 53.341293 145 44 60
1.507791 15.880795 53.351795 145 46 61
1.508178 15.999912 53.365498 146 47 63
1.508665 16.120150 53.382717 147 49 65
1.509257 16.241594 53.403664 148 51 68
1.509958 16.364309 53.428459 150 53 70
1.581572 1.690680 51.996391 254 240 254
1.582614 1.803953 52.030624 254 237 253
1.583611 1.917321 52.063404 254 234 253
1.584551 2.030758 52.094326 254 233 252
1.585424 2.144235 52.123005 254 225 247
1.586216 2.257723 52.149055 254 216 245
1.586917 2.371186 52.172112 254 217 248
1.587517 2.484591 52.191841 254 214 245
1.588007 2.597901 52.207954 255 209 241
1.588380 2.711079 52.220188 255 206 236
1.588628 2.824089 52.228348 253 185 213
1.588748 2.936897 52.232288 249 158 184
1.588737 3.049472 52.231934 250 154 179
1.588595 3.161783 52.227257 253 165 187
1.588323 3.273807 52.218311 253 168 188
1.587924 3.385522 52.205200 250 167 184
1.587404 3.496912 52.188095 249 178 192
1.586769 3.607969 52.167225 251 202 213
1.586028 3.718686 52.142860 247 207 218
1.585190 3.829065 52.115326 223 180 191
1.584267 3.939113 52.084972 196 149 162
1.583269 4.048840 52.052185 202 162 173
1.582210 4.158263 52.017357 233 214 220
1.581101 4.267402 51.980900 251 247 249
1.579955 4.376281 51.943230 254 242 246
1.578784 4.484927 51.904736 242 201 208
1.577600 4.593369 51.865799 225 164 175
1.576414 4.701634 51.826786 233 185 196
1.575234 4.809754 51.788013 250 225 235
1.574071 4.917758 51.749775 254 229 239
1.572932 5.025674 51.712326 254 205 221
1.571823 5.133527 51.675877 254 200 218
1.570750 5.241342 51.640594 254 215 232
1.569717 5.349140 51.606617 254 214 234
1.568726 5.456939 51.574039 254 203 228
1.567779 5.564755 51.542912 253 188 214
1.566877 5.672599 51.513268 246 148 177
1.566021 5.780483 51.485104 238 114 146
1.565209 5.888412 51.458405 244 117 150
1.564440 5.996393 51.433132 252 128 160
1.563713 6.104427 51.409233 254 129 161
1.563026 6.212518 51.386650 254 123 155
1.562378 6.320668 51.365341 252 113 144
1.561767 6.428879 51.345253 248 107 136
1.561192 6.537156 51.326363 246 106 134
1.560653 6.645503 51.308636 246 108 136
1.560150 6.753930 51.292103 245 111 137
1.559684 6.862447 51.276772 246 119 145
1.559256 6.971071 51.262718 251 128 154
1.558870 7.079821 51.250015 251 129 154
1.558528 7.188722 51.238773 245 123 147
1.558235 7.297801 51.229126 240 121 145
1.557994 7.407090 51.221218 235 118 142
1.557812 7.516626 51.215225 231 115 139
1.557693 7.626446 51.211311 233 115 141
1.557642 7.736591 51.209656 240 120 147
1.557666 7.847101 51.210438 247 129 156
1.557769 7.958018 51.213814 252 138 165
1.557955 8.069382 51.219933 251 134 161
1.558229 8.181231 51.228931 243 118 145
1.558593 8.293603 51.240913 235 107 133
1.559050 8.406528 51.255951 231 102 127
1.559603 8.520036 51.274109 228 102 126
1.560251 8.634151 51.295410 228 105 129
1.560994 8.748894 51.319851 230 110 133
1.561832 8.864278 51.347404 231 113 138
1.562763 8.980316 51.378014 232 115 141
1.563785 9.097012 51.411594 233 118 143
1.564893 9.214365 51.448036 235 121 145
1.566085 9.332370 51.487213 236 123 146
1.567355 9.451018 51.528973 236 123 147
1.568698 9.570292 51.573132 238 124 148
1.570108 9.690169 51.619492 238 124 147
1.571579 9.810625 51.667847 237 123 146
1.573103 9.931626 51.717957 237 124 144
1.574674 10.053139 51.769588 237 124 145
1.576283 10.175123 51.822487 237 124 146
1.577922 10.297536 51.876392 236 125 147
1.579585 10.420332 51.931057 235 126 148
1.581263 10.543468 51.986229 236 126 149
1.582950 10.666896 52.041668 236 126 149
1.584638 10.790575 52.097168 236 127 149
1.586321 10.914461 52.152512 236 128 149
1.587994 11.038516 52.207520 235 127 148
1.589653 11.162705 52.262054 233 127 147
1.591293 11.286998 52.315975 230 126 145
1.592912 11.411367 52.369183 227 125 143
1.594506 11.535796 52.421616 225 124 142
1.596076 11.660266 52.473217 224 124 141
1.597619 11.784762 52.523945 223 125 140
1.599135 11.909274 52.573776 222 125 139
1.600622 12.033791 52.622688 222 125 139
1.602082 12.158302 52.670666 221 126 138
1.603511 12.282794 52.717667 221 126 137
1.604910 12.407249 52.763653 220 125 137
1.606276 12.531646 52.808556 220 124 136
1.607606 12.655954 52.852283 221 123 136
1.608897 12.780142 52.894733 222 122 137
1.610145 12.904167 52.935764 222 119 137
1.611345 13.027982 52.975220 222 114 133
1.612492 13.151530 53.012917 220 107 129
1.613580 13.274756 53.048676 218 101 124
1.614602 13.397596 53.082291 214 95 118
1.615553 13.519985 53.113567 211 88 113
1.616428 13.641861 53.142319 207 82 107
1.617221 13.763165 53.168388 202 76 101
1.617928 13.883844 53.191628 195 70 96
1.618546 14.003854 53.211941 188 65 89
1.619073 14.123161 53.229282 180 59 82
1.619510 14.241751 53.243656 171 53 74
1.619859 14.359619 53.255127 162 48 68
1.620124 14.476786 53.263832 158 48 65
1.620311 14.593292 53.269993 157 50 67
1.620430 14.709199 53.273884 157 53 69
1.620490 14.824592 53.275867 156 55 71
1.620505 14.939573 53.276360 156 56 71
1.620489 15.054275 53.275845 154 54 69
1.620460 15.168839 53.274857 151 51 67
1.620432 15.283426 53.273972 148 48 64
1.620426 15.398207 53.273762 146 46 62
1.620459 15.513358 53.274830 146 45 61
1.620547 15.629051 53.277729 146 45 61
1.620708 15.745461 53.283012 147 46 62
1.620955 15.862741 53.291142 147 47 62
1.621301 15.981033 53.302528 147 48 63
1.621756 16.100452 53.317486 148 49 65
1.622327 16.221090 53.336243 149 51 67
1.623016 16.343012 53.358917 150 53 70
1.623826 16.466248 53.385548 151 56 72
1.690746 1.687772 51.906967 254 247 254
1.691926 1.800922 51.943195 254 243 253
1.693060 1.914175 51.977985 254 239 253
1.694132 2.027506 52.010921 254 240 253
1.695132 2.140886 52.041599 254 235 251
1.696044 2.254283 52.069603 254 229 251
1.696857 2.367662 52.094563 254 231 252
1.697559 2.480986 52.116123 254 229 249
1.698141 2.594219 52.133976 254 224 246
1.698593 2.707323 52.147854 254 219 242
1.698908 2.820260 52.157536 251 197 218
1.699083 2.932996 52.162895 245 163 184
1.699113 3.045496 52.163834 246 153 174
1.699000 3.157732 52.160343 252 164 182
1.698743 3.269679 52.152470 251 165 182
1.698348 3.381315 52.140339 245 161 176
1.697820 3.492626 52.124126 244 175 186
1.697167 3.603601 52.104069 249 209 217
1.696398 3.714236 52.080467 250 221 229
1.695524 3.824533 52.053642 231 190 202
1.694558 3.934500 52.023983 199 149 162
1.693512 4.044149 51.991875 198 154 167
1.692400 4.153496 51.957726 229 206 215
1.691235 4.262564 51.921970 251 244 248
1.690031 4.371377 51.885021 254 238 243
1.688802 4.479962 51.847275 242 193 203
1.687560 4.588350 51.809132 227 158 173
1.686316 4.696569 51.770947 236 185 200
1.685081 4.804650 51.733051 252 225 238
1.683866 4.912621 51.695724 254 222 236
1.682677 5.020513 51.659225 253 192 212
1.681522 5.128350 51.623760 254 182 204
1.680405 5.236156 51.589497 254 187 210
1.679332 5.343950 51.556545 253 177 202
1.678305 5.451751 51.525009 253 165 192
1.677325 5.559574 51.494926 253 154 182
1.676393 5.667430 51.466324 250 134 163
1.675509 5.775327 51.439182 248 124 154
1.674672 5.883270 51.413471 252 133 163
1.673880 5.991264 51.389149 254 139 169
1.673131 6.099311 51.366150 254 133 164
1.672423 6.207412 51.344418 254 124 154
1.671754 6.315567 51.323891 253 115 145
1.671123 6.423779 51.304516 250 111 139
1.670528 6.532048 51.286255 248 110 137
1.669969 6.640380 51.269089 246 111 138
1.669445 6.748783 51.253010 245 113 139
1.668958 6.857266 51.238064 247 122 147
1.668509 6.965844 51.224281 252 132 158
1.668101 7.074536 51.211754 252 131 157
1.667738 7.183365 51.200596 248 126 151
1.667423 7.292360 51.190929 243 124 148
1.667162 7.401550 51.182907 237 120 144
1.666960 7.510972 51.176701 233 116 142
1.666822 7.620664 51.172485 235 116 143
1.666755 7.730665 51.170433 240 120 148
1.666765 7.841016 51.170723 247 128 157
1.666856 7.951758 51.173531 252 137 166
1.667035 8.062934 51.179005 251 134 162
1.667304 8.174581 51.187283 246 119 147
1.667669 8.286736 51.198479 239 108 135
1.668132 8.399431 51.212681 233 103 128
1.668694 8.512699 51.229958 230 102 127
1.669358 8.626565 51.250343 229 105 129
1.670124 8.741051 51.273849 231 111 134
1.670991 8.856173 51.300453 232 114 137
1.671957 8.971944 51.330112 233 116 140
1.673020 9.088372 51.362770 235 119 142
1.674178 9.205461 51.398323 236 122 144
1.675427 9.323207 51.436657 237 124 146
1.676762 9.441601 51.477623 238 124 146
1.678177 9.560632 51.521072 239 125 148
1.679667 9.680280 51.566811 239 125 147
1.681225 9.800523 51.614647 238 124 147
1.682844 9.921332 51.664352 238 124 147
1.684516 10.042675 51.715702 238 125 147
1.686235 10.164514 51.768452 238 125 148
1.687990 10.286810 51.822357 238 126 148
1.689776 10.409520 51.877174 236 126 148
1.691583 10.532600 51.932648 236 127 149
1.693404 10.656008 51.988544 236 128 149
1.695231 10.779697 52.044647 236 128 149
1.697058 10.903627 52.100746 236 129 149
1.698879 11.027761 52.156658 236 129 148
1.700689 11.152061 52.212223 234 128 146
1.702483 11.276495 52.267292 232 127 145
1.704258 11.401036 52.321770 229 126 144
1.706009 11.525660 52.375549 227 125 142
1.707736 11.650346 52.428574 225 125 141
1.709437 11.775079 52.480785 224 125 140
1.711110 11.899841 52.532135 223 126 139
1.712753 12.024618 52.582577 223 127 139
1.714365 12.149395 52.632076 223 128 138
1.715945 12.274153 52.680580 223 128 137
1.717490 12.398868 52.728008 222 127 136
1.718997 12.523514 52.774288 221 126 136
1.720464 12.648058 52.819309 221 124 137
1.721885 12.772460 52.862942 223 124 138
1.723256 12.896674 52.905025 224 123 139
1.724571 13.020647 52.945393 222 117 136
1.725823 13.144320 52.983852 220 110 131
1.727007 13.267631 53.020195 218 105 127
1.728115 13.390509 53.054211 216 98 122
1.729141 13.512892 53.085705 212 91 116
1.730078 13.634710 53.114464 207 84 109
1.730920 13.755903 53.140335 201 77 103
1.731664 13.876414 53.163158 196 72 98
1.732305 13.996199 53.182850 190 68 93
1.732843 14.115224 53.199364 183 63 87
1.733277 14.233470 53.212696 173 56 77
1.733611 14.350941 53.222939 162 49 68
1.733849 14.467654 53.230236 156 46 65
1.733998 14.583653 53.234810 155 49 66
1.734068 14.699005 53.236965 156 53 69
1.734071 14.813795 53.237068 157 56 72
1.734022 14.928135 53.235565 156 57 72
1.733938 15.042157 53.232964 154 55 70
1.733835 15.156011 53.229805 152 53 68
1.733733 15.269862 53.226688 150 50 66
1.733652 15.383885 53.224213 149 48 64
1.733613 15.498261 53.222984 148 47 63
1.733632 15.613168 53.223583 149 47 63
1.733729 15.728781 53.226566 151 49 64
1.733920 15.845259 53.232410 149 50 64
1.734217 15.962746 53.241531 149 50 64
1.734631 16.081356 53.254253 149 51 66
1.735170 16.201191 53.270809 150 53 68
1.735838 16.322308 53.291325 152 55 70
1.736637 16.444744 53.315826 153 57 72
1.737563 16.568504 53.344254 154 59 74
1.799536 1.684866 51.817581 254 250 254
1.800855 1.797884 51.855572 254 247 254
1.802125 1.911013 51.892128 254 244 254
1.803330 2.024228 51.926826 254 246 254
1.804456 2.137499 51.959251 254 244 254
1.805488 2.250792 51.988976 254 240 254
1.806413 2.364073 52.015602 255 242 254
1.807217 2.477304 52.038769 254 243 253
1.807891 2.590446 52.058151 254 240 253
1.808423 2.703462 52.073475 254 234 248
1.808806 2.816312 52.084522 251 210 226
1.809036 2.928961 52.091141 245 173 190
1.809109 3.041375 52.093246 246 157 174
1.809026 3.153524 52.090828 250 160 176
1.808787 3.265383 52.083946 245 157 171
1.808397 3.376930 52.072723 234 150 162
1.807863 3.488152 52.057358 234 166 176
1.807194 3.599038 52.038097 245 209 216
1.806401 3.709585 52.015247 251 226 234
1.805494 3.819795 51.989151 236 193 205
1.804489 3.929677 51.960209 202 145 160
1.803399 4.039244 51.928810 193 139 154
1.802238 4.148513 51.895393 223 189 201
1.801023 4.257508 51.860386 249 235 243
1.799767 4.366255 51.824219 253 230 239
1.798484 4.474781 51.787300 239 182 196
1.797190 4.583116 51.750031 225 147 166
1.795896 4.691290 51.712757 234 170 190
1.794613 4.799335 51.675823 248 200 220
1.793352 4.907279 51.639503 249 190 212
1.792121 5.015152 51.604053 248 164 190
1.790927 5.122978 51.569683 250 154 182
1.789776 5.230780 51.536533 251 152 180
1.788671 5.338579 51.504730 249 142 171
1.787616 5.446392 51.474350 250 136 165
1.786612 5.554231 51.445431 253 135 162
1.785659 5.662107 51.417980 253 132 159
1.784755 5.770027 51.391975 253 136 162
1.783901 5.877996 51.367382 254 147 173
1.783094 5.986016 51.344131 254 147 174
1.782331 6.094088 51.322159 254 137 165
1.781609 6.202209 51.301384 254 126 154
1.780928 6.310382 51.281754 252 117 146
1.780283 6.418605 51.263191 250 113 140
1.779674 6.526877 51.245659 248 113 140
1.779100 6.635205 51.229126 245 114 139
1.778560 6.743591 51.213589 244 115 140
1.778056 6.852048 51.199070 248 124 149
1.777589 6.960587 51.185619 252 134 160
1.777162 7.069226 51.173317 252 134 159
1.776778 7.177989 51.162273 248 127 153
1.776443 7.286902 51.152618 244 124 149
1.776161 7.395996 51.144497 238 120 146
1.775938 7.505305 51.138084 234 118 144
1.775781 7.614868 51.133560 235 118 144
1.775696 7.724723 51.131104 239 119 146
1.775689 7.834913 51.130898 246 128 156
1.775766 7.945479 51.133118 252 138 167
1.775933 8.056463 51.137932 251 132 162
1.776195 8.167903 51.145470 246 117 146
1.776555 8.279837 51.155853 240 108 135
1.777019 8.392299 51.169197 235 104 130
1.777587 8.505322 51.185558 232 103 129
1.778262 8.618933 51.204998 232 107 131
1.779045 8.733155 51.227535 232 111 134
1.779934 8.848007 51.253151 233 114 137
1.780930 8.963505 51.281834 234 117 139
1.782031 9.079658 51.313519 235 120 141
1.783233 9.196471 51.348129 237 123 144
1.784533 9.313946 51.385563 237 125 146
1.785926 9.432075 51.425690 238 126 147
1.787408 9.550851 51.468365 238 126 148
1.788973 9.670256 51.513412 238 126 148
1.790614 9.790272 51.560658 238 126 148
1.792323 9.910872 51.609886 238 126 149
1.794094 10.032027 51.660873 238 126 149
1.795918 10.153704 51.713394 238 126 150
1.797787 10.275863 51.767212 238 126 150
1.799692 10.398465 51.822083 235 125 148
1.801626 10.521469 51.877758 233 125 148
1.803580 10.644831 51.934017 234 126 148
1.805546 10.768509 51.990631 234 128 149
1.807517 10.892462 52.047390 235 129 148
1.809486 11.016648 52.104099 235 129 147
1.811449 11.141036 52.160603 234 128 146
1.813398 11.265589 52.216740 233 127 145
1.815331 11.390275 52.272381 230 127 144
1.817243 11.515072 52.327438 227 126 142
1.819131 11.639955 52.381809 225 124 140
1.820993 11.764904 52.435436 224 125 140
1.822827 11.889897 52.488235 225 127 140
1.824630 12.014919 52.540161 225 129 141
1.826400 12.139945 52.591141 225 129 140
1.828136 12.264956 52.641106 224 129 139
1.829832 12.389921 52.689964 223 128 138
1.831487 12.514812 52.737617 222 128 138
1.833096 12.639588 52.783939 222 126 138
1.834653 12.764207 52.828781 223 125 139
1.836153 12.888614 52.871960 223 122 139
1.837589 13.012756 52.913307 221 117 136
1.838953 13.136568 52.952602 219 112 132
1.840239 13.259981 52.989632 219 107 129
1.841439 13.382928 53.024174 217 101 125
1.842545 13.505334 53.056011 213 94 119
1.843549 13.627131 53.084938 208 86 113
1.844447 13.748256 53.110790 202 79 106
1.845232 13.868648 53.133404 196 73 101
1.845902 13.988261 53.152691 192 70 97
1.846455 14.107062 53.168602 186 66 91
1.846890 14.225031 53.181149 175 58 81
1.847212 14.342173 53.190422 161 49 69
1.847426 14.458505 53.196571 153 44 62
1.847540 14.574074 53.199841 152 46 63
1.847564 14.688948 53.200539 155 52 68
1.847512 14.803216 53.199051 157 56 72
1.847401 14.916994 53.195839 157 58 73
1.847247 15.030419 53.191422 155 56 71
1.847072 15.143641 53.186363 153 53 69
1.846895 15.256833 53.181274 153 51 67
1.846738 15.370173 53.176769 152 50 66
1.846624 15.483842 53.173470 152 49 65
1.846571 15.598024 53.171963 153 50 65
1.846601 15.712897 53.172817 154 52 66
1.846729 15.828621 53.176514 152 52 66
1.846972 15.945341 53.183483 152 53 66
1.847338 16.063177 53.194046 152 54 68
1.847838 16.182222 53.208443 153 56 70
1.848476 16.302544 53.226795 154 58 72
1.849252 16.424177 53.249146 155 59 73
1.850164 16.547125 53.275425 155 60 74
1.906464 1.569236 51.688171 254 249 254
1.907957 1.681974 51.728657 254 251 254
1.909414 1.794853 51.768143 254 251 254
1.910818 1.907850 51.806213 254 250 254
1.912154 2.020938 51.842422 254 250 254
1.913405 2.134088 51.876343 254 248 254
1.914555 2.247267 51.907536 254 246 254
1.915590 2.360437 51.935596 254 247 254
1.916496 2.473562 51.960152 255 248 254
1.917260 2.586600 51.980858 254 247 254
1.917871 2.699514 51.997433 254 243 252
1.918322 2.812264 52.009663 253 223 235
1.918607 2.924814 52.017395 250 190 204
1.918723 3.037130 52.020542 249 167 182
1.918670 3.149181 52.019096 245 158 173
1.918450 3.260942 52.013123 233 146 161
1.918067 3.372393 52.002750 218 135 147
1.917530 3.483517 51.988190 222 155 166
1.916848 3.594308 51.969700 241 205 213
1.916033 3.704761 51.947601 250 222 231
1.915098 3.814879 51.922249 237 187 201
1.914057 3.924673 51.894043 205 138 155
1.912927 4.034156 51.863400 191 121 140
1.911723 4.143346 51.830757 218 165 182
1.910462 4.252268 51.796562 248 217 231
1.909159 4.360949 51.761242 248 210 226
1.907830 4.469415 51.725212 227 158 180
1.906490 4.577699 51.688873 216 127 153
1.905152 4.685832 51.652596 227 143 171
1.903828 4.793844 51.616699 239 159 189
1.902529 4.901764 51.581470 243 156 186
1.901263 5.009622 51.547161 245 151 182
1.900038 5.117442 51.513958 248 147 178
1.898861 5.225248 51.482025 248 138 168
1.897733 5.333057 51.451462 247 130 159
1.896659 5.440888 51.422340 250 131 159
1.895639 5.548752 51.394684 253 135 160
1.894673 5.656657 51.368492 254 138 162
1.893760 5.764610 51.343731 254 147 170
1.892897 5.872614 51.320351 254 157 180
1.892083 5.980670 51.298275 254 153 177
1.891314 6.088776 51.277420 254 139 165
1.890587 6.196929 51.257706 253 127 154
1.889899 6.305129 51.239056 252 118 146
1.889248 6.413372 51.221397 249 115 142
1.888631 6.521657 51.204666 248 115 141
1.888047 6.629986 51.188835 244 115 140
1.887496 6.738365 51.173893 242 115 140
1.886978 6.846801 51.159863 246 123 148
1.886496 6.955307 51.146793 252 134 160
1.886052 7.063898 51.134747 253 137 163
1.885650 7.172598 51.123848 250 132 158
1.885295 7.281433 51.114223 245 126 151
1.884992 7.390431 51.106018 238 120 146
1.884748 7.499629 51.099411 234 118 143
1.884570 7.609064 51.094585 235 118 145
1.884465 7.718774 51.091728 239 120 147
1.884439 7.828803 51.091022 247 130 158
1.884499 7.939191 51.092655 252 139 168
1.884652 8.049981 51.096786 251 132 162
1.884902 8.161213 51.103580 246 116 146
1.885255 8.272924 51.113152 240 108 137
1.885715 8.385152 51.125618 237 105 133
1.886284 8.497927 51.141052 234 104 131
1.886966 8.611279 51.159531 232 107 132
1.887760 8.725234 51.181072 233 111 134
1.888668 8.839813 51.205688 234 115 137
1.889689 8.955032 51.233360 235 118 138
1.890821 9.070904 51.264046 236 121 140
1.892061 9.187436 51.297684 237 124 142
1.893407 9.304631 51.334175 237 125 144
1.894855 9.422488 51.373417 237 126 146
1.896399 9.540998 51.415276 237 127 148
1.898033 9.660151 51.459583 237 127 149
1.899751 9.779926 51.506168 238 127 150
1.901547 9.900304 51.554848 238 127 152
1.903411 10.021255 51.605400 238 126 152
1.905337 10.142751 51.657612 237 125 151
1.907316 10.264755 51.711254 236 125 150
1.909338 10.387231 51.766094 233 124 149
1.911396 10.510137 51.821884 231 124 148
1.913481 10.633431 51.878403 232 126 148
1.915584 10.757074 51.935425 233 128 148
1.917698 10.881023 51.992737 233 128 148
1.919815 11.005242 52.050152 234 129 147
1.921930 11.129692 52.107491 234 129 146
1.924036 11.254336 52.164585 232 128 145
1.926128 11.379145 52.221302 229 128 144
1.928202 11.504090 52.277534 226 126 142
1.930254 11.629146 52.333168 224 124 140
1.932281 11.754287 52.388119 223 125 140
1.934279 11.879492 52.442299 225 128 142
1.936247 12.004736 52.495636 226 130 142
1.938179 12.129996 52.548042 225 130 141
1.940075 12.255244 52.599426 223 129 140
1.941929 12.380449 52.649685 223 129 140
1.943736 12.505574 52.698692 223 128 140
1.945493 12.630579 52.746319 222 127 140
1.947192 12.755411 52.792377 221 124 140
1.948827 12.880019 52.836704 219 121 137
1.950390 13.004339 52.879082 216 114 134
1.951873 13.128304 52.919289 217 110 132
1.953267 13.251842 52.957104 218 107 130
1.954566 13.374883 52.992298 217 102 128
1.955758 13.497346 53.024628 214 94 122
1.956838 13.619164 53.053905 209 87 116
1.957797 13.740266 53.079922 203 80 109
1.958632 13.860593 53.102543 198 74 104
1.959337 13.980096 53.121666 193 71 100
1.959911 14.098741 53.137238 187 67 94
1.960355 14.216506 53.149277 176 59 83
1.960672 14.333396 53.157871 161 49 70
1.960869 14.449431 53.163189 151 41 61
1.960953 14.564657 53.165466 149 42 61
1.960937 14.679143 53.165028 153 50 67
1.960835 14.792985 53.162281 157 55 72
1.960666 14.906296 53.157684 159 58 73
1.960448 15.019217 53.151779 157 56 72
1.960203 15.131904 53.145142 155 53 69
1.959954 15.244529 53.138382 154 51 68
1.959723 15.357272 53.132137 155 51 67
1.959535 15.470322 53.127037 155 52 67
1.959411 15.583859 53.123676 156 53 67
1.959373 15.698067 53.122627 156 54 68
1.959437 15.813103 53.124378 156 54 68
1.959621 15.929113 53.129356 155 56 68
1.959936 16.046221 53.137894 155 57 70
1.960390 16.164516 53.150223 156 59 72
1.960990 16.284069 53.166477 156 60 73
1.961735 16.404913 53.186687 156 60 74
1.962625 16.527056 53.210804 156 61 75
1.963653 16.650480 53.238689 157 61 75
2.014399 1.566523 51.598831 254 250 253
2.016027 1.679110 51.640553 254 253 254
2.017618 1.791842 51.681290 254 252 254
2.019153 1.904697 51.720619 254 251 254
2.020616 2.017650 51.758087 254 250 254
2.021989 2.130670 51.793251 254 245 252
2.023254 2.243722 51.825672 254 241 251
2.024396 2.356770 51.854923 254 244 252
2.025400 2.469776 51.880638 254 245 253
2.026252 2.582699 51.902458 254 244 253
2.026941 2.695500 51.920109 254 244 253
2.027458 2.808138 51.933357 254 233 244
2.027798 2.920578 51.942059 254 210 223
2.027956 3.032785 51.946117 249 183 199
2.027934 3.144729 51.945545 237 160 176
2.027734 3.256383 51.940407 219 138 155
2.027360 3.367729 51.930836 203 124 140
2.026822 3.478750 51.917046 212 147 161
2.026129 3.589439 51.899315 238 203 212
2.025296 3.699795 51.877972 249 222 233
2.024336 3.809819 51.853371 240 189 205
2.023265 3.919522 51.825935 214 140 159
2.022099 4.028920 51.796085 198 114 137
2.020857 4.138031 51.764267 219 149 171
2.019556 4.246881 51.730927 245 198 218
2.018212 4.355495 51.696510 240 183 208
2.016843 4.463905 51.661438 215 129 161
2.015463 4.572140 51.626106 210 112 147
2.014088 4.680233 51.590881 227 132 168
2.012730 4.788215 51.556095 238 149 184
2.011400 4.896115 51.522030 244 158 192
2.010108 5.003963 51.488930 249 163 197
2.008861 5.111782 51.456982 247 153 186
2.007664 5.219595 51.426334 245 136 167
2.006523 5.327422 51.397091 248 133 162
2.005438 5.435277 51.369305 253 141 167
2.004411 5.543171 51.342999 254 148 172
2.003441 5.651114 51.318153 254 154 176
2.002526 5.759108 51.294720 254 161 183
2.001664 5.867154 51.272633 254 166 188
2.000851 5.975253 51.251812 255 159 182
2.000084 6.083401 51.232159 254 143 167
1.999359 6.191595 51.213581 252 128 154
1.998672 6.299828 51.195984 251 120 146
1.998020 6.408099 51.179283 250 119 145
1.997400 6.516403 51.163422 249 119 144
1.996812 6.624743 51.148350 243 117 140
1.996254 6.733119 51.134056 240 114 139
1.995727 6.841540 51.120556 243 120 146
1.995232 6.950016 51.107891 250 132 158
1.994774 7.058564 51.096138 254 142 168
1.994354 7.167204 51.085400 252 141 166
1.993980 7.275962 51.075821 245 130 155
1.993657 7.384868 51.067547 237 121 145
1.993392 7.493956 51.060753 234 118 142
1.993192 7.603263 51.055637 237 121 146
1.993065 7.712831 51.052383 244 126 151
1.993019 7.822698 51.051186 250 134 161
1.993060 7.932910 51.052235 254 140 168
1.993195 8.043508 51.055695 252 132 162
1.993431 8.154531 51.061737 247 118 149
1.993773 8.266021 51.070496 242 110 140
1.994225 8.378012 51.082081 238 106 135
1.994792 8.490540 51.096600 234 104 132
1.995475 8.603634 51.114109 232 106 132
1.996277 8.717321 51.134655 235 111 135
1.997199 8.831626 51.158260 236 117 139
1.998240 8.946565 51.184917 237 120 140
1.999398 9.062154 51.214596 237 123 141
2.000672 9.178401 51.247234 236 124 143
2.002060 9.295313 51.282768 236 125 145
2.003556 9.412890 51.321091 236 126 147
2.005156 9.531129 51.362087 236 127 148
2.006855 9.650018 51.405609 236 128 150
2.008646 9.769544 51.451492 236 128 151
2.010523 9.889687 51.499561 237 128 153
2.012477 10.010422 51.549614 237 127 153
2.014501 10.131723 51.601448 236 126 152
2.016585 10.253556 51.654839 235 125 151
2.018721 10.375886 51.709553 233 125 150
2.020900 10.498672 51.765362 232 125 150
2.023113 10.621880 51.822044 232 127 150
2.025351 10.745465 51.879375 233 129 149
2.027606 10.869389 51.937138 233 129 149
2.029871 10.993612 51.995148 233 129 148
2.032137 11.118098 52.053207 233 129 147
2.034400 11.242809 52.111160 231 129 146
2.036652 11.367714 52.168846 228 128 145
2.038889 11.492782 52.226147 225 126 144
2.041106 11.617985 52.282944 224 125 143
2.043299 11.743295 52.339127 223 125 142
2.045465 11.868687 52.394600 224 127 143
2.047599 11.994133 52.449265 224 129 144
2.049698 12.119606 52.503029 223 130 144
2.051758 12.245075 52.555779 223 129 143
2.053772 12.370505 52.607395 224 129 143
2.055738 12.495855 52.657738 224 129 143
2.057647 12.621079 52.706646 222 127 142
2.059494 12.746126 52.753948 220 124 141
2.061270 12.870936 52.799442 218 119 138
2.062967 12.995443 52.842911 216 114 134
2.064576 13.119578 52.884117 216 110 132
2.066087 13.243264 52.922825 218 107 132
2.067491 13.366426 52.958794 218 102 129
2.068779 13.488985 52.991783 215 95 123
2.069942 13.610866 53.021576 210 88 118
2.070973 13.731997 53.047981 205 81 113
2.071865 13.852318 53.070843 200 76 107
2.072615 13.971777 53.090054 195 72 102
2.073221 14.090338 53.105572 187 67 95
2.073683 14.207981 53.117405 176 58 84
2.074005 14.324706 53.125645 162 48 72
2.074193 14.440536 53.130459 151 41 63
2.074257 14.555517 53.132103 149 42 61
2.074210 14.669719 53.130894 153 49 66
2.074068 14.783237 53.127251 157 54 72
2.073848 14.896189 53.121639 159 56 73
2.073574 15.008714 53.114609 159 56 72
2.073267 15.120973 53.106747 157 53 70
2.072952 15.233136 53.098671 156 52 69
2.072653 15.345389 53.091026 157 52 69
2.072397 15.457919 53.084446 158 54 69
2.072204 15.570909 53.079529 159 55 69
2.072099 15.684536 53.076839 159 56 70
2.072102 15.798967 53.076893 159 57 70
2.072227 15.914344 53.080097 158 58 70
2.072488 16.030787 53.086788 158 59 72
2.072894 16.148392 53.097198 158 61 73
2.073451 16.267220 53.111462 158 62 74
2.074160 16.387308 53.129612 157 62 75
2.075018 16.508663 53.151592 158 62 76
2.076020 16.631273 53.177277 158 62 76
2.077160 16.755095 53.206459 158 62 76
2.122006 1.563854 51.510895 254 250 252
2.123765 1.676282 51.553600 254 253 254
2.125484 1.788862 51.595341 254 251 254
2.127146 1.901569 51.635677 254 249 254
2.128731 2.014378 51.674152 253 244 250
2.130221 2.127258 51.710316 250 228 240
2.131597 2.240174 51.743721 249 219 236
2.132842 2.353090 51.773952 251 225 240
2.133940 2.465966 51.800602 251 227 241
2.134877 2.578763 51.823345 251 230 245
2.135641 2.691439 51.841888 254 240 251
2.136222 2.803955 51.855999 255 240 251
2.136615 2.916275 51.865524 254 225 239
2.136815 3.028364 51.870392 247 195 213
2.136824 3.140192 51.870602 229 160 180
2.136643 3.251733 51.866222 210 134 155
2.136280 3.362967 51.857407 198 121 142
2.135743 3.473881 51.844368 210 147 165
2.135044 3.584465 51.827389 238 204 216
2.134196 3.694719 51.806801 251 232 242
2.133214 3.804647 51.782978 248 208 224
2.132117 3.914259 51.756344 230 157 179
2.130922 4.023571 51.727329 214 124 150
2.129647 4.132605 51.696384 227 151 177
2.128311 4.241383 51.663960 245 186 210
2.126933 4.349934 51.630505 234 159 190
2.125530 4.458289 51.596439 213 116 155
2.124118 4.566479 51.562176 217 121 163
2.122713 4.674535 51.528072 237 159 196
2.121329 4.782491 51.494457 248 183 217
2.119976 4.890375 51.461617 251 184 219
2.118665 4.998215 51.429787 249 169 206
2.117403 5.106038 51.399158 241 145 180
2.116196 5.213864 51.369869 240 131 162
2.115048 5.321712 51.342007 248 138 166
2.113961 5.429597 51.315624 254 152 178
2.112936 5.537528 51.290730 254 167 191
2.111970 5.645512 51.267284 254 182 204
2.111062 5.753552 51.245243 254 181 203
2.110209 5.861649 51.224518 254 171 194
2.109405 5.969798 51.205021 254 160 184
2.108647 6.077994 51.186626 254 146 171
2.107931 6.186233 51.169231 252 129 155
2.107252 6.294508 51.152744 251 122 147
2.106606 6.402812 51.137058 252 124 148
2.105989 6.511141 51.122101 250 124 149
2.105401 6.619494 51.107826 244 119 142
2.104840 6.727872 51.094212 238 114 138
2.104307 6.836282 51.081268 238 116 141
2.103803 6.944733 51.069038 245 128 153
2.103332 7.053239 51.057587 251 146 171
2.102897 7.161821 51.047039 252 149 173
2.102505 7.270505 51.037514 245 135 158
2.102161 7.379320 51.029182 237 122 145
2.101875 7.488300 51.022221 235 120 142
2.101652 7.597483 51.016819 239 123 146
2.101502 7.706908 51.013184 246 129 154
2.101433 7.816617 51.011497 252 137 163
2.101452 7.926654 51.011967 254 140 168
2.101568 8.037061 51.014774 253 132 162
2.101787 8.147879 51.020084 249 120 150
2.102114 8.259150 51.028042 244 112 142
2.102556 8.370909 51.038773 238 106 135
2.103117 8.483191 51.052380 232 102 130
2.103799 8.596030 51.068935 232 106 131
2.104605 8.709454 51.088501 236 113 137
2.105536 8.823485 51.111107 238 119 141
2.106593 8.938146 51.136749 238 122 142
2.107774 9.053451 51.165413 237 124 143
2.109077 9.169414 51.197056 237 125 144
2.110501 9.286041 51.231613 236 126 146
2.112041 9.403337 51.269001 236 127 147
2.113693 9.521298 51.309113 237 129 149
2.115452 9.639919 51.351810 237 130 150
2.117312 9.759188 51.396950 237 130 152
2.119265 9.879086 51.444359 237 130 153
2.121304 9.999595 51.493858 238 129 154
2.123421 10.120687 51.545242 237 128 154
2.125607 10.242334 51.598301 236 127 153
2.127852 10.364501 51.652813 235 127 152
2.130149 10.487153 51.708561 234 127 152
2.132487 10.610251 51.765312 234 128 151
2.134857 10.733757 51.822849 234 129 151
2.137251 10.857632 51.880962 234 129 150
2.139660 10.981836 51.939453 234 129 150
2.142078 11.106334 51.998135 233 130 149
2.144495 11.231086 52.056820 231 130 148
2.146907 11.356059 52.115356 228 128 147
2.149307 11.481223 52.173622 226 127 146
2.151690 11.606545 52.231464 225 126 145
2.154051 11.731998 52.288780 223 126 145
2.156385 11.857553 52.345448 223 127 146
2.158689 11.983177 52.401356 223 127 146
2.160956 12.108843 52.456402 223 128 147
2.163183 12.234515 52.510452 224 129 147
2.165363 12.360153 52.563374 224 130 147
2.167490 12.485717 52.615013 224 129 147
2.169558 12.611156 52.665207 222 126 145
2.171558 12.736414 52.713753 220 123 143
2.173481 12.861429 52.760445 219 119 141
2.175319 12.986134 52.805054 217 115 138
2.177061 13.110453 52.847336 217 111 136
2.178696 13.234309 52.887039 219 107 134
2.180216 13.357625 52.923923 219 102 130
2.181608 13.480316 52.957729 216 96 126
2.182865 13.602306 52.988235 212 89 120
2.183978 13.723523 53.015244 206 82 114
2.184940 13.843902 53.038597 200 76 109
2.185746 13.963387 53.058174 195 72 104
2.186396 14.081944 53.073933 188 68 97
2.186888 14.199551 53.085888 176 59 86
2.187227 14.316205 53.094116 163 49 74
2.187420 14.431931 53.098801 154 44 66
2.187477 14.546772 53.100178 151 43 63
2.187411 14.660799 53.098591 154 48 67
2.187240 14.774107 53.094440 158 53 72
2.186984 14.886818 53.088223 159 55 73
2.186665 14.999066 53.080467 159 54 73
2.186306 15.111014 53.071774 159 54 72
2.185936 15.222836 53.062771 159 53 71
2.185579 15.334716 53.054100 159 54 72
2.185261 15.446837 53.046391 160 56 72
2.185008 15.559387 53.040253 162 57 73
2.184843 15.672542 53.036251 162 59 73
2.184787 15.786464 53.034885 162 60 73
2.184856 15.901295 53.036575 161 61 74
2.185066 16.017155 53.041645 161 62 75
2.185423 16.134136 53.050327 161 63 76
2.185935 16.252302 53.062759 160 64 76
2.186603 16.371685 53.078960 160 64 77
2.187424 16.492296 53.098892 160 64 78
2.188393 16.614117 53.122417 160 64 78
2.189502 16.737112 53.149349 160 63 77
2.229305 1.561234 51.424603 254 246 252
2.231189 1.673501 51.468071 254 250 254
2.233032 1.785923 51.510578 254 248 254
2.234814 1.898476 51.551678 254 247 254
2.236515 2.011134 51.590923 251 233 244
2.238116 2.123866 51.627853 242 203 223
2.239598 2.236637 51.662025 239 186 210
2.240940 2.349411 51.693001 242 187 212
2.242128 2.462148 51.720406 239 185 209
2.243146 2.574808 51.743874 240 193 216
2.243981 2.687350 51.763138 248 220 237
2.244623 2.799736 51.777962 254 238 251
2.245067 2.911927 51.788200 254 230 245
2.245309 3.023890 51.793770 246 196 217
2.245348 3.135595 51.794682 227 156 180
2.245189 3.247017 51.791008 206 129 155
2.244838 3.358136 51.782909 196 120 145
2.244304 3.468938 51.770599 214 153 174
2.243601 3.579415 51.754375 242 211 224
2.242742 3.689567 51.734558 253 240 249
2.241744 3.799399 51.711548 252 222 237
2.240626 3.908921 51.685757 239 169 192
2.239407 4.018149 51.657619 227 134 163
2.238105 4.127106 51.627594 237 154 185
2.236742 4.235816 51.596146 244 170 201
2.235335 4.344306 51.563705 233 141 178
2.233905 4.452610 51.530712 224 125 168
2.232468 4.560757 51.497570 234 153 196
2.231041 4.668781 51.464642 248 192 229
2.229637 4.776714 51.432259 252 204 236
2.228268 4.884585 51.400692 248 183 219
2.226946 4.992423 51.370190 239 149 187
2.225678 5.100253 51.340927 231 128 162
2.224469 5.208097 51.313042 236 131 161
2.223323 5.315970 51.286613 249 148 175
2.222242 5.423889 51.261681 254 163 188
2.221226 5.531861 51.238239 254 186 209
2.220273 5.639893 51.216255 254 204 225
2.219380 5.747984 51.195648 254 190 213
2.218542 5.856134 51.176334 254 166 190
2.217756 5.964338 51.158192 254 156 181
2.217015 6.072587 51.141090 254 145 171
2.216314 6.180877 51.124928 253 130 155
2.215648 6.289196 51.109577 251 124 149
2.215014 6.397537 51.094933 253 128 151
2.214405 6.505894 51.080906 252 129 151
2.213822 6.614264 51.067451 246 124 145
2.213262 6.722647 51.054527 240 117 139
2.212726 6.831048 51.042156 237 116 138
2.212214 6.939474 51.030365 242 126 149
2.211732 7.047941 51.019238 250 145 169
2.211283 7.156467 51.008877 252 150 173
2.210873 7.265079 50.999424 246 136 159
2.210510 7.373805 50.991043 238 123 145
2.210201 7.482678 50.983917 234 119 141
2.209955 7.591738 50.978245 238 122 143
2.209781 7.701024 50.974232 246 129 152
2.209688 7.810578 50.972084 252 139 163
2.209684 7.920444 50.972004 254 141 168
2.209779 8.030664 50.974178 253 132 161
2.209978 8.141283 50.978779 249 121 150
2.210289 8.252338 50.985962 245 113 142
2.210719 8.363871 50.995861 238 106 134
2.211270 8.475914 51.008583 232 102 129
2.211948 8.588503 51.024216 233 107 133
2.212755 8.701667 51.042828 238 115 140
2.213692 8.815431 51.064449 239 119 143
2.214760 8.929815 51.089092 238 121 143
2.215960 9.044842 51.116756 237 123 145
2.217288 9.160522 51.147411 237 125 146
2.218745 9.276867 51.180996 237 127 147
2.220325 9.393880 51.217442 237 128 148
2.222024 9.511563 51.256653 237 130 149
2.223839 9.629912 51.298508 237 130 150
2.225762 9.748919 51.342869 237 130 151
2.227787 9.868567 51.389580 238 130 153
2.229906 9.988840 51.438473 238 131 155
2.232112 10.109714 51.489349 238 130 156
2.234395 10.231160 51.542011 237 129 155
2.236746 10.353149 51.596245 236 128 154
2.239156 10.475649 51.651836 234 128 153
2.241615 10.598619 51.708561 234 128 152
2.244114 10.722026 51.766209 234 129 152
2.246644 10.845828 51.824562 234 129 151
2.249195 10.969991 51.883427 234 129 151
2.251761 11.094475 51.942608 234 130 151
2.254332 11.219240 52.001911 232 130 150
2.256902 11.344257 52.061199 229 129 150
2.259464 11.469488 52.120293 226 128 149
2.262012 11.594904 52.179077 225 127 148
2.264541 11.720474 52.237415 223 126 148
2.267045 11.846165 52.295177 222 126 148
2.269519 11.971944 52.352234 222 127 149
2.271957 12.097780 52.408478 222 127 149
2.274354 12.223636 52.463757 223 128 149
2.276702 12.349467 52.517925 223 128 149
2.278995 12.475231 52.570824 222 127 148
2.281225 12.600877 52.622276 221 125 146
2.283384 12.726342 52.672066 220 122 145
2.285461 12.851567 52.719986 219 119 142
2.287447 12.976478 52.765789 218 116 140
2.289330 13.100999 52.809227 218 111 138
2.291099 13.225051 52.850040 219 106 134
2.292743 13.348551 52.887970 219 102 131
2.294251 13.471416 52.922760 217 96 127
2.295614 13.593564 52.954178 212 89 122
2.296821 13.714924 52.982025 206 82 115
2.297865 13.835425 53.006123 200 76 109
2.298743 13.955013 53.026360 195 72 105
2.299450 14.073650 53.042675 188 68 98
2.299988 14.191310 53.055080 178 60 88
2.300360 14.307995 53.063667 166 52 77
2.300573 14.423719 53.068588 157 47 69
2.300639 14.538533 53.070107 152 44 65
2.300572 14.652505 53.068550 153 47 66
2.300388 14.765726 53.064323 156 51 69
2.300110 14.878317 53.057911 158 53 72
2.299762 14.990417 53.049862 160 53 73
2.299367 15.102184 53.040760 160 54 73
2.298954 15.213792 53.031242 161 55 74
2.298551 15.325422 53.021946 162 56 75
2.298185 15.437260 53.013500 163 58 75
2.297882 15.549490 53.006516 164 60 76
2.297667 15.662287 53.001549 164 61 76
2.297560 15.775807 52.999088 164 62 76
2.297581 15.890196 52.999557 164 64 77
2.297742 16.005568 53.003273 164 65 78
2.298054 16.122013 53.010468 163 66 79
2.298521 16.239590 53.021255 163 66 79
2.299147 16.358334 53.035679 162 66 80
2.299927 16.478252 53.053680 162 66 80
2.300857 16.599329 53.075138 162 65 80
2.301929 16.721531 53.099873 161 65 79
2.303134 16.844807 53.127659 161 64 79
2.334288 1.446741 51.295586 254 224 239
2.336315 1.558669 51.340130 254 232 245
2.338318 1.670772 51.384136 254 234 246
2.340276 1.783031 51.427185 254 237 248
2.342172 1.895425 51.468834 254 239 249
2.343983 2.007926 51.508629 251 224 239
2.345689 2.120503 51.546112 243 196 219
2.347269 2.233122 51.580837 239 180 207
2.348704 2.345747 51.612373 237 168 198
