ply
format ascii 1.0
element vertex 1168
property float x
property float y
property float z
property uchar red
property uchar green
property uchar blue
end_header
10.546463 20.366613 54.903278 183 166 178
10.546535 20.485107 54.903656 178 159 174
10.546441 20.603275 54.903160 191 175 188
10.546122 20.721001 54.901501 188 169 185
9.123602 -2.219012 46.968994 253 144 169
9.121358 -2.117242 46.957439 254 147 170
9.120089 -2.015737 46.950905 254 147 169
9.119877 -1.914482 46.949810 253 143 164
9.120786 -1.813455 46.954494 249 136 157
9.122855 -1.712626 46.965145 246 137 156
9.126100 -1.611958 46.981850 251 155 174
9.130507 -1.511410 47.004539 254 175 193
9.136040 -1.410939 47.033024 253 180 199
9.142634 -1.310497 47.066971 248 167 188
9.150203 -1.210037 47.105934 234 131 155
9.158638 -1.109514 47.149361 224 102 129
9.167820 -1.008887 47.196629 235 106 137
9.177611 -0.908116 47.247036 249 123 156
9.187874 -0.807168 47.299870 254 132 167
9.198468 -0.706019 47.354408 251 132 167
9.209260 -0.604647 47.409962 241 122 156
9.220126 -0.503040 47.465904 226 111 146
9.230958 -0.401191 47.521667 213 106 142
9.241666 -0.299096 47.576790 201 104 141
9.252180 -0.196761 47.630920 195 104 143
9.262455 -0.094189 47.683819 195 108 148
9.272463 0.008611 47.735340 206 127 164
9.282200 0.111629 47.785465 226 160 189
9.291677 0.214858 47.834251 228 165 189
9.300920 0.318288 47.881836 200 126 150
9.309966 0.421915 47.928406 178 97 119
9.318860 0.525735 47.974194 175 99 115
9.327648 0.629744 48.019436 173 100 111
9.336373 0.733944 48.064350 173 104 110
9.345073 0.838335 48.109135 189 125 128
9.353774 0.942919 48.153934 216 170 169
9.362498 1.047699 48.198845 227 198 196
9.371252 1.152676 48.243912 196 155 160
9.380030 1.257851 48.289097 167 101 117
9.388816 1.363222 48.334332 180 103 128
9.397588 1.468785 48.379490 197 117 148
9.406315 1.574536 48.424416 199 119 152
9.414962 1.680466 48.468933 212 144 172
9.423496 1.786567 48.512871 223 168 186
9.431887 1.892828 48.556065 195 133 144
9.440110 1.999240 48.598396 164 83 92
9.448150 2.105793 48.639786 181 104 111
9.456002 2.212482 48.680210 218 157 162
9.463675 2.319300 48.719711 218 149 153
9.471189 2.426249 48.758392 181 84 91
9.478576 2.533329 48.796421 155 41 53
9.485879 2.640551 48.834019 161 40 58
9.493151 2.747926 48.871456 172 47 69
9.500447 2.855469 48.909016 176 51 77
9.507827 2.963201 48.947010 180 59 85
9.515353 3.071143 48.985756 182 67 94
9.523079 3.179319 49.025528 181 73 101
9.531056 3.287753 49.066597 181 81 109
9.539328 3.396469 49.109177 189 94 123
9.547924 3.505488 49.153431 202 113 139
9.556868 3.614829 49.199474 209 125 148
9.566165 3.724506 49.247337 209 130 150
9.575815 3.834532 49.297016 220 150 166
9.585801 3.944909 49.348427 238 179 192
9.596100 4.055640 49.401443 245 182 196
9.606674 4.166719 49.455883 242 167 181
9.617480 4.278137 49.511513 243 160 177
9.628467 4.389876 49.568073 249 163 184
9.639578 4.501917 49.625271 252 165 191
9.650750 4.614234 49.682789 250 157 187
9.661921 4.726798 49.740295 236 130 162
9.673021 4.839575 49.797443 211 96 126
9.683984 4.952528 49.853878 195 77 105
9.694742 5.065618 49.909264 196 82 107
9.705227 5.178800 49.963238 204 93 117
9.715373 5.292031 50.015472 206 102 123
9.725120 5.405264 50.065651 206 107 129
9.734408 5.518455 50.113468 207 113 136
9.743185 5.631555 50.158649 209 119 142
9.751404 5.744522 50.200962 211 124 148
9.759026 5.857313 50.240200 215 130 154
9.766020 5.969890 50.276207 221 136 161
9.772366 6.082218 50.308872 227 143 166
9.778053 6.194270 50.338154 229 144 165
9.783081 6.306023 50.364040 227 141 159
9.787464 6.417465 50.386604 228 142 157
9.791228 6.528591 50.405979 237 157 170
9.794408 6.639405 50.422348 249 188 201
9.797054 6.749921 50.435974 253 202 215
9.799229 6.860167 50.447166 244 174 191
9.801002 6.970174 50.456295 232 148 170
9.802453 7.079990 50.463768 232 150 175
9.803675 7.189669 50.470058 237 158 186
9.804760 7.299273 50.475647 235 158 187
9.805809 7.408874 50.481045 229 153 184
9.806925 7.518549 50.486790 230 153 185
9.808208 7.628380 50.493397 238 164 197
9.809760 7.738451 50.501385 249 177 210
9.811677 7.848848 50.511250 253 184 218
9.814047 7.959656 50.523453 254 185 218
9.816950 8.070954 50.538399 254 184 216
9.820459 8.182822 50.556469 254 180 211
9.824635 8.295330 50.577957 254 178 207
9.829521 8.408540 50.603119 254 183 211
9.835157 8.522507 50.632130 254 190 215
9.841562 8.637274 50.665108 254 191 214
9.848751 8.752879 50.702110 252 187 207
9.856715 8.869342 50.743111 247 184 202
9.865444 8.986679 50.788052 238 183 200
9.874911 9.104890 50.836788 226 183 197
9.885083 9.223968 50.889153 216 185 198
9.895913 9.343894 50.944908 213 193 206
9.907348 9.464638 51.003773 211 198 213
9.919325 9.586160 51.065434 191 183 199
9.931777 9.708411 51.129536 164 156 174
9.944624 9.831330 51.195675 173 165 180
9.957783 9.954845 51.263416 216 207 217
9.971162 10.078876 51.332291 222 203 215
9.984661 10.203326 51.401791 198 161 182
9.998178 10.328093 51.471371 207 157 182
10.011601 10.453064 51.540482 224 166 191
10.024820 10.578115 51.608528 224 162 185
10.037713 10.703115 51.674904 226 161 183
10.050165 10.827924 51.739010 232 165 187
10.062060 10.952403 51.800243 239 172 193
10.073283 11.076407 51.858021 242 176 196
10.083732 11.199800 51.911808 240 176 194
10.093304 11.322443 51.961090 236 174 190
10.101917 11.444212 52.005432 233 174 188
10.109502 11.564994 52.044476 229 174 187
10.116002 11.684693 52.077942 228 177 189
10.121388 11.803237 52.105671 228 181 192
10.125652 11.920579 52.127621 224 182 194
10.128805 12.036695 52.143848 212 175 188
10.130885 12.151595 52.154560 192 159 174
10.131959 12.265322 52.160088 181 152 169
10.132112 12.377949 52.160877 199 175 192
10.131460 12.489586 52.157520 219 198 216
10.130135 12.600372 52.150700 225 206 224
10.128293 12.710480 52.141216 224 206 224
10.126106 12.820110 52.129959 225 206 225
10.123759 12.929487 52.117878 227 207 227
10.121446 13.038855 52.105961 228 207 227
10.119368 13.148478 52.095264 228 205 225
10.117723 13.258623 52.086803 228 204 223
10.116713 13.369570 52.081600 231 204 223
10.116526 13.481590 52.080635 232 203 223
10.117338 13.594950 52.084816 236 203 224
10.119313 13.709904 52.094986 239 202 225
10.122594 13.826684 52.111874 239 199 223
10.127297 13.945498 52.136093 237 196 220
10.133521 14.066524 52.168133 233 191 215
10.141329 14.189904 52.208324 226 182 207
10.150757 14.315745 52.256859 218 174 200
10.161815 14.444111 52.313786 214 170 196
10.174478 14.575022 52.378979 212 167 193
10.188694 14.708457 52.452168 209 165 191
10.204382 14.844347 52.532928 209 164 191
10.221437 14.982588 52.620724 206 160 187
10.239722 15.123027 52.714863 201 153 180
10.259089 15.265481 52.814568 197 148 175
10.279370 15.409734 52.918972 196 146 172
10.300381 15.555540 53.027138 197 145 171
10.321936 15.702640 53.138103 198 145 170
10.343839 15.850751 53.250858 199 144 167
10.365896 15.999587 53.364414 197 141 163
10.387923 16.148865 53.477810 195 138 159
10.409740 16.298306 53.590130 192 135 154
10.431179 16.447632 53.700497 189 132 151
10.452086 16.596590 53.808128 187 130 148
10.472324 16.744942 53.912315 185 128 147
10.491773 16.892471 54.012436 184 127 145
10.510327 17.038984 54.107960 182 126 145
10.527906 17.184317 54.198456 180 124 145
10.544438 17.328318 54.283562 178 121 144
10.559871 17.470867 54.363010 178 120 143
10.574172 17.611874 54.436634 176 118 141
10.587318 17.751265 54.504314 175 117 140
10.599300 17.888981 54.565998 176 118 141
10.610128 18.025000 54.621738 178 122 144
10.619821 18.159321 54.671638 180 125 145
10.628412 18.291960 54.715866 181 126 145
10.635944 18.422956 54.754646 181 127 146
10.642472 18.552368 54.788250 181 128 146
10.648063 18.680281 54.817028 180 129 148
10.652789 18.806791 54.841358 180 130 149
10.656732 18.932016 54.861660 179 131 150
10.659980 19.056084 54.878376 178 132 152
10.662620 19.179132 54.891972 177 132 152
10.664744 19.301306 54.902905 176 133 152
10.666442 19.422749 54.911644 174 133 151
10.667795 19.543600 54.918613 169 131 146
10.668880 19.663986 54.924202 163 127 140
10.669763 19.784019 54.928741 155 124 134
10.670496 19.903795 54.932518 153 126 133
10.671116 20.023375 54.935707 167 145 150
10.671644 20.142796 54.938431 178 162 168
10.672087 20.262064 54.940708 181 167 175
10.672430 20.381155 54.942478 181 167 179
10.672643 20.500000 54.943569 193 178 192
10.672683 20.618515 54.943775 219 209 218
10.672494 20.736591 54.942806 229 219 228
9.217712 -2.217295 46.932644 253 147 172
9.215677 -2.115657 46.922279 254 152 175
9.214629 -2.014279 46.916943 254 151 173
9.214650 -1.913146 46.917049 252 144 166
9.215797 -1.812235 46.922890 247 133 155
9.218110 -1.711514 46.934666 245 134 153
9.221601 -1.610949 46.952438 250 156 174
9.226259 -1.510498 46.976158 254 181 197
9.232045 -1.410117 47.005619 254 188 203
9.238898 -1.309760 47.040512 252 178 193
9.246733 -1.209381 47.080402 241 144 160
9.255443 -1.108935 47.124748 228 107 127
9.264907 -1.008380 47.172935 235 106 130
9.274994 -0.907678 47.224293 249 127 154
9.285562 -0.806797 47.278103 254 145 174
9.296473 -0.705710 47.333652 253 148 179
9.307591 -0.604396 47.390266 246 133 165
9.318795 -0.502843 47.447311 234 115 147
9.329970 -0.401043 47.504211 224 108 141
9.341025 -0.298994 47.560501 216 108 141
9.351892 -0.196698 47.615826 213 110 142
9.362514 -0.094161 47.669910 207 108 138
9.372868 0.008608 47.722622 200 107 133
9.382939 0.111602 47.773911 208 124 144
9.392743 0.214811 47.823822 219 147 163
9.402300 0.318226 47.872482 207 139 153
9.411646 0.421842 47.920067 185 115 125
9.420825 0.525654 47.966805 175 107 114
9.429881 0.629659 48.012917 167 104 108
9.438859 0.733856 48.058624 161 100 101
9.447797 0.838248 48.104130 181 124 123
9.456724 0.942834 48.149586 222 182 181
9.465662 1.047618 48.195099 234 205 209
9.474622 1.152600 48.240715 198 152 167
9.483598 1.257781 48.286419 174 101 130
9.492580 1.363160 48.332150 186 101 142
9.501547 1.468734 48.377808 182 93 143
9.510470 1.574498 48.423241 169 84 134
9.519318 1.680444 48.468285 195 129 169
9.528058 1.786564 48.512791 223 171 200
9.536663 1.892849 48.556602 199 136 157
9.545110 1.999290 48.599609 176 98 112
9.553384 2.105878 48.641735 205 143 151
9.561481 2.212607 48.682964 239 199 203
9.569410 2.319473 48.723335 227 170 173
9.577191 2.426476 48.762959 180 87 93
9.584858 2.533618 48.801987 152 38 49
9.592452 2.640910 48.840652 162 39 56
9.600023 2.748361 48.879204 175 47 69
9.607630 2.855990 48.917934 180 51 75
9.615331 2.963814 48.957146 183 58 83
9.623185 3.071856 48.997139 184 66 92
9.631249 3.180140 49.038197 187 75 102
9.639573 3.288690 49.080574 192 87 114
9.648196 3.397528 49.124481 196 99 125
9.657153 3.506676 49.170086 200 107 131
9.666462 3.616153 49.217484 201 113 133
9.676132 3.725972 49.266720 204 123 139
9.686159 3.836146 49.317772 223 156 168
9.696528 3.946679 49.370567 244 193 203
9.707211 4.057570 49.424961 244 189 199
9.718173 4.168817 49.480770 235 161 174
9.729367 4.280405 49.537769 236 155 171
9.740743 4.392321 49.595688 246 164 186
9.752237 4.504542 49.654217 252 164 192
9.763792 4.617044 49.713047 250 156 187
9.775337 4.729795 49.771828 237 132 165
9.786803 4.842760 49.830208 210 95 127
9.798120 4.955901 49.887829 193 74 103
9.809217 5.069177 49.944332 195 78 104
9.820026 5.182545 49.999367 201 88 113
9.830478 5.295957 50.052582 202 96 120
9.840508 5.409367 50.103645 205 104 128
9.850056 5.522727 50.152264 208 112 136
9.859068 5.635990 50.198147 209 117 142
9.867496 5.749111 50.241062 208 119 146
9.875300 5.862046 50.280796 210 123 150
9.882449 5.974757 50.317200 218 133 158
9.888925 6.087210 50.350166 227 142 165
9.894716 6.199377 50.379658 227 141 161
9.899826 6.311235 50.405670 221 134 151
9.904269 6.422774 50.428295 221 134 147
9.908072 6.533989 50.447659 232 155 165
9.911278 6.644886 50.463978 247 195 204
9.913936 6.755481 50.477516 251 210 219
9.916111 6.865800 50.488590 239 172 186
9.917880 6.975880 50.497597 226 143 161
9.919324 7.085767 50.504948 231 150 173
9.920535 7.195518 50.511112 238 160 186
9.921612 7.305195 50.516594 233 157 185
9.922655 7.414872 50.521912 228 151 180
9.923769 7.524624 50.527580 231 152 184
9.925055 7.634533 50.534122 241 164 196
9.926614 7.744685 50.542065 250 176 209
9.928539 7.855160 50.551868 254 181 215
9.930923 7.966044 50.564003 254 182 216
9.933841 8.077416 50.578861 254 180 214
9.937365 8.189351 50.596802 254 178 211
9.941549 8.301915 50.618111 254 178 209
9.946443 8.415171 50.643024 254 182 211
9.952076 8.529168 50.671711 254 187 213
9.958469 8.643949 50.704262 255 188 211
9.965632 8.759546 50.740730 253 187 208
9.973557 8.875978 50.781078 248 189 206
9.982229 8.993258 50.825233 240 190 205
9.991622 9.111385 50.873058 227 189 203
10.001698 9.230350 50.924362 215 191 203
10.012415 9.350134 50.978928 212 199 212
10.023715 9.470704 51.036465 209 204 218
10.035539 9.592022 51.096664 185 184 200
10.047817 9.714040 51.159180 145 145 162
10.060473 9.836697 51.223618 149 148 163
10.073424 9.959922 51.289558 210 204 214
10.086579 10.083636 51.356541 217 203 212
10.099842 10.207748 51.424068 176 146 163
10.113111 10.332158 51.491631 191 148 170
10.126279 10.456754 51.558674 220 169 191
10.139234 10.581416 51.624630 224 165 187
10.151859 10.706017 51.688919 226 162 184
10.164043 10.830424 51.750954 232 165 187
10.175670 10.954497 51.810150 241 173 195
10.186625 11.078097 51.865932 246 179 200
10.196812 11.201093 51.917797 245 179 198
10.206130 11.323348 51.965240 239 176 193
10.214498 11.444743 52.007847 234 175 188
10.221843 11.565165 52.045246 229 174 186
10.228117 11.684525 52.077190 227 177 188
10.233287 11.802748 52.103512 229 183 193
10.237344 11.919789 52.124172 227 186 196
10.240302 12.035629 52.139233 216 179 191
10.242201 12.150275 52.148899 197 164 177
10.243102 12.263770 52.153488 184 155 170
10.243095 12.376187 52.153454 196 170 186
10.242294 12.487636 52.149372 216 195 212
10.240831 12.598252 52.141926 226 207 224
10.238864 12.708211 52.131908 226 208 225
10.236563 12.817709 52.120193 225 206 224
10.234116 12.926970 52.107731 226 206 224
10.231717 13.036242 52.095520 228 207 225
10.229570 13.145783 52.084587 228 205 224
10.227877 13.255865 52.075966 229 204 224
10.226837 13.366764 52.070671 230 203 223
10.226645 13.478757 52.069691 230 200 220
10.227477 13.592109 52.073933 231 198 219
10.229503 13.707076 52.084244 233 197 219
10.232861 13.823889 52.101341 234 194 218
10.237676 13.942760 52.125858 233 191 215
10.244043 14.063868 52.158279 231 187 211
10.252030 14.187356 52.198944 225 181 205
10.261673 14.313330 52.248043 219 174 199
10.272981 14.441855 52.305618 214 169 194
10.285931 14.572955 52.371552 211 166 190
10.300467 14.706604 52.445560 209 164 189
10.316508 14.842739 52.527237 208 163 188
10.333945 14.981249 52.616020 204 158 184
10.352644 15.121984 52.711227 199 152 178
10.372449 15.264758 52.812065 196 148 173
10.393190 15.409355 52.917671 195 146 171
10.414680 15.555525 53.027084 196 145 170
10.436727 15.703005 53.139339 197 145 169
10.459132 15.851512 53.253418 198 144 167
10.481700 16.000761 53.368324 196 141 164
10.504239 16.150457 53.483086 195 139 159
10.526566 16.300322 53.596760 192 136 155
10.548508 16.450077 53.708481 189 134 152
10.569909 16.599464 53.817451 187 131 149
10.590631 16.748245 53.922951 186 130 148
10.610546 16.896198 54.024357 184 128 147
10.629553 17.043133 54.121132 183 128 147
10.647564 17.188875 54.212833 183 127 148
10.664509 17.333281 54.299110 181 124 147
10.680337 17.476231 54.379700 179 121 146
10.695014 17.617632 54.454426 177 119 144
10.708514 17.757404 54.523167 175 117 142
10.720835 17.895504 54.585899 175 117 142
10.731982 18.031902 54.642654 178 121 144
10.741982 18.166603 54.693565 182 125 148
10.750861 18.299620 54.738777 181 126 146
10.758670 18.430996 54.778538 179 126 144
10.765463 18.560791 54.813126 178 126 144
10.771306 18.689087 54.842873 178 127 145
10.776275 18.815987 54.868176 178 128 147
10.780452 18.941603 54.889442 179 130 150
10.783924 19.066065 54.907120 180 132 154
10.786780 19.189508 54.921665 180 134 156
10.789113 19.312077 54.933540 181 136 157
10.791012 19.433914 54.943207 180 137 156
10.792560 19.555159 54.951092 176 135 152
10.793833 19.675934 54.957573 169 131 145
10.794896 19.796354 54.962990 160 126 138
10.795805 19.916513 54.967613 151 122 131
10.796595 20.036470 54.971634 148 123 131
10.797289 20.156265 54.975170 148 128 137
10.797891 20.275904 54.978233 149 133 144
10.798388 20.395359 54.980766 154 138 153
10.798752 20.514570 54.982620 169 154 170
10.798938 20.633448 54.983566 200 188 201
10.798890 20.751883 54.983322 230 220 231
9.313975 -2.216127 46.907921 253 152 175
9.312110 -2.114586 46.898529 254 156 178
9.311248 -2.013302 46.894188 254 154 177
9.311465 -1.912259 46.895283 252 145 167
9.312818 -1.811432 46.902092 247 132 154
9.315341 -1.710790 46.914803 246 132 151
9.319049 -1.610298 46.933475 251 151 168
9.323928 -1.509915 46.958046 254 171 186
9.329940 -1.409598 46.988323 254 170 183
9.337025 -1.309300 47.024006 252 157 170
9.345097 -1.208977 47.064659 246 137 152
9.354052 -1.108583 47.109760 238 115 133
9.363771 -1.008076 47.158714 241 112 133
9.374122 -0.907420 47.210842 250 130 154
9.384964 -0.806581 47.265446 254 152 179
9.396158 -0.705533 47.321823 254 160 190
9.407571 -0.604256 47.379299 250 143 175
9.419073 -0.502736 47.437229 243 121 153
9.430553 -0.400966 47.495045 236 111 143
9.441917 -0.298942 47.552277 230 109 140
9.453090 -0.196668 47.608543 225 109 137
9.464018 -0.094149 47.663582 216 106 129
9.474668 0.008607 47.717216 202 97 114
9.485030 0.111592 47.769405 201 106 118
9.495111 0.214794 47.820179 219 148 155
9.504933 0.318207 47.869644 218 161 165
9.514529 0.421824 47.917969 188 125 127
9.523942 0.525638 47.965378 169 104 104
9.533217 0.629648 48.012093 163 104 104
9.542397 0.733852 48.058327 155 98 97
9.551523 0.838250 48.104282 172 117 117
9.560626 0.942845 48.150127 215 172 175
9.569729 1.047637 48.195976 223 182 193
9.578844 1.152628 48.241882 185 123 150
9.587972 1.257818 48.287853 167 86 128
9.597102 1.363208 48.333832 179 90 147
9.606215 1.468792 48.379730 169 75 141
9.615287 1.574568 48.425419 156 65 131
9.624290 1.680529 48.470760 182 107 160
9.633191 1.786667 48.515587 204 137 177
9.641967 1.892973 48.559788 182 103 135
9.650595 1.999439 48.603237 172 87 108
9.659061 2.106057 48.645882 204 137 147
9.667365 2.212822 48.687702 224 172 176
9.675515 2.319730 48.728745 204 135 139
9.683531 2.426782 48.769112 168 67 75
9.691445 2.533981 48.808975 153 36 49
9.699303 2.641336 48.848545 166 41 59
9.707151 2.748860 48.888077 177 47 68
9.715049 2.856569 48.927849 181 50 73
9.723055 2.964481 48.968170 184 56 80
9.731228 3.072621 49.009331 187 65 90
9.739622 3.181010 49.051605 194 79 106
9.748288 3.289673 49.095253 204 96 124
9.757266 3.398633 49.140465 207 105 131
9.766587 3.507912 49.187412 202 105 129
9.776271 3.617526 49.236179 196 104 124
9.786325 3.727492 49.286816 198 113 127
9.796742 3.837819 49.339283 219 146 155
9.807509 3.948513 49.393509 242 181 188
9.818596 4.059572 49.449345 241 179 186
9.829965 4.170992 49.506596 230 156 165
9.841566 4.282761 49.565025 233 152 167
9.853348 4.394861 49.624363 242 160 180
9.865249 4.507271 49.684296 246 164 190
9.877200 4.619965 49.744492 249 169 198
9.889135 4.732909 49.804600 241 152 182
9.900980 4.846068 49.864254 212 102 133
9.912663 4.959404 49.923092 189 69 99
9.924109 5.072872 49.980740 191 73 100
9.935246 5.186428 50.036831 198 85 111
9.946005 5.300023 50.091011 200 92 118
9.956317 5.413610 50.142944 203 101 127
9.966122 5.527139 50.192326 208 110 137
9.975362 5.640561 50.238861 207 113 141
9.983991 5.753832 50.282318 202 112 140
9.991965 5.866906 50.322483 203 114 142
9.999259 5.979746 50.359211 214 127 152
10.005848 6.092316 50.392399 225 138 160
10.011727 6.204588 50.422009 224 137 155
10.016903 6.316545 50.448074 217 129 144
10.021388 6.428171 50.470665 217 129 139
10.025216 6.539465 50.489944 228 152 160
10.028430 6.650436 50.506126 246 197 204
10.031086 6.761100 50.519501 249 210 218
10.033250 6.871486 50.530403 233 166 178
10.035001 6.981630 50.539223 220 135 153
10.036425 7.091582 50.546391 229 147 168
10.037617 7.201398 50.552395 237 157 182
10.038675 7.311143 50.557728 232 154 180
10.039704 7.420889 50.562912 228 149 177
10.040809 7.530714 50.568470 232 152 182
10.042090 7.640698 50.574928 243 162 194
10.043650 7.750924 50.582779 251 171 204
10.045581 7.861475 50.592506 254 174 207
10.047972 7.972431 50.604546 254 174 208
10.050897 8.083871 50.619278 254 173 207
10.054427 8.195867 50.637058 254 171 203
10.058615 8.308481 50.658146 252 170 200
10.063504 8.421775 50.682770 252 174 204
10.069124 8.535794 50.711075 254 183 210
10.075493 8.650578 50.743149 255 189 213
10.082615 8.766156 50.779022 253 191 213
10.090485 8.882546 50.818657 250 194 212
10.099083 8.999756 50.861958 243 195 211
10.108382 9.117785 50.908791 230 194 208
10.118344 9.236622 50.958965 217 194 207
10.128925 9.356246 51.012253 214 202 215
10.140069 9.476626 51.068378 211 207 223
10.151716 9.597724 51.127037 188 189 206
10.163798 9.719490 51.187885 145 146 165
10.176240 9.841866 51.250542 141 140 157
10.188959 9.964785 51.314602 204 198 210
10.201870 10.088168 51.379620 215 203 212
10.214874 10.211926 51.445118 172 146 161
10.227877 10.335964 51.510597 193 157 177
10.240768 10.460172 51.575527 225 185 203
10.253444 10.584435 51.639362 229 178 197
10.265788 10.708630 51.701534 227 167 187
10.277691 10.832626 51.761478 232 166 187
10.289039 10.956291 51.818630 240 172 193
10.299725 11.079489 51.872448 246 178 198
10.309649 11.202091 51.922424 246 179 198
10.318714 11.323967 51.968082 243 178 195
10.326839 11.444999 52.009007 237 175 190
10.333959 11.565080 52.044861 229 173 186
10.340019 11.684119 52.075382 226 174 186
10.344992 11.802049 52.100426 228 181 192
10.348866 11.918823 52.119942 228 186 197
10.351659 12.034421 52.134003 219 183 194
10.353406 12.148855 52.142803 203 171 184
10.354171 12.262163 52.146656 190 161 176
10.354042 12.374420 52.146008 197 172 187
10.353133 12.485733 52.141430 215 194 210
10.351577 12.596238 52.133591 225 206 223
10.349527 12.706105 52.123272 226 207 224
10.347159 12.815533 52.111343 225 206 223
10.344659 12.924743 52.098751 226 206 224
10.342221 13.033978 52.086472 228 207 225
10.340051 13.143500 52.075542 229 206 225
10.338352 13.253579 52.066986 231 205 224
10.337325 13.364491 52.061817 230 203 222
10.337166 13.476511 52.061012 227 197 217
10.338056 13.589907 52.065495 226 193 214
10.340159 13.704930 52.076092 227 191 214
10.343626 13.821821 52.093548 228 189 212
10.348577 13.940786 52.118481 229 186 210
10.355108 14.062006 52.151375 227 182 207
10.363289 14.185625 52.192577 224 178 203
10.373157 14.311749 52.242275 220 173 198
10.384723 14.440449 52.300522 215 169 194
10.397960 14.571741 52.367188 212 165 189
10.412814 14.705606 52.441998 209 163 187
10.429202 14.841974 52.524532 209 163 186
10.447013 14.980741 52.614235 205 158 182
10.466112 15.121754 52.710423 200 153 177
10.486339 15.264823 52.812290 196 148 172
10.507519 15.409731 52.918961 194 145 169
10.529467 15.556231 53.029495 194 144 168
10.551982 15.704054 53.142887 195 144 168
10.574864 15.852917 53.258137 196 144 167
10.597915 16.002527 53.374222 194 142 165
10.620937 16.152597 53.490170 193 140 161
10.643744 16.302839 53.605034 192 138 158
10.666162 16.452971 53.717930 190 136 155
10.688027 16.602736 53.828056 188 133 151
10.709202 16.751892 53.934696 185 131 149
10.729557 16.900219 54.037212 184 129 148
10.748987 17.047522 54.135067 184 129 149
10.767404 17.193624 54.227814 184 129 151
10.784737 17.338388 54.315113 183 127 151
10.800934 17.481689 54.396687 181 125 150
10.815961 17.623436 54.472366 180 123 148
10.829797 17.763554 54.542046 179 121 147
10.842434 17.901993 54.605694 178 120 145
10.853884 18.038734 54.663357 180 123 147
10.864168 18.173775 54.715153 184 128 150
10.873324 18.307137 54.761265 184 128 149
10.881394 18.438860 54.801910 180 127 144
10.888439 18.569008 54.837391 177 126 143
10.894526 18.697664 54.868038 175 126 143
10.899729 18.824926 54.894245 175 127 145
10.904131 18.950912 54.916420 176 129 148
10.907824 19.075750 54.935013 177 131 152
10.910892 19.199574 54.950470 178 133 154
10.913432 19.322523 54.963261 180 136 156
10.915531 19.444746 54.973835 181 138 157
10.917274 19.566374 54.982609 180 138 156
10.918736 19.687534 54.989971 175 135 151
10.919986 19.808340 54.996265 168 132 146
10.921073 19.928879 55.001743 160 127 139
10.922039 20.049217 55.006607 152 123 135
10.922905 20.169392 55.010967 145 120 134
10.923675 20.289406 55.014843 140 118 134
10.924337 20.409237 55.018181 137 117 135
10.924861 20.528822 55.020817 139 119 139
10.925204 20.648077 55.022549 159 138 159
10.925309 20.766888 55.023079 194 173 193
9.412366 -2.215486 46.894337 254 159 178
9.410638 -2.114009 46.885727 254 160 181
9.409928 -2.012787 46.882195 254 156 178
9.410312 -1.911803 46.884102 252 144 167
9.411839 -1.811031 46.891716 249 131 154
9.414546 -1.710440 46.905201 250 131 152
9.418443 -1.609994 46.924610 253 144 164
9.423516 -1.509653 46.949890 254 153 172
9.429728 -1.409373 46.980835 254 147 164
9.437018 -1.309110 47.017162 253 135 151
9.445303 -1.208817 47.058434 250 127 144
9.454476 -1.108450 47.104141 247 120 140
9.464422 -1.007969 47.153694 248 122 144
9.475007 -0.907335 47.206429 252 132 157
9.486092 -0.806516 47.261650 254 145 173
9.497536 -0.705486 47.318668 254 153 183
9.509204 -0.604225 47.376804 253 144 177
9.520967 -0.502717 47.435413 252 127 162
9.532712 -0.400956 47.493923 247 114 150
9.544340 -0.298940 47.551857 241 108 142
9.555776 -0.196669 47.608833 233 105 135
9.566960 -0.094151 47.664558 221 99 124
9.577861 0.008608 47.718864 205 93 111
9.588463 0.111597 47.771690 205 110 120
9.598771 0.214807 47.823048 226 161 165
9.608807 0.318230 47.873047 223 175 175
9.618601 0.421858 47.921841 182 126 122
9.628197 0.525685 47.969646 157 98 91
9.637637 0.629708 48.016682 161 107 99
9.646968 0.733926 48.063175 158 106 97
9.656230 0.838338 48.109318 167 115 109
9.665456 0.942945 48.155281 202 153 154
9.674672 1.047750 48.201202 206 154 166
9.683892 1.152753 48.247135 170 102 131
9.693119 1.257955 48.293106 150 68 115
9.702345 1.363355 48.339073 153 65 128
9.711556 1.468951 48.384968 150 59 130
9.720729 1.574739 48.430664 149 57 130
9.729837 1.680712 48.476044 162 74 138
9.738854 1.786865 48.520969 167 80 131
9.747755 1.893188 48.565315 154 64 102
9.756520 1.999675 48.608982 154 63 87
9.765139 2.106319 48.651924 176 90 103
9.773610 2.213115 48.694130 188 104 111
9.781942 2.320059 48.735641 177 84 90
9.790158 2.427153 48.776577 161 52 61
9.798291 2.534403 48.817097 159 39 52
9.806384 2.641816 48.857418 171 44 61
9.814487 2.749406 48.897789 178 47 67
9.822657 2.857190 48.938492 180 48 70
9.830953 2.965187 48.979820 181 51 76
9.839433 3.073420 49.022068 184 60 87
9.848150 3.181911 49.065506 200 88 118
9.857156 3.290686 49.110371 221 122 152
9.866489 3.399768 49.156872 221 125 155
9.876182 3.509177 49.205162 208 109 139
9.886249 3.618932 49.255322 200 103 128
9.896698 3.729048 49.307381 197 105 125
9.907522 3.839532 49.361309 213 130 145
9.918705 3.950392 49.417023 238 164 175
9.930214 4.061626 49.474361 239 165 175
9.942008 4.173227 49.533123 227 148 159
9.954039 4.285183 49.593063 228 144 159
9.966249 4.397476 49.653893 233 148 168
9.978573 4.510084 49.715298 239 164 188
9.990943 4.622977 49.776928 248 189 213
10.003286 4.736123 49.838425 245 174 199
10.015527 4.849484 49.899406 216 112 140
10.027588 4.963020 49.959496 186 67 97
10.039392 5.076686 50.018314 185 67 96
10.050865 5.190434 50.075474 196 81 109
10.061935 5.304215 50.130627 199 90 117
10.072531 5.417979 50.183414 202 98 126
10.082590 5.531676 50.233528 205 106 134
10.092054 5.645257 50.280682 202 107 136
10.100875 5.758673 50.324627 196 105 133
10.109012 5.871882 50.365166 197 107 134
10.116433 5.984844 50.402145 209 121 146
10.123125 6.097524 50.435482 224 136 156
10.129079 6.209897 50.465145 225 136 153
10.134302 6.321940 50.491169 217 128 139
10.138813 6.433645 50.513649 215 126 134
10.142650 6.545011 50.532761 228 152 158
10.145857 6.656047 50.548740 246 199 205
10.148495 6.766772 50.561878 247 207 215
10.150632 6.877214 50.572529 227 158 172
10.152352 6.987416 50.581100 217 129 148
10.153744 7.097425 50.588036 229 143 167
10.154905 7.207300 50.593822 238 155 180
10.155937 7.317106 50.598961 232 150 177
10.156943 7.426916 50.603977 227 145 173
10.158031 7.536808 50.609394 235 152 181
10.159302 7.646861 50.615723 247 164 195
10.160854 7.757157 50.623463 253 169 202
10.162784 7.867778 50.633072 254 170 203
10.165175 7.978803 50.644989 254 170 204
10.168102 8.090305 50.659573 254 168 203
10.171630 8.202355 50.677147 250 160 194
10.175813 8.315015 50.697983 245 155 187
10.180688 8.428340 50.722275 247 161 192
10.186283 8.542372 50.750153 252 176 205
10.192616 8.657150 50.781700 254 188 214
10.199684 8.772698 50.816917 254 194 217
10.207482 8.889034 50.855774 253 198 218
10.215990 9.006162 50.898155 247 201 218
10.225179 9.124080 50.943935 236 200 215
10.235008 9.242774 50.992908 223 198 212
10.245434 9.362225 51.044853 218 202 217
10.256402 9.482401 51.099499 214 207 223
10.267852 9.603263 51.156544 196 193 211
10.279716 9.724764 51.215656 156 154 172
10.291924 9.846847 51.276474 145 141 158
10.304393 9.969445 51.338596 204 198 210
10.317037 10.092483 51.401592 218 208 216
10.329766 10.215877 51.465015 180 156 169
10.342484 10.339532 51.528378 201 173 188
10.355086 10.463344 51.591167 235 209 222
10.367468 10.587201 51.652851 237 202 215
10.379521 10.710985 51.712906 227 175 191
10.391135 10.834570 51.770767 224 163 181
10.402201 10.957827 51.825897 232 167 186
10.412614 11.080627 51.877777 241 174 194
10.422274 11.202842 51.925907 245 178 198
10.431092 11.324349 51.969837 245 179 198
10.438985 11.445033 52.009163 240 177 194
10.445889 11.564790 52.043556 230 172 188
10.451753 11.683534 52.072773 222 169 183
10.456548 11.801197 52.096664 224 177 190
10.460265 11.917735 52.115185 228 187 199
10.462917 12.033128 52.128399 222 186 199
10.464544 12.147388 52.136505 207 176 189
10.465207 12.260553 52.139809 194 166 180
10.464994 12.372697 52.138748 197 172 188
10.464016 12.483924 52.133873 212 190 207
10.462407 12.594370 52.125858 222 203 220
10.460320 12.704201 52.115459 225 207 224
10.457928 12.813613 52.103539 225 207 224
10.455418 12.922829 52.091038 227 207 225
10.452985 13.032085 52.078911 230 208 226
10.450832 13.141644 52.068192 231 207 227
10.449168 13.251776 52.059898 232 205 224
10.448194 13.362752 52.055042 229 200 220
10.448102 13.474847 52.054585 226 194 215
10.449079 13.588329 52.059452 224 189 211
10.451292 13.703455 52.070484 225 187 210
10.454889 13.820457 52.088402 226 184 208
10.459993 13.939544 52.113834 225 181 205
10.466705 14.060899 52.147270 225 178 202
10.475093 14.184669 52.189060 223 174 200
10.485193 14.310958 52.239384 221 171 196
10.497018 14.439834 52.298298 217 167 192
10.510541 14.571320 52.365673 213 163 187
10.525707 14.705390 52.441231 210 160 184
10.542433 14.841983 52.524563 208 159 182
10.560605 14.980987 52.615101 205 157 180
10.580085 15.122251 52.712154 202 154 176
10.600714 15.265586 52.814926 197 149 171
10.622312 15.410771 52.922535 192 144 167
10.644691 15.557562 53.034031 191 143 166
10.667648 15.705686 53.148411 192 143 166
10.690979 15.854856 53.264648 193 144 166
10.714481 16.004784 53.381744 192 143 165
10.737955 16.155172 53.498695 192 141 162
10.761210 16.305735 53.614559 192 139 159
10.784071 16.456194 53.728451 190 137 157
10.806371 16.606283 53.839558 188 135 155
10.827968 16.755762 53.947155 186 132 152
10.848731 16.904408 54.050602 184 130 150
10.868555 17.052025 54.149368 184 130 151
10.887349 17.198441 54.243004 184 130 153
10.905044 17.343513 54.331165 184 129 153
10.921586 17.487120 54.413582 184 129 153
10.936942 17.629169 54.490089 185 128 153
10.951090 17.769588 54.560577 184 127 152
10.964026 17.908333 54.625027 182 126 151
10.975760 18.045378 54.683487 183 126 150
10.986318 18.180727 54.736088 186 130 152
10.995734 18.314405 54.783005 186 132 152
11.004058 18.446451 54.824474 181 129 147
11.011346 18.576929 54.860783 176 126 144
11.017667 18.705921 54.892273 172 125 143
11.023099 18.833532 54.919338 171 126 145
11.027724 18.959873 54.942383 171 128 147
11.031631 19.085070 54.961853 172 130 150
11.034913 19.209261 54.978203 173 132 152
11.037661 19.332588 54.991886 177 136 155
11.039963 19.455191 55.003361 184 144 161
11.041904 19.577200 55.013035 189 150 165
11.043562 19.698748 55.021290 188 150 164
11.045003 19.819939 55.028469 179 141 155
11.046278 19.940865 55.034824 169 134 147
11.047428 20.061590 55.040554 163 130 144
11.048474 20.182150 55.045769 157 127 142
11.049424 20.302553 55.050495 150 123 140
11.050261 20.422773 55.054668 144 118 136
11.050959 20.542747 55.058140 137 111 132
11.051472 20.662394 55.060696 142 114 137
11.051742 20.781593 55.062042 160 130 155
9.512824 -2.215339 46.891232 254 160 179
9.511206 -2.113897 46.883251 254 160 180
9.510622 -2.012709 46.880379 254 155 177
9.511145 -1.911756 46.882954 252 141 164
9.512823 -1.811012 46.891228 250 129 153
9.515688 -1.710445 46.905350 252 131 153
9.519751 -1.610020 46.925373 254 140 162
9.524994 -1.509696 46.951221 254 144 164
9.531383 -1.409430 46.982712 254 137 157
9.538855 -1.309176 47.019543 254 127 147
9.547325 -1.208890 47.061295 252 120 141
9.556692 -1.108529 47.107468 251 120 143
9.566836 -1.008050 47.157471 252 125 150
9.577624 -0.907416 47.210648 254 128 156
9.588918 -0.806596 47.266319 254 129 160
9.600577 -0.705563 47.323788 254 131 164
9.612464 -0.604296 47.382385 254 132 167
9.624450 -0.502781 47.441460 254 125 162
9.636415 -0.401011 47.500446 251 114 151
9.648264 -0.298984 47.558849 244 106 142
9.659915 -0.196700 47.616280 233 101 133
9.671310 -0.094166 47.672455 219 95 121
9.682411 0.008609 47.727169 207 96 114
9.693203 0.111617 47.780365 214 125 135
9.703688 0.214848 47.832050 232 175 179
9.713883 0.318292 47.882305 218 175 174
9.723823 0.421941 47.931301 170 119 111
9.733547 0.525790 47.979233 152 98 87
9.743101 0.629835 48.026325 170 120 107
9.752528 0.734073 48.072796 169 120 107
9.761873 0.838504 48.118858 161 109 100
9.771170 0.943130 48.164684 178 125 124
9.780446 1.047950 48.210411 191 135 146
9.789720 1.152968 48.256119 168 104 131
9.798993 1.258183 48.301834 135 61 106
9.808266 1.363594 48.347542 124 46 106
9.817525 1.469201 48.393181 141 63 127
9.826749 1.574998 48.438648 162 83 146
9.835916 1.680983 48.483833 158 71 134
9.845000 1.787146 48.528614 141 48 102
9.853980 1.893483 48.572880 133 40 80
9.862841 1.999987 48.616554 138 45 71
9.871569 2.106650 48.659580 151 55 72
9.880168 2.213470 48.701965 161 62 73
9.888646 2.320445 48.743759 163 59 68
9.897030 2.427577 48.785084 160 48 60
9.905351 2.534870 48.826099 162 43 57
9.913653 2.642336 48.867023 170 46 62
9.921987 2.749986 48.908104 176 48 66
9.930408 2.857839 48.949615 177 48 69
9.938979 2.965916 48.991863 177 49 74
9.947755 3.074238 49.035122 178 57 86
9.956790 3.182829 49.079659 200 98 130
9.966133 3.291714 49.125710 231 153 185
9.975824 3.400917 49.173481 231 156 189
9.985890 3.510457 49.223103 218 128 164
9.996351 3.620354 49.274666 210 115 148
10.007209 3.730621 49.328186 196 106 131
10.018456 3.841268 49.383625 204 120 139
10.030070 3.952299 49.440876 233 157 172
10.042022 4.063714 49.499786 235 162 173
10.054263 4.175502 49.560127 219 140 152
10.066746 4.287653 49.621658 217 132 146
10.079406 4.400148 49.684063 221 137 155
10.092176 4.512961 49.747013 232 161 182
10.104986 4.626063 49.810154 247 192 215
10.117757 4.739419 49.873104 246 178 203
10.130410 4.852990 49.935474 218 116 144
10.142864 4.966733 49.996864 187 68 99
10.155041 5.080601 50.056885 182 64 94
10.166860 5.194546 50.115147 192 77 107
10.178247 5.308516 50.171276 198 87 117
10.189131 5.422460 50.224926 199 94 123
10.199444 5.536326 50.275761 197 99 128
10.209128 5.650064 50.323498 194 100 129
10.218135 5.763624 50.367893 190 99 128
10.226424 5.876964 50.408752 190 101 128
10.233967 5.990043 50.445934 206 117 141
10.240746 6.102828 50.479347 228 140 158
10.246758 6.215291 50.508984 232 143 157
10.252014 6.327415 50.534897 219 128 138
10.256537 6.439191 50.557194 217 126 134
10.260366 6.550620 50.576065 234 158 165
10.263551 6.661712 50.591759 250 200 208
10.266155 6.772489 50.604599 245 198 208
10.268251 6.882981 50.614933 224 150 166
10.269928 6.993231 50.623199 218 127 149
10.271276 7.103290 50.629845 231 143 167
10.272395 7.213216 50.635357 240 153 179
10.273389 7.323078 50.640259 232 148 175
10.274364 7.432947 50.645065 226 142 169
10.275426 7.542900 50.650299 235 151 180
10.276678 7.653017 50.656467 248 164 195
10.278218 7.763379 50.664062 254 168 201
10.280139 7.874064 50.673531 254 170 204
10.282524 7.985151 50.685284 254 173 207
10.285445 8.096711 50.699684 252 167 202
10.288963 8.208810 50.717030 244 152 187
10.293132 8.321508 50.737576 236 141 174
10.297984 8.434856 50.761494 238 146 179
10.303545 8.548895 50.788902 248 163 195
10.309828 8.663658 50.819870 253 178 206
10.316832 8.779168 50.854397 253 187 211
10.324545 8.895439 50.892418 253 194 215
10.332947 9.012474 50.933834 251 201 219
10.342008 9.130269 50.978497 242 203 218
10.351687 9.248811 51.026211 229 199 214
10.361942 9.368077 51.076759 220 199 214
10.372716 9.488036 51.129868 214 202 217
10.383951 9.608651 51.185246 201 194 209
10.395581 9.729875 51.242573 163 159 173
10.407537 9.851653 51.301502 144 138 152
10.419738 9.973921 51.361649 197 191 201
10.432102 10.096606 51.422596 219 210 216
10.444541 10.219627 51.483913 181 162 170
10.456962 10.342894 51.545135 193 172 180
10.469262 10.466306 51.605770 232 219 224
10.481341 10.589754 51.665310 244 225 232
10.493095 10.713127 51.723248 230 191 202
10.504415 10.836303 51.779045 216 161 175
10.515196 10.959157 51.832188 221 157 174
10.525334 11.081564 51.882164 234 168 187
10.534738 11.203404 51.928513 244 177 196
10.543314 11.324556 51.970787 246 181 200
10.550984 11.444908 52.008595 243 180 198
10.557686 11.564362 52.041630 232 172 190
10.563370 11.682832 52.069645 220 166 182
10.568007 11.800256 52.092510 220 172 187
10.571589 11.916587 52.110165 228 186 200
10.574130 12.031810 52.122692 225 188 203
10.575665 12.145932 52.130260 211 179 194
10.576260 12.258996 52.133186 197 169 184
10.575996 12.371070 52.131889 196 171 187
10.574987 12.482257 52.126911 207 185 202
10.573363 12.592691 52.118908 218 199 216
10.571278 12.702537 52.108631 224 205 222
10.568903 12.811986 52.096924 226 207 224
10.566423 12.921257 52.084702 229 208 225
10.564034 13.030586 52.072918 232 209 227
10.561939 13.140232 52.062595 235 209 229
10.560346 13.250463 52.054741 234 206 226
10.559455 13.361547 52.050350 230 199 220
10.559464 13.473763 52.050396 225 192 212
10.560556 13.587372 52.055782 223 187 208
10.562902 13.702629 52.067345 223 183 205
10.566650 13.819771 52.085819 223 180 202
10.571926 13.939006 52.111824 222 175 199
10.578829 14.060516 52.145851 220 170 195
10.587429 14.184446 52.188240 218 166 191
10.597764 14.310904 52.239189 217 164 189
10.609847 14.439958 52.298744 216 162 187
10.623650 14.571629 52.366783 213 160 183
10.639117 14.705894 52.443027 209 157 180
10.656166 14.842691 52.527069 206 155 178
10.674680 14.981906 52.618328 204 154 177
10.694521 15.123391 52.716129 201 152 174
10.715527 15.266956 52.819672 197 148 170
10.737516 15.412381 52.928062 193 144 166
10.760296 15.559416 53.040352 191 142 165
10.783664 15.707791 53.155537 191 142 165
10.807410 15.857219 53.272587 191 142 165
10.831330 16.007408 53.390499 191 142 165
10.855222 16.158062 53.508266 191 140 162
10.878891 16.308891 53.624939 190 139 160
10.902159 16.459616 53.739628 190 137 159
10.924858 16.609972 53.851521 189 136 157
10.946843 16.759718 53.959888 187 133 155
10.967984 16.908628 54.064098 185 131 153
10.988171 17.056507 54.163605 184 130 153
11.007314 17.203186 54.257969 184 130 153
11.025343 17.348516 54.346836 184 130 153
11.042207 17.492384 54.429962 186 130 155
11.057868 17.634691 54.507160 187 131 156
11.072309 17.775375 54.578346 187 131 156
11.085526 17.914385 54.643490 186 130 154
11.097529 18.051704 54.702663 185 129 153
11.108345 18.187334 54.755978 186 132 153
11.118013 18.321301 54.803631 185 133 152
11.126578 18.453646 54.845856 179 130 148
11.134104 18.584435 54.882946 173 126 143
11.140655 18.713749 54.915241 168 123 141
11.146314 18.841692 54.943134 165 123 142
11.151162 18.968378 54.967030 167 127 146
11.155288 19.093931 54.987370 172 133 153
11.158786 19.218489 55.004612 174 136 155
11.161744 19.342188 55.019196 181 143 162
11.164256 19.465170 55.031574 195 160 177
11.166403 19.587566 55.042160 208 178 191
11.168264 19.709503 55.051338 208 179 189
11.169906 19.831089 55.059425 188 154 165
11.171380 19.952412 55.066692 173 135 148
11.172727 20.073538 55.073334 168 131 145
11.173968 20.194500 55.079449 167 132 146
11.175108 20.315306 55.085072 163 130 146
11.176135 20.435926 55.090130 157 125 142
11.177018 20.556307 55.094486 150 119 138
11.177714 20.676361 55.097916 148 116 138
11.178165 20.795971 55.100140 151 117 141
9.615262 -2.215651 46.897846 254 158 175
9.613729 -2.114218 46.890366 254 159 178
9.613249 -2.013038 46.888027 254 153 174
9.613890 -1.912090 46.891151 253 139 161
9.615697 -1.811349 46.899967 252 129 152
9.618700 -1.710783 46.914616 253 132 155
9.622907 -1.610355 46.935135 254 139 163
9.628301 -1.510025 46.961441 254 140 165
9.634844 -1.409749 46.993355 254 135 160
9.642474 -1.309483 47.030571 254 125 152
9.651108 -1.209183 47.072678 253 116 144
9.660641 -1.108804 47.119175 252 114 144
9.670955 -1.008306 47.169483 254 118 149
9.681917 -0.907653 47.222950 254 118 151
9.693388 -0.806811 47.278900 254 114 148
9.705227 -0.705754 47.336643 254 114 149
9.717294 -0.604463 47.395500 254 117 154
9.729461 -0.502923 47.454842 254 116 153
9.741605 -0.401127 47.514076 250 108 145
9.753630 -0.299071 47.572723 243 102 138
9.765450 -0.196758 47.630379 230 98 130
9.777006 -0.094195 47.686745 216 95 123
9.788258 0.008612 47.741623 209 104 124
9.799189 0.111651 47.794933 219 136 149
9.809796 0.214913 47.846676 229 172 178
9.820102 0.318389 47.896942 201 156 156
9.830134 0.422069 47.945869 158 108 103
9.839934 0.525948 47.993671 160 114 103
9.849547 0.630021 48.040562 191 153 139
9.859020 0.734286 48.086761 182 141 127
9.868395 0.838742 48.132488 148 100 91
9.877710 0.943389 48.177921 156 108 106
9.886996 1.048229 48.223209 192 145 155
9.896270 1.153262 48.268444 180 129 152
9.905541 1.258491 48.313663 126 65 104
9.914811 1.363914 48.358875 106 41 91
9.924067 1.469530 48.404022 150 92 142
9.933294 1.575336 48.449028 200 146 192
9.942472 1.681328 48.493793 190 122 172
9.951580 1.787500 48.538216 145 61 110
9.960596 1.893846 48.582191 122 32 72
9.969507 2.000361 48.625656 128 36 65
9.978306 2.107040 48.668571 143 47 68
9.986995 2.213879 48.710949 156 56 72
9.995585 2.320878 48.752850 161 56 70
10.004104 2.428040 48.794395 159 48 63
10.012582 2.535371 48.835751 161 45 60
10.021068 2.642883 48.877136 167 46 63
10.029610 2.750588 48.918800 171 48 66
10.038266 2.858505 48.961021 174 51 70
10.047095 2.966656 49.004089 174 52 75
10.056157 3.075063 49.048283 175 58 87
10.065502 3.183751 49.093864 198 97 130
10.075181 3.292743 49.141071 231 158 192
10.085230 3.402065 49.190083 239 174 210
10.095678 3.511736 49.241043 233 156 194
10.106540 3.621776 49.294025 225 142 179
10.117818 3.732197 49.349030 197 116 146
10.129501 3.843010 49.406013 191 111 134
10.141567 3.954217 49.464867 221 148 165
10.153979 4.065817 49.525406 230 159 173
10.166692 4.177801 49.587410 214 137 150
10.179646 4.290154 49.650597 208 125 139
10.192780 4.402858 49.714657 215 130 147
10.206021 4.515884 49.779240 230 149 170
10.219292 4.629203 49.843964 242 170 192
10.232512 4.742777 49.908443 240 158 184
10.245596 4.856565 49.972263 220 114 142
10.258462 4.970522 50.035015 193 75 104
10.271025 5.084600 50.096287 181 63 93
10.283203 5.198748 50.155685 186 72 102
10.294915 5.312911 50.212814 192 82 112
10.306091 5.427038 50.267323 190 87 117
10.316661 5.541074 50.318874 186 90 120
10.326566 5.654969 50.367184 184 93 123
10.335755 5.768672 50.412010 183 95 125
10.344191 5.882140 50.453148 186 99 127
10.351844 5.995333 50.490479 206 118 142
10.358701 6.108216 50.523922 233 145 164
10.364759 6.220765 50.553471 236 147 160
10.370036 6.332964 50.579208 219 126 137
10.374556 6.444803 50.601254 220 131 139
10.378362 6.556287 50.619816 241 171 179
10.381509 6.667427 50.635166 252 197 207
10.384064 6.778248 50.647629 242 177 190
10.386106 6.888782 50.657593 224 139 158
10.387726 6.999074 50.665493 222 129 153
10.389017 7.109175 50.671787 233 142 169
10.390084 7.219148 50.676994 238 149 177
10.391030 7.329057 50.681610 232 145 172
10.391965 7.438979 50.686165 229 141 169
10.392994 7.548988 50.691185 239 150 180
10.394219 7.659165 50.697163 250 162 193
10.395740 7.769587 50.704578 254 166 199
10.397645 7.880333 50.713871 254 170 203
10.400017 7.991477 50.725437 254 175 208
10.402924 8.103088 50.739620 252 169 202
10.406428 8.215233 50.756710 242 149 183
10.410572 8.327962 50.776920 229 131 165
10.415393 8.441327 50.800434 227 130 163
10.420910 8.555365 50.827343 238 145 177
10.427132 8.670105 50.857693 248 163 192
10.434058 8.785569 50.891476 251 173 198
10.441675 8.901768 50.928623 251 183 204
10.449958 9.018702 50.969025 249 192 210
10.458878 9.136365 51.012527 242 196 211
10.468394 9.254744 51.058945 229 193 207
10.478461 9.373816 51.108047 216 189 203
10.489027 9.493550 51.159576 209 191 204
10.500031 9.613909 51.213253 202 190 202
10.511414 9.734849 51.268768 169 160 171
10.523102 9.856314 51.325775 133 125 136
10.535022 9.978246 51.383919 170 163 169
10.547094 10.100573 51.442799 214 207 210
10.559232 10.223218 51.501999 191 177 181
10.571344 10.346093 51.561077 181 165 169
10.583335 10.469103 51.619564 217 209 210
10.595107 10.592146 51.676979 245 236 238
10.606557 10.715111 51.732826 239 212 219
10.617580 10.837882 51.786591 220 173 185
10.628076 10.960340 51.837784 217 157 173
10.637944 11.082366 51.885918 228 164 182
10.647095 11.203843 51.930546 241 176 195
10.655437 11.324654 51.971233 247 184 202
10.662895 11.444692 52.007610 246 184 203
10.669409 11.563862 52.039383 235 175 193
10.674930 11.682083 52.066307 220 164 182
10.679430 11.799293 52.088257 217 167 184
10.682899 11.915447 52.105183 227 182 199
10.685353 12.030531 52.117149 226 188 204
10.686827 12.144553 52.124336 213 180 196
10.687382 12.257551 52.127041 198 170 186
10.687100 12.369595 52.125671 194 169 186
10.686094 12.480784 52.120762 203 181 198
10.684491 12.591250 52.112946 215 195 213
10.682444 12.701154 52.102959 223 203 221
10.680121 12.810685 52.091633 226 205 224
10.677708 12.920056 52.079861 229 206 225
10.675398 13.029504 52.068592 232 207 228
10.673394 13.139279 52.058819 235 208 229
10.671904 13.249650 52.051548 235 205 226
10.671127 13.360883 52.047760 232 199 220
10.671263 13.473252 52.048424 229 192 213
10.672494 13.587018 52.054428 226 186 208
10.674994 13.702438 52.066620 225 182 204
10.678908 13.819743 52.085716 224 178 200
10.684365 13.939141 52.112331 221 171 195
10.691467 14.060818 52.146969 214 161 185
10.700283 14.184916 52.189968 208 153 177
10.710853 14.311543 52.241524 206 150 175
10.723186 14.440767 52.301674 209 152 176
10.737258 14.572610 52.370312 210 153 176
10.753015 14.707053 52.447163 207 151 174
10.770367 14.844028 52.531799 204 150 172
10.789203 14.983426 52.623665 202 149 171
10.809378 15.125095 52.722073 200 148 170
10.830731 15.268849 52.826221 196 146 167
10.853080 15.414466 52.935223 193 143 165
10.876227 15.561696 53.048126 191 142 164
10.899969 15.710270 53.163925 190 142 164
10.924094 15.859899 53.281593 189 142 164
10.948393 16.010290 53.400108 189 141 164
10.972663 16.161148 53.518486 189 140 162
10.996707 16.312181 53.635757 188 138 161
11.020343 16.463112 53.751041 188 137 160
11.043406 16.613676 53.863529 187 135 159
11.065742 16.763626 53.972473 186 133 157
11.087224 16.912743 54.077251 185 131 155
11.107743 17.060829 54.177330 183 129 154
11.127204 17.207714 54.272247 183 129 152
11.145540 17.353254 54.361683 184 129 152
11.162697 17.497334 54.445362 185 130 153
11.178641 17.639858 54.523129 186 131 155
11.193356 17.780767 54.594898 187 131 156
