ply
format ascii 1.0
element vertex 1237
property float x
property float y
property float z
property uchar red
property uchar green
property uchar blue
end_header
20.368298 5.024659 70.455009 63 45 47
20.375454 5.178354 70.479759 63 45 47
20.383028 5.332266 70.505959 64 44 47
20.390934 5.486381 70.533310 64 43 46
20.399088 5.640681 70.561508 65 43 46
20.407408 5.795151 70.590294 66 44 46
20.415817 5.949770 70.619377 66 45 46
20.424232 6.104517 70.648491 67 44 47
20.432577 6.259368 70.677353 67 44 47
20.440777 6.414298 70.705719 67 43 47
20.448755 6.569278 70.733315 66 43 47
20.456436 6.724280 70.759888 66 43 46
20.463753 6.879274 70.785194 66 44 46
20.470634 7.034228 70.808998 66 44 47
20.477020 7.189110 70.831085 66 44 47
20.482851 7.343889 70.851257 67 45 48
20.488083 7.498535 70.869347 67 45 49
20.492676 7.653021 70.885239 65 45 48
20.496605 7.807322 70.898827 64 44 47
20.499857 7.961419 70.910080 63 43 46
20.502436 8.115298 70.918999 63 42 45
20.504358 8.268950 70.925644 64 41 45
20.505655 8.422376 70.930138 65 42 46
20.506380 8.575580 70.932640 66 43 47
20.506598 8.728580 70.933395 66 43 47
20.506390 8.881397 70.932671 66 43 48
20.505852 9.034068 70.930817 66 44 48
20.505093 9.186631 70.928192 66 44 48
20.504227 9.339134 70.925194 66 44 48
20.503384 9.491633 70.922272 66 45 49
20.502686 9.644191 70.919868 66 45 50
20.502266 9.796869 70.918411 66 46 51
20.502251 9.949738 70.918358 67 47 52
20.502750 10.102860 70.920090 66 48 52
20.503880 10.256305 70.923988 66 48 52
20.505726 10.410130 70.930374 65 47 51
20.508364 10.564391 70.939507 64 46 49
20.511847 10.719132 70.951553 63 44 47
20.516205 10.874391 70.966629 62 42 45
20.521446 11.030188 70.984756 63 42 45
20.527554 11.186536 71.005882 65 43 46
20.534487 11.343431 71.029869 67 43 46
20.542187 11.500857 71.056503 66 42 46
20.550570 11.658788 71.085503 65 42 45
20.559542 11.817181 71.116531 65 41 45
20.568991 11.975985 71.149216 64 41 45
20.578796 12.135141 71.183136 62 41 45
20.588839 12.294584 71.217865 62 41 45
20.598988 12.454243 71.252975 62 41 46
20.609123 12.614044 71.288040 62 40 45
20.619127 12.773914 71.322639 61 39 44
20.628893 12.933784 71.356422 61 38 43
20.638323 13.093587 71.389038 60 38 42
20.647333 13.253262 71.420204 60 37 42
20.655855 13.412753 71.449684 59 38 42
20.663837 13.572018 71.477295 60 39 43
20.671242 13.731017 71.502907 60 40 43
20.678045 13.889723 71.526443 60 41 43
20.684244 14.048120 71.547882 59 41 43
20.689844 14.206198 71.567253 59 41 42
20.694868 14.363960 71.584633 58 41 42
20.699350 14.521418 71.600143 58 40 41
20.703344 14.678594 71.613945 57 40 41
20.706903 14.835520 71.626259 56 39 41
20.710098 14.992235 71.637314 56 39 41
20.713009 15.148789 71.647385 55 39 40
20.715719 15.305240 71.656761 55 39 40
20.718325 15.461652 71.665771 54 39 40
20.720919 15.618093 71.674744 54 38 39
20.723602 15.774644 71.684021 53 39 39
20.726479 15.931382 71.693977 53 39 39
20.729649 16.088388 71.704933 53 38 39
20.733200 16.245745 71.717224 53 39 39
20.737228 16.403528 71.731163 52 38 38
20.741808 16.561813 71.747002 51 37 38
20.747004 16.720663 71.764969 50 37 37
20.752869 16.880135 71.785255 50 37 36
20.759432 17.040268 71.807961 49 37 36
20.766712 17.201090 71.833145 49 37 36
20.774698 17.362614 71.860771 49 37 36
20.783367 17.524830 71.890755 49 37 36
20.792667 17.687714 71.922920 49 36 35
20.802532 17.851221 71.957047 50 36 36
20.812878 18.015291 71.992836 51 37 37
20.823603 18.179848 72.029930 51 37 37
20.834595 18.344799 72.067955 52 38 37
20.845734 18.510042 72.106483 53 38 38
20.856897 18.675476 72.145096 53 38 39
20.867958 18.840984 72.183357 53 39 39
20.878803 19.006458 72.220871 53 40 40
20.889324 19.171799 72.257263 53 40 40
20.899431 19.336912 72.292229 53 41 41
20.909054 19.501724 72.325508 53 41 41
20.918146 19.666182 72.356964 53 42 41
20.926689 19.830256 72.386513 52 41 40
20.934696 19.993942 72.414207 52 41 40
20.942209 20.157276 72.440201 52 40 41
20.949305 20.320314 72.464745 51 40 41
20.956091 20.483156 72.488213 51 39 41
20.962706 20.645931 72.511093 51 38 40
20.969316 20.808802 72.533966 51 38 40
20.976114 20.971956 72.557472 52 39 40
20.983307 21.135611 72.582352 53 39 41
20.991121 21.300003 72.609390 53 39 41
20.999790 21.465385 72.639374 53 39 41
21.009552 21.632023 72.673141 53 39 41
21.020638 21.800179 72.711487 52 39 40
21.033270 21.970114 72.755180 51 38 39
21.047657 22.142084 72.804947 51 38 39
21.063986 22.316328 72.861427 50 38 38
21.082422 22.493063 72.925201 50 37 37
21.103100 22.672480 72.996727 50 37 37
21.126125 22.854748 73.076378 50 37 37
21.151577 23.039999 73.164413 49 37 37
21.179497 23.228336 73.260986 49 36 36
21.209896 23.419828 73.366142 47 36 36
21.242758 23.614511 73.479805 46 36 35
21.278034 23.812387 73.601830 45 37 35
21.315655 24.013432 73.731964 44 37 36
21.355513 24.217571 73.869835 44 37 36
21.397495 24.424734 74.015060 44 37 37
21.441463 24.634800 74.167145 43 36 37
21.487259 24.847639 74.325554 43 35 38
21.534718 25.063093 74.489716 43 35 37
21.583647 25.280979 74.658966 42 34 37
21.633848 25.501093 74.832611 42 35 36
21.685102 25.723206 75.009903 42 35 36
21.737181 25.947067 75.190048 42 35 36
21.789829 26.172388 75.372162 42 35 35
21.842781 26.398863 75.555328 42 35 35
21.895744 26.626139 75.738525 42 35 35
21.948400 26.853832 75.920670 42 35 35
22.000410 27.081512 76.100571 42 35 35
22.051409 27.308718 76.276978 41 34 35
22.101000 27.534927 76.448509 40 33 34
22.148769 27.759598 76.613754 39 33 34
22.194283 27.982132 76.771187 39 33 34
20.750227 1.395071 71.244881 71 44 48
20.725327 1.546793 71.159386 70 44 47
20.701807 1.698259 71.078636 69 44 47
20.679707 1.849504 71.002754 68 44 48
20.659071 2.000563 70.931900 67 44 49
20.639931 2.151474 70.866188 66 45 50
20.622320 2.302271 70.805725 65 45 50
20.606268 2.452994 70.750603 65 46 51
20.591789 2.603677 70.700890 65 46 51
20.578901 2.754360 70.656639 66 46 51
20.567602 2.905076 70.617844 67 47 51
20.557886 3.055860 70.584488 67 47 50
20.549734 3.206744 70.556496 68 47 50
20.543114 3.357758 70.533768 69 48 50
20.537987 3.508929 70.516167 69 48 50
20.534300 3.660281 70.503510 70 48 50
20.531992 3.811834 70.495583 70 47 51
20.530991 3.963606 70.492142 70 46 51
20.531219 4.115609 70.492928 68 46 51
20.532591 4.267853 70.497635 67 45 50
20.535015 4.420343 70.505959 66 45 49
20.538399 4.573084 70.517578 64 44 48
20.542652 4.726075 70.532181 62 43 48
20.547678 4.879312 70.549438 62 44 48
20.553383 5.032790 70.569023 62 44 47
20.559675 5.186500 70.590630 63 43 47
20.566465 5.340433 70.613937 63 43 46
20.573666 5.494576 70.638664 63 42 45
20.581186 5.648913 70.664490 64 42 45
20.588947 5.803429 70.691132 65 43 45
20.596859 5.958105 70.718300 66 43 45
20.604837 6.112916 70.745697 66 43 46
20.612801 6.267841 70.773033 66 43 46
20.620659 6.422852 70.800018 66 43 45
20.628332 6.577920 70.826363 65 42 45
20.635733 6.733012 70.851768 65 43 44
20.642780 6.888096 70.875969 66 44 46
20.649397 7.043138 70.898689 66 45 46
20.655508 7.198102 70.919670 65 44 46
20.661047 7.352951 70.938683 65 45 47
20.665953 7.507654 70.955528 66 45 49
20.670181 7.662177 70.970047 65 45 49
20.673697 7.816494 70.982117 64 45 48
20.676476 7.970579 70.991661 63 43 46
20.678520 8.124415 70.998672 62 42 45
20.679836 8.277992 71.003197 63 41 44
20.680460 8.431305 71.005341 64 41 45
20.680439 8.584360 71.005264 64 42 45
20.679836 8.737169 71.003197 65 43 46
20.678741 8.889757 70.999435 65 43 47
20.677250 9.042156 70.994316 65 43 47
20.675476 9.194407 70.988228 64 43 47
20.673542 9.346559 70.981590 64 43 48
20.671583 9.498672 70.974861 64 44 49
20.669735 9.650805 70.968513 65 45 50
20.668135 9.803031 70.963020 65 46 51
20.666920 9.955419 70.958847 66 46 52
20.666216 10.108037 70.956429 66 48 52
20.666140 10.260958 70.956169 64 48 51
20.666792 10.414244 70.958405 63 47 50
20.668257 10.567955 70.963440 62 45 48
20.670597 10.722142 70.971474 62 44 46
20.673849 10.876844 70.982643 61 43 45
20.678032 11.032090 70.997002 62 42 45
20.683134 11.187896 71.014519 65 43 46
20.689121 11.344262 71.035072 66 43 46
20.695936 11.501177 71.058472 65 43 46
20.703503 11.658616 71.084457 64 42 45
20.711729 11.816544 71.112701 64 41 45
20.720503 11.974910 71.142822 63 41 45
20.729708 12.133657 71.174431 62 41 46
20.739220 12.292724 71.207085 62 41 46
20.748915 12.452040 71.240372 62 41 46
20.758663 12.611532 71.273842 62 41 46
20.768345 12.771129 71.307091 61 40 44
20.777857 12.930762 71.339745 60 39 43
20.787092 13.090363 71.371452 60 38 42
20.795967 13.249869 71.401924 59 37 42
20.804411 13.409230 71.430916 59 38 42
20.812365 13.568397 71.458229 59 39 43
20.819790 13.727332 71.483719 60 40 43
20.826662 13.886009 71.507317 60 41 43
20.832972 14.044409 71.528984 59 41 43
20.838726 14.202522 71.548737 58 41 42
20.843945 14.360353 71.566658 58 41 42
20.848663 14.517913 71.582863 57 40 41
20.852928 14.675222 71.597496 56 40 40
20.856796 14.832314 71.610779 56 40 40
20.860336 14.989225 71.622932 55 39 40
20.863625 15.146008 71.634224 55 39 40
20.866747 15.302716 71.644943 54 39 39
20.869791 15.459414 71.655396 53 38 39
20.872852 15.616169 71.665909 54 38 39
20.876028 15.773056 71.676811 53 38 38
20.879417 15.930154 71.688454 53 38 38
20.883116 16.087538 71.701149 53 38 38
20.887213 16.245289 71.715210 53 38 38
20.891792 16.403479 71.730942 52 38 38
20.896927 16.562176 71.748573 51 37 38
20.902681 16.721445 71.768326 50 37 37
20.909098 16.881332 71.790352 50 37 37
20.916206 17.041880 71.814758 49 37 37
20.924015 17.203110 71.841576 48 37 37
20.932512 17.365025 71.870750 48 37 36
20.941668 17.527617 71.902184 49 37 37
20.951427 17.690855 71.935692 49 37 36
20.961718 17.854689 71.971024 50 37 36
20.972450 18.019054 72.007874 51 37 36
20.983517 18.183870 72.045868 51 37 36
20.994802 18.349039 72.084618 51 38 37
21.006178 18.514456 72.123680 52 38 37
21.017515 18.680006 72.162605 52 38 38
21.028685 18.845573 72.200951 53 39 39
21.039564 19.011045 72.238304 54 40 39
21.050043 19.176313 72.274284 54 40 40
21.060024 19.341280 72.308556 54 41 41
21.069439 19.505869 72.340881 53 42 41
21.078236 19.670019 72.371078 53 42 41
21.086395 19.833702 72.399101 52 42 41
21.093931 19.996916 72.424973 52 42 42
21.100891 20.159687 72.448868 52 42 42
21.107351 20.322083 72.471046 52 41 42
21.113426 20.484201 72.491913 51 40 41
21.119263 20.646173 72.511948 51 39 41
21.125032 20.808168 72.531761 51 39 40
21.130939 20.970385 72.552040 51 39 40
21.137201 21.133041 72.573532 52 39 41
21.144051 21.296387 72.597054 52 39 41
21.151737 21.460680 72.623444 53 39 41
21.160505 21.626192 72.653557 52 39 41
21.170597 21.793198 72.688202 52 39 40
21.182245 21.961966 72.728195 51 39 39
21.195665 22.132757 72.774269 51 39 39
21.211052 22.305813 72.827103 50 38 38
21.228573 22.481358 72.887253 50 38 37
21.248367 22.659590 72.955223 50 38 37
21.270548 22.840673 73.031372 50 38 37
21.295189 23.024746 73.115982 49 37 37
21.322332 23.211908 73.209175 49 36 36
21.351988 23.402227 73.310997 48 36 36
21.384138 23.595736 73.421379 47 36 36
21.418732 23.792435 73.540161 45 37 35
21.455690 23.992292 73.667053 44 37 36
21.494904 24.195232 73.801689 44 37 36
21.536255 24.401175 73.943665 44 37 37
21.579596 24.609999 74.092476 43 37 37
21.624767 24.821568 74.247574 43 36 37
21.671597 25.035719 74.408356 42 35 37
21.719887 25.252262 74.574158 42 34 37
21.769434 25.470991 74.744278 42 34 36
21.820021 25.691677 74.917961 41 34 35
21.871410 25.914064 75.094406 41 34 35
21.923351 26.137867 75.272743 42 35 35
21.975574 26.362780 75.452049 42 35 35
22.027788 26.588453 75.631325 42 35 35
22.079679 26.814507 75.809486 42 35 35
22.130909 27.040520 75.985382 42 35 35
22.181112 27.266031 76.157753 42 35 35
22.229906 27.490543 76.325279 41 34 35
22.276880 27.713514 76.486572 40 34 35
22.321606 27.934364 76.640129 39 33 35
20.943089 1.551561 71.378761 70 44 47
20.918278 1.703409 71.294205 69 44 47
20.894835 1.855014 71.214294 68 44 47
20.872795 2.006410 71.139183 66 44 48
20.852207 2.157632 71.069016 65 45 49
20.833109 2.308716 71.003929 64 44 49
20.815531 2.459699 70.944016 64 45 50
20.799501 2.610619 70.889389 64 45 50
20.785044 2.761512 70.840103 64 46 50
20.772163 2.912413 70.796211 66 46 50
20.760866 3.063359 70.757706 66 46 50
20.751139 3.214382 70.724548 67 47 49
20.742962 3.365514 70.696686 68 47 49
20.736307 3.516783 70.674004 68 46 49
20.731125 3.668216 70.656342 69 46 50
20.727367 3.819834 70.643539 70 46 50
20.724970 3.971658 70.635361 69 45 50
20.723858 4.123703 70.631569 68 45 49
20.723955 4.275981 70.631905 66 44 48
20.725178 4.428501 70.636070 65 43 48
20.727432 4.581267 70.643761 64 43 48
20.730639 4.734283 70.654678 62 42 47
20.734695 4.887547 70.668510 61 43 47
20.739513 5.041056 70.684929 62 43 47
20.745003 5.194803 70.703636 62 42 47
20.751070 5.348780 70.724312 62 42 46
20.757626 5.502976 70.746658 62 41 45
20.764582 5.657377 70.770363 63 41 44
20.771845 5.811966 70.795120 64 41 44
20.779325 5.966725 70.820618 66 42 44
20.786930 6.121630 70.846542 66 42 44
20.794569 6.276657 70.872574 66 42 44
20.802147 6.431777 70.898399 65 42 44
20.809568 6.586960 70.923698 64 41 43
20.816740 6.742170 70.948135 64 42 43
20.823568 6.897372 70.971413 65 44 45
20.829964 7.052527 70.993202 65 45 46
20.835842 7.207598 71.013237 64 44 45
20.841122 7.362545 71.031235 64 44 46
20.845737 7.517328 71.046967 65 45 48
20.849628 7.671913 71.060226 65 45 48
20.852757 7.826269 71.070885 64 44 47
20.855087 7.980366 71.078827 62 43 46
20.856613 8.134183 71.084038 62 42 45
20.857344 8.287706 71.086525 62 41 44
20.857306 8.440929 71.086395 63 41 45
20.856546 8.593855 71.083809 64 42 45
20.855135 8.746496 71.078995 64 42 45
20.853157 8.898874 71.072250 64 42 45
20.850714 9.051022 71.063927 64 42 46
20.847927 9.202981 71.054428 63 42 46
20.844927 9.354804 71.044205 63 42 47
20.841852 9.506549 71.033722 63 43 48
20.838848 9.658282 71.023491 64 44 49
20.836065 9.810074 71.014000 65 45 50
20.833645 9.961999 71.005753 65 46 51
20.831726 10.114131 70.999207 65 47 52
20.830435 10.266545 70.994812 65 48 51
20.829884 10.419311 70.992928 63 46 50
20.830164 10.572490 70.993889 62 45 48
20.831347 10.726138 70.997917 61 44 47
20.833481 10.880300 71.005188 61 43 45
20.836586 11.035008 71.015778 62 42 45
20.840662 11.190283 71.029671 64 43 46
20.845680 11.346130 71.046768 65 43 46
20.851589 11.502542 71.066910 64 43 45
20.858313 11.659497 71.089828 63 42 45
20.865763 11.816962 71.115219 63 41 45
20.873831 11.974892 71.142715 62 42 45
20.882402 12.133231 71.171928 62 42 45
20.891348 12.291917 71.202415 62 41 46
20.900547 12.450885 71.233765 62 41 46
20.909868 12.610063 71.265533 62 41 46
20.919189 12.769377 71.297302 61 40 45
20.928400 12.928761 71.328705 60 39 44
20.937399 13.088145 71.359367 59 38 43
20.946093 13.247471 71.389000 59 37 42
20.954411 13.406683 71.417343 59 38 42
20.962292 13.565736 71.444206 59 39 43
20.969694 13.724590 71.469437 60 40 43
20.976591 13.883218 71.492943 59 41 43
20.982971 14.041603 71.514687 59 41 43
20.988842 14.199737 71.534698 58 41 42
20.994221 14.357619 71.553032 57 41 41
20.999142 14.515265 71.569801 56 40 40
21.003649 14.672694 71.585167 55 40 40
21.007803 14.829940 71.599319 55 40 40
21.011667 14.987041 71.612495 55 39 39
21.015318 15.144044 71.624939 54 39 39
21.018841 15.301007 71.636940 53 38 38
21.022318 15.457990 71.648796 53 38 39
21.025848 15.615062 71.660820 53 38 39
21.029520 15.772292 71.673340 53 38 39
21.033432 15.929758 71.686668 53 37 38
21.037672 16.087532 71.701118 52 37 38
21.042328 16.245691 71.716995 52 37 38
21.047482 16.404306 71.734558 52 37 38
21.053200 16.563438 71.754044 51 37 37
21.059536 16.723148 71.775642 51 37 37
21.066536 16.883482 71.799492 50 37 38
21.074219 17.044472 71.825684 49 37 38
21.082590 17.206135 71.854210 49 37 37
21.091633 17.368477 71.885033 49 37 37
21.101311 17.531477 71.918015 49 37 37
21.111565 17.695101 71.952965 49 37 37
21.122316 17.859299 71.989609 50 37 37
21.133472 18.024000 72.027634 50 38 36
21.144920 18.189114 72.066650 51 37 36
21.156534 18.354542 72.106232 51 38 37
21.168184 18.520170 72.145935 51 38 37
21.179735 18.685884 72.185303 52 38 37
21.191053 18.851559 72.223877 53 39 38
21.202007 19.017076 72.261215 54 39 38
21.212488 19.182323 72.296928 54 40 39
21.222389 19.347198 72.330681 54 41 40
21.231644 19.511623 72.362221 53 42 40
21.240194 19.675531 72.391365 53 42 41
21.248024 19.838894 72.418045 52 42 41
21.255142 20.001703 72.442314 52 42 41
21.261604 20.163992 72.464333 52 42 42
21.267488 20.325823 72.484383 52 42 42
21.272913 20.487299 72.502876 51 40 42
21.278030 20.648558 72.520317 51 39 41
21.283026 20.809772 72.537346 50 39 41
21.288105 20.971142 72.554657 50 39 40
21.293501 21.132898 72.573044 50 39 41
21.299454 21.295294 72.593330 51 39 41
21.306221 21.458597 72.616402 51 39 40
21.314060 21.623085 72.643112 51 39 40
21.323221 21.789042 72.674339 51 39 39
21.333946 21.956739 72.710892 51 39 39
21.346455 22.126448 72.753525 50 39 38
21.360952 22.298412 72.802933 50 39 38
21.377611 22.472862 72.859711 50 39 38
21.396570 22.649994 72.924332 50 39 38
21.417948 22.829981 72.997185 49 38 38
21.441816 23.012957 73.078537 49 37 37
21.468218 23.199020 73.168526 48 37 37
21.497162 23.388237 73.267166 47 36 37
21.528625 23.580637 73.374397 46 36 36
21.562553 23.776220 73.490036 45 36 35
21.598866 23.974945 73.613792 44 36 35
21.637440 24.176733 73.745270 44 36 36
21.678160 24.381500 73.884048 44 37 36
21.720871 24.589121 74.029617 43 36 37
21.765406 24.799448 74.181404 43 36 37
21.811588 25.012316 74.338799 42 35 37
21.859215 25.227531 74.501129 42 34 36
21.908081 25.444887 74.667679 42 34 35
21.957962 25.664145 74.837677 41 34 34
22.008621 25.885050 75.010330 41 34 34
22.059805 26.107323 75.184784 41 34 34
22.111244 26.330650 75.360092 41 34 34
22.162647 26.554691 75.535294 42 35 34
22.213705 26.779072 75.709305 42 35 35
22.264080 27.003374 75.880997 42 35 35
22.313417 27.227150 76.049149 42 35 35
22.361338 27.449911 76.212471 41 34 35
22.407434 27.671124 76.369576 40 34 35
21.135904 1.708578 71.510529 68 44 47
21.111038 1.860539 71.426399 67 44 47
21.087530 2.012267 71.346863 65 44 48
21.065428 2.163797 71.272087 65 44 48
21.044779 2.315164 71.202217 64 44 48
21.025621 2.466404 71.137405 63 44 49
21.007992 2.617556 71.077759 63 45 50
20.991922 2.768656 71.023392 63 45 50
20.977430 2.919742 70.974358 65 45 50
20.964525 3.070848 70.930695 66 45 50
20.953209 3.222011 70.892410 66 46 49
20.943470 3.373262 70.859459 67 46 48
20.935287 3.524634 70.831779 67 45 49
20.928625 3.676153 70.809235 68 45 49
20.923435 3.827844 70.791672 68 45 49
20.919666 3.979730 70.778915 67 44 48
20.917250 4.131829 70.770744 67 44 47
20.916115 4.284154 70.766907 66 43 47
20.916182 4.436718 70.767128 64 43 47
20.917364 4.589527 70.771133 63 42 47
20.919577 4.742588 70.778618 62 42 47
20.922728 4.895900 70.789284 61 42 47
20.926727 5.049462 70.802811 62 42 47
20.931480 5.203271 70.818893 62 41 47
20.936895 5.357318 70.837212 61 41 46
20.942877 5.511594 70.857452 62 40 45
20.949335 5.666085 70.879303 62 40 44
20.956169 5.820775 70.902420 63 40 43
20.963284 5.975645 70.926491 65 40 43
20.970581 6.130672 70.951187 66 41 43
20.977957 6.285829 70.976135 66 41 43
20.985310 6.441086 71.001015 65 41 43
20.992533 6.596410 71.025452 64 42 42
20.999523 6.751765 71.049110 64 42 43
21.006176 6.907110 71.071609 64 44 44
21.012388 7.062405 71.092636 64 44 44
21.018068 7.217607 71.111847 63 43 45
21.023121 7.372672 71.128944 63 44 46
21.027470 7.527559 71.143661 63 44 47
21.031046 7.682228 71.155762 63 44 47
21.033802 7.836642 71.165085 63 43 46
21.035698 7.990770 71.171501 62 42 45
21.036722 8.144588 71.174957 62 42 45
21.036873 8.298078 71.175476 62 41 44
21.036180 8.451229 71.173134 62 41 44
21.034691 8.604045 71.168091 63 41 44
21.032473 8.756536 71.160583 63 41 44
21.029613 8.908723 71.150909 63 42 44
21.026222 9.060639 71.139442 63 42 45
21.022423 9.212326 71.126579 63 42 45
21.018353 9.363838 71.112808 62 42 46
21.014158 9.515234 71.098625 63 43 47
21.009996 9.666585 71.084541 64 43 48
21.006023 9.817962 71.071098 65 44 49
21.002396 9.969444 71.058823 65 45 51
20.999254 10.121110 71.048203 65 47 51
20.996742 10.273036 71.039696 64 47 51
20.994978 10.425298 71.033722 63 46 50
20.994064 10.577962 71.030632 62 45 48
20.994080 10.731089 71.030685 61 43 46
20.995079 10.884725 71.034065 61 42 45
20.997095 11.038910 71.040886 61 42 45
21.000128 11.193667 71.051147 63 43 46
21.004158 11.349007 71.064789 64 43 47
21.009136 11.504925 71.081627 63 43 46
21.014996 11.661405 71.101456 62 42 46
21.021643 11.818413 71.123947 62 41 45
21.028978 11.975909 71.148766 62 42 45
21.036880 12.133841 71.175499 62 42 45
21.045229 12.292147 71.203751 62 42 45
21.053896 12.450763 71.233070 62 42 45
21.062750 12.609618 71.263023 61 41 45
21.071671 12.768642 71.293205 61 41 44
21.080540 12.927766 71.323219 60 40 43
21.089256 13.086924 71.352707 59 39 42
21.097727 13.246055 71.381371 59 38 42
21.105875 13.405104 71.408936 59 39 42
21.113640 13.564025 71.435204 59 39 42
21.120975 13.722781 71.460022 59 40 42
21.127853 13.881344 71.483292 59 41 42
21.134264 14.039698 71.504990 58 41 42
21.140211 14.197832 71.525108 57 41 42
21.145714 14.355752 71.543724 56 40 41
21.150805 14.513469 71.560944 55 40 40
21.155527 14.671005 71.576927 55 40 40
21.159939 14.828393 71.591850 55 40 39
21.164104 14.985671 71.605949 54 39 39
21.168102 15.142889 71.619476 53 39 39
21.172012 15.300101 71.632698 53 38 38
21.175917 15.457367 71.645912 53 38 39
21.179907 15.614753 71.659409 53 38 39
21.184076 15.772331 71.673515 53 38 39
21.188513 15.930170 71.688522 52 37 38
21.193304 16.088345 71.704735 52 37 38
21.198532 16.246923 71.722427 52 36 37
21.204275 16.405975 71.741859 52 36 37
21.210592 16.565559 71.763229 51 36 37
21.217533 16.725729 71.786713 51 36 37
21.225138 16.886526 71.812439 51 37 38
21.233421 17.047981 71.840469 51 37 38
21.242382 17.210106 71.870789 50 37 37
21.251999 17.372896 71.903328 50 37 37
21.262232 17.536333 71.937943 50 37 37
21.273010 17.700378 71.974419 49 37 37
21.284258 17.864969 72.012466 50 37 37
21.295868 18.030035 72.051750 50 38 36
21.307728 18.195482 72.091873 50 38 36
21.319706 18.361204 72.132401 50 38 36
21.331667 18.527084 72.172867 50 38 37
21.343468 18.693001 72.212799 52 38 37
21.354971 18.858826 72.251717 53 39 38
21.366045 19.024437 72.289185 53 39 38
21.376568 19.189714 72.324791 53 40 39
21.386438 19.354555 72.358185 53 40 39
21.395578 19.518871 72.389107 53 41 40
21.403933 19.682602 72.417374 52 42 40
21.411484 19.845709 72.442924 51 42 41
21.418247 20.008188 72.465805 51 42 41
21.424269 20.170071 72.486176 51 42 42
21.429642 20.331421 72.504349 51 41 42
21.434481 20.492344 72.520729 50 40 42
21.438950 20.652979 72.535851 49 39 41
21.443237 20.813503 72.550354 49 38 41
21.447561 20.974127 72.564980 49 38 40
21.452158 21.135080 72.580536 49 38 40
21.457285 21.296629 72.597885 50 38 40
21.463203 21.459042 72.617905 50 38 40
21.470181 21.622610 72.641518 50 38 39
21.478479 21.787617 72.669594 50 38 39
21.488342 21.954346 72.702965 50 39 38
21.500004 22.123068 72.742416 50 39 38
21.513670 22.294037 72.788651 50 40 39
21.529518 22.467485 72.842278 50 40 38
21.547695 22.643608 72.903770 50 40 38
21.568314 22.822582 72.973534 49 39 38
21.591450 23.004541 73.051811 48 38 37
21.617146 23.189581 73.138756 47 38 37
21.645409 23.377768 73.234375 46 37 37
21.676210 23.569128 73.338593 46 36 36
21.709492 23.763653 73.451195 44 35 35
21.745171 23.961302 73.571899 44 35 35
21.783117 24.161989 73.700294 43 35 35
21.823208 24.365623 73.835930 43 35 35
21.865282 24.572071 73.978287 43 35 36
21.909172 24.781187 74.126785 43 35 36
21.954689 24.992796 74.280785 42 35 36
22.001633 25.206701 74.439613 42 34 35
22.049786 25.422688 74.602531 42 34 35
22.098927 25.640520 74.768791 41 34 34
22.148811 25.859941 74.937569 40 34 33
22.199188 26.080667 75.108017 40 34 33
22.249788 26.302391 75.279213 41 34 33
22.300322 26.524773 75.450188 41 34 33
22.350481 26.747444 75.619888 42 34 34
22.399935 26.969999 75.787209 42 34 35
22.448330 27.191992 75.950951 42 34 35
22.495296 27.412951 76.109856 41 34 35
21.328094 1.866059 71.638298 67 45 48
21.303055 2.018115 71.554192 65 44 48
21.279383 2.169947 71.474678 65 44 48
21.257130 2.321592 71.399933 64 44 49
21.236349 2.473087 71.330132 64 44 49
21.217085 2.624467 71.265434 63 44 50
21.199377 2.775773 71.205956 64 45 50
21.183252 2.927041 71.151794 65 45 51
21.168732 3.078309 71.103020 66 45 51
21.155827 3.229613 71.059669 66 45 49
21.144533 3.380988 71.021744 66 45 49
21.134842 3.532467 70.989182 66 44 48
21.126722 3.684080 70.961914 67 44 48
21.120136 3.835853 70.939789 67 44 48
21.115036 3.987813 70.922661 67 44 47
21.111366 4.139978 70.910332 66 43 46
21.109053 4.292367 70.902565 65 43 46
21.108025 4.444992 70.899109 64 42 46
21.108198 4.597865 70.899696 63 42 46
21.109489 4.750991 70.904030 62 41 47
21.111807 4.904374 70.911812 62 41 47
21.115059 5.058015 70.922737 62 41 47
21.119148 5.211910 70.936478 62 41 47
21.123983 5.366054 70.952713 62 41 46
21.129467 5.520436 70.971130 61 40 45
21.135496 5.675045 70.991379 62 40 44
21.141970 5.829864 71.013130 63 39 43
21.148787 5.984873 71.036026 64 40 42
21.155832 6.140048 71.059692 65 40 42
21.163002 6.295362 71.083771 66 41 42
21.170181 6.450782 71.107887 66 41 42
21.177254 6.606273 71.131645 65 42 43
21.184103 6.761795 71.154648 64 42 43
21.190615 6.917305 71.176521 63 42 44
21.196676 7.072761 71.196877 63 42 44
21.202181 7.228114 71.215370 63 42 45
21.207027 7.383318 71.231651 62 42 46
21.211126 7.538326 71.245415 62 42 45
21.214403 7.693095 71.256424 62 42 45
21.216795 7.847584 71.264458 62 43 46
21.218264 8.001760 71.269386 61 42 45
21.218784 8.155594 71.271141 61 41 44
21.218361 8.309065 71.269714 61 41 44
21.217014 8.462160 71.265190 61 41 44
21.214792 8.614882 71.257729 61 41 44
21.211763 8.767238 71.247559 62 41 44
21.208021 8.919250 71.234985 62 42 45
21.203678 9.070951 71.220398 62 42 45
21.198862 9.222383 71.204224 62 42 46
21.193718 9.373600 71.186943 62 42 46
21.188402 9.524665 71.169090 63 43 47
21.183079 9.675651 71.151207 64 43 48
21.177914 9.826632 71.133858 64 44 49
21.173071 9.977690 71.117592 65 45 50
21.168705 10.128906 71.102928 64 46 50
21.164967 10.280365 71.090370 63 46 50
21.161983 10.432141 71.080353 63 46 49
21.159866 10.584308 71.073242 62 45 47
21.158707 10.736928 71.069344 61 43 46
21.158564 10.890057 71.068863 60 42 44
21.159477 11.043735 71.071938 60 41 44
21.161457 11.197989 71.078583 62 43 46
21.164482 11.352833 71.088745 63 43 47
21.168514 11.508268 71.102287 63 43 47
21.173487 11.664281 71.118988 62 42 46
21.179312 11.820840 71.138557 62 41 45
21.185888 11.977909 71.160645 62 41 45
21.193096 12.135435 71.184853 62 42 45
21.200815 12.293362 71.210785 61 42 45
21.208914 12.451623 71.237984 61 42 44
21.217268 12.610152 71.266045 61 41 44
21.225748 12.768879 71.294525 60 41 43
21.234240 12.927736 71.323051 60 40 42
21.242634 13.086656 71.351242 59 39 42
21.250837 13.245579 71.378799 59 39 42
21.258772 13.404450 71.405449 59 39 42
21.266376 13.563227 71.430992 59 40 42
21.273603 13.721869 71.455269 60 41 43
21.280424 13.880351 71.478180 59 41 42
21.286825 14.038655 71.499680 58 41 41
21.292810 14.196775 71.519783 57 41 41
21.298401 14.354715 71.538559 57 41 41
21.303627 14.512488 71.556114 56 41 40
21.308535 14.670118 71.572594 56 40 40
21.313177 14.827635 71.588188 55 40 40
21.317623 14.985080 71.603119 54 39 39
21.321945 15.142502 71.617645 53 39 38
21.326225 15.299956 71.632019 52 38 38
21.330544 15.457500 71.646523 53 39 39
21.334988 15.615198 71.661453 53 39 39
21.339647 15.773120 71.677101 53 39 39
21.344610 15.931336 71.693771 52 38 38
21.349957 16.089912 71.711731 52 37 38
21.355764 16.248917 71.731232 52 36 37
21.362104 16.408415 71.752525 52 36 37
21.369032 16.568462 71.775803 52 36 37
21.376595 16.729105 71.801201 52 35 37
21.384821 16.890383 71.828835 51 36 37
21.393724 17.052317 71.858742 51 36 37
21.403297 17.214918 71.890892 51 36 37
21.413509 17.378180 71.925194 50 36 37
21.424316 17.542074 71.961494 49 36 36
21.435648 17.706560 71.999550 49 37 37
21.447412 17.871569 72.039070 49 37 37
21.459509 18.037027 72.079697 50 38 36
21.471809 18.202835 72.121017 50 38 37
21.484182 18.368883 72.162575 50 38 37
21.496485 18.535049 72.203903 50 38 37
21.508574 18.701206 72.244499 51 39 38
21.520300 18.867224 72.283890 52 38 38
21.531530 19.032970 72.321609 53 39 38
21.542139 19.198326 72.357246 53 39 38
21.552023 19.363184 72.390450 53 40 39
21.561098 19.527452 72.420929 53 41 39
21.569313 19.691067 72.448517 52 41 40
21.576645 19.853987 72.473145 52 41 40
21.583109 20.016211 72.494858 51 41 41
21.588757 20.177763 72.513824 51 42 42
21.593679 20.338717 72.530365 51 41 42
21.598005 20.499172 72.544891 50 40 42
21.601894 20.659275 72.557961 49 40 42
21.605549 20.819204 72.570229 49 39 41
21.609190 20.979177 72.582458 49 38 40
21.613066 21.139433 72.595482 49 38 40
21.617439 21.300232 72.610168 49 38 40
21.622581 21.461861 72.627441 49 38 39
21.628769 21.624607 72.648224 49 37 39
21.636271 21.788767 72.673424 49 37 38
21.645342 21.954626 72.703888 50 38 38
21.656219 22.122463 72.740425 50 39 38
21.669113 22.292532 72.783737 50 40 38
21.684208 22.465067 72.834435 50 40 38
21.701653 22.640274 72.893036 50 40 38
21.721561 22.818319 72.959900 49 40 38
21.744007 22.999338 73.035294 48 39 38
21.769037 23.183434 73.119362 46 38 38
21.796648 23.370661 73.212112 46 37 38
21.826815 23.561043 73.313431 45 36 37
21.859472 23.754572 73.423126 44 36 36
21.894529 23.951197 73.540878 44 36 35
21.931856 24.150829 73.666252 44 35 35
21.971319 24.353371 73.798805 44 34 34
22.012758 24.558687 73.937988 44 35 35
22.055990 24.766619 74.083206 43 35 35
22.100828 24.976990 74.233810 43 35 35
22.147062 25.189600 74.389107 42 35 35
22.194477 25.404228 74.548363 42 34 34
22.242840 25.620636 74.710808 41 34 33
22.291910 25.838566 74.875626 40 34 32
22.341434 26.057735 75.041977 40 34 32
22.391142 26.277836 75.208939 40 34 32
22.440746 26.498535 75.375549 40 34 32
22.489941 26.719465 75.540787 41 34 33
22.538404 26.940233 75.703568 41 34 34
22.585787 27.160404 75.862724 41 34 34
22.631723 27.379513 76.017014 40 34 34
21.519159 2.023932 71.760475 66 45 49
21.493870 2.176064 71.676140 65 44 49
21.469976 2.327982 71.596458 65 44 50
21.447544 2.479727 71.521652 64 44 50
21.426620 2.631334 71.451874 64 44 50
21.407259 2.782843 71.387314 65 45 51
21.389498 2.934293 71.328087 65 46 51
21.373367 3.085724 71.274300 66 45 51
21.358887 3.237173 71.226006 66 45 50
21.346064 3.388676 71.183243 66 44 49
21.334892 3.540269 71.145988 66 43 48
21.325356 3.691985 71.114189 66 43 48
21.317421 3.843853 71.087730 66 43 47
21.311047 3.995899 71.066475 66 43 47
21.306181 4.148147 71.050247 66 43 46
21.302757 4.300616 71.038826 65 43 45
21.300705 4.453322 71.031982 64 43 45
21.299942 4.606279 71.029442 63 42 45
21.300386 4.759494 71.030922 62 41 46
21.301947 4.912972 71.036125 63 42 47
21.304527 5.066716 71.044731 63 41 47
21.308033 5.220723 71.056427 63 41 47
21.312366 5.374990 71.070869 62 41 46
21.317421 5.529506 71.087730 62 41 44
21.323092 5.684259 71.106644 62 40 43
21.329269 5.839232 71.127243 63 40 42
21.335846 5.994406 71.149170 64 40 42
21.342699 6.149754 71.172028 65 41 42
21.349712 6.305248 71.195412 66 41 42
21.356760 6.460854 71.218910 66 41 42
21.363718 6.616532 71.242111 65 41 43
21.370457 6.772243 71.264587 64 41 43
21.376854 6.927938 71.285919 63 41 43
21.382784 7.083570 71.305695 62 41 43
21.388126 7.239090 71.323517 62 41 44
21.392776 7.394446 71.339020 61 42 45
21.396629 7.549589 71.351868 62 42 45
21.399605 7.704471 71.361794 62 42 45
21.401634 7.859048 71.368553 62 42 45
21.402668 8.013282 71.372002 61 42 45
21.402681 8.167141 71.372055 60 41 44
21.401674 8.320603 71.368690 60 40 44
21.399666 8.473655 71.361992 60 40 44
21.396704 8.626293 71.352112 60 41 44
21.392857 8.778526 71.339287 61 42 45
21.388224 8.930375 71.323837 61 42 46
21.382921 9.081873 71.306152 62 43 46
21.377081 9.233063 71.286682 62 43 47
21.370859 9.384001 71.265930 62 43 47
21.364418 9.534751 71.244453 62 43 47
21.357929 9.685388 71.222809 63 43 47
21.351568 9.835990 71.201599 64 44 48
21.345509 9.986641 71.181389 64 45 49
21.339916 10.137428 71.162750 64 45 49
21.334949 10.288435 71.146179 63 46 49
21.330746 10.439745 71.132164 63 46 49
21.327425 10.591433 71.121086 62 45 47
21.325085 10.743567 71.113281 62 45 47
21.323793 10.896203 71.108978 61 44 46
21.323599 11.049390 71.108330 61 43 46
21.324514 11.203156 71.111382 63 44 47
21.326527 11.357520 71.118088 63 43 47
21.329599 11.512486 71.128342 62 43 47
21.333670 11.668039 71.141907 62 42 46
21.338654 11.824160 71.158531 61 42 46
21.344446 11.980805 71.177849 61 42 46
21.350937 12.137930 71.199493 61 42 45
21.358000 12.295478 71.223045 61 42 44
21.365505 12.453386 71.248077 61 42 43
21.373325 12.611588 71.274155 60 41 43
21.381332 12.770012 71.300858 60 40 43
21.389406 12.928594 71.327782 60 40 42
21.397440 13.087266 71.354576 59 39 42
21.405340 13.245971 71.380920 59 39 42
21.413025 13.404655 71.406540 59 40 42
21.420429 13.563272 71.431229 59 41 42
21.427507 13.721786 71.454834 59 41 42
21.434229 13.880172 71.477249 59 41 42
21.440582 14.038412 71.498436 58 42 41
21.446571 14.196502 71.518410 57 42 41
21.452213 14.354447 71.537224 57 41 41
21.457541 14.512260 71.554985 57 41 41
21.462601 14.669968 71.571861 56 40 41
21.467447 14.827600 71.588028 55 40 40
21.472149 14.985201 71.603699 54 39 40
21.476776 15.142817 71.619133 53 39 39
21.481405 15.300501 71.634575 52 39 38
21.486122 15.458314 71.650299 52 39 39
21.491009 15.616319 71.666595 52 39 39
21.496151 15.774582 71.683746 52 39 39
21.501633 15.933170 71.702026 52 39 39
21.507532 16.092148 71.721695 52 38 38
21.513918 16.251581 71.742996 52 37 38
21.520859 16.411528 71.766136 52 36 38
21.528406 16.572041 71.791306 52 35 37
21.536596 16.733162 71.818619 52 35 37
21.545456 16.894926 71.848160 51 35 37
21.554991 17.057352 71.879959 51 35 37
21.565187 17.220444 71.913963 51 36 36
21.576012 17.384188 71.950058 50 36 36
21.587412 17.548553 71.988068 49 36 36
21.599312 17.713495 72.027756 49 37 36
21.611618 17.878944 72.068794 49 37 36
21.624218 18.044815 72.110817 49 38 36
21.636984 18.211006 72.153389 49 38 36
21.649780 18.377405 72.196053 50 39 37
21.662455 18.543886 72.238319 50 39 38
21.674858 18.710316 72.279686 51 39 38
21.686844 18.876558 72.319656 52 39 38
21.698269 19.042482 72.357750 52 39 38
21.709009 19.207962 72.393562 53 39 38
21.718952 19.372887 72.426720 53 40 39
21.728012 19.537163 72.456940 53 40 39
21.736139 19.700722 72.484039 53 40 39
21.743309 19.863523 72.507950 52 40 40
21.749538 20.025560 72.528717 51 41 41
21.754879 20.186863 72.546532 51 41 42
21.759424 20.347500 72.561684 50 40 42
21.763306 20.507574 72.574631 50 40 42
21.766691 20.667236 72.585922 49 40 42
21.769787 20.826668 72.596245 49 39 41
21.772821 20.986086 72.606361 49 38 40
21.776052 21.145739 72.617134 50 39 41
21.779749 21.305893 72.629463 49 38 39
21.784193 21.466837 72.644279 49 38 38
21.789665 21.628866 72.662537 50 37 38
21.796444 21.792280 72.685143 50 38 38
21.804790 21.957369 72.712975 49 38 37
21.814949 22.124414 72.746841 49 39 37
21.827133 22.293678 72.787476 49 40 38
21.841530 22.465393 72.835487 49 40 38
21.858297 22.639767 72.891396 49 41 39
21.877541 22.816965 72.955574 48 40 38
21.899342 22.997128 73.028275 47 39 38
21.923738 23.180347 73.109634 46 39 38
21.950733 23.366682 73.199646 45 37 38
21.980289 23.556150 73.298210 44 36 37
22.012342 23.748739 73.405098 44 37 36
22.046795 23.944393 73.519989 44 36 35
22.083509 24.143019 73.642426 44 35 35
22.122351 24.344507 73.771950 44 34 35
22.163149 24.548725 73.907997 44 34 34
22.205717 24.755503 74.049950 43 34 34
22.249861 24.964657 74.197159 43 35 35
22.295366 25.175987 74.348907 43 35 34
22.342012 25.389267 74.504456 42 34 33
22.389565 25.604254 74.663033 41 34 32
22.437782 25.820690 74.823830 41 34 32
22.486408 26.038292 74.985977 40 34 31
22.535172 26.256752 75.148590 40 34 32
22.583790 26.475742 75.310722 40 34 32
22.631962 26.694908 75.471359 40 34 33
22.679365 26.913853 75.629440 40 34 34
22.725664 27.132162 75.783836 39 34 34
21.683151 2.334316 71.791260 65 44 50
21.659042 2.486307 71.711441 65 44 50
21.636454 2.638138 71.636650 64 44 50
21.615438 2.789850 71.567070 65 45 51
21.596050 2.941484 71.502876 65 45 50
21.578329 3.093080 71.444206 66 45 50
21.562302 3.244678 71.391136 66 44 49
21.547983 3.396316 71.343727 66 44 48
21.535378 3.548033 71.302002 66 43 47
21.524475 3.699862 71.265900 65 43 47
21.515253 3.851836 71.235367 65 43 47
21.507669 4.003983 71.210258 65 43 46
21.501678 4.156331 71.190422 65 43 45
21.497219 4.308899 71.175652 64 44 44
21.494217 4.461707 71.165718 64 43 44
21.492598 4.614769 71.160355 63 42 45
21.492275 4.768095 71.159294 62 41 46
21.493158 4.921692 71.162209 62 41 46
21.495148 5.075564 71.168800 63 41 47
21.498148 5.229710 71.178734 63 41 47
21.502048 5.384123 71.191643 62 41 46
21.506744 5.538798 71.207191 62 41 44
21.512121 5.693720 71.224998 62 40 42
21.518064 5.848873 71.244675 63 40 41
21.524452 6.004234 71.265823 63 40 41
21.531157 6.159777 71.288025 64 41 42
21.538052 6.315472 71.310852 65 41 42
21.545000 6.471282 71.333862 66 41 42
21.551870 6.627165 71.356606 65 41 42
21.558519 6.783078 71.378616 64 41 42
21.564812 6.938972 71.399452 63 41 42
21.570614 7.094793 71.418663 62 40 43
21.575798 7.250490 71.435829 61 41 44
21.580244 7.406007 71.450546 61 41 45
21.583845 7.561291 71.462471 61 42 45
21.586508 7.716292 71.471283 61 41 45
21.588158 7.870962 71.476746 61 42 45
21.588743 8.025259 71.478683 61 42 44
21.588234 8.179151 71.476997 60 41 44
21.586624 8.332609 71.471672 60 41 44
21.583937 8.485621 71.462769 59 40 44
21.580215 8.638182 71.450455 59 41 45
21.575539 8.790299 71.434967 60 42 46
21.570002 8.941994 71.416634 61 42 46
21.563726 9.093298 71.395859 61 43 47
21.556858 9.244257 71.373116 62 43 47
21.549549 9.394927 71.348915 62 43 47
21.541977 9.545376 71.323845 63 43 47
21.534319 9.695679 71.298492 63 43 47
21.526760 9.845918 71.273468 63 44 48
21.519485 9.996179 71.249374 64 45 49
21.512667 10.146553 71.226807 64 45 49
21.506474 10.297129 71.206299 63 46 49
21.501051 10.447990 71.188339 63 47 49
21.496527 10.599217 71.173363 63 47 49
21.493008 10.750883 71.161713 63 46 48
21.490568 10.903047 71.153641 63 45 48
21.489264 11.055758 71.149315 63 44 47
21.489111 11.209052 71.148811 63 44 47
21.490105 11.362951 71.152100 63 43 47
21.492210 11.517459 71.159073 62 43 47
21.495367 11.672568 71.169525 62 43 47
21.499496 11.828258 71.183197 62 43 47
21.504494 11.984489 71.199738 61 42 46
21.510246 12.141219 71.218788 61 41 45
21.516630 12.298392 71.239929 60 41 43
21.523518 12.455947 71.262726 60 41 42
21.530777 12.613818 71.286766 60 40 42
21.538280 12.771937 71.311607 60 40 42
21.545906 12.930239 71.336853 59 40 42
21.553549 13.088658 71.362160 59 39 42
21.561110 13.247135 71.387192 59 39 42
21.568504 13.405619 71.411682 58 40 42
21.575674 13.564065 71.435410 58 41 42
21.582567 13.722439 71.458237 58 41 42
21.589153 13.880714 71.480049 58 41 42
21.595423 14.038877 71.500801 58 42 41
21.601377 14.196920 71.520515 57 42 41
21.607038 14.354856 71.539261 57 42 41
21.612434 14.512694 71.557129 57 41 41
21.617619 14.670465 71.574287 56 40 41
21.622641 14.828199 71.590919 55 40 40
21.627569 14.985941 71.607239 54 39 40
21.632477 15.143737 71.623489 52 39 39
21.637440 15.301642 71.639915 52 39 38
21.642536 15.459715 71.656792 52 39 39
21.647850 15.618015 71.674377 52 39 39
21.653461 15.776610 71.692963 52 39 39
21.659452 15.935564 71.712799 53 39 39
21.665894 16.094938 71.734131 52 38 39
21.672855 16.254793 71.757172 52 37 38
21.680395 16.415188 71.782143 52 36 38
21.688559 16.576164 71.809166 52 35 38
21.697378 16.737764 71.838371 52 35 37
21.706873 16.900017 71.869804 51 34 36
21.717045 17.062935 71.903481 51 35 35
21.727873 17.226519 71.939331 51 36 36
21.739317 17.390751 71.977219 50 36 36
21.751320 17.555597 72.016968 49 37 35
21.763802 17.721004 72.058289 49 37 35
21.776661 17.886900 72.100868 49 38 36
21.789783 18.053198 72.144318 49 38 36
21.803036 18.219791 72.188194 49 38 37
21.816273 18.386560 72.232018 50 39 38
21.829344 18.553377 72.275299 51 40 39
21.842094 18.720106 72.317513 51 40 39
21.854368 18.886606 72.358154 52 40 39
21.866026 19.052744 72.396751 52 40 39
21.876934 19.218390 72.432861 53 39 39
21.886980 19.383427 72.466125 52 39 39
21.896080 19.547764 72.496254 52 40 39
21.904175 19.711325 72.523056 52 40 39
21.911242 19.874071 72.546455 52 40 40
21.917297 20.035992 72.566505 51 40 41
21.922396 20.197119 72.583382 51 40 41
21.926634 20.357519 72.597420 50 40 42
21.930145 20.517298 72.609039 50 39 42
21.933104 20.676609 72.618835 49 39 41
21.935719 20.835634 72.627495 50 39 41
21.938229 20.994596 72.635803 50 39 41
21.940893 21.153744 72.644630 50 39 40
21.943993 21.313351 72.654884 50 39 39
21.947813 21.473709 72.667542 50 38 38
21.952644 21.635118 72.683540 50 38 38
21.958775 21.797884 72.703835 50 37 37
21.966465 21.962297 72.729294 50 37 37
21.975969 22.128649 72.760765 49 38 37
21.987507 22.297195 72.798965 49 39 37
22.001266 22.468178 72.844521 49 40 38
22.017405 22.641800 72.897949 48 40 38
22.036032 22.818233 72.959625 47 40 38
22.057230 22.997612 73.029816 46 39 38
22.081034 23.180027 73.108620 45 39 38
22.107441 23.365534 73.196053 44 37 38
22.136415 23.554152 73.291985 43 37 37
22.167885 23.745853 73.396179 43 36 36
22.201746 23.940584 73.508293 43 36 35
22.237862 24.138245 73.627869 44 35 35
22.276083 24.338722 73.754417 44 34 35
22.316236 24.541870 73.887360 43 34 34
22.358133 24.747520 74.026077 43 34 34
22.401569 24.955484 74.169891 43 34 34
22.446327 25.165548 74.318077 42 34 33
22.492180 25.377489 74.469894 42 34 33
22.538893 25.591059 74.624557 42 34 32
22.586220 25.805998 74.781258 42 34 32
22.633904 26.022022 74.939133 42 34 32
22.681675 26.238831 75.097305 41 34 32
22.729258 26.456099 75.254837 41 34 33
22.776346 26.673468 75.410751 40 34 33
22.822632 26.890566 75.563995 40 34 34
21.870708 2.492813 71.899086 65 44 50
21.846455 2.644867 71.819359 64 44 50
21.823803 2.796782 71.744888 64 44 49
21.802809 2.948601 71.675873 64 44 49
21.783527 3.100365 71.612480 65 44 49
21.765991 3.252118 71.554840 65 44 49
21.750229 3.403899 71.503021 65 43 48
21.736248 3.555748 71.457054 65 43 47
21.724045 3.707703 71.416939 65 43 46
21.713600 3.859797 71.382607 65 43 46
21.704882 4.012062 71.353943 65 42 46
21.697844 4.164526 71.330803 65 43 45
21.692427 4.317214 71.312996 64 43 44
21.688560 4.470143 71.300285 64 43 44
21.686169 4.623333 71.292419 63 42 44
21.685160 4.776793 71.289108 62 42 45
21.685446 4.930534 71.290047 62 42 46
21.686922 5.084557 71.294899 62 42 46
21.689486 5.238864 71.303329 62 42 46
21.693024 5.393450 71.314964 62 42 45
21.697424 5.548306 71.329422 62 41 43
21.702564 5.703419 71.346321 61 40 41
21.708321 5.858771 71.365242 61 40 40
21.714563 6.014339 71.385765 62 40 40
21.721155 6.170095 71.407440 63 41 40
21.727959 6.326007 71.429802 64 41 41
21.734829 6.482034 71.452393 64 41 42
21.741619 6.638135 71.474716 64 41 42
21.748180 6.794260 71.496284 64 41 42
21.754368 6.950359 71.516624 63 41 42
21.760035 7.106375 71.535255 62 40 42
21.765043 7.262253 71.551727 60 40 43
21.769270 7.417934 71.565613 59 40 43
21.772593 7.573361 71.576538 59 41 43
21.774918 7.728481 71.584183 59 41 43
21.776163 7.883243 71.588272 59 41 44
21.776272 8.037603 71.588631 59 41 43
21.775209 8.191525 71.585136 59 41 43
21.772970 8.344980 71.577782 59 41 43
21.769577 8.497953 71.566628 59 41 44
21.765076 8.650438 71.551826 59 41 45
21.759544 8.802443 71.533646 59 42 46
21.753086 8.953986 71.512413 60 43 46
21.745827 9.105103 71.488548 61 43 47
21.737913 9.255838 71.462532 61 43 47
21.729511 9.406251 71.434906 61 43 47
21.720802 9.556409 71.406281 62 43 47
21.711973 9.706389 71.377258 63 43 47
21.703218 9.856279 71.348473 63 44 48
21.694729 10.006166 71.320564 63 44 49
21.686689 10.156145 71.294136 63 45 49
21.679274 10.306305 71.269753 63 46 49
21.672636 10.456737 71.247940 64 47 49
21.666916 10.607523 71.229134 64 47 49
21.662224 10.758739 71.213707 64 46 49
21.658644 10.910447 71.201935 64 45 48
21.656231 11.062702 71.194000 63 44 47
21.655016 11.215543 71.190010 63 44 47
21.654989 11.368991 71.189926 62 43 48
21.656126 11.523057 71.193657 62 43 48
21.658365 11.677734 71.201019 62 43 48
21.661631 11.833003 71.211754 61 42 47
21.665819 11.988830 71.225525 60 41 46
21.670822 12.145172 71.241974 59 41 45
21.676514 12.301975 71.260681 59 40 43
21.682762 12.459180 71.281219 59 40 42
21.689438 12.616721 71.303169 59 39 41
21.696411 12.774533 71.326096 59 39 41
21.703564 12.932550 71.349609 59 39 41
21.710783 13.090709 71.373344 58 39 42
21.717974 13.248952 71.396980 58 39 43
21.725050 13.407228 71.420242 58 40 42
21.731951 13.565493 71.442932 58 41 42
21.738623 13.723712 71.464867 58 41 42
21.745043 13.881865 71.485970 58 41 41
21.751196 14.039935 71.506195 57 41 41
21.757084 14.197921 71.525551 57 41 41
21.762732 14.355831 71.544121 57 42 41
21.768169 14.513682 71.561996 56 41 41
21.773445 14.671500 71.579338 55 40 40
21.778616 14.829323 71.596344 54 40 40
21.783747 14.987189 71.613205 53 39 40
21.788910 15.145152 71.630180 52 39 39
21.794180 15.303265 71.647507 51 38 38
21.799635 15.461581 71.665443 51 38 38
21.805357 15.620167 71.684250 51 38 39
21.811422 15.779081 71.704193 52 39 39
21.817907 15.938389 71.725510 52 38 39
21.824883 16.098148 71.748436 52 37 39
21.832407 16.258417 71.773170 52 37 39
21.840534 16.419247 71.799889 51 36 38
21.849306 16.580681 71.828728 51 35 38
21.858749 16.742752 71.859779 51 34 37
21.868877 16.905487 71.893066 50 34 36
21.879683 17.068893 71.928589 51 35 35
21.891140 17.232967 71.966255 51 36 35
21.903204 17.397684 72.005920 50 37 35
21.915815 17.563011 72.047379 50 37 35
21.928883 17.728886 72.090340 49 38 35
21.942305 17.895233 72.134460 49 38 36
21.955957 18.061964 72.179344 49 38 36
21.969707 18.228966 72.224541 49 39 37
21.983402 18.396118 72.269569 50 40 38
21.996891 18.563290 72.313911 51 40 39
22.010010 18.730339 72.357040 52 40 39
22.022604 18.897123 72.398438 52 40 40
22.034527 19.063505 72.437637 53 40 40
22.045643 19.229351 72.474182 53 39 40
22.055836 19.394545 72.507690 52 38 39
22.065022 19.558989 72.537888 52 39 39
22.073135 19.722607 72.564560 52 39 39
22.080158 19.885357 72.587654 52 40 40
22.086107 20.047230 72.607201 52 40 41
22.091032 20.208252 72.623390 52 40 42
22.095034 20.368492 72.636551 51 40 42
22.098249 20.528061 72.647125 51 40 41
22.100857 20.687103 72.655693 51 41 41
22.103071 20.845812 72.662971 50 40 41
22.105133 21.004410 72.669754 51 40 41
22.107311 21.163145 72.676910 52 40 40
22.109892 21.322300 72.685394 52 39 39
22.113167 21.482166 72.696159 51 38 38
22.117435 21.643053 72.710197 51 37 38
22.122986 21.805262 72.728439 51 37 37
22.130091 21.969093 72.751801 50 37 37
22.139006 22.134836 72.781113 49 38 37
22.149958 22.302755 72.817116 49 38 37
22.163136 22.473087 72.860435 48 39 38
22.178698 22.646038 72.911591 47 39 38
22.196756 22.821779 72.970963 46 39 38
22.217392 23.000443 73.038803 45 39 38
22.240639 23.182119 73.115219 44 38 37
22.266489 23.366859 73.200203 43 37 37
22.294907 23.554678 73.293625 43 36 36
22.325811 23.745544 73.395226 42 36 36
22.359100 23.939402 73.504662 43 35 35
22.394623 24.136137 73.621437 43 35 35
22.432230 24.335640 73.745071 44 34 35
22.471739 24.537750 73.874954 43 34 34
22.512957 24.742298 74.010460 43 34 34
22.555674 24.949089 74.150887 43 34 34
22.599665 25.157906 74.295509 42 35 33
22.644703 25.368515 74.443565 42 35 32
22.690546 25.580673 74.594276 42 35 33
22.736948 25.794115 74.746819 42 34 32
22.783653 26.008560 74.900360 42 34 33
22.830391 26.223703 75.054008 42 34 33
22.876884 26.439230 75.206856 41 34 33
22.922840 26.654787 75.357933 41 34 34
22.967951 26.870008 75.506233 40 34 35
22.056515 2.651508 71.999687 65 45 49
22.032251 2.803627 71.920479 65 44 49
22.009691 2.955634 71.846832 64 44 49
21.988892 3.107572 71.778938 65 43 49
21.969904 3.259486 71.716957 65 43 49
21.952755 3.411419 71.660973 65 43 48
21.937462 3.563412 71.611061 65 44 47
21.924030 3.715505 71.567215 65 44 47
21.912443 3.867734 71.529388 65 43 46
21.902670 4.020133 71.497482 65 43 46
21.894665 4.172732 71.471359 64 43 45
21.888376 4.325558 71.450829 64 43 44
