ply
format ascii 1.0
element vertex 1155
property float x
property float y
property float z
property uchar red
property uchar green
property uchar blue
end_header
17.889603 9.581712 83.733879 213 172 184
17.874495 9.753970 83.663170 225 185 197
17.859081 9.925753 83.591026 231 190 205
17.843391 10.097068 83.517586 226 186 201
17.827473 10.267936 83.443077 211 171 185
17.811384 10.438382 83.367775 199 159 173
17.795198 10.608446 83.292015 211 172 183
17.778996 10.778172 83.216179 227 188 198
17.762865 10.947617 83.140671 234 194 204
17.746893 11.116835 83.065910 233 194 205
17.731173 11.285891 82.992332 223 183 196
17.715786 11.454845 82.920311 219 178 193
17.700813 11.623762 82.850243 219 177 195
17.686327 11.792701 82.782433 209 168 187
17.672382 11.961713 82.717163 198 155 174
17.659025 12.130847 82.654640 194 151 169
17.646280 12.300139 82.594994 194 152 167
17.634169 12.469621 82.538292 198 156 167
17.622683 12.639308 82.484535 204 161 170
17.611807 12.809207 82.433632 208 164 170
17.601515 12.979317 82.385460 216 171 174
17.591764 13.149624 82.339821 228 180 182
17.582504 13.320106 82.296486 234 183 186
17.573683 13.490736 82.255188 232 177 182
17.565235 13.661482 82.215652 231 170 178
17.557112 13.832310 82.177628 230 163 174
17.549250 14.003184 82.140831 225 151 165
17.541607 14.174076 82.105049 217 135 151
17.534140 14.344957 82.070099 208 119 136
17.526819 14.515811 82.035835 202 106 123
17.519627 14.686624 82.002174 202 102 119
17.512560 14.857396 81.969093 205 100 117
17.505619 15.028136 81.936615 200 92 111
17.498829 15.198866 81.904823 188 78 99
17.492212 15.369611 81.873856 176 65 88
17.485804 15.540409 81.843864 173 62 86
17.479647 15.711303 81.815048 175 65 90
17.473785 15.882340 81.787613 180 71 95
17.468262 16.053572 81.761757 185 78 99
17.463123 16.225048 81.737709 187 82 102
17.458410 16.396820 81.715652 186 86 103
17.454161 16.568937 81.695755 183 87 103
17.450401 16.741440 81.678162 178 87 103
17.447157 16.914366 81.662979 175 89 104
17.444447 17.087746 81.650284 174 93 108
17.442276 17.261610 81.640129 175 98 113
17.440651 17.435972 81.632515 175 102 117
17.439564 17.610847 81.627426 174 103 118
17.439007 17.786242 81.624825 172 102 116
17.438967 17.962156 81.624641 170 102 115
17.439430 18.138592 81.626808 172 103 115
17.440371 18.315540 81.631210 173 102 115
17.441767 18.492990 81.637749 174 101 114
17.443594 18.670929 81.646294 176 100 113
17.445820 18.849337 81.656715 179 99 112
17.448420 19.028194 81.668877 180 97 111
17.451355 19.207476 81.682625 181 94 109
17.454594 19.387154 81.697777 180 90 106
17.458094 19.567190 81.714165 179 86 103
17.461817 19.747549 81.731590 180 84 104
17.465714 19.928181 81.749832 183 86 107
17.469734 20.109034 81.768654 186 88 110
17.473825 20.290049 81.787796 184 88 110
17.477924 20.471159 81.806984 182 87 109
17.481972 20.652287 81.825928 180 87 109
17.485899 20.833355 81.844307 176 85 107
17.489635 21.014275 81.861801 171 83 104
17.493111 21.194952 81.878067 167 82 102
17.496252 21.375290 81.892769 165 84 103
17.498989 21.555195 81.905579 169 89 107
17.501251 21.734566 81.916168 175 97 115
17.502979 21.913313 81.924255 183 105 122
17.504114 22.091345 81.929565 188 111 127
17.504608 22.268587 81.931877 188 111 126
17.504423 22.444967 81.931015 185 109 121
17.503540 22.620440 81.926880 179 103 114
17.501940 22.794964 81.919395 173 96 105
17.499632 22.968525 81.908585 186 110 117
17.496630 23.141123 81.894539 217 146 149
17.492971 23.312782 81.877411 241 173 174
17.488697 23.483543 81.857407 240 168 168
17.483868 23.653467 81.834801 218 135 134
17.478546 23.822622 81.809898 188 99 99
17.472811 23.991100 81.783043 166 76 78
17.466738 24.158998 81.754623 159 69 73
17.460409 24.326416 81.724998 158 71 77
18.599470 3.173974 86.186874 149 76 86
18.584114 3.356990 86.115715 156 87 96
18.568995 3.539744 86.045654 163 98 107
18.554041 3.722230 85.976364 171 108 117
18.539183 3.904437 85.907509 179 118 126
18.524343 4.086351 85.838753 186 126 135
18.509460 4.267959 85.769783 193 134 144
18.494469 4.449243 85.700310 195 137 148
18.479313 4.630187 85.630081 195 138 150
18.463955 4.810774 85.558914 195 138 152
18.448370 4.990994 85.486694 196 142 156
18.432547 5.170836 85.413376 196 143 158
18.416492 5.350295 85.338982 193 142 156
18.400229 5.529369 85.263626 192 143 156
18.383801 5.708067 85.187492 194 146 159
18.367254 5.886400 85.110817 195 149 160
18.350653 6.064384 85.033890 194 150 159
18.334066 6.242042 84.957031 191 149 157
18.317562 6.419397 84.880562 190 147 156
18.301210 6.596477 84.804787 190 147 155
18.285069 6.773308 84.729988 192 150 156
18.269186 6.949915 84.656387 200 158 162
18.253599 7.126320 84.584160 207 164 168
18.238323 7.302539 84.513382 208 165 169
18.223366 7.478583 84.444061 206 164 168
18.208706 7.654453 84.376137 205 164 168
18.194315 7.830146 84.309448 203 162 169
18.180143 8.005649 84.243774 203 161 170
18.166132 8.180941 84.178856 201 161 169
18.152216 8.355996 84.114372 200 159 168
18.138325 8.530785 84.050003 205 163 174
18.124384 8.705273 83.985405 220 178 189
18.110327 8.879424 83.920265 224 182 194
18.096094 9.053207 83.854309 213 171 184
18.081636 9.226591 83.787315 205 162 174
18.066916 9.399550 83.719101 208 165 178
18.051912 9.572065 83.649582 217 175 189
18.036621 9.744124 83.578720 228 186 200
18.021057 9.915729 83.506599 232 189 204
18.005247 10.086884 83.433342 224 182 196
17.989239 10.257609 83.359161 207 165 178
17.973089 10.427933 83.284325 195 154 166
17.956869 10.597894 83.209167 206 165 175
17.940659 10.767535 83.134048 221 180 190
17.924543 10.936912 83.059372 226 185 195
17.908609 11.106078 82.985542 225 184 196
17.892948 11.275099 82.912971 215 175 189
17.877642 11.444033 82.842041 209 169 186
17.862770 11.612943 82.773125 211 170 190
17.848396 11.781886 82.706520 207 166 187
17.834579 11.950914 82.642494 198 157 178
17.821362 12.120074 82.581245 197 155 175
17.808769 12.289402 82.522888 195 153 171
17.796816 12.458926 82.467506 194 151 166
17.785494 12.628659 82.415047 199 156 167
17.774790 12.798611 82.365440 208 164 171
17.764669 12.968775 82.318542 215 169 173
17.755087 13.139134 82.274139 221 172 175
17.745996 13.309671 82.232010 224 172 175
17.737333 13.480352 82.191872 223 167 171
17.729038 13.651143 82.153435 221 159 165
17.721052 13.822010 82.116432 218 151 160
17.713320 13.992916 82.080597 216 142 154
17.705786 14.163828 82.045692 211 130 144
17.698414 14.334720 82.011528 202 114 130
17.691172 14.505571 81.977974 196 102 118
17.684040 14.676370 81.944923 201 103 119
17.677013 14.847114 81.912361 206 104 121
17.670101 15.017813 81.880325 198 93 111
17.663317 15.188486 81.848892 183 75 95
17.656693 15.359163 81.818199 170 62 83
17.650265 15.529879 81.788406 167 59 82
17.644073 15.700679 81.759727 170 64 86
17.638170 15.871613 81.732368 177 72 94
17.632599 16.042730 81.706551 182 79 100
17.627409 16.214088 81.682495 184 83 102
17.622639 16.385735 81.660400 183 86 103
17.618332 16.557718 81.640442 181 89 103
17.614521 16.730087 81.622780 179 91 104
17.611229 16.902880 81.607521 175 92 106
17.608475 17.076128 81.594765 173 95 108
17.606270 17.249859 81.584549 174 100 114
17.604620 17.424093 81.576904 176 104 119
17.603519 17.598845 81.571800 175 105 119
17.602959 17.774122 81.569206 171 103 117
17.602930 17.949926 81.569069 170 102 116
17.603415 18.126261 81.571312 172 104 116
17.604391 18.303118 81.575844 173 103 116
17.605837 18.480484 81.582535 174 102 114
17.607725 18.658350 81.591293 177 101 114
17.610031 18.836700 81.601982 179 99 113
17.612724 19.015514 81.614456 181 98 113
17.615770 19.194767 81.628571 183 96 113
17.619139 19.374434 81.644180 181 92 110
17.622789 19.554482 81.661095 178 86 105
17.626678 19.734871 81.679115 178 84 104
17.630764 19.915558 81.698051 182 87 109
17.634996 20.096495 81.717659 186 91 114
17.639322 20.277622 81.737701 185 91 114
17.643681 20.458876 81.757904 181 90 112
17.648012 20.640184 81.777969 179 89 111
17.652246 20.821465 81.797592 175 88 109
17.656317 21.002634 81.816460 171 85 106
17.660149 21.183599 81.834213 168 85 104
17.663670 21.364264 81.850525 167 86 104
17.666801 21.544527 81.865044 168 89 106
17.669479 21.724291 81.877449 174 95 112
17.671631 21.903460 81.887421 181 103 119
17.673195 22.081936 81.894669 186 108 123
17.674122 22.259640 81.898964 185 108 120
17.674366 22.436495 81.900085 183 106 116
17.673895 22.612442 81.897911 180 104 111
17.672693 22.787437 81.892342 175 100 104
17.670755 22.961452 81.883369 182 106 109
17.668095 23.134480 81.871033 207 133 133
17.664734 23.306534 81.855461 233 165 162
17.660717 23.477646 81.836845 243 175 171
17.656090 23.647861 81.815407 228 151 148
17.650919 23.817249 81.791443 197 110 108
17.645273 23.985891 81.765282 167 77 78
17.639229 24.153872 81.737267 156 66 70
17.632864 24.321291 81.707779 154 66 73
18.761360 3.355489 86.077217 158 92 100
18.745728 3.538092 86.005493 165 102 110
18.730267 3.720420 85.934563 173 112 120
18.714903 3.902463 85.864075 180 120 128
18.699564 4.084207 85.793701 187 128 136
18.684183 4.265637 85.723129 192 134 143
18.668694 4.446738 85.652069 195 138 149
18.653046 4.627493 85.580269 196 140 152
18.637196 4.807886 85.507545 197 142 155
18.621119 4.987906 85.433792 199 145 159
18.604807 5.167541 85.358955 200 148 162
18.588266 5.346788 85.283066 198 148 162
18.571520 5.525648 85.206238 195 147 161
18.554607 5.704124 85.128639 194 149 161
18.537582 5.882230 85.050529 195 152 163
18.520504 6.059983 84.972168 194 153 163
18.503443 6.237402 84.893890 191 151 160
18.486465 6.414515 84.816002 188 147 157
18.469641 6.591345 84.738815 188 147 156
18.453030 6.767921 84.662598 191 150 157
18.436682 6.944268 84.587593 199 158 163
18.420633 7.120406 84.513962 208 166 171
18.404902 7.296353 84.441788 209 166 171
18.389492 7.472120 84.371086 206 164 169
18.374390 7.647710 84.301796 204 162 167
18.359564 7.823119 84.233780 202 160 167
18.344973 7.998336 84.166824 204 161 170
18.330555 8.173343 84.100685 204 162 171
18.316250 8.348116 84.035049 198 155 166
18.301987 8.522626 83.969612 192 149 161
18.287699 8.696841 83.904060 197 154 167
18.273317 8.870728 83.838074 205 163 175
18.258787 9.044257 83.771408 210 167 180
18.244057 9.217399 83.703835 214 171 183
18.229097 9.390129 83.635193 219 176 189
18.213881 9.562430 83.565384 224 181 196
18.198412 9.734295 83.494408 228 186 200
18.182699 9.905721 83.422318 230 186 201
18.166773 10.076716 83.349251 223 180 193
18.150677 10.247302 83.275398 205 162 173
18.134468 10.417505 83.201035 194 152 160
18.118219 10.587363 83.126480 207 165 171
18.102005 10.756921 83.052094 221 179 185
18.085911 10.926230 82.978256 221 179 186
18.070026 11.095349 82.905373 215 173 183
18.054432 11.264337 82.833832 202 161 173
18.039213 11.433253 82.764008 194 154 170
18.024446 11.602159 82.696251 200 160 179
18.010197 11.771111 82.630875 207 166 187
17.996515 11.940158 82.568108 210 169 190
17.983446 12.109346 82.508148 212 171 192
17.971014 12.278711 82.451103 205 163 182
17.959227 12.448278 82.397026 194 151 167
17.948078 12.618061 82.345879 194 149 162
17.937550 12.788064 82.297569 202 156 165
17.927603 12.958282 82.251938 208 161 167
17.918196 13.128695 82.208778 211 162 165
17.909273 13.299284 82.167839 213 160 162
17.900772 13.470015 82.128838 213 156 159
17.892632 13.640849 82.091484 211 149 154
17.884789 13.811754 82.055504 209 141 148
17.877184 13.982691 82.020615 207 133 142
17.869766 14.153624 81.986580 203 123 135
17.862494 14.324527 81.953217 195 108 122
17.855333 14.495378 81.920364 191 99 113
17.848270 14.666166 81.887955 199 103 118
17.841293 14.836888 81.855949 204 105 121
17.834414 15.007553 81.824387 194 91 109
17.827652 15.178181 81.793358 176 73 91
17.821033 15.348800 81.762993 164 60 80
17.814600 15.519449 81.733482 161 58 78
17.808393 15.690170 81.705002 165 64 83
17.802464 15.861016 81.677803 174 73 93
17.796862 16.032040 81.652100 180 81 100
17.791636 16.203293 81.628113 181 85 103
17.786829 16.374832 81.606064 180 88 103
17.782486 16.546705 81.586136 179 92 105
17.778637 16.718958 81.568481 178 95 107
17.775312 16.891632 81.553230 177 98 109
17.772532 17.064764 81.540466 175 100 111
17.770304 17.238377 81.530251 175 103 116
17.768639 17.412497 81.522614 176 107 120
17.767532 17.587137 81.517532 175 107 120
17.766977 17.762306 81.514984 173 106 118
17.766962 17.938011 81.514923 173 105 118
17.767471 18.114246 81.517250 174 104 117
17.768482 18.291014 81.521896 174 103 116
17.769976 18.468298 81.528748 175 102 115
17.771927 18.646093 81.537689 178 100 114
17.774307 18.824383 81.548622 179 98 113
17.777090 19.003149 81.561386 181 97 114
17.780243 19.182369 81.575851 182 96 114
17.783733 19.362020 81.591866 180 91 111
17.787525 19.542068 81.609253 177 86 107
17.791578 19.722485 81.627853 176 85 106
17.795849 19.903223 81.647446 181 89 111
17.800289 20.084236 81.667816 185 94 116
17.804848 20.265474 81.688728 185 93 116
17.809465 20.446871 81.709923 181 91 114
17.814083 20.628357 81.731110 178 91 112
17.818632 20.809855 81.751984 174 89 110
17.823042 20.991276 81.772209 170 87 107
17.827240 21.172537 81.791473 169 88 106
17.831148 21.353531 81.809402 169 89 106
17.834692 21.534164 81.825668 170 91 106
17.837797 21.714331 81.839905 173 94 108
17.840391 21.893932 81.851807 178 100 112
17.842405 22.072870 81.861046 182 105 116
17.843782 22.251055 81.867371 182 106 114
17.844475 22.428400 81.870544 180 104 109
17.844442 22.604847 81.870399 180 105 107
17.843660 22.780333 81.866806 178 104 103
17.842119 22.954826 81.859734 180 107 102
17.839819 23.128305 81.849182 197 124 117
17.836782 23.300779 81.835251 223 152 144
17.833042 23.472265 81.818092 241 171 162
17.828642 23.642803 81.797905 236 161 153
17.823643 23.812452 81.774971 208 123 118
17.818108 23.981281 81.749573 174 84 83
17.812109 24.149374 81.722054 159 69 71
17.805727 24.316824 81.692772 156 67 74
18.938627 3.354022 86.039574 160 95 105
18.922451 3.536471 85.966080 166 105 113
18.906448 3.718638 85.893387 175 114 122
18.890545 3.900511 85.821129 182 123 130
18.874664 4.082078 85.748985 189 130 137
18.858744 4.263325 85.676659 194 136 145
18.842718 4.444235 85.603859 197 140 151
18.826536 4.624793 85.530334 199 143 155
18.810156 4.804983 85.455917 199 145 158
18.793554 4.984794 85.380501 201 148 161
18.776722 5.164216 85.304024 202 151 165
18.759666 5.343245 85.226547 203 155 168
18.742413 5.521881 85.148155 202 157 169
18.724998 5.700131 85.069046 202 158 169
18.707478 5.878006 84.989441 199 158 168
18.689913 6.055523 84.909645 195 156 165
18.672367 6.232703 84.829933 190 151 160
18.654915 6.409572 84.750648 188 149 158
18.637621 6.586154 84.672081 190 151 159
18.620546 6.762478 84.594513 192 152 159
18.603741 6.938567 84.518158 198 158 164
18.587236 7.114443 84.443184 205 164 169
18.571062 7.290124 84.369698 205 164 169
18.555212 7.465620 84.297691 203 161 166
18.539680 7.640936 84.227127 204 161 166
18.524435 7.816069 84.157867 205 161 169
18.509432 7.991007 84.089706 206 163 171
18.494619 8.165736 84.022408 207 163 173
18.479933 8.340233 83.955696 200 156 167
18.465307 8.514469 83.889252 191 148 158
18.450678 8.688416 83.822784 188 146 157
18.435976 8.862043 83.755989 195 152 164
18.421148 9.035320 83.688629 212 169 181
18.406153 9.208222 83.620506 223 180 193
18.390953 9.380727 83.551445 226 183 196
18.375528 9.552816 83.481369 229 185 200
18.359879 9.724485 83.410278 230 186 200
18.344019 9.895735 83.338226 231 187 200
18.327974 10.066571 83.265335 225 180 192
18.311792 10.237017 83.191818 203 158 166
18.295528 10.407100 83.117935 192 148 153
18.279253 10.576856 83.043991 209 166 169
18.263041 10.746332 82.970337 223 180 182
18.246975 10.915577 82.897346 219 176 179
18.231140 11.084648 82.825409 209 167 173
18.215622 11.253604 82.754906 195 153 163
18.200499 11.422504 82.686203 188 146 159
18.185844 11.591408 82.619629 194 154 169
18.171724 11.760369 82.555473 207 166 184
18.158188 11.929438 82.493980 220 180 199
18.145273 12.098657 82.435310 228 189 207
18.133005 12.268059 82.379570 218 177 195
18.121387 12.437669 82.326797 198 153 170
18.110416 12.607499 82.276955 188 142 155
18.100065 12.777554 82.229927 192 144 154
18.090296 12.947822 82.185547 200 150 156
18.081062 13.118287 82.143593 204 151 156
18.072309 13.288923 82.103828 204 149 152
18.063969 13.459698 82.065941 204 145 149
18.055981 13.630573 82.029648 204 140 144
18.048279 13.801513 81.994659 202 133 139
18.040802 13.972475 81.960693 199 125 133
18.033501 14.143428 81.927521 195 116 125
18.026327 14.314341 81.894936 189 104 115
18.019255 14.485192 81.862801 190 100 113
18.012262 14.655972 81.831032 200 105 119
18.005344 14.826675 81.799606 201 104 119
17.998508 14.997312 81.768547 186 88 103
17.991777 15.167901 81.737961 168 68 85
17.985180 15.338474 81.707993 159 59 77
17.978754 15.509067 81.678802 157 59 77
17.972548 15.679724 81.650604 164 67 85
17.966614 15.850499 81.623642 173 78 95
17.961000 16.021444 81.598137 178 85 101
17.955757 16.192616 81.574326 178 89 104
17.950935 16.364065 81.552414 177 92 105
17.946573 16.535847 81.532600 178 96 108
17.942709 16.708006 81.515045 179 101 111
17.939369 16.880583 81.499878 179 104 115
17.936579 17.053614 81.487190 179 107 117
17.934345 17.227129 81.477051 179 109 120
17.932682 17.401152 81.469490 177 109 121
17.931581 17.575693 81.464493 175 108 119
17.931040 17.750769 81.462036 175 107 118
17.931047 17.926378 81.462059 175 107 118
17.931585 18.102528 81.464508 175 105 118
17.932636 18.279209 81.469284 175 102 116
17.934181 18.456419 81.476303 175 100 114
17.936193 18.634146 81.485443 176 98 114
17.938648 18.812374 81.496597 178 97 113
17.941519 18.991091 81.509636 179 95 114
17.944775 19.170277 81.524429 179 93 114
17.948385 19.349911 81.540833 178 90 113
17.952316 19.529961 81.558693 176 87 110
17.956530 19.710398 81.577835 177 87 111
17.960981 19.891184 81.598061 182 92 116
17.965630 20.072275 81.619179 186 97 120
17.970423 20.253620 81.640953 184 95 118
17.975304 20.435158 81.663124 180 93 115
17.980209 20.616823 81.685410 178 92 113
17.985077 20.798536 81.707527 174 91 111
17.989834 20.980219 81.729141 172 91 109
17.994406 21.161776 81.749908 172 92 110
17.998714 21.343111 81.769485 173 94 109
18.002682 21.524122 81.787506 173 95 108
18.006231 21.704706 81.803627 174 97 108
18.009281 21.884752 81.817482 176 99 109
18.011763 22.064165 81.828766 180 103 109
18.013613 22.242844 81.837166 180 104 107
18.014774 22.420702 81.842438 178 104 104
18.015202 22.597664 81.844383 177 104 101
18.014862 22.773663 81.842842 176 104 97
18.013739 22.948658 81.837738 179 107 96
18.011827 23.122618 81.829048 194 121 108
18.009138 23.295536 81.816833 218 144 130
18.005701 23.467424 81.801224 238 163 148
18.001553 23.638313 81.782372 241 163 149
17.996746 23.808250 81.760536 221 136 126
17.991344 23.977301 81.736000 188 98 93
17.985418 24.145538 81.709076 168 77 78
19.099220 3.534889 85.927635 168 107 115
19.082638 3.716891 85.853035 177 116 124
19.066153 3.898590 85.778870 185 126 133
19.049694 4.079975 85.704819 191 133 140
19.033192 4.261032 85.630585 195 138 147
19.016588 4.441744 85.555878 199 142 152
18.999830 4.622097 85.480484 201 145 156
18.982882 4.802077 85.404228 201 147 159
18.965717 4.981671 85.327011 201 149 162
18.948330 5.160872 85.248787 202 151 164
18.930729 5.339675 85.169601 203 155 168
18.912943 5.518082 85.089577 205 160 172
18.895004 5.696099 85.008873 206 164 174
18.876972 5.873739 84.927742 203 162 172
18.858906 6.051017 84.846466 195 156 164
18.840874 6.227957 84.765335 189 151 158
18.822941 6.404581 84.684654 191 152 160
18.805178 6.580916 84.604744 194 156 164
18.787643 6.756989 84.525856 196 158 165
18.770386 6.932825 84.448212 200 162 167
18.753439 7.108443 84.371971 203 164 168
18.736828 7.283863 84.297234 200 160 164
18.720551 7.459094 84.224007 199 158 164
18.704599 7.634142 84.152237 207 165 171
18.688944 7.809004 84.081802 212 169 176
18.673542 7.983672 84.012512 209 167 175
18.658342 8.158128 83.944122 207 164 173
18.643284 8.332353 83.876373 202 159 169
18.628302 8.506321 83.808975 195 153 162
18.613333 8.680005 83.741631 193 151 161
18.598316 8.853375 83.674072 199 158 167
18.583200 9.026405 83.606064 213 171 182
18.567936 9.199070 83.537384 225 182 194
18.552496 9.371349 83.467918 226 183 196
18.536861 9.543229 83.397583 226 182 196
18.521034 9.714705 83.326378 227 182 196
18.505024 9.885775 83.254349 232 187 199
18.488863 10.056453 83.181641 230 185 193
18.472597 10.226759 83.108452 210 164 169
18.456278 10.396720 83.035034 196 150 152
18.439978 10.566376 82.961700 208 162 162
18.423769 10.735767 82.888771 220 174 174
18.407734 10.904948 82.816635 216 170 171
18.391954 11.073973 82.745644 207 162 165
18.376514 11.242898 82.676178 198 153 160
18.361490 11.411782 82.608582 191 147 157
18.346954 11.580684 82.543190 194 151 164
18.332968 11.749655 82.480263 205 162 177
18.319580 11.918744 82.420029 218 177 193
18.306824 12.087992 82.362640 227 187 203
18.294725 12.257431 82.308205 219 176 192
18.283283 12.427083 82.256729 199 153 167
18.272488 12.596958 82.208160 186 138 149
18.262314 12.767059 82.162392 186 136 144
18.252722 12.937374 82.119232 192 140 145
18.243658 13.107884 82.078461 196 142 146
18.235071 13.278564 82.039825 195 139 143
18.226889 13.449377 82.003014 195 135 139
18.219048 13.620286 81.967735 196 131 136
18.211483 13.791252 81.933701 195 125 131
18.204134 13.962236 81.900635 192 118 125
18.196943 14.133203 81.868286 188 109 117
18.189873 14.304122 81.836472 185 101 111
18.182886 14.474973 81.805046 189 101 112
18.175968 14.645742 81.773918 196 105 118
18.169111 14.816428 81.743073 192 99 113
18.162329 14.987041 81.712555 175 80 95
18.155638 15.157599 81.682449 159 64 80
18.149073 15.328135 81.652916 153 58 75
18.142673 15.498684 81.624123 157 63 79
18.136486 15.669292 81.596283 165 73 89
18.130564 15.840014 81.569641 173 83 98
18.124960 16.010899 81.544426 175 89 103
18.119724 16.182007 81.520874 175 92 105
18.114906 16.353388 81.499199 175 96 107
18.110550 16.525099 81.479607 177 102 111
18.106693 16.697184 81.462242 180 108 116
18.103361 16.869684 81.447266 182 112 120
18.100580 17.042639 81.434746 183 115 123
18.098362 17.216074 81.424767 183 116 125
18.096714 17.390015 81.417351 181 114 123
18.095636 17.564478 81.412498 178 111 120
18.095121 17.739470 81.410187 177 109 119
18.095160 17.915003 81.410362 177 108 119
18.095739 18.091074 81.412964 177 105 118
18.096838 18.267683 81.417908 176 102 116
18.098438 18.444822 81.425110 176 98 113
18.100515 18.622484 81.434448 176 96 113
18.103046 18.800659 81.445847 176 95 113
18.106005 18.979330 81.459152 177 93 113
18.109364 19.158482 81.474266 177 91 114
18.113096 19.338097 81.491058 176 90 115
18.117165 19.518148 81.509361 175 88 113
18.121536 19.698608 81.529030 177 89 115
18.126173 19.879442 81.549889 183 95 120
18.131029 20.060608 81.571739 188 100 124
18.136057 20.242060 81.594353 184 97 120
18.141201 20.423742 81.617500 180 94 115
18.146400 20.605587 81.640900 178 94 114
18.151594 20.787523 81.664261 176 94 112
18.156704 20.969467 81.687248 175 94 111
18.161661 21.151329 81.709549 175 96 111
18.166382 21.333012 81.730789 176 97 111
18.170784 21.514408 81.750595 176 98 109
18.174789 21.695415 81.768616 176 99 108
18.178314 21.875923 81.784477 177 101 107
18.181282 22.055824 81.797829 178 102 106
18.183624 22.235014 81.808357 178 103 103
18.185276 22.413403 81.815788 177 104 100
18.186184 22.590897 81.819878 174 103 95
18.186310 22.767433 81.820450 171 100 89
18.185631 22.942951 81.817390 176 105 90
18.184130 23.117414 81.810638 194 122 104
18.181814 23.290806 81.800224 217 144 124
18.178705 23.463125 81.786232 235 158 138
18.174833 23.634396 81.768814 239 158 140
18.170250 23.804655 81.748192 231 145 130
18.165009 23.973959 81.724609 205 115 107
18.159178 24.142378 81.698380 181 89 87
19.258873 3.715187 85.813675 176 117 125
19.241770 3.896708 85.737465 184 125 133
19.224689 4.077906 85.661354 190 132 140
19.207565 4.258766 85.585052 195 138 147
19.190340 4.439274 85.508301 200 143 153
19.172966 4.619415 85.430885 201 146 157
19.155405 4.799176 85.352638 201 148 159
19.137642 4.978546 85.273491 200 147 159
19.119667 5.157518 85.193390 198 147 159
19.101490 5.336089 85.112404 197 149 161
19.083141 5.514260 85.030640 200 154 165
19.064657 5.692039 84.948288 203 160 170
19.046097 5.869439 84.865578 202 161 169
19.027515 6.046476 84.782791 195 156 163
19.008986 6.223173 84.700218 192 153 160
18.990570 6.399552 84.618164 195 157 163
18.972340 6.575642 84.536934 196 158 165
18.954346 6.751466 84.456764 198 161 166
18.936642 6.927050 84.377869 203 165 171
18.919258 7.102415 84.300415 205 167 172
18.902220 7.277578 84.224495 202 163 168
18.885527 7.452550 84.150108 203 164 170
18.869164 7.627335 84.077202 213 173 179
18.853109 7.801934 84.005669 217 175 182
18.837318 7.976335 83.935303 210 169 177
18.821739 8.150525 83.865891 205 165 173
18.806314 8.324484 83.797165 201 161 170
18.790985 8.498189 83.728851 198 158 166
18.775682 8.671614 83.660675 202 162 170
18.760353 8.844730 83.592369 211 171 179
18.744944 9.017514 83.523705 219 179 188
18.729416 9.189944 83.454514 225 184 195
18.713736 9.362000 83.384644 225 182 195
18.697891 9.533670 83.314049 224 181 194
18.681881 9.704950 83.242714 220 176 188
18.665724 9.875844 83.170715 219 174 185
18.649443 10.046363 83.098175 227 184 191
18.633091 10.216528 83.025307 226 184 187
18.616716 10.386367 82.952347 211 167 168
18.600389 10.555919 82.879601 205 158 156
18.584185 10.725227 82.807396 211 163 161
18.568182 10.894342 82.736092 209 160 160
18.552460 11.063319 82.666039 201 154 155
18.537102 11.232212 82.597603 200 153 157
18.522179 11.401080 82.531113 198 151 158
18.507767 11.569979 82.466888 196 150 160
18.493916 11.738958 82.405174 200 155 167
18.480679 11.908067 82.346191 208 163 177
18.468084 12.077341 82.290070 212 168 181
18.456150 12.246812 82.236900 207 161 173
18.444881 12.416502 82.186691 195 147 159
18.434261 12.586416 82.139366 187 137 147
18.424261 12.756558 82.094810 185 133 140
18.414843 12.926914 82.052841 186 132 138
18.405947 13.097463 82.013199 187 131 136
18.397518 13.268176 81.975639 186 128 133
18.389488 13.439020 81.939865 186 126 130
18.381788 13.609954 81.905556 187 122 127
18.374355 13.780940 81.872437 186 117 123
18.367125 13.951937 81.840218 184 110 117
18.360043 14.122910 81.808662 181 102 111
18.353069 14.293830 81.777588 180 98 107
18.346170 14.464676 81.746849 185 99 110
18.339329 14.635434 81.716362 188 99 111
18.332541 14.806106 81.686119 180 90 104
18.325817 14.976698 81.656158 165 73 89
18.319178 15.147231 81.626572 152 60 76
18.312658 15.317738 81.597527 148 57 72
18.306297 15.488254 81.569183 154 65 80
18.300148 15.658827 81.541786 165 77 91
18.294260 15.829509 81.515549 170 86 99
18.288687 16.000353 81.490715 172 91 103
18.283482 16.171415 81.467529 172 95 105
18.278694 16.342752 81.446190 172 99 108
18.274368 16.514412 81.426910 176 105 113
18.270540 16.686445 81.409859 182 113 121
18.267242 16.858894 81.395157 186 119 126
18.264492 17.031790 81.382912 188 122 129
18.262310 17.205168 81.373184 188 122 129
18.260700 17.379049 81.366013 186 120 129
18.259661 17.553448 81.361382 184 116 126
18.259192 17.728380 81.359283 183 113 124
18.259275 17.903847 81.359665 183 110 122
18.259907 18.079855 81.362480 182 106 119
18.261063 18.256401 81.367630 180 102 116
18.262726 18.433479 81.375031 177 98 113
18.264874 18.611086 81.384605 175 95 112
18.267485 18.789209 81.396240 175 93 112
18.270536 18.967840 81.409836 175 92 113
18.274000 19.146963 81.425278 175 91 114
18.277853 19.326561 81.442444 175 90 115
18.282063 19.506615 81.461197 174 89 115
18.286594 19.687098 81.481392 175 90 116
18.291414 19.867979 81.502869 181 96 121
18.296480 20.049223 81.525436 187 101 125
18.301746 20.230785 81.548904 183 99 122
18.307158 20.412611 81.573013 179 96 117
18.312658 20.594641 81.597527 178 96 115
18.318180 20.776800 81.622131 178 96 115
18.323654 20.959011 81.646523 177 97 114
18.329002 21.141182 81.670357 176 98 113
18.334146 21.323219 81.693275 177 100 113
18.338999 21.505013 81.714897 177 101 111
18.343475 21.686453 81.734840 177 102 109
18.347490 21.867432 81.752731 177 102 108
18.350962 22.047834 81.768196 177 103 105
18.353813 22.227552 81.780907 177 104 104
18.355976 22.406485 81.790543 177 105 100
18.357388 22.584534 81.796829 173 102 93
18.358006 22.761627 81.799583 167 97 85
18.357790 22.937691 81.798630 173 102 86
18.356728 23.112682 81.793892 193 122 102
18.354813 23.286572 81.785355 219 145 123
18.352058 23.459354 81.773087 230 154 131
18.348492 23.631037 81.757195 229 148 125
18.344158 23.801653 81.737877 229 144 125
18.339106 23.971249 81.715370 216 128 116
19.417425 3.894870 85.697006 181 123 131
19.399679 4.075875 85.618690 187 129 138
19.381891 4.256534 85.540184 194 137 147
19.364004 4.436831 85.461243 199 143 154
19.345970 4.616753 85.381653 201 146 157
19.327761 4.796288 85.301285 201 147 158
19.309359 4.975428 85.220070 200 145 158
19.290760 5.154164 85.137985 196 144 156
19.271976 5.332495 85.055084 194 143 155
19.253038 5.510425 84.971504 194 147 157
19.233986 5.687961 84.887421 197 153 162
19.214876 5.865117 84.803078 199 157 164
19.195768 6.041909 84.718750 198 157 163
19.176729 6.218360 84.634720 199 159 164
19.157825 6.394495 84.551285 199 161 165
19.139122 6.570338 84.468742 194 156 160
19.120672 6.745915 84.387321 193 156 161
19.102526 6.921250 84.307228 202 165 170
19.084713 7.096365 84.228615 209 172 178
19.067253 7.271276 84.151558 214 177 183
19.050152 7.445993 84.076080 219 182 188
19.033390 7.620522 84.002106 217 179 186
19.016943 7.794861 83.929520 211 171 178
19.000769 7.969001 83.858131 205 166 175
18.984819 8.142930 83.787743 205 167 175
18.969036 8.316628 83.718086 202 164 172
18.953360 8.490074 83.648895 202 163 170
18.937729 8.663242 83.579918 211 173 179
18.922089 8.836109 83.510887 223 185 191
18.906389 9.008650 83.441605 227 188 195
18.890594 9.180845 83.371887 226 188 195
18.874674 9.352679 83.301628 228 189 197
18.858618 9.524139 83.230766 229 189 199
18.842424 9.695225 83.159294 221 180 190
18.826113 9.865941 83.087311 208 165 173
18.809715 10.036299 83.014938 216 178 183
18.793270 10.206321 82.942360 234 205 208
18.776840 10.376037 82.869843 226 193 193
18.760487 10.545485 82.797676 206 161 160
18.744286 10.714706 82.726166 204 154 152
18.728313 10.883755 82.655678 201 151 150
18.712648 11.052680 82.586540 194 145 145
18.697371 11.221539 82.519119 196 148 150
18.682552 11.390388 82.453720 200 152 157
18.668259 11.559280 82.390633 199 151 159
18.654547 11.728266 82.330116 197 151 160
18.641457 11.897388 82.272346 199 152 163
18.629023 12.066685 82.217468 199 152 162
18.617254 12.236184 82.165535 196 147 157
18.606155 12.405905 82.116547 191 141 150
18.595705 12.575853 82.070427 188 136 144
18.585875 12.746027 82.027039 186 132 139
18.576620 12.916414 81.986191 183 128 133
18.567883 13.086992 81.947632 182 125 130
18.559605 13.257730 81.911102 184 124 129
18.551720 13.428595 81.876297 185 123 128
18.544153 13.599544 81.842903 185 121 126
18.536842 13.770538 81.810638 182 115 121
18.529724 13.941539 81.779221 175 105 112
18.522747 14.112512 81.748428 173 98 105
18.515865 14.283424 81.718056 179 99 108
18.509052 14.454261 81.687988 187 103 113
18.502289 14.625006 81.658134 184 97 109
18.495571 14.795660 81.628494 172 84 98
18.488913 14.966233 81.599106 159 69 85
18.482336 15.136748 81.570084 147 58 73
18.475876 15.307233 81.541565 143 56 71
18.469572 15.477727 81.513748 151 66 79
18.463478 15.648277 81.486855 160 77 90
18.457645 15.818936 81.461105 165 86 96
18.452127 15.989758 81.436752 167 91 101
18.446978 16.160797 81.414024 167 96 103
18.442247 16.332109 81.393150 168 100 107
18.437977 16.503742 81.374306 174 107 114
18.434206 16.675747 81.357658 183 118 124
18.430964 16.848164 81.343353 190 126 132
18.428274 17.021027 81.331482 191 127 133
18.426149 17.194368 81.322105 191 126 133
18.424599 17.368210 81.315262 190 124 132
18.423618 17.542564 81.310936 189 121 130
18.423210 17.717451 81.309128 189 117 128
18.423357 17.892868 81.309784 188 113 125
18.424051 18.068827 81.312851 185 107 121
18.425274 18.245321 81.318245 182 102 117
18.427010 18.422350 81.325897 178 97 112
18.429235 18.599907 81.335724 174 93 110
18.431934 18.777988 81.347633 173 92 110
18.435081 18.956583 81.361526 173 92 112
18.438654 19.135679 81.377296 174 93 116
18.442629 19.315266 81.394836 174 92 117
18.446980 19.495323 81.414040 172 91 116
18.451675 19.675831 81.434769 171 89 115
18.456684 19.856764 81.456863 175 94 119
18.461962 20.038088 81.480164 181 100 124
18.467468 20.219759 81.504463 181 100 123
18.473152 20.401733 81.529549 180 99 120
18.478958 20.583950 81.555168 180 100 119
18.484818 20.766338 81.581032 180 100 118
18.490662 20.948822 81.606827 179 101 117
18.496414 21.131310 81.632210 179 101 116
18.501989 21.313705 81.656822 180 102 116
18.507305 21.495901 81.680275 181 104 115
18.512268 21.677788 81.702179 181 105 114
18.516788 21.859247 81.722130 181 106 113
18.520781 22.040163 81.739746 180 105 110
18.524162 22.220423 81.754677 179 105 107
18.526855 22.399916 81.766563 177 105 103
18.528793 22.578539 81.775116 172 101 96
18.529922 22.756205 81.780098 166 95 86
18.530201 22.932838 81.781326 170 98 86
18.529600 23.108385 81.778679 190 117 101
18.528114 23.282803 81.772118 216 141 122
18.525745 23.456078 81.761665 224 147 126
18.522514 23.628206 81.747406 215 134 112
18.518459 23.799213 81.729500 219 135 115
18.513626 23.969139 81.708176 219 132 117
19.593126 3.893075 85.657524 179 121 131
19.574680 4.073884 85.576874 185 127 137
19.556187 4.254336 85.496025 192 135 146
19.537596 4.434417 85.414749 199 144 154
19.518864 4.614115 85.332855 203 148 158
19.499966 4.793418 85.250244 203 149 159
19.480886 4.972319 85.166824 203 148 159
19.461628 5.150813 85.082642 200 146 157
19.442205 5.328899 84.997726 196 144 154
19.422651 5.506582 84.912239 194 144 153
19.403009 5.683870 84.826363 196 149 156
19.383331 5.860777 84.740334 199 155 160
19.363680 6.037322 84.654419 202 159 163
19.344122 6.213526 84.568916 206 164 169
19.324722 6.389414 84.484108 204 165 169
19.305542 6.565011 84.400253 192 154 158
19.286636 6.740342 84.317604 187 149 154
19.268049 6.915431 84.236343 196 159 164
19.249811 7.090299 84.156616 210 173 179
19.231939 7.264961 84.078476 223 188 194
19.214432 7.439427 84.001938 228 193 200
19.197277 7.613703 83.926941 216 179 187
19.180445 7.787787 83.853355 203 165 174
19.163898 7.961672 83.781013 207 169 178
19.147583 8.135345 83.709686 210 173 182
19.131445 8.308785 83.639137 205 169 176
19.115427 8.481976 83.569107 203 168 173
19.099470 8.654892 83.499352 214 178 182
19.083523 8.827511 83.429626 228 191 194
19.067533 8.999810 83.359726 231 194 197
19.051472 9.171774 83.289505 230 193 196
19.035311 9.343385 83.218849 232 195 198
19.019039 9.514637 83.147720 235 199 206
19.002661 9.685527 83.076111 233 200 207
18.986195 9.856063 83.004128 215 180 185
18.969671 10.026259 82.931892 210 176 181
18.953136 10.196137 82.859604 232 207 210
18.936646 10.365727 82.787506 234 206 207
18.920263 10.535068 82.715881 214 170 170
18.904060 10.704201 82.645058 207 154 154
18.888119 10.873178 82.575356 201 148 148
18.872509 11.042050 82.507118 190 138 140
18.857309 11.210872 82.440666 192 141 144
18.842590 11.379697 82.376320 200 150 155
18.828417 11.548578 82.314346 203 153 160
18.814837 11.717563 82.254982 201 151 159
18.801893 11.886694 82.198395 199 150 158
18.789612 12.056006 82.144707 198 148 156
18.778006 12.225526 82.093964 194 144 151
18.767069 12.395269 82.046150 190 139 146
18.756783 12.565242 82.001183 190 138 143
18.747112 12.735439 81.958900 189 136 140
18.738012 12.905848 81.919113 187 132 136
18.729424 13.076442 81.881577 187 130 134
18.721287 13.247193 81.846001 190 132 136
18.713531 13.418065 81.812096 194 135 138
18.706089 13.589018 81.779556 196 135 139
18.698893 13.760011 81.748093 190 125 131
18.691879 13.931005 81.717438 173 104 110
18.684998 14.101966 81.687347 166 94 101
18.678205 14.272867 81.657661 184 107 116
18.671474 14.443686 81.628227 198 117 128
18.664789 14.614415 81.598999 187 103 114
18.658148 14.785051 81.569969 168 82 95
18.651562 14.955608 81.541176 155 68 83
18.645058 15.126107 81.512741 145 59 75
18.638670 15.296578 81.484810 143 59 73
18.632441 15.467062 81.457581 149 67 80
18.626421 15.637603 81.431259 156 78 88
18.620665 15.808254 81.406097 159 85 94
18.615227 15.979071 81.382324 161 91 98
18.610157 16.150105 81.360161 163 96 101
18.605509 16.321411 81.339836 166 102 107
18.601324 16.493042 81.321541 173 110 116
18.597635 16.665039 81.305420 183 121 127
18.594481 16.837448 81.291626 190 128 134
18.591871 17.010300 81.280220 192 130 136
18.589830 17.183626 81.271294 193 129 136
18.588360 17.357447 81.264870 194 127 135
18.587463 17.531778 81.260948 194 124 133
18.587130 17.706635 81.259491 194 120 130
18.587357 17.882021 81.260483 192 115 127
18.588131 18.057941 81.263863 189 110 122
18.589434 18.234396 81.269562 184 103 117
18.591249 18.411385 81.277496 178 97 111
18.593561 18.588903 81.287605 173 92 108
18.596352 18.766947 81.299805 171 92 108
18.599600 18.945511 81.314003 172 94 112
18.603287 19.124586 81.330124 175 97 117
18.607388 19.304163 81.348053 176 98 121
18.611883 19.484228 81.367714 173 95 120
18.616745 19.664764 81.388962 166 90 114
18.621943 19.845751 81.411682 167 90 115
18.627438 20.027155 81.435707 174 97 120
18.633190 20.208941 81.460854 178 101 123
18.639151 20.391066 81.486916 180 103 123
18.645267 20.573473 81.513657 181 105 123
18.651472 20.756092 81.540779 181 106 122
18.657696 20.938852 81.567993 181 105 120
18.663858 21.121660 81.594940 180 105 119
18.669880 21.304422 81.621262 181 106 119
18.675669 21.487030 81.646561 183 108 119
18.681129 21.669367 81.670441 185 110 120
18.686174 21.851320 81.692490 185 110 119
18.690704 22.032763 81.712303 183 108 116
18.694633 22.213575 81.729477 181 106 112
18.697878 22.393642 81.743660 178 104 108
18.700365 22.572855 81.754532 172 100 100
18.702030 22.751116 81.761810 166 94 92
18.702826 22.928343 81.765289 166 94 89
18.702717 23.104467 81.764816 182 108 100
18.701687 23.279440 81.760307 205 130 118
18.699732 23.453236 81.751762 214 136 122
18.696867 23.625847 81.739243 205 124 107
18.693123 23.797281 81.722870 209 126 108
18.688543 23.967577 81.702850 214 128 113
19.749687 4.071932 85.535866 185 128 139
19.730450 4.252173 85.452553 191 135 146
19.711115 4.432033 85.368820 199 143 154
19.691648 4.611500 85.284508 205 150 160
19.672024 4.790566 85.199509 207 151 161
19.652235 4.969223 85.113808 207 151 161
19.632284 5.147470 85.027405 205 150 159
19.612194 5.325305 84.940392 200 146 154
19.591997 5.502735 84.852913 197 145 152
19.571737 5.679770 84.765175 201 151 156
19.551474 5.856425 84.677414 205 157 161
19.531265 6.032719 84.589882 208 161 165
19.511177 6.208674 84.502884 212 167 171
19.491272 6.384314 84.416672 210 168 172
19.471611 6.559665 84.331528 197 156 161
19.452248 6.734751 84.247658 184 145 150
19.433220 6.909595 84.165253 190 152 157
19.414558 7.084218 84.084427 207 170 175
19.396275 7.258633 84.005241 221 185 191
19.378370 7.432852 83.927704 221 186 193
19.360828 7.606880 83.851723 207 171 180
19.343616 7.780713 83.777184 203 167 176
19.326700 7.954346 83.703911 216 181 189
19.310024 8.127764 83.631691 220 185 193
19.293537 8.300953 83.560287 210 175 182
19.277182 8.473891 83.489456 208 173 177
19.260900 8.646557 83.418938 215 180 183
19.244644 8.818931 83.348534 227 191 192
19.228369 8.990992 83.278046 235 198 198
19.212040 9.162724 83.207321 236 199 199
19.195637 9.334114 83.136276 233 196 198
19.179148 9.505157 83.064873 235 202 205
19.162582 9.675852 82.993126 241 216 219
19.145958 9.846208 82.921127 229 202 206
19.129309 10.016239 82.849014 213 179 183
19.112679 10.185971 82.776985 225 192 196
19.096123 10.355433 82.705284 236 199 202
19.079708 10.524663 82.634193 225 178 180
19.063503 10.693704 82.564011 217 162 164
19.047583 10.862605 82.495064 206 151 153
19.032026 11.031420 82.427681 192 137 140
19.016901 11.200198 82.362175 189 135 139
19.002277 11.368994 82.298843 197 144 149
18.988214 11.537857 82.237938 205 151 159
18.974762 11.706835 82.179672 207 154 162
18.961958 11.875967 82.124214 205 153 162
18.949823 12.045286 82.071663 204 152 159
18.938368 12.214817 82.022049 198 147 153
18.927584 12.384572 81.975349 193 141 146
18.917452 12.554559 81.931458 195 142 147
18.907928 12.724767 81.890221 198 145 148
18.898972 12.895184 81.851425 197 143 145
18.890522 13.065783 81.814827 196 141 143
18.882513 13.236534 81.780144 200 144 146
18.874878 13.407401 81.747078 206 148 150
18.867548 13.578344 81.715324 209 149 151
18.860455 13.749324 81.684601 196 134 137
18.853537 13.920300 81.654640 169 104 108
18.846743 14.091242 81.625221 165 94 101
18.840034 14.262119 81.596169 195 119 128
18.833385 14.432918 81.567368 212 132 144
18.826778 14.603624 81.538757 191 107 121
18.820215 14.774242 81.510330 165 79 95
18.813709 14.944783 81.482155 151 65 82
18.807287 15.115271 81.454338 145 61 78
18.800987 15.285735 81.427048 145 64 79
18.794847 15.456217 81.400467 151 73 85
18.788925 15.626761 81.374809 156 82 92
18.783266 15.797421 81.350304 158 89 96
18.777933 15.968248 81.327202 158 93 98
18.772972 16.139297 81.305717 160 98 101
18.768433 16.310619 81.286057 166 105 108
18.764357 16.482265 81.268402 174 114 118
18.760782 16.654280 81.252922 183 124 129
18.757736 16.826700 81.239731 190 130 136
18.755238 16.999561 81.228912 192 131 137
18.753304 17.172892 81.220528 195 131 139
18.751938 17.346714 81.214622 197 130 138
18.751139 17.521038 81.211159 198 127 137
18.750906 17.695883 81.210152 198 123 134
18.751226 17.871250 81.211540 197 119 130
18.752090 18.047146 81.215286 194 113 125
18.753485 18.223574 81.221321 187 106 118
18.755392 18.400530 81.229576 179 98 110
18.757797 18.578016 81.239998 172 92 106
18.760685 18.756029 81.252502 170 92 107
18.764040 18.934568 81.267036 172 96 112
18.767843 19.113625 81.283508 175 101 120
18.772076 19.293196 81.301842 179 105 127
18.776720 19.473270 81.321953 175 103 126
18.781750 19.653837 81.343735 164 92 116
18.787140 19.834877 81.367081 161 89 112
18.792854 20.016363 81.391830 169 97 120
18.798859 20.198269 81.417839 175 103 125
18.805101 20.380545 81.444878 179 107 126
18.811535 20.563143 81.472733 180 109 126
18.818092 20.746000 81.501129 180 109 125
18.824703 20.929039 81.529762 179 108 123
18.831289 21.112175 81.558296 179 108 122
18.837767 21.295309 81.586342 180 108 122
18.844040 21.478333 81.613518 183 111 124
18.850016 21.661131 81.639397 186 112 125
18.855595 21.843580 81.663559 186 112 124
18.860680 22.025558 81.685585 185 110 121
18.865175 22.206936 81.705055 183 107 117
18.868994 22.387594 81.721588 179 104 113
18.872049 22.567413 81.734825 173 99 106
18.874275 22.746290 81.744469 166 93 99
18.875612 22.924128 81.750259 164 91 95
18.876024 23.100855 81.752037 173 98 100
18.875479 23.276413 81.749672 191 115 112
18.873968 23.450762 81.743134 199 121 114
18.871502 23.623884 81.732452 197 117 106
18.868103 23.795784 81.717728 204 122 109
19.904661 4.250039 85.409668 190 134 146
19.884550 4.429673 85.323372 198 142 154
19.864311 4.608906 85.236526 204 149 160
19.843927 4.787729 85.149063 206 150 161
19.823397 4.966138 85.060959 207 151 161
19.802725 5.144131 84.972260 208 152 161
19.781937 5.321711 84.883064 203 147 155
19.761072 5.498884 84.793533 200 145 151
19.740177 5.675662 84.703873 206 152 157
19.719307 5.852062 84.614326 212 160 164
19.698524 6.028102 84.525139 214 164 168
19.677893 6.203805 84.436615 214 167 171
19.657476 6.379197 84.349007 210 165 170
19.637329 6.554300 84.262558 198 155 160
19.617502 6.729141 84.177483 184 144 150
19.598034 6.903741 84.093941 186 148 153
19.578949 7.078120 84.012054 200 163 169
19.560257 7.252291 83.931847 211 175 181
19.541958 7.426266 83.853325 210 174 181
19.524031 7.600047 83.776405 203 167 176
19.506445 7.773633 83.700943 208 173 182
19.489162 7.947016 83.626785 223 187 196
19.472130 8.120185 83.553703 223 188 196
19.455297 8.293123 83.481468 215 180 187
19.438606 8.465812 83.409851 214 179 184
19.422005 8.638231 83.338615 218 183 185
19.405443 8.810362 83.267548 227 191 191
19.388880 8.982185 83.196480 238 202 201
19.372284 9.153687 83.125267 240 202 201
19.355637 9.324858 83.053833 234 196 196
19.338932 9.495691 82.982155 232 198 199
19.322178 9.666191 82.910263 239 209 212
19.305393 9.836366 82.838242 233 203 207
19.288614 10.006232 82.766243 217 180 184
19.271883 10.175815 82.694458 222 179 183
19.255260 10.345145 82.623131 237 190 195
19.238808 10.514261 82.552528 237 186 191
19.222595 10.683207 82.482964 229 174 179
19.206696 10.852029 82.414734 215 158 163
19.191183 11.020779 82.348167 196 139 144
19.176125 11.189507 82.283554 187 130 137
19.161589 11.358266 82.221184 191 135 142
19.147629 11.527103 82.161285 201 145 153
19.134296 11.696065 82.104073 210 154 163
19.121620 11.865189 82.049683 214 159 168
19.109623 12.034504 81.998199 212 158 166
19.098307 12.204035 81.949654 203 150 156
19.087666 12.373792 81.903984 194 142 147
19.077669 12.543777 81.861099 194 143 146
19.068283 12.713984 81.820824 200 148 151
19.059458 12.884395 81.782951 203 150 152
19.051130 13.054985 81.747215 204 150 151
19.043238 13.225723 81.713348 208 154 155
19.035709 13.396571 81.681046 216 160 159
19.028477 13.567491 81.650009 215 159 158
19.021475 13.738443 81.619965 197 137 137
19.014643 13.909391 81.590652 168 104 107
19.007933 14.080302 81.561859 172 104 109
19.001303 14.251150 81.533409 210 136 145
18.994732 14.421920 81.505219 220 141 152
18.988205 14.592602 81.477211 190 108 122
18.981726 14.763199 81.449402 161 77 93
18.975307 14.933725 81.421867 148 64 81
18.968979 15.104205 81.394707 145 63 80
18.962778 15.274669 81.368095 148 68 84
18.956747 15.445158 81.342224 155 80 93
18.950939 15.615718 81.317299 161 91 101
18.945404 15.786399 81.293549 162 97 104
18.940197 15.957253 81.271210 159 98 102
18.935368 16.128334 81.250488 160 101 103
18.930965 16.299692 81.231598 166 107 110
18.927029 16.471373 81.214699 175 117 121
18.923592 16.643423 81.199959 185 127 133
18.920683 16.815876 81.187477 191 132 139
18.918320 16.988768 81.177330 194 133 140
18.916515 17.162121 81.169594 196 133 141
18.915274 17.335957 81.164261 199 132 140
18.914597 17.510294 81.161354 200 130 138
18.914476 17.685139 81.160843 202 127 136
18.914906 17.860498 81.162682 202 123 133
18.915873 18.036381 81.166832 198 117 127
18.917368 18.212788 81.173248 190 109 119
18.919374 18.389721 81.181862 180 99 109
18.921881 18.567181 81.192612 172 94 104
18.924873 18.745169 81.205452 169 93 105
18.928337 18.923683 81.220322 170 96 111
18.932261 19.102726 81.237152 175 103 121
18.936626 19.282291 81.255890 182 112 133
18.941422 19.462379 81.276466 180 112 134
18.946625 19.642977 81.298790 164 95 119
18.952209 19.824072 81.322754 159 91 115
18.958149 20.005644 81.348236 169 101 123
18.964407 20.187666 81.375099 176 108 128
18.970940 20.370096 81.403122 179 112 129
18.977694 20.552891 81.432106 180 113 128
18.984610 20.735983 81.461784 180 112 127
18.991617 20.919306 81.491844 179 111 125
18.998634 21.102770 81.521965 179 111 125
19.005577 21.286280 81.551750 181 112 126
19.012350 21.469727 81.580818 184 113 128
19.018852 21.652990 81.608719 186 115 129
19.024984 21.835949 81.635025 186 113 128
19.030640 22.018471 81.659294 186 111 125
19.035721 22.200424 81.681091 184 109 122
19.040129 22.381683 81.700012 181 105 118
19.043777 22.562122 81.715660 174 99 112
19.046587 22.741629 81.727715 167 92 105
19.048494 22.920101 81.735901 163 89 101
19.049450 23.097456 81.740005 166 91 101
19.049417 23.273621 81.739868 176 100 107
19.048384 23.448551 81.735428 183 106 109
19.046349 23.622221 81.726692 192 113 111
19.043327 23.794622 81.713737 203 123 116
20.057869 4.427331 85.278267 199 143 156
20.036831 4.606326 85.188812 204 148 161
20.015656 4.784903 85.098785 206 149 161
19.994352 4.963058 85.008209 206 149 160
19.972933 5.140795 84.917145 207 149 159
19.951424 5.318114 84.825699 204 146 154
19.929869 5.495027 84.734055 202 144 152
19.908316 5.671545 84.642418 209 151 158
19.886822 5.847685 84.551041 217 160 166
19.865452 6.023468 84.460175 219 165 170
19.844267 6.198918 84.370102 213 161 166
