ply
format ascii 1.0
element vertex 1198
property float x
property float y
property float z
property uchar red
property uchar green
property uchar blue
end_header
-4.313809 1.370399 57.356461 93 60 65
-4.312859 1.493711 57.343822 94 61 67
-4.312026 1.617013 57.332745 94 62 68
-4.311282 1.740303 57.322861 94 62 69
-4.310600 1.863577 57.313797 94 61 69
-4.309952 1.986827 57.305180 94 61 69
-4.309310 2.110044 57.296642 92 59 67
-4.308649 2.233213 57.287842 92 59 68
-4.307943 2.356320 57.278458 92 59 69
-4.307170 2.479348 57.268188 89 58 69
-4.306311 2.602280 57.256763 88 59 69
-4.305347 2.725097 57.243954 87 60 69
-4.304265 2.847779 57.229553 87 61 70
-4.303049 2.970307 57.213387 87 62 71
-4.301690 3.092663 57.195316 89 63 73
-4.300179 3.214827 57.175228 92 64 75
-4.298509 3.336781 57.153027 96 66 78
-4.296676 3.458508 57.128654 100 68 82
-4.294675 3.579991 57.102051 102 69 84
-4.292504 3.701212 57.073193 99 66 81
-4.290164 3.822158 57.042076 96 63 78
-4.287654 3.942813 57.008698 95 61 76
-4.284975 4.063164 56.973083 95 60 74
-4.282131 4.183200 56.935265 93 60 72
-4.279125 4.302911 56.895302 91 60 72
-4.275963 4.422288 56.853256 91 61 71
-4.272649 4.541323 56.809200 91 62 71
-4.269194 4.660012 56.763252 91 63 71
-4.265604 4.778352 56.715515 92 65 73
-4.261888 4.896343 56.666115 92 66 73
-4.258059 5.013987 56.615196 91 66 72
-4.254126 5.131287 56.562912 90 64 70
-4.250103 5.248250 56.509422 88 63 67
-4.246003 5.364885 56.454910 87 61 66
-4.241839 5.481202 56.399548 87 60 65
-4.237626 5.597215 56.343521 88 60 66
-4.233376 5.712938 56.287022 89 61 66
-4.229105 5.828388 56.230236 92 62 68
-4.224828 5.943583 56.173359 94 63 69
-4.220558 6.058546 56.116592 95 64 72
-4.216310 6.173295 56.060112 97 64 74
-4.212098 6.287852 56.004101 100 65 76
-4.207934 6.402244 55.948742 102 66 78
-4.203832 6.516491 55.894199 103 66 79
-4.199803 6.630619 55.840626 104 65 80
-4.195856 6.744648 55.788151 103 64 78
-4.192001 6.858603 55.736904 102 63 75
-4.188246 6.972500 55.686966 101 61 73
-4.184595 7.086360 55.638424 100 60 70
-4.181052 7.200196 55.591312 99 59 68
-4.177619 7.314021 55.545666 100 60 67
-4.174294 7.427844 55.501465 103 62 69
-4.171078 7.541671 55.458702 107 65 73
-4.167965 7.655504 55.417316 108 66 74
-4.164951 7.769343 55.377243 106 64 72
-4.162031 7.883186 55.338417 103 63 69
-4.159199 7.997032 55.300762 101 62 69
-4.156449 8.110876 55.264202 100 62 69
-4.153778 8.224716 55.228676 99 63 71
-4.151180 8.338553 55.194138 100 64 74
-4.148656 8.452392 55.160583 100 65 77
-4.146207 8.566239 55.128021 99 64 79
-4.143836 8.680110 55.096493 95 61 77
-4.141549 8.794024 55.066090 92 57 73
-4.139355 8.908006 55.036919 89 55 70
-4.137265 9.022089 55.009125 89 55 70
-4.135292 9.136312 54.982895 92 56 70
-4.133449 9.250711 54.958393 93 56 70
-4.131753 9.365338 54.935837 96 56 71
-4.130216 9.480232 54.915394 99 59 75
-4.128851 9.595441 54.897255 104 63 81
-4.127670 9.711002 54.881554 105 65 84
-4.126680 9.826950 54.868385 104 64 83
-4.125885 9.943313 54.857819 102 63 82
-4.125285 10.060104 54.849838 103 64 82
-4.124875 10.177329 54.844383 106 68 84
-4.124645 10.294982 54.841328 109 71 86
-4.124581 10.413039 54.840477 110 74 87
-4.124663 10.531468 54.841576 111 74 87
-4.124870 10.650223 54.844326 111 74 87
-4.125175 10.769244 54.848377 111 74 89
-4.125550 10.888470 54.853371 112 75 91
-4.125967 11.007826 54.858906 113 75 94
-4.126397 11.127241 54.864616 115 77 98
-4.126812 11.246642 54.870136 117 79 101
-4.127188 11.365960 54.875137 116 79 101
-4.127503 11.485130 54.879337 114 79 98
-4.127743 11.604105 54.882519 115 84 100
-4.127895 11.722844 54.884537 120 91 105
-4.127952 11.841320 54.885292 120 96 109
-4.127914 11.959526 54.884800 119 100 110
-4.127786 12.077464 54.883095 126 111 119
-4.127577 12.195158 54.880322 139 128 135
-4.127299 12.312632 54.876625 141 134 141
-4.126968 12.429931 54.872223 138 136 145
-4.126601 12.547098 54.867332 148 150 160
-4.126214 12.664186 54.862190 155 161 172
-4.125824 12.781244 54.857014 138 147 159
-4.125448 12.898319 54.852001 120 131 142
-4.125097 13.015456 54.847343 135 145 155
-4.124784 13.132689 54.843170 174 182 189
-4.124516 13.250052 54.839611 209 213 217
-4.124300 13.367567 54.836735 232 234 235
-4.124140 13.485257 54.834621 249 249 250
-4.124042 13.603137 54.833309 254 254 254
-4.124007 13.721223 54.832848 254 254 254
-4.124041 13.839538 54.833298 254 254 254
-4.124150 13.958110 54.834751 254 254 254
-4.124342 14.076972 54.837311 254 254 254
-4.124631 14.196177 54.841148 254 254 254
-4.125031 14.315784 54.846466 254 254 254
-4.125562 14.435870 54.853519 254 254 254
-4.126246 14.556530 54.862617 254 254 254
-4.127111 14.677872 54.874119 254 254 254
-4.128185 14.800014 54.888401 254 254 254
-4.129501 14.923089 54.905899 254 254 254
-4.131091 15.047238 54.927036 255 255 255
-4.132988 15.172606 54.952259 254 254 254
-4.135224 15.299337 54.981987 254 254 254
-4.137828 15.427571 55.016617 254 254 254
-4.140829 15.557441 55.056507 254 254 254
-4.144246 15.689062 55.101948 254 254 254
-4.148099 15.822538 55.153175 254 254 254
-4.152397 15.957947 55.210316 254 254 254
-4.157142 16.095335 55.273415 254 254 254
-4.162332 16.234730 55.342419 254 254 254
-4.167954 16.376116 55.417164 254 254 254
-4.173988 16.519459 55.497395 254 254 254
-4.180405 16.664673 55.582718 254 254 254
-4.187171 16.811659 55.672684 254 254 254
-4.194246 16.960276 55.766743 254 254 254
-4.201583 17.110373 55.864304 254 254 254
-4.209135 17.261766 55.964710 254 254 254
-4.216851 17.414272 56.067303 254 254 254
-4.224682 17.567699 56.171425 254 254 254
-4.232583 17.721865 56.276470 250 250 251
-4.240511 17.876600 56.381882 224 229 233
-4.248431 18.031757 56.487190 183 196 202
-4.256316 18.187214 56.592026 153 172 181
-4.264147 18.342894 56.696144 136 161 171
-4.271915 18.498753 56.799435 134 161 173
-4.279620 18.654779 56.901882 148 174 186
-4.287273 18.811018 57.003635 184 202 212
-4.294890 18.967541 57.104919 223 232 237
-4.197110 0.629594 57.451488 98 63 69
-4.194990 0.753059 57.422470 96 60 66
-4.193099 0.876447 57.396580 93 58 64
-4.191424 0.999775 57.373657 92 56 63
-4.189950 1.123059 57.353477 91 56 63
-4.188659 1.246309 57.335800 91 58 63
-4.187527 1.369536 57.320305 92 59 65
-4.186532 1.492744 57.306694 93 60 67
-4.185648 1.615937 57.294598 94 61 69
-4.184850 1.739113 57.283665 94 61 69
-4.184110 1.862268 57.273537 94 61 70
-4.183401 1.985394 57.263832 93 60 69
-4.182698 2.108481 57.254208 92 59 68
-4.181976 2.231517 57.244331 92 58 68
-4.181212 2.354486 57.233871 91 57 68
-4.180386 2.477373 57.222553 89 57 68
-4.179476 2.600160 57.210110 87 58 67
-4.178468 2.722829 57.196312 86 59 67
-4.177348 2.845361 57.180973 86 60 68
-4.176102 2.967739 57.163921 87 62 70
-4.174720 3.089942 57.145008 89 63 71
-4.173196 3.211954 57.124138 91 64 74
-4.171521 3.333757 57.101219 96 67 77
-4.169692 3.455332 57.076180 100 69 81
-4.167705 3.576664 57.048981 102 70 83
-4.165557 3.697736 57.019585 99 66 80
-4.163250 3.818534 56.987995 96 63 76
-4.160781 3.939043 56.954197 94 61 74
-4.158153 4.059252 56.918224 93 60 72
-4.155368 4.179148 56.880108 92 60 71
-4.152430 4.298720 56.839890 90 60 70
-4.149343 4.417962 56.797638 89 60 70
-4.146114 4.536865 56.753437 89 61 71
-4.142750 4.655425 56.707382 90 63 73
-4.139257 4.773640 56.659580 92 65 75
-4.135646 4.891508 56.610149 92 66 76
-4.131927 5.009031 56.559235 91 65 74
-4.128109 5.126214 56.506981 89 64 72
-4.124207 5.243061 56.453552 88 62 69
-4.120229 5.359583 56.399113 87 60 68
-4.116191 5.475789 56.343842 87 59 67
-4.112105 5.591691 56.287914 88 59 66
-4.107985 5.707304 56.231510 89 59 66
-4.103844 5.822645 56.174824 91 61 68
-4.099696 5.937730 56.118042 94 62 70
-4.095554 6.052582 56.061352 96 63 72
-4.091433 6.167219 56.004940 98 64 74
-4.087346 6.281665 55.948994 100 65 77
-4.083305 6.395943 55.893677 102 66 78
-4.079322 6.510075 55.839165 104 66 79
-4.075409 6.624086 55.785603 105 66 79
-4.071577 6.737998 55.733143 105 66 78
-4.067833 6.851834 55.681900 104 65 76
-4.064185 6.965613 55.631966 103 65 74
-4.060639 7.079356 55.583431 102 64 72
-4.057199 7.193076 55.536343 101 61 69
-4.053867 7.306787 55.490726 100 61 68
-4.050642 7.420499 55.446590 103 63 71
-4.047525 7.534220 55.403912 107 67 75
-4.044510 7.647952 55.362644 108 67 76
-4.041594 7.761695 55.322731 104 64 72
-4.038773 7.875450 55.284107 101 61 69
-4.036039 7.989214 55.246696 99 60 68
-4.033390 8.102984 55.210426 97 60 68
-4.030819 8.216760 55.175243 96 61 69
-4.028326 8.330542 55.141106 97 63 72
-4.025907 8.444333 55.107990 99 65 76
-4.023564 8.558145 55.075928 98 63 78
-4.021300 8.671988 55.044937 95 61 76
-4.019122 8.785885 55.015125 92 57 73
-4.017037 8.899858 54.986580 90 54 71
-4.015056 9.013944 54.959461 90 54 70
-4.013190 9.128175 54.933926 91 54 69
-4.011454 9.242593 54.910156 92 53 68
-4.009860 9.357242 54.888340 95 53 69
-4.008422 9.472164 54.868660 99 56 73
-4.007152 9.587402 54.851265 105 63 81
-4.006059 9.702997 54.836308 109 67 86
-4.005150 9.818977 54.823868 106 66 84
-4.004428 9.935369 54.813995 102 64 81
-4.003893 10.052185 54.806664 103 66 82
-4.003538 10.169429 54.801804 106 69 85
-4.003354 10.287089 54.799286 107 71 86
-4.003325 10.405145 54.798897 107 71 85
-4.003434 10.523559 54.800385 106 70 84
-4.003657 10.642283 54.803440 106 70 85
-4.003970 10.761260 54.807713 108 72 89
-4.004344 10.880422 54.812828 111 75 94
-4.004751 10.999701 54.818413 117 81 102
-4.005165 11.119018 54.824070 123 86 109
-4.005558 11.238305 54.829460 121 84 107
-4.005908 11.357491 54.834251 114 76 99
-4.006195 11.476515 54.838169 111 76 97
-4.006402 11.595326 54.841000 116 84 102
-4.006519 11.713888 54.842609 120 92 107
-4.006541 11.832176 54.842911 119 96 109
-4.006468 11.950182 54.841915 119 99 111
-4.006306 12.067913 54.839691 126 112 120
-4.006063 12.185390 54.836365 136 127 135
-4.005752 12.302644 54.832111 134 131 138
-4.005390 12.419720 54.827148 129 130 139
-4.004992 12.536666 54.821716 135 141 150
-4.004579 12.653534 54.816044 139 147 158
-4.004165 12.770380 54.810383 122 133 144
-4.003767 12.887252 54.804935 114 126 136
-4.003399 13.004198 54.799904 150 159 167
-4.003074 13.121262 54.795444 207 212 216
-4.002799 13.238474 54.791687 242 244 245
-4.002583 13.355864 54.788723 252 252 252
-4.002430 13.473458 54.786644 254 254 254
-4.002347 13.591277 54.785503 254 254 254
-4.002337 13.709340 54.785362 254 254 254
-4.002404 13.827673 54.786289 254 254 254
-4.002557 13.946306 54.788380 254 254 254
-4.002803 14.065276 54.791748 254 254 254
-4.003156 14.184637 54.796570 252 252 252
-4.003628 14.304447 54.803032 249 250 249
-4.004239 14.424784 54.811394 250 250 250
-4.005011 14.545743 54.821964 253 253 253
-4.005969 14.667427 54.835072 254 254 254
-4.007140 14.789956 54.851105 255 255 255
-4.008554 14.913461 54.870472 254 254 254
-4.010243 15.038074 54.893581 254 254 254
-4.012235 15.163935 54.920853 254 254 254
-4.014563 15.291191 54.952713 254 254 254
-4.017252 15.419974 54.989525 254 254 254
-4.020329 15.550412 55.031635 254 254 254
-4.023812 15.682620 55.079327 254 254 254
-4.027719 15.816696 55.132809 254 254 254
-4.032059 15.952712 55.192204 254 254 254
-4.036832 16.090715 55.257549 254 254 254
-4.042036 16.230728 55.328777 254 254 254
-4.047657 16.372734 55.405720 254 254 254
-4.053676 16.516695 55.488113 254 254 254
-4.060065 16.662529 55.575569 254 254 254
-4.066791 16.810131 55.667625 254 254 254
-4.073812 16.959360 55.763733 254 254 254
-4.081085 17.110064 55.863297 254 254 254
-4.088564 17.262060 55.965664 254 254 254
-4.096199 17.415165 56.070179 253 254 254
-4.103942 17.569183 56.176174 253 254 254
-4.111749 17.723932 56.283035 252 253 254
-4.119579 17.879240 56.390209 237 241 243
-4.127396 18.034956 56.497215 204 213 219
-4.135175 18.190966 56.603695 175 190 197
-4.142896 18.347176 56.709377 157 177 185
-4.150549 18.503544 56.814148 147 171 178
-4.158136 18.660063 56.917995 144 168 175
-4.165665 18.816765 57.021049 154 174 180
-4.173151 18.973721 57.123528 184 197 201
-4.070945 0.629235 57.418781 99 63 68
-4.068846 0.752622 57.389179 97 60 66
-4.066965 0.875929 57.362633 94 57 64
-4.065287 0.999171 57.338974 92 55 63
-4.063800 1.122364 57.317997 91 55 62
-4.062484 1.245519 57.299442 92 57 64
-4.061321 1.368645 57.283031 93 59 67
-4.060286 1.491747 57.268433 93 60 69
-4.059356 1.614829 57.255314 94 61 70
-4.058505 1.737888 57.243320 94 61 71
-4.057709 1.860920 57.232094 94 61 71
-4.056942 1.983919 57.221279 93 59 70
-4.056180 2.106873 57.210533 92 58 69
-4.055400 2.229770 57.199520 92 57 68
-4.054579 2.352597 57.187946 91 57 67
-4.053698 2.475337 57.175518 89 57 67
-4.052739 2.597973 57.161991 88 58 66
-4.051687 2.720488 57.147152 87 59 66
-4.050527 2.842865 57.130795 86 60 67
-4.049250 2.965084 57.112778 87 62 69
-4.047844 3.087128 57.092953 89 63 70
-4.046303 3.208979 57.071217 91 65 72
-4.044621 3.330620 57.047489 95 67 76
-4.042793 3.452034 57.021702 99 70 80
-4.040816 3.573205 56.993816 101 69 81
-4.038687 3.694118 56.963795 98 66 78
-4.036407 3.814757 56.931633 96 63 76
-4.033976 3.935111 56.897339 95 62 74
-4.031393 4.055164 56.860912 94 61 72
-4.028663 4.174908 56.822407 92 60 70
-4.025788 4.294332 56.781857 90 59 69
-4.022773 4.413427 56.739338 88 60 70
-4.019624 4.532187 56.694916 89 61 72
-4.016346 4.650607 56.648685 90 63 74
-4.012949 4.768684 56.600761 92 65 76
-4.009439 4.886420 56.551266 92 65 76
-4.005827 5.003813 56.500320 91 64 75
-4.002124 5.120870 56.448082 90 63 74
-3.998339 5.237596 56.394699 90 61 72
-3.994484 5.353997 56.340336 89 59 70
-3.990573 5.470086 56.285164 89 58 68
-3.986616 5.585874 56.229359 90 58 67
-3.982627 5.701375 56.173092 91 58 67
-3.978619 5.816605 56.116558 93 60 69
-3.974604 5.931582 56.059933 96 61 70
-3.970596 6.046325 56.003403 98 62 73
-3.966608 6.160855 55.947151 100 64 75
-3.962652 6.275194 55.891354 102 65 77
-3.958741 6.389365 55.836193 104 66 78
-3.954886 6.503390 55.781822 105 66 79
-3.951099 6.617293 55.728405 106 66 78
-3.947389 6.731099 55.676075 106 66 77
-3.943765 6.844829 55.624966 106 66 76
-3.940235 6.958502 55.575169 106 67 75
-3.936804 7.072140 55.526775 104 66 73
-3.933476 7.185758 55.479839 102 63 71
-3.930254 7.299369 55.434387 101 63 70
-3.927137 7.412984 55.390434 103 65 73
-3.924126 7.526611 55.347961 107 68 76
-3.921217 7.640255 55.306931 107 67 76
-3.918406 7.753916 55.267284 103 63 72
-3.915689 7.867595 55.228962 99 60 68
-3.913061 7.981289 55.191898 97 59 67
-3.910517 8.094999 55.156017 95 58 66
-3.908053 8.208720 55.121262 95 60 68
-3.905666 8.322457 55.087597 98 63 72
-3.903356 8.436213 55.055008 99 64 77
-3.901122 8.549999 55.023506 99 64 78
-3.898969 8.663826 54.993130 96 62 76
-3.896901 8.777716 54.963970 94 58 74
-3.894927 8.891693 54.936127 92 55 71
-3.893056 9.005788 54.909737 92 53 69
-3.891300 9.120039 54.884964 93 53 69
-3.889671 9.234485 54.861988 96 53 69
-3.888181 9.349168 54.840981 99 55 71
-3.886844 9.464129 54.822117 104 58 76
-3.885669 9.579412 54.805546 110 65 83
-3.884666 9.695051 54.791405 114 70 88
-3.883841 9.811077 54.779758 110 68 85
-3.883195 9.927513 54.770649 105 64 81
-3.882727 10.044370 54.764053 106 66 82
-3.882431 10.161647 54.759872 107 69 84
-3.882296 10.279334 54.757973 107 70 84
-3.882308 10.397406 54.758141 105 68 82
-3.882447 10.515823 54.760105 102 67 82
-3.882693 10.634540 54.763565 102 68 83
-3.883018 10.753493 54.768158 103 70 87
-3.883398 10.872618 54.773510 111 78 99
-3.883805 10.991841 54.779247 130 96 119
-3.884211 11.111091 54.784985 140 105 130
-3.884593 11.230292 54.790367 128 92 117
-3.884927 11.349379 54.795082 111 75 99
-3.885195 11.468289 54.798866 109 74 97
-3.885382 11.586975 54.801502 115 83 103
-3.885479 11.705400 54.802868 118 90 107
-3.885481 11.823542 54.802891 117 94 108
-3.885388 11.941393 54.801582 116 97 109
-3.885207 12.058965 54.799026 120 107 116
-3.884947 12.176278 54.795361 128 121 129
-3.884621 12.293366 54.790760 126 125 133
-3.884245 12.410276 54.785461 122 128 135
-3.883837 12.527061 54.779709 128 138 146
-3.883415 12.643771 54.773750 127 140 148
-3.882996 12.760468 54.767838 112 126 136
-3.882596 12.877201 54.762196 122 135 144
-3.882230 12.994026 54.757034 175 183 189
-3.881909 13.110982 54.752518 230 233 236
-3.881645 13.228110 54.748795 253 253 254
-3.881445 13.345443 54.745975 254 254 254
-3.881316 13.463006 54.744144 254 254 254
-3.881262 13.580827 54.743382 254 254 254
-3.881288 13.698929 54.743755 254 254 254
-3.881400 13.817338 54.745338 254 254 254
-3.881606 13.936088 54.748234 254 254 254
-3.881913 14.055219 54.752567 254 254 254
-3.882333 14.174780 54.758492 249 249 249
-3.882880 14.294835 54.766209 244 244 244
-3.883572 14.415461 54.775967 246 246 246
-3.884430 14.536749 54.788063 252 252 252
-3.885476 14.658801 54.802822 254 254 254
-3.886738 14.781735 54.820618 254 254 254
-3.888241 14.905674 54.841824 254 254 254
-3.890016 15.030752 54.866856 254 254 254
-3.892091 15.157107 54.896122 254 254 254
-3.894493 15.284873 54.930004 254 254 254
-3.897249 15.414184 54.968876 254 254 254
-3.900382 15.545163 55.013058 254 254 254
-3.903909 15.677919 55.062817 254 254 254
-3.907847 15.812549 55.118351 254 254 254
-3.912202 15.949121 55.179783 254 254 254
-3.916977 16.087683 55.247135 254 254 254
-3.922167 16.228251 55.320335 255 255 255
-3.927759 16.370808 55.399204 254 254 254
-3.933734 16.515316 55.483479 254 254 254
-3.940065 16.661694 55.572781 254 254 254
-3.946720 16.809832 55.666637 254 254 254
-3.953659 16.959599 55.764511 254 254 254
-3.960840 17.110830 55.865799 254 254 254
-3.968218 17.263353 55.969856 254 254 254
-3.975744 17.416979 56.076015 252 254 254
-3.983374 17.571514 56.183624 251 254 254
-3.991062 17.726774 56.292061 250 254 253
-3.998770 17.882589 56.400776 246 250 251
-4.006463 18.038807 56.509281 233 239 242
-4.014114 18.195305 56.617199 212 222 226
-4.021705 18.351994 56.724270 183 197 202
-4.029227 18.508823 56.830360 154 171 176
-4.036678 18.665785 56.935452 133 150 155
-4.044066 18.822906 57.039661 126 143 147
-4.051407 18.980259 57.143211 144 157 161
-3.944848 0.628865 57.384998 98 62 69
-3.942776 0.752172 57.354862 97 60 67
-3.940909 0.875395 57.327702 95 58 65
-3.939235 0.998550 57.303349 93 56 64
-3.937740 1.121651 57.281609 92 56 64
-3.936407 1.244710 57.262215 93 57 65
-3.935216 1.367734 57.244896 93 58 67
-3.934147 1.490729 57.229340 93 60 69
-3.933176 1.613698 57.215210 94 61 70
-3.932278 1.736638 57.202156 94 61 71
-3.931431 1.859546 57.189835 94 60 70
-3.930610 1.982414 57.177895 93 59 70
-3.929793 2.105233 57.166008 92 58 69
-3.928958 2.227990 57.153851 92 57 68
-3.928083 2.350671 57.141129 91 57 67
-3.927151 2.473260 57.127567 90 58 67
-3.926144 2.595743 57.112923 89 59 66
-3.925049 2.718100 57.096989 88 60 66
-3.923852 2.840316 57.079582 87 61 67
-3.922544 2.962372 57.060547 87 62 68
-3.921114 3.084251 57.039749 89 63 70
-3.919556 3.205935 57.017090 90 64 72
-3.917866 3.327409 56.992500 93 66 75
-3.916037 3.448655 56.965897 97 68 78
-3.914068 3.569659 56.937256 98 68 79
-3.911957 3.690405 56.906544 97 65 76
-3.909702 3.810879 56.873749 96 63 74
-3.907305 3.931067 56.838871 96 62 73
-3.904766 4.050959 56.801937 95 62 72
-3.902087 4.170542 56.762974 93 61 71
-3.899272 4.289807 56.722027 92 61 70
-3.896327 4.408747 56.679173 90 61 71
-3.893254 4.527355 56.634472 90 62 73
-3.890061 4.645627 56.588028 91 63 75
-3.886755 4.763560 56.539940 91 64 76
-3.883345 4.881155 56.490334 91 64 76
-3.879839 4.998413 56.439339 91 63 75
-3.876248 5.115337 56.387093 92 62 75
-3.872581 5.231934 56.333744 93 61 74
-3.868849 5.348213 56.279465 93 59 72
-3.865064 5.464181 56.224407 93 58 70
-3.861238 5.579853 56.168747 94 57 69
-3.857383 5.695241 56.112663 95 58 69
-3.853510 5.810362 56.056328 97 59 71
-3.849632 5.925232 55.999916 98 61 73
-3.845762 6.039871 55.943619 100 63 75
-3.841912 6.154299 55.887611 102 65 77
-3.838093 6.268537 55.832058 104 66 78
-3.834318 6.382607 55.777142 105 67 79
-3.830598 6.496535 55.723026 106 67 79
-3.826943 6.610343 55.669868 106 67 78
-3.823364 6.724053 55.617794 106 67 77
-3.819868 6.837688 55.566940 107 68 76
-3.816463 6.951270 55.517410 107 68 75
-3.813154 7.064817 55.469280 106 68 74
-3.809947 7.178347 55.422619 104 66 72
-3.806842 7.291873 55.377464 102 65 71
-3.803842 7.405407 55.333820 104 67 73
-3.800945 7.518958 55.291679 107 68 76
-3.798149 7.632528 55.250996 106 67 75
-3.795449 7.746122 55.211731 103 64 73
-3.792843 7.859739 55.173817 99 61 69
-3.790325 7.973379 55.137196 96 59 67
-3.787892 8.087040 55.101791 95 59 66
-3.785538 8.200723 55.067558 96 61 68
-3.783262 8.314428 55.034451 99 64 72
-3.781063 8.428162 55.002460 101 66 76
-3.778942 8.541933 54.971596 101 66 78
-3.776901 8.655755 54.941906 99 64 76
-3.774946 8.769650 54.913467 96 61 74
-3.773083 8.883640 54.886379 95 57 72
-3.771324 8.997760 54.860786 94 55 70
-3.769678 9.112042 54.836842 96 55 70
-3.768157 9.226526 54.814705 100 55 71
-3.766772 9.341255 54.794571 104 57 74
-3.765536 9.456270 54.776588 109 61 79
-3.764458 9.571608 54.760902 116 69 86
-3.763546 9.687305 54.747631 123 75 92
-3.762805 9.803392 54.736851 119 74 90
-3.762235 9.919887 54.728573 112 68 84
-3.761837 10.036798 54.722775 109 67 82
-3.761601 10.154128 54.719349 108 67 82
-3.761518 10.271857 54.718143 105 67 82
-3.761574 10.389963 54.718945 102 66 81
-3.761747 10.508405 54.721474 99 66 81
-3.762019 10.627132 54.725422 98 67 83
-3.762363 10.746085 54.730427 99 69 88
-3.762754 10.865194 54.736118 115 85 108
-3.763166 10.984391 54.742119 146 115 141
-3.763573 11.103598 54.748039 156 124 152
-3.763952 11.222745 54.753548 132 98 126
-3.764280 11.341763 54.758320 110 75 101
-3.764540 11.460596 54.762104 110 75 100
-3.764719 11.579195 54.764706 114 83 104
-3.764807 11.697523 54.765987 115 86 105
-3.764802 11.815563 54.765907 115 90 107
-3.764703 11.933307 54.764469 113 94 108
-3.764518 12.050769 54.761784 115 103 113
-3.764256 12.167970 54.757973 119 115 124
-3.763932 12.284950 54.753250 121 123 131
-3.763560 12.401754 54.747841 123 131 139
-3.763158 12.518436 54.742001 128 140 149
-3.762746 12.635056 54.735992 119 134 144
-3.762338 12.751668 54.730068 110 126 135
-3.761954 12.868331 54.724472 140 153 162
-3.761606 12.985099 54.719418 198 206 211
-3.761308 13.102018 54.715084 239 242 245
-3.761070 13.219130 54.711628 251 253 254
-3.760901 13.336470 54.709164 253 254 254
-3.760808 13.454070 54.707806 254 254 254
-3.760795 13.571956 54.707623 254 254 254
-3.760869 13.690156 54.708698 254 254 254
-3.761035 13.808700 54.711117 254 254 254
-3.761300 13.927619 54.714970 254 254 254
-3.761672 14.046957 54.720387 254 254 254
-3.762164 14.166766 54.727531 248 248 248
-3.762787 14.287105 54.736591 243 244 243
-3.763558 14.408052 54.747818 246 247 246
-3.764498 14.529696 54.761482 252 252 252
-3.765626 14.652136 54.777905 254 254 254
-3.766969 14.775486 54.797440 254 254 254
-3.768552 14.899868 54.820461 254 254 254
-3.770401 15.025409 54.847351 254 254 254
-3.772542 15.152244 54.878506 254 254 254
-3.775003 15.280502 54.914299 255 255 255
-3.777806 15.410315 54.955078 254 254 254
-3.780973 15.541799 55.001152 255 255 255
-3.784523 15.675063 55.052780 254 254 254
-3.788466 15.810197 55.110153 254 254 254
-3.792813 15.947269 55.173374 254 254 254
-3.797562 16.086325 55.242466 254 254 254
-3.802711 16.227377 55.317360 254 254 254
-3.808245 16.370415 55.397873 254 254 254
-3.814148 16.515394 55.483738 254 254 254
-3.820393 16.662235 55.574585 254 254 254
-3.826948 16.810829 55.669937 254 254 254
-3.833777 16.961046 55.769276 254 254 254
-3.840838 17.112726 55.871990 254 254 254
-3.848087 17.265694 55.977444 254 254 254
-3.855479 17.419762 56.084976 253 254 254
-3.862970 17.574739 56.193935 252 254 254
-3.870515 17.730438 56.303699 252 254 254
-3.878078 17.886692 56.413715 253 254 254
-3.885624 18.043344 56.523491 249 252 252
-3.893128 18.200270 56.632645 229 237 235
-3.900571 18.357378 56.740913 190 201 202
-3.907942 18.514616 56.848145 150 162 164
-3.915241 18.671968 56.954319 123 134 138
-3.922474 18.829468 57.059544 115 125 128
-3.929657 18.987171 57.164021 124 132 136
-3.936809 19.145180 57.268059 148 153 159
-3.818834 0.628485 57.350300 97 61 68
-3.816797 0.751711 57.319698 96 59 67
-3.814951 0.874850 57.291985 95 58 66
-3.813287 0.997917 57.266994 94 57 65
-3.811791 1.120925 57.244534 93 57 64
-3.810447 1.243886 57.224350 93 57 65
-3.809237 1.366809 57.206173 93 58 67
-3.808139 1.489696 57.189686 94 60 68
-3.807133 1.612552 57.174568 94 61 70
-3.806195 1.735373 57.160488 94 61 70
-3.805303 1.858156 57.147091 94 61 70
-3.804435 1.980894 57.134048 93 60 69
-3.803568 2.103576 57.121033 92 58 68
-3.802682 2.226192 57.107735 91 57 67
-3.801759 2.348726 57.093864 91 58 67
-3.800780 2.471165 57.079159 91 58 67
-3.799730 2.593492 57.063393 91 60 67
-3.798595 2.715690 57.046352 90 61 67
-3.797364 2.837743 57.027874 88 61 67
-3.796028 2.959634 57.007797 88 62 68
-3.794577 3.081345 56.986004 88 62 70
-3.793005 3.202860 56.962395 90 63 72
-3.791306 3.324163 56.936890 92 64 75
-3.789479 3.445238 56.909447 95 66 77
-3.787519 3.566070 56.880005 97 66 77
-3.785424 3.686644 56.848549 97 64 75
-3.783195 3.806947 56.815071 96 63 73
-3.780831 3.926966 56.779579 97 63 73
-3.778334 4.046690 56.742077 97 64 73
-3.775706 4.166107 56.702614 96 63 72
-3.772951 4.285209 56.661236 94 62 71
-3.770072 4.403988 56.617996 93 62 71
-3.767074 4.522439 56.572983 92 62 72
-3.763965 4.640558 56.526279 91 63 74
-3.760750 4.758342 56.478008 92 63 76
-3.757438 4.875792 56.428268 92 63 76
-3.754037 4.992909 56.377197 93 62 75
-3.750557 5.109698 56.324932 94 62 75
-3.747008 5.226165 56.271626 95 61 74
-3.743399 5.342317 56.217426 95 60 72
-3.739742 5.458166 56.162510 96 58 70
-3.736047 5.573721 56.107025 97 57 70
-3.732327 5.688998 56.051151 98 57 71
-3.728592 5.804012 55.995064 100 58 72
-3.724854 5.918778 55.938923 101 60 74
-3.721125 6.033318 55.882923 103 63 77
-3.717416 6.147649 55.827229 104 65 79
-3.713739 6.261794 55.772007 106 66 80
-3.710105 6.375775 55.717438 106 67 80
-3.706526 6.489615 55.663673 107 67 79
-3.703009 6.603337 55.610867 107 67 77
-3.699566 6.716965 55.559166 106 67 76
-3.696205 6.830520 55.508686 107 68 76
-3.692933 6.944025 55.459541 107 68 75
-3.689754 7.057497 55.411804 106 67 74
-3.686674 7.170955 55.365551 104 66 72
-3.683695 7.284413 55.320805 103 66 72
-3.680817 7.397882 55.277592 104 67 73
-3.678041 7.511372 55.235893 105 68 74
-3.675363 7.624887 55.195686 105 68 74
-3.672781 7.738430 55.156906 104 67 73
-3.670291 7.852003 55.119514 101 64 71
-3.667889 7.965605 55.083435 99 62 69
-3.665570 8.079234 55.048607 98 61 68
-3.663330 8.192893 55.014980 98 64 70
-3.661168 8.306581 54.982513 101 67 73
-3.659084 8.420308 54.951202 103 68 77
-3.657076 8.534080 54.921055 104 69 79
-3.655149 8.647911 54.892113 102 67 78
-3.653307 8.761823 54.864456 100 64 76
-3.651558 8.875842 54.838192 98 60 73
-3.649911 8.989996 54.813450 97 58 71
-3.648375 9.104322 54.790386 99 57 71
-3.646962 9.218861 54.769165 102 58 72
-3.645682 9.333649 54.749947 106 58 75
-3.644547 9.448728 54.732895 111 61 78
-3.643565 9.564136 54.718151 122 73 89
-3.642743 9.679906 54.705811 140 90 106
-3.642087 9.796066 54.695946 139 90 106
-3.641595 9.912634 54.688560 120 73 88
-3.641265 10.029616 54.683609 108 64 78
-3.641091 10.147011 54.681000 107 65 79
-3.641062 10.264801 54.680557 105 66 80
-3.641161 10.382959 54.682056 102 66 80
-3.641372 10.501443 54.685223 98 67 81
-3.641673 10.620202 54.689735 96 67 83
-3.642039 10.739176 54.695236 97 71 88
-3.642447 10.858294 54.701351 116 89 110
-3.642870 10.977487 54.707706 146 117 143
-3.643283 11.096679 54.713921 153 123 152
-3.643666 11.215799 54.719658 131 100 129
-3.643996 11.334784 54.724621 113 80 109
-3.644257 11.453572 54.728542 113 80 107
-3.644437 11.572121 54.731247 115 83 109
-3.644528 11.690394 54.732613 115 86 108
-3.644527 11.808375 54.732594 114 89 108
-3.644435 11.926062 54.731220 114 96 110
-3.644260 12.043464 54.728584 115 105 117
-3.644011 12.160609 54.724850 118 115 125
-3.643702 12.277536 54.720207 125 129 138
-3.643349 12.394294 54.714909 132 142 150
-3.642970 12.510940 54.709213 126 141 150
-3.642582 12.627529 54.703388 109 127 136
-3.642203 12.744123 54.697693 117 134 143
-3.641849 12.860785 54.692379 164 178 185
-3.641535 12.977565 54.687668 214 223 227
-3.641274 13.094515 54.683754 238 243 246
-3.641077 13.211678 54.680782 245 248 250
-3.640952 13.329092 54.678902 251 252 253
-3.640906 13.446793 54.678215 255 255 255
-3.640945 13.564808 54.678810 254 254 254
-3.641076 13.683167 54.680763 254 254 254
-3.641302 13.801898 54.684162 254 254 254
-3.641632 13.921040 54.689121 254 254 254
-3.642073 14.040632 54.695747 254 254 254
-3.642637 14.160728 54.704205 251 251 251
-3.643335 14.281388 54.714691 248 249 248
-3.644182 14.402685 54.727421 250 251 250
-3.645198 14.524707 54.742680 253 253 253
-3.646402 14.647550 54.760757 254 254 254
-3.647817 14.771324 54.782005 254 254 254
-3.649466 14.896148 54.806774 254 254 254
-3.651375 15.022145 54.835438 254 254 254
-3.653568 15.149444 54.868366 254 254 254
-3.656068 15.278172 54.905922 254 254 254
-3.658900 15.408453 54.948441 254 254 254
-3.662081 15.540405 54.996220 254 254 254
-3.665629 15.674129 55.049503 254 254 254
-3.669555 15.809713 55.108467 254 254 254
-3.673868 15.947227 55.173229 254 254 254
-3.678566 16.086710 55.243790 254 254 254
-3.683647 16.228178 55.320087 254 254 254
-3.689098 16.371620 55.401947 254 254 254
-3.694901 16.516989 55.489098 254 254 254
-3.701032 16.664213 55.581181 254 254 254
-3.707461 16.813181 55.677723 254 254 254
-3.714152 16.963764 55.778210 254 254 254
-3.721067 17.115807 55.882050 255 255 255
-3.728162 17.269136 55.988605 254 254 254
-3.735394 17.423565 56.097221 254 254 254
-3.742721 17.578903 56.207256 254 254 254
-3.750101 17.734970 56.318085 254 254 254
-3.757497 17.891586 56.429153 254 254 254
-3.764876 18.048603 56.539967 249 251 250
-3.772212 18.205893 56.650143 227 231 231
-3.779488 18.363359 56.759403 191 196 197
-3.786692 18.520950 56.867592 155 160 161
-3.793822 18.678644 56.974678 130 134 137
-3.800885 18.836466 57.080746 121 124 127
-3.807894 18.994473 57.186005 123 124 128
-3.814869 19.152763 57.290749 126 126 133
-3.692922 0.628096 57.314850 97 61 69
-3.690925 0.751241 57.283855 96 59 67
-3.689108 0.874295 57.255657 95 58 66
-3.687462 0.997274 57.230099 95 58 65
-3.685972 1.120190 57.206985 93 58 64
-3.684625 1.243054 57.186069 93 58 65
-3.683402 1.365875 57.167091 93 59 66
-3.682283 1.488656 57.149727 94 60 68
-3.681249 1.611399 57.133686 94 61 69
-3.680278 1.734102 57.118610 93 61 69
-3.679349 1.856761 57.104187 93 61 68
-3.678440 1.979370 57.090080 93 61 68
-3.677531 2.101917 57.075974 91 59 66
-3.676602 2.224392 57.061558 90 58 65
-3.675636 2.346781 57.046566 91 58 65
-3.674617 2.469069 57.030750 91 60 66
-3.673529 2.591241 57.013870 92 61 68
-3.672361 2.713280 56.995739 92 62 69
-3.671102 2.835171 56.976192 89 61 68
-3.669742 2.956897 56.955086 88 61 69
-3.668273 3.078440 56.932285 89 62 71
-3.666690 3.199786 56.907722 91 63 74
-3.664989 3.320918 56.881317 93 64 76
-3.663164 3.441821 56.853001 94 65 77
-3.661215 3.562480 56.822750 96 64 77
-3.659140 3.682882 56.790543 96 63 75
-3.656937 3.803013 56.756359 96 63 73
-3.654609 3.922861 56.720215 98 65 74
-3.652154 4.042414 56.682125 99 66 74
-3.649578 4.161664 56.642139 98 65 72
-3.646882 4.280601 56.600296 96 64 71
-3.644070 4.399217 56.556660 95 63 71
-3.641148 4.517509 56.511303 93 62 72
-3.638122 4.635472 56.464333 93 62 73
-3.634997 4.753105 56.415848 93 62 74
-3.631783 4.870409 56.365967 93 62 74
-3.628488 4.987384 56.314812 94 62 74
-3.625119 5.104037 56.262527 95 61 74
-3.621687 5.220373 56.209263 96 60 73
-3.618201 5.336401 56.155170 97 59 72
-3.614672 5.452129 56.100399 98 58 71
-3.611110 5.567571 56.045113 99 57 71
-3.607526 5.682739 55.989487 100 57 72
-3.603931 5.797650 55.933689 101 57 73
-3.600335 5.912319 55.877876 102 59 75
-3.596749 6.026765 55.822231 104 61 77
-3.593185 6.141008 55.766914 106 65 80
-3.589654 6.255069 55.712109 107 67 82
-3.586165 6.368969 55.657963 106 67 81
-3.582730 6.482734 55.604652 106 67 79
-3.579358 6.596384 55.552307 106 67 77
-3.576057 6.709942 55.501080 105 67 75
-3.572836 6.823432 55.451088 105 67 75
-3.569701 6.936875 55.402439 105 67 74
-3.566659 7.050290 55.355217 104 66 73
-3.563712 7.163693 55.309483 103 66 72
-3.560864 7.277101 55.265274 103 66 72
-3.558114 7.390523 55.222607 103 66 72
-3.555464 7.503971 55.181473 104 67 73
-3.552911 7.617450 55.141846 105 67 73
-3.550451 7.730961 55.103672 104 67 73
-3.548082 7.844508 55.066898 103 66 72
-3.545799 7.958089 55.031464 102 65 71
-3.543598 8.071706 54.997311 101 65 71
-3.541476 8.185357 54.964378 101 66 72
-3.539432 8.299048 54.932648 103 68 75
-3.537463 8.412782 54.902088 105 71 79
-3.535571 8.526570 54.872730 106 72 80
-3.533759 8.640428 54.844612 105 70 80
-3.532032 8.754374 54.817806 102 67 77
-3.530397 8.868434 54.792427 101 64 74
-3.528862 8.982639 54.768597 101 62 73
-3.527435 9.097024 54.746460 102 61 73
-3.526129 9.211628 54.726196 105 60 74
-3.524954 9.326488 54.707947 107 59 75
-3.523918 9.441647 54.691879 109 59 75
-3.523031 9.557137 54.678108 126 74 90
-3.522299 9.672994 54.666748 161 109 125
-3.521725 9.789242 54.657841 164 113 128
-3.521309 9.905895 54.651386 126 78 92
-3.521049 10.022964 54.647339 105 58 72
-3.520936 10.140439 54.645584 106 62 75
-3.520959 10.258306 54.645954 106 66 80
-3.521104 10.376532 54.648205 103 67 81
-3.521353 10.495075 54.652061 99 68 82
-3.521684 10.613885 54.657200 96 70 84
-3.522075 10.732899 54.663269 97 72 90
-3.522501 10.852048 54.669888 107 84 105
-3.522939 10.971260 54.676678 126 101 127
-3.523364 11.090464 54.683277 135 107 136
-3.523756 11.209587 54.689354 129 99 129
-3.524094 11.328568 54.694611 120 89 120
-3.524364 11.447348 54.698799 117 85 114
-3.524554 11.565883 54.701744 115 85 112
-3.524657 11.684143 54.703346 113 86 110
-3.524670 11.802109 54.703548 112 89 109
-3.524597 11.919784 54.702412 114 98 113
-3.524443 12.037177 54.700016 119 110 122
-3.524219 12.154321 54.696548 123 120 130
-3.523939 12.271253 54.692200 135 140 148
-3.523618 12.388023 54.687225 143 153 161
-3.523275 12.504692 54.681896 120 135 144
-3.522926 12.621318 54.676479 103 119 128
-3.522589 12.737962 54.671246 130 146 154
-3.522279 12.854685 54.666439 184 197 203
-3.522013 12.971546 54.662304 221 230 235
-3.521802 13.088594 54.659027 235 240 243
-3.521656 13.205876 54.656773 243 245 247
-3.521586 13.323431 54.655678 251 251 252
-3.521597 13.441294 54.655857 254 254 254
-3.521697 13.559498 54.657406 254 254 254
-3.521890 13.678071 54.660400 254 254 254
-3.522183 13.797046 54.664940 254 254 254
-3.522581 13.916458 54.671124 254 254 254
-3.523093 14.036350 54.679070 253 253 253
-3.523728 14.156772 54.688923 251 251 251
-3.524498 14.277782 54.700878 251 252 251
-3.525418 14.399456 54.715153 253 253 253
-3.526504 14.521874 54.732002 254 254 254
-3.527774 14.645133 54.751724 254 254 254
-3.529250 14.769337 54.774635 254 254 254
-3.530954 14.894599 54.801075 254 254 254
-3.532908 15.021039 54.831402 254 254 254
-3.535136 15.148785 54.865978 254 254 254
-3.537659 15.277955 54.905144 254 254 254
-3.540499 15.408670 54.949215 254 254 254
-3.543674 15.541046 54.998489 254 254 254
-3.547199 15.675181 55.053200 254 254 254
-3.551085 15.811162 55.113518 254 254 254
-3.555340 15.949055 55.179550 254 254 254
-3.559964 16.088898 55.251308 254 254 254
-3.564951 16.230709 55.328716 255 255 255
-3.570293 16.374477 55.411617 254 254 254
-3.575971 16.520157 55.499741 254 254 254
-3.581963 16.667677 55.592735 254 254 254
-3.588240 16.816936 55.690159 254 254 254
-3.594768 16.967800 55.791485 254 254 254
-3.601511 17.120121 55.896133 254 254 254
-3.608428 17.273726 56.003487 254 254 254
-3.615478 17.428434 56.112900 252 254 254
-3.622618 17.584055 56.223724 250 253 252
-3.629811 17.740404 56.335342 249 252 251
-3.637018 17.897314 56.447212 252 253 252
-3.644210 18.054625 56.558826 247 247 247
-3.651360 18.212208 56.669796 228 226 228
-3.658451 18.369972 56.779842 202 199 202
-3.665470 18.527853 56.888786 178 173 176
-3.672416 18.685829 56.996593 159 154 158
-3.679294 18.843922 57.103344 146 142 146
-3.686116 19.002184 57.209221 135 131 138
-3.692900 19.160707 57.314510 120 115 125
-3.567125 0.627701 57.278790 99 63 71
-3.565175 0.750764 57.247482 97 61 69
-3.563395 0.873734 57.218891 96 60 67
-3.561772 0.996625 57.192841 95 59 66
-3.560297 1.119449 57.169155 92 58 65
-3.558954 1.242218 57.147579 92 59 65
-3.557726 1.364938 57.127869 93 60 66
-3.556595 1.487613 57.109711 93 61 67
-3.555542 1.610245 57.092793 93 62 68
-3.554546 1.732833 57.076809 93 62 68
-3.553588 1.855371 57.061417 93 62 67
-3.552646 1.977852 57.046299 92 61 67
-3.551703 2.100266 57.031151 90 59 64
-3.550740 2.222603 57.015682 89 58 63
-3.549740 2.344850 56.999626 89 59 64
-3.548688 2.466990 56.982735 90 60 65
-3.547570 2.589010 56.964790 91 61 67
-3.546376 2.710894 56.945610 91 61 69
-3.545094 2.832626 56.925030 89 61 70
-3.543717 2.954189 56.902924 90 61 71
-3.542237 3.075567 56.879154 91 62 73
-3.540649 3.196746 56.853661 93 63 75
-3.538949 3.317709 56.826355 94 64 77
-3.537133 3.438443 56.797199 95 64 77
-3.535199 3.558931 56.766148 95 64 76
-3.533146 3.679162 56.733181 95 63 75
-3.530974 3.799123 56.698307 96 64 74
-3.528683 3.918801 56.661510 99 66 75
-3.526275 4.038186 56.622841 100 67 75
-3.523751 4.157269 56.582321 99 66 73
-3.521116 4.276041 56.540005 97 65 71
-3.518374 4.394496 56.495968 96 64 71
-3.515528 4.512630 56.450272 95 63 72
-3.512585 4.630439 56.403027 95 62 72
-3.509553 4.747922 56.354332 95 61 72
-3.506438 4.865081 56.304306 95 61 72
-3.503247 4.981916 56.253075 96 61 73
-3.499990 5.098435 56.200779 97 61 74
-3.496676 5.214643 56.147568 98 61 74
-3.493315 5.330548 56.093586 99 60 73
-3.489914 5.446161 56.038986 99 58 72
-3.486486 5.561493 55.983932 100 57 72
-3.483039 5.676558 55.928589 100 56 72
-3.479584 5.791371 55.873108 101 57 73
-3.476132 5.905949 55.817677 103 59 76
-3.472692 6.020310 55.762440 104 62 79
-3.469275 6.134474 55.707577 106 65 81
-3.465892 6.248461 55.653248 107 67 82
-3.462552 6.362293 55.599617 106 67 81
-3.459265 6.475993 55.546833 104 66 78
-3.456040 6.589585 55.495049 103 65 76
-3.452885 6.703089 55.444397 103 65 75
-3.449809 6.816530 55.394993 103 65 74
-3.446817 6.929928 55.346954 102 65 73
-3.443915 7.043302 55.300354 102 65 72
-3.441106 7.156669 55.255249 101 65 71
-3.438393 7.270045 55.211693 101 64 71
-3.435778 7.383442 55.169693 100 64 70
-3.433259 7.496868 55.129238 102 65 71
-3.430833 7.610329 55.090298 103 66 72
-3.428500 7.723829 55.052837 104 67 73
-3.426256 7.837370 55.016792 104 67 73
-3.424095 7.950951 54.982105 102 66 73
-3.422016 8.064574 54.948719 102 67 73
-3.420015 8.178240 54.916584 103 68 74
-3.418089 8.291949 54.885658 104 69 75
-3.416239 8.405711 54.855942 105 70 78
-3.414464 8.519534 54.827450 106 72 80
-3.412768 8.633433 54.800217 105 71 79
-3.411156 8.747430 54.774330 104 69 78
-3.409634 8.861548 54.749886 103 67 75
-3.408209 8.975820 54.727016 103 64 74
-3.406892 9.090279 54.705868 105 63 75
-3.405692 9.204963 54.686600 107 62 75
-3.404619 9.319911 54.669365 107 61 74
-3.403682 9.435161 54.654308 107 59 73
-3.402887 9.550748 54.641556 125 74 89
-3.402242 9.666703 54.631199 164 113 127
-3.401749 9.783051 54.623280 166 116 130
-3.401407 9.899807 54.617794 126 78 92
-3.401213 10.016973 54.614681 102 56 70
-3.401160 10.134543 54.613815 104 60 74
-3.401235 10.252500 54.615025 105 66 80
-3.401424 10.370809 54.618065 103 68 82
-3.401710 10.489429 54.622658 99 69 83
-3.402072 10.608306 54.628475 97 70 86
-3.402489 10.727379 54.635155 97 72 90
-3.402936 10.846580 54.642338 101 78 99
-3.403390 10.965835 54.649635 110 86 111
-3.403831 11.085073 54.656704 120 94 123
-3.404236 11.204228 54.663208 129 101 131
-3.404588 11.323235 54.668861 130 100 132
-3.404872 11.442039 54.673431 121 91 122
-3.405079 11.560598 54.676750 113 85 112
-3.405201 11.678882 54.678711 111 87 110
-3.405238 11.796878 54.679302 112 92 110
-3.405191 11.914584 54.678551 117 103 117
-3.405069 12.032021 54.676586 126 119 129
-3.404881 12.149214 54.673569 130 129 137
-3.404641 12.266208 54.669716 138 143 150
-3.404364 12.383051 54.665272 141 150 158
-3.404068 12.499804 54.660519 116 130 139
-3.403770 12.616528 54.655727 104 119 129
-3.403486 12.733283 54.651165 136 149 158
-3.403233 12.850137 54.647102 185 196 203
-3.403024 12.967144 54.643757 220 227 232
-3.402873 13.084355 54.641323 237 241 243
-3.402789 13.201820 54.639988 247 248 249
-3.402783 13.319579 54.639877 253 253 253
-3.402859 13.437666 54.641102 254 254 254
-3.403025 13.556116 54.643772 254 254 254
-3.403286 13.674959 54.647968 254 254 254
-3.403648 13.794228 54.653774 254 254 254
-3.404116 13.913957 54.661293 254 254 254
-3.404698 14.034186 54.670635 253 253 253
-3.405403 14.154968 54.681957 251 251 251
-3.406242 14.276361 54.695427 252 253 252
-3.407228 14.398431 54.711258 254 254 254
-3.408376 14.521261 54.729694 254 254 254
-3.409703 14.644941 54.751007 254 254 254
-3.411230 14.769576 54.775520 254 254 254
-3.412975 14.895270 54.803547 254 254 254
-3.414961 15.022141 54.835423 255 255 255
-3.417207 15.150309 54.871498 254 254 254
-3.419736 15.279894 54.912109 254 254 254
-3.422566 15.411009 54.957554 254 254 254
-3.425715 15.543767 55.008118 254 254 254
-3.429197 15.678262 55.064018 254 254 254
-3.433022 15.814581 55.125435 254 254 254
-3.437196 15.952787 55.192467 254 254 254
-3.441721 16.092924 55.265133 254 254 254
-3.446593 16.235006 55.343365 254 254 254
-3.451802 16.379023 55.426998 254 254 254
-3.457332 16.524935 55.515793 254 254 254
-3.463161 16.672672 55.609394 254 254 254
-3.469262 16.822132 55.707367 254 254 254
-3.475605 16.973194 55.809216 254 254 254
-3.482154 17.125708 55.914371 255 255 255
-3.488870 17.279503 56.022217 254 255 255
-3.495715 17.434406 56.132126 249 252 252
-3.502648 17.590227 56.243462 241 247 245
-3.509632 17.746784 56.355602 239 244 241
-3.516633 17.903908 56.468010 247 249 247
-3.523618 18.061440 56.580177 248 248 246
-3.530563 18.219250 56.691704 232 230 227
-3.537451 18.377241 56.802307 215 209 205
-3.544271 18.535351 56.911812 203 195 192
-3.551018 18.693550 57.020145 196 190 188
-3.557696 18.851856 57.127384 185 181 181
-3.564317 19.010317 57.233704 159 155 159
-3.570898 19.169020 57.339375 120 113 124
-3.441455 0.627301 57.242264 100 63 71
-3.439560 0.750282 57.210735 98 63 70
-3.437821 0.873168 57.181820 97 62 69
-3.436231 0.995972 57.155369 94 61 67
-3.434777 1.118706 57.131191 92 60 66
-3.433447 1.241380 57.109055 92 60 66
-3.432222 1.364002 57.088692 92 61 67
-3.431088 1.486574 57.069817 93 62 68
-3.430024 1.609098 57.052128 94 63 69
-3.429012 1.731573 57.035297 93 62 68
-3.428034 1.853992 57.019024 92 62 66
-3.427069 1.976350 57.002979 91 61 65
-3.426101 2.098636 56.986874 90 59 64
-3.425112 2.220839 56.970428 88 59 63
-3.424087 2.342947 56.953377 89 59 64
-3.423012 2.464945 56.935486 89 59 65
-3.421873 2.586818 56.916553 89 59 66
-3.420661 2.708551 56.896385 89 59 67
-3.419365 2.830128 56.874840 89 59 68
-3.417979 2.951534 56.851788 91 60 70
-3.416496 3.072753 56.827106 93 61 73
-3.414910 3.193770 56.800728 94 63 75
-3.413218 3.314570 56.772579 95 63 77
-3.411416 3.435138 56.742611 95 63 77
-3.409503 3.555461 56.710800 96 63 76
-3.407478 3.675527 56.677120 96 63 75
-3.405341 3.795322 56.641575 97 64 76
-3.403092 3.914834 56.604160 98 65 76
-3.400733 4.034056 56.564926 99 66 75
-3.398266 4.152976 56.523895 98 66 74
-3.395695 4.271588 56.481133 97 65 72
-3.393024 4.389886 56.436699 96 63 71
-3.390257 4.507865 56.390675 96 62 71
-3.387401 4.625525 56.343166 96 60 71
-3.384461 4.742862 56.294270 96 59 71
-3.381446 4.859880 56.244118 96 59 71
-3.378362 4.976581 56.192825 96 60 72
-3.375218 5.092970 56.140533 98 61 73
-3.372023 5.209054 56.087391 98 61 74
-3.368786 5.324843 56.033543 99 60 73
-3.365515 5.440345 55.979137 99 58 72
-3.362221 5.555573 55.924343 100 57 72
-3.358912 5.670542 55.869316 100 57 72
-3.355599 5.785265 55.814205 101 58 73
-3.352291 5.899761 55.759186 102 59 75
-3.348998 6.014045 55.704414 104 62 78
-3.345731 6.128140 55.650059 106 65 81
-3.342497 6.242064 55.596275 107 67 82
-3.339307 6.355840 55.543221 106 68 81
-3.336171 6.469491 55.491055 102 65 78
-3.333096 6.583037 55.439911 101 64 76
-3.330091 6.696504 55.389923 100 64 75
-3.327162 6.809912 55.341209 100 63 74
-3.324317 6.923282 55.293880 99 63 73
-3.321559 7.036635 55.248009 100 63 72
-3.318892 7.149986 55.203655 99 63 71
-3.316319 7.263351 55.160854 99 63 71
-3.313840 7.376741 55.119625 99 62 70
-3.311456 7.490167 55.079960 100 63 70
-3.309163 7.603633 55.041832 102 66 72
-3.306960 7.717144 55.005184 103 67 73
-3.304843 7.830700 54.969971 102 66 73
-3.302809 7.944304 54.936134 102 66 73
-3.300853 8.057954 54.903610 102 67 74
-3.298974 8.171653 54.872353 103 67 75
-3.297169 8.285403 54.842331 104 68 76
-3.295438 8.399212 54.813530 104 69 77
-3.293781 8.513089 54.785973 105 70 79
-3.292201 8.627050 54.759701 105 71 79
-3.290704 8.741115 54.734787 105 70 78
-3.289294 8.855309 54.711338 104 68 77
-3.287979 8.969663 54.689476 105 65 76
-3.286770 9.084211 54.669353 105 64 76
-3.285674 9.198992 54.651123 106 63 76
-3.284700 9.314040 54.634930 108 61 76
-3.283858 9.429396 54.620918 109 62 77
-3.283153 9.545092 54.609200 121 72 87
-3.282592 9.661160 54.599869 145 95 110
-3.282176 9.777621 54.592957 146 97 111
-3.281906 9.894489 54.588455 120 72 86
-3.281775 10.011765 54.586285 104 58 72
-3.281778 10.129443 54.586327 103 61 75
-3.281903 10.247501 54.588398 104 66 78
-3.282134 10.365908 54.592251 102 68 80
-3.282456 10.484618 54.597607 99 69 81
-3.282848 10.603579 54.604130 96 70 84
-3.283289 10.722728 54.611465 97 73 89
-3.283758 10.841997 54.619255 101 78 98
-3.284231 10.961317 54.627125 105 82 105
-3.284688 11.080615 54.634720 113 88 116
-3.285109 11.199826 54.641731 129 103 133
-3.285478 11.318887 54.647869 136 109 140
-3.285782 11.437747 54.652920 123 98 126
-3.286010 11.556362 54.656715 110 86 111
-3.286158 11.674709 54.659180 111 90 110
-3.286224 11.792775 54.660286 117 100 115
-3.286213 11.910562 54.660088 129 118 128
-3.286129 12.028086 54.658707 141 135 143
-3.285986 12.145381 54.656319 139 138 145
-3.285795 12.262487 54.653137 137 142 148
-3.285571 12.379460 54.649422 134 143 150
-3.285332 12.496356 54.645443 118 130 139
-3.285094 12.613239 54.641483 112 123 134
-3.284873 12.730171 54.637806 131 141 151
-3.284685 12.847216 54.634678 173 181 188
-3.284543 12.964431 54.632320 213 217 222
-3.284460 13.081869 54.630939 234 237 238
-3.284446 13.199578 54.630707 244 245 245
-3.284509 13.317599 54.631756 251 251 251
-3.284657 13.435969 54.634205 254 254 254
-3.284894 13.554722 54.638153 254 254 254
-3.285225 13.673883 54.643669 254 254 254
-3.285658 13.793491 54.650860 254 254 254
-3.286196 13.913579 54.659813 254 254 254
-3.286847 14.034186 54.670635 254 254 254
-3.287618 14.155359 54.683468 252 253 253
-3.288521 14.277157 54.698479 253 253 253
-3.289566 14.399644 54.715866 254 254 254
-3.290768 14.522898 54.735859 254 254 254
-3.292143 14.647007 54.758732 254 254 254
-3.293708 14.772068 54.784763 254 254 254
-3.295482 14.898186 54.814274 254 254 254
-3.297484 15.025470 54.847572 254 254 254
-3.299735 15.154038 54.885010 254 254 254
-3.302253 15.284005 54.926884 254 254 254
-3.305056 15.415483 54.973511 254 254 254
-3.308160 15.548577 55.025143 254 254 254
-3.311579 15.683384 55.082008 254 254 254
-3.315322 15.819986 55.144276 254 254 254
-3.319397 15.958447 55.212044 254 254 254
-3.323803 16.098808 55.285339 253 253 253
-3.328538 16.241087 55.364094 251 251 251
-3.333593 16.385279 55.448170 250 250 250
-3.338953 16.531343 55.537323 252 252 252
-3.344598 16.679214 55.631214 254 254 254
-3.350503 16.828798 55.729443 254 254 254
-3.356639 16.979973 55.831509 254 254 254
-3.362973 17.132595 55.936859 253 254 254
-3.369469 17.286499 56.044899 253 254 254
-3.376088 17.441513 56.155006 247 249 249
-3.382795 17.597452 56.266563 236 240 239
-3.389552 17.754137 56.378956 231 234 233
-3.396326 17.911396 56.491627 241 243 241
-3.403088 18.069075 56.604095 250 251 248
-3.409812 18.227039 56.715942 232 230 225
-3.416482 18.385191 56.826881 209 200 196
-3.423086 18.543463 56.936718 204 193 189
-3.429618 18.701822 57.045376 216 207 204
-3.436083 18.860279 57.152912 218 214 213
-3.442491 19.018881 57.259483 187 182 187
