ply
format ascii 1.0
element vertex 1211
property float x
property float y
property float z
property uchar red
property uchar green
property uchar blue
end_header
-2.479922 8.624665 48.155472 125 62 75
-2.477679 8.720578 48.111923 124 63 75
-2.475599 8.816883 48.071533 124 63 75
-2.473664 8.913537 48.033962 123 62 74
-2.471854 9.010485 47.998817 122 62 72
-2.470146 9.107658 47.965660 122 61 72
-2.468517 9.204979 47.934010 122 60 71
-2.466939 9.302360 47.903381 122 60 70
-2.465388 9.399709 47.873257 123 61 70
-2.463838 9.496933 47.843163 124 61 70
-2.462265 9.593940 47.812626 124 61 70
-2.460649 9.690640 47.781231 125 61 70
-2.458968 9.786953 47.748604 124 60 70
-2.457209 9.882807 47.714436 122 59 70
-2.455358 9.978139 47.678486 119 57 69
-2.453406 10.072904 47.640583 117 56 68
-2.451348 10.167067 47.600628 115 56 68
-2.449183 10.260609 47.558594 114 56 69
-2.446914 10.353527 47.514526 114 56 69
-2.444546 10.445833 47.468544 114 56 69
-2.442088 10.537554 47.420815 113 56 68
-2.439553 10.628730 47.371582 112 55 67
-2.436954 10.719416 47.321114 112 54 66
-2.434309 10.809680 47.269764 113 55 65
-2.431638 10.899604 47.217888 114 56 65
-2.428960 10.989276 47.165897 115 56 64
-2.426300 11.078801 47.114235 115 57 64
-2.423679 11.168290 47.063354 115 57 64
-2.421125 11.257866 47.013756 114 56 65
-2.418662 11.347655 46.965927 113 56 66
-2.416316 11.437793 46.920368 114 57 69
-2.414113 11.528419 46.877598 115 58 72
-2.412079 11.619672 46.838097 115 60 74
-2.986447 -1.815676 60.524754 116 71 95
-2.982829 -1.683163 60.451431 116 71 94
-2.978889 -1.550799 60.371590 118 72 95
-2.974634 -1.418629 60.285347 121 75 97
-2.970072 -1.286698 60.192902 122 75 97
-2.965216 -1.155051 60.094494 121 74 96
-2.960082 -1.023732 59.990444 121 74 96
-2.954686 -0.892782 59.881084 121 75 98
-2.949048 -0.762242 59.766815 119 75 99
-2.943188 -0.632146 59.648060 119 75 100
-2.937129 -0.502528 59.525249 119 75 102
-2.930891 -0.373417 59.398827 119 74 101
-2.924496 -0.244838 59.269234 118 72 100
-2.917966 -0.116812 59.136887 120 72 99
-2.911319 0.010643 59.002186 121 72 98
-2.904574 0.137513 58.865482 123 73 99
-2.897744 0.263785 58.727074 125 74 101
-2.890844 0.389451 58.587223 126 73 101
-2.883882 0.514503 58.446133 125 72 100
-2.876865 0.638935 58.303925 125 72 99
-2.869797 0.762740 58.160675 127 75 102
-2.862678 0.885912 58.016396 129 77 104
-2.855506 1.008443 57.871052 130 78 104
-2.848277 1.130325 57.724548 130 79 103
-2.840984 1.251547 57.576744 130 80 103
-2.833618 1.372096 57.427464 127 81 100
-2.826170 1.491958 57.276516 128 81 100
-2.818629 1.611117 57.123680 131 85 102
-2.810984 1.729552 56.968754 136 90 106
-2.803225 1.847245 56.811501 143 95 111
-2.795342 1.964172 56.651745 149 101 117
-2.787327 2.080312 56.489304 148 98 114
-2.779173 2.195642 56.324047 138 88 105
-2.770875 2.310140 56.155884 132 83 100
-2.762432 2.423784 55.984756 133 86 103
-2.753842 2.536557 55.810680 135 90 107
-2.745110 2.648441 55.633701 138 93 110
-2.736239 2.759423 55.453934 141 96 113
-2.727240 2.869494 55.271542 144 98 115
-2.718121 2.978647 55.086731 147 98 115
-2.708895 3.086883 54.899757 149 98 115
-2.699577 3.194204 54.710926 149 97 115
-2.690185 3.300618 54.520569 145 94 113
-2.680735 3.406140 54.329063 141 91 111
-2.671249 3.510787 54.136810 138 89 109
-2.661747 3.614584 53.944241 138 89 109
-2.652252 3.717561 53.751801 139 92 112
-2.642786 3.819750 53.559963 141 94 114
-2.633375 3.921194 53.369232 143 95 116
-2.624043 4.021936 53.180107 143 96 115
-2.614815 4.122029 52.993099 142 95 114
-2.605719 4.221527 52.808746 141 93 112
-2.596779 4.320490 52.627567 143 92 112
-2.588021 4.418984 52.450073 145 92 114
-2.579470 4.517074 52.276775 146 90 114
-2.571149 4.614830 52.108139 144 87 112
-2.563079 4.712321 51.944592 140 82 108
-2.555280 4.809616 51.786526 133 78 103
-2.547766 4.906779 51.634239 127 76 99
-2.540549 5.003871 51.487984 120 74 96
-2.533638 5.100946 51.347908 112 74 92
-2.527035 5.198053 51.214088 104 74 89
-2.520739 5.295228 51.086494 93 72 83
-2.514744 5.392498 50.964996 76 62 69
-2.509039 5.489879 50.849380 57 47 51
-2.503609 5.587375 50.739338 43 36 38
-2.498435 5.684979 50.634480 38 30 32
-2.493495 5.782672 50.534351 38 27 29
-2.488762 5.880425 50.438438 41 26 29
-2.484211 5.978201 50.346203 50 29 34
-2.479813 6.075955 50.257076 66 37 44
-2.475540 6.173637 50.170479 83 48 57
-2.471365 6.271194 50.085869 94 53 63
-2.467262 6.368570 50.002708 97 52 63
-2.463207 6.465714 49.920521 100 50 63
-2.459178 6.562576 49.838882 103 49 63
-2.455160 6.659114 49.757450 105 50 63
-2.451139 6.755292 49.675961 109 52 64
-2.447106 6.851084 49.594215 116 57 70
-2.443055 6.946475 49.512119 121 62 75
-2.438987 7.041462 49.429676 124 64 77
-2.434905 7.136054 49.346958 124 63 77
-2.430819 7.230274 49.264133 124 62 76
-2.426738 7.324153 49.181427 124 62 76
-2.422678 7.417741 49.099144 125 61 75
-2.418655 7.511092 49.017628 125 60 73
-2.414690 7.604270 48.937267 125 59 72
-2.410802 7.697346 48.858456 125 58 73
-2.407011 7.790399 48.781628 127 59 73
-2.403337 7.883504 48.707172 127 60 73
-2.399799 7.976740 48.635468 127 60 73
-2.396413 8.070180 48.566849 127 60 72
-2.393193 8.163892 48.501602 127 60 72
-2.390152 8.257936 48.439964 126 60 72
-2.387295 8.352363 48.382069 125 60 73
-2.384627 8.447205 48.327988 125 61 74
-2.382146 8.542486 48.277706 126 61 75
-2.379848 8.638215 48.231129 127 62 76
-2.377723 8.734381 48.188068 127 63 77
-2.375758 8.830955 48.148251 127 64 77
-2.373937 8.927898 48.111347 126 64 76
-2.372241 9.025154 48.076962 125 62 74
-2.370645 9.122653 48.044632 124 61 72
-2.369128 9.220315 48.013874 124 61 71
-2.367662 9.318049 47.984177 124 60 70
-2.366224 9.415764 47.955025 124 60 69
-2.364787 9.513357 47.925903 125 61 69
-2.363328 9.610737 47.896336 126 61 70
-2.361825 9.707807 47.865871 126 61 70
-2.360258 9.804482 47.834122 125 60 70
-2.358612 9.900683 47.800747 124 60 70
-2.356872 9.996346 47.765488 122 59 70
-2.355029 10.091418 47.728149 120 58 70
-2.353078 10.185858 47.688606 118 57 70
-2.351016 10.279644 47.646820 117 57 70
-2.348845 10.372766 47.602821 117 57 71
-2.346570 10.465238 47.556721 118 57 71
-2.344200 10.557076 47.508671 117 57 70
-2.341744 10.648322 47.458900 115 56 69
-2.339218 10.739030 47.407703 115 56 68
-2.336637 10.829267 47.355412 116 56 67
-2.334022 10.919110 47.302395 117 56 67
-2.331390 11.008655 47.249069 117 57 66
-2.328766 11.098000 47.195877 117 57 66
-2.326172 11.187263 47.143307 117 57 66
-2.323632 11.276565 47.091843 117 57 67
-2.321173 11.366035 47.041996 116 57 68
-2.318819 11.455812 46.994289 116 58 70
-2.316596 11.546036 46.949234 117 60 73
-2.314528 11.636849 46.907341 117 61 75
-2.861046 -1.818899 60.632206 117 72 94
-2.857579 -1.686151 60.558743 116 71 93
-2.853805 -1.553552 60.478748 118 72 94
-2.849728 -1.421147 60.392345 121 76 97
-2.845357 -1.288982 60.299717 122 76 97
-2.840704 -1.157101 60.201122 120 73 95
-2.835785 -1.025548 60.096867 120 73 96
-2.830614 -0.894366 59.987282 121 75 99
-2.825210 -0.763593 59.872765 120 75 100
-2.819593 -0.633266 59.753723 118 72 100
-2.813783 -0.503417 59.630600 118 71 100
-2.807801 -0.374077 59.503830 117 69 99
-2.801667 -0.245270 59.373840 116 67 97
-2.795402 -0.117018 59.241055 117 67 97
-2.789023 0.010662 59.105869 120 68 97
-2.782547 0.137754 58.968632 123 70 99
-2.775989 0.264246 58.829647 125 72 101
-2.769361 0.390129 58.689178 125 72 101
-2.762671 0.515395 58.547424 125 72 100
-2.755929 0.640038 58.404526 125 72 100
-2.749135 0.764050 58.260551 128 75 103
-2.742292 0.887426 58.115540 130 79 105
-2.735399 1.010157 57.969448 129 79 105
-2.728451 1.132237 57.822205 127 79 102
-2.721442 1.253653 57.673660 127 79 101
-2.714364 1.374395 57.523674 126 80 99
-2.707209 1.494447 57.372051 128 82 99
-2.699968 1.613793 57.218586 130 84 100
-2.692630 1.732416 57.063076 135 88 103
-2.685185 1.850295 56.905312 146 98 113
-2.677626 1.967409 56.745113 158 108 125
-2.669944 2.083737 56.582314 155 104 122
-2.662133 2.199257 56.416782 140 88 108
-2.654189 2.313947 56.248436 133 82 103
-2.646111 2.427787 56.077225 135 87 107
-2.637897 2.540760 55.903160 137 91 110
-2.629551 2.652849 55.726295 139 94 113
-2.621079 2.764041 55.546749 139 95 112
-2.612488 2.874329 55.364681 140 96 112
-2.603787 2.983707 55.180294 143 97 113
-2.594990 3.092174 54.993851 146 98 114
-2.586109 3.199734 54.805653 147 98 114
-2.577160 3.306396 54.616013 145 96 114
-2.568161 3.412173 54.425304 142 93 112
-2.559131 3.517085 54.233921 141 92 111
-2.550088 3.621154 54.042282 141 92 111
-2.541054 3.724409 53.850826 142 93 114
-2.532049 3.826885 53.660007 144 95 116
-2.523098 3.928620 53.470303 145 96 117
-2.514222 4.029658 53.282211 144 95 116
-2.505446 4.130049 53.096214 142 93 114
-2.496793 4.229847 52.912834 142 92 113
-2.488286 4.329111 52.732567 144 92 113
-2.479951 4.427901 52.555916 146 92 114
-2.471808 4.526284 52.383354 145 90 114
-2.463881 4.624325 52.215351 142 85 111
-2.456187 4.722093 52.052299 137 80 106
-2.448745 4.819653 51.894588 131 76 102
-2.441568 4.917067 51.742504 125 74 98
-2.434669 5.014397 51.596287 118 74 95
-2.428053 5.111692 51.456081 111 74 93
-2.421724 5.209002 51.321957 104 75 91
-2.415681 5.306359 51.193886 96 75 86
-2.409917 5.403792 51.071739 80 66 74
-2.404423 5.501316 50.955315 59 50 55
-2.399185 5.598934 50.844299 43 35 38
-2.394184 5.696639 50.738327 37 28 31
-2.389401 5.794412 50.636948 38 26 30
-2.384811 5.892229 50.539680 43 26 30
-2.380390 5.990049 50.445984 51 29 34
-2.376111 6.087832 50.355312 66 38 44
-2.371950 6.185529 50.267120 84 50 57
-2.367879 6.283087 50.180862 93 53 62
-2.363877 6.380457 50.096039 96 52 60
-2.359920 6.477587 50.012188 99 50 60
-2.355990 6.574430 49.928902 103 50 61
-2.352072 6.670945 49.845856 106 51 62
-2.348152 6.767099 49.762787 109 52 64
-2.344223 6.862870 49.679527 115 56 69
-2.340281 6.958242 49.595997 122 61 75
-2.336327 7.053216 49.512188 124 63 77
-2.332364 7.147802 49.428200 125 63 77
-2.328400 7.242023 49.344193 125 62 76
-2.324446 7.335916 49.260406 125 62 76
-2.320517 7.429524 49.177139 125 61 75
-2.316629 7.522908 49.094742 126 60 73
-2.312800 7.616131 49.013603 126 59 72
-2.309050 7.709266 48.934120 126 59 72
-2.305397 7.802390 48.856709 126 59 72
-2.301861 7.895580 48.781780 126 60 72
-2.298460 7.988916 48.709705 126 60 71
-2.295209 8.082471 48.640816 126 60 71
-2.292123 8.176314 48.575409 126 60 71
-2.289211 8.270507 48.513702 126 60 71
-2.286481 8.365099 48.455849 125 59 72
-2.283937 8.460127 48.401920 125 59 72
-2.281576 8.555615 48.351902 126 60 74
-2.279396 8.651569 48.305695 127 61 76
-2.277387 8.747982 48.263111 127 63 78
-2.275536 8.844827 48.223885 127 63 77
-2.273827 8.942061 48.187675 127 63 77
-2.272242 9.039631 48.154076 126 63 74
-2.270758 9.137464 48.122631 125 62 72
-2.269352 9.235478 48.092834 124 61 70
-2.267999 9.333584 48.064171 124 60 69
-2.266675 9.431683 48.036102 124 60 68
-2.265353 9.529674 48.008095 125 60 68
-2.264012 9.627457 47.979660 126 60 69
-2.262627 9.724934 47.950317 126 61 70
-2.261180 9.822015 47.919659 126 61 70
-2.259655 9.918616 47.887325 125 60 71
-2.258036 10.014666 47.853020 124 60 72
-2.256315 10.110107 47.816540 124 60 73
-2.254483 10.204896 47.777737 122 59 72
-2.252540 10.299003 47.736553 120 58 71
-2.250485 10.392417 47.693001 121 58 72
-2.248322 10.485141 47.647167 121 58 72
-2.246059 10.577195 47.599209 121 58 72
-2.243706 10.668615 47.549347 119 58 71
-2.241277 10.759453 47.497860 118 57 70
-2.238786 10.849772 47.445080 118 57 69
-2.236252 10.939651 47.391376 119 57 68
-2.233695 11.029181 47.337173 119 57 68
-2.231134 11.118464 47.282909 119 57 68
-2.228594 11.207615 47.229073 119 57 68
-2.226097 11.296755 47.176163 119 58 69
-2.223669 11.386017 47.124699 118 59 70
-2.221333 11.475535 47.075199 119 60 72
-2.219115 11.565453 47.028187 119 61 74
-2.217038 11.655913 46.984184 118 62 75
-2.215127 11.747060 46.943680 117 62 75
-2.735110 -1.822075 60.738064 117 73 94
-2.731799 -1.689097 60.664539 116 72 93
-2.728194 -1.556268 60.584480 117 72 93
-2.724300 -1.423634 60.498009 119 74 95
-2.720126 -1.291239 60.405308 120 74 95
-2.715683 -1.159129 60.306637 119 73 94
-2.710984 -1.027347 60.202286 120 73 96
-2.706044 -0.895936 60.092602 122 75 100
-2.700882 -0.764935 59.977959 122 74 101
-2.695515 -0.634379 59.858776 118 69 98
-2.689962 -0.504303 59.735470 115 66 96
-2.684244 -0.374735 59.608486 115 65 96
-2.678379 -0.245701 59.478241 115 65 96
-2.672386 -0.117223 59.345158 116 65 96
-2.666283 0.010680 59.209621 118 65 96
-2.660085 0.137995 59.071983 122 69 99
-2.653806 0.264708 58.932549 125 72 102
-2.647458 0.390810 58.791580 125 71 102
-2.641050 0.516292 58.649284 124 71 100
-2.634588 0.641147 58.505798 125 72 101
-2.628077 0.765370 58.361202 129 77 104
-2.621518 0.888953 58.215538 131 81 106
-2.614909 1.011888 58.068779 129 80 104
-2.608248 1.134168 57.920849 125 77 100
-2.601528 1.255783 57.771626 124 77 98
-2.594744 1.376719 57.620975 125 79 97
-2.587887 1.496964 57.468700 128 83 99
-2.580949 1.616502 57.314625 129 84 98
-2.573920 1.735314 57.158546 131 85 99
-2.566793 1.853382 57.000267 143 95 110
-2.559558 1.970686 56.839615 158 108 125
-2.552210 2.087204 56.676434 156 106 124
-2.544742 2.202914 56.510593 141 90 110
-2.537151 2.317797 56.342026 134 83 105
-2.529436 2.431834 56.170689 136 87 110
-2.521595 2.545006 55.996582 139 92 114
-2.513634 2.657299 55.819790 139 95 114
-2.505557 2.768702 55.640408 138 94 112
-2.497370 2.879205 55.458607 137 93 110
-2.489084 2.988806 55.274597 140 95 110
-2.480709 3.097502 55.088619 144 98 112
-2.472259 3.205299 54.900978 145 99 114
-2.463749 3.312207 54.712002 145 98 114
-2.455195 3.418238 54.522041 144 96 114
-2.446614 3.523411 54.331478 144 96 114
-2.438024 3.627750 54.140724 145 96 114
-2.429445 3.731283 53.950211 146 96 116
-2.420896 3.834042 53.760368 148 97 118
-2.412399 3.936067 53.571667 148 97 119
-2.403974 4.037400 53.384575 146 95 117
-2.395643 4.138089 53.199574 144 93 115
-2.387428 4.238186 53.017147 144 92 114
-2.379351 4.337749 52.837784 144 92 115
-2.371433 4.436836 52.661964 145 92 114
-2.363696 4.535511 52.490147 143 89 112
-2.356159 4.633839 52.322765 139 85 109
-2.348840 4.731884 52.160229 134 80 105
-2.341754 4.829710 52.002876 128 76 100
-2.334915 4.927378 51.851006 123 74 97
-2.328333 5.024945 51.704830 117 74 94
-2.322014 5.122464 51.564510 111 74 93
-2.315961 5.219977 51.430092 105 76 92
-2.310172 5.317519 51.301548 98 77 89
-2.304643 5.415116 51.178761 84 70 78
-2.299364 5.512783 51.061527 63 53 59
-2.294321 5.610523 50.949543 45 37 40
-2.289499 5.708330 50.842457 38 28 32
-2.284877 5.806185 50.739830 40 26 31
-2.280435 5.904063 50.641186 45 27 31
-2.276150 6.001927 50.546017 53 29 34
-2.271997 6.099738 50.453793 67 38 44
-2.267952 6.197447 50.363972 83 49 56
-2.263993 6.295005 50.276047 91 53 59
-2.260097 6.392364 50.189526 94 51 58
-2.256244 6.489474 50.103966 98 50 58
-2.252417 6.586291 50.018982 102 51 59
-2.248602 6.682776 49.934258 106 52 62
-2.244787 6.778900 49.849564 110 53 64
-2.240968 6.874640 49.764732 115 55 68
-2.237138 6.969985 49.679695 119 59 72
-2.233300 7.064936 49.594460 123 61 75
-2.229457 7.159505 49.509125 125 61 76
-2.225618 7.253717 49.423870 126 61 76
-2.221793 7.347608 49.338924 126 61 75
-2.217996 7.441227 49.254601 127 61 74
-2.214242 7.534631 49.171249 127 60 73
-2.210550 7.627887 49.089252 127 59 72
-2.206937 7.721066 49.009022 126 59 71
-2.203422 7.814248 48.930965 125 59 70
-2.200023 7.907511 48.855492 124 59 69
-2.196758 8.000934 48.782978 125 59 69
-2.193641 8.094591 48.713757 126 59 69
-2.190685 8.188554 48.648125 126 59 70
-2.187901 8.282885 48.586304 126 59 71
-2.185296 8.377632 48.528450 126 58 71
-2.182873 8.472836 48.474628 126 57 71
-2.180630 8.568520 48.424831 126 58 73
-2.178565 8.664694 48.378971 127 61 76
-2.176668 8.761348 48.336853 128 62 78
-2.174928 8.858459 48.298206 128 62 78
-2.173329 8.955982 48.262695 126 62 76
-2.171853 9.053866 48.229912 126 62 74
-2.170478 9.152037 48.199383 125 61 72
-2.169182 9.250413 48.170605 124 60 70
-2.167941 9.348900 48.143044 123 60 68
-2.166730 9.447399 48.116146 123 59 67
-2.165524 9.545807 48.089375 123 59 67
-2.164301 9.644020 48.062206 124 60 69
-2.163037 9.741936 48.034153 124 60 70
-2.161715 9.839460 48.004776 124 60 70
-2.160315 9.936504 47.973694 123 59 70
-2.158824 10.032993 47.940598 124 60 72
-2.157233 10.128863 47.905247 126 61 74
-2.155532 10.224064 47.867481 126 61 74
-2.153719 10.318565 47.827229 125 59 72
-2.151794 10.412348 47.784470 124 59 72
-2.149759 10.505413 47.739288 124 59 73
-2.147622 10.597775 47.691822 124 59 72
-2.145391 10.689466 47.642277 123 59 72
-2.143079 10.780535 47.590927 122 58 71
-2.140699 10.871043 47.538097 121 58 69
-2.138270 10.961068 47.484154 121 58 68
-2.135809 11.050695 47.429508 122 58 68
-2.133337 11.140028 47.374607 122 57 68
-2.130875 11.229177 47.319931 121 57 68
-2.128446 11.318264 47.265984 121 58 69
-2.126072 11.407418 47.213276 120 58 70
-2.123779 11.496778 47.162338 119 60 71
-2.121588 11.586481 47.113693 119 61 72
-2.119524 11.676671 47.067860 118 61 72
-2.117609 11.767493 47.025337 117 62 73
-2.608661 -1.825211 60.842598 118 73 95
-2.605510 -1.692008 60.769089 116 71 93
-2.602078 -1.558954 60.689053 115 70 92
-2.598372 -1.426095 60.602604 116 71 92
-2.594398 -1.293475 60.509930 118 72 93
-2.590168 -1.161140 60.411285 119 72 94
-2.585696 -1.029133 60.306953 121 74 97
-2.580993 -0.897497 60.197285 123 76 101
-2.576078 -0.766270 60.082645 123 74 102
-2.570967 -0.635488 59.963436 119 69 98
-2.565678 -0.505186 59.840088 115 65 95
-2.560230 -0.375392 59.713017 115 64 95
-2.554640 -0.246132 59.582649 116 64 95
-2.548927 -0.117429 59.449398 118 65 95
-2.543107 0.010699 59.313644 120 66 96
-2.537194 0.138237 59.175735 122 67 97
-2.531201 0.265172 59.035976 124 70 99
-2.525141 0.391495 58.894623 124 71 100
-2.519021 0.517195 58.751888 124 71 99
-2.512848 0.642267 58.607918 125 73 100
-2.506626 0.766702 58.462791 130 78 104
-2.500356 0.890495 58.316555 131 81 106
-2.494038 1.013638 58.169197 128 79 102
-2.487669 1.136123 58.020649 123 75 96
-2.481244 1.257938 57.870800 121 74 94
-2.474757 1.379074 57.719513 124 79 97
-2.468202 1.499515 57.566620 128 83 100
-2.461571 1.619247 57.411949 129 83 99
-2.454854 1.738252 57.255299 130 83 99
-2.448045 1.856512 57.096504 139 90 107
-2.441137 1.974006 56.935379 149 100 117
-2.434123 2.090715 56.771793 150 99 119
-2.426998 2.206618 56.605618 141 90 111
-2.419760 2.321696 56.436790 134 83 106
-2.412406 2.435929 56.265282 135 87 110
-2.404938 2.549301 56.091095 138 92 114
-2.397358 2.661799 55.914310 139 95 115
-2.389672 2.773411 55.735039 138 95 113
-2.381886 2.884129 55.553440 138 95 110
-2.374010 2.993950 55.369740 139 95 110
-2.366053 3.102875 55.184177 142 98 112
-2.358030 3.210908 54.997047 145 100 115
-2.349953 3.318059 54.808670 145 100 115
-2.341838 3.424342 54.619396 146 99 116
-2.333701 3.529775 54.429604 147 98 116
-2.325558 3.634381 54.239693 147 97 117
-2.317428 3.738189 54.050068 147 96 118
-2.309328 3.841231 53.861160 147 96 118
-2.301279 3.943543 53.673424 147 95 117
-2.293299 4.045169 53.487301 146 93 116
-2.285408 4.146154 53.303265 145 92 115
-2.277627 4.246550 53.121773 144 92 115
-2.269974 4.346411 52.943302 144 92 115
-2.262471 4.445794 52.768295 144 90 114
-2.255136 4.544762 52.597214 141 88 111
-2.247986 4.643376 52.430458 138 84 108
-2.241039 4.741699 52.268421 133 81 105
-2.234308 4.839792 52.111435 127 77 100
-2.227805 4.937715 51.959778 121 74 96
-2.221540 5.035522 51.813660 117 74 95
-2.215519 5.133263 51.673222 113 76 95
-2.209743 5.230981 51.538513 109 79 95
-2.204212 5.328709 51.409508 101 79 91
-2.198920 5.426471 51.286083 87 71 80
-2.193859 5.524282 51.168037 66 55 61
-2.189016 5.622146 51.055092 47 38 42
-2.184377 5.720054 50.946880 38 28 32
-2.179923 5.817990 50.842995 41 26 32
-2.175634 5.915929 50.742970 48 28 34
-2.171490 6.013836 50.646313 57 32 38
-2.167468 6.111671 50.552502 69 39 46
-2.163546 6.209390 50.461029 81 47 54
-2.159703 6.306944 50.371399 89 50 58
-2.155919 6.404287 50.283142 93 50 57
-2.152175 6.501372 50.195827 97 51 57
-2.148456 6.598156 50.109097 102 52 59
-2.144750 6.694605 50.022648 106 53 62
-2.141046 6.790690 49.936264 111 55 65
-2.137339 6.886391 49.849792 115 57 68
-2.133625 6.981698 49.763172 118 58 71
-2.129906 7.076614 49.676437 122 59 73
-2.126186 7.171154 49.589684 124 60 74
-2.122474 7.265346 49.503101 127 61 75
-2.118779 7.359223 49.416916 128 61 76
-2.115115 7.452838 49.331459 129 60 75
-2.111496 7.546250 49.247070 128 59 74
-2.107941 7.639524 49.164143 127 58 73
-2.104465 7.732734 49.083080 126 58 72
-2.101088 7.825960 49.004307 124 58 71
-2.097825 7.919281 48.928215 123 58 69
-2.094694 8.012777 48.855190 124 58 69
-2.091709 8.106524 48.785568 125 58 70
-2.088883 8.200592 48.719643 126 59 70
-2.086224 8.295046 48.657642 127 59 71
-2.083741 8.389936 48.599724 127 58 72
-2.081436 8.485304 48.545963 127 58 73
-2.079309 8.581174 48.496346 127 58 74
-2.077355 8.677556 48.450787 129 61 77
-2.075568 8.774443 48.409096 129 62 78
-2.073935 8.871812 48.371014 128 61 78
-2.072442 8.969621 48.336185 126 61 76
-2.071071 9.067815 48.304214 125 61 73
-2.069802 9.166323 48.274616 124 60 70
-2.068613 9.265060 48.246883 123 60 68
-2.067480 9.363935 48.220467 122 59 67
-2.066380 9.462845 48.194813 122 59 66
-2.065289 9.561685 48.169361 122 60 66
-2.064183 9.660346 48.143566 122 59 68
-2.063041 9.758725 48.116932 122 60 69
-2.061843 9.856722 48.088989 122 60 70
-2.060572 9.954246 48.059345 123 60 71
-2.059214 10.051214 48.027664 124 61 72
-2.057757 10.147562 47.993687 126 62 74
-2.056194 10.243235 47.957233 127 61 74
-2.054520 10.338192 47.918198 127 61 74
-2.052735 10.432414 47.876556 127 61 74
-2.050840 10.525896 47.832367 127 60 73
-2.048842 10.618649 47.785759 127 60 72
-2.046748 10.710701 47.736923 126 60 72
-2.044569 10.802095 47.686108 125 59 71
-2.042320 10.892892 47.633640 124 59 69
-2.040015 10.983163 47.579872 124 58 68
-2.037671 11.072991 47.525204 124 58 68
-2.035307 11.162477 47.470078 123 58 68
-2.032944 11.251729 47.414967 122 57 68
-2.030603 11.340864 47.360363 121 57 69
-2.028306 11.430011 47.306782 120 58 70
-2.026074 11.519302 47.254742 120 59 71
-2.023932 11.608877 47.204765 119 60 70
-2.021900 11.698879 47.157379 118 61 70
-2.020000 11.789446 47.113064 117 62 71
-2.481720 -1.828316 60.946095 117 72 96
-2.478730 -1.694892 60.872673 115 70 93
-2.475475 -1.561618 60.792732 113 68 91
-2.471959 -1.428537 60.706387 114 68 90
-2.468190 -1.295696 60.613834 115 69 91
-2.464178 -1.163140 60.515316 117 70 93
-2.459935 -1.030911 60.411114 120 72 97
-2.455475 -0.899052 60.301567 122 74 100
-2.450811 -0.767601 60.187042 123 73 101
-2.445961 -0.636596 60.067936 121 69 99
-2.440941 -0.506069 59.944664 118 66 96
-2.435769 -0.376050 59.817635 117 65 95
-2.430461 -0.246565 59.687275 118 65 95
-2.425033 -0.117636 59.553982 119 66 95
-2.419501 0.010718 59.418133 120 67 95
-2.413879 0.138481 59.280071 121 68 96
-2.408180 0.265640 59.140102 122 70 97
-2.402413 0.392185 58.998478 123 72 98
-2.396587 0.518106 58.855412 124 72 98
-2.390709 0.643397 58.711048 126 74 99
-2.384781 0.768049 58.565475 130 79 103
-2.378806 0.892056 58.418751 131 81 102
-2.372784 1.015410 58.270859 128 78 100
-2.366712 1.138102 58.121742 124 76 96
-2.360587 1.260123 57.971306 122 75 94
-2.354402 1.381461 57.819427 125 79 98
-2.348152 1.502102 57.665943 128 82 100
-2.341830 1.622032 57.510685 128 82 100
-2.335429 1.741233 57.353485 130 84 102
-2.328941 1.859687 57.194153 136 88 107
-2.322360 1.977375 57.032547 141 93 113
-2.315681 2.094278 56.868530 143 93 115
-2.308900 2.210375 56.701992 138 89 112
-2.302014 2.325648 56.532871 133 84 108
-2.295021 2.440079 56.361141 134 85 109
-2.287923 2.553652 56.186825 136 90 112
-2.280722 2.666354 56.009995 139 94 114
-2.273424 2.778175 55.830776 139 96 114
-2.266036 2.889107 55.649342 138 96 112
-2.258566 2.999149 55.465885 138 95 110
-2.251024 3.108301 55.280678 139 97 111
-2.243423 3.216568 55.093990 142 98 113
-2.235774 3.323961 54.906158 143 99 115
-2.228093 3.430494 54.717522 145 99 116
-2.220394 3.536185 54.528446 146 99 116
-2.212692 3.641057 54.339317 146 97 115
-2.205005 3.745138 54.150543 145 95 115
-2.197350 3.848460 53.962528 145 93 115
-2.189742 3.951059 53.775715 144 91 115
-2.182202 4.052976 53.590530 143 90 114
-2.174746 4.154257 53.407429 143 90 114
-2.167392 4.254950 53.226845 144 90 114
-2.160160 4.355108 53.049236 144 90 115
-2.153067 4.454787 52.875034 143 90 114
-2.146129 4.554047 52.704666 141 87 111
-2.139364 4.652946 52.538525 138 85 109
-2.132786 4.751546 52.376976 134 82 105
-2.126408 4.849907 52.220352 127 78 100
-2.120241 4.948085 52.068905 121 75 96
-2.114293 5.046132 51.922836 118 76 96
-2.108570 5.144097 51.782280 117 80 98
-2.103073 5.242021 51.647285 113 82 98
-2.097801 5.339935 51.517811 103 80 93
-2.092749 5.437863 51.393745 89 72 82
-2.087909 5.535818 51.274887 70 58 64
-2.083270 5.633804 51.160965 49 39 44
-2.078818 5.731814 51.051624 40 28 34
-2.074536 5.829831 50.946465 43 27 34
-2.070405 5.927829 50.845039 51 31 39
-2.066408 6.025776 50.746864 62 36 44
-2.062523 6.123634 50.651447 72 41 50
-2.058729 6.221358 50.558292 82 47 56
-2.055008 6.318904 50.466915 89 49 58
-2.051342 6.416226 50.376877 93 49 57
-2.047713 6.513279 50.287762 97 51 58
-2.044108 6.610024 50.199226 101 53 60
-2.040515 6.706429 50.110992 106 54 62
-2.036926 6.802465 50.022850 110 56 64
-2.033335 6.898116 49.934669 115 57 67
-2.029741 6.993374 49.846401 118 58 70
-2.026145 7.088245 49.758087 121 58 71
-2.022551 7.182745 49.669834 124 58 73
-2.018968 7.276901 49.581837 128 60 75
-2.015405 7.370752 49.494335 129 60 76
-2.011875 7.464350 49.407654 129 59 76
-2.008394 7.557754 49.322147 128 58 75
-2.004975 7.651032 49.238205 126 57 74
-2.001637 7.744259 49.156231 125 57 72
-1.998397 7.837514 49.076653 123 56 71
-1.995270 7.930879 48.999866 122 57 69
-1.992273 8.024433 48.926254 122 58 69
-1.989418 8.118253 48.856155 123 58 70
-1.986719 8.212413 48.789867 125 59 71
-1.984185 8.306975 48.727619 127 59 73
-1.981821 8.401995 48.669575 129 59 75
-1.979631 8.497512 48.615803 129 59 76
-1.977616 8.593554 48.566311 129 59 76
-1.975771 8.690131 48.521000 129 60 76
-1.974089 8.787237 48.479687 128 60 76
-1.972559 8.884852 48.442116 127 60 75
-1.971167 8.982936 48.407940 126 60 74
-1.969897 9.081432 48.376755 124 60 71
-1.968729 9.180270 48.348072 124 59 69
-1.967642 9.279367 48.321381 123 59 68
-1.966614 9.378628 48.296127 122 59 67
-1.965621 9.477949 48.271740 121 59 67
-1.964640 9.577226 48.247654 121 59 68
-1.963649 9.676346 48.223309 121 60 69
-1.962626 9.775204 48.198181 121 60 70
-1.961551 9.873694 48.171799 122 61 72
-1.960409 9.971725 48.143734 123 62 73
-1.959183 10.069207 48.113640 126 63 75
-1.957863 10.166071 48.081226 128 64 77
-1.956441 10.262259 48.046307 128 64 77
-1.954912 10.357726 48.008739 128 62 75
-1.953273 10.452448 47.968498 128 61 74
-1.951527 10.546414 47.925610 127 60 73
-1.949677 10.639630 47.880180 127 60 72
-1.947731 10.732121 47.832394 126 60 71
-1.945698 10.823927 47.782482 126 60 71
-1.943592 10.915099 47.730747 125 59 69
-1.941425 11.005707 47.677536 125 59 68
-1.939214 11.095831 47.623230 125 59 68
-1.936975 11.185564 47.568260 124 58 69
-1.934729 11.275012 47.513084 123 58 69
-1.932493 11.364289 47.458187 121 57 69
-1.930290 11.453518 47.404072 120 58 70
-1.928139 11.542828 47.351246 120 59 70
-1.926061 11.632354 47.300228 119 60 70
-1.924078 11.722238 47.251534 119 61 69
-1.922210 11.812613 47.205650 117 61 70
-2.354302 -1.831398 61.048832 117 71 97
-2.351477 -1.697757 60.975559 115 69 95
-2.348400 -1.564265 60.895786 113 67 92
-2.345078 -1.430967 60.809631 113 66 91
-2.341516 -1.297907 60.717278 115 67 91
-2.337725 -1.165132 60.618973 117 68 93
-2.333715 -1.032684 60.514999 118 70 95
-2.329500 -0.900604 60.405678 120 71 98
-2.325092 -0.768932 60.291378 122 72 100
-2.320507 -0.637704 60.172482 121 70 99
-2.315760 -0.506953 60.049400 119 67 97
-2.310868 -0.376709 59.922535 119 67 96
-2.305845 -0.246998 59.792294 119 67 96
-2.300708 -0.117843 59.659077 120 68 96
-2.295470 0.010737 59.523254 120 69 95
-2.290144 0.138727 59.385155 121 70 95
-2.284742 0.266112 59.245079 122 71 96
-2.279274 0.392882 59.103287 124 74 98
-2.273748 0.519027 58.959988 125 75 98
-2.268169 0.644539 58.815319 128 77 100
-2.262541 0.769412 58.669388 130 80 101
-2.256866 0.893636 58.522243 129 78 98
-2.251145 1.017205 58.373882 126 77 96
-2.245375 1.140110 58.224258 125 77 96
-2.239553 1.262340 58.073284 124 78 96
-2.233674 1.383884 57.920841 124 79 98
-2.227733 1.504729 57.766781 126 81 101
-2.221723 1.624860 57.610954 127 82 102
-2.215640 1.744260 57.453197 129 83 104
-2.209475 1.862912 57.293343 133 87 109
-2.203223 1.980797 57.131245 137 91 113
-2.196881 2.097896 56.966770 138 91 115
-2.190443 2.214189 56.799839 136 88 112
-2.183908 2.329660 56.630390 133 84 108
-2.177276 2.444290 56.458408 132 85 108
-2.170547 2.558065 56.283913 134 88 110
-2.163724 2.670972 56.106998 138 92 113
-2.156813 2.783002 55.927784 140 96 114
-2.149820 2.894149 55.746445 138 95 112
-2.142753 3.004411 55.563194 136 93 109
-2.135622 3.113789 55.378277 136 94 109
-2.128438 3.222290 55.191990 138 96 111
-2.121213 3.329924 55.004654 140 98 113
-2.113961 3.436705 54.816597 142 98 114
-2.106695 3.542652 54.628181 143 98 114
-2.099430 3.647789 54.439793 143 96 113
-2.092181 3.752143 54.251820 142 94 113
-2.084963 3.855743 54.064651 142 92 113
-2.077793 3.958627 53.878723 141 90 113
-2.070686 4.060834 53.694439 141 89 113
-2.063659 4.162409 53.512234 141 88 113
-2.056729 4.263398 53.332527 142 88 115
-2.049912 4.363852 53.155750 143 90 116
-2.043224 4.463827 52.982323 143 90 115
-2.036680 4.563377 52.812645 142 89 113
-2.030296 4.662562 52.647099 139 87 110
-2.024084 4.761439 52.486027 135 84 106
-2.018057 4.860067 52.329746 128 79 100
-2.012224 4.958499 52.178493 123 77 97
-2.006593 5.056786 52.032463 123 80 99
-2.001168 5.154975 51.891777 122 83 101
-1.995950 5.253104 51.756477 116 83 99
-1.990938 5.351203 51.626526 104 79 92
-1.986129 5.449296 51.501808 91 72 83
-1.981513 5.547396 51.382130 74 60 68
-1.977081 5.645504 51.267208 54 42 49
-1.972821 5.743614 51.156723 43 30 37
-1.968715 5.841709 51.050266 46 29 38
-1.964749 5.939764 50.947414 54 34 43
-1.960904 6.037750 50.847702 64 38 48
-1.957160 6.135626 50.750641 74 42 54
-1.953501 6.233352 50.655758 83 47 59
-1.949908 6.330884 50.562595 90 49 61
-1.946366 6.428178 50.470722 93 49 60
-1.942858 6.525194 50.379757 97 51 59
-1.939371 6.621893 50.289360 101 53 60
-1.935897 6.718243 50.199268 106 54 62
-1.932428 6.814221 50.109303 110 56 64
-1.928958 6.909812 50.019337 115 57 67
-1.925488 7.005011 49.929344 119 58 70
-1.922018 7.099824 49.839367 122 57 71
-1.918553 7.194270 49.749535 124 57 72
-1.915102 7.288378 49.660034 127 57 74
-1.911674 7.382189 49.571133 128 57 74
-1.908280 7.475755 49.483147 128 56 74
-1.904937 7.569137 49.396435 126 55 73
-1.901657 7.662405 49.311394 124 55 72
-1.898457 7.755632 49.228428 123 55 71
-1.895354 7.848902 49.147957 122 55 70
-1.892363 7.942294 49.070396 121 56 69
-1.889498 8.035891 48.996117 121 56 70
-1.886774 8.129769 48.925461 122 57 70
-1.884200 8.224004 48.858730 124 57 72
-1.881787 8.318661 48.796162 126 58 74
-1.879541 8.413792 48.737907 129 60 77
-1.877464 8.509441 48.684055 129 60 77
-1.875557 8.605639 48.634605 129 59 77
-1.873816 8.702394 48.589470 129 59 76
-1.872236 8.799706 48.548477 128 58 74
-1.870804 8.897552 48.511356 127 58 73
-1.869509 8.995894 48.477772 125 58 71
-1.868334 9.094678 48.447311 124 58 69
-1.867262 9.193834 48.419506 123 58 68
-1.866271 9.293278 48.393818 122 58 68
-1.865342 9.392917 48.369709 122 58 68
-1.864450 9.492645 48.346588 121 58 69
-1.863574 9.592355 48.323868 120 59 70
-1.862692 9.691935 48.300995 120 60 71
-1.861783 9.791275 48.277424 120 60 71
-1.860828 9.890269 48.252663 121 61 73
-1.859810 9.988821 48.226276 122 63 75
-1.858715 10.086838 48.197884 126 65 77
-1.857532 10.184247 48.167191 128 66 79
-1.856250 10.280983 48.133968 128 65 78
-1.854866 10.377001 48.098076 127 62 75
-1.853377 10.472267 48.059452 126 61 73
-1.851782 10.566770 48.018108 126 60 71
-1.850087 10.660510 47.974144 126 60 70
-1.848296 10.753506 47.927696 125 60 70
-1.846418 10.845791 47.879002 125 60 69
-1.844464 10.937415 47.828335 125 60 68
-1.842446 11.028439 47.776012 125 60 69
-1.840379 11.118939 47.722412 124 60 69
-1.838278 11.209002 47.667934 124 60 70
-1.836161 11.298731 47.613037 123 58 70
-1.834045 11.388231 47.558170 121 57 69
-1.831949 11.477620 47.503826 119 58 70
-1.829893 11.567024 47.450508 119 59 70
-1.827896 11.656574 47.398712 119 59 69
-1.825977 11.746406 47.348953 119 60 68
-1.824155 11.836652 47.301708 118 61 69
-2.226425 -1.834465 61.151089 118 72 100
-2.223765 -1.700610 61.078026 116 70 97
-2.220868 -1.566903 60.998478 115 68 95
-2.217741 -1.433389 60.912575 114 67 93
-2.214388 -1.300114 60.820496 115 67 93
-2.210820 -1.167122 60.722488 116 67 93
-2.207046 -1.034455 60.618824 117 69 95
-2.203077 -0.902157 60.509827 119 70 96
-2.198927 -0.770264 60.395847 121 72 99
-2.194610 -0.638814 60.277267 122 72 101
-2.190140 -0.507840 60.154484 120 70 100
-2.185531 -0.377372 60.027889 120 69 98
-2.180797 -0.247435 59.897877 120 69 97
-2.175954 -0.118052 59.764847 121 70 96
-2.171013 0.010756 59.629154 121 71 96
-2.165987 0.138974 59.491119 122 73 96
-2.160888 0.266588 59.351048 122 73 96
-2.155723 0.393586 59.209187 124 75 97
-2.150500 0.519958 59.065742 126 77 99
-2.145225 0.645696 58.920864 130 80 101
-2.139902 0.770792 58.774647 130 81 101
-2.134532 0.895238 58.627148 126 77 95
-2.129115 1.019026 58.478378 124 76 93
-2.123651 1.142147 58.328300 124 77 94
-2.118136 1.264591 58.176826 124 77 95
-2.112567 1.386345 58.023857 124 78 98
-2.106938 1.507398 57.869255 126 81 101
-2.101244 1.627734 57.712879 127 82 104
-2.095480 1.747337 57.554569 128 84 107
-2.089641 1.866191 57.394180 131 86 110
-2.083721 1.984276 57.231579 134 90 114
-2.077716 2.101574 57.066643 137 92 116
-2.071623 2.218067 56.899300 135 89 114
-2.065441 2.333737 56.729488 132 85 109
-2.059169 2.448568 56.557224 132 85 108
-2.052808 2.562546 56.382515 134 87 109
-2.046362 2.675660 56.205475 137 90 111
-2.039835 2.787900 56.026218 138 93 113
-2.033235 2.899262 55.844936 137 93 111
-2.026569 3.009744 55.661835 134 91 107
-2.019845 3.119349 55.477169 133 91 107
-2.013076 3.228084 55.291233 135 94 109
-2.006271 3.335958 55.104332 137 96 111
-1.999443 3.442988 54.916809 140 98 113
-1.992606 3.549192 54.729015 141 98 113
-1.985772 3.654592 54.541317 141 96 113
-1.978956 3.759216 54.354095 141 94 113
-1.972171 3.863095 54.167744 141 92 113
-1.965432 3.966263 53.982643 141 91 114
-1.958754 4.068759 53.799225 141 89 114
-1.952151 4.170626 53.617874 141 88 115
-1.945639 4.271910 53.439007 142 88 116
-1.939232 4.372659 53.263027 143 90 117
-1.932944 4.472927 53.090340 143 90 117
-1.926790 4.572767 52.921322 142 90 115
-1.920784 4.672237 52.756340 140 89 112
-1.914936 4.771390 52.595718 136 85 107
-1.909257 4.870284 52.439751 130 81 102
-1.903757 4.968969 52.288673 128 79 99
-1.898440 5.067495 52.142654 128 82 101
-1.893313 5.165906 52.001812 125 84 102
-1.888375 5.264239 51.866188 117 82 99
-1.883625 5.362523 51.735737 106 77 92
-1.879060 5.460780 51.610340 93 70 83
-1.874671 5.559021 51.489807 78 60 70
-1.870450 5.657250 51.373875 59 45 54
-1.866385 5.755457 51.262211 48 34 42
-1.862461 5.853629 51.154434 50 32 42
-1.858663 5.951739 51.050121 57 35 46
-1.854975 6.049757 50.948822 65 38 50
-1.851380 6.147648 50.850079 74 42 55
-1.847860 6.245370 50.753426 83 47 60
-1.844402 6.342883 50.658428 89 49 62
-1.840988 6.440144 50.564671 94 50 61
-1.837606 6.537114 50.471786 98 51 61
-1.834245 6.633757 50.379459 102 53 61
-1.830895 6.730044 50.287449 107 55 63
-1.827550 6.825954 50.195583 111 56 65
-1.824207 6.921474 50.103760 116 57 67
-1.820865 7.016602 50.011955 119 58 70
-1.817525 7.111345 49.920238 122 57 71
-1.814194 7.205724 49.828739 125 57 72
-1.810878 7.299771 49.737659 126 56 73
-1.807587 7.393527 49.647266 126 56 73
-1.804333 7.487047 49.557892 126 55 73
-1.801129 7.580392 49.469887 124 54 72
-1.797989 7.673634 49.383659 122 53 71
-1.794929 7.766848 49.299614 121 54 71
-1.791964 7.860115 49.218174 120 54 70
-1.789109 7.953520 49.139751 119 54 69
-1.786377 8.047143 49.064724 119 55 70
-1.783781 8.141063 48.993427 120 55 71
-1.781333 8.235356 48.926178 122 55 73
-1.779040 8.330088 48.863194 125 57 75
-1.776908 8.425314 48.804653 128 58 77
-1.774942 8.521078 48.750633 129 59 77
-1.773140 8.617411 48.701141 129 59 77
-1.771500 8.714327 48.656097 128 58 75
-1.770015 8.811824 48.615330 127 57 73
-1.768677 8.909881 48.578575 125 57 70
-1.767473 9.008462 48.545498 124 56 69
-1.766388 9.107513 48.515690 123 57 68
-1.765404 9.206968 48.488678 123 57 68
-1.764503 9.306742 48.463936 122 57 69
-1.763665 9.406741 48.440899 122 57 70
-1.762867 9.506860 48.418983 121 58 71
-1.762088 9.606991 48.397606 120 59 72
-1.761309 9.707023 48.376186 120 60 72
-1.760507 9.806839 48.354164 119 60 73
-1.759665 9.906336 48.331047 119 61 74
-1.758767 10.005410 48.306370 121 62 76
-1.757797 10.103970 48.279743 123 63 78
-1.756745 10.201936 48.250851 125 64 78
-1.755602 10.299240 48.219444 125 63 76
-1.754361 10.395833 48.185368 125 62 74
-1.753020 10.491677 48.148529 124 61 72
-1.751578 10.586755 48.108929 124 60 71
-1.750038 10.681063 48.066631 124 60 70
-1.748405 10.774612 48.021770 124 60 69
-1.746685 10.867434 47.974545 124 60 69
-1.744889 10.959568 47.925209 125 60 69
-1.743027 11.051073 47.874065 124 60 69
-1.741112 11.142016 47.821457 124 60 70
-1.739157 11.232480 47.767776 124 60 70
-1.737179 11.322557 47.713440 123 59 70
-1.735193 11.412350 47.658894 120 57 69
-1.733217 11.501970 47.604607 119 58 70
-1.731267 11.591535 47.551052 119 59 70
-1.729362 11.681170 47.498730 118 59 70
-1.727519 11.771007 47.448120 118 60 69
-1.725757 11.861176 47.399712 118 61 70
-2.098099 -1.837526 61.253120 119 72 102
-2.095604 -1.703457 61.180298 118 70 100
-2.092889 -1.569537 61.101028 116 68 98
-2.089957 -1.435810 61.015434 116 67 96
-2.086815 -1.302320 60.923695 116 67 95
-2.083470 -1.169112 60.826050 117 68 95
-2.079933 -1.036229 60.722778 118 69 96
-2.076213 -0.903712 60.614185 119 71 98
-2.072323 -0.771600 60.500618 120 73 100
-2.068275 -0.639929 60.382446 122 74 102
-2.064083 -0.508732 60.260056 121 73 101
-2.059760 -0.378038 60.133831 120 72 99
-2.055318 -0.247874 60.004154 120 71 98
-2.050771 -0.118263 59.871410 121 73 97
-2.046131 0.010775 59.735947 123 74 98
-2.041409 0.139224 59.598083 123 75 98
-2.036614 0.267069 59.458111 123 75 97
-2.031756 0.394297 59.316273 124 75 97
-2.026840 0.520900 59.172771 126 77 99
-2.021873 0.646867 59.027756 129 80 101
-2.016858 0.772191 58.881329 129 81 100
-2.011796 0.896863 58.733551 125 78 95
-2.006688 1.020874 58.584438 123 76 93
-2.001534 1.144216 58.433956 124 77 94
-1.996330 1.266877 58.282024 124 77 95
-1.991073 1.388847 58.128563 124 78 98
-1.985760 1.510112 57.973442 126 81 102
-1.980385 1.630658 57.816536 127 83 106
-1.974945 1.750468 57.657692 127 84 107
-1.969433 1.869527 57.496777 128 84 109
-1.963846 1.987815 57.333664 131 88 112
-1.958180 2.105316 57.168259 136 92 115
-1.952433 2.222011 57.000488 135 90 114
-1.946604 2.337884 56.830307 132 87 110
-1.940693 2.452919 56.657719 132 86 108
-1.934700 2.567103 56.482777 134 87 109
-1.928631 2.680425 56.305576 136 89 110
-1.922488 2.792878 56.126251 137 91 112
-1.916279 2.904456 55.944984 135 90 109
-1.910011 3.015160 55.761993 131 87 105
-1.903693 3.124993 55.577541 130 88 105
-1.897335 3.233962 55.391911 133 92 108
-1.890947 3.342078 55.205414 137 97 112
-1.884540 3.449356 55.018379 140 100 114
-1.878128 3.555816 54.831158 141 101 115
-1.871721 3.661480 54.644112 141 99 114
-1.865332 3.766375 54.457603 141 97 114
-1.858975 3.870531 54.272007 141 95 115
-1.852662 3.973982 54.087708 141 93 116
-1.846407 4.076766 53.905098 142 92 118
-1.840223 4.178925 53.724564 142 90 119
-1.834124 4.280502 53.546494 142 90 120
-1.828122 4.381546 53.371273 143 90 120
-1.822231 4.482105 53.199276 143 90 119
-1.816463 4.582234 53.030884 142 90 116
-1.810830 4.681986 52.866421 142 89 113
-1.805342 4.781414 52.706207 140 88 110
-1.800009 4.880571 52.550522 137 86 106
-1.794839 4.979508 52.399574 134 84 104
-1.789836 5.078271 52.253532 132 83 102
-1.785006 5.176902 52.112507 126 82 101
-1.780348 5.275437 51.976521 118 79 96
-1.775861 5.373903 51.845528 107 75 91
-1.771541 5.472322 51.719421 96 71 84
-1.767383 5.570703 51.598007 82 63 74
-1.763375 5.669048 51.481014 65 50 59
-1.759509 5.767350 51.368134 53 39 48
-1.755770 5.865593 51.258991 53 36 47
-1.752146 5.963753 51.153172 59 37 49
-1.748620 6.061800 51.050247 66 39 52
-1.745179 6.159700 50.949768 74 42 56
-1.741805 6.257412 50.851292 82 45 61
-1.738486 6.354898 50.754395 89 48 63
-1.735208 6.452119 50.658691 95 50 63
-1.731959 6.549034 50.563820 100 52 63
-1.728728 6.645613 50.469498 104 54 63
-1.725508 6.741827 50.375496 108 55 64
-1.722294 6.837659 50.281654 112 56 66
-1.719082 6.933096 50.187889 116 57 68
-1.715873 7.028140 50.094200 119 58 70
-1.712669 7.122800 50.000652 122 58 72
-1.709474 7.217100 49.907402 125 58 73
-1.706298 7.311072 49.814659 126 57 72
-1.703148 7.404759 49.722691 126 56 72
-1.700035 7.498218 49.631832 125 55 72
-1.696974 7.591512 49.542458 123 54 70
-1.693977 7.684713 49.454960 121 53 69
-1.691058 7.777897 49.369751 120 53 68
-1.688233 7.871148 49.287262 119 54 68
-1.685514 7.964549 49.207893 118 54 69
-1.682916 8.058182 49.132027 117 54 69
-1.680449 8.152127 49.060013 118 53 70
-1.678124 8.246460 48.992146 120 54 73
-1.675950 8.341249 48.928661 123 55 75
-1.673931 8.436550 48.869736 127 57 77
-1.672072 8.532409 48.815456 128 58 77
-1.670372 8.628857 48.765827 128 58 76
-1.668829 8.725910 48.720772 128 57 74
-1.667437 8.823568 48.680122 127 57 72
-1.666186 8.921812 48.643627 126 57 71
-1.665067 9.020608 48.610950 125 57 69
-1.664065 9.119903 48.581684 124 57 69
-1.663163 9.219630 48.555363 124 57 69
-1.662344 9.319708 48.531452 123 58 71
-1.661588 9.420041 48.509392 122 58 72
-1.660876 9.520529 48.488598 121 59 74
-1.660187 9.621058 48.468472 121 60 75
-1.659500 9.721518 48.448425 120 61 75
-1.658797 9.821794 48.427902 119 61 75
-1.658060 9.921778 48.406384 119 61 76
-1.657273 10.021364 48.383400 120 62 76
-1.656421 10.120461 48.358540 121 63 77
-1.655494 10.218982 48.331470 122 63 77
-1.654482 10.316859 48.301933 123 63 76
-1.653380 10.414036 48.269737 123 62 74
-1.652183 10.510473 48.234787 123 61 72
-1.650890 10.606148 48.197056 122 60 70
-1.649504 10.701050 48.156578 122 59 69
-1.648027 10.795188 48.113472 122 60 68
-1.646466 10.888583 48.067909 123 60 69
-1.644829 10.981272 48.020115 124 61 69
-1.643126 11.073305 47.970375 124 61 70
-1.641366 11.164742 47.918999 124 61 70
-1.639563 11.255661 47.866356 123 61 70
-1.637729 11.346144 47.812832 122 60 70
-1.635880 11.436286 47.758854 120 59 71
-1.634031 11.526191 47.704853 119 59 71
-1.632196 11.615972 47.651299 119 59 72
-1.630393 11.705746 47.598660 118 60 71
-1.628638 11.795637 47.547405 118 60 71
-1.626946 11.885775 47.498016 118 61 71
-1.969332 -1.840586 61.355137 120 73 105
-1.967003 -1.706306 61.282593 119 71 104
-1.964469 -1.572173 61.203632 117 69 101
-1.961733 -1.438232 61.118393 117 69 100
-1.958801 -1.304529 61.027050 117 69 99
-1.955681 -1.171107 60.929836 118 70 98
-1.952381 -1.038008 60.827019 119 71 98
-1.948911 -0.905274 60.718906 119 73 100
-1.945281 -0.772942 60.605831 120 73 101
-1.941504 -0.641049 60.488152 120 74 102
-1.937591 -0.509628 60.366245 121 74 102
-1.933554 -0.378708 60.240482 120 73 101
-1.929406 -0.248316 60.111233 120 73 99
-1.925158 -0.118475 59.978874 122 74 99
-1.920820 0.010795 59.843735 124 75 99
-1.916403 0.139476 59.706135 124 76 99
-1.911916 0.267555 59.566345 123 74 97
-1.907367 0.395018 59.424618 123 74 97
-1.902762 0.521854 59.281143 125 75 98
-1.898106 0.648054 59.136074 125 77 99
-1.893402 0.773610 58.989510 126 78 98
-1.888652 0.898511 58.841518 125 78 95
-1.883856 1.022750 58.692120 124 78 93
-1.879015 1.146317 58.541279 124 79 94
-1.874125 1.269201 58.388947 125 79 95
-1.869185 1.391391 58.235031 125 79 99
-1.864190 1.512873 58.079426 126 81 102
-1.859138 1.633632 57.922005 127 84 106
-1.854023 1.753655 57.762646 125 82 106
-1.848841 1.872922 57.601215 124 81 106
-1.843590 1.991419 57.437603 128 85 109
-1.838266 2.109126 57.271729 132 90 113
-1.832867 2.226027 57.103516 133 89 112
-1.827392 2.342106 56.932945 132 87 110
-1.821842 2.457349 56.760040 132 87 109
-1.816218 2.571742 56.584843 134 87 109
-1.810525 2.685275 56.407459 135 88 111
-1.804766 2.797942 56.228031 135 89 111
-1.798947 2.909740 56.046761 132 87 108
-1.793077 3.020669 55.863861 128 84 104
-1.787162 3.130731 55.679592 127 85 103
-1.781213 3.239936 55.494232 132 91 107
-1.775239 3.348294 55.308105 137 98 113
-1.769250 3.455822 55.121525 141 102 116
-1.763258 3.562540 54.934845 141 102 116
-1.757274 3.668468 54.748402 141 101 116
-1.751309 3.773634 54.562565 140 99 116
-1.745375 3.878068 54.377689 140 97 117
-1.739484 3.981802 54.194145 141 95 118
-1.733647 4.084874 54.012302 142 94 120
-1.727877 4.187323 53.832531 143 92 122
-1.722185 4.289193 53.655205 143 91 123
-1.716584 4.390528 53.480690 143 91 122
-1.711084 4.491379 53.309345 143 90 120
-1.705697 4.591794 53.141518 143 90 118
-1.700434 4.691826 52.977528 143 90 116
-1.695303 4.791526 52.817673 144 91 114
-1.690313 4.890944 52.662209 142 89 110
-1.685470 4.990129 52.511345 137 85 105
-1.680781 5.089127 52.365231 132 81 101
-1.676246 5.187975 52.223969 125 79 97
-1.671868 5.286708 52.087566 117 76 93
-1.667645 5.385354 51.955994 107 73 88
-1.663573 5.483929 51.829121 97 71 83
-1.659646 5.582445 51.706764 87 66 76
-1.655855 5.680902 51.588665 72 56 64
-1.652191 5.779294 51.474514 59 45 52
-1.648642 5.877604 51.363953 56 39 48
-1.645195 5.975808 51.256569 59 38 48
-1.641838 6.073878 51.151958 66 39 51
-1.638555 6.171780 51.049690 73 41 55
-1.635334 6.269475 50.949322 82 44 59
-1.632161 6.366928 50.850468 90 48 62
-1.629024 6.464097 50.752743 96 50 63
-1.625913 6.560950 50.655819 101 52 64
-1.622819 6.657454 50.559422 105 54 65
-1.619735 6.753584 50.463345 108 55 66
-1.616657 6.849326 50.367451 112 56 68
-1.613583 6.944669 50.271667 116 57 69
-1.610512 7.039617 50.176003 119 58 71
-1.607449 7.134182 50.080551 123 59 73
-1.604396 7.228388 49.985462 125 59 74
-1.601363 7.322271 49.890968 125 58 72
-1.598358 7.415877 49.797344 125 57 71
-1.595392 7.509261 49.704929 123 55 69
-1.592477 7.602489 49.614094 121 54 68
-1.589625 7.695634 49.525242 119 53 67
-1.586850 7.788774 49.438793 118 52 67
-1.584166 7.881992 49.355164 117 53 67
-1.581585 7.975373 49.274769 116 53 69
-1.579121 8.068999 49.197987 116 53 70
-1.576783 8.162951 49.125156 117 53 71
-1.574582 8.257308 49.056587 119 54 74
-1.572526 8.352135 48.992519 122 55 76
-1.570619 8.447491 48.933109 125 56 77
-1.568865 8.543422 48.878464 126 56 77
-1.567264 8.639962 48.828590 127 57 76
-1.565814 8.737127 48.783405 128 57 74
-1.564509 8.834921 48.742756 127 57 73
-1.563342 8.933324 48.706390 126 58 72
-1.562301 9.032303 48.673977 126 59 71
-1.561375 9.131810 48.645115 125 59 71
-1.560548 9.231779 48.619343 125 59 72
-1.559802 9.332126 48.596119 124 59 73
-1.559121 9.432762 48.574898 124 59 75
-1.558485 9.533583 48.555088 123 61 78
-1.557875 9.634479 48.536079 123 63 79
-1.557272 9.735336 48.517292 122 63 79
-1.556658 9.836041 48.498150 120 63 78
-1.556015 9.936484 48.478134 119 62 77
-1.555329 10.036560 48.456760 119 62 77
-1.554586 10.136170 48.433605 120 63 78
-1.553774 10.235230 48.408321 121 63 79
-1.552886 10.333669 48.380630 122 63 78
-1.551913 10.431424 48.350334 123 63 77
-1.550853 10.528454 48.317303 122 62 74
-1.549703 10.624728 48.281487 121 60 71
-1.548465 10.720234 48.242912 120 59 69
-1.547141 10.814976 48.201664 121 59 68
-1.545736 10.908965 48.157887 122 60 69
-1.544257 11.002235 48.111786 123 61 70
-1.542710 11.094826 48.063606 123 61 70
-1.541106 11.186793 48.013641 123 61 70
-1.539456 11.278203 47.962219 122 61 70
-1.537770 11.369131 47.909702 121 60 70
-1.536062 11.459665 47.856487 119 60 71
-1.534345 11.549900 47.802979 118 59 72
-1.532632 11.639939 47.749622 118 59 73
-1.530938 11.729895 47.696854 118 60 73
-1.529279 11.819884 47.645142 118 60 73
-1.527667 11.910028 47.594936 118 61 73
