ply
format ascii 1.0
element vertex 1196
property float x
property float y
property float z
property uchar red
property uchar green
property uchar blue
end_header
-4.154796 4.739776 52.247223 128 92 101
-4.152610 4.849850 52.219734 123 87 96
-4.150408 4.959787 52.192051 118 83 92
-4.148190 5.069586 52.164165 114 79 88
-4.145955 5.179242 52.136055 109 75 85
-4.143699 5.288750 52.107681 106 71 81
-4.141420 5.398106 52.079021 101 67 77
-4.139115 5.507304 52.050041 97 62 71
-4.136781 5.616337 52.020683 93 56 66
-4.134414 5.725199 51.990925 91 49 60
-4.132013 5.833883 51.960724 95 49 60
-4.129573 5.942382 51.930046 107 58 70
-4.127095 6.050693 51.898880 113 61 72
-4.124577 6.158808 51.867210 103 50 60
-4.122018 6.266727 51.835037 95 41 51
-4.119421 6.374447 51.802380 96 40 50
-4.116789 6.481971 51.769279 99 41 51
-4.114126 6.589304 51.735798 101 42 52
-4.111441 6.696455 51.702034 104 44 54
-4.108742 6.803439 51.668095 108 45 56
-4.106041 6.910273 51.634132 110 46 57
-4.103354 7.016982 51.600327 109 43 54
-4.100693 7.123593 51.566872 108 41 52
-4.098078 7.230140 51.533989 111 43 55
-4.095527 7.336659 51.501904 115 46 59
-4.093058 7.443192 51.470863 119 49 61
-4.090692 7.549778 51.441105 121 51 63
-4.088446 7.656461 51.412861 122 51 64
-4.086337 7.763284 51.386345 123 50 64
-4.084380 7.870285 51.361732 124 51 65
-4.082586 7.977498 51.339176 126 52 66
-4.080965 8.084955 51.318787 127 52 67
-4.079520 8.192680 51.300617 128 53 68
-4.078252 8.300687 51.284676 128 54 69
-4.077158 8.408983 51.270920 126 52 68
-4.076230 8.517566 51.259243 122 50 65
-4.075456 8.626426 51.249512 120 49 64
-4.074821 8.735539 51.241524 120 51 66
-4.074306 8.844882 51.235050 123 56 71
-4.073891 8.954414 51.229828 127 60 77
-4.073551 9.064094 51.225559 127 60 78
-4.073264 9.173873 51.221951 123 56 75
-4.073004 9.283696 51.218678 124 57 77
-4.072745 9.393509 51.215420 130 62 82
-4.072464 9.503257 51.211887 134 66 85
-4.072136 9.612880 51.207771 134 65 84
-4.071742 9.722323 51.202805 132 62 81
-4.071260 9.831536 51.196747 130 61 78
-4.070675 9.940471 51.189392 128 60 76
-4.069973 10.049086 51.180573 128 61 76
-4.069146 10.157347 51.170158 129 62 77
-4.068185 10.265228 51.158077 131 64 78
-4.067089 10.372713 51.144295 132 66 80
-4.065860 10.479796 51.128845 134 67 82
-4.064505 10.586483 51.111805 135 67 82
-4.063034 10.692791 51.093304 134 65 81
-4.061461 10.798750 51.073532 129 60 77
-4.059806 10.904401 51.052711 125 56 73
-4.058084 11.009784 51.031067 123 54 71
-4.184734 -3.488235 54.089962 120 77 86
-4.182782 -3.370062 54.064732 122 84 94
-4.181093 -3.252203 54.042904 122 92 105
-4.179647 -3.134621 54.024216 115 94 113
-4.178421 -3.017277 54.008358 106 91 118
-4.177387 -2.900136 53.995003 96 84 120
-4.176518 -2.783162 53.983772 95 85 125
-4.175786 -2.666323 53.974308 120 110 148
-4.175161 -2.549591 53.966225 147 133 170
-4.174614 -2.432939 53.959152 130 110 147
-4.174117 -2.316346 53.952724 98 76 108
-4.173641 -2.199791 53.946579 98 81 104
-4.173161 -2.083261 53.940369 120 111 126
-4.172650 -1.966743 53.933773 122 127 137
-4.172085 -1.850229 53.926472 96 113 124
-4.171444 -1.733715 53.918182 71 99 112
-4.170704 -1.617199 53.908615 66 102 117
-4.169846 -1.500681 53.897522 71 109 128
-4.168852 -1.384166 53.884674 92 129 150
-4.167705 -1.267660 53.869858 125 158 177
-4.166392 -1.151173 53.852882 130 160 175
-4.164900 -1.034713 53.833599 105 134 147
-4.163218 -0.918295 53.811859 81 111 124
-4.161340 -0.801933 53.787582 94 122 136
-4.159260 -0.685642 53.760700 151 173 182
-4.156976 -0.569439 53.731182 201 216 223
-4.154491 -0.453342 53.699055 188 201 214
-4.151808 -0.337367 53.664379 142 155 176
-4.148937 -0.221531 53.627266 144 153 179
-4.145889 -0.105851 53.587875 193 197 218
-4.142681 0.009659 53.546402 210 210 223
-4.139331 0.124986 53.503109 170 168 183
-4.135862 0.240119 53.458267 143 142 158
-4.132298 0.355051 53.412205 135 136 146
-4.128668 0.469777 53.365280 96 99 103
-4.124999 0.584294 53.317848 69 74 74
-4.121319 0.698606 53.270283 74 80 76
-4.117658 0.812716 53.222973 109 114 109
-4.114046 0.926633 53.176277 182 186 182
-4.110506 1.040367 53.130524 200 203 200
-4.107064 1.153932 53.086033 112 116 114
-4.103740 1.267341 53.043076 37 41 39
-4.100552 1.380611 53.001865 80 83 82
-4.097513 1.493757 52.962578 187 191 190
-4.094630 1.606795 52.925316 203 207 208
-4.091909 1.719741 52.890152 113 117 117
-4.089349 1.832607 52.857059 60 63 62
-4.086946 1.945405 52.825993 122 124 121
-4.084690 2.058143 52.796837 218 219 217
-4.082570 2.170828 52.769440 252 252 251
-4.080572 2.283463 52.743610 216 218 219
-4.078679 2.396048 52.719139 126 127 132
-4.076871 2.508581 52.695782 56 55 68
-4.075131 2.621056 52.673286 84 78 102
-4.073440 2.733467 52.651424 155 148 172
-4.071777 2.845804 52.629936 174 163 187
-4.070127 2.958057 52.608612 141 121 156
-4.068474 3.070216 52.587246 129 101 144
-4.066805 3.182270 52.565666 139 108 153
-4.065108 3.294209 52.543732 136 104 150
-4.063375 3.406023 52.521328 136 104 152
-4.061599 3.517703 52.498379 174 144 186
-4.059778 3.629244 52.474838 204 176 212
-4.057910 3.740640 52.450695 165 133 174
-4.055995 3.851888 52.425949 117 80 126
-4.054037 3.962986 52.400631 121 83 124
-4.052036 4.073932 52.374771 133 96 129
-4.049999 4.184730 52.348438 133 97 122
-4.047928 4.295378 52.321674 132 96 116
-4.045829 4.405880 52.294544 134 98 115
-4.043706 4.516238 52.267097 136 101 115
-4.041561 4.626453 52.239372 133 97 110
-4.039398 4.736528 52.211422 127 92 103
-4.037219 4.846462 52.183254 122 87 97
-4.035026 4.956257 52.154896 117 82 92
-4.032816 5.065910 52.126343 111 78 88
-4.030593 5.175422 52.097603 106 74 84
-4.028353 5.284788 52.068649 102 71 80
-4.026095 5.394005 52.039467 97 66 76
-4.023817 5.503069 52.010021 93 61 71
-4.021516 5.611975 51.980286 89 54 65
-4.019190 5.720716 51.950218 88 48 61
-4.016836 5.829287 51.919788 93 50 64
-4.014451 5.937681 51.888962 106 59 73
-4.012033 6.045893 51.857712 110 59 74
-4.009581 6.153917 51.826019 101 49 63
-4.007094 6.261751 51.793873 96 43 55
-4.004573 6.369390 51.761284 97 42 53
-4.002020 6.476838 51.728279 98 42 52
-3.999439 6.584097 51.694916 101 43 53
-3.996835 6.691175 51.661263 105 45 54
-3.994217 6.798085 51.627430 109 47 57
-3.991596 6.904841 51.593548 112 47 58
-3.988983 7.011467 51.559776 110 44 55
-3.986394 7.117989 51.526306 109 41 53
-3.983843 7.224437 51.493340 111 43 55
-3.981350 7.330848 51.461113 114 46 58
-3.978931 7.437260 51.429848 118 49 60
-3.976605 7.543714 51.399784 121 50 62
-3.974390 7.650250 51.371155 123 50 63
-3.972301 7.756911 51.344158 124 50 64
-3.970354 7.863734 51.318985 125 51 65
-3.968559 7.970756 51.295784 126 52 67
-3.966926 8.078007 51.274677 127 52 68
-3.965460 8.185511 51.255722 128 53 69
-3.964161 8.293283 51.238937 128 53 69
-3.963027 8.401334 51.224281 125 51 66
-3.962052 8.509662 51.211678 122 50 64
-3.961225 8.618258 51.200989 121 50 65
-3.960533 8.727105 51.192043 122 52 68
-3.959958 8.836175 51.184616 125 56 73
-3.959482 8.945436 51.178459 129 59 78
-3.959084 9.054848 51.173309 128 59 78
-3.958740 9.164364 51.168861 124 55 76
-3.958428 9.273936 51.164829 124 55 76
-3.958124 9.383511 51.160908 128 60 80
-3.957807 9.493034 51.156803 132 64 83
-3.957453 9.602453 51.152229 134 64 83
-3.957043 9.711715 51.146938 133 63 81
-3.956560 9.820771 51.140690 131 62 79
-3.955987 9.929575 51.133286 130 62 78
-3.955312 10.038089 51.124565 129 62 77
-3.954526 10.146279 51.114403 130 63 77
-3.953623 10.254122 51.102726 131 64 78
-3.952600 10.361601 51.089504 133 66 80
-3.951460 10.468711 51.074764 135 67 82
-3.950207 10.575459 51.058578 136 66 83
-3.948852 10.681858 51.041065 134 64 82
-3.947409 10.787941 51.022408 131 60 79
-3.945893 10.893744 51.002815 127 56 75
-3.944323 10.999308 50.982513 124 54 73
-3.942721 11.104698 50.961811 122 53 72
-4.066562 -3.486887 54.069065 122 75 81
-4.064415 -3.368552 54.040508 130 88 94
-4.062518 -3.250541 54.015285 144 107 116
-4.060853 -3.132818 53.993149 143 113 128
-4.059399 -3.015347 53.973816 121 96 119
-4.058131 -2.898093 53.956963 105 83 114
-4.057024 -2.781021 53.942249 108 87 125
-4.056052 -2.664101 53.929314 124 103 143
-4.055185 -2.547303 53.917789 138 115 154
-4.054398 -2.430602 53.907318 124 100 134
-4.053662 -2.313976 53.897533 96 75 101
-4.052952 -2.197407 53.888100 109 94 111
-4.052243 -2.080878 53.878677 153 149 158
-4.051511 -1.964379 53.868946 147 155 161
-4.050733 -1.847901 53.858597 86 105 112
-4.049888 -1.731438 53.847359 56 86 95
-4.048956 -1.614990 53.834969 85 120 133
-4.047919 -1.498556 53.821178 116 153 168
-4.046761 -1.382140 53.805782 136 169 186
-4.045467 -1.265748 53.788578 166 193 205
-4.044024 -1.149388 53.769394 190 211 217
-4.042423 -1.033070 53.748100 176 196 200
-4.040653 -0.916806 53.724575 119 139 148
-4.038710 -0.800608 53.698742 76 96 109
-4.036590 -0.684492 53.670544 100 117 130
-4.034291 -0.568473 53.639980 164 176 186
-4.031817 -0.452565 53.607086 198 207 217
-4.029171 -0.336785 53.571915 175 183 198
-4.026365 -0.221148 53.534599 152 158 176
-4.023408 -0.105668 53.495289 179 183 199
-4.020317 0.009642 53.454185 195 196 208
-4.017109 0.124772 53.411533 149 149 161
-4.013805 0.239712 53.367599 108 108 119
-4.010428 0.354456 53.322701 88 91 96
-4.007003 0.469001 53.277164 70 75 75
-4.003557 0.583346 53.231342 92 98 95
-4.000115 0.697495 53.185585 142 148 143
-3.996705 0.811453 53.140240 185 189 185
-3.993352 0.925228 53.095665 224 226 224
-3.990080 1.038833 53.052158 205 207 205
-3.986911 1.152279 53.010017 104 107 105
-3.983862 1.265583 52.969482 36 39 38
-3.980950 1.378759 52.930763 88 91 90
-3.978186 1.491823 52.894009 195 198 198
-3.975576 1.604791 52.859303 226 228 228
-3.973123 1.717677 52.826698 149 154 153
-3.970827 1.830495 52.796158 84 89 86
-3.968680 1.943255 52.767620 137 140 137
-3.966675 2.055965 52.740959 224 225 223
-3.964798 2.168630 52.716011 240 241 241
-3.963035 2.281253 52.692562 188 195 196
-3.961368 2.393833 52.670395 100 107 116
-3.959778 2.506366 52.649258 47 51 70
-3.958246 2.618846 52.628883 88 88 116
-3.956752 2.731266 52.609024 173 170 196
-3.955277 2.843613 52.589417 190 180 204
-3.953805 2.955877 52.569836 138 118 155
-3.952318 3.068046 52.550068 123 93 137
-3.950804 3.180107 52.529934 139 106 150
-3.949250 3.292048 52.509270 138 104 149
-3.947647 3.403859 52.487965 146 110 157
-3.945991 3.515530 52.465942 182 148 191
-3.944277 3.627052 52.443153 193 159 200
-3.942503 3.738420 52.419575 150 114 158
-3.940672 3.849631 52.395229 118 81 124
-3.938785 3.960680 52.370136 126 88 126
-3.936846 4.071567 52.344360 134 97 128
-3.934861 4.182293 52.317963 134 98 121
-3.932834 4.292861 52.291012 133 97 116
-3.930771 4.403272 52.263580 134 98 114
-3.928677 4.513528 52.235737 135 99 113
-3.926558 4.623635 52.207561 131 96 109
-3.924417 4.733595 52.179092 125 90 102
-3.922258 4.843410 52.150391 119 85 96
-3.920084 4.953082 52.121483 113 80 91
-3.917896 5.062611 52.092392 108 76 86
-3.915695 5.171997 52.063126 103 73 82
-3.913480 5.281239 52.033680 98 70 79
-3.911252 5.390335 52.004055 94 65 75
-3.909008 5.499281 51.974220 89 59 69
-3.906746 5.608074 51.944149 85 53 64
-3.904464 5.716707 51.913807 85 48 62
-3.902160 5.825175 51.883167 93 52 67
-3.899829 5.933472 51.852177 105 60 76
-3.897471 6.041592 51.820816 106 58 73
-3.895082 6.149528 51.789055 98 48 62
-3.892661 6.257277 51.756874 95 43 56
-3.890209 6.364835 51.724266 96 43 54
-3.887727 6.472202 51.691257 98 43 53
-3.885216 6.579380 51.657875 102 45 54
-3.882682 6.686374 51.624191 106 47 56
-3.880133 6.793195 51.590302 111 49 58
-3.877577 6.899858 51.556313 113 49 59
-3.875026 7.006383 51.522388 111 45 56
-3.872493 7.112795 51.488708 110 43 54
-3.869992 7.219122 51.455456 112 44 56
-3.867540 7.325399 51.422863 114 46 57
-3.865155 7.431665 51.391155 118 49 60
-3.862855 7.537957 51.360561 122 51 62
-3.860655 7.644318 51.331318 123 52 63
-3.858572 7.750786 51.303619 124 52 64
-3.856620 7.857403 51.277672 125 51 65
-3.854811 7.964203 51.253616 126 52 66
-3.853154 8.071218 51.231586 127 52 67
-3.851655 8.178472 51.211647 127 53 68
-3.850314 8.285982 51.193829 127 53 67
-3.849132 8.393762 51.178112 125 51 65
-3.848102 8.501808 51.164417 122 50 64
-3.847216 8.610118 51.152634 123 51 65
-3.846461 8.718674 51.142586 125 53 68
-3.845822 8.827454 51.134090 128 57 73
-3.845281 8.936425 51.126907 130 59 77
-3.844820 9.045552 51.120777 129 58 78
-3.844418 9.154795 51.115429 125 55 75
-3.844053 9.264103 51.110580 125 55 75
-3.843704 9.373429 51.105942 128 59 78
-3.843350 9.482723 51.101231 132 62 81
-3.842971 9.591933 51.096191 133 64 82
-3.842548 9.701012 51.090569 133 63 80
-3.842064 9.809911 51.084133 131 63 78
-3.841505 9.918587 51.076698 129 62 77
-3.840859 10.027005 51.068115 128 62 75
-3.840117 10.135132 51.058247 128 63 75
-3.839273 10.242946 51.047028 131 64 77
-3.838326 10.350430 51.034424 134 66 80
-3.837275 10.457581 51.020458 136 68 82
-3.836128 10.564403 51.005199 137 68 84
-3.834891 10.670912 50.988762 135 65 83
-3.833578 10.777136 50.971306 131 60 79
-3.832205 10.883113 50.953045 127 56 76
-3.830786 10.988879 50.934174 124 55 75
-3.829344 11.094498 50.914997 123 54 74
-3.827901 11.200031 50.895813 121 53 72
-3.948521 -3.485575 54.048714 126 77 81
-3.946176 -3.367063 54.016609 152 107 110
-3.944069 -3.248886 53.987766 184 146 151
-3.942184 -3.131009 53.961967 182 150 159
-3.940501 -3.013398 53.938931 136 107 123
-3.938998 -2.896019 53.918354 105 79 101
-3.937652 -2.778839 53.899929 113 90 118
-3.936437 -2.661828 53.883301 130 107 137
-3.935328 -2.544957 53.868126 133 112 141
-3.934300 -2.428200 53.854046 112 94 118
-3.933326 -2.311537 53.840717 89 75 91
-3.932383 -2.194948 53.827808 121 113 122
-3.931447 -2.078418 53.814991 180 180 183
-3.930494 -1.961936 53.801956 166 175 177
-3.929505 -1.845492 53.788410 88 103 106
-3.928458 -1.729082 53.774090 63 84 89
-3.927338 -1.612703 53.758747 121 148 156
-3.926126 -1.496356 53.742157 169 197 206
-3.924808 -1.380042 53.724113 156 180 192
-3.923370 -1.263768 53.704437 142 162 174
-3.921803 -1.147541 53.682983 179 194 202
-3.920096 -1.031369 53.659626 197 209 215
-3.918244 -0.915264 53.634270 129 140 148
-3.916240 -0.799238 53.606842 51 62 73
-3.914084 -0.683303 53.577328 51 62 72
-3.911775 -0.567474 53.545719 120 129 137
-3.909316 -0.451763 53.512054 191 196 202
-3.906713 -0.336185 53.476421 191 194 202
-3.903974 -0.220753 53.438934 161 165 173
-3.901111 -0.105479 53.399754 182 185 192
-3.898140 0.009625 53.359077 190 191 198
-3.895075 0.124551 53.317131 130 131 137
-3.891938 0.239292 53.274181 85 88 91
-3.888749 0.353843 53.230526 79 83 83
-3.885530 0.468202 53.186474 94 99 96
-3.882308 0.582371 53.142361 150 155 150
-3.879104 0.696353 53.098511 211 214 211
-3.875944 0.810155 53.055252 240 241 240
-3.872851 0.923786 53.012909 250 250 250
-3.869846 1.037259 52.971775 210 211 211
-3.866948 1.150586 52.932106 105 106 106
-3.864174 1.263783 52.894142 45 48 49
-3.861537 1.376864 52.858051 108 111 112
-3.859047 1.489847 52.823967 208 210 211
-3.856710 1.602747 52.791969 240 241 242
-3.854525 1.715576 52.762070 173 176 176
-3.852492 1.828348 52.734241 95 99 98
-3.850604 1.941074 52.708397 137 140 138
-3.848850 2.053760 52.684391 221 222 221
-3.847219 2.166410 52.662048 227 229 229
-3.845692 2.279027 52.641155 174 179 183
-3.844254 2.391609 52.621464 99 105 118
-3.842884 2.504151 52.602718 56 61 83
-3.841563 2.616645 52.584637 101 102 133
-3.840271 2.729082 52.566956 186 180 210
-3.838989 2.841449 52.549404 195 181 210
-3.837699 2.953735 52.531742 139 116 155
-3.836384 3.065925 52.513748 123 92 137
-3.835031 3.178005 52.495220 140 104 147
-3.833627 3.289962 52.476002 142 105 147
-3.832163 3.401784 52.455967 149 111 153
-3.830634 3.513459 52.435040 171 133 175
-3.829036 3.624978 52.413158 172 135 174
-3.827367 3.736334 52.390312 143 106 145
-3.825629 3.847522 52.366524 127 89 126
-3.823825 3.958538 52.341824 131 94 126
-3.821959 4.069383 52.316284 135 98 125
-3.820037 4.180056 52.289974 135 99 120
-3.818065 4.290560 52.262981 133 97 115
-3.816050 4.400898 52.235401 132 95 111
-3.813998 4.511072 52.207314 131 95 109
-3.811916 4.621089 52.178814 127 92 105
-3.809809 4.730954 52.149979 122 87 99
-3.807682 4.840667 52.120857 117 83 94
-3.805539 4.950234 52.091522 111 79 89
-3.803382 5.059656 52.061996 106 76 85
-3.801213 5.168935 52.032307 102 73 82
-3.799033 5.278071 52.002468 98 69 78
-3.796842 5.387062 51.972477 94 65 74
-3.794638 5.495905 51.942307 88 59 68
-3.792420 5.604598 51.911953 84 52 62
-3.790186 5.713135 51.881374 86 49 62
-3.787932 5.821510 51.850521 96 55 69
-3.785657 5.929718 51.819370 106 61 76
-3.783356 6.037751 51.787876 103 55 70
-3.781027 6.145603 51.755997 95 45 60
-3.778669 6.253268 51.723717 94 43 56
-3.776279 6.360742 51.691006 96 44 55
-3.773860 6.468024 51.657887 98 44 54
-3.771411 6.575112 51.624374 103 47 55
-3.768939 6.682013 51.590527 108 50 58
-3.766447 6.788734 51.556419 113 52 62
-3.763945 6.895289 51.522171 114 51 61
-3.761442 7.001695 51.487919 111 47 57
-3.758952 7.107976 51.453827 110 45 55
-3.756488 7.214161 51.420094 112 46 55
-3.754065 7.320282 51.386936 114 47 57
-3.751701 7.426375 51.354576 118 50 59
-3.749413 7.532480 51.323246 122 53 63
-3.747216 7.638638 51.293179 125 55 65
-3.745126 7.744888 51.264576 124 54 65
-3.743159 7.851270 51.237640 125 52 65
-3.741324 7.957819 51.212536 125 52 66
-3.739634 8.064569 51.189388 127 53 67
-3.738091 8.171546 51.168282 128 54 68
-3.736702 8.278769 51.149261 127 54 68
-3.735464 8.386250 51.132313 125 51 65
-3.734373 8.493992 51.117374 123 51 64
-3.733421 8.601991 51.104347 124 51 65
-3.732598 8.710235 51.093086 126 54 68
-3.731891 8.818703 51.083405 129 57 72
-3.731283 8.927368 51.075092 132 59 77
-3.730758 9.036197 51.067902 131 59 77
-3.730296 9.145149 51.061573 128 57 76
-3.729878 9.254183 51.055851 127 57 76
-3.729483 9.363252 51.050449 129 59 78
-3.729094 9.472309 51.045113 131 62 80
-3.728689 9.581306 51.039581 132 63 81
-3.728254 9.690199 51.033623 133 63 80
-3.727771 9.798941 51.027008 131 63 78
-3.727227 9.907492 51.019566 130 62 76
-3.726611 10.015818 51.011131 128 62 74
-3.725915 10.123888 51.001602 128 62 74
-3.725132 10.231680 50.990883 130 63 75
-3.724261 10.339181 50.978962 133 66 79
-3.723302 10.446384 50.965836 137 69 84
-3.722260 10.553295 50.951572 138 70 85
-3.721143 10.659929 50.936279 135 66 83
-3.719962 10.766313 50.920113 130 61 80
-3.718730 10.872479 50.903259 126 57 76
-3.717463 10.978467 50.885914 124 55 76
-3.716181 11.084335 50.868359 123 55 76
-3.714903 11.190141 50.850872 122 55 75
-3.713652 11.295953 50.833744 122 55 75
-3.712447 11.401834 50.817253 125 57 77
-3.833362 -3.603357 54.067783 120 74 78
-3.830586 -3.484279 54.028629 132 86 87
-3.828047 -3.365579 53.992805 176 135 134
-3.825733 -3.247225 53.960171 209 177 176
-3.823630 -3.129184 53.930515 186 157 159
-3.821721 -3.011424 53.903591 132 102 110
-3.819987 -2.893912 53.879124 107 79 92
-3.818404 -2.776616 53.856808 116 93 110
-3.816952 -2.659507 53.836319 127 106 126
-3.815604 -2.542556 53.817314 124 106 124
-3.814339 -2.425739 53.799461 100 87 101
-3.813132 -2.309035 53.782440 80 71 80
-3.811959 -2.192424 53.765900 116 111 116
-3.810800 -2.075891 53.749557 181 181 183
-3.809633 -1.959425 53.733093 174 179 181
-3.808438 -1.843016 53.716240 100 105 110
-3.807197 -1.726659 53.698734 77 85 93
-3.805894 -1.610351 53.680351 142 154 164
-3.804513 -1.494092 53.660877 193 205 214
-3.803041 -1.377884 53.640118 153 162 176
-3.801467 -1.261732 53.617924 102 110 131
-3.799783 -1.145642 53.594154 144 151 170
-3.797978 -1.029622 53.568699 190 196 209
-3.796049 -0.913681 53.541492 133 139 151
-3.793991 -0.797831 53.512474 49 54 67
-3.791805 -0.682083 53.481636 33 39 50
-3.789490 -0.566449 53.448994 95 100 108
-3.787051 -0.450940 53.414589 178 180 184
-3.784494 -0.335570 53.378517 190 191 194
-3.781826 -0.220348 53.340897 165 166 169
-3.779061 -0.105286 53.301891 189 188 190
-3.776211 0.009608 53.261688 183 182 181
-3.773291 0.124326 53.220509 115 116 114
-3.770320 0.238863 53.178608 98 100 96
-3.767319 0.353217 53.136269 127 129 123
-3.764306 0.467386 53.093781 149 152 145
-3.761305 0.581375 53.051453 192 195 188
-3.758337 0.695187 53.009594 233 235 230
-3.755425 0.808830 52.968513 247 248 246
-3.752588 0.922316 52.928501 252 253 252
-3.749847 1.035654 52.889835 211 212 212
-3.747217 1.148861 52.852745 106 107 108
-3.744714 1.261950 52.817444 50 52 54
-3.742349 1.374938 52.784088 116 118 121
-3.740130 1.487840 52.752792 214 215 217
-3.738061 1.600671 52.723610 245 245 247
-3.736142 1.713445 52.696541 181 180 184
-3.734370 1.826175 52.671547 92 93 95
-3.732737 1.938869 52.648510 125 125 125
-3.731233 2.051534 52.627293 216 216 216
-3.729843 2.164174 52.607697 235 237 237
-3.728553 2.276791 52.589489 195 197 202
-3.727342 2.389380 52.572418 121 123 137
-3.726192 2.501936 52.556198 69 70 93
-3.725083 2.614451 52.540554 107 104 137
-3.723994 2.726914 52.525196 188 178 211
-3.722906 2.839310 52.509846 195 177 210
-3.721800 2.951627 52.494251 141 114 155
-3.720660 3.063848 52.478176 126 92 136
-3.719471 3.175958 52.461403 140 103 143
-3.718222 3.287942 52.443779 144 105 142
-3.716902 3.399786 52.425163 147 108 144
-3.715506 3.511478 52.405472 156 118 152
-3.714029 3.623006 52.384647 157 119 152
-3.712472 3.734363 52.362682 143 105 137
-3.710835 3.845543 52.339588 133 96 125
-3.709121 3.956542 52.315422 135 98 124
-3.707337 4.067358 52.290257 137 100 122
-3.705488 4.177994 52.264175 135 98 117
-3.703581 4.288450 52.237282 131 94 111
-3.701624 4.398730 52.209679 128 91 106
-3.699625 4.508841 52.181484 126 90 104
-3.697591 4.618785 52.152790 123 88 101
-3.695529 4.728570 52.123703 119 84 97
-3.693443 4.838199 52.094288 115 81 92
-3.691340 4.947679 52.064629 110 78 88
-3.689224 5.057011 52.034771 106 75 85
-3.687095 5.166198 52.004753 102 72 81
-3.684957 5.275242 51.974598 99 68 77
-3.682810 5.384142 51.944309 95 63 71
-3.680652 5.492897 51.913876 89 57 64
-3.678482 5.601501 51.883270 86 50 59
-3.676298 5.709952 51.852470 92 52 63
-3.674098 5.818244 51.821430 106 62 75
-3.671877 5.926368 51.790104 110 63 76
-3.669632 6.034320 51.758450 99 50 65
-3.667361 6.142090 51.726418 93 43 57
-3.665061 6.249672 51.693974 95 44 56
-3.662730 6.357061 51.661091 97 45 56
-3.660367 6.464252 51.627766 100 47 57
-3.657974 6.571245 51.594009 104 49 58
-3.655553 6.678043 51.559868 108 51 60
-3.653111 6.784652 51.525417 113 54 63
-3.650653 6.891084 51.490749 114 54 63
-3.648189 6.997355 51.456005 111 49 58
-3.645731 7.103488 51.421341 110 46 54
-3.643293 7.209511 51.386948 112 48 55
-3.640889 7.315453 51.353035 115 49 57
-3.638535 7.421351 51.319836 118 52 59
-3.636248 7.527245 51.287575 122 55 63
-3.634044 7.633174 51.256489 125 57 65
-3.631938 7.739179 51.226791 125 55 65
-3.629945 7.845299 51.198677 124 53 65
-3.628077 7.951572 51.172333 125 53 66
-3.626344 8.058033 51.147896 127 54 68
-3.624753 8.164706 51.125450 130 56 70
-3.623307 8.271614 51.105057 130 56 69
-3.622007 8.378773 51.086720 126 52 65
-3.620850 8.486185 51.070393 124 51 63
-3.619829 8.593852 51.055996 124 51 64
-3.618936 8.701763 51.043396 126 54 67
-3.618157 8.809900 51.032417 129 56 70
-3.617481 8.918242 51.022877 131 58 74
-3.616890 9.026755 51.014542 131 58 76
-3.616367 9.135404 51.007164 130 57 77
-3.615895 9.244151 51.000507 129 58 77
-3.615455 9.352954 50.994305 129 59 79
-3.615030 9.461766 50.988300 131 62 80
-3.614601 9.570546 50.982262 132 63 80
-3.614154 9.679249 50.975952 132 63 80
-3.613673 9.787832 50.969162 132 63 78
-3.613145 9.896260 50.961723 131 62 76
-3.612561 10.004497 50.953476 130 61 74
-3.611911 10.112515 50.944309 130 62 74
-3.611190 10.220294 50.934143 131 63 75
-3.610396 10.327820 50.922943 134 66 79
-3.609529 10.435087 50.910717 138 70 84
-3.608593 10.542099 50.897518 138 70 85
-3.607595 10.648870 50.883442 134 66 82
-3.606545 10.755427 50.868633 129 61 79
-3.605456 10.861802 50.853271 126 58 77
-3.604340 10.968027 50.837524 124 57 78
-3.603215 11.074162 50.821671 124 57 78
-3.602102 11.180259 50.805965 124 57 78
-3.601018 11.286383 50.790676 126 58 79
-3.599983 11.392594 50.776073 128 60 80
-3.599014 11.498953 50.762402 131 62 82
-3.715689 -3.602269 54.051472 122 75 82
-3.712740 -3.482987 54.008579 139 94 97
-3.710014 -3.364090 53.968918 187 146 147
-3.707501 -3.245551 53.932358 201 165 166
-3.705188 -3.127339 53.898716 160 123 126
-3.703061 -3.009423 53.867775 122 85 92
-3.701102 -2.891772 53.839283 118 84 95
-3.699292 -2.774355 53.812950 125 95 110
-3.697609 -2.657143 53.788464 124 100 115
-3.696031 -2.540108 53.765507 117 98 111
-3.694537 -2.423228 53.743774 97 84 93
-3.693104 -2.306480 53.722931 76 67 72
-3.691711 -2.189845 53.702671 101 97 98
-3.690338 -2.073309 53.682693 169 167 168
-3.688965 -1.956859 53.662716 181 181 184
-3.687573 -1.840485 53.642471 115 116 124
-3.686146 -1.724183 53.621723 84 84 98
-3.684670 -1.607948 53.600239 137 136 155
-3.683130 -1.491780 53.577835 184 182 201
-3.681514 -1.375681 53.554329 144 141 165
-3.679812 -1.259653 53.529579 90 88 119
-3.678018 -1.143703 53.503475 127 125 155
-3.676124 -1.027838 53.475922 180 181 203
-3.674126 -0.912066 53.446861 143 145 165
-3.672022 -0.796397 53.416260 64 68 87
-3.669812 -0.680839 53.384109 33 36 53
-3.667499 -0.565404 53.350456 80 83 94
-3.665084 -0.450102 53.315334 168 168 173
-3.662577 -0.334943 53.278862 190 187 188
-3.659985 -0.219936 53.241150 167 165 165
-3.657318 -0.105089 53.202354 187 186 184
-3.654590 0.009590 53.162670 169 168 164
-3.651815 0.124096 53.122307 103 102 95
-3.649010 0.238427 53.081509 117 117 108
-3.646194 0.352580 53.040535 172 173 163
-3.643384 0.466558 52.999660 185 187 176
-3.640601 0.580364 52.959175 201 202 192
-3.637865 0.694004 52.919376 219 220 212
-3.635195 0.807487 52.880531 230 231 226
-3.632609 0.920824 52.842915 247 247 245
-3.630124 1.034028 52.806774 212 212 213
-3.627757 1.147113 52.772339 108 108 112
-3.625518 1.260094 52.739769 47 48 55
-3.623419 1.372988 52.709229 106 108 115
-3.621464 1.485809 52.680790 208 208 213
-3.619656 1.598573 52.654499 245 244 247
-3.617996 1.711293 52.630352 179 177 183
-3.616478 1.823981 52.608273 89 85 92
-3.615095 1.936645 52.588142 119 116 119
-3.613834 2.049293 52.569809 215 215 216
-3.612682 2.161926 52.553047 246 246 247
-3.611622 2.274545 52.537632 204 201 208
-3.610635 2.387146 52.523273 123 119 134
-3.609702 2.499723 52.509701 78 72 95
-3.608802 2.612264 52.496605 113 104 135
-3.607914 2.724758 52.483685 178 163 195
-3.607018 2.837191 52.470657 185 163 197
-3.606096 2.949546 52.457245 142 113 152
-3.605131 3.061806 52.443203 128 94 133
-3.604108 3.173955 52.428314 139 101 138
-3.603014 3.285975 52.412403 142 103 136
-3.601840 3.397851 52.395325 144 105 135
-3.600580 3.509569 52.376995 151 112 139
-3.599229 3.621118 52.357353 153 113 140
-3.597788 3.732488 52.336384 143 104 130
-3.596258 3.843672 52.314125 137 98 121
-3.594641 3.954665 52.290611 139 101 121
-3.592945 4.065467 52.265942 140 102 120
-3.591177 4.176078 52.240208 134 97 114
-3.589343 4.286500 52.213535 126 89 105
-3.587453 4.396739 52.186043 123 86 101
-3.585515 4.506798 52.157845 122 87 101
-3.583537 4.616685 52.129082 120 86 99
-3.581527 4.726406 52.099846 117 83 94
-3.579493 4.835967 52.070248 112 79 90
-3.577439 4.945373 52.040367 109 76 87
-3.575370 5.054629 52.010269 106 74 84
-3.573289 5.163740 51.980007 102 70 79
-3.571199 5.272706 51.949608 99 66 73
-3.569101 5.381527 51.919083 95 61 66
-3.566993 5.490203 51.888424 89 53 58
-3.564876 5.598732 51.857616 87 48 54
-3.562745 5.707106 51.826622 101 58 65
-3.560599 5.815321 51.795395 119 73 82
-3.558433 5.923369 51.763889 113 65 75
-3.556244 6.031242 51.732048 95 45 57
-3.554029 6.138933 51.699825 91 40 52
-3.551783 6.246431 51.667160 96 44 56
-3.549505 6.353731 51.634029 98 46 58
-3.547195 6.460828 51.600414 101 48 58
-3.544851 6.567719 51.566319 105 51 60
-3.542476 6.674404 51.531776 109 53 62
-3.540075 6.780890 51.496853 113 56 64
-3.537654 6.887187 51.461628 115 55 63
-3.535222 6.993309 51.426243 111 50 58
-3.532789 7.099277 51.390850 110 47 55
-3.530368 7.205117 51.355633 112 49 56
-3.527973 7.310861 51.320805 116 52 58
-3.525621 7.416544 51.286591 119 54 61
-3.523328 7.522203 51.253223 124 57 65
-3.521108 7.627880 51.220936 127 59 68
-3.518979 7.733616 51.189964 127 57 68
-3.516954 7.839450 51.160507 125 54 67
-3.515046 7.945422 51.132755 125 53 67
-3.513265 8.051566 51.106850 128 54 69
-3.511619 8.157911 51.082905 130 56 71
-3.510113 8.264482 51.060989 129 55 69
-3.508747 8.371293 51.041119 126 52 65
-3.507520 8.478354 51.023270 124 51 63
-3.506427 8.585668 51.007374 125 51 64
-3.505460 8.693225 50.993309 126 53 66
-3.504610 8.801014 50.980938 129 55 69
-3.503863 8.909012 50.970070 131 56 73
-3.503205 9.017193 50.960503 132 57 75
-3.502621 9.125525 50.952011 131 57 76
-3.502095 9.233974 50.944359 130 58 77
-3.501610 9.342499 50.937298 130 60 78
-3.501149 9.451059 50.930599 131 61 80
-3.500698 9.559615 50.924030 133 62 80
-3.500239 9.668124 50.917362 133 63 80
-3.499761 9.776548 50.910404 133 63 79
-3.499250 9.884851 50.902973 133 62 77
-3.498697 9.993001 50.894928 132 61 76
-3.498094 10.100973 50.886162 133 62 76
-3.497436 10.208744 50.876579 134 63 76
-3.496719 10.316302 50.866154 136 65 79
-3.495944 10.423641 50.854877 139 69 83
-3.495114 10.530766 50.842804 139 70 84
-3.494234 10.637689 50.830009 133 66 81
-3.493315 10.744431 50.816628 128 62 79
-3.492365 10.851027 50.802822 125 60 78
-3.491398 10.957504 50.788750 125 59 78
-3.490429 11.063917 50.774658 125 59 79
-3.489476 11.170320 50.760799 126 59 79
-3.488557 11.276770 50.747417 128 60 81
-3.487687 11.383325 50.734760 130 62 82
-3.486882 11.490042 50.723064 132 63 83
-3.486158 11.596973 50.712524 134 65 84
-3.598081 -3.601177 54.035080 127 81 91
-3.594971 -3.481684 53.988384 142 96 102
-3.592069 -3.362587 53.944801 172 127 130
-3.589369 -3.243859 53.904243 169 126 127
-3.586858 -3.125472 53.866539 135 91 93
-3.584525 -3.007396 53.831501 121 78 83
-3.582354 -2.889603 53.798897 129 91 99
-3.580327 -2.772061 53.768456 132 98 110
-3.578425 -2.654744 53.739902 123 94 107
-3.576629 -2.537624 53.712925 113 90 102
-3.574918 -2.420679 53.687225 101 85 93
-3.573271 -2.303885 53.662498 87 76 80
-3.571670 -2.187227 53.638451 103 94 96
-3.570095 -2.070686 53.614788 159 153 155
-3.568527 -1.954252 53.591244 183 175 182
-3.566951 -1.837915 53.567574 133 124 138
-3.565350 -1.721669 53.543533 95 84 105
-3.563711 -1.605509 53.518925 121 107 135
-3.562022 -1.489434 53.493565 152 136 170
-3.560274 -1.373445 53.467300 130 115 153
-3.558455 -1.257545 53.439999 94 82 124
-3.556562 -1.141739 53.411560 109 101 141
-3.554588 -1.026032 53.381920 144 139 174
-3.552531 -0.910431 53.351017 135 134 163
-3.550388 -0.794944 53.318848 101 102 125
-3.548162 -0.679581 53.285416 73 75 93
-3.545855 -0.564348 53.250767 94 95 107
-3.543471 -0.449255 53.214966 165 164 169
-3.541017 -0.334310 53.178112 186 182 183
-3.538502 -0.219520 53.140335 164 159 158
-3.535935 -0.104891 53.101784 175 169 165
-3.533329 0.009572 53.062656 161 156 148
-3.530698 0.123865 53.023140 117 113 104
-3.528056 0.237986 52.983471 129 127 115
-3.525421 0.351938 52.943901 165 164 151
-3.522810 0.465722 52.904675 178 178 164
-3.520239 0.579343 52.866070 191 191 178
-3.517727 0.692810 52.828350 189 189 180
-3.515291 0.806132 52.791771 188 188 183
-3.512948 0.919320 52.756580 207 207 205
-3.510713 1.032388 52.723007 182 183 184
-3.508598 1.145350 52.691242 98 99 104
-3.506614 1.258223 52.661457 54 55 65
-3.504770 1.371022 52.633755 111 111 123
-3.503069 1.483762 52.608219 203 202 212
-3.501515 1.596459 52.584873 227 224 232
-3.500104 1.709126 52.563686 155 150 160
-3.498831 1.821772 52.544571 82 75 86
-3.497688 1.934409 52.527405 122 117 123
-3.496662 2.047040 52.512001 210 206 209
-3.495740 2.159668 52.498150 220 217 220
-3.494903 2.272292 52.485580 166 159 167
-3.494133 2.384908 52.474018 115 107 121
-3.493410 2.497507 52.463165 111 100 120
-3.492713 2.610079 52.452686 128 114 140
-3.492021 2.722610 52.442295 150 130 161
-3.491313 2.835083 52.431667 159 133 165
-3.490571 2.947482 52.420528 140 108 143
-3.489778 3.059787 52.408619 132 97 130
-3.488918 3.171981 52.395702 138 101 131
-3.487979 3.284044 52.381603 141 102 128
-3.486951 3.395960 52.366161 143 104 127
-3.485828 3.507714 52.349293 148 109 130
-3.484605 3.619291 52.330936 151 112 132
-3.483283 3.730683 52.311081 145 106 126
-3.481863 3.841881 52.289745 141 102 120
-3.480348 3.952879 52.267002 143 104 120
-3.478746 4.063678 52.242935 140 102 118
-3.477063 4.174276 52.217667 132 94 110
-3.475308 4.284676 52.191315 123 86 102
-3.473492 4.394884 52.164032 120 83 99
-3.471622 4.504906 52.135948 120 84 99
-3.469708 4.614748 52.107208 118 84 98
-3.467758 4.724418 52.077930 115 81 94
-3.465781 4.833923 52.048241 111 78 90
-3.463783 4.943269 52.018230 108 76 86
-3.461768 5.052463 51.987972 106 72 82
-3.459742 5.161508 51.957539 103 69 78
-3.457705 5.270407 51.926960 100 65 72
-3.455661 5.379161 51.896255 96 58 64
-3.453608 5.487770 51.865417 90 50 55
-3.451545 5.596229 51.834435 90 46 52
-3.449469 5.704534 51.803268 109 62 68
-3.447378 5.812679 51.771862 127 78 86
-3.445267 5.920654 51.740166 114 64 73
-3.443133 6.028452 51.708118 92 41 50
-3.440972 6.136063 51.675659 90 38 48
-3.438779 6.243477 51.642731 96 44 54
-3.436553 6.350687 51.609291 99 46 57
-3.434290 6.457684 51.575306 102 49 59
-3.431991 6.564466 51.540783 106 52 61
-3.429657 6.671030 51.505730 110 55 63
-3.427292 6.777383 51.470215 115 57 65
-3.424902 6.883532 51.434319 115 56 64
-3.422494 6.989490 51.398159 112 51 59
-3.420079 7.095277 51.361897 111 49 56
-3.417670 7.200920 51.325718 113 51 58
-3.415279 7.306447 51.289814 117 53 61
-3.412923 7.411893 51.254433 121 56 63
-3.410618 7.517299 51.219803 126 60 68
-3.408378 7.622703 51.186172 130 62 72
-3.406220 7.728147 51.153763 129 59 71
-3.404158 7.833673 51.122803 127 56 69
-3.402206 7.939320 51.093483 127 54 69
-3.400374 8.045125 51.065964 130 55 71
-3.398670 8.151119 51.040375 131 56 72
-3.397099 8.257328 51.016788 128 54 69
-3.395665 8.363770 50.995251 126 52 65
-3.394367 8.470458 50.975750 125 50 63
-3.393199 8.577394 50.958221 125 51 64
-3.392159 8.684579 50.942593 127 53 66
-3.391234 8.791998 50.928715 129 54 69
-3.390417 8.899636 50.916431 132 57 72
-3.389692 9.007470 50.905552 133 58 74
-3.389048 9.115472 50.895874 132 58 75
-3.388468 9.223607 50.887161 130 58 75
-3.387938 9.331843 50.879204 130 59 77
-3.387443 9.440143 50.871769 133 62 80
-3.386968 9.548466 50.864635 135 62 82
-3.386499 9.656776 50.857601 136 62 82
-3.386024 9.765038 50.850460 136 62 81
-3.385530 9.873215 50.843052 136 61 80
-3.385010 9.981280 50.835236 135 60 79
-3.384454 10.089207 50.826885 135 62 79
-3.383857 10.196975 50.817928 136 63 79
-3.383217 10.304572 50.808315 137 65 81
-3.382533 10.411992 50.798042 139 69 84
-3.381808 10.519238 50.787144 138 70 85
-3.381045 10.626320 50.775688 135 68 84
-3.380252 10.733259 50.763786 131 65 82
-3.379441 10.840086 50.751598 128 63 81
-3.378619 10.946827 50.739258 127 62 81
-3.377802 11.053531 50.726994 127 61 81
-3.377006 11.160250 50.715034 128 61 82
-3.376245 11.267035 50.703613 130 62 82
-3.375535 11.373941 50.692944 133 64 83
-3.374890 11.481025 50.683254 135 65 84
-3.374321 11.588328 50.674717 135 65 84
-3.373840 11.695897 50.667492 134 64 82
-3.373451 11.803758 50.661644 134 63 82
-3.480528 -3.600068 54.018448 131 88 100
-3.477272 -3.480364 53.967918 138 93 100
-3.474210 -3.361065 53.920395 145 98 102
-3.471337 -3.242147 53.875801 140 92 93
-3.468643 -3.123584 53.834003 127 79 79
-3.466120 -3.005348 53.794834 127 79 82
-3.463752 -2.887411 53.758087 139 94 100
-3.461524 -2.769744 53.723515 142 100 111
-3.459420 -2.652321 53.690845 129 92 104
-3.457420 -2.535115 53.659817 116 85 96
-3.455507 -2.418104 53.630123 110 85 94
-3.453662 -2.301266 53.601486 105 86 92
-3.451867 -2.184583 53.573620 113 97 102
-3.450104 -2.068039 53.546257 145 130 137
-3.448356 -1.951623 53.519138 162 147 158
-3.446609 -1.835323 53.492020 135 117 135
-3.444848 -1.719133 53.464684 107 88 114
-3.443061 -1.603050 53.436951 113 93 126
-3.441237 -1.487069 53.408646 128 107 147
-3.439367 -1.371193 53.379623 122 103 146
-3.437444 -1.255422 53.349785 103 88 133
-3.435463 -1.139761 53.319031 94 84 127
-3.433419 -1.024213 53.287312 101 95 135
-3.431311 -0.908785 53.254597 129 126 157
-3.429138 -0.793484 53.220879 163 163 184
-3.426903 -0.678315 53.186188 156 156 173
-3.424608 -0.563286 53.150570 138 138 151
-3.422259 -0.448404 53.114113 165 164 171
-3.419862 -0.333674 53.076904 177 172 174
-3.417425 -0.219101 53.039085 153 144 143
-3.414959 -0.104691 53.000805 144 133 125
-3.412474 0.009554 52.962238 150 141 128
-3.409983 0.123632 52.923584 158 153 139
-3.407501 0.237544 52.885056 146 142 125
-3.405041 0.351293 52.846889 124 121 103
-3.402621 0.464882 52.809319 139 137 119
-3.400255 0.578319 52.772594 161 160 146
-3.397959 0.691612 52.736958 146 145 136
-3.395748 0.804771 52.702644 133 134 129
-3.393637 0.917809 52.669884 143 144 142
-3.391639 1.030740 52.638878 120 122 124
-3.389765 1.143580 52.609791 80 81 88
-3.388024 1.256343 52.582771 91 92 103
-3.386423 1.369047 52.557919 156 156 166
-3.384964 1.481705 52.535290 207 207 216
-3.383650 1.594334 52.514889 186 183 193
-3.382476 1.706946 52.496674 114 108 120
-3.381437 1.819552 52.480537 79 71 82
-3.380523 1.932160 52.466351 131 126 132
-3.379721 2.044775 52.453907 196 192 195
-3.379017 2.157398 52.442982 171 165 169
-3.378393 2.270029 52.433304 119 110 118
-3.377831 2.382660 52.424568 133 125 135
-3.377309 2.495284 52.416470 161 152 165
-3.376806 2.607888 52.408669 135 119 139
-3.376302 2.720458 52.400845 111 88 114
-3.375776 2.832975 52.392677 125 98 126
-3.375209 2.945421 52.383877 135 104 133
-3.374582 3.057775 52.374153 137 103 129
-3.373882 3.170018 52.363281 142 105 129
-3.373095 3.282130 52.351063 145 106 128
-3.372211 3.394091 52.337341 145 107 125
-3.371223 3.505885 52.322014 148 110 126
-3.370128 3.617499 52.305023 148 110 125
-3.368925 3.728920 52.286354 146 107 123
-3.367616 3.840139 52.266041 144 105 120
-3.366206 3.951152 52.244152 143 103 118
-3.364701 4.061955 52.220787 137 98 113
-3.363108 4.172549 52.196072 129 90 107
-3.361437 4.282938 52.170139 124 86 103
-3.359699 4.393126 52.143162 121 85 101
-3.357903 4.503120 52.115280 120 84 100
-3.356058 4.612928 52.086658 117 83 98
-3.354175 4.722558 52.057426 114 81 96
-3.352261 4.832017 52.027725 111 78 92
-3.350324 4.941315 51.997662 108 75 87
-3.348369 5.050456 51.967323 105 72 83
-3.346401 5.159446 51.936783 103 68 78
-3.344424 5.268288 51.906086 100 64 72
-3.342437 5.376985 51.875252 95 57 64
-3.340441 5.485532 51.844276 89 47 54
-3.338435 5.593930 51.813141 91 46 53
-3.336416 5.702171 51.781811 113 65 71
-3.334381 5.810249 51.750229 127 78 84
-3.332326 5.918156 51.718330 111 61 67
-3.330247 6.025880 51.686058 92 40 47
-3.328138 6.133412 51.653328 91 39 46
-3.325996 6.240740 51.620090 96 44 52
-3.323818 6.347856 51.586281 99 46 56
-3.321600 6.454748 51.551857 103 49 59
-3.319342 6.561414 51.516819 108 52 61
-3.317046 6.667850 51.481178 113 56 64
-3.314713 6.774059 51.444973 117 57 66
-3.312350 6.880048 51.408291 116 55 64
-3.309963 6.985830 51.371246 114 51 59
-3.307563 7.091423 51.334000 113 49 58
-3.305161 7.196851 51.296715 115 51 60
-3.302770 7.302145 51.259617 119 54 63
-3.300406 7.407338 51.222935 123 58 66
-3.298085 7.512470 51.186905 127 61 70
-3.295822 7.617580 51.151779 131 62 73
-3.293633 7.722713 51.117798 130 60 73
-3.291532 7.827909 51.085190 128 56 71
-3.289533 7.933211 51.054169 129 56 73
-3.287647 8.038655 51.024895 132 58 75
-3.285883 8.144276 50.997520 133 59 75
-3.284247 8.250101 50.972137 129 55 71
-3.282744 8.356153 50.948807 126 51 66
-3.281373 8.462445 50.927525 126 50 64
-3.280132 8.568986 50.908268 126 51 64
-3.279016 8.675776 50.890953 128 53 66
-3.278019 8.782806 50.875469 130 55 68
-3.277130 8.890066 50.861679 132 58 71
-3.276339 8.997535 50.849403 133 59 73
-3.275634 9.105189 50.838459 131 58 74
-3.275001 9.212999 50.828640 129 57 74
-3.274427 9.320934 50.819729 130 59 77
-3.273898 9.428961 50.811516 134 62 82
-3.273401 9.537045 50.803799 137 64 85
-3.272922 9.645149 50.796368 137 64 85
-3.272450 9.753242 50.789043 137 62 84
-3.271974 9.861294 50.781662 136 61 83
-3.271486 9.969273 50.774075 136 61 82
-3.270977 10.077156 50.766174 136 62 82
-3.270442 10.184924 50.757870 137 64 83
-3.269877 10.292564 50.749111 138 65 84
-3.269282 10.400070 50.739880 139 68 86
-3.268659 10.507443 50.730198 139 71 87
-3.268010 10.614693 50.720127 137 71 87
-3.267342 10.721838 50.709770 134 69 85
-3.266664 10.828903 50.699245 131 66 83
-3.265984 10.935916 50.688686 129 64 82
-3.265315 11.042920 50.678299 129 63 82
-3.264669 11.149961 50.668278 130 63 82
-3.264061 11.257089 50.658848 131 63 83
-3.263505 11.364353 50.650208 135 65 85
-3.263011 11.471803 50.642548 138 67 87
-3.262591 11.579482 50.636036 136 65 84
-3.262254 11.687427 50.630798 133 61 81
-3.262003 11.795661 50.626896 131 59 80
-3.261838 11.904196 50.624348 134 61 83
-3.363023 -3.598935 54.001446 128 89 101
-3.359640 -3.479023 53.947117 127 84 91
-3.356436 -3.359524 53.895672 128 83 85
-3.353409 -3.240418 53.847061 141 95 94
-3.350552 -3.121680 53.801189 149 103 101
-3.347856 -3.003285 53.757904 143 94 94
-3.345310 -2.885205 53.717022 146 96 100
-3.342901 -2.767414 53.678326 153 105 112
-3.340611 -2.649886 53.641567 139 96 106
-3.338427 -2.532596 53.606487 122 84 95
-3.336329 -2.415520 53.572811 117 84 95
-3.334303 -2.298638 53.540276 116 89 99
-3.332331 -2.181932 53.508606 118 95 105
-3.330397 -2.065386 53.477547 129 109 119
-3.328485 -1.948987 53.446854 136 116 130
-3.326583 -1.832726 53.416313 127 107 126
-3.324677 -1.716594 53.385704 118 98 122
-3.322756 -1.600587 53.354862 126 107 136
-3.320811 -1.484702 53.323627 139 122 156
-3.318834 -1.368939 53.291885 133 119 156
-3.316819 -1.253298 53.259521 111 101 139
-3.314761 -1.137782 53.226479 89 84 120
-3.312658 -1.022395 53.192715 88 89 121
-3.310509 -0.907140 53.158203 142 145 169
-3.308315 -0.792024 53.122963 208 211 225
-3.306077 -0.677050 53.087036 201 203 216
-3.303800 -0.562225 53.050472 157 159 171
-3.301489 -0.447553 53.013367 163 164 171
-3.299151 -0.333038 52.975815 169 166 170
-3.296793 -0.218684 52.937962 129 122 122
-3.294426 -0.104492 52.899944 103 94 87
-3.292059 0.009535 52.861946 134 126 116
-3.289705 0.123400 52.824142 182 176 165
-3.287376 0.237103 52.786747 164 159 144
-3.285086 0.350649 52.749966 124 119 103
-3.282847 0.464043 52.714027 127 124 110
-3.280676 0.577295 52.679157 125 123 112
-3.278584 0.690413 52.645576 108 107 100
-3.276587 0.803409 52.613495 123 122 120
-3.274695 0.916297 52.583122 136 136 139
-3.272922 1.029091 52.554646 96 97 103
-3.271275 1.141806 52.528202 82 83 93
-3.269763 1.254459 52.503918 150 151 161
-3.268390 1.367066 52.481884 216 216 222
-3.267160 1.479642 52.462128 211 211 218
-3.266071 1.592202 52.444645 155 152 164
-3.265120 1.704758 52.429371 112 107 119
-3.264300 1.817322 52.416195 104 99 108
-3.263600 1.929900 52.404972 140 136 141
-3.263010 2.042497 52.395481 188 185 188
-3.262511 2.155115 52.387482 155 149 154
-3.262088 2.267751 52.380684 118 111 118
-3.261720 2.380398 52.374783 164 158 164
-3.261388 2.493046 52.369450 184 174 183
-3.261070 2.605683 52.364342 123 107 122
-3.260744 2.718291 52.359112 86 65 84
-3.260391 2.830853 52.353436 112 86 107
-3.259990 2.943347 52.346996 137 108 129
-3.259524 3.055753 52.339512 143 111 132
-3.258977 3.168047 52.330727 147 112 132
-3.258336 3.280209 52.320438 149 113 130
-3.257591 3.392219 52.308479 149 112 127
-3.256737 3.504059 52.294754 148 112 125
-3.255767 3.615712 52.279190 146 109 122
-3.254683 3.727167 52.261784 145 106 120
-3.253486 3.838414 52.242561 143 105 119
-3.252181 3.949446 52.221600 141 102 117
-3.250774 4.060261 52.199013 135 96 111
-3.249274 4.170859 52.174923 129 90 107
-3.247691 4.281243 52.149502 126 87 106
-3.246035 4.391419 52.122910 124 86 104
-3.244316 4.501395 52.095314 120 84 102
-3.242546 4.611177 52.066887 117 82 99
-3.240733 4.720776 52.037785 114 80 96
-3.238888 4.830199 52.008144 111 78 92
-3.237016 4.939456 51.978104 107 75 87
-3.235126 5.048553 51.947742 103 72 82
-3.233221 5.157496 51.917160 100 68 77
-3.231305 5.266289 51.886391 96 64 71
-3.229379 5.374933 51.855461 91 56 64
-3.227443 5.483427 51.824379 86 47 54
-3.225496 5.591768 51.793118 92 50 56
-3.223536 5.699950 51.761639 114 68 74
-3.221558 5.807965 51.729881 123 75 81
-3.219559 5.915804 51.697781 108 57 63
-3.217533 6.023455 51.665253 93 42 47
-3.215477 6.130907 51.632233 94 41 48
-3.213384 6.238146 51.598629 97 44 51
-3.211253 6.345163 51.564400 101 45 54
-3.209078 6.451947 51.529484 105 48 58
-3.206860 6.558490 51.493862 110 52 61
-3.204598 6.664790 51.457546 116 56 65
-3.202295 6.770846 51.420567 118 57 66
-3.199956 6.876665 51.383015 117 54 63
-3.197588 6.982258 51.344986 114 50 60
-3.195200 7.087644 51.306637 114 49 59
-3.192803 7.192844 51.268154 117 51 61
-3.190411 7.297889 51.229740 120 54 64
-3.188038 7.402812 51.191635 124 58 67
-3.185699 7.507653 51.154087 127 60 71
-3.183411 7.612453 51.117344 129 60 73
-3.181190 7.717254 51.081665 128 57 72
-3.179049 7.822102 51.047291 126 55 72
-3.177003 7.927037 51.014435 130 55 74
-3.175063 8.032100 50.983288 134 59 78
-3.173239 8.137326 50.954006 134 60 78
-3.171539 8.242747 50.926704 131 55 73
-3.169966 8.348387 50.901455 127 51 68
-3.168524 8.454263 50.878284 126 50 65
-3.167209 8.560387 50.857178 127 51 64
-3.166020 8.666761 50.838078 128 53 65
-3.164950 8.773385 50.820896 130 55 67
-3.163991 8.880247 50.805504 132 58 70
-3.163135 8.987333 50.791752 133 59 72
-3.162370 9.094624 50.779465 131 57 72
-3.161685 9.202093 50.768471 130 57 73
-3.161067 9.309714 50.758553 131 59 77
-3.160505 9.417457 50.749523 136 63 83
-3.159985 9.525290 50.741180 138 65 87
-3.159497 9.633182 50.733337 139 64 88
-3.159029 9.741101 50.725819 136 61 86
-3.158570 9.849020 50.718456 136 60 85
-3.158113 9.956910 50.711117 136 61 85
-3.157650 10.064751 50.703682 137 62 86
-3.157175 10.172520 50.696049 137 63 86
-3.156684 10.280206 50.688171 138 65 88
-3.156177 10.387802 50.680023 139 68 89
-3.155652 10.495307 50.671604 140 70 90
-3.155114 10.602730 50.662964 139 71 90
-3.154567 10.710086 50.654186 136 69 87
-3.154019 10.817397 50.645374 133 67 85
-3.153475 10.924686 50.636635 131 65 83
-3.152946 11.031993 50.628151 131 64 82
-3.152446 11.139360 50.620110 132 63 83
-3.151984 11.246833 50.612694 134 64 84
-3.151572 11.354455 50.606094 139 67 87
-3.151222 11.462272 50.600471 141 68 88
-3.150943 11.570322 50.595982 136 63 83
-3.150740 11.678638 50.592724 131 58 79
-3.150617 11.787240 50.590755 130 57 79
-3.150574 11.896135 50.590065 133 59 83
-3.150605 12.005307 50.590561 137 63 88
-3.245568 -3.597775 53.984035 117 86 92
-3.242076 -3.477659 53.925964 107 71 71
-3.238752 -3.357965 53.870663 110 71 65
-3.235592 -3.238676 53.818108 153 116 106
-3.232592 -3.119767 53.768211 190 153 142
-3.229746 -3.001216 53.720875 170 128 118
-3.227043 -2.882997 53.675915 150 103 97
-3.224472 -2.765085 53.633144 158 111 110
-3.222019 -2.647455 53.592342 150 105 109
-3.219669 -2.530081 53.553261 132 92 98
-3.217408 -2.412942 53.515648 126 90 97
-3.215219 -2.296018 53.479252 124 92 101
-3.213089 -2.179290 53.443813 124 95 105
-3.211002 -2.062742 53.409103 126 100 112
-3.208945 -1.946362 53.374886 127 104 118
-3.206905 -1.830140 53.340950 126 104 122
-3.204870 -1.714067 53.307102 128 109 128
-3.202831 -1.598137 53.273190 145 128 150
-3.200780 -1.482348 53.239067 163 150 174
-3.198709 -1.366698 53.204624 153 145 170
-3.196614 -1.251186 53.169777 132 128 154
-3.194491 -1.135816 53.134472 117 117 142
-3.192340 -1.020588 53.098682 111 115 137
-3.190159 -0.905506 53.062405 154 161 177
-3.187950 -0.790573 53.025665 209 214 224
-3.185716 -0.675794 52.988510 188 193 203
-3.183461 -0.561171 52.951008 147 152 162
-3.181191 -0.446708 52.913258 171 172 179
-3.178913 -0.332406 52.875359 175 172 176
-3.176634 -0.218268 52.837456 107 101 103
-3.174364 -0.104294 52.799690 74 66 63
-3.172112 0.009517 52.762230 119 111 104
-3.169888 0.123169 52.725250 166 160 150
-3.167705 0.236663 52.688938 170 164 151
-3.165575 0.350007 52.653503 166 160 147
-3.163509 0.463208 52.619141 145 141 132
-3.161520 0.576275 52.586063 98 95 88
-3.159621 0.689218 52.554474 94 93 90
-3.157823 0.802051 52.524567 157 157 156
