ply
format ascii 1.0
element vertex 1265
property float x
property float y
property float z
property uchar red
property uchar green
property uchar blue
end_header
4.308023 9.927705 68.651672 34 24 23
4.306900 10.073066 68.633759 36 24 24
4.305761 10.218316 68.615623 38 26 25
4.304608 10.363452 68.597252 39 27 25
4.303439 10.508470 68.578613 39 27 25
4.302251 10.653360 68.559685 37 27 24
4.301044 10.798120 68.540443 35 25 22
4.299816 10.942745 68.520874 33 23 21
4.298567 11.087232 68.500969 30 22 19
4.297297 11.231580 68.480751 29 20 19
4.296010 11.375793 68.460236 28 20 19
4.294708 11.519876 68.439484 28 20 19
4.293396 11.663843 68.418564 29 22 21
4.292079 11.807710 68.397591 30 24 22
4.290768 11.951500 68.376694 32 26 24
4.289473 12.095244 68.356056 33 26 25
4.288206 12.238980 68.335861 31 25 23
4.286981 12.382751 68.316338 29 22 21
4.285814 12.526609 68.297752 27 20 20
4.284723 12.670609 68.280365 26 19 19
4.283725 12.814812 68.264450 27 20 19
4.282837 12.959282 68.250313 28 20 20
4.282079 13.104085 68.238220 29 21 20
4.281465 13.249284 68.228439 30 21 21
4.281012 13.394943 68.221214 30 21 21
4.280731 13.541117 68.216743 29 21 20
4.280633 13.687859 68.215195 28 21 19
4.280726 13.835207 68.216667 27 21 19
4.281013 13.983194 68.221230 26 21 19
4.281492 14.131840 68.228882 27 22 20
4.282162 14.281151 68.239548 27 22 20
4.283013 14.431120 68.253113 27 22 20
4.284035 14.581729 68.269394 27 22 20
4.285213 14.732944 68.288162 26 21 20
4.134535 -11.385504 63.698814 30 28 25
4.136899 -11.254619 63.735222 26 23 21
4.139353 -11.123823 63.773037 23 21 18
4.141906 -10.993127 63.812374 22 19 16
4.144562 -10.862530 63.853291 22 18 15
4.147319 -10.732018 63.895767 23 17 15
4.150173 -10.601571 63.939739 23 18 16
4.153116 -10.471158 63.985077 24 19 17
4.156137 -10.340743 64.031616 24 19 18
4.159220 -10.210283 64.079124 24 19 18
4.162352 -10.079733 64.127365 24 19 18
4.165512 -9.949044 64.176064 24 19 19
4.168684 -9.818172 64.224922 24 20 19
4.171847 -9.687071 64.273666 25 21 19
4.174985 -9.555699 64.321999 26 21 19
4.178078 -9.424020 64.369652 26 21 19
4.181112 -9.292003 64.416397 26 21 18
4.184072 -9.159623 64.462006 26 21 17
4.186949 -9.026867 64.506325 26 21 17
4.189735 -8.893727 64.549248 27 22 17
4.192427 -8.760205 64.590714 28 22 18
4.195023 -8.626307 64.630714 28 22 19
4.197527 -8.492052 64.669289 28 20 19
4.199945 -8.357459 64.706551 28 19 18
4.202287 -8.222556 64.742630 28 18 17
4.204563 -8.087370 64.777695 27 18 17
4.206785 -7.951932 64.811935 28 18 17
4.208968 -7.816272 64.845558 29 18 18
4.211123 -7.680419 64.878769 29 18 19
4.213264 -7.544395 64.911751 30 19 20
4.215401 -7.408222 64.944664 30 19 21
4.217542 -7.271916 64.977661 31 20 22
4.219695 -7.135486 65.010826 32 23 24
4.221862 -6.998937 65.044212 33 24 24
4.224045 -6.862270 65.077850 32 23 23
4.226242 -6.725481 65.111694 33 24 22
4.228449 -6.588561 65.145699 34 25 23
4.230660 -6.451500 65.179756 36 26 25
4.232867 -6.314286 65.213760 37 27 26
4.235062 -6.176908 65.247574 38 27 27
4.237235 -6.039354 65.281059 39 27 28
4.239378 -5.901615 65.314079 38 26 27
4.241483 -5.763680 65.346512 36 25 26
4.243542 -5.625544 65.378227 35 25 25
4.245549 -5.487204 65.409142 36 26 25
4.247498 -5.348658 65.439171 36 26 24
4.249387 -5.209909 65.468277 36 26 24
4.251215 -5.070962 65.496429 35 25 24
4.252981 -4.931822 65.523643 34 24 23
4.254688 -4.792499 65.549957 33 24 23
4.256341 -4.653001 65.575409 32 23 23
4.257944 -4.513342 65.600105 31 23 22
4.259505 -4.373533 65.624161 31 23 21
4.261033 -4.233587 65.647697 31 23 21
4.262537 -4.093519 65.670883 31 24 22
4.264032 -3.953340 65.693909 31 24 22
4.265529 -3.813064 65.716972 30 23 21
4.267043 -3.672703 65.740288 30 23 21
4.268589 -3.532268 65.764107 30 22 21
4.270182 -3.391769 65.788658 30 22 22
4.271840 -3.251213 65.814201 30 22 22
4.273579 -3.110605 65.840996 31 22 23
4.275414 -2.969949 65.869270 32 23 23
4.277360 -2.829244 65.899246 34 24 23
4.279430 -2.688488 65.931145 37 25 24
4.281636 -2.547675 65.965126 38 26 25
4.283986 -2.406797 66.001328 39 26 25
4.286486 -2.265841 66.039841 40 27 26
4.289138 -2.124796 66.080704 42 28 28
4.291944 -1.983645 66.123932 43 29 29
4.294899 -1.842372 66.169456 44 31 30
4.297997 -1.700959 66.217194 45 32 31
4.301231 -1.559389 66.267006 46 32 32
4.304588 -1.417645 66.318726 46 32 32
4.308057 -1.275712 66.372169 45 32 32
4.311624 -1.133574 66.427124 44 32 32
4.315275 -0.991218 66.483383 43 30 32
4.318998 -0.848634 66.540741 43 31 32
4.322780 -0.705812 66.598999 46 32 34
4.326608 -0.562745 66.657990 49 36 37
4.330475 -0.419427 66.717567 52 38 40
4.334373 -0.275854 66.777618 53 39 40
4.338296 -0.132024 66.838058 54 39 39
4.342242 0.012067 66.898849 54 39 39
4.346209 0.156422 66.959961 54 40 39
4.350197 0.301041 67.021416 54 40 39
4.354210 0.445927 67.083237 54 40 40
4.358249 0.591084 67.145462 55 40 40
4.362318 0.736514 67.208145 56 41 41
4.366419 0.882221 67.271339 56 39 40
4.370556 1.028208 67.335075 57 38 39
4.374730 1.174480 67.399376 60 40 40
4.378939 1.321041 67.464226 65 44 44
4.383181 1.467891 67.529579 70 48 49
4.387451 1.615034 67.595367 75 52 53
4.391742 1.762469 67.661476 78 55 56
4.396043 1.910193 67.727737 82 59 61
4.400342 2.058202 67.793968 90 67 69
4.404623 2.206488 67.859924 95 71 73
4.408870 2.355039 67.925346 91 67 68
4.413062 2.503842 67.989944 84 60 59
4.417182 2.652880 68.053413 78 55 53
4.421207 2.802131 68.115440 74 51 50
4.425120 2.951575 68.175713 71 48 47
4.428900 3.101186 68.233955 69 47 46
4.432531 3.250938 68.289894 69 47 47
4.435998 3.400806 68.343307 69 48 48
4.439289 3.550764 68.394012 68 48 48
4.442396 3.700786 68.441872 67 47 48
4.445312 3.850850 68.486801 66 47 48
4.448035 4.000934 68.528755 68 49 51
4.450567 4.151020 68.567764 76 56 58
4.452911 4.301093 68.603874 90 69 70
4.455072 4.451139 68.637169 98 77 76
4.457058 4.601149 68.667778 101 80 77
4.458879 4.751113 68.695824 122 101 96
4.460543 4.901026 68.721451 164 142 136
4.462058 5.050881 68.744789 188 167 162
4.463432 5.200673 68.765968 162 141 136
4.464674 5.350398 68.785095 109 88 84
4.465788 5.500047 68.802269 77 56 54
4.466779 5.649615 68.817535 65 45 46
4.467650 5.799093 68.830956 60 41 43
4.468403 5.948472 68.842552 58 40 42
4.469038 6.097739 68.852333 59 41 43
4.469555 6.246885 68.860306 70 52 53
4.469955 6.395897 68.866470 83 66 66
4.470238 6.544764 68.870819 77 60 60
4.470404 6.693474 68.873375 60 43 43
4.470454 6.842019 68.874153 50 35 33
4.470391 6.990390 68.873177 47 32 31
4.470218 7.138581 68.870522 45 31 30
4.469940 7.286589 68.866226 45 30 29
4.469561 7.434412 68.860397 45 29 29
4.469090 7.582051 68.853134 45 29 29
4.468532 7.729511 68.844536 46 29 31
4.467896 7.876795 68.834740 47 30 32
4.467189 8.023910 68.823845 47 30 32
4.466421 8.170865 68.812012 46 29 30
4.465598 8.317669 68.799339 44 28 28
4.464730 8.464331 68.785957 44 29 27
4.463822 8.610860 68.771988 44 31 29
4.462883 8.757265 68.757507 44 32 29
4.461916 8.903555 68.742622 40 29 26
4.460928 9.049736 68.727394 36 26 23
4.459922 9.195814 68.711884 33 25 22
4.458900 9.341793 68.696144 31 24 21
4.457865 9.487676 68.680199 31 23 22
4.456817 9.633463 68.664055 31 23 22
4.455757 9.779153 68.647728 32 23 22
4.454684 9.924743 68.631187 33 23 22
4.453596 10.070228 68.614426 35 23 23
4.452491 10.215602 68.597397 37 25 23
4.451366 10.360859 68.580086 38 26 24
4.450221 10.505989 68.562424 38 27 24
4.449050 10.650985 68.544395 38 27 24
4.447853 10.795836 68.525948 36 26 23
4.446626 10.940537 68.507050 33 25 22
4.445370 11.085082 68.487686 31 23 21
4.444083 11.229466 68.467857 29 21 20
4.442767 11.373692 68.447586 28 20 20
4.441424 11.517760 68.426910 28 20 19
4.440061 11.661684 68.405899 29 21 20
4.438682 11.805475 68.384644 30 24 22
4.437296 11.949159 68.363304 33 28 25
4.435915 12.092763 68.342026 35 30 27
4.434552 12.236322 68.321022 33 27 26
4.433221 12.379884 68.300522 29 23 22
4.431939 12.523495 68.280769 26 20 19
4.430725 12.667212 68.262062 25 19 18
4.429596 12.811099 68.244675 26 19 18
4.428573 12.955219 68.228912 27 20 19
4.427674 13.099637 68.215057 28 21 20
4.426917 13.244420 68.203392 28 21 21
4.426318 13.389633 68.194168 29 21 21
4.425892 13.535334 68.187607 29 21 21
4.425650 13.681575 68.183876 28 21 20
4.425600 13.828402 68.183113 27 21 20
4.425747 13.975846 68.185379 27 21 20
4.426093 14.123934 68.190704 26 22 20
4.426633 14.272672 68.199028 27 22 20
4.427362 14.422061 68.210258 27 22 20
4.428270 14.572084 68.224236 27 22 21
4.429341 14.722713 68.240746 27 21 20
4.266843 -11.509315 63.624180 33 30 28
4.269166 -11.378355 63.658821 28 25 23
4.271572 -11.247462 63.694691 25 22 20
4.274071 -11.116658 63.731956 23 20 17
4.276670 -10.985950 63.770718 22 18 16
4.279373 -10.855337 63.811012 22 17 16
4.282177 -10.724805 63.852825 23 17 15
4.285077 -10.594331 63.896069 24 18 16
4.288064 -10.463881 63.940609 25 18 17
4.291126 -10.333420 63.986263 25 19 18
4.294248 -10.202905 64.032822 25 19 18
4.297413 -10.072289 64.080017 24 19 18
4.300603 -9.941529 64.127579 24 19 19
4.303799 -9.810575 64.175232 24 20 19
4.306980 -9.679386 64.222672 25 21 20
4.310129 -9.547918 64.269623 26 21 19
4.313227 -9.416138 64.315819 26 21 19
4.316258 -9.284016 64.361023 26 21 18
4.319210 -9.151527 64.405029 27 21 18
4.322070 -9.018661 64.447685 27 22 18
4.324833 -8.885410 64.488884 28 22 18
4.327495 -8.751778 64.528580 29 23 20
4.330056 -8.617771 64.566757 30 23 20
4.332518 -8.483409 64.603477 30 22 20
4.334890 -8.348714 64.638840 30 21 19
4.337180 -8.213711 64.672989 29 20 18
4.339400 -8.078431 64.706100 28 19 17
4.341563 -7.942904 64.738350 28 18 17
4.343684 -7.807161 64.769966 28 18 17
4.345774 -7.671229 64.801140 29 18 19
4.347848 -7.535133 64.832062 29 18 20
4.349916 -7.398895 64.862900 30 19 21
4.351988 -7.262529 64.893791 30 20 22
4.354070 -7.126048 64.924835 31 22 23
4.356166 -6.989456 64.956100 32 23 23
4.358279 -6.852754 64.987602 32 23 23
4.360405 -6.715939 65.019318 32 23 23
4.362544 -6.579003 65.051201 33 25 23
4.364688 -6.441940 65.083176 35 26 24
4.366831 -6.304737 65.115128 36 26 26
4.368966 -6.167384 65.146957 36 26 26
4.371084 -6.029871 65.178543 36 26 26
4.373178 -5.892188 65.209763 35 26 26
4.375238 -5.754329 65.240494 35 25 26
4.377261 -5.616287 65.270653 34 26 26
4.379240 -5.478061 65.300156 35 25 25
4.381170 -5.339648 65.328941 35 25 24
4.383050 -5.201053 65.356979 35 25 24
4.384880 -5.062277 65.384262 34 25 23
4.386659 -4.923327 65.410789 33 24 23
4.388391 -4.784212 65.436607 32 23 23
4.390078 -4.644938 65.461769 31 23 22
4.391727 -4.505517 65.486366 30 22 21
4.393346 -4.365958 65.510498 30 22 21
4.394942 -4.226274 65.534302 30 22 20
4.396525 -4.086476 65.557907 30 23 21
4.398108 -3.946575 65.581497 30 23 21
4.399701 -3.806582 65.605255 29 23 20
4.401320 -3.666508 65.629395 29 22 20
4.402978 -3.526361 65.654121 29 22 21
4.404692 -3.386151 65.679680 29 21 21
4.406477 -3.245882 65.706299 29 21 22
4.408349 -3.105560 65.734215 30 21 22
4.410324 -2.965187 65.763657 32 22 22
4.412415 -2.824761 65.794830 34 23 23
4.414635 -2.684280 65.827950 36 24 24
4.416996 -2.543737 65.863152 38 26 25
4.419506 -2.403123 65.900581 39 26 24
4.422170 -2.262427 65.940308 39 27 25
4.424991 -2.121634 65.982368 41 28 27
4.427968 -1.980730 66.026756 42 28 29
4.431097 -1.839698 66.073418 43 29 30
4.434371 -1.698520 66.122238 45 30 31
4.437781 -1.557179 66.173080 45 31 32
4.441315 -1.415659 66.225784 45 31 32
4.444960 -1.273943 66.280136 44 31 32
4.448702 -1.132017 66.335930 44 31 32
4.452526 -0.989869 66.392944 43 31 32
4.456418 -0.847489 66.450981 43 31 31
4.460365 -0.704867 66.509842 44 32 32
4.464356 -0.561996 66.569359 47 34 35
4.468382 -0.418873 66.629379 49 36 38
4.472434 -0.275492 66.689804 50 37 39
4.476508 -0.131851 66.750557 52 38 39
4.480602 0.012052 66.811600 53 38 38
4.484715 0.156218 66.872917 52 38 38
4.488848 0.300651 66.934555 52 39 37
4.493004 0.445351 66.996536 52 38 37
4.497188 0.590322 67.058922 52 38 37
4.501403 0.735567 67.121773 53 37 38
4.505654 0.881091 67.185165 53 37 38
4.509944 1.026896 67.249130 55 37 38
4.514275 1.172988 67.313705 59 40 41
4.518647 1.319370 67.378891 64 44 45
4.523057 1.466045 67.444656 71 50 50
4.527501 1.613017 67.510925 76 53 54
4.531971 1.760284 67.577576 79 56 57
4.536457 1.907845 67.644463 87 64 66
4.540944 2.055695 67.711380 103 80 81
4.545417 2.203827 67.778084 114 91 91
4.549859 2.352229 67.844307 111 88 86
4.554247 2.500889 67.909752 100 77 74
4.558563 2.649788 67.974098 91 68 65
4.562784 2.798906 68.037033 84 62 59
4.566888 2.948221 68.098244 76 54 51
4.570857 3.097708 68.157425 69 48 46
4.574672 3.247340 68.214310 67 46 46
4.578317 3.397092 68.268661 66 46 46
4.581781 3.546937 68.320312 65 46 46
4.585053 3.696851 68.369102 63 44 44
4.588129 3.846811 68.414970 60 42 43
4.591006 3.996795 68.457870 61 42 45
4.593686 4.146787 68.497833 66 47 50
4.596173 4.296770 68.534912 75 55 57
4.598473 4.446732 68.569214 79 60 59
4.600595 4.596664 68.600853 74 55 51
4.602548 4.746559 68.629974 88 69 62
4.604342 4.896410 68.656731 148 131 123
4.605987 5.046212 68.681244 210 197 190
4.607490 5.195961 68.703659 207 190 184
4.608860 5.345651 68.724083 153 132 126
4.610100 5.495277 68.742592 111 88 86
4.611218 5.644831 68.759254 89 65 67
4.612214 5.794303 68.774101 71 47 51
4.613090 5.943686 68.787170 61 38 42
4.613846 6.092967 68.798439 60 37 41
4.614482 6.242133 68.807922 68 45 47
4.614996 6.391171 68.815582 77 56 57
4.615388 6.540070 68.821434 76 56 56
4.615658 6.688817 68.825462 67 48 48
4.615807 6.837402 68.827682 60 43 42
4.615836 6.985816 68.828117 55 39 37
4.615750 7.134053 68.826828 51 35 33
4.615551 7.282107 68.823868 49 33 31
4.615247 7.429977 68.819328 47 31 29
4.614843 7.577666 68.813301 47 30 29
4.614348 7.725175 68.805923 47 30 30
4.613770 7.872512 68.797310 48 30 32
4.613118 8.019682 68.787582 48 31 32
4.612401 8.166695 68.776894 48 31 31
4.611628 8.313561 68.765366 46 30 29
4.610807 8.460291 68.753128 45 30 28
4.609947 8.606894 68.740303 47 33 30
4.609055 8.753379 68.726990 48 35 31
4.608135 8.899756 68.713287 44 32 29
4.607195 9.046032 68.699265 39 30 27
4.606237 9.192214 68.684982 36 28 25
4.605265 9.338305 68.670486 34 26 24
4.604280 9.484305 68.655800 33 25 24
4.603282 9.630218 68.640923 33 24 24
4.602272 9.776037 68.625854 33 24 24
4.601247 9.921762 68.610573 34 24 24
4.600205 10.067382 68.595032 35 23 23
4.599143 10.212893 68.579201 36 24 23
4.598058 10.358280 68.563019 37 26 23
4.596944 10.503536 68.546417 37 27 23
4.595800 10.648648 68.529358 37 27 23
4.594621 10.793604 68.511780 36 27 23
4.593404 10.938395 68.493629 34 25 23
4.592147 11.083010 68.474884 32 24 22
4.590849 11.227443 68.455521 30 22 21
4.589510 11.371693 68.435555 29 20 20
4.588132 11.515759 68.415016 29 20 19
4.586721 11.659651 68.393967 28 21 19
4.585281 11.803380 68.372505 29 23 20
4.583823 11.946967 68.350761 31 26 23
4.582357 12.090441 68.328903 33 28 26
4.580897 12.233834 68.307129 32 26 25
4.579458 12.377193 68.285675 29 23 22
4.578059 12.520567 68.264809 26 20 19
4.576717 12.664011 68.244804 26 19 19
4.575454 12.807588 68.225967 26 19 19
4.574289 12.951363 68.208603 26 20 19
4.573243 13.095401 68.193001 27 21 19
4.572335 13.239773 68.179459 28 21 20
4.571583 13.384542 68.168243 29 22 21
4.571002 13.529771 68.159576 29 22 21
4.570606 13.675513 68.153671 28 22 21
4.570403 13.821816 68.150650 27 21 20
4.570400 13.968718 68.150604 27 21 20
4.570599 14.116241 68.153572 26 22 20
4.570998 14.264404 68.159523 26 22 20
4.571592 14.413206 68.168381 27 22 21
4.572372 14.562636 68.180008 27 22 21
4.573324 14.712673 68.194206 27 22 21
4.574433 14.863282 68.210747 26 21 19
4.401406 -11.502547 63.586765 28 26 23
4.403764 -11.371565 63.620834 25 23 20
4.406206 -11.240650 63.656116 23 20 18
4.408743 -11.109823 63.692772 22 18 16
4.411382 -10.979088 63.730885 21 17 16
4.414123 -10.848442 63.770481 22 17 15
4.416964 -10.717870 63.811531 23 17 15
4.419900 -10.587346 63.853947 24 17 16
4.422920 -10.456840 63.897579 25 18 17
4.426013 -10.326312 63.942253 25 18 18
4.429161 -10.195722 63.987740 25 18 18
4.432348 -10.065022 64.033783 25 18 18
4.435555 -9.934170 64.080109 25 19 19
4.438761 -9.803117 64.126434 25 20 20
4.441948 -9.671820 64.172470 25 20 20
4.445095 -9.540239 64.217934 26 21 20
4.448184 -9.408342 64.262573 26 21 19
4.451200 -9.276099 64.306145 26 21 19
4.454130 -9.143491 64.348473 27 21 18
4.456962 -9.010503 64.389381 28 22 19
4.459690 -8.877130 64.428787 28 22 19
4.462309 -8.743377 64.466637 29 23 20
4.464822 -8.609254 64.502937 30 23 21
4.467232 -8.474779 64.537758 31 23 21
4.469546 -8.339974 64.571182 32 24 22
4.471774 -8.204868 64.603363 32 23 21
4.473927 -8.069490 64.634483 29 21 19
4.476021 -7.933871 64.664734 28 19 18
4.478069 -7.798042 64.694313 28 19 18
4.480085 -7.662030 64.723434 29 19 19
4.482082 -7.525862 64.752289 29 18 20
4.484072 -7.389556 64.781036 30 19 21
4.486064 -7.253132 64.809822 30 20 22
4.488067 -7.116599 64.838745 30 21 22
4.490083 -6.979963 64.867882 30 22 22
4.492116 -6.843227 64.897247 30 22 22
4.494164 -6.706387 64.926842 31 23 23
4.496225 -6.569438 64.956619 32 24 23
4.498295 -6.432372 64.986511 34 26 24
4.500366 -6.295181 65.016441 34 26 25
4.502433 -6.157854 65.046295 34 26 25
4.504488 -6.020382 65.075981 34 26 25
4.506524 -5.882759 65.105400 33 25 25
4.508535 -5.744976 65.134453 33 25 25
4.510516 -5.607030 65.163071 33 25 24
4.512462 -5.468919 65.191177 34 25 24
4.514369 -5.330641 65.218735 34 25 24
4.516237 -5.192199 65.245720 33 24 23
4.518065 -5.053596 65.272133 32 24 22
4.519855 -4.914837 65.297989 32 23 23
4.521609 -4.775930 65.323334 31 23 23
4.523332 -4.636880 65.348221 31 22 22
4.525028 -4.497698 65.372726 31 22 21
4.526706 -4.358391 65.396957 30 22 21
4.528372 -4.218970 65.421028 30 22 20
4.530036 -4.079443 65.445068 29 22 20
4.531709 -3.939820 65.469254 29 22 20
4.533404 -3.800111 65.493729 29 22 20
4.535132 -3.660324 65.518700 29 21 20
4.536910 -3.520467 65.544373 29 21 21
4.538750 -3.380546 65.570961 30 22 22
4.540668 -3.240566 65.598679 30 22 23
4.542681 -3.100531 65.627754 30 22 23
4.544802 -2.960441 65.658394 32 22 23
4.547045 -2.820295 65.690811 34 23 23
4.549424 -2.680089 65.725166 36 24 24
4.551948 -2.539816 65.761627 37 24 24
4.554624 -2.399466 65.800301 38 25 24
4.557459 -2.259028 65.841263 39 27 24
4.560454 -2.118488 65.884529 40 28 26
4.563608 -1.977830 65.930092 42 29 28
4.566916 -1.837037 65.977875 43 29 29
4.570370 -1.696093 66.027779 43 29 30
4.573960 -1.554980 66.079643 44 29 30
4.577673 -1.413682 66.133293 44 30 31
4.581496 -1.272182 66.188515 43 30 31
4.585413 -1.130468 66.245110 43 30 31
4.589410 -0.988526 66.302849 42 31 30
4.593472 -0.846348 66.361526 42 31 30
4.597584 -0.703924 66.420937 43 31 30
4.601736 -0.561250 66.480919 44 32 32
4.605918 -0.418319 66.541344 46 34 34
4.610124 -0.275129 66.602097 47 35 35
4.614347 -0.131678 66.663116 49 36 36
4.618587 0.012036 66.724373 50 36 36
4.622845 0.156015 66.785873 50 36 36
4.627121 0.300260 66.847656 50 36 35
4.631421 0.444774 66.909782 50 35 34
4.635750 0.589560 66.972313 50 35 34
4.640112 0.734620 67.035332 50 35 35
4.644513 0.879960 67.098915 51 34 35
4.648958 1.025583 67.163124 53 35 37
4.653448 1.171494 67.228004 57 38 40
4.657986 1.317699 67.293549 63 43 45
4.662567 1.464200 67.359741 70 49 52
4.667189 1.611000 67.426506 74 52 55
4.671842 1.758100 67.493736 76 54 57
4.676516 1.905498 67.561264 85 63 66
4.681197 2.053190 67.628883 104 82 84
4.685867 2.201169 67.696358 118 96 96
4.690508 2.349424 67.763397 117 94 94
4.695096 2.497941 67.829697 106 83 82
4.699612 2.646702 67.894928 100 76 74
4.704032 2.795687 67.958778 94 70 68
4.708332 2.944873 68.020905 82 58 57
4.712492 3.094235 68.081009 69 47 46
4.716494 3.243747 68.138824 65 44 44
4.720321 3.393382 68.194107 65 45 45
4.723959 3.543114 68.246674 64 45 45
4.727401 3.692919 68.296394 62 44 43
4.730639 3.842774 68.343178 59 40 41
4.733673 3.992658 68.387009 57 38 40
4.736505 4.142553 68.427910 57 38 41
4.739138 4.292446 68.465950 61 41 44
4.741581 4.442325 68.501244 64 44 45
4.743842 4.592179 68.533913 59 39 36
4.745932 4.742003 68.564110 62 43 36
4.747861 4.891792 68.591980 111 95 87
4.749640 5.041542 68.617676 182 170 163
4.751276 5.191246 68.641319 202 186 180
4.752779 5.340902 68.663025 176 153 150
4.754153 5.490503 68.682869 157 131 132
4.755402 5.640041 68.700912 135 108 113
4.756528 5.789508 68.717194 97 69 76
4.757533 5.938893 68.731705 69 41 48
4.758414 6.088184 68.744438 60 33 39
4.759172 6.237367 68.755394 64 37 42
4.759805 6.386429 68.764526 71 45 49
4.760310 6.535356 68.771828 75 51 54
4.760688 6.684136 68.777290 74 52 54
4.760939 6.832756 68.780907 71 51 51
4.761063 6.981207 68.782707 65 46 46
4.761065 7.129482 68.782738 59 40 40
4.760949 7.277577 68.781059 54 36 36
4.760720 7.425489 68.777756 51 33 32
4.760387 7.573221 68.772934 49 31 31
4.759957 7.720775 68.766731 49 31 31
4.759440 7.868158 68.759262 49 30 31
4.758846 8.015379 68.750671 48 31 32
4.758183 8.162446 68.741104 48 31 31
4.757463 8.309371 68.730698 47 31 30
4.756695 8.456164 68.719597 46 30 29
4.755887 8.602839 68.707924 47 33 30
4.755046 8.749404 68.695778 49 35 32
4.754180 8.895868 68.683273 46 35 32
4.753294 9.042241 68.670471 42 33 30
4.752393 9.188528 68.657448 39 31 28
4.751478 9.334733 68.644226 37 29 27
4.750551 9.480857 68.630836 36 27 27
4.749612 9.626900 68.617279 35 26 27
4.748661 9.772857 68.603531 35 25 27
4.747693 9.918721 68.589546 35 24 26
4.746707 10.064487 68.575302 36 24 25
4.745697 10.210140 68.560722 36 24 25
4.744660 10.355669 68.545731 36 25 24
4.743589 10.501060 68.530266 36 26 23
4.742481 10.646300 68.514252 36 27 24
4.741329 10.791372 68.497612 35 27 23
4.740129 10.936263 68.480278 34 26 23
4.738880 11.080960 68.462219 32 25 23
4.737577 11.225454 68.443398 31 24 22
4.736221 11.369740 68.423813 30 22 21
4.734814 11.513818 68.403481 29 21 21
4.733359 11.657689 68.382462 29 21 20
4.731863 11.801368 68.360855 29 22 21
4.730334 11.944871 68.338776 29 23 22
4.728785 12.088226 68.316391 30 24 23
4.727230 12.231467 68.293915 30 24 23
4.725683 12.374637 68.271568 29 22 22
4.724164 12.517783 68.249626 28 21 20
4.722694 12.660964 68.228386 27 20 20
4.721292 12.804241 68.208145 26 20 19
4.719982 12.947680 68.189209 26 20 20
4.718784 13.091350 68.171906 27 21 19
4.717720 13.235319 68.156525 28 22 20
4.716807 13.379653 68.143341 28 22 21
4.716064 13.524417 68.132607 28 23 21
4.715505 13.669667 68.124535 28 22 21
4.715140 13.815452 68.119263 27 22 20
4.714978 13.961813 68.116913 26 21 21
4.715021 14.108778 68.117538 26 22 21
4.715269 14.256367 68.121117 26 22 21
4.715717 14.404582 68.127594 27 22 21
4.716358 14.553421 68.136856 27 22 21
4.717180 14.702862 68.148727 27 22 21
4.718168 14.852879 68.163002 26 22 21
4.533607 -11.627128 63.518524 28 25 22
4.535926 -11.496080 63.551014 25 22 19
4.538315 -11.365069 63.584492 23 20 17
4.540790 -11.234125 63.619164 22 18 17
4.543360 -11.103264 63.655167 22 18 16
4.546030 -10.972490 63.692585 22 17 16
4.548802 -10.841799 63.731426 22 16 16
4.551674 -10.711171 63.771652 22 17 16
4.554636 -10.580585 63.813164 23 17 16
4.557682 -10.450006 63.855824 24 17 16
4.560794 -10.319396 63.899433 25 17 17
4.563959 -10.188716 63.943771 25 18 18
4.567157 -10.057918 63.988579 25 18 18
4.570369 -9.926957 64.033585 25 19 18
4.573576 -9.795791 64.078514 26 19 20
4.576756 -9.664373 64.123070 26 20 20
4.579890 -9.532670 64.166977 26 21 20
4.582960 -9.400645 64.209999 26 21 20
4.585950 -9.268272 64.251884 26 21 19
4.588847 -9.135533 64.292465 27 21 18
4.591639 -9.002415 64.331589 28 21 19
4.594321 -8.868915 64.369164 28 21 19
4.596889 -8.735037 64.405144 29 22 20
4.599344 -8.600793 64.439545 29 23 20
4.601692 -8.466201 64.472435 31 24 22
4.603938 -8.331285 64.503906 33 26 24
4.606094 -8.196074 64.534119 33 26 23
4.608173 -8.060596 64.563240 30 23 21
4.610188 -7.924884 64.591476 29 20 19
4.612155 -7.788968 64.619034 29 19 19
4.614088 -7.652876 64.646111 29 19 19
4.616000 -7.516634 64.672897 29 19 20
4.617903 -7.380263 64.699562 30 19 21
4.619808 -7.243780 64.726257 30 20 21
4.621722 -7.107196 64.753075 30 21 21
4.623651 -6.970517 64.780090 30 21 22
4.625596 -6.833747 64.807343 30 21 22
4.627557 -6.696883 64.834824 30 22 23
4.629533 -6.559921 64.862511 32 23 24
4.631520 -6.422854 64.890350 33 25 25
4.633512 -6.285675 64.918259 33 25 25
4.635504 -6.148374 64.946159 33 25 24
4.637489 -6.010945 64.973976 32 25 24
4.639462 -5.873381 65.001617 32 24 24
4.641417 -5.735675 65.029007 32 24 23
4.643350 -5.597825 65.056091 32 24 23
4.645257 -5.459828 65.082817 33 24 23
4.647137 -5.321684 65.109154 33 23 23
4.648989 -5.183396 65.135101 32 23 23
4.650814 -5.044965 65.160660 31 23 22
4.652612 -4.906397 65.185852 31 22 23
4.654387 -4.767697 65.210724 31 22 23
4.656144 -4.628871 65.235336 31 22 22
4.657887 -4.489926 65.259766 31 21 21
4.659624 -4.350870 65.284103 31 21 20
4.661362 -4.211709 65.308449 30 21 19
4.663110 -4.072453 65.332939 30 22 19
4.664878 -3.933108 65.357712 29 22 20
4.666678 -3.793682 65.382927 29 22 20
4.668521 -3.654181 65.408752 30 22 21
4.670422 -3.514612 65.435387 30 22 22
4.672394 -3.374980 65.463020 31 23 23
4.674452 -3.235289 65.491859 31 23 23
4.676612 -3.095540 65.522110 31 23 23
4.678886 -2.955733 65.553970 32 23 24
4.681289 -2.815866 65.587631 34 24 24
4.683831 -2.675933 65.623253 36 24 24
4.686524 -2.535929 65.660980 38 25 25
4.689374 -2.395842 65.700912 38 26 24
4.692386 -2.255661 65.743111 38 26 24
4.695560 -2.115371 65.787582 41 28 26
4.698895 -1.974957 65.834312 43 30 29
4.702385 -1.834402 65.883209 43 29 29
4.706022 -1.693689 65.934158 41 28 28
4.709794 -1.552800 65.987015 41 27 28
4.713688 -1.411721 66.041573 42 28 29
4.717689 -1.270435 66.097626 42 29 29
4.721782 -1.128929 66.154968 42 30 29
4.725950 -0.987192 66.213371 42 30 29
4.730179 -0.845214 66.272621 41 30 29
4.734455 -0.702987 66.332527 41 30 29
4.738765 -0.560507 66.392921 41 31 29
4.743102 -0.417768 66.453674 42 31 31
4.747457 -0.274768 66.514687 44 32 32
4.751827 -0.131506 66.575920 45 32 33
4.756211 0.012020 66.637344 47 33 33
4.760610 0.155812 66.698975 48 32 33
4.765028 0.299871 66.760880 48 32 31
4.769471 0.444198 66.823120 47 31 30
4.773943 0.588798 66.885780 47 31 30
4.778452 0.733674 66.948959 48 31 31
4.783005 0.878829 67.012741 50 31 33
4.787606 1.024271 67.077209 52 32 36
4.792259 1.170002 67.142395 57 36 41
4.796964 1.316030 67.208321 63 42 47
4.801721 1.462357 67.274963 69 48 53
4.806524 1.608987 67.342255 72 51 55
4.811365 1.755921 67.410080 73 52 56
4.816232 1.903157 67.478271 77 57 61
4.821111 2.050693 67.546623 90 69 73
4.825982 2.198520 67.614876 103 82 84
4.830826 2.346628 67.682747 106 84 85
4.835620 2.495003 67.749908 102 78 79
4.840339 2.643626 67.816032 99 74 75
4.844961 2.792478 67.880783 95 70 70
4.849461 2.941536 67.943825 82 57 58
4.853816 3.090773 68.004845 67 44 46
4.858008 3.240165 68.063576 63 41 42
4.862019 3.389683 68.119774 64 44 44
4.865836 3.539303 68.173248 65 45 45
4.869450 3.688999 68.223877 64 44 44
4.872854 3.838748 68.271576 61 41 42
4.876048 3.988531 68.316322 59 38 40
4.879034 4.138331 68.358154 56 35 39
4.881817 4.288134 68.397163 56 34 38
4.884407 4.437928 68.433441 57 35 37
4.886812 4.587705 68.467140 56 35 33
4.889044 4.737460 68.498413 59 39 34
4.891114 4.887187 68.527412 85 67 60
4.893032 5.036884 68.554283 129 112 105
4.894808 5.186545 68.579163 150 130 126
4.896449 5.336167 68.602150 159 135 135
4.897960 5.485744 68.623337 181 153 158
4.899346 5.635267 68.642754 176 146 154
4.900609 5.784727 68.660439 129 97 108
4.901746 5.934113 68.676376 82 51 60
4.902759 6.083412 68.690559 61 30 39
4.903643 6.232610 68.702950 60 30 38
4.904397 6.381691 68.713516 69 41 47
4.905019 6.530643 68.722229 76 50 55
4.905507 6.679449 68.729065 76 52 56
4.905861 6.828099 68.734024 77 55 57
4.906082 6.976581 68.737122 74 54 55
4.906174 7.124888 68.738411 68 48 48
4.906141 7.273016 68.737953 61 41 41
4.905989 7.420962 68.735825 55 37 37
4.905727 7.568729 68.732147 52 34 34
4.905363 7.716320 68.727051 51 32 32
4.904908 7.863742 68.720673 49 31 31
4.904371 8.011004 68.713158 49 31 31
4.903766 8.158119 68.704666 48 30 30
4.903100 8.305097 68.695351 47 30 29
4.902387 8.451950 68.685349 46 30 29
4.901633 8.598691 68.674797 47 32 29
4.900849 8.745331 68.663803 47 34 31
4.900041 8.891881 68.652481 46 35 31
4.899214 9.038348 68.640907 43 34 31
4.898375 9.184740 68.629135 41 32 29
4.897523 9.331059 68.617210 40 31 29
4.896662 9.477307 68.605141 39 29 29
4.895789 9.623482 68.592918 38 28 29
4.894904 9.769579 68.580521 38 26 29
4.894003 9.915588 68.567886 37 26 28
4.893081 10.061502 68.554970 37 26 28
4.892133 10.207306 68.541687 37 26 27
4.891152 10.352983 68.527954 37 26 25
4.890134 10.498519 68.513680 36 26 24
4.889070 10.643894 68.498764 35 26 24
4.887953 10.789091 68.483131 35 27 24
4.886780 10.934093 68.466698 34 27 24
4.885545 11.078883 68.449394 32 26 24
4.884245 11.223451 68.431183 32 25 24
4.882880 11.367786 68.412048 31 24 23
4.881449 11.511886 68.392006 31 23 22
4.879957 11.655750 68.371086 31 23 22
4.878409 11.799392 68.349403 30 23 22
4.876814 11.942825 68.327065 30 23 21
4.875185 12.086076 68.304237 30 23 22
4.873535 12.229177 68.281120 30 22 22
4.871882 12.372170 68.257965 30 22 21
4.870245 12.515105 68.235031 29 22 21
4.868645 12.658037 68.212616 29 22 21
4.867105 12.801029 68.191032 28 21 20
4.865647 12.944148 68.170609 27 21 19
4.864295 13.087462 68.151657 27 22 19
4.863070 13.231041 68.134491 28 23 20
4.861993 13.374954 68.119408 28 23 20
4.861083 13.519265 68.106659 28 23 20
4.860355 13.664034 68.096458 28 23 20
4.859822 13.809313 68.088989 27 22 20
4.859493 13.955144 68.084381 27 22 21
4.859372 14.101561 68.082687 27 22 21
4.859460 14.248582 68.083923 27 22 21
4.859755 14.396222 68.088051 27 22 21
4.860249 14.544475 68.094971 27 22 21
4.860931 14.693328 68.104538 27 22 21
4.861789 14.842757 68.116554 26 22 21
4.862807 14.992733 68.130821 26 22 21
4.668034 -11.620909 63.484554 24 21 19
4.670382 -11.489835 63.516487 23 20 18
4.672801 -11.358796 63.549393 22 19 17
4.675306 -11.227819 63.583458 21 18 16
4.677905 -11.096920 63.618801 22 18 16
4.680603 -10.966101 63.655495 22 17 16
4.683401 -10.835355 63.693546 22 17 17
4.686296 -10.704664 63.732910 22 17 17
4.689279 -10.574005 63.773483 23 17 17
4.692340 -10.443344 63.815113 23 17 16
4.695465 -10.312644 63.857620 24 17 17
4.698637 -10.181862 63.900757 24 17 17
4.701838 -10.050955 63.944283 24 18 18
4.705047 -9.919879 63.987926 25 19 18
4.708244 -9.788589 64.031410 26 19 19
4.711409 -9.657046 64.074448 26 20 20
4.714521 -9.525211 64.116776 27 20 20
4.717562 -9.393052 64.158134 27 20 20
4.720517 -9.260546 64.198326 27 20 19
4.723372 -9.127672 64.237144 27 20 19
4.726116 -8.994421 64.274460 28 21 19
4.728743 -8.860790 64.310196 28 21 19
4.731252 -8.726786 64.344307 28 21 19
4.733642 -8.592420 64.376816 27 22 19
4.735919 -8.457711 64.407776 29 23 20
4.738090 -8.322684 64.437309 31 25 22
4.740168 -8.187367 64.465569 32 25 22
4.742164 -8.051791 64.492722 30 23 21
4.744094 -7.915987 64.518967 29 21 20
4.745973 -7.779986 64.544518 29 20 20
4.747816 -7.643816 64.569580 29 19 20
4.749635 -7.507503 64.594330 30 19 21
4.751445 -7.371067 64.618942 30 20 21
4.753256 -7.234526 64.643562 30 20 21
4.755075 -7.097891 64.668304 31 21 22
4.756908 -6.961171 64.693237 31 22 22
4.758759 -6.824368 64.718399 31 22 23
4.760626 -6.687480 64.743797 31 22 24
4.762510 -6.550506 64.769417 32 24 25
4.764407 -6.413438 64.795219 33 25 26
4.766313 -6.276271 64.821144 33 25 25
4.768223 -6.138998 64.847115 32 25 24
4.770132 -6.001611 64.873077 32 24 23
4.772035 -5.864105 64.898956 31 23 23
4.773928 -5.726476 64.924706 31 23 22
4.775809 -5.588721 64.950279 31 23 22
4.777674 -5.450837 64.975639 32 22 22
4.779522 -5.312826 65.000778 32 22 22
4.781354 -5.174689 65.025696 32 22 22
4.783171 -5.036429 65.050407 31 21 22
4.784976 -4.898049 65.074944 31 21 22
4.786771 -4.759555 65.099358 31 21 22
4.788560 -4.620950 65.123703 32 21 22
4.790351 -4.482240 65.148056 32 21 21
4.792148 -4.343432 65.172493 31 21 20
4.793960 -4.204531 65.197128 31 20 19
4.795794 -4.065542 65.222069 30 21 19
4.797659 -3.926472 65.247444 30 21 20
4.799568 -3.787327 65.273399 30 22 21
4.801530 -3.648110 65.300087 31 22 22
4.803559 -3.508828 65.327682 31 23 22
4.805669 -3.369482 65.356377 32 24 23
4.807873 -3.230077 65.386345 32 24 24
4.810184 -3.090611 65.417786 32 24 24
4.812618 -2.951084 65.450882 34 24 25
4.815186 -2.811494 65.485802 36 25 26
4.817898 -2.671833 65.522690 38 26 26
4.820765 -2.532094 65.561684 40 27 26
4.823794 -2.392267 65.602875 39 27 25
4.826986 -2.252339 65.646294 39 26 24
4.830344 -2.112296 65.691956 42 29 27
4.833864 -1.972122 65.739822 43 30 29
4.837539 -1.831801 65.789795 42 29 28
4.841360 -1.691315 65.841766 41 27 26
4.845315 -1.550648 65.895546 40 27 27
4.849389 -1.409784 65.950966 41 28 28
4.853568 -1.268708 66.007790 41 28 28
4.857833 -1.127408 66.065804 41 29 29
4.862171 -0.985871 66.124794 41 29 28
4.866564 -0.844091 66.184540 41 29 28
4.870999 -0.702058 66.244858 40 29 27
4.875464 -0.559769 66.305573 40 29 27
4.879950 -0.417221 66.366585 40 29 28
4.884451 -0.274409 66.427795 41 29 29
4.888964 -0.131335 66.489166 43 29 30
4.893488 0.012005 66.550697 44 29 31
4.898026 0.155610 66.612419 46 29 30
4.902583 0.299482 66.674393 47 29 29
4.907166 0.443624 66.736717 47 28 28
4.911781 0.588038 66.799484 48 29 28
4.916438 0.732729 66.862808 50 30 31
4.921142 0.877702 66.926796 52 31 34
4.925900 1.022962 66.991508 55 33 38
4.930717 1.168515 67.057014 60 37 44
4.935594 1.314366 67.123337 67 44 51
4.940529 1.460520 67.190453 73 51 57
4.945517 1.606981 67.258293 76 54 60
4.950550 1.753750 67.326736 75 53 59
4.955615 1.900826 67.395615 73 51 57
4.960695 2.048206 67.464706 77 56 61
4.965773 2.195882 67.533760 86 65 69
4.970824 2.343844 67.602463 95 72 76
4.975826 2.492078 67.670486 97 74 78
4.980754 2.640565 67.737503 96 71 75
4.985581 2.789285 67.803162 91 66 69
4.990284 2.938215 67.867111 80 55 59
4.994838 3.087328 67.929047 70 46 50
4.999223 3.236599 67.988686 67 44 47
5.003422 3.386001 68.045784 69 45 47
5.007420 3.535508 68.100159 69 47 47
5.011209 3.685095 68.151688 68 47 47
5.014782 3.834740 68.200287 68 46 48
5.018140 3.984423 68.245956 65 43 45
5.021286 4.134128 68.288727 59 36 40
5.024224 4.283841 68.328697 55 31 35
5.026966 4.433552 68.365974 54 30 33
5.029520 4.583254 68.400719 56 33 32
5.031899 4.732941 68.433075 59 37 34
5.034116 4.882609 68.463219 68 46 43
5.036180 5.032255 68.491287 84 62 59
5.038101 5.181875 68.517410 98 74 75
5.039886 5.331465 68.541702 119 93 99
5.041542 5.481018 68.564217 150 123 131
5.043071 5.630526 68.585007 158 128 139
5.044474 5.779980 68.604088 126 95 107
5.045750 5.929367 68.621445 85 54 65
5.046897 6.078673 68.637047 60 31 40
5.047912 6.227882 68.650841 57 29 37
5.048790 6.376981 68.662796 66 39 46
5.049531 6.525952 68.672867 73 47 54
5.050131 6.674780 68.681023 75 49 55
5.050590 6.823453 68.687263 77 54 58
5.050908 6.971959 68.691589 79 57 60
5.051090 7.120291 68.694061 75 53 55
5.051139 7.268443 68.694733 68 47 48
5.051063 7.416414 68.693695 61 41 42
5.050870 7.564206 68.691078 56 37 37
5.050571 7.711824 68.687004 53 35 34
5.050177 7.859276 68.681648 51 33 32
5.049698 8.006573 68.675140 48 30 30
5.049148 8.153724 68.667656 46 29 29
5.048538 8.300745 68.659355 44 29 27
5.047879 8.447649 68.650398 44 29 27
5.047182 8.594450 68.640923 44 30 28
5.046456 8.741158 68.631042 44 31 29
5.045708 8.887786 68.620872 43 33 30
5.044945 9.034344 68.610497 43 33 30
5.044171 9.180835 68.599960 42 33 30
5.043388 9.327266 68.589317 41 32 30
5.042597 9.473635 68.578560 41 31 30
5.041797 9.619942 68.567680 40 30 31
5.040986 9.766178 68.556648 40 29 30
5.040158 9.912335 68.545387 39 28 30
5.039308 10.058399 68.533829 38 28 30
5.038429 10.204356 68.521881 38 28 29
5.037515 10.350186 68.509445 37 27 27
5.036556 10.495872 68.496399 35 27 25
5.035544 10.641390 68.482651 34 26 25
5.034473 10.786719 68.468071 34 26 24
5.033334 10.931840 68.452591 33 26 24
5.032123 11.076734 68.436111 33 26 24
5.030834 11.221385 68.418587 32 26 24
5.029466 11.365781 68.399979 32 25 24
5.028019 11.509915 68.380302 32 24 24
5.026495 11.653789 68.359581 32 24 23
5.024902 11.797407 68.337906 31 24 23
5.023246 11.940785 68.315399 31 23 22
5.021542 12.083949 68.292213 31 23 22
5.019803 12.226927 68.268562 31 22 22
5.018046 12.369761 68.244675 31 23 22
5.016294 12.512502 68.220833 31 23 22
5.014566 12.655203 68.197342 31 23 22
5.012887 12.797928 68.174507 30 23 21
5.011282 12.940744 68.152679 30 23 20
5.009774 13.083721 68.132179 29 23 20
5.008388 13.226929 68.113319 29 23 20
5.007144 13.370438 68.096405 29 23 19
5.006064 13.514315 68.081718 29 23 19
5.005164 13.658620 68.069481 29 23 19
5.004459 13.803410 68.059891 28 23 20
5.003958 13.948728 68.053078 28 23 21
5.003668 14.094611 68.049133 28 22 21
5.003592 14.241083 68.048088 28 22 21
5.003726 14.388159 68.049919 28 22 21
5.004067 14.535842 68.054558 28 22 21
5.004603 14.684119 68.061852 27 22 21
5.005325 14.832976 68.071671 27 22 22
5.006216 14.982383 68.083786 26 22 22
4.802370 -11.614825 63.451321 22 19 18
4.804748 -11.483731 63.482750 22 19 17
4.807198 -11.352669 63.515114 21 19 17
4.809731 -11.221662 63.548584 21 18 17
4.812357 -11.090724 63.583279 22 18 17
4.815080 -10.959859 63.619263 22 18 16
4.817900 -10.829056 63.656521 22 18 17
4.820814 -10.698300 63.695019 22 18 17
4.823813 -10.567564 63.734642 22 17 17
4.826885 -10.436816 63.775230 23 17 17
4.830017 -10.306021 63.816605 24 17 17
4.833189 -10.175134 63.858532 24 16 17
4.836386 -10.044114 63.900761 24 17 17
4.839585 -9.912919 63.943031 25 18 17
4.842766 -9.781504 63.985058 26 19 18
4.845908 -9.649830 64.026573 27 19 19
4.848991 -9.517862 64.067307 27 19 19
4.851996 -9.385569 64.107018 27 19 19
4.854909 -9.252927 64.145508 27 20 19
4.857716 -9.119919 64.182579 27 20 19
4.860405 -8.986536 64.218117 27 21 18
4.862972 -8.852777 64.252037 27 21 18
4.865415 -8.718648 64.284309 27 21 18
4.867734 -8.584163 64.314949 27 21 18
4.869935 -8.449340 64.344025 28 22 19
4.872026 -8.314205 64.371658 29 23 20
4.874020 -8.178786 64.398003 30 23 21
4.875929 -8.043116 64.423225 30 22 20
4.877769 -7.907223 64.447533 29 21 20
4.879554 -7.771139 64.471123 29 20 20
4.881301 -7.634893 64.494202 29 19 20
4.883023 -7.498510 64.516960 30 20 20
4.884734 -7.362012 64.539566 30 20 21
4.886445 -7.225416 64.562164 31 20 22
4.888163 -7.088733 64.584869 31 21 22
4.889895 -6.951972 64.607750 32 22 23
4.891644 -6.815137 64.630867 32 23 24
4.893412 -6.678228 64.654221 33 23 25
4.895198 -6.541241 64.677818 34 24 26
4.896999 -6.404173 64.701614 34 25 26
4.898813 -6.267019 64.725586 33 25 25
4.900635 -6.129772 64.749657 32 24 24
4.902462 -5.992426 64.773796 31 23 22
4.904291 -5.854979 64.797958 31 22 22
4.906117 -5.717425 64.822090 30 21 21
4.907940 -5.579762 64.846169 30 21 21
4.909758 -5.441990 64.870186 31 21 20
4.911571 -5.304110 64.894142 31 21 20
4.913380 -5.166122 64.918037 31 21 20
4.915187 -5.028029 64.941917 31 20 20
4.916995 -4.889835 64.965813 31 20 20
4.918808 -4.751542 64.989769 31 20 21
4.920631 -4.613155 65.013855 32 20 21
4.922468 -4.474677 65.038124 32 20 20
4.924327 -4.336113 65.062683 32 20 20
4.926212 -4.197467 65.087601 31 20 19
4.928134 -4.058743 65.112984 31 20 19
4.930100 -3.919944 65.138962 31 21 20
4.932121 -3.781075 65.165657 32 22 21
4.934206 -3.642139 65.193207 33 23 22
4.936368 -3.503139 65.221779 33 24 23
4.938620 -3.364077 65.251534 33 25 24
4.940974 -3.224953 65.282639 33 25 25
4.943444 -3.085768 65.315269 34 25 26
4.946042 -2.946518 65.349594 36 26 27
4.948780 -2.807199 65.385773 39 28 28
4.951668 -2.667805 65.423927 41 29 29
4.954715 -2.528328 65.464188 42 30 29
4.957926 -2.388757 65.506607 42 29 28
4.961303 -2.249077 65.551231 42 28 27
4.964847 -2.109277 65.598053 43 29 29
4.968553 -1.969338 65.647011 44 30 30
4.972414 -1.829246 65.698029 42 29 28
4.976418 -1.688982 65.750946 41 27 26
4.980556 -1.548531 65.805603 41 27 26
4.984808 -1.407878 65.861794 42 27 27
4.989161 -1.267008 65.919312 42 28 27
4.993598 -1.125908 65.977921 41 29 28
4.998099 -0.984569 66.037407 40 29 28
5.002652 -0.842981 66.097549 40 29 27
5.007241 -0.701140 66.158180 40 29 27
5.011855 -0.559040 66.219147 39 28 27
5.016485 -0.416678 66.280327 40 27 28
5.021126 -0.274053 66.341644 40 27 28
5.025776 -0.131165 66.403084 42 27 29
5.030436 0.011989 66.464645 44 27 29
5.035109 0.155409 66.526390 46 28 29
5.039801 0.299096 66.588387 48 28 29
5.044522 0.443052 66.650757 49 29 29
5.049278 0.587282 66.713600 51 29 30
5.054080 0.731790 66.777046 54 31 32
5.058936 0.876580 66.841209 56 33 36
5.063853 1.021659 66.906174 59 35 41
5.068836 1.167033 66.972015 66 42 49
5.073886 1.312709 67.038734 76 52 59
5.079003 1.458691 67.106339 84 61 68
5.084180 1.604984 67.174736 86 63 70
5.089408 1.751590 67.243820 79 56 64
5.094674 1.898507 67.313393 70 48 56
5.099961 2.045733 67.383255 68 46 54
5.105248 2.193260 67.453110 77 55 63
5.110512 2.341077 67.522652 91 67 76
5.115727 2.489171 67.591553 100 75 83
5.120866 2.637522 67.659462 98 72 80
5.125903 2.786111 67.726006 91 64 72
5.130812 2.934914 67.790863 84 57 66
5.135568 3.083904 67.853706 79 53 61
5.140150 3.233055 67.914238 76 51 56
5.144539 3.382341 67.972237 75 50 53
5.148722 3.531736 68.027504 75 51 52
5.152690 3.681215 68.079933 76 53 54
5.156437 3.830756 68.129440 80 56 58
5.159964 3.980341 68.176033 77 54 56
5.163273 4.129952 68.219757 67 43 46
5.166372 4.279578 68.260704 58 32 36
5.169271 4.429209 68.299004 54 30 32
5.171981 4.578838 68.334808 54 30 31
5.174514 4.728460 68.368286 55 32 31
5.176884 4.878071 68.399590 57 34 34
5.179101 5.027670 68.428879 63 41 42
5.181173 5.177251 68.456268 72 48 54
5.183111 5.326811 68.481873 85 58 68
5.184917 5.476343 68.505737 100 72 85
5.186595 5.625838 68.527908 107 78 91
5.188145 5.775286 68.548386 97 67 80
5.189565 5.924674 68.567139 77 48 59
5.190851 6.073987 68.584137 62 34 44
5.191999 6.223207 68.599304 57 31 39
5.193006 6.372320 68.612602 61 36 43
5.193867 6.521306 68.623978 67 42 49
5.194579 6.670151 68.633392 72 47 54
5.195142 6.818841 68.640831 76 51 58
5.195557 6.967364 68.646317 79 56 60
5.195827 7.115712 68.649879 79 56 59
5.195957 7.263879 68.651596 73 52 53
5.195954 7.411865 68.651558 65 45 45
5.195829 7.559672 68.649902 60 41 41
5.195592 7.707307 68.646774 56 38 37
5.195256 7.854777 68.642326 51 34 33
5.194832 8.002095 68.636734 47 31 30
5.194335 8.149273 68.630173 44 28 27
5.193779 8.296327 68.622810 42 27 25
5.193173 8.443272 68.614822 42 27 25
5.192532 8.590120 68.606346 42 28 26
5.191864 8.736888 68.597511 42 29 27
5.191177 8.883586 68.588440 42 31 28
5.190478 9.030225 68.579208 42 32 29
5.189773 9.176809 68.569885 42 32 30
5.189061 9.323345 68.560486 42 32 30
5.188345 9.469831 68.551018 42 32 31
5.187622 9.616264 68.541473 41 31 31
5.186890 9.762637 68.531792 41 31 31
5.186141 9.908938 68.521904 40 30 31
5.185370 10.055154 68.511711 39 30 31
5.184568 10.201264 68.501122 38 29 30
5.183726 10.347249 68.489998 36 28 28
5.182836 10.493087 68.478226 34 27 26
5.181885 10.638752 68.465675 33 26 25
5.180867 10.784222 68.452217 33 25 25
5.179771 10.929469 68.437744 32 25 24
5.178592 11.074475 68.422157 32 25 24
5.177322 11.219220 68.405388 32 25 24
5.175960 11.363688 68.387390 33 25 25
5.174505 11.507872 68.368156 33 25 25
5.172958 11.651767 68.347725 33 25 25
5.171326 11.795379 68.326157 32 24 24
5.169617 11.938719 68.303574 32 23 23
5.167843 12.081812 68.280136 32 23 23
5.166019 12.224686 68.256042 32 23 22
5.164165 12.367382 68.231544 32 23 23
5.162300 12.509948 68.206909 33 24 23
5.160449 12.652439 68.182449 33 25 23
5.158635 12.794919 68.158478 33 25 23
5.156885 12.937455 68.135361 32 24 22
5.155223 13.080116 68.113403 32 24 21
5.153676 13.222976 68.092964 31 24 21
5.152267 13.366104 68.074333 31 24 20
5.151016 13.509569 68.057816 31 24 19
5.149943 13.653436 68.043640 30 23 19
5.149064 13.797757 68.032013 29 23 20
5.148389 13.942585 68.023109 29 23 20
5.147928 14.087957 68.017014 29 22 21
5.147683 14.233901 68.013771 29 22 21
5.147654 14.380437 68.013397 29 22 21
5.147838 14.527569 68.015823 28 22 21
5.148225 14.675292 68.020935 28 23 22
5.148806 14.823594 68.028610 27 23 23
5.149567 14.972453 68.038666 27 23 23
4.934224 -11.739886 63.388046 21 18 17
4.936584 -11.608793 63.418365 21 18 17
4.938996 -11.477691 63.449360 21 18 17
4.941478 -11.346613 63.481236 21 18 17
4.944041 -11.215584 63.514160 21 18 17
4.946693 -11.084613 63.548241 21 18 17
4.949441 -10.953705 63.583534 22 19 17
4.952282 -10.822849 63.620033 21 18 17
4.955212 -10.692028 63.657677 21 18 17
4.958223 -10.561217 63.696358 22 18 18
4.961303 -10.430385 63.735928 23 18 18
4.964437 -10.299493 63.776184 23 17 17
4.967607 -10.168502 63.816910 23 17 16
4.970795 -10.037371 63.857857 24 16 15
4.973979 -9.906056 63.898766 25 17 16
4.977139 -9.774517 63.939354 26 18 17
4.980253 -9.642715 63.979362 26 19 18
4.983302 -9.510616 64.018532 26 19 19
4.986268 -9.378193 64.056633 26 18 19
4.989134 -9.245420 64.093460 26 19 19
4.991888 -9.112282 64.128830 26 20 18
4.994519 -8.978771 64.162628 26 20 18
4.997021 -8.844889 64.194778 26 20 18
4.999394 -8.710641 64.225266 26 20 17
5.001639 -8.576041 64.254105 26 21 17
5.003761 -8.441111 64.281357 27 21 18
5.005769 -8.305874 64.307159 28 21 19
5.007675 -8.170360 64.331650 28 22 19
5.009493 -8.034598 64.355003 29 21 20
5.011239 -7.898622 64.377434 29 21 20
5.012928 -7.762461 64.399132 29 20 19
5.014575 -7.626144 64.420296 29 19 19
5.016197 -7.489696 64.441124 30 19 19
5.017805 -7.353139 64.461777 30 19 20
5.019411 -7.216490 64.482407 31 19 21
5.021023 -7.079762 64.503128 32 21 22
5.022650 -6.942963 64.524017 33 22 23
5.024293 -6.806097 64.545135 33 23 24
5.025956 -6.669166 64.566498 34 24 25
5.027638 -6.532168 64.588112 35 25 26
5.029339 -6.395101 64.609955 36 25 26
5.031055 -6.257958 64.632004 35 25 25
5.032785 -6.120738 64.654228 33 23 23
5.034525 -5.983433 64.676582 32 22 22
5.036274 -5.846042 64.699051 32 21 21
5.038029 -5.708561 64.721596 32 20 20
5.039791 -5.570990 64.744225 31 20 19
5.041557 -5.433327 64.766922 31 21 19
5.043332 -5.295575 64.789711 31 20 19
5.045115 -5.157732 64.812614 31 20 19
5.046909 -5.019804 64.835670 31 20 19
5.048720 -4.881791 64.858932 31 19 19
5.050550 -4.743696 64.882446 32 19 20
5.052404 -4.605521 64.906265 32 19 20
5.054289 -4.467271 64.930473 32 19 20
5.056209 -4.328946 64.955139 32 19 19
5.058171 -4.190550 64.980347 32 19 19
5.060182 -4.052085 65.006187 31 20 19
5.062251 -3.913553 65.032761 32 21 20
5.064386 -3.774956 65.060196 34 23 22
5.066599 -3.636296 65.088615 35 24 23
5.068898 -3.497574 65.118156 36 26 25
5.071297 -3.358789 65.148964 36 26 25
5.073806 -3.219943 65.181206 36 26 26
5.076439 -3.081032 65.215027 37 27 27
5.079206 -2.942053 65.250580 39 28 28
5.082119 -2.803001 65.287994 41 30 30
5.085186 -2.663869 65.327408 45 32 32
5.088417 -2.524648 65.368896 47 33 33
5.091813 -2.385326 65.412537 46 32 31
5.095377 -2.245890 65.458328 45 30 30
5.099109 -2.106325 65.506264 44 30 30
5.103002 -1.966616 65.556274 45 31 30
5.107049 -1.826746 65.608261 44 29 29
5.111237 -1.686699 65.662064 43 28 28
5.115553 -1.546459 65.717514 43 28 28
5.119982 -1.406010 65.774406 43 28 28
5.124505 -1.265339 65.832512 42 29 28
5.129106 -1.124435 65.891617 42 30 28
5.133767 -0.983288 65.951492 41 29 28
5.138472 -0.841890 66.011940 41 29 28
5.143208 -0.700235 66.072784 41 29 28
5.147964 -0.558320 66.133881 40 28 27
5.152731 -0.416143 66.195122 41 28 28
5.157506 -0.273702 66.256454 42 27 28
5.162286 -0.130996 66.317871 44 27 29
5.167075 0.011974 66.379395 47 28 30
5.171877 0.155209 66.441078 49 29 31
5.176700 0.298712 66.503044 51 29 31
5.181554 0.442485 66.565399 53 31 32
5.186449 0.586531 66.628288 56 32 33
5.191396 0.730856 66.691833 59 34 36
5.196403 0.875464 66.756157 61 36 40
5.201478 1.020364 66.821365 65 41 46
5.206628 1.165561 66.887520 76 51 58
5.211854 1.311063 66.954651 90 66 73
5.217154 1.456874 67.022743 100 76 83
5.222523 1.603001 67.091713 96 73 80
5.227950 1.749444 67.161438 83 59 68
5.233422 1.896204 67.231720 69 46 55
5.238919 2.043277 67.302338 65 42 52
5.244419 2.190655 67.373001 73 51 60
5.249898 2.338329 67.443398 89 65 75
5.255330 2.486284 67.513168 101 75 86
5.260684 2.634501 67.581955 101 75 85
5.265934 2.782960 67.649406 95 69 80
5.271053 2.931636 67.715157 90 64 75
5.276014 3.080504 67.778893 86 60 70
5.280796 3.229537 67.840324 82 56 64
5.285380 3.378708 67.899216 80 53 58
5.289752 3.527992 67.955383 80 53 57
