ply
format ascii 1.0
element vertex 1182
property float x
property float y
property float z
property uchar red
property uchar green
property uchar blue
end_header
11.964500 -9.234205 65.987968 55 36 36
11.954122 -9.084070 65.930725 55 37 37
11.943676 -8.934132 65.873108 55 38 38
11.933132 -8.784369 65.814957 55 38 38
11.922468 -8.634771 65.756142 55 38 38
11.911667 -8.485330 65.696571 54 37 38
11.900720 -8.336041 65.636192 53 35 38
11.889624 -8.186912 65.574997 52 33 37
11.878386 -8.037949 65.513008 52 33 37
11.867013 -7.889164 65.450287 55 35 38
11.855523 -7.740574 65.386925 58 38 40
11.843934 -7.592194 65.323006 60 39 41
11.832265 -7.444037 65.258644 61 39 40
11.820533 -7.296121 65.193939 62 39 40
11.808752 -7.148453 65.128967 62 39 40
11.796931 -7.001041 65.063766 62 39 41
11.785071 -6.853889 64.998360 62 39 42
11.773166 -6.706992 64.932693 62 39 42
11.761195 -6.560341 64.866676 61 39 42
11.749134 -6.413927 64.800156 62 39 42
11.736949 -6.267732 64.732948 62 38 41
11.724597 -6.121740 64.664825 62 36 39
11.712033 -5.975935 64.595535 61 35 38
11.699212 -5.830298 64.524818 64 36 40
11.686085 -5.684819 64.452415 67 38 42
11.672609 -5.539486 64.378090 70 39 44
11.658751 -5.394297 64.301666 74 41 47
11.644483 -5.249252 64.222969 77 44 50
11.629790 -5.104361 64.141937 80 46 53
11.614671 -4.959635 64.058540 85 49 56
11.599134 -4.815098 63.972858 90 51 59
11.583206 -4.670771 63.885006 93 52 61
11.566920 -4.526682 63.795185 94 52 62
11.550322 -4.382863 63.703636 94 51 63
11.533466 -4.239344 63.610676 95 49 64
11.516416 -4.096157 63.516636 97 50 65
11.499237 -3.953330 63.421894 102 53 68
11.481999 -3.810893 63.326820 106 56 70
11.464774 -3.668869 63.231815 108 59 68
11.447629 -3.527280 63.137257 110 61 68
11.430633 -3.386142 63.043514 111 63 68
11.413852 -3.245470 62.950966 114 65 69
11.397349 -3.105273 62.859947 117 69 72
11.381184 -2.965556 62.770790 121 73 75
11.365414 -2.826321 62.683811 124 76 80
11.350093 -2.687569 62.599316 128 80 84
11.335275 -2.549293 62.517590 130 80 86
11.321011 -2.411488 62.438919 130 78 86
11.307348 -2.274143 62.363564 131 77 86
11.294335 -2.137245 62.291794 130 75 85
11.282016 -2.000781 62.223850 126 70 82
11.270433 -1.864730 62.159969 123 66 80
11.259627 -1.729075 62.100372 126 70 84
11.249635 -1.593792 62.045258 130 75 89
11.240487 -1.458856 61.994804 132 79 93
11.232212 -1.324241 61.949165 136 84 98
11.224834 -1.189917 61.908474 140 91 103
11.218369 -1.055855 61.872814 145 99 108
11.212824 -0.922022 61.842236 146 103 107
11.208205 -0.788386 61.816761 137 98 97
11.204505 -0.654913 61.796352 136 103 97
11.201714 -0.521571 61.780952 177 154 147
11.199810 -0.388326 61.770458 216 200 193
11.198769 -0.255146 61.764713 186 165 159
11.198553 -0.122000 61.763527 134 107 103
11.199123 0.011142 61.766674 129 98 98
11.200434 0.144307 61.773895 141 108 110
11.202428 0.277520 61.784897 145 110 114
11.205049 0.410803 61.799347 157 120 125
11.208231 0.544176 61.816902 167 129 133
11.211905 0.677655 61.837166 155 118 119
11.215997 0.811251 61.859730 133 97 97
11.220427 0.944973 61.884167 122 89 89
11.225115 1.078825 61.910023 122 91 93
11.229977 1.212807 61.936836 124 96 100
11.234926 1.346915 61.964134 123 96 102
11.239874 1.481141 61.991425 119 94 103
11.244735 1.615472 62.018230 132 105 118
11.249418 1.749891 62.044060 157 130 144
11.253839 1.884377 62.068439 175 146 161
11.257912 2.018906 62.090908 177 147 161
11.261559 2.153451 62.111019 167 135 148
11.264702 2.287980 62.128357 155 121 134
11.267273 2.422460 62.142536 151 115 128
11.269210 2.556858 62.153217 149 112 127
11.270456 2.691137 62.160095 144 107 121
11.270970 2.825262 62.162933 135 99 112
11.270718 2.959198 62.161537 136 102 115
11.269677 3.092912 62.155800 149 117 132
11.267838 3.226372 62.145653 159 130 145
11.265207 3.359553 62.131142 157 131 146
11.261803 3.492431 62.112370 149 126 142
11.257658 3.624989 62.089508 147 126 143
11.252821 3.757218 62.062832 150 132 149
11.247352 3.889114 62.032665 154 138 153
11.241321 4.020678 61.999401 156 142 154
11.234813 4.151923 61.963509 149 137 146
11.227917 4.282865 61.925476 138 128 134
11.220729 4.413528 61.885830 153 144 146
11.213346 4.543941 61.845112 190 185 184
11.205866 4.674139 61.803856 208 206 203
11.198378 4.804154 61.762554 203 203 199
11.190965 4.934025 61.721676 206 207 205
11.183702 5.063788 61.681618 217 219 219
11.176649 5.193475 61.642719 223 228 228
11.169853 5.323118 61.605236 218 224 226
11.163345 5.452739 61.569344 190 197 200
11.157143 5.582358 61.535133 165 172 176
11.151249 5.711988 61.502625 177 184 187
11.145657 5.841636 61.471786 204 210 213
11.140351 5.971305 61.442524 221 225 227
11.135311 6.100993 61.414726 236 238 239
11.130513 6.230697 61.388264 249 250 251
11.125935 6.360412 61.363010 254 254 254
11.121554 6.490133 61.338852 254 254 254
11.117360 6.619862 61.315720 254 254 254
11.113346 6.749599 61.293579 254 254 254
11.109515 6.879356 61.272457 254 254 254
11.105886 7.009148 61.252434 255 255 255
11.102477 7.138996 61.233635 254 254 254
11.099324 7.268930 61.216248 254 254 254
11.096465 7.398985 61.200478 253 254 254
11.093944 7.529202 61.186573 251 253 253
11.091806 7.659624 61.174786 250 252 253
11.090098 7.790296 61.165363 251 253 254
11.088861 7.921265 61.158543 236 240 244
11.088132 8.052571 61.154518 196 203 213
11.087934 8.184254 61.153427 168 177 188
11.088285 8.316343 61.155365 194 200 208
11.089186 8.448860 61.160332 236 238 241
11.090626 8.581816 61.168274 253 253 254
11.092577 8.715207 61.179035 254 254 254
11.094998 8.849019 61.192387 254 254 254
11.097831 8.983222 61.208008 253 253 253
11.101003 9.117771 61.225502 241 239 242
11.104430 9.252609 61.244408 216 209 216
11.108023 9.387667 61.264221 201 188 198
11.111680 9.522866 61.284393 205 189 197
11.115303 9.658123 61.304375 207 190 197
11.118792 9.793347 61.323616 217 199 204
11.122052 9.928452 61.341599 237 221 224
11.125003 10.063352 61.357872 248 239 240
11.127575 10.197976 61.372059 248 240 238
11.129719 10.332264 61.383884 239 224 223
11.131408 10.466174 61.393196 213 195 194
11.132634 10.599686 61.399960 166 148 146
11.133418 10.732799 61.404285 127 110 108
11.133801 10.865541 61.406403 122 105 104
11.133850 10.997960 61.406670 135 117 119
11.133649 11.130130 61.405556 153 133 137
11.133300 11.262147 61.403633 172 150 157
11.132922 11.394126 61.401550 187 162 171
12.120295 -9.529350 66.061798 53 35 35
12.109887 -9.378883 66.005074 54 35 36
12.099495 -9.228672 65.948433 55 36 37
12.089075 -9.078685 65.891640 56 37 38
12.078589 -8.928893 65.834480 56 38 39
12.068004 -8.779275 65.776787 56 38 39
12.057292 -8.629816 65.718407 56 37 39
12.046435 -8.480506 65.659225 55 36 39
12.035423 -8.331344 65.599205 53 34 38
12.024249 -8.182330 65.538300 53 33 37
12.012918 -8.033474 65.476540 54 34 38
12.001437 -7.884786 65.413963 56 36 40
11.989823 -7.736282 65.350662 60 39 42
11.978090 -7.587976 65.286713 62 39 42
11.966258 -7.439883 65.222221 62 39 40
11.954344 -7.292018 65.157288 62 39 40
11.942360 -7.144392 65.091965 62 38 41
11.930315 -6.997011 65.026314 62 39 41
11.918208 -6.849878 64.960327 62 39 42
11.906033 -6.702991 64.893959 62 39 42
11.893769 -6.556341 64.827118 62 39 42
11.881392 -6.409918 64.759651 62 39 42
11.868865 -6.263707 64.691376 62 39 42
11.856149 -6.117693 64.622070 61 36 40
11.843198 -5.971859 64.551476 61 34 38
11.829966 -5.826191 64.479362 64 36 40
11.816408 -5.680678 64.405464 68 38 42
11.802485 -5.535311 64.329575 71 41 45
11.788161 -5.390089 64.251503 74 43 48
11.773416 -5.245015 64.171135 77 44 50
11.758236 -5.100100 64.088394 78 44 51
11.742623 -4.955358 64.003296 82 46 54
11.726593 -4.810812 63.915920 85 47 56
11.710171 -4.666487 63.826416 88 49 58
11.693398 -4.522412 63.734997 90 50 61
11.676324 -4.378618 63.641930 93 50 62
11.659006 -4.235137 63.547539 95 50 64
11.641509 -4.091999 63.452171 98 51 66
11.623902 -3.949236 63.356209 101 54 68
11.606257 -3.806874 63.260033 104 57 69
11.588646 -3.664937 63.164040 108 61 69
11.571136 -3.523445 63.068607 112 64 70
11.553799 -3.382414 62.974106 114 67 71
11.536696 -3.241858 62.880894 117 69 72
11.519892 -3.101783 62.789299 120 71 74
11.503444 -2.962195 62.699646 122 73 76
11.487407 -2.823094 62.612236 124 76 79
11.471833 -2.684479 62.527355 129 79 84
11.456775 -2.546344 62.445278 129 78 83
11.442280 -2.408682 62.366272 128 76 82
11.428395 -2.271482 62.290592 128 74 82
11.415166 -2.134730 62.218487 127 72 82
11.402636 -1.998412 62.150192 125 69 81
11.390847 -1.862510 62.085938 124 68 81
11.379838 -1.727003 62.025932 127 71 85
11.369645 -1.591868 61.970375 131 77 91
11.360302 -1.457083 61.919449 134 81 96
11.351834 -1.322619 61.873299 138 88 102
11.344270 -1.188448 61.832066 143 95 107
11.337625 -1.054541 61.795849 148 102 109
11.331909 -0.920866 61.764698 147 105 107
11.327129 -0.787390 61.738644 141 102 99
11.323283 -0.654080 61.717682 145 112 103
11.320361 -0.520903 61.701752 179 152 140
11.318348 -0.387826 61.690777 198 176 164
11.317219 -0.254816 61.684624 170 145 135
11.316944 -0.121841 61.683128 146 118 111
11.317484 0.011127 61.686073 155 124 121
11.318796 0.144118 61.693222 159 124 125
11.320828 0.277158 61.704300 150 114 116
11.323524 0.410269 61.718990 152 113 116
11.326819 0.543473 61.736954 156 118 119
11.330647 0.676785 61.757812 147 110 110
11.334927 0.810220 61.781143 130 95 94
11.339583 0.943787 61.806526 120 89 87
11.344531 1.077491 61.833492 119 90 90
11.349683 1.211333 61.861572 122 96 98
11.354946 1.345309 61.890255 123 98 103
11.360229 1.479412 61.919052 122 97 106
11.365436 1.613628 61.947430 137 111 123
11.370473 1.747940 61.974888 164 137 151
11.375246 1.882327 62.000908 179 150 165
11.379664 2.016763 62.024986 172 141 157
11.383641 2.151219 62.046661 157 124 139
11.387090 2.285663 62.065460 150 114 129
11.389935 2.420060 62.080971 151 113 129
11.392109 2.554373 62.092812 150 111 127
11.393548 2.688564 62.100658 143 104 120
11.394203 2.822594 62.104229 140 102 119
11.394034 2.956426 62.103310 150 115 132
11.393016 3.090024 62.097759 165 132 149
11.391136 3.223354 62.087509 167 138 155
11.388396 3.356386 62.072578 158 133 150
11.384817 3.489096 62.053070 150 129 146
11.380431 3.621466 62.029163 150 132 148
11.375289 3.753484 62.001137 146 132 147
11.369455 3.885144 61.969337 137 126 139
11.363008 4.016450 61.934200 134 126 136
11.356038 4.147414 61.896210 135 129 136
11.348643 4.278053 61.855907 136 132 135
11.340932 4.408396 61.813873 156 153 153
11.333010 4.538474 61.770695 195 194 190
11.324987 4.668324 61.726967 221 221 217
11.316965 4.797985 61.683239 231 231 228
11.309037 4.927499 61.640030 238 239 237
11.301287 5.056906 61.597786 243 245 244
11.293785 5.186245 61.556896 244 247 246
11.286584 5.315549 61.517651 240 243 242
11.279721 5.444848 61.480244 226 231 230
11.273217 5.574163 61.444794 217 222 221
11.267077 5.703509 61.411327 223 227 226
11.261293 5.832896 61.379807 233 236 237
11.255850 5.962326 61.350132 241 243 243
11.250719 6.091798 61.322170 248 249 250
11.245874 6.221308 61.295761 254 254 254
11.241284 6.350848 61.270744 254 254 254
11.236924 6.480412 61.246979 254 254 254
11.232770 6.609996 61.224335 254 254 254
11.228812 6.739599 61.202766 254 254 254
11.225047 6.869228 61.182243 254 254 254
11.221483 6.998893 61.162819 254 254 254
11.218139 7.128614 61.144592 254 254 254
11.215042 7.258418 61.127712 254 254 254
11.212231 7.388336 61.112389 254 254 254
11.209746 7.518407 61.098846 252 254 254
11.207637 7.648675 61.087345 252 254 254
11.205946 7.779186 61.078133 253 253 254
11.204720 7.909985 61.071453 241 243 246
11.204000 8.041117 61.067524 202 208 215
11.203811 8.172620 61.066494 168 175 184
11.204175 8.304528 61.068478 184 190 198
11.205097 8.436866 61.073505 228 232 235
11.206570 8.569646 61.081532 252 252 253
11.208568 8.702868 61.092422 254 254 254
11.211051 8.836520 61.105953 254 254 254
11.213961 8.970572 61.121819 254 254 254
11.217228 9.104981 61.139622 250 248 251
11.220765 9.239691 61.158905 234 227 234
11.224481 9.374632 61.179153 215 203 212
11.228271 9.509724 61.199814 212 196 206
11.232034 9.644881 61.220325 211 194 203
11.235665 9.780013 61.240120 215 197 204
11.239070 9.915030 61.258675 230 213 217
11.242160 10.049845 61.275517 238 226 229
11.244865 10.184384 61.290264 241 230 230
11.247133 10.318585 61.302620 238 223 222
11.248933 10.452406 61.312431 221 204 203
11.250255 10.585819 61.319637 182 165 164
11.251117 10.718825 61.324337 137 120 120
11.251560 10.851446 61.326752 119 103 104
11.251645 10.983729 61.327213 127 111 114
11.251455 11.115743 61.326183 146 128 134
11.251092 11.247579 61.324203 172 152 160
11.250670 11.379346 61.321903 195 172 182
12.244864 -9.373290 65.965706 55 35 36
12.234400 -9.223201 65.909332 56 36 37
12.223914 -9.073339 65.852844 56 37 38
12.213363 -8.923674 65.795998 56 37 39
12.202711 -8.774180 65.738617 56 37 39
12.191929 -8.624843 65.680534 56 36 39
12.180996 -8.475650 65.621628 55 35 39
12.169897 -8.326598 65.561844 53 33 38
12.158627 -8.177689 65.501122 53 32 37
12.147185 -8.028929 65.439491 54 33 38
12.135582 -7.880328 65.376976 58 36 40
12.123829 -7.731902 65.313660 62 38 42
12.111940 -7.583664 65.249619 63 39 42
12.099935 -7.435630 65.184937 63 38 40
12.087827 -7.287813 65.119713 62 37 39
12.075630 -7.140225 65.054008 62 37 39
12.063352 -6.992873 64.987854 62 38 39
12.050988 -6.845758 64.921257 62 38 40
12.038533 -6.698879 64.854156 62 39 41
12.025968 -6.552229 64.786461 63 39 42
12.013263 -6.405797 64.718018 63 39 42
12.000385 -6.259570 64.648651 63 39 42
11.987294 -6.113532 64.578117 62 36 40
11.973945 -5.967670 64.506203 62 34 38
11.960291 -5.821970 64.432648 65 37 40
11.946291 -5.676424 64.357231 69 40 43
11.931907 -5.531023 64.279739 73 43 46
11.917108 -5.385769 64.200012 76 45 49
11.901873 -5.240667 64.117935 77 44 50
11.886195 -5.095730 64.033478 77 44 51
11.870081 -4.950974 63.946667 79 45 53
11.853547 -4.806422 63.857597 82 46 54
11.836626 -4.662102 63.766441 86 48 57
11.819363 -4.518044 63.673439 90 49 60
11.801807 -4.374279 63.578865 94 51 63
11.784025 -4.230840 63.483067 96 53 66
11.766081 -4.087758 63.386398 99 54 67
11.748048 -3.945062 63.289249 102 55 68
11.729999 -3.802780 63.192013 104 58 69
11.712005 -3.660935 63.095078 109 62 71
11.694139 -3.519546 62.998829 114 67 73
11.676467 -3.378629 62.903629 117 70 74
11.659055 -3.238194 62.809822 120 72 76
11.641962 -3.098248 62.717739 122 73 77
11.625244 -2.958795 62.627682 124 75 78
11.608957 -2.819834 62.539940 126 77 81
11.593150 -2.681363 62.454784 128 78 82
11.577872 -2.543376 62.372478 127 76 81
11.563170 -2.405863 62.293278 126 73 79
11.549089 -2.268813 62.217419 126 73 80
11.535674 -2.132214 62.145145 127 72 81
11.522964 -1.996048 62.076675 127 72 82
11.511002 -1.860299 62.012234 128 74 85
11.499825 -1.724945 61.952019 131 78 90
11.489469 -1.589964 61.896229 135 83 96
11.479967 -1.455332 61.845043 138 87 101
11.471347 -1.321022 61.798603 141 93 105
11.463634 -1.187007 61.757053 146 99 110
11.456847 -1.053255 61.720486 149 105 112
11.450998 -0.919737 61.688980 148 107 109
11.446094 -0.786419 61.662560 144 107 102
11.442135 -0.653269 61.641232 148 115 105
11.439116 -0.520254 61.624962 169 140 126
11.437021 -0.387341 61.613682 179 152 138
11.435832 -0.254496 61.607277 164 137 124
11.435521 -0.121688 61.605598 158 129 121
11.436051 0.011113 61.608459 165 132 129
11.437385 0.143937 61.615639 162 125 126
11.439470 0.276810 61.626877 151 112 114
11.442254 0.409757 61.641869 148 107 110
11.445673 0.542798 61.660290 149 109 111
11.449659 0.675952 61.681767 143 105 106
11.454136 0.809233 61.705883 130 94 93
11.459023 0.942652 61.732204 121 89 88
11.464231 1.076215 61.760265 119 91 91
11.469670 1.209923 61.789570 121 95 98
11.475245 1.343773 61.819599 124 99 105
11.480856 1.477758 61.849827 131 106 115
11.486402 1.611864 61.879707 148 121 133
11.491782 1.746073 61.908691 171 143 157
11.496895 1.880363 61.936234 180 151 166
11.501642 2.014709 61.961807 167 135 151
11.505928 2.149078 61.984894 149 115 130
11.509660 2.283437 62.005005 146 110 124
11.512756 2.417749 62.021683 150 113 127
11.515138 2.551975 62.034512 148 109 124
11.516738 2.686073 62.043137 144 106 121
11.517503 2.820005 62.047256 156 120 135
11.517385 2.953727 62.046619 176 142 158
11.516356 3.087203 62.041073 185 154 169
11.514400 3.220396 62.030537 179 151 165
11.511519 3.353274 62.015018 165 142 156
11.507731 3.485810 61.994614 158 140 153
11.503073 3.617984 61.969517 160 147 158
11.497596 3.749783 61.940014 153 144 154
11.491371 3.881202 61.906479 135 129 137
11.484483 4.012246 61.869370 126 124 129
11.477029 4.142924 61.829216 135 136 138
11.469118 4.273260 61.786594 155 157 156
11.460864 4.403280 61.742130 185 187 184
11.452389 4.533020 61.696468 218 220 217
11.443810 4.662522 61.650253 241 242 240
11.435240 4.791828 61.604088 250 250 249
11.426785 4.920984 61.558540 253 253 252
11.418538 5.050036 61.514111 253 254 253
11.410577 5.179027 61.471218 253 254 253
11.402962 5.307993 61.430195 252 253 252
11.395734 5.436967 61.391258 249 250 249
11.388919 5.565976 61.354542 248 249 248
11.382524 5.695035 61.320091 249 251 250
11.376538 5.824157 61.287846 251 252 251
11.370945 5.953344 61.257713 252 253 252
11.365713 6.082595 61.229530 254 254 254
11.360810 6.211905 61.203117 254 254 254
11.356201 6.341264 61.178284 254 254 254
11.351851 6.470665 61.154854 254 254 254
11.347733 6.600099 61.132668 254 254 254
11.343827 6.729563 61.111629 254 254 254
11.340125 6.859060 61.091679 254 254 254
11.336629 6.988597 61.072845 254 254 254
11.333351 7.118192 61.055191 254 254 254
11.330319 7.247867 61.038857 254 254 254
11.327566 7.377653 61.024025 254 254 254
11.325134 7.507587 61.010921 254 254 254
11.323069 7.637713 60.999794 254 254 254
11.321417 7.768075 60.990898 254 254 254
11.320228 7.898721 60.984489 244 244 246
11.319541 8.029696 60.980793 202 205 210
11.319391 8.161042 60.979984 155 160 167
11.319799 8.292793 60.982182 167 172 178
11.320773 8.424975 60.987431 223 226 229
11.322310 8.557605 60.995708 252 253 254
11.324386 8.690684 61.006889 254 254 254
11.326960 8.824200 61.020756 254 254 254
11.329975 8.958124 61.036999 254 254 254
11.333360 9.092415 61.055237 253 252 253
11.337028 9.227015 61.074997 239 234 238
11.340881 9.361853 61.095760 220 208 218
11.344816 9.496849 61.116955 219 203 215
11.348725 9.631914 61.138016 218 201 211
11.352502 9.766956 61.158360 214 197 204
11.356047 9.901883 61.177456 221 204 209
11.359269 10.036609 61.194813 223 208 211
11.362096 10.171055 61.210045 221 206 206
11.364473 10.305159 61.222847 223 207 207
11.366367 10.438873 61.233051 223 206 206
11.367768 10.572174 61.240601 196 181 181
11.368691 10.705058 61.245579 150 134 136
11.369177 10.837545 61.248188 121 106 109
11.369284 10.969679 61.248768 122 105 111
11.369096 11.101527 61.247753 140 121 129
11.368710 11.233175 61.245674 169 149 159
12.369216 -9.217790 65.870659 56 36 36
12.358635 -9.068030 65.814308 57 36 37
12.347992 -8.918470 65.757629 56 36 38
12.337248 -8.769082 65.700417 56 36 39
12.326371 -8.619848 65.642494 56 36 39
12.315337 -8.470756 65.583733 55 35 38
12.304131 -8.321799 65.524055 54 34 37
12.292745 -8.172981 65.463417 54 33 37
12.281176 -8.024305 65.401810 56 33 38
12.269432 -7.875783 65.339272 59 35 40
12.257525 -7.727427 65.275864 62 37 41
12.245467 -7.579251 65.211655 63 37 41
12.233276 -7.431272 65.146729 63 37 39
12.220964 -7.283500 65.081169 63 36 38
12.208546 -7.135948 65.015030 62 37 38
12.196024 -6.988621 64.948341 62 37 39
12.183396 -6.841524 64.881096 63 37 40
12.170653 -6.694653 64.813240 63 38 41
12.157777 -6.548002 64.744667 63 39 42
12.144735 -6.401560 64.675217 64 39 42
12.131497 -6.255316 64.604721 65 38 42
12.118021 -6.109256 64.532951 65 37 41
12.104262 -5.963367 64.459679 65 37 41
12.090177 -5.817636 64.384674 67 38 43
12.075725 -5.672055 64.307709 72 42 45
12.060869 -5.526623 64.228600 77 45 48
12.045584 -5.381339 64.147194 79 46 51
12.029851 -5.236211 64.063416 78 45 50
12.013667 -5.091253 63.977230 77 44 50
11.997044 -4.946486 63.888702 80 45 52
11.980000 -4.801932 63.797939 83 46 54
11.962575 -4.657620 63.705147 87 48 56
11.944816 -4.513583 63.610569 91 50 60
11.926779 -4.369852 63.514519 95 52 63
11.908530 -4.226459 63.417336 98 55 66
11.890141 -4.083437 63.319401 101 57 67
11.871684 -3.940815 63.221115 103 57 68
11.853234 -3.798619 63.122864 106 60 70
11.834867 -3.656872 63.025047 110 64 73
11.816650 -3.515592 62.928043 114 68 75
11.798656 -3.374793 62.832211 118 71 77
11.780944 -3.234485 62.737892 121 73 78
11.763576 -3.094674 62.645397 124 74 80
11.746606 -2.955362 62.555027 126 76 81
11.730086 -2.816548 62.467052 127 77 82
11.714067 -2.678228 62.381744 128 77 83
11.698593 -2.540394 62.299343 128 75 83
11.683711 -2.403036 62.220089 128 74 83
11.669463 -2.266144 62.144215 128 75 84
11.655890 -2.129702 62.071934 128 76 84
11.643035 -1.993694 62.003475 129 77 85
11.630935 -1.858103 61.939037 130 79 88
11.619628 -1.722907 61.878826 134 84 93
11.609149 -1.588083 61.823017 137 88 99
11.599529 -1.453608 61.771790 139 90 102
11.590797 -1.319455 61.725288 141 94 105
11.582978 -1.185596 61.683651 145 100 108
11.576090 -1.052001 61.646969 147 104 109
11.570148 -0.918639 61.615322 148 107 107
11.565159 -0.785478 61.588757 145 108 101
11.561125 -0.652486 61.567276 145 113 100
11.558043 -0.519629 61.550858 159 129 113
11.555900 -0.386874 61.539448 167 140 123
11.554681 -0.254189 61.532955 162 134 120
11.554360 -0.121541 61.531246 164 133 124
11.554906 0.011100 61.534157 169 134 131
11.556279 0.143764 61.541470 163 124 125
11.558435 0.276478 61.552952 150 108 112
11.561321 0.409268 61.568321 144 100 105
11.564876 0.542155 61.587246 145 103 107
11.569030 0.675159 61.609371 143 103 105
11.573708 0.808294 61.634281 131 94 96
11.578828 0.941573 61.661545 123 90 91
11.584297 1.075002 61.690678 122 93 95
11.590023 1.208584 61.721169 122 96 99
11.595903 1.342315 61.752483 127 102 109
11.601835 1.476187 61.784073 141 116 125
11.607710 1.610187 61.815357 160 134 145
11.613420 1.744298 61.845764 177 149 163
11.618855 1.878495 61.874706 178 148 163
11.623910 2.012752 61.901630 159 126 141
11.628482 2.147035 61.925972 142 107 121
11.632470 2.281309 61.947216 146 109 122
11.635785 2.415534 61.964867 153 116 128
11.638343 2.549670 61.978485 149 112 123
11.640071 2.683673 61.987686 152 116 128
11.640906 2.817500 61.992138 176 142 153
11.640801 2.951108 61.991581 196 165 177
11.639724 3.084455 61.985840 196 169 180
11.637654 3.217503 61.974823 185 161 172
11.634596 3.350219 61.958534 173 155 165
11.630565 3.482574 61.937065 174 161 170
11.625602 3.614546 61.910637 182 175 181
11.619762 3.746122 61.879539 177 174 178
11.613120 3.877296 61.844170 155 156 159
11.605768 4.008072 61.805016 139 142 143
11.597811 4.138463 61.762638 148 153 152
11.589365 4.268492 61.717659 180 186 184
11.580557 4.398190 61.670753 218 221 219
11.571517 4.527594 61.622612 242 243 242
11.562373 4.656749 61.573921 252 252 252
11.553249 4.785702 61.525333 254 254 254
11.544262 4.914504 61.477474 254 254 254
11.535511 5.043203 61.430870 254 254 254
11.527082 5.171845 61.385986 255 255 255
11.519046 5.300475 61.343189 254 254 254
11.511447 5.429126 61.302719 254 254 254
11.504312 5.557827 61.264721 254 254 254
11.497650 5.686598 61.229244 254 254 254
11.491452 5.815452 61.196239 254 254 254
11.485698 5.944392 61.165596 254 254 254
11.480353 6.073417 61.137135 255 255 255
11.475382 6.202521 61.110661 254 254 254
11.470741 6.331694 61.085949 254 254 254
11.466393 6.460923 61.062786 254 254 254
11.462300 6.590202 61.040997 254 254 254
11.458441 6.719522 61.020443 254 254 254
11.454798 6.848883 61.001041 254 254 254
11.451368 6.978291 60.982777 255 255 255
11.448162 7.107759 60.965702 254 254 254
11.445200 7.237308 60.949932 252 253 253
11.442515 7.366967 60.935635 252 252 252
11.440149 7.496773 60.923035 254 254 254
11.438146 7.626766 60.912365 254 254 254
11.436556 7.756995 60.903900 254 254 254
11.435428 7.887504 60.897888 245 246 246
11.434804 8.018342 60.894566 203 206 209
11.434721 8.149551 60.894127 148 153 158
11.435204 8.281168 60.896694 155 162 164
11.436263 8.413220 60.902336 217 221 222
11.437895 8.545724 60.911026 252 253 254
11.440077 8.678683 60.922649 254 254 254
11.442771 8.812087 60.936996 255 255 255
11.445918 8.945906 60.953754 254 254 254
11.449445 9.080099 60.972534 254 253 254
11.453260 9.214605 60.992855 245 242 245
11.457267 9.349354 61.014191 232 223 231
11.461354 9.484262 61.035957 228 215 225
11.465413 9.619242 61.057575 221 205 215
11.469334 9.754195 61.078453 211 195 203
11.473013 9.889030 61.098045 214 199 204
11.476358 10.023659 61.115860 210 194 198
11.479295 10.158003 61.131496 193 177 178
11.481765 10.291996 61.144653 196 181 181
11.483737 10.425593 61.155151 217 203 203
11.485198 10.558766 61.162933 208 194 194
11.486165 10.691513 61.168083 164 150 152
11.486675 10.823853 61.170803 128 114 118
11.486792 10.955827 61.171421 121 105 112
11.486593 11.087501 61.170364 134 115 125
12.493236 -9.062755 65.776024 56 36 37
12.482471 -8.913278 65.719345 56 37 38
12.471606 -8.763973 65.662148 56 36 38
12.460608 -8.614824 65.604233 56 36 38
12.449449 -8.465816 65.545486 56 36 38
12.438111 -8.316940 65.485794 55 34 37
12.426586 -8.168200 65.425117 56 34 38
12.414872 -8.019598 65.363441 58 34 38
12.402970 -7.871143 65.300781 60 35 39
12.390894 -7.722850 65.237198 62 36 40
12.378654 -7.574731 65.172760 63 36 40
12.366265 -7.426800 65.107529 64 36 39
12.353741 -7.279070 65.041588 64 36 39
12.341089 -7.131551 64.974976 63 37 39
12.328315 -6.984251 64.907722 63 37 39
12.315414 -6.837170 64.839806 64 37 40
12.302376 -6.690306 64.771156 64 38 41
12.289180 -6.543654 64.701675 65 39 42
12.275795 -6.397204 64.631210 66 38 43
12.262188 -6.250945 64.559570 66 38 43
12.248319 -6.104863 64.486549 66 38 42
12.234141 -5.958947 64.411903 67 39 43
12.219616 -5.813186 64.335434 72 42 47
12.204703 -5.667575 64.256912 77 46 49
12.189368 -5.522112 64.176178 80 48 52
12.173589 -5.376800 64.093102 80 47 52
12.157350 -5.231649 64.007607 78 45 50
12.140654 -5.086675 63.919701 78 44 49
12.123514 -4.941899 63.829460 81 45 51
12.105958 -4.797347 63.737030 85 48 54
12.088025 -4.653049 63.642612 89 50 57
12.069769 -4.509037 63.546497 93 52 60
12.051250 -4.365344 63.448994 96 54 63
12.032537 -4.222003 63.350475 100 56 65
12.013704 -4.079046 63.251320 103 58 66
11.994828 -3.936503 63.151939 105 60 68
11.975985 -3.794399 63.052731 109 63 72
11.957249 -3.652755 62.954086 113 66 75
11.938693 -3.511589 62.856392 116 69 77
11.920385 -3.370914 62.760002 118 70 79
11.902388 -3.230740 62.665245 120 72 80
11.884759 -3.091070 62.572433 123 73 82
11.867554 -2.951905 62.481846 126 75 84
11.850821 -2.813243 62.393753 127 76 85
11.834612 -2.675079 62.308411 129 76 86
11.818967 -2.537405 62.226040 131 77 87
11.803930 -2.400209 62.146877 132 78 88
11.789544 -2.263479 62.071133 132 80 89
11.775848 -2.127200 61.999027 130 79 87
11.762883 -1.991356 61.930763 129 79 86
11.750683 -1.855928 61.866531 129 81 87
11.739285 -1.720894 61.806522 132 85 93
11.728724 -1.586231 61.750916 136 89 97
11.719029 -1.451916 61.699879 137 91 100
11.710229 -1.317921 61.653542 138 93 101
11.702347 -1.184219 61.612045 140 97 103
11.695402 -1.050781 61.575481 142 101 103
11.689409 -0.917574 61.543930 144 105 103
11.684377 -0.784568 61.517433 144 108 100
11.680306 -0.651730 61.496006 144 111 98
11.677198 -0.519028 61.479641 152 123 107
11.675043 -0.386427 61.468292 159 131 115
11.673825 -0.253895 61.461880 160 130 118
11.673523 -0.121401 61.460289 170 137 130
11.674108 0.011087 61.463367 178 140 139
11.675545 0.143599 61.470932 167 124 127
11.677790 0.276163 61.482754 148 103 110
11.680793 0.408804 61.498562 139 93 101
11.684494 0.541546 61.518051 141 96 104
11.688826 0.674408 61.540859 139 98 104
11.693711 0.807406 61.566578 131 94 98
11.699065 0.940554 61.594769 125 92 96
11.704798 1.073857 61.624947 125 95 99
11.710806 1.207319 61.656582 125 98 104
11.716987 1.340937 61.689121 133 107 115
11.723229 1.474704 61.721992 152 126 136
11.729420 1.608604 61.754581 170 143 155
11.735441 1.742620 61.786282 176 148 161
11.741179 1.876728 61.816490 167 136 151
11.746516 2.010897 61.844593 147 114 128
11.751346 2.145095 61.870018 137 103 116
11.755559 2.279283 61.892200 148 114 124
11.759058 2.413419 61.910622 158 123 132
11.761754 2.547462 61.924816 158 124 131
11.763569 2.681365 61.934372 169 137 144
11.764435 2.815082 61.938934 193 163 170
11.764302 2.948568 61.938232 204 178 185
11.763134 3.081780 61.932087 199 176 184
11.760912 3.214677 61.920383 187 168 176
11.757637 3.347224 61.903141 180 167 173
11.753328 3.479391 61.880459 194 186 191
11.748029 3.611155 61.852558 215 212 215
11.741798 3.742503 61.819752 217 218 219
11.734715 3.873428 61.782463 198 203 202
11.726879 4.003934 61.741203 173 181 179
11.718403 4.134037 61.696579 168 177 174
11.709412 4.263760 61.649242 198 205 203
11.700041 4.393137 61.599903 235 238 237
11.690430 4.522207 61.549305 252 253 252
11.680718 4.651020 61.498173 254 254 254
11.671040 4.779625 61.447212 254 254 254
11.661517 4.908077 61.397079 255 255 255
11.652261 5.036428 61.348347 254 254 254
11.643366 5.164729 61.301514 254 254 254
11.634903 5.293024 61.256958 254 254 254
11.626926 5.421354 61.214958 254 254 254
11.619465 5.549749 61.175678 254 254 254
11.612529 5.678231 61.139156 254 254 254
11.606108 5.806814 61.105350 254 254 254
11.600182 5.935504 61.074150 254 254 254
11.594711 6.064299 61.045349 254 254 254
11.589658 6.193192 61.018742 254 254 254
11.584972 6.322171 60.994076 254 254 254
11.580612 6.451224 60.971119 254 254 254
11.576535 6.580340 60.949657 254 254 254
11.572713 6.709511 60.929531 254 254 254
11.569123 6.838732 60.910629 254 254 254
11.565758 6.968008 60.892914 254 254 254
11.562623 7.097348 60.876411 253 253 253
11.559738 7.226774 60.861217 249 250 250
11.557132 7.356311 60.847496 248 250 249
11.554845 7.485996 60.835457 252 252 252
11.552922 7.615870 60.825336 254 254 254
11.551414 7.745977 60.817398 254 254 254
11.550371 7.876368 60.811905 249 249 250
11.549838 8.007088 60.809093 219 221 223
11.549851 8.138182 60.809166 173 177 180
11.550439 8.269686 60.812260 166 172 174
11.551613 8.401630 60.818443 210 215 215
11.553370 8.534033 60.827694 247 248 248
11.555690 8.666896 60.839905 254 254 254
11.558530 8.800209 60.854858 254 254 254
11.561831 8.933943 60.872242 254 254 254
11.565519 9.068054 60.891655 254 254 254
11.569499 9.202481 60.912609 252 250 252
11.573668 9.337152 60.934559 248 243 247
11.577915 9.471981 60.956921 240 232 238
11.582126 9.606876 60.979088 225 212 220
11.586186 9.741741 61.000469 209 195 203
11.589993 9.876481 61.020512 206 193 199
11.593450 10.011005 61.038708 199 186 189
11.596480 10.145236 61.054665 173 160 162
11.599027 10.279106 61.068073 174 163 163
11.601058 10.412571 61.078766 211 201 200
11.602562 10.545603 61.086681 218 207 208
11.603555 10.678199 61.091911 177 164 167
11.604075 10.810378 61.094654 135 121 127
11.604188 10.942183 61.095245 123 106 114
12.616787 -8.908086 65.681068 56 37 38
12.605772 -8.758846 65.623726 56 37 38
12.594624 -8.609762 65.565689 56 36 37
12.583313 -8.460819 65.506805 56 35 37
12.571820 -8.312011 65.446976 56 34 37
12.560136 -8.163334 65.386147 57 35 38
12.548254 -8.014795 65.324295 59 35 39
12.536179 -7.866400 65.261429 61 36 39
12.523916 -7.718162 65.197594 63 36 39
12.511481 -7.570094 65.132858 64 36 39
12.498883 -7.422208 65.067276 65 36 39
12.486134 -7.274517 65.000900 65 36 39
12.473241 -7.127030 64.933784 64 37 40
12.460206 -6.979753 64.865929 64 37 40
12.447025 -6.832689 64.797318 65 38 41
12.433684 -6.685834 64.727859 66 39 42
12.420161 -6.539183 64.657463 67 39 43
12.406426 -6.392726 64.585968 68 40 44
12.392445 -6.246453 64.513176 68 39 44
12.378175 -6.100351 64.438889 68 39 44
12.363574 -5.954411 64.362877 71 41 46
12.348600 -5.808623 64.284927 77 46 50
12.333220 -5.662984 64.204857 81 49 53
12.317400 -5.517494 64.122505 82 50 54
12.301121 -5.372158 64.037758 81 48 52
12.284372 -5.226987 63.950569 79 45 50
12.267159 -5.082001 63.860958 79 44 49
12.249501 -4.937221 63.769032 82 44 50
12.231429 -4.792675 63.674953 87 49 54
12.212988 -4.648394 63.578953 92 52 58
12.194236 -4.504413 63.481331 96 54 60
12.175237 -4.360764 63.382423 98 55 62
12.156064 -4.217480 63.282612 100 56 63
12.136793 -4.074594 63.182289 103 58 65
12.117503 -3.932135 63.081871 107 61 68
12.098273 -3.790128 62.981766 112 65 73
12.079181 -3.648593 62.882370 116 68 78
12.060295 -3.507548 62.784058 116 69 79
12.041686 -3.367003 62.687180 117 69 79
12.023417 -3.226967 62.592072 119 71 81
12.005544 -3.087444 62.499031 121 72 83
11.988121 -2.948431 62.408329 123 73 85
11.971197 -2.809928 62.320225 125 74 86
11.954818 -2.671926 62.234955 127 75 88
11.939027 -2.534416 62.152748 131 79 91
11.923864 -2.397387 62.073818 134 82 92
11.909371 -2.260825 61.998371 134 83 92
11.895585 -2.124716 61.926598 132 82 89
11.882544 -1.989040 61.858707 129 81 86
11.870281 -1.853778 61.794872 129 82 87
11.858834 -1.718910 61.735279 131 86 91
11.848232 -1.584412 61.680088 133 89 94
11.838506 -1.450259 61.629452 135 90 97
11.829680 -1.316424 61.583511 136 92 98
11.821780 -1.182881 61.542385 137 95 99
11.814824 -1.049598 61.506168 139 99 100
11.808823 -0.916545 61.474930 142 103 101
11.803788 -0.783692 61.448719 144 107 100
11.799723 -0.651005 61.427555 145 112 100
11.796627 -0.518452 61.411438 150 117 104
11.794493 -0.386000 61.400330 153 121 108
11.793308 -0.253616 61.394161 158 124 115
11.793054 -0.121268 61.392838 177 140 135
11.793702 0.011075 61.396214 187 146 146
11.795224 0.143443 61.404137 170 124 130
11.797577 0.275865 61.416386 146 99 108
11.800713 0.408366 61.432709 138 90 101
11.804573 0.540971 61.452805 138 92 103
11.809091 0.673701 61.476322 136 93 102
11.814188 0.806571 61.502861 131 92 100
11.819781 0.939595 61.531975 129 95 102
11.825773 1.072781 61.563168 129 98 105
11.832060 1.206131 61.595898 127 100 108
11.838532 1.339643 61.629593 133 108 119
11.845075 1.473310 61.663651 153 128 140
11.851563 1.607116 61.697430 168 142 155
11.857878 1.741042 61.730301 166 139 153
11.863893 1.875062 61.761616 152 124 138
11.869487 2.009146 61.790737 137 108 121
11.874542 2.143259 61.817055 137 106 117
11.878944 2.277359 61.839970 151 120 127
11.882589 2.411405 61.858948 164 132 138
11.885384 2.545351 61.873493 175 145 148
11.887242 2.679148 61.883167 195 166 169
11.888097 2.812749 61.887615 210 184 187
11.887891 2.946107 61.886543 206 184 187
11.886589 3.079176 61.879768 194 176 180
11.884172 3.211915 61.867188 182 169 172
11.880644 3.344287 61.848816 178 170 173
11.876023 3.476259 61.824764 202 198 200
11.870357 3.607810 61.795261 235 234 235
11.863708 3.738925 61.760658 241 243 243
11.856165 3.869598 61.721386 224 231 228
11.847830 3.999835 61.677994 200 212 208
11.838824 4.129651 61.631111 193 203 200
11.829282 4.259070 61.581432 213 219 217
11.819346 4.388131 61.529713 241 242 243
11.809165 4.516874 61.476711 253 253 254
11.798888 4.645351 61.423214 254 254 254
11.788657 4.773616 61.369953 254 254 254
11.778605 4.901725 61.317616 254 254 254
11.768847 5.029735 61.266823 254 254 254
11.759486 5.157700 61.218090 254 254 254
11.750600 5.285668 61.171829 254 254 254
11.742244 5.413682 61.128326 254 254 254
11.734451 5.541773 61.087761 254 254 254
11.727233 5.669968 61.050182 254 254 254
11.720580 5.798281 61.015553 252 252 251
11.714468 5.926717 60.983734 249 249 249
11.708859 6.055277 60.954536 251 251 251
11.703709 6.183953 60.927719 253 253 253
11.698965 6.312733 60.903027 254 254 254
11.694579 6.441604 60.880192 254 254 254
11.690506 6.570551 60.858986 254 254 254
11.686709 6.699566 60.839222 254 254 254
11.683165 6.828643 60.820770 254 254 254
11.679859 6.957784 60.803566 254 254 254
11.676796 7.086997 60.787621 253 253 253
11.673991 7.216300 60.773018 249 251 250
11.671472 7.345721 60.759899 248 250 249
11.669276 7.475292 60.748474 252 253 253
11.667452 7.605056 60.738972 254 254 254
11.666047 7.735057 60.731659 254 254 254
11.665112 7.865344 60.726791 253 253 253
11.664694 7.995964 60.724613 242 244 244
11.664831 8.126962 60.725330 219 222 222
11.665553 8.258375 60.729088 199 204 204
11.666870 8.390235 60.735947 212 216 216
11.668780 8.522556 60.745892 241 243 243
11.671261 8.655343 60.758804 254 254 254
11.674272 8.788585 60.774475 254 254 254
11.677748 8.922250 60.792572 254 254 254
11.681612 9.056294 60.812691 254 254 254
11.685768 9.190655 60.834324 254 254 254
11.690108 9.325254 60.856918 254 253 253
11.694517 9.460009 60.879871 248 245 247
11.698878 9.594822 60.902573 233 226 231
11.703074 9.729594 60.924412 211 201 208
11.706996 9.864233 60.944836 197 186 192
11.710550 9.998644 60.963337 189 178 182
11.713660 10.132751 60.979523 168 157 160
11.716266 10.266485 60.993092 170 161 162
11.718338 10.399804 61.003880 211 203 203
11.719867 10.532682 61.011837 225 215 217
11.720870 10.665116 61.017059 185 173 177
12.739730 -8.753689 65.585091 56 37 37
12.728401 -8.604651 65.526772 55 36 36
12.716912 -8.455758 65.467621 55 35 36
12.705239 -8.307000 65.407532 56 35 36
12.693371 -8.158376 65.346428 58 35 38
12.681303 -8.009888 65.284302 60 36 39
12.669034 -7.861544 65.221146 62 36 39
12.656573 -7.713355 65.156990 64 37 39
12.643927 -7.565331 65.091888 66 37 40
12.631107 -7.417488 65.025894 66 37 40
12.618124 -7.269834 64.959053 66 38 41
12.604982 -7.122378 64.891396 66 39 42
12.591681 -6.975125 64.822922 66 39 42
12.578214 -6.828078 64.753586 67 40 44
12.564565 -6.681234 64.683327 69 41 45
12.550711 -6.534585 64.612007 70 41 46
12.536621 -6.388124 64.539474 71 42 46
12.522260 -6.241840 64.465538 72 41 47
12.507585 -6.095722 64.389992 72 41 48
12.492556 -5.949761 64.312614 75 43 50
12.477132 -5.803950 64.233215 79 48 52
12.461280 -5.658287 64.151611 82 50 54
12.444971 -5.512774 64.067650 82 50 54
12.428189 -5.367418 63.981258 81 48 52
12.410928 -5.222233 63.892395 81 45 50
12.393199 -5.077239 63.801121 81 44 49
12.375022 -4.932460 63.707546 83 45 50
12.356436 -4.787926 63.611862 89 49 55
12.337489 -4.643669 63.514324 95 54 59
12.318243 -4.499723 63.415245 98 55 61
12.298769 -4.356124 63.314987 98 54 61
12.279141 -4.212904 63.213943 98 53 60
12.259439 -4.070095 63.112514 102 56 64
12.239745 -3.927726 63.011131 107 61 69
12.220140 -3.785821 62.910198 112 66 74
12.200699 -3.644401 62.810116 116 68 78
12.181497 -3.503481 62.711262 116 68 79
12.162601 -3.363072 62.613983 117 69 80
12.144074 -3.223180 62.518608 118 70 82
12.125974 -3.083808 62.425426 119 71 84
12.108352 -2.944953 62.334705 121 71 85
12.091256 -2.806613 62.246700 122 71 86
12.074732 -2.668777 62.161629 126 74 88
12.058819 -2.531437 62.079708 131 79 93
12.043559 -2.394580 62.001148 135 84 95
12.028988 -2.258192 61.926140 135 85 94
12.015144 -2.122254 61.854870 133 83 91
12.002063 -1.986751 61.787521 130 83 87
11.989776 -1.851660 61.724270 130 84 87
11.978318 -1.716961 61.665283 131 86 89
11.967716 -1.582629 61.610706 132 88 92
11.958001 -1.448641 61.560692 132 89 94
11.949195 -1.314967 61.515354 133 91 95
11.941320 -1.181582 61.474815 135 93 96
11.934393 -1.048454 61.439156 138 97 97
11.928428 -0.915554 61.408443 141 102 100
11.923431 -0.782850 61.382725 144 106 101
11.919411 -0.650310 61.362022 145 109 102
11.916364 -0.517902 61.346336 147 112 103
11.914285 -0.385593 61.335636 148 113 104
11.913164 -0.253350 61.329868 155 119 113
11.912986 -0.121142 61.328945 176 137 135
11.913724 0.011063 61.332752 188 145 147
11.915352 0.143296 61.341129 168 123 129
11.917830 0.275584 61.353886 143 96 105
11.921112 0.407954 61.370785 139 90 100
11.925143 0.540432 61.391533 140 92 103
11.929854 0.673037 61.415787 136 92 101
11.935169 0.805788 61.443150 132 94 101
11.941000 0.938697 61.473167 133 98 106
11.947249 1.071773 61.505341 133 103 111
11.953809 1.205019 61.539112 128 101 112
11.960564 1.338432 61.573883 129 105 117
11.967391 1.472005 61.609028 143 120 135
11.974162 1.605721 61.643890 156 132 148
11.980747 1.739560 61.677788 155 131 147
11.987015 1.873497 61.710052 146 121 136
11.992834 2.007497 61.740013 138 112 125
11.998081 2.141524 61.767025 140 113 123
12.002636 2.275537 61.790474 152 124 130
12.006386 2.409488 61.809780 170 142 146
12.009234 2.543333 61.824444 197 172 173
12.011093 2.677020 61.834011 223 201 202
12.011889 2.810499 61.838108 226 207 208
12.011566 2.943722 61.836449 204 187 189
12.010089 3.076642 61.828842 180 167 171
12.007437 3.209216 61.815189 167 159 163
12.003616 3.341405 61.795521 168 165 167
11.998651 3.473178 61.769958 198 198 199
11.992591 3.604511 61.738758 232 234 234
11.985504 3.735391 61.702278 232 237 236
11.977484 3.865812 61.660988 212 221 220
11.968638 3.995779 61.615452 207 217 216
11.959099 4.125310 61.566341 215 224 222
11.949004 4.254433 61.514374 225 231 230
11.938508 4.383183 61.460342 239 240 241
11.927765 4.511608 61.405033 250 250 251
11.916933 4.639759 61.349270 252 253 252
11.906161 4.767694 61.293816 250 251 251
11.895589 4.895472 61.239391 250 251 251
11.885340 5.023151 61.186626 251 251 251
11.875521 5.150790 61.136074 252 252 253
11.866215 5.278440 61.088169 253 253 254
11.857482 5.406143 61.043209 254 254 254
11.849356 5.533937 61.001377 254 254 254
11.841850 5.661847 60.962738 253 253 253
11.834956 5.789889 60.927246 245 245 245
11.828650 5.918072 60.894775 237 237 236
11.822887 6.046394 60.865112 240 240 240
11.817624 6.174849 60.838020 250 250 250
11.812806 6.303424 60.813213 254 254 254
11.808378 6.432105 60.790421 255 255 255
11.804293 6.560878 60.769390 254 254 254
11.800510 6.689732 60.749920 254 254 254
11.797001 6.818660 60.731850 254 254 254
11.793750 6.947662 60.715115 254 254 254
11.790756 7.076747 60.699703 252 252 252
11.788033 7.205930 60.685680 250 250 250
11.785606 7.335238 60.673187 251 252 251
11.783514 7.464703 60.662418 254 254 254
11.781800 7.594366 60.653595 254 254 254
11.780516 7.724272 60.646980 254 254 254
11.779711 7.854470 60.642838 254 254 254
11.779431 7.985007 60.641403 254 254 254
11.779718 8.115927 60.642876 247 249 249
11.780598 8.247268 60.647404 233 235 235
11.782083 8.379060 60.655052 229 232 231
11.784170 8.511319 60.665794 244 245 245
11.786835 8.644048 60.679512 254 254 254
11.790032 8.777233 60.695976 254 254 254
11.793699 8.910844 60.714851 254 254 254
11.797751 9.044831 60.735714 254 254 254
11.802091 9.179132 60.758053 254 254 254
11.806604 9.313666 60.781288 254 254 254
11.811174 9.448346 60.804813 252 251 252
11.815680 9.583075 60.828011 241 237 241
11.820000 9.717752 60.850250 211 204 211
11.824028 9.852280 60.870987 184 176 183
11.827665 9.986568 60.889713 178 170 176
11.830836 10.120539 60.906036 170 162 166
11.833485 10.254127 60.919670 176 167 170
11.835581 10.387289 60.930462 210 201 203
11.837118 10.520000 60.938374 223 212 215
12.861922 -8.599482 65.487396 55 35 35
12.850225 -8.450621 65.427841 55 35 35
12.838347 -8.301899 65.367363 56 35 36
12.826274 -8.153315 65.305893 59 36 37
12.813998 -8.004869 65.243385 61 36 39
12.801518 -7.856566 65.179848 63 37 39
12.788842 -7.708420 65.115303 65 37 40
12.775974 -7.560439 65.049789 67 38 41
12.762924 -7.412634 64.983337 68 39 42
12.749699 -7.265015 64.916000 68 39 43
12.736300 -7.117590 64.847778 68 41 44
12.722726 -6.970364 64.778671 69 41 45
12.708968 -6.823337 64.708618 70 43 46
12.695007 -6.676505 64.637543 71 43 48
12.680821 -6.529862 64.565308 72 44 48
12.666374 -6.383401 64.491753 73 44 49
12.651630 -6.237110 64.416687 74 43 49
12.636551 -6.090981 64.339905 75 44 50
12.621092 -5.945004 64.261192 77 45 51
12.605217 -5.799175 64.180367 80 47 53
12.588894 -5.653493 64.097252 82 49 54
12.572096 -5.507962 64.011726 82 49 53
12.554813 -5.362592 63.923729 82 48 52
12.537042 -5.217398 63.833244 82 46 50
12.518796 -5.072402 63.740345 82 45 50
12.500104 -4.927631 63.645172 85 45 51
12.481008 -4.783115 63.547947 89 48 54
12.461561 -4.638888 63.448933 94 51 58
12.441831 -4.494985 63.348469 97 52 60
12.421888 -4.351442 63.246937 96 51 59
12.401814 -4.208291 63.144726 96 50 58
12.381692 -4.065565 63.042271 101 54 63
12.361604 -3.923291 62.939991 107 60 70
12.341633 -3.781495 62.838306 113 65 75
12.321857 -3.640195 62.737621 115 66 77
12.302351 -3.499405 62.638302 116 68 79
12.283184 -3.359136 62.540710 116 68 80
12.264417 -3.219393 62.445156 117 69 81
12.246107 -3.080177 62.351929 118 70 82
12.228305 -2.941485 62.261288 119 71 84
12.211058 -2.803311 62.173473 121 72 85
12.194410 -2.665647 62.088711 124 75 87
12.178401 -2.528481 62.007202 129 80 91
12.163070 -2.391799 61.929138 133 84 94
12.148451 -2.255587 61.854706 133 84 92
12.134581 -2.119826 61.784084 131 83 88
12.121492 -1.984497 61.717445 129 83 85
12.109217 -1.849580 61.654942 129 84 85
12.097785 -1.715052 61.596737 130 85 87
12.087224 -1.580889 61.542965 130 87 89
12.077559 -1.447065 61.493755 130 88 90
12.068812 -1.313554 61.449223 131 91 92
12.061004 -1.180326 61.409466 133 93 94
12.054149 -1.047352 61.374561 137 96 96
12.048259 -0.914602 61.344570 140 101 100
12.043342 -0.782044 61.319534 142 104 101
12.039400 -0.649648 61.299469 141 104 100
12.036437 -0.517379 61.284378 140 103 99
12.034446 -0.385207 61.274242 141 103 100
12.033420 -0.253099 61.269016 151 112 111
12.033342 -0.121023 61.268623 172 131 133
12.034193 0.011053 61.272957 182 139 144
12.035947 0.143157 61.281883 165 119 127
12.038566 0.275320 61.295219 143 96 105
12.042008 0.407569 61.312748 140 92 101
12.046218 0.539927 61.334183 141 95 103
12.051129 0.672417 61.359188 138 95 102
12.056664 0.805056 61.387367 135 95 103
12.062733 0.937858 61.418266 135 100 108
12.069235 1.070832 61.451374 136 106 116
12.076059 1.203981 61.486122 131 104 118
12.083084 1.337302 61.521885 126 102 119
12.090180 1.470786 61.558018 133 110 130
12.097215 1.604417 61.593834 142 120 141
12.104047 1.738174 61.628620 148 126 146
12.110538 1.872028 61.661671 150 127 145
12.116552 2.005945 61.692291 146 122 138
12.121955 2.139887 61.719803 142 117 128
12.126623 2.273809 61.743568 149 123 131
12.130437 2.407664 61.762985 176 152 157
12.133296 2.541404 61.777546 214 196 197
12.135108 2.674974 61.786774 237 223 223
12.135802 2.808326 61.790306 227 213 214
12.135318 2.941408 61.787842 193 181 183
12.133622 3.074172 61.779205 166 157 161
12.130697 3.206574 61.764313 156 152 155
12.126551 3.338576 61.743198 160 161 164
12.121211 3.470145 61.716011 185 189 190
12.114733 3.601258 61.683029 205 212 211
12.107191 3.731901 61.644627 198 209 207
12.098682 3.862070 61.601307 189 202 201
12.089325 3.991772 61.553661 207 217 216
12.079252 4.121024 61.502377 231 236 236
12.068614 4.249857 61.448212 232 236 237
12.057569 4.378307 61.391972 232 235 237
12.046278 4.506424 61.334488 243 245 246
12.034907 4.634262 61.276592 246 248 247
12.023611 4.761880 61.219078 240 243 242
12.012537 4.889340 61.162693 238 241 241
12.001811 5.016703 61.108082 242 244 245
11.991548 5.144029 61.055824 245 247 248
11.981833 5.271370 61.006355 248 249 249
11.972727 5.398774 60.959995 251 252 251
11.964270 5.526277 60.916935 254 254 254
11.956474 5.653907 60.877243 253 253 253
11.949332 5.781682 60.840878 243 243 243
11.942818 5.909611 60.807709 231 231 230
11.936889 6.037693 60.777523 233 233 233
11.931499 6.165923 60.750076 248 248 247
11.926587 6.294288 60.725075 254 254 254
11.922102 6.422774 60.702232 254 254 254
11.917989 6.551367 60.681290 254 254 254
11.914206 6.680054 60.662029 254 254 254
11.910720 6.808828 60.644283 254 254 254
11.907515 6.937689 60.627964 253 253 253
11.904586 7.066644 60.613049 249 250 250
11.901943 7.195708 60.599598 248 248 248
11.899613 7.324906 60.587734 252 252 252
11.897632 7.454271 60.577644 254 254 254
11.896042 7.583842 60.569546 254 254 254
11.894893 7.713665 60.563698 253 254 254
11.894235 7.843786 60.560345 253 253 253
11.894114 7.974253 60.559734 254 254 254
11.894570 8.105110 60.562054 254 254 254
11.895629 8.236395 60.567448 249 250 250
11.897302 8.368134 60.575962 247 248 248
11.899584 8.500345 60.587582 250 251 251
11.902447 8.633029 60.602161 254 254 254
11.905846 8.766170 60.619465 254 254 254
11.909712 8.899734 60.639153 254 254 254
11.913960 9.033671 60.660778 254 254 254
11.918483 9.167915 60.683807 254 254 254
11.923168 9.302384 60.707664 254 254 254
11.927894 9.436988 60.731724 254 254 254
11.932533 9.571627 60.755348 244 242 244
11.936967 9.706201 60.777924 204 201 207
11.941085 9.840611 60.798885 166 162 169
11.944789 9.974766 60.817749 166 161 168
