ply
format ascii 1.0
element vertex 1241
property float x
property float y
property float z
property uchar red
property uchar green
property uchar blue
end_header
17.498484 10.227046 48.867836 61 35 38
17.465673 10.313015 48.776207 62 37 39
17.433228 10.398806 48.685596 62 38 40
17.401335 10.484539 48.596527 61 38 40
17.370161 10.570327 48.509468 59 37 39
17.339834 10.656260 48.424774 56 35 37
17.310444 10.742409 48.342701 54 34 36
17.282043 10.828823 48.263382 53 33 35
17.254642 10.915528 48.186863 52 33 35
17.228218 11.002528 48.113068 53 33 35
17.202713 11.089801 48.041836 53 33 36
17.178040 11.177310 47.972935 53 33 37
17.154099 11.265000 47.906075 54 34 37
17.130758 11.352802 47.840893 54 34 37
17.107882 11.440633 47.777004 53 34 38
17.085323 11.528402 47.714005 53 33 38
17.062927 11.616011 47.651463 53 33 37
17.040535 11.703353 47.588924 53 32 37
17.017984 11.790315 47.525948 52 32 37
16.995110 11.876779 47.462063 52 31 36
16.971746 11.962624 47.396820 52 31 36
16.947733 12.047724 47.329758 52 31 35
16.922909 12.131954 47.260429 52 31 35
16.897127 12.215195 47.188431 52 32 35
16.870253 12.297327 47.113380 52 32 35
16.842171 12.378249 47.034954 51 33 35
16.812790 12.457870 46.952908 49 33 35
16.782057 12.536128 46.867081 48 33 34
16.749962 12.612988 46.777443 47 32 32
16.716537 12.688455 46.684101 46 32 32
16.681875 12.762571 46.587303 46 31 32
16.646124 12.835431 46.487457 46 31 32
16.609493 12.907176 46.385159 45 30 31
16.572248 12.978001 46.281147 45 30 31
16.534716 13.048149 46.176331 45 29 30
16.497263 13.117908 46.071735 44 29 30
16.460293 13.187604 45.968491 45 29 29
16.424236 13.257591 45.867794 45 29 29
16.389530 13.328243 45.770870 45 29 29
16.356606 13.399937 45.678925 45 30 30
16.325874 13.473044 45.593102 44 30 30
16.297712 13.547918 45.514454 44 30 30
16.272451 13.624881 45.443909 44 31 30
16.250362 13.704214 45.382217 44 31 30
16.231657 13.786156 45.329979 43 31 30
16.216475 13.870885 45.287579 43 31 31
16.204891 13.958532 45.255234 42 31 31
16.196915 14.049168 45.232956 41 31 31
16.192495 14.142816 45.220612 41 31 31
16.191532 14.239449 45.217922 40 30 31
16.193882 14.339004 45.224483 39 29 30
16.199368 14.441383 45.239807 38 28 29
16.207796 14.546470 45.263344 38 28 29
16.218954 14.654123 45.294502 38 28 29
16.232639 14.764212 45.332726 37 27 30
16.248644 14.876585 45.377419 37 27 30
16.266771 14.991110 45.428043 37 27 31
16.286839 15.107652 45.484085 37 27 31
16.308680 15.226090 45.545078 36 26 30
16.332140 15.346315 45.610600 35 26 29
16.357082 15.468223 45.680252 34 25 28
16.383379 15.591722 45.753696 34 25 28
16.410921 15.716727 45.830608 35 26 28
16.439600 15.843163 45.910706 36 27 28
16.469326 15.970956 45.993717 36 27 28
16.500013 16.100046 46.079414 36 27 28
16.531597 16.230385 46.167618 35 27 28
16.564026 16.361942 46.258186 35 27 27
16.597277 16.494703 46.351040 34 26 26
16.631348 16.628685 46.446190 34 26 25
16.666269 16.763935 46.543720 34 27 25
16.702112 16.900536 46.643818 34 27 25
16.738981 17.038614 46.746780 34 27 25
16.777023 17.178335 46.853016 35 27 25
18.214737 3.061074 50.563709 79 41 48
18.210424 3.169322 50.551739 80 42 49
18.205580 3.277422 50.538288 81 41 48
18.200312 3.385385 50.523663 81 41 48
18.194742 3.493228 50.508202 80 41 46
18.188990 3.600968 50.492233 79 40 45
18.183170 3.708625 50.476082 77 39 44
18.177399 3.816223 50.460056 76 39 44
18.171782 3.923785 50.444469 75 39 45
18.166410 4.031334 50.429558 74 39 46
18.161366 4.138894 50.415550 73 39 46
18.156706 4.246483 50.402615 73 39 46
18.152475 4.354119 50.390873 73 39 46
18.148703 4.461817 50.380398 73 39 46
18.145393 4.569587 50.371212 73 39 46
18.142542 4.677436 50.363300 72 38 45
18.140137 4.785367 50.356621 71 39 45
18.138147 4.893382 50.351097 71 39 45
18.136538 5.001479 50.346630 71 40 46
18.135279 5.109654 50.343132 70 39 45
18.134329 5.217904 50.340496 70 39 44
18.133656 5.326223 50.338627 70 39 44
18.133226 5.434608 50.337440 71 39 44
18.133015 5.543054 50.336849 71 39 44
18.132996 5.651557 50.336800 72 39 43
18.133146 5.760114 50.337215 72 38 42
18.133442 5.868720 50.338039 72 38 42
18.133862 5.977370 50.339199 71 38 42
18.134371 6.086055 50.340618 71 37 41
18.134939 6.194766 50.342190 70 36 41
18.135513 6.303487 50.343784 68 35 40
18.136040 6.412198 50.345249 68 35 39
18.136452 6.520873 50.346390 67 35 38
18.136669 6.629482 50.346996 67 35 38
18.136602 6.737989 50.346813 66 35 37
18.136164 6.846354 50.345592 65 34 37
18.135250 6.954531 50.343056 64 34 36
18.133764 7.062475 50.338928 63 33 36
18.131607 7.170136 50.332943 63 32 36
18.128695 7.277468 50.324856 62 32 36
18.124943 7.384422 50.314442 62 31 35
18.120283 7.490957 50.301506 61 31 35
18.114662 7.597034 50.285908 61 30 35
18.108044 7.702617 50.267532 61 29 34
18.100399 7.807680 50.246311 61 30 35
18.091717 7.912197 50.222206 62 31 35
18.081993 8.016149 50.195217 63 31 36
18.071236 8.119518 50.165352 63 32 36
18.059450 8.222292 50.132637 64 32 36
18.046646 8.324455 50.097092 65 33 37
18.032825 8.425989 50.058727 65 33 37
18.017984 8.526875 50.017525 64 33 37
18.002108 8.627089 49.973454 63 33 37
17.985172 8.726598 49.926445 62 33 36
17.967146 8.825368 49.876404 62 33 37
17.947985 8.923358 49.823212 62 33 37
17.927647 9.020526 49.766750 63 34 38
17.906082 9.116827 49.706890 63 35 38
17.883259 9.212221 49.643536 63 36 38
17.859150 9.306673 49.576611 63 36 39
17.833755 9.400158 49.506111 63 36 39
17.807095 9.492663 49.432102 63 36 39
17.779221 9.584197 49.354729 61 36 37
17.750221 9.674783 49.274223 60 35 36
17.720215 9.764466 49.190926 60 34 36
17.689348 9.853312 49.105244 61 35 37
17.657808 9.941410 49.017689 61 35 37
17.625792 10.028858 48.928810 61 35 37
17.593515 10.115774 48.839214 61 34 37
17.561199 10.202281 48.749504 60 34 37
17.529060 10.288505 48.660286 61 36 38
17.497305 10.374572 48.572132 62 38 40
17.466110 10.460594 48.485538 61 38 40
17.435638 10.546679 48.400948 59 36 39
17.406004 10.632914 48.318684 57 35 37
17.377298 10.719365 48.238998 54 34 36
17.349567 10.806080 48.162018 53 33 35
17.322826 10.893085 48.087788 52 32 35
17.297050 10.980384 48.016232 52 32 36
17.272186 11.067957 47.947208 53 33 36
17.248152 11.155771 47.880493 53 33 37
17.224848 11.243773 47.815800 52 33 37
17.202154 11.331898 47.752800 52 33 37
17.179934 11.420066 47.691116 51 33 36
17.158041 11.508188 47.630344 51 33 36
17.136324 11.596168 47.570061 52 32 36
17.114626 11.683900 47.509827 52 32 36
17.092785 11.771274 47.449196 52 31 35
17.070629 11.858168 47.387691 51 31 35
17.047995 11.944460 47.324856 51 31 35
17.024712 12.030025 47.260223 51 31 34
17.000616 12.114731 47.193336 51 31 34
16.975554 12.198455 47.123764 51 32 34
16.949385 12.281076 47.051121 51 32 34
16.921988 12.362488 46.975067 50 33 34
16.893263 12.442594 46.895329 49 33 34
16.863153 12.521326 46.811745 48 33 33
16.831642 12.598650 46.724266 47 32 32
16.798758 12.674561 46.632980 46 32 32
16.764589 12.749102 46.538132 46 32 32
16.729284 12.822362 46.440125 45 31 32
16.693050 12.894484 46.339542 44 30 31
16.656157 12.965655 46.237122 44 30 30
16.618929 13.036125 46.133781 44 30 30
16.581738 13.106178 46.030537 44 29 30
16.544994 13.176144 45.928543 43 29 29
16.509132 13.246375 45.828987 44 29 29
16.474596 13.317249 45.733116 44 29 29
16.441824 13.389148 45.642143 43 29 29
16.411234 13.462443 45.557228 42 29 30
16.383211 13.537495 45.479435 42 30 30
16.358095 13.614628 45.409710 42 30 30
16.336157 13.694126 45.348812 42 30 30
16.317617 13.776231 45.297348 42 30 31
16.302622 13.861127 45.255722 42 30 31
16.291250 13.948946 45.224152 42 30 31
16.283510 14.039761 45.202663 41 30 31
16.279358 14.133598 45.191143 40 29 31
16.278692 14.230432 45.189289 39 29 31
16.281374 14.330205 45.196735 38 29 30
16.287226 14.432819 45.212978 38 28 29
16.296055 14.538160 45.237488 38 28 29
16.307655 14.646095 45.269691 37 28 29
16.321825 14.756493 45.309025 37 27 29
16.338358 14.869210 45.354923 37 27 30
16.357063 14.984116 45.406849 37 26 31
16.377768 15.101087 45.464321 36 26 31
16.400305 15.220009 45.526886 35 25 30
16.424530 15.340776 45.594135 35 25 29
16.450312 15.463297 45.665707 34 25 28
16.477530 15.587484 45.741261 34 26 27
16.506077 15.713264 45.820507 35 26 28
16.535854 15.840562 45.903168 36 27 28
16.566769 15.969314 45.988987 36 27 28
16.598742 16.099461 46.077744 36 27 28
16.631706 16.230961 46.169254 36 27 28
16.665617 16.363781 46.263386 35 27 27
16.700439 16.497910 46.360054 34 27 26
16.736172 16.633360 46.459248 34 26 26
16.772844 16.770178 46.561050 33 27 25
16.810518 16.908440 46.665630 33 27 25
16.849298 17.048273 46.773285 33 27 25
18.306898 3.167159 50.517246 80 42 49
18.301023 3.275006 50.501034 80 41 48
18.294744 3.382709 50.483711 79 40 46
18.288189 3.490283 50.465622 78 40 46
18.281481 3.597750 50.447109 77 40 45
18.274740 3.705130 50.428509 76 39 44
18.268084 3.812448 50.410137 75 38 43
18.261620 3.919728 50.392303 73 39 44
18.255444 4.026994 50.375259 73 39 45
18.249634 4.134270 50.359226 72 39 46
18.244247 4.241575 50.344368 72 39 46
18.239338 4.348930 50.330818 72 38 46
18.234926 4.456348 50.318645 71 38 46
18.231024 4.563841 50.307873 70 37 44
18.227625 4.671417 50.298496 70 38 44
18.224712 4.779080 50.290459 70 38 43
18.222263 4.886833 50.283703 69 38 43
18.220245 4.994674 50.278130 68 38 43
18.218616 5.102600 50.273636 68 37 42
18.217342 5.210609 50.270123 67 37 41
18.216389 5.318696 50.267490 67 37 41
18.215719 5.426856 50.265640 68 38 41
18.215296 5.535084 50.264477 69 38 42
18.215097 5.643375 50.263927 70 38 43
18.215084 5.751723 50.263889 71 38 42
18.215231 5.860122 50.264294 71 38 42
18.215498 5.968563 50.265034 71 38 42
18.215851 6.077035 50.266003 70 37 42
18.216238 6.185523 50.267075 70 37 41
18.216602 6.294008 50.268082 69 36 40
18.216881 6.402467 50.268852 69 36 40
18.216995 6.510870 50.269161 68 35 39
18.216858 6.619184 50.268784 67 35 39
18.216375 6.727368 50.267452 67 35 38
18.215452 6.835382 50.264908 65 35 37
18.213987 6.943177 50.260860 64 34 37
18.211878 7.050706 50.255043 63 33 36
18.209030 7.157920 50.247189 62 32 35
18.205360 7.264771 50.237057 61 32 35
18.200790 7.371214 50.224449 61 31 34
18.195257 7.477208 50.209179 61 31 35
18.188715 7.582714 50.191124 60 30 34
18.181131 7.687703 50.170200 60 29 34
18.172487 7.792147 50.146347 60 29 34
18.162783 7.896026 50.119568 61 30 35
18.152021 7.999324 50.089870 62 31 35
18.140217 8.102030 50.057297 63 31 35
18.127388 8.204130 50.021896 64 32 36
18.113554 8.305617 49.983723 64 32 36
18.098726 8.406478 49.942806 64 32 36
18.082916 8.506700 49.899178 63 32 36
18.066118 8.606263 49.852821 62 32 36
18.048321 8.705146 49.803715 61 32 35
18.029501 8.803316 49.751781 60 32 35
18.009634 8.900745 49.696957 60 32 36
17.988680 8.997395 49.639137 61 33 36
17.966608 9.093228 49.578228 61 34 37
17.943386 9.188212 49.514149 61 35 37
17.918999 9.282315 49.446854 62 35 38
17.893450 9.375519 49.376350 62 35 38
17.866760 9.467814 49.302704 61 36 38
17.838978 9.559207 49.226040 60 35 37
17.810190 9.649725 49.146603 60 35 36
17.780504 9.739408 49.064682 60 34 36
17.750065 9.828320 48.980682 60 35 37
17.719032 9.916537 48.895050 61 35 37
17.687599 10.004161 48.808315 61 35 37
17.655968 10.091295 48.721027 60 34 37
17.624340 10.178058 48.633755 59 34 36
17.592918 10.264562 48.547047 60 36 37
17.561895 10.350928 48.461437 62 38 40
17.531441 10.437263 48.377399 61 37 40
17.501699 10.523665 48.295330 59 36 39
17.472788 10.610218 48.215549 57 34 37
17.444788 10.696984 48.138283 55 33 36
17.417740 10.784009 48.063648 53 32 35
17.391666 10.871319 47.991699 52 32 35
17.366541 10.958919 47.922367 52 32 36
17.342314 11.046790 47.855511 52 32 36
17.318911 11.134903 47.790928 51 32 35
17.296232 11.223209 47.728352 51 32 35
17.274168 11.311647 47.667465 50 32 35
17.252584 11.400141 47.607906 50 32 35
17.231340 11.488603 47.549282 50 32 35
17.210287 11.576941 47.491188 50 32 34
17.189270 11.665054 47.433193 51 31 34
17.168125 11.752828 47.374844 51 30 34
17.146685 11.840147 47.315678 50 30 33
17.124775 11.926885 47.255219 50 30 33
17.102226 12.012913 47.193001 50 30 33
17.078875 12.098104 47.128563 51 31 33
17.054556 12.182325 47.061455 50 32 33
17.029125 12.265456 46.991276 49 32 32
17.002451 12.347383 46.917671 48 32 32
16.974436 12.428009 46.840363 48 32 32
16.945011 12.507263 46.759167 47 32 32
16.914152 12.585099 46.674015 47 32 32
16.881891 12.661517 46.584991 45 31 31
16.848309 12.736551 46.492321 45 31 31
16.813547 12.810288 46.396397 45 31 31
16.777817 12.882868 46.297802 44 31 31
16.741383 12.954478 46.197262 43 30 30
16.704575 13.025362 46.095688 43 30 30
16.667761 13.095804 45.994106 43 29 30
16.631357 13.166134 45.893650 43 29 29
16.595800 13.236705 45.795532 43 29 28
16.561539 13.307895 45.700989 43 29 28
16.529018 13.380086 45.611252 42 29 29
16.498659 13.453652 45.527477 41 29 30
16.470852 13.528953 45.450741 41 29 29
16.445936 13.606317 45.381992 41 30 29
16.424202 13.686032 45.322010 41 30 30
16.405859 13.768339 45.271397 41 31 31
16.391068 13.853428 45.230583 41 31 31
16.379908 13.941430 45.199783 41 31 31
16.372391 14.032423 45.179039 41 30 31
16.368473 14.126433 45.168232 40 29 31
16.368065 14.223446 45.167107 40 29 31
16.371023 14.323399 45.175270 38 28 30
16.377180 14.426205 45.192257 37 28 30
16.386343 14.531751 45.217545 37 28 30
16.398312 14.639909 45.250568 37 27 29
16.412891 14.750558 45.290806 37 27 29
16.429884 14.863561 45.337692 36 27 30
16.449102 14.978795 45.390728 36 26 30
16.470381 15.096146 45.449444 36 25 30
16.493565 15.215506 45.513416 36 25 29
16.518513 15.336782 45.582260 35 26 29
16.545103 15.459888 45.655640 34 25 28
16.573225 15.584750 45.733238 35 26 27
16.602772 15.711296 45.814774 35 26 28
16.633654 15.839463 45.899986 36 27 28
16.665777 15.969191 45.988636 36 27 28
16.699066 16.100422 46.080494 36 27 28
16.733458 16.233118 46.175392 36 27 28
16.768894 16.367245 46.273178 35 27 27
16.805342 16.502785 46.373753 34 27 27
16.842794 16.639753 46.477104 33 27 26
16.881275 16.778189 46.583290 33 27 26
16.920837 16.918163 46.692463 33 27 26
16.961578 17.059792 46.804882 33 27 25
18.402948 3.164950 50.482006 80 42 49
18.396072 3.272548 50.463142 79 41 47
18.388813 3.379996 50.443230 77 40 45
18.381300 3.487309 50.422623 76 39 45
18.373665 3.594510 50.401676 76 39 44
18.366034 3.701621 50.380745 75 39 44
18.358526 3.808667 50.360146 74 38 43
18.351248 3.915673 50.340183 72 38 44
18.344299 4.022666 50.321117 71 38 45
18.337755 4.129668 50.303169 72 39 46
18.331680 4.236701 50.286503 72 39 46
18.326118 4.343783 50.271252 71 38 46
18.321100 4.450932 50.257481 70 37 45
18.316629 4.558157 50.245220 69 37 44
18.312708 4.665470 50.234463 69 37 43
18.309317 4.772874 50.225159 68 36 42
18.306431 4.880373 50.217239 68 36 41
18.304014 4.987967 50.210617 66 36 41
18.302034 5.095653 50.205185 65 36 40
18.300451 5.203428 50.200836 65 36 39
18.299223 5.311287 50.197472 65 36 39
18.298313 5.419227 50.194973 66 36 39
18.297684 5.527240 50.193249 67 37 40
18.297297 5.635321 50.192188 68 38 41
18.297113 5.743461 50.191685 69 38 42
18.297092 5.851650 50.191628 70 38 42
18.297195 5.959880 50.191906 70 38 42
18.297365 6.068133 50.192371 70 37 42
18.297548 6.176393 50.192875 69 37 41
18.297676 6.284636 50.193230 68 36 40
18.297672 6.392834 50.193218 68 36 40
18.297453 6.500956 50.192616 68 35 39
18.296926 6.608964 50.191174 67 35 39
18.295990 6.716815 50.188602 66 35 39
18.294546 6.824467 50.184643 65 35 38
18.292492 6.931869 50.179005 64 34 37
18.289724 7.038973 50.171413 63 33 36
18.286154 7.145730 50.161617 61 32 35
18.281694 7.252093 50.149387 60 32 35
18.276281 7.358019 50.134537 60 31 34
18.269852 7.463466 50.116901 60 31 34
18.262369 7.568400 50.096375 60 30 34
18.253809 7.672792 50.072891 60 30 34
18.244162 7.776620 50.046425 59 29 33
18.233431 7.879866 50.016991 60 30 34
18.221632 7.982517 49.984627 61 30 34
18.208792 8.084566 49.949406 62 31 35
18.194937 8.186007 49.911396 62 31 35
18.180092 8.286832 49.870674 63 32 35
18.164284 8.387038 49.827316 63 32 35
18.147532 8.486614 49.781361 62 32 35
18.129843 8.585549 49.732834 61 31 35
18.111217 8.683826 49.681744 60 31 34
18.091644 8.781423 49.628052 59 31 34
18.071106 8.878313 49.571709 59 32 34
18.049576 8.974469 49.512653 59 32 35
18.027037 9.069861 49.450821 59 33 36
18.003456 9.164457 49.386139 60 34 37
17.978836 9.258239 49.318604 60 35 37
17.953173 9.351186 49.248203 61 35 38
17.926495 9.443295 49.175022 60 35 38
17.898849 9.534574 49.099186 60 34 37
17.870314 9.625046 49.020908 59 34 36
17.840992 9.714752 48.940475 59 34 36
17.811014 9.803750 48.858242 60 34 37
17.780535 9.892116 48.774635 60 34 37
17.749729 9.979936 48.690128 61 35 37
17.718781 10.067311 48.605228 61 35 37
17.687878 10.154347 48.520462 60 35 37
17.657211 10.241154 48.436337 60 36 38
17.626957 10.327840 48.353344 61 37 39
17.597269 10.414504 48.271908 61 37 39
17.568291 10.501240 48.192413 59 36 39
17.540123 10.588123 48.115147 57 34 37
17.512844 10.675216 48.040318 56 33 36
17.486500 10.762559 47.968048 54 32 35
17.461102 10.850181 47.898380 52 31 35
17.436632 10.938083 47.831253 51 31 35
17.413046 11.026256 47.766552 51 31 35
17.390268 11.114666 47.704071 51 31 35
17.368214 11.203274 47.643574 50 33 36
17.346769 11.292019 47.584751 50 33 35
17.325815 11.380832 47.527271 49 32 34
17.305212 11.469628 47.470749 49 31 33
17.284815 11.558319 47.414799 49 31 33
17.264469 11.646805 47.358990 49 30 32
17.244017 11.734976 47.302883 49 29 32
17.223288 11.822716 47.246021 49 29 32
17.202110 11.909901 47.187927 48 30 31
17.180309 11.996399 47.128124 49 30 32
17.157715 12.082080 47.066143 48 31 32
17.134163 12.166815 47.001537 48 31 32
17.109501 12.250477 46.933887 48 31 32
17.083595 12.332950 46.862827 47 31 31
17.056341 12.414133 46.788063 46 32 31
17.027662 12.493950 46.709393 45 32 31
16.997534 12.572354 46.626747 46 31 31
16.965979 12.649339 46.540184 45 31 31
16.933073 12.724936 46.449917 45 31 31
16.898958 12.799228 46.356339 44 31 31
16.863838 12.872349 46.259998 44 30 31
16.827980 12.944488 46.161633 44 30 30
16.791706 13.015880 46.062130 43 30 30
16.755392 13.086810 45.962513 43 29 30
16.719450 13.157604 45.863918 42 29 29
16.684317 13.228616 45.767544 42 29 29
16.650446 13.300219 45.674629 42 29 29
16.618280 13.372794 45.586395 42 29 29
16.588249 13.446719 45.504013 41 29 29
16.560740 13.522348 45.428551 40 29 29
16.536100 13.600013 45.360966 40 29 29
16.514620 13.680002 45.302040 40 30 30
16.496519 13.762557 45.252388 40 30 30
16.481955 13.847869 45.212433 40 31 31
16.471010 13.936072 45.182415 40 31 31
16.463707 14.027247 45.162380 41 30 31
16.460007 14.121428 45.152225 40 29 31
16.459814 14.218596 45.151703 39 29 31
16.463003 14.318700 45.160446 38 28 30
16.469406 14.421658 45.178013 37 28 30
16.478838 14.527362 45.203888 36 27 30
16.491110 14.635696 45.237549 36 27 29
16.506031 14.746543 45.278477 36 27 28
16.523413 14.859780 45.326157 36 26 29
16.543081 14.975293 45.380116 36 26 29
16.564878 15.092978 45.439903 36 26 29
16.588657 15.212738 45.505138 36 26 29
16.614292 15.334492 45.575459 35 26 29
16.641668 15.458166 45.650551 35 26 28
16.670677 15.583691 45.730129 35 26 27
16.701227 15.711008 45.813931 35 26 27
16.733223 15.840055 45.901703 35 26 27
16.766582 15.970781 45.993214 35 26 27
16.801226 16.103130 46.088242 36 27 27
16.837084 16.237062 46.186607 35 27 27
16.874102 16.372541 46.288155 35 27 27
16.912235 16.509548 46.392757 34 27 27
16.951471 16.648088 46.500385 34 28 27
16.991817 16.788191 46.611065 33 27 26
17.033323 16.929924 46.724922 33 27 26
18.490749 3.270054 50.424683 76 41 46
18.482536 3.377252 50.402283 75 40 45
18.474098 3.484311 50.379272 75 40 45
18.465570 3.591253 50.356018 75 39 44
18.457081 3.698103 50.332867 74 39 44
18.448753 3.804886 50.310154 72 38 43
18.440697 3.911629 50.288181 71 38 44
18.433004 4.018356 50.267208 70 38 45
18.425762 4.125094 50.247456 70 38 46
18.419029 4.231863 50.229095 70 38 47
18.412849 4.338685 50.212242 69 37 45
18.407253 4.445574 50.196983 68 36 44
18.402246 4.552543 50.183331 68 36 43
18.397831 4.659603 50.171288 67 36 42
18.393986 4.766758 50.160801 67 36 41
18.390686 4.874014 50.151802 66 35 40
18.387896 4.981369 50.144196 65 35 40
18.385582 5.088822 50.137886 64 35 39
18.383701 5.196371 50.132755 63 35 38
18.382212 5.304010 50.128693 64 35 37
18.381069 5.411735 50.125580 65 35 38
18.380230 5.519536 50.123291 66 36 39
18.379654 5.627409 50.121719 67 37 40
18.379293 5.735342 50.120735 68 37 41
18.379097 5.843323 50.120201 69 37 42
18.379015 5.951338 50.119976 69 37 42
18.378983 6.059370 50.119888 69 37 42
18.378937 6.167396 50.119762 68 36 41
18.378801 6.275391 50.119392 67 36 40
18.378487 6.383322 50.118534 67 35 39
18.377903 6.491155 50.116943 67 35 39
18.376951 6.598848 50.114346 66 35 39
18.375526 6.706358 50.110466 65 35 39
18.373528 6.813638 50.105015 64 35 38
18.370850 6.920639 50.097713 62 34 37
18.367393 7.027310 50.088287 61 33 36
18.363070 7.133604 50.076496 59 32 35
18.357801 7.239474 50.062126 59 31 34
18.351521 7.344878 50.045002 59 31 34
18.344181 7.449777 50.024986 59 31 34
18.335745 7.554139 50.001980 59 31 34
18.326200 7.657938 49.975952 59 30 34
18.315546 7.761155 49.946899 60 30 34
18.303797 7.863775 49.914856 61 30 34
18.290976 7.965791 49.879890 61 31 34
18.277113 8.067197 49.842091 61 31 35
18.262249 8.167991 49.801552 61 31 35
18.246420 8.268174 49.758389 61 31 35
18.229660 8.367743 49.712681 61 31 35
18.211996 8.466695 49.664513 61 31 35
18.193451 8.565024 49.613937 61 31 34
18.174028 8.662718 49.560978 60 31 34
18.153736 8.759763 49.505638 59 31 33
18.132563 8.856138 49.447895 58 31 33
18.110495 8.951823 49.387714 58 32 34
18.087517 9.046794 49.325054 58 33 35
18.063616 9.141027 49.259880 58 33 36
18.038790 9.234506 49.192173 59 34 36
18.013044 9.327216 49.121967 59 34 37
17.986404 9.419156 49.049320 59 34 37
17.958923 9.510337 48.974377 59 34 37
17.930666 9.600780 48.897320 59 33 36
17.901735 9.690525 48.818424 59 33 36
17.872248 9.779625 48.738010 59 33 36
17.842346 9.868150 48.656467 59 33 36
17.812189 9.956181 48.574230 60 34 37
17.781948 10.043810 48.491764 61 35 38
17.751797 10.131134 48.409538 61 35 38
17.721909 10.218254 48.328030 61 36 38
17.692444 10.305271 48.247681 60 36 39
17.663548 10.392277 48.168880 60 36 39
17.635347 10.479355 48.091980 59 35 39
17.607943 10.566580 48.017246 57 34 38
17.581406 10.654007 47.944878 55 33 36
17.555775 10.741678 47.874981 54 31 35
17.531065 10.829616 47.807598 52 31 35
17.507261 10.917829 47.742683 51 30 34
17.484322 11.006305 47.680126 50 30 34
17.462177 11.095017 47.619740 50 32 35
17.440746 11.183927 47.561295 50 34 37
17.419928 11.272981 47.504524 50 33 36
17.399601 11.362111 47.449093 49 32 34
17.379635 11.451240 47.394646 48 32 33
17.359892 11.540282 47.340809 48 31 32
17.340219 11.629140 47.287159 48 30 31
17.320463 11.717710 47.233280 48 29 30
17.300449 11.805871 47.178707 49 29 31
17.280010 11.893505 47.122971 48 29 31
17.258970 11.980481 47.065594 48 30 31
17.237156 12.066668 47.006104 47 31 31
17.214397 12.151931 46.944038 46 31 31
17.190542 12.236147 46.878986 46 31 31
17.165449 12.319194 46.810558 46 31 31
17.139008 12.400970 46.738449 45 31 31
17.111141 12.481395 46.662457 44 32 31
17.081814 12.560419 46.582481 44 31 31
17.051048 12.638032 46.498581 44 31 31
17.018913 12.714259 46.410946 44 31 31
16.985548 12.789184 46.319958 44 31 31
16.951149 12.862932 46.226154 44 30 31
16.915983 12.935688 46.130257 44 30 30
16.880367 13.007685 46.033131 43 30 30
16.844677 13.079205 45.935802 42 29 30
16.809320 13.150566 45.839386 42 29 30
16.774734 13.222119 45.745068 42 29 30
16.741373 13.294238 45.654091 41 29 30
16.709677 13.367296 45.567654 42 30 30
16.680073 13.441669 45.486927 41 29 30
16.652956 13.517711 45.412975 40 29 30
16.628672 13.595752 45.346752 40 29 30
16.607512 13.676078 45.289047 40 30 29
16.589697 13.758932 45.240467 40 30 29
16.575392 13.844506 45.201454 40 31 30
16.564680 13.932937 45.172249 40 31 31
16.557589 14.024306 45.152908 40 30 31
16.554087 14.118652 45.143356 40 29 31
16.554085 14.215965 45.143353 39 29 31
16.557459 14.316196 45.152554 38 27 30
16.564056 14.419273 45.170544 36 27 30
16.573702 14.525100 45.196846 35 27 29
16.586210 14.633564 45.230957 35 26 29
16.601408 14.744566 45.272404 35 26 28
16.619120 14.857991 45.320702 35 26 28
16.639177 14.973739 45.375404 35 26 28
16.661440 15.091718 45.436115 36 26 29
16.685776 15.211847 45.502476 36 26 29
16.712063 15.334057 45.574165 36 26 28
16.740200 15.458282 45.650894 36 26 27
16.770092 15.584467 45.732407 35 26 27
16.801647 15.712561 45.818459 35 26 26
16.834778 15.842507 45.908806 35 26 26
16.869402 15.974259 46.003231 35 26 26
16.905439 16.107763 46.101505 35 26 27
16.942818 16.242977 46.203438 35 26 27
16.981472 16.379862 46.308846 35 27 28
17.021351 16.518389 46.417599 34 27 27
17.062431 16.658556 46.529625 34 27 27
17.104706 16.800381 46.644909 34 28 27
17.148212 16.943918 46.763550 34 28 27
18.575951 3.374484 50.360973 75 40 45
18.566618 3.481296 50.335674 75 40 45
18.557230 3.587987 50.310219 74 39 44
18.547916 3.694584 50.284969 73 38 43
18.538799 3.801112 50.260254 71 38 43
18.529993 3.907599 50.236382 70 38 45
18.521597 4.014072 50.213615 70 38 46
18.513685 4.120555 50.192173 69 38 46
18.506327 4.227072 50.172218 68 37 46
18.499563 4.333642 50.153881 68 36 44
18.493420 4.440282 50.137230 67 35 43
18.487909 4.547005 50.122288 67 35 42
18.483027 4.653822 50.109051 66 35 41
18.478754 4.760740 50.097469 66 35 41
18.475067 4.867762 50.087471 65 35 40
18.471930 4.974888 50.078964 64 35 39
18.469299 5.082118 50.071835 63 35 38
18.467138 5.189449 50.065975 62 34 37
18.465397 5.296875 50.061256 63 34 37
18.464031 5.404390 50.057552 64 35 37
18.462990 5.511986 50.054729 65 36 38
18.462223 5.619655 50.052654 65 36 39
18.461679 5.727382 50.051174 66 36 40
18.461294 5.835154 50.050133 67 36 40
18.461014 5.942955 50.049374 68 36 41
18.460764 6.050763 50.048698 68 36 41
18.460468 6.158552 50.047894 67 36 41
18.460041 6.266294 50.046734 66 35 40
18.459389 6.373952 50.044964 65 35 39
18.458412 6.481489 50.042316 65 34 38
18.457006 6.588862 50.038509 65 35 39
18.455065 6.696023 50.033245 64 35 38
18.452482 6.802926 50.026241 62 35 37
18.449154 6.909519 50.017216 61 34 37
18.444983 7.015753 50.005909 60 34 36
18.439884 7.121580 49.992085 59 32 35
18.433783 7.226954 49.975548 58 32 35
18.426622 7.331836 49.956135 58 31 35
18.418362 7.436188 49.933735 59 31 35
18.408970 7.539983 49.908279 59 31 35
18.398445 7.643195 49.879742 60 31 35
18.386791 7.745810 49.848148 61 31 35
18.374035 7.847817 49.813564 62 32 35
18.360203 7.949210 49.776066 62 32 35
18.345343 8.049990 49.735779 62 32 35
18.329496 8.150158 49.692818 61 31 35
18.312712 8.249717 49.647312 61 31 35
18.295031 8.348671 49.599377 60 31 35
18.276489 8.447021 49.549114 60 31 35
18.257120 8.544767 49.496601 59 30 34
18.236940 8.641903 49.441891 58 31 33
18.215961 8.738419 49.385014 57 31 33
18.194183 8.834301 49.325970 57 31 33
18.171604 8.929537 49.264759 56 31 33
18.148216 9.024106 49.201355 57 32 34
18.124018 9.117992 49.135746 57 33 35
18.099005 9.211183 49.067936 57 33 36
18.073195 9.303671 48.997963 58 33 36
18.046612 9.395454 48.925896 58 33 36
18.019304 9.486546 48.851864 58 33 37
17.991341 9.576968 48.776047 59 33 37
17.962807 9.666758 48.698692 59 32 37
17.933819 9.755965 48.620102 58 32 36
17.904501 9.844654 48.540619 59 32 36
17.875004 9.932899 48.460648 59 33 37
17.845478 10.020785 48.380604 60 34 37
17.816088 10.108402 48.300922 60 35 38
17.786983 10.195840 48.222019 60 36 38
17.758320 10.283193 48.144310 60 36 39
17.730227 10.370543 48.068146 60 36 39
17.702822 10.457972 47.993847 59 35 38
17.676191 10.545544 47.921654 56 33 37
17.650406 10.633312 47.851746 54 32 35
17.625502 10.721315 47.784229 54 31 35
17.601494 10.809578 47.719139 52 30 34
17.578367 10.898107 47.656441 51 30 34
17.556082 10.986892 47.596027 50 31 35
17.534582 11.075912 47.537735 50 32 36
17.513784 11.165128 47.481350 50 34 37
17.493595 11.254494 47.426617 50 34 36
17.473904 11.343946 47.373234 49 33 34
17.454582 11.433411 47.320850 48 33 33
17.435501 11.522807 47.269119 47 32 31
17.416510 11.612041 47.217632 47 31 30
17.397453 11.701011 47.165970 47 29 30
17.378170 11.789602 47.113689 48 29 30
17.358486 11.877694 47.060326 48 30 30
17.338223 11.965157 47.005390 47 30 30
17.317211 12.051862 46.948425 47 31 30
17.295275 12.137671 46.888954 46 31 31
17.272263 12.222464 46.826565 45 31 32
17.248024 12.306114 46.760857 45 31 31
17.222450 12.388518 46.691521 44 31 31
17.195457 12.469595 46.618340 43 31 31
17.167006 12.549290 46.541206 43 31 31
17.137110 12.627588 46.460155 43 31 30
17.105839 12.704515 46.375378 44 31 31
17.073322 12.780145 46.287224 44 31 31
17.039757 12.854603 46.196224 45 31 31
17.005400 12.928067 46.103077 44 30 31
16.970568 13.000767 46.008648 43 30 31
16.935627 13.072973 45.913918 42 29 31
16.900986 13.145005 45.820004 42 29 31
16.867075 13.217206 45.728069 42 29 30
16.834345 13.289941 45.639336 41 30 31
16.803234 13.363582 45.554993 41 30 31
16.774170 13.438498 45.476196 41 30 31
16.747543 13.515042 45.404011 40 29 31
16.723701 13.593538 45.339371 40 29 30
16.702930 13.674271 45.283058 40 29 30
16.685461 13.757482 45.235699 40 30 29
16.671452 13.843361 45.197716 40 30 29
16.660997 13.932051 45.169376 40 30 29
16.654125 14.023635 45.150745 40 30 29
16.650810 14.118154 45.141758 39 29 29
16.650974 14.215604 45.142204 39 28 29
16.654503 14.315948 45.151768 37 28 30
16.661251 14.419120 45.170063 36 27 29
16.671057 14.525035 45.196648 35 26 29
16.683748 14.633595 45.231052 34 26 28
16.699167 14.744713 45.272858 33 26 28
16.717148 14.858288 45.321606 34 26 28
16.737547 14.974235 45.376907 35 26 28
16.760229 15.092478 45.438400 35 26 28
16.785082 15.212952 45.505775 35 27 28
16.811995 15.335597 45.578743 36 27 27
16.840878 15.460365 45.657047 36 26 27
16.871647 15.587212 45.740463 35 26 26
16.904217 15.716094 45.828762 35 26 25
16.938503 15.846963 45.921719 35 26 25
16.974426 15.979773 46.019108 35 26 26
17.011902 16.114473 46.120708 35 26 27
17.050852 16.251017 46.226303 34 26 27
17.091202 16.389357 46.335693 35 27 27
17.132889 16.529461 46.448715 34 27 27
17.175875 16.671312 46.565254 34 27 27
17.220139 16.814913 46.685253 35 29 28
18.658899 3.478271 50.291943 74 40 45
18.648682 3.584719 50.264400 73 39 44
18.638573 3.691071 50.237156 72 39 44
18.628702 3.797353 50.210548 70 38 44
18.619181 3.903594 50.184887 69 38 45
18.610107 4.009821 50.160435 69 38 47
18.601564 4.116059 50.137405 68 38 46
18.593611 4.222332 50.115967 67 36 44
18.586292 4.328661 50.096241 66 34 43
18.579638 4.435063 50.078304 66 34 42
18.573650 4.541551 50.062168 66 35 42
18.568333 4.648137 50.047832 66 35 41
18.563662 4.754827 50.035244 65 35 40
18.559612 4.861626 50.024330 65 35 40
18.556149 4.968534 50.014996 64 34 38
18.553226 5.075550 50.007118 63 34 37
18.550802 5.182671 50.000584 62 34 37
18.548826 5.289892 49.995255 62 34 36
18.547245 5.397204 49.990997 63 34 37
18.546007 5.504601 49.987656 64 35 37
18.545052 5.612068 49.985085 65 35 38
18.544319 5.719594 49.983112 65 35 38
18.543743 5.827159 49.981556 65 36 39
18.543253 5.934745 49.980236 66 36 39
18.542767 6.042328 49.978928 66 35 40
18.542202 6.149878 49.977402 66 35 40
18.541462 6.257363 49.975410 65 35 40
18.540449 6.364745 49.972679 65 35 38
18.539053 6.471982 49.968914 64 34 38
18.537169 6.579030 49.963837 63 35 38
18.534685 6.685839 49.957142 62 35 37
18.531492 6.792359 49.948540 61 34 37
18.527493 6.898542 49.937756 60 34 36
18.522589 7.004336 49.924538 59 34 36
18.516699 7.109695 49.908665 58 33 35
18.509758 7.214576 49.889954 58 32 35
18.501709 7.318939 49.868263 59 31 35
18.492523 7.422751 49.843506 59 31 35
18.482182 7.525985 49.815628 59 31 35
18.470684 7.628623 49.784641 60 31 35
18.458048 7.730649 49.750580 61 32 35
18.444302 7.832057 49.713531 62 32 36
18.429489 7.932847 49.673607 62 32 36
18.413658 8.033021 49.630936 62 32 36
18.396864 8.132584 49.585667 61 31 35
18.379156 8.231543 49.537941 60 31 35
18.360590 8.329907 49.487900 60 31 34
18.341209 8.427680 49.435658 59 31 34
18.321051 8.524867 49.381329 59 30 34
18.300146 8.621468 49.324978 58 30 33
18.278511 8.717479 49.266670 57 31 33
18.256159 8.812890 49.206421 57 30 33
18.233093 8.907695 49.144253 56 30 32
18.209318 9.001879 49.080170 56 31 33
18.184834 9.095433 49.014175 56 32 34
18.159647 9.188348 48.946293 56 32 35
18.133780 9.280621 48.876568 57 32 36
18.107256 9.372253 48.805077 57 33 36
18.080122 9.463258 48.731941 58 33 37
18.052441 9.553659 48.657333 59 33 37
18.024302 9.643493 48.581490 59 32 37
17.995802 9.732804 48.504673 58 32 35
17.967060 9.821652 48.427204 58 32 36
17.938211 9.910107 48.349445 58 32 36
17.909395 9.998245 48.271778 59 33 37
17.880756 10.086148 48.194588 60 35 38
17.852436 10.173901 48.118256 60 36 38
17.824570 10.261584 48.043148 60 36 39
17.797279 10.349279 47.969585 60 37 39
17.770668 10.437057 47.897861 59 36 38
17.744818 10.524976 47.828186 56 33 36
17.719793 10.613089 47.760738 54 31 34
17.695625 10.701429 47.695595 53 30 34
17.672329 10.790021 47.632805 52 31 34
17.649891 10.878872 47.572330 52 31 35
17.628277 10.967974 47.514072 50 31 35
17.607431 11.057306 47.457882 50 32 36
17.587280 11.146839 47.403572 50 33 37
17.567736 11.236524 47.350895 50 33 36
17.548693 11.326305 47.299564 49 33 34
17.530031 11.416114 47.249264 48 32 32
17.511623 11.505873 47.199650 47 32 31
17.493324 11.595490 47.150330 47 31 30
17.474987 11.684869 47.100903 47 30 30
17.456446 11.773897 47.050930 47 30 30
17.437532 11.862456 46.999950 47 30 30
17.418070 11.950418 46.947491 46 30 30
17.397884 12.037656 46.893085 46 30 30
17.376804 12.124033 46.836266 46 30 31
17.354668 12.209423 46.776604 45 30 31
17.331331 12.293705 46.713703 44 30 31
17.306677 12.376772 46.647251 43 30 31
17.280617 12.458539 46.577011 43 30 31
17.253111 12.538955 46.502876 42 30 31
17.224167 12.617994 46.424862 43 31 31
17.193850 12.695685 46.343143 43 31 31
17.162283 12.772094 46.258060 44 31 31
17.129660 12.847342 46.170132 44 31 31
17.096226 12.921600 46.080017 44 30 31
17.062300 12.995094 45.988575 44 30 31
17.028234 13.068088 45.896759 43 30 31
16.994436 13.140891 45.805660 43 29 31
16.961332 13.213841 45.716431 42 29 31
16.929359 13.287296 45.630253 42 30 31
16.898956 13.361622 45.548313 42 30 31
16.870546 13.437180 45.471733 41 30 31
16.844513 13.514315 45.401566 40 29 31
16.821199 13.593347 45.338730 40 29 30
16.800900 13.674558 45.284012 40 29 30
16.783834 13.758187 45.238018 39 30 28
16.770172 13.844425 45.201191 39 29 27
16.760004 13.933412 45.173786 39 29 27
16.753366 14.025234 45.155899 39 29 27
16.750242 14.119941 45.147472 38 29 28
16.750559 14.217533 45.148327 38 28 28
16.754215 14.317982 45.158184 37 28 28
16.761078 14.421233 45.176682 36 27 28
16.771000 14.527213 45.203426 35 27 28
16.783827 14.635842 45.237999 34 27 28
16.799416 14.747045 45.280018 33 26 28
16.817621 14.860740 45.329086 33 26 28
16.838314 14.976858 45.384857 34 26 28
16.861378 15.095341 45.447021 34 26 27
16.886713 15.216139 45.515312 35 27 26
16.914232 15.339211 45.589481 35 27 26
16.943851 15.464520 45.669315 35 27 25
16.975496 15.592032 45.754608 35 26 25
17.009092 15.721718 45.845161 35 26 24
17.044561 15.853535 45.940762 35 26 25
17.081816 15.987436 46.041180 35 26 25
17.120775 16.123375 46.146183 35 26 27
17.161348 16.261295 46.255543 34 26 27
17.203451 16.401146 46.369022 34 26 27
17.247007 16.542881 46.486423 34 26 27
17.291958 16.686466 46.607582 34 26 27
18.739971 3.581459 50.218678 72 39 45
18.729101 3.687573 50.189545 71 38 44
18.718506 3.793617 50.161152 69 38 44
18.708300 3.899620 50.133804 68 37 45
18.698584 4.005610 50.107765 68 38 46
18.689432 4.111613 50.083244 67 37 46
18.680916 4.217652 50.060421 65 35 44
18.673075 4.323750 50.039410 64 34 42
18.665936 4.429924 50.020279 64 34 42
18.659504 4.536188 50.003040 65 35 41
18.653778 4.642552 49.987698 65 35 41
18.648739 4.749025 49.974194 64 35 40
18.644354 4.855611 49.962444 64 35 39
18.640587 4.962310 49.952351 63 34 38
18.637394 5.069122 49.943790 62 34 37
18.634724 5.176043 49.936638 61 33 36
18.632528 5.283067 49.930752 61 33 36
18.630743 5.390184 49.925972 62 34 36
18.629314 5.497386 49.922138 63 34 36
18.628172 5.604658 49.919079 64 34 37
18.627251 5.711984 49.916611 64 35 37
18.626474 5.819345 49.914532 64 35 37
18.625765 5.926717 49.912628 65 35 38
18.625031 6.034074 49.910660 65 35 38
18.624180 6.141385 49.908382 64 34 39
18.623110 6.248611 49.905514 63 34 39
18.621714 6.355714 49.901772 62 34 38
18.619879 6.462649 49.896858 62 34 37
18.617495 6.569368 49.890465 62 34 37
18.614447 6.675822 49.882301 61 34 37
18.610630 6.781961 49.872070 61 34 36
18.605944 6.887733 49.859512 60 34 36
18.600294 6.993090 49.844372 59 34 36
18.593607 7.097984 49.826450 58 33 35
18.585819 7.202376 49.805584 58 32 35
18.576891 7.306229 49.781658 58 32 35
18.566790 7.409510 49.754589 59 31 35
18.555510 7.512197 49.724358 60 31 35
18.543058 7.614274 49.690998 60 31 36
18.529463 7.715729 49.654560 61 32 36
18.514759 7.816559 49.615158 62 32 36
18.498995 7.916767 49.572918 62 33 36
18.482231 8.016358 49.527992 62 32 36
18.464525 8.115342 49.480545 61 32 35
18.445938 8.213729 49.430737 60 31 35
18.426525 8.311529 49.378716 59 31 34
18.406345 8.408753 49.324635 59 31 34
18.385439 8.505408 49.268612 59 30 34
18.363842 8.601500 49.210735 58 30 33
18.341581 8.697026 49.151085 57 30 33
18.318680 8.791987 49.089714 57 30 33
18.295151 8.886380 49.026661 56 30 32
18.271000 8.980195 48.961945 56 31 32
18.246239 9.073427 48.895592 55 31 33
18.220882 9.166075 48.827644 56 31 34
18.194950 9.258135 48.758148 56 32 35
18.168474 9.349616 48.687199 56 32 36
18.141499 9.440532 48.614910 57 32 36
18.114088 9.530907 48.541454 58 32 36
18.086317 9.620773 48.467037 58 32 36
18.058281 9.710177 48.391907 57 32 35
18.030090 9.799171 48.316360 58 32 35
18.001865 9.887822 48.240723 58 32 36
17.973732 9.976198 48.165333 59 33 36
17.945822 10.064374 48.090546 59 34 37
17.918264 10.152428 48.016697 59 35 38
17.891182 10.240434 47.944122 59 36 39
17.864681 10.328465 47.873108 60 36 39
17.838858 10.416583 47.803905 58 35 38
17.813787 10.504848 47.736721 56 33 35
17.789522 10.593303 47.671696 54 31 34
17.766096 10.681982 47.608921 53 31 34
17.743521 10.770906 47.548424 53 31 34
17.721785 10.860085 47.490177 53 31 35
17.700855 10.949512 47.434090 52 32 35
17.680679 11.039166 47.380024 51 32 35
17.661194 11.129023 47.327808 50 33 36
17.642313 11.219038 47.277210 50 33 36
17.623936 11.309160 47.227966 49 33 34
17.605949 11.399323 47.179768 48 33 32
17.588234 11.489453 47.132294 47 32 31
17.570648 11.579466 47.085167 46 32 30
17.553047 11.669263 47.037998 46 32 30
17.535269 11.758739 46.990360 47 32 31
17.517147 11.847778 46.941795 47 31 31
17.498508 11.936255 46.891846 46 31 30
17.479176 12.024039 46.840042 45 31 30
17.458979 12.111000 46.785915 45 30 31
17.437756 12.197011 46.729046 44 30 31
17.415363 12.281950 46.669037 43 30 31
17.391678 12.365712 46.605568 42 30 31
17.366610 12.448210 46.538391 43 30 31
17.340118 12.529388 46.467400 42 30 31
17.312202 12.609224 46.392590 43 31 30
17.282925 12.687737 46.314133 43 31 31
17.252403 12.764994 46.232346 44 31 31
17.220823 12.841106 46.147720 44 30 31
17.188431 12.916244 46.060913 44 30 31
17.155527 12.990620 45.972740 44 29 31
17.122463 13.064494 45.884140 44 29 31
17.089636 13.138168 45.796169 43 29 31
17.057463 13.211969 45.709953 43 29 30
17.026375 13.286246 45.626644 43 30 30
16.996803 13.361354 45.547398 43 30 30
16.969160 13.437650 45.473324 42 29 30
16.943829 13.515468 45.405437 40 29 30
16.921143 13.595120 45.344646 40 29 30
16.901394 13.676887 45.291725 40 29 29
16.884804 13.761001 45.247269 39 29 27
16.871540 13.847651 45.211723 38 29 26
16.861698 13.936977 45.185349 38 29 26
16.855320 14.029073 45.168255 38 28 26
16.852392 14.123986 45.160408 38 28 26
16.852858 14.221730 45.161659 37 28 26
16.856625 14.322285 45.171753 37 28 26
16.863577 14.425608 45.190384 35 28 27
16.873585 14.531641 45.217205 34 27 28
16.886509 14.640319 45.251835 33 27 28
16.902227 14.751586 45.293961 33 26 27
16.920614 14.865377 45.343231 33 26 27
16.941563 14.981646 45.399364 33 26 27
16.964973 15.100350 45.462105 33 26 26
16.990768 15.221460 45.531227 34 26 25
17.018873 15.344950 45.606541 34 26 25
17.049221 15.470800 45.687862 35 26 24
17.081747 15.598990 45.775024 35 26 24
17.116383 15.729497 45.867844 35 26 24
17.153055 15.862285 45.966118 34 26 24
17.191681 15.997313 46.069622 35 26 25
17.232162 16.134529 46.178108 35 26 26
17.274410 16.273872 46.291321 34 26 27
17.318321 16.415283 46.408989 34 26 27
17.363802 16.558697 46.530869 34 26 27
17.410774 16.704067 46.656742 33 26 27
18.819546 3.684098 50.142258 69 38 44
18.808252 3.789913 50.112175 68 37 44
18.797392 3.895687 50.083233 67 37 45
18.787058 4.001449 50.055702 67 37 45
18.777332 4.107224 50.029789 66 37 44
18.768280 4.213039 50.005669 65 35 43
18.759943 4.318915 49.983456 64 34 42
18.752346 4.424871 49.963219 63 34 41
18.745499 4.530919 49.944969 63 35 40
18.739391 4.637073 49.928699 63 35 40
18.734007 4.743339 49.914352 63 35 39
18.729311 4.849721 49.901844 62 35 38
18.725264 4.956222 49.891060 61 34 37
18.721819 5.062839 49.881882 61 33 36
18.718922 5.169567 49.874165 60 32 35
18.716518 5.276401 49.867756 60 33 35
18.714542 5.383331 49.862492 61 33 35
18.712927 5.490344 49.858189 62 34 36
18.711601 5.597425 49.854656 63 34 36
18.710489 5.704555 49.851692 64 35 37
18.709509 5.811714 49.849083 64 35 37
18.708570 5.918875 49.846581 63 35 37
18.707577 6.026008 49.843933 63 34 37
18.706427 6.133077 49.840870 62 34 38
18.705009 6.240045 49.837097 62 33 38
18.703217 6.346868 49.832317 61 33 37
18.700928 6.453500 49.826218 61 34 36
18.698029 6.559892 49.818497 61 34 36
18.694405 6.665991 49.808838 60 34 36
18.689953 6.771749 49.796978 60 34 35
18.684570 6.877114 49.782639 59 34 35
18.678175 6.982038 49.765594 59 33 35
18.670692 7.086475 49.745663 58 33 34
18.662067 7.190387 49.722683 58 32 34
18.652267 7.293740 49.696571 58 31 34
18.641270 7.396505 49.667267 59 31 35
18.629074 7.498662 49.634777 60 30 35
18.615700 7.600198 49.599140 61 31 36
18.601177 7.701105 49.560448 61 32 36
18.585552 7.801382 49.518818 62 33 37
18.568882 7.901034 49.474400 63 33 37
18.551229 8.000072 49.427364 62 33 36
18.532658 8.098505 49.377884 61 32 35
18.513235 8.196348 49.326134 60 32 35
18.493025 8.293614 49.272289 59 31 34
18.472086 8.390318 49.216496 58 31 34
18.450470 8.486470 49.158905 58 30 33
18.428219 8.582077 49.099617 57 30 33
18.405365 8.677146 49.038731 57 30 33
18.381939 8.771678 48.976315 57 30 32
18.357960 8.865674 48.912426 56 30 32
18.333447 8.959134 48.847115 56 30 32
18.308414 9.052054 48.780415 55 30 32
18.282879 9.144438 48.712383 55 31 34
18.256872 9.236287 48.643089 55 31 35
18.230423 9.327613 48.572617 56 32 35
18.203579 9.418430 48.501095 56 33 36
18.176401 9.508764 48.428684 57 32 36
18.148964 9.598650 48.355583 57 33 35
18.121355 9.688128 48.282024 57 32 35
18.093674 9.777248 48.208267 57 32 35
18.066031 9.866074 48.134617 58 32 35
18.038542 9.954665 48.061375 58 33 36
18.011326 10.043095 47.988861 58 34 37
17.984497 10.131429 47.917381 58 35 38
17.958170 10.219740 47.847237 58 35 38
17.932434 10.308089 47.778667 58 35 38
17.907383 10.396539 47.711918 57 35 37
17.883078 10.485140 47.647163 56 33 35
17.859568 10.573932 47.584522 54 32 34
17.836884 10.662948 47.524086 53 31 34
17.815035 10.752207 47.465870 53 31 34
17.794012 10.841718 47.409855 53 32 34
17.773779 10.931474 47.355953 52 32 34
17.754293 11.021461 47.304031 51 32 35
17.735493 11.111652 47.253937 50 33 35
17.717295 11.202010 47.205452 49 33 34
17.699606 11.292484 47.158325 48 33 33
17.682322 11.383015 47.112270 48 33 32
17.665319 11.473530 47.066971 47 33 31
17.648470 11.563950 47.022079 47 33 31
17.631624 11.654180 46.977200 46 33 30
17.614634 11.744119 46.931927 47 33 31
17.597326 11.833649 46.885815 46 32 31
17.579535 11.922652 46.838409 46 31 30
17.561083 12.011000 46.789246 45 31 30
17.541800 12.098562 46.737869 44 30 30
17.521524 12.185213 46.683849 43 30 31
17.500114 12.270835 46.626804 42 30 31
17.477442 12.355319 46.566399 42 30 31
17.453423 12.438582 46.502399 42 30 31
17.428001 12.520564 46.434673 43 30 31
17.401186 12.601243 46.363224 43 30 30
17.373028 12.680634 46.288200 43 30 30
17.343645 12.758799 46.209911 44 30 31
17.313210 12.835847 46.128819 44 30 31
17.281961 12.911940 46.045567 44 30 31
17.250195 12.987282 45.960930 44 30 31
17.218256 13.062129 45.875832 44 29 31
17.186523 13.136765 45.791279 43 29 31
17.155405 13.211513 45.708374 43 29 31
17.125328 13.286708 45.628235 43 30 30
17.096708 13.362699 45.551979 43 29 30
17.069948 13.439824 45.480682 42 28 29
17.045422 13.518414 45.415337 40 28 29
17.023464 13.598774 45.356834 40 28 28
17.004354 13.681172 45.305916 40 29 28
16.988314 13.765840 45.263180 39 29 27
16.975508 13.852962 45.229061 38 28 26
16.966036 13.942677 45.203823 38 28 25
16.959948 14.035082 45.187603 37 27 24
16.957235 14.130231 45.180374 37 27 24
16.957855 14.228144 45.182026 37 27 24
16.961727 14.328813 45.192341 36 28 24
16.968752 14.432207 45.211060 35 28 25
16.978821 14.538287 45.237885 34 28 26
16.991812 14.647003 45.272499 33 27 27
17.007627 14.758321 45.314640 33 27 27
17.026165 14.872195 45.364029 33 27 27
17.047337 14.988600 45.420437 32 27 26
17.071070 15.107514 45.483673 33 27 26
17.097303 15.228929 45.553566 33 26 25
17.125980 15.352834 45.629971 33 26 24
17.157051 15.479230 45.712757 34 26 24
17.190462 15.608108 45.801781 34 26 23
17.226154 15.739452 45.896877 35 26 24
17.264053 15.873237 45.997852 34 26 24
17.304079 16.009422 46.104492 34 26 24
17.346127 16.147951 46.216522 34 25 25
17.390091 16.288759 46.333664 34 25 26
17.435858 16.431770 46.455605 33 25 27
17.483313 16.576908 46.582043 33 25 27
18.897995 3.786250 50.063740 66 37 43
18.886499 3.891802 50.033283 66 37 43
18.875572 3.997342 50.004337 65 36 43
18.865295 4.102900 49.977112 64 36 42
18.855730 4.208498 49.951771 64 35 42
18.846920 4.314161 49.928432 63 34 41
18.838890 4.419906 49.907162 62 34 40
18.831650 4.525749 49.887978 61 35 40
18.825186 4.631701 49.870853 61 35 40
18.819479 4.737768 49.855736 61 35 39
18.814491 4.843956 49.842525 61 35 38
18.810186 4.950267 49.831116 60 34 36
18.806507 5.056697 49.821373 60 32 35
18.803400 5.163242 49.813141 60 32 35
18.800798 5.269893 49.806248 60 32 35
18.798637 5.376640 49.800522 61 33 35
18.796843 5.483470 49.795773 62 34 35
18.795336 5.590365 49.791779 62 34 36
18.794035 5.697305 49.788330 63 34 36
18.792841 5.804263 49.785172 63 34 36
18.791668 5.911214 49.782063 62 34 36
18.790405 6.018123 49.778713 62 34 37
18.788946 6.124953 49.774849 62 34 37
18.787172 6.231663 49.770153 61 34 37
18.784969 6.338207 49.764313 61 33 37
18.782215 6.444537 49.757019 60 33 36
18.778793 6.550603 49.747955 60 34 35
18.774590 6.656352 49.736816 59 33 35
18.769497 6.761734 49.723328 59 33 34
18.763422 6.866697 49.707237 59 33 34
18.756285 6.971197 49.688328 58 33 34
18.748018 7.075188 49.666424 58 32 34
18.738575 7.178635 49.641411 58 31 34
18.727926 7.281504 49.613201 58 31 34
18.716061 7.383772 49.581764 59 30 35
18.702984 7.485421 49.547123 60 30 35
18.688725 7.586439 49.509346 61 31 36
18.673319 7.686822 49.468533 61 32 36
18.656820 7.786574 49.424828 62 33 37
18.639292 7.885702 49.378395 62 33 37
18.620800 7.984216 49.329407 62 33 37
18.601418 8.082132 49.278057 61 33 36
18.581213 8.179464 49.224529 60 32 35
18.560253 8.276230 49.169006 59 31 34
18.538603 8.372445 49.111656 58 30 33
18.516321 8.468122 49.052624 57 30 33
18.493452 8.563273 48.992039 57 30 33
18.470037 8.657908 48.930012 57 30 32
18.446112 8.752033 48.866631 57 30 32
18.421700 8.845652 48.801960 56 30 32
18.396830 8.938767 48.736073 56 30 32
18.371517 9.031384 48.669018 55 31 33
18.345797 9.123506 48.600880 55 30 33
18.319691 9.215141 48.531723 54 31 34
18.293242 9.306304 48.461651 55 32 35
18.266493 9.397010 48.390793 55 32 35
18.239510 9.487289 48.319309 56 32 36
18.212357 9.577170 48.247375 57 33 35
18.185122 9.666698 48.175228 57 33 35
18.157896 9.755919 48.103100 57 33 35
18.130783 9.844892 48.031273 57 33 36
18.103886 9.933672 47.960018 57 33 36
18.077312 10.022326 47.889622 57 34 37
18.051168 10.110915 47.820362 57 34 37
18.025555 10.199507 47.752510 57 34 37
18.000555 10.288157 47.686275 57 34 37
17.976246 10.376919 47.621880 56 34 36
