ply
format ascii 1.0
element vertex 1195
property float x
property float y
property float z
property uchar red
property uchar green
property uchar blue
end_header
1.983507 3.745225 48.148880 214 124 150
1.987868 3.857481 48.254757 227 151 177
1.992172 3.970080 48.359241 245 186 210
1.996385 4.082942 48.461502 234 159 190
2.000477 4.195992 48.560837 213 116 155
2.004428 4.309167 48.656750 217 121 163
2.008226 4.422417 48.748936 237 159 196
2.011866 4.535710 48.837296 248 183 217
2.015352 4.649029 48.921925 251 184 219
2.018697 4.762377 49.003101 249 169 206
2.021915 4.875773 49.081234 241 145 180
2.025030 4.989250 49.156845 240 131 162
2.028064 5.102851 49.230511 248 138 166
2.031044 5.216629 49.302841 254 152 178
2.033993 5.330635 49.374405 254 167 191
2.036931 5.444923 49.445724 254 182 204
2.039876 5.559539 49.517223 254 181 203
2.042842 5.674521 49.589230 254 171 194
2.045837 5.789894 49.661922 254 160 184
2.048862 5.905668 49.735355 254 146 171
2.051915 6.021840 49.809464 252 129 155
2.054987 6.138391 49.884048 251 122 147
2.058068 6.255286 49.958824 252 124 148
2.061139 6.372477 50.033382 250 124 149
2.064183 6.489902 50.107273 244 119 142
2.067180 6.607495 50.180016 238 114 138
2.070107 6.725177 50.251083 238 116 141
2.072945 6.842869 50.319969 245 128 153
2.075673 6.960490 50.386192 251 146 171
2.078274 7.077962 50.449318 252 149 173
2.080731 7.195211 50.508965 245 135 158
2.083033 7.312171 50.564838 237 122 145
2.085172 7.428792 50.616760 235 120 142
2.087144 7.545036 50.664646 239 123 146
2.088951 7.660878 50.708500 246 129 154
2.090598 7.776315 50.748486 252 137 163
2.092097 7.891365 50.784870 254 140 168
2.093463 8.006065 50.818035 253 132 162
2.094717 8.120472 50.848469 249 120 150
2.095883 8.234665 50.876766 244 112 142
2.096988 8.348739 50.903599 238 106 135
2.098064 8.462809 50.929710 232 102 130
2.099141 8.576998 50.955864 232 106 131
2.100253 8.691442 50.982845 236 113 137
2.101431 8.806283 51.011459 238 119 141
2.102708 8.921664 51.042458 238 122 142
2.104112 9.037724 51.076534 237 124 143
2.105669 9.154597 51.114330 237 125 144
2.107402 9.272407 51.156395 236 126 146
2.109329 9.391264 51.203178 236 127 147
2.111464 9.511256 51.254993 237 129 149
2.113815 9.632457 51.312057 237 130 150
2.116385 9.754917 51.374458 237 130 152
2.119174 9.878665 51.442169 237 130 153
2.122175 10.003704 51.515018 238 129 154
2.125378 10.130016 51.592754 237 128 154
2.128765 10.257555 51.674984 236 127 153
2.132318 10.386256 51.761234 235 127 152
2.136014 10.516030 51.850945 234 127 152
2.139826 10.646768 51.943466 234 128 151
2.143723 10.778335 52.038067 234 129 151
2.147674 10.910583 52.133980 234 129 150
2.151645 11.043348 52.230377 234 129 150
2.155600 11.176445 52.326382 233 130 149
2.159503 11.309687 52.421139 231 130 148
2.163320 11.442875 52.513775 228 128 147
2.167012 11.575804 52.603420 226 127 146
2.170549 11.708277 52.689274 225 126 145
2.173898 11.840098 52.770573 223 126 145
2.177033 11.971087 52.846653 223 127 146
2.179927 12.101075 52.916916 223 127 146
2.182563 12.229918 52.980911 223 128 147
2.184927 12.357497 53.038292 224 129 147
2.187011 12.483722 53.088867 224 130 147
2.188812 12.608539 53.132584 224 129 147
2.190334 12.731923 53.169540 222 126 145
2.191588 12.853895 53.199986 220 123 143
2.192590 12.974503 53.224297 219 119 141
2.193359 13.093828 53.242966 217 115 138
2.193921 13.211988 53.256618 217 111 136
2.194305 13.329124 53.265938 219 107 134
2.194542 13.445399 53.271690 219 102 130
2.194664 13.560987 53.274647 216 96 126
2.194705 13.676082 53.275627 212 89 120
2.194695 13.790870 53.275414 206 82 114
2.194669 13.905545 53.274765 200 76 109
2.194653 14.020285 53.274372 195 72 104
2.194674 14.135261 53.274883 188 68 97
2.194754 14.250623 53.276825 176 59 86
2.194911 14.366502 53.280651 163 49 74
2.195161 14.483006 53.286716 154 44 66
2.195513 14.600210 53.295246 151 43 63
2.195972 14.718176 53.306396 154 48 67
2.196541 14.836928 53.320206 158 53 72
2.197217 14.956470 53.336617 159 55 73
2.197994 15.076777 53.355484 159 54 73
2.198864 15.197807 53.376602 159 54 72
2.199815 15.319492 53.399689 159 53 71
2.200833 15.441748 53.424404 159 54 72
2.201903 15.564477 53.450378 160 56 72
2.203010 15.687576 53.477234 162 57 73
2.204135 15.810930 53.504562 162 59 73
2.205265 15.934427 53.531971 162 60 73
2.206383 16.057964 53.559120 161 61 74
2.207478 16.181444 53.585697 161 62 75
2.208539 16.304792 53.611462 161 63 76
2.209560 16.427954 53.636250 160 64 76
2.210539 16.550901 53.660007 160 64 77
2.211477 16.673643 53.682766 160 64 78
2.212381 16.796230 53.704712 160 64 78
2.213262 16.918739 53.726112 160 63 77
2.028939 1.420913 46.802643 254 246 252
2.029301 1.522075 46.810989 254 250 254
2.029782 1.623369 46.822098 254 248 254
2.030393 1.724820 46.836182 254 247 254
2.031145 1.826459 46.853527 251 233 244
2.032053 1.928322 46.874496 242 203 223
2.033138 2.030451 46.899513 239 186 210
2.034419 2.132893 46.929062 242 187 212
2.035917 2.235702 46.963619 239 185 209
2.037654 2.338933 47.003681 240 193 216
2.039649 2.442646 47.049694 248 220 237
2.041918 2.546900 47.102051 254 238 251
2.044475 2.651753 47.161037 254 230 245
2.047327 2.757256 47.226810 246 196 217
2.050473 2.863455 47.299381 227 156 180
2.053907 2.970383 47.378597 206 129 155
2.057613 3.078060 47.464096 196 120 145
2.061570 3.186491 47.555359 214 153 174
2.065745 3.295666 47.651672 242 211 224
2.070103 3.405556 47.752193 253 240 249
2.074600 3.516116 47.855942 252 222 237
2.079192 3.627288 47.961864 239 169 192
2.083831 3.739002 48.068878 227 134 163
2.088472 3.851180 48.175934 237 154 185
2.093071 3.963740 48.282021 244 170 201
2.097590 4.076602 48.386257 233 141 178
2.101998 4.189692 48.487930 224 125 168
2.106271 4.302946 48.586514 234 153 196
2.110395 4.416313 48.681648 248 192 229
2.114365 4.529758 48.773216 252 204 236
2.118182 4.643265 48.861275 248 183 219
2.121859 4.756835 48.946075 239 149 187
2.125409 4.870482 49.027981 231 128 162
2.128856 4.984240 49.107487 236 131 161
2.132221 5.098146 49.185120 249 148 175
2.135530 5.212249 49.261444 254 163 188
2.138805 5.326596 49.336990 254 186 209
2.142066 5.441234 49.412224 254 204 225
2.145331 5.556205 49.487522 254 190 213
2.148609 5.671537 49.563152 254 166 190
2.151908 5.787250 49.639244 254 156 181
2.155227 5.903346 49.715801 254 145 171
2.158561 6.019814 49.792706 253 130 155
2.161900 6.136630 49.869740 251 124 149
2.165230 6.253749 49.946545 253 128 151
2.168532 6.371118 50.022713 252 129 151
2.171785 6.488669 50.097752 246 124 145
2.174968 6.606330 50.171169 240 117 139
2.178057 6.724021 50.242443 237 116 138
2.181032 6.841658 50.311058 242 126 149
2.183871 6.959157 50.376541 250 145 169
2.186556 7.076442 50.438480 252 150 173
2.189071 7.193437 50.496510 246 136 159
2.191406 7.310080 50.550373 238 123 145
2.193554 7.426320 50.599911 234 119 141
2.195512 7.542123 50.645081 238 122 143
2.197283 7.657468 50.685932 246 129 152
2.198875 7.772356 50.722649 252 139 163
2.200301 7.886811 50.755558 254 141 168
2.201581 8.000874 50.785080 253 132 161
2.202737 8.114607 50.811745 249 121 150
2.203796 8.228096 50.836182 245 113 142
2.204791 8.341443 50.859116 238 106 134
2.205753 8.454767 50.881317 232 102 129
2.206719 8.568199 50.903591 233 107 133
2.207723 8.681881 50.926765 238 115 140
2.208804 8.795963 50.951683 239 119 143
2.209993 8.910595 50.979126 238 121 143
2.211324 9.025921 51.009827 237 123 145
2.212826 9.142084 51.044460 237 125 146
2.214522 9.259212 51.083591 237 127 147
2.216434 9.377421 51.127708 237 128 148
2.218577 9.496809 51.177143 237 130 149
2.220961 9.617452 51.232124 237 130 150
2.223590 9.739404 51.292763 237 130 151
2.226463 9.862700 51.359032 238 130 153
2.229572 9.987344 51.430767 238 131 155
2.232908 10.113317 51.507710 238 130 156
2.236452 10.240579 51.589458 237 129 155
2.240183 10.369061 51.675537 236 128 154
2.244076 10.498669 51.765339 234 128 153
2.248102 10.629292 51.858208 234 128 152
2.252228 10.760796 51.953392 234 129 152
2.256420 10.893026 52.050091 234 129 151
2.260640 11.025811 52.147434 234 129 151
2.264850 11.158962 52.244530 234 130 151
2.269010 11.292290 52.340500 232 130 150
2.273082 11.425587 52.434437 229 129 150
2.277028 11.558645 52.525448 226 128 149
2.280811 11.691264 52.612717 225 127 148
2.284398 11.823246 52.695461 223 126 148
2.287759 11.954403 52.772995 222 126 148
2.290868 12.084563 52.844711 222 127 149
2.293704 12.213580 52.910130 222 127 149
2.296252 12.341329 52.968899 223 128 149
2.298502 12.467718 53.020809 223 128 149
2.300451 12.592684 53.065777 222 127 148
2.302104 12.716203 53.103889 221 125 146
2.303468 12.838284 53.135368 220 122 145
2.304561 12.958967 53.160568 219 119 142
2.305402 13.078333 53.179962 218 116 140
2.306016 13.196490 53.194145 218 111 138
2.306435 13.313574 53.203796 219 106 134
2.306689 13.429746 53.209671 219 102 131
2.306813 13.545177 53.212536 217 96 127
2.306843 13.660058 53.213211 212 89 122
2.306812 13.774583 53.212494 206 82 115
2.306754 13.888947 53.211170 200 76 109
2.306702 14.003333 53.209961 195 72 105
2.306684 14.117926 53.209549 188 68 98
2.306726 14.232884 53.210506 178 60 88
2.306849 14.348356 53.213356 166 52 77
2.307071 14.464460 53.218483 157 47 69
2.307406 14.581293 53.226192 152 44 65
2.307860 14.698926 53.236679 153 47 66
2.308439 14.817404 53.250038 156 51 69
2.309142 14.936740 53.266254 158 53 72
2.309965 15.056925 53.285221 160 53 73
2.310898 15.177921 53.306759 160 54 73
2.311932 15.299673 53.330605 161 55 74
2.313050 15.422092 53.356403 162 56 75
2.314237 15.545083 53.383778 163 58 75
2.315474 15.668531 53.412312 164 60 76
2.316743 15.792317 53.441578 164 61 76
2.318023 15.916314 53.471119 164 62 76
2.319299 16.040400 53.500538 164 64 77
2.320552 16.164459 53.529449 164 65 78
2.321770 16.288397 53.557552 163 66 79
2.322943 16.412134 53.584602 163 66 79
2.324065 16.535625 53.610477 162 66 80
2.325135 16.658857 53.635155 162 66 80
2.326158 16.781858 53.658764 162 65 80
2.327144 16.904696 53.681519 161 65 79
2.328110 17.027481 53.703804 161 64 79
2.128794 1.319380 46.779896 254 224 239
2.128993 1.420355 46.784264 254 232 245
2.129287 1.521416 46.790733 254 234 246
2.129684 1.622583 46.799442 254 237 248
2.130194 1.723880 46.810661 254 239 249
2.130834 1.825336 46.824711 251 224 239
2.131622 1.926986 46.842026 243 196 219
2.132581 2.028874 46.863102 239 180 207
2.133736 2.131049 46.888493 237 168 198
2.135114 2.233567 46.918777 229 150 181
2.136741 2.336487 46.954525 227 150 180
2.138641 2.439873 46.996284 240 184 208
2.140837 2.543790 47.044525 251 219 237
2.143344 2.648300 47.099621 254 224 242
2.146173 2.753461 47.161800 247 193 215
2.149329 2.859324 47.231140 227 153 178
2.152806 2.965928 47.307537 202 123 151
2.156589 3.073298 47.390671 194 118 146
2.160656 3.181445 47.480049 219 160 183
2.164976 3.290361 47.574978 247 217 232
2.169510 3.400023 47.674618 254 239 249
2.174213 3.510387 47.777973 249 214 230
2.179038 3.621399 47.883995 236 162 187
2.183934 3.732989 47.991573 232 140 170
2.188851 3.845080 48.099632 242 159 190
2.193743 3.957592 48.207134 244 155 189
2.198569 4.070445 48.313175 234 133 172
2.203294 4.183564 48.417007 236 149 191
2.207893 4.296885 48.518074 248 185 226
2.212349 4.410357 48.615997 253 199 237
2.216655 4.523945 48.710625 247 182 220
2.220813 4.637631 48.801983 234 149 188
2.224831 4.751413 48.890282 226 124 162
2.228725 4.865305 48.975864 227 125 159
2.232517 4.979338 49.059185 240 148 177
2.236228 5.093545 49.140728 251 168 194
2.239881 5.207971 49.221016 254 182 205
2.243499 5.322658 49.300518 254 205 224
2.247101 5.437648 49.379658 254 211 232
2.250700 5.552975 49.458755 254 181 206
2.254307 5.668662 49.538021 253 154 180
2.257926 5.784719 49.617531 254 149 176
2.261553 5.901142 49.697243 254 141 167
2.265181 6.017912 49.776974 252 130 155
2.268798 6.134995 49.856461 252 129 153
2.272387 6.252343 49.935322 254 134 155
2.275927 6.369894 50.013103 253 134 153
2.279394 6.487575 50.089302 250 130 149
2.282766 6.605308 50.163403 246 126 145
2.286019 6.723009 50.234882 243 125 144
2.289129 6.840593 50.303226 246 131 153
2.292075 6.957973 50.367973 251 143 167
2.294840 7.075074 50.428726 253 146 170
2.297408 7.191819 50.485153 247 135 158
2.299768 7.308148 50.537018 238 121 144
2.301915 7.424013 50.584194 232 116 138
2.303849 7.539382 50.626682 237 120 141
2.305572 7.654240 50.664562 246 130 152
2.307097 7.768590 50.698074 252 140 164
2.308439 7.882462 50.727570 254 142 168
2.309620 7.995901 50.753517 252 133 161
2.310665 8.108975 50.776478 249 120 149
2.311605 8.221776 50.797134 245 113 142
2.312475 8.334412 50.816246 240 108 136
2.313311 8.447005 50.834610 234 104 131
2.314151 8.559695 50.853073 234 107 134
2.315035 8.672629 50.872498 238 114 140
2.316002 8.785964 50.893757 238 118 143
2.317091 8.899854 50.917671 238 120 144
2.318334 9.014450 50.944996 238 123 146
2.319765 9.129901 50.976437 238 125 146
2.321410 9.246343 51.012592 238 127 147
2.323293 9.363897 51.053970 238 128 147
2.325429 9.482665 51.100922 238 130 148
2.327832 9.602730 51.153702 238 130 148
2.330504 9.724151 51.212429 237 130 148
2.333447 9.846965 51.277092 237 130 150
2.336652 9.971178 51.347523 238 132 152
2.340108 10.096778 51.423470 238 131 154
2.343796 10.223719 51.504524 236 130 154
2.347695 10.351935 51.590191 234 129 153
2.351775 10.481333 51.679863 234 129 153
2.356007 10.611796 51.772850 234 129 153
2.360354 10.743190 51.868389 235 129 153
2.364780 10.875354 51.965641 235 130 153
2.369244 11.008114 52.063732 235 130 152
2.373704 11.141280 52.161743 233 130 152
2.378119 11.274652 52.258751 231 130 151
2.382446 11.408026 52.353848 229 129 151
2.386644 11.541186 52.446110 227 128 151
2.390676 11.673931 52.534710 225 127 151
2.394505 11.806054 52.618839 223 126 150
2.398098 11.937367 52.697792 222 126 151
2.401427 12.067696 52.770950 221 126 151
2.404470 12.196889 52.837822 222 126 152
2.407210 12.324816 52.898026 222 127 152
2.409635 12.451379 52.951324 222 126 151
2.411742 12.576512 52.997627 222 125 150
2.413533 12.700183 53.036991 222 124 149
2.415017 12.822392 53.069595 221 122 147
2.416209 12.943175 53.095787 219 118 143
2.417129 13.062606 53.116009 219 114 141
2.417804 13.180781 53.130825 218 110 138
2.418262 13.297835 53.140903 219 105 135
2.418539 13.413923 53.146980 219 101 132
2.418668 13.529215 53.149826 217 96 129
2.418688 13.643898 53.150257 212 90 123
2.418634 13.758168 53.149082 206 83 116
2.418545 13.872227 53.147114 201 77 110
2.418454 13.986266 53.145111 195 72 104
2.418393 14.100476 53.143784 188 67 98
2.418392 14.215031 53.143757 178 61 88
2.418477 14.330091 53.145618 168 54 78
2.418667 14.445790 53.149792 159 48 69
2.418979 14.562243 53.156651 151 44 64
2.419425 14.679535 53.166447 151 44 63
2.420011 14.797728 53.179329 153 48 66
2.420738 14.916849 53.195320 156 50 69
2.421605 15.036901 53.214363 159 52 71
2.422603 15.157858 53.236294 161 54 74
2.423721 15.279666 53.260864 163 55 76
2.424943 15.402242 53.287720 164 58 77
2.426252 15.525488 53.316486 165 59 78
2.427628 15.649285 53.346706 165 61 78
2.429047 15.773503 53.377907 165 63 78
2.430489 15.897999 53.409592 165 64 79
2.431932 16.022638 53.441296 165 66 80
2.433355 16.147284 53.472572 166 67 82
2.434742 16.271820 53.503044 166 69 83
2.436078 16.396145 53.532398 166 69 83
2.437354 16.520193 53.560444 165 69 83
2.438566 16.643927 53.587090 165 68 83
2.439719 16.767363 53.612408 165 67 82
2.440819 16.890547 53.636585 164 66 82
2.441883 17.013580 53.659966 162 64 80
2.442932 17.136612 53.683014 161 63 79
2.229082 1.319053 46.768276 254 202 223
2.229217 1.419955 46.771103 254 203 223
2.229427 1.520921 46.775501 252 202 222
2.229719 1.621966 46.781647 249 206 224
2.230110 1.723114 46.789845 246 207 224
2.230617 1.824391 46.800476 246 201 221
2.231263 1.925835 46.814037 248 202 225
2.232076 2.027488 46.831085 249 206 229
2.233085 2.129403 46.852268 245 190 217
2.234323 2.231637 46.878239 236 156 188
2.235821 2.334254 46.909657 230 136 168
2.237608 2.437322 46.947151 238 151 181
2.239711 2.540910 46.991276 249 185 210
2.242151 2.645087 47.042473 254 202 225
2.244943 2.749914 47.101051 249 187 211
2.248093 2.855449 47.167141 232 155 180
2.251598 2.961736 47.240681 207 124 150
2.255445 3.068805 47.321396 201 121 147
2.259611 3.176672 47.408810 225 164 187
2.264065 3.285331 47.502251 249 218 234
2.268766 3.394764 47.600876 253 228 243
2.273666 3.504930 47.703697 244 191 211
2.278716 3.615776 47.809643 234 152 178
2.283861 3.727234 47.917599 238 160 187
2.289050 3.839230 48.026451 248 180 207
2.294231 3.951683 48.135155 244 155 188
2.299360 4.064514 48.242779 235 132 170
2.304401 4.177648 48.348541 242 160 201
2.309326 4.291022 48.451870 252 191 231
2.314116 4.404585 48.552368 253 184 227
2.318762 4.518300 48.649841 242 154 199
2.323264 4.632149 48.744297 226 125 168
2.327631 4.746130 48.835926 225 123 161
2.331878 4.860256 48.925030 237 148 180
2.336024 4.974550 49.012012 247 179 207
2.340091 5.089048 49.097343 253 196 221
2.344101 5.203788 49.181480 254 205 227
2.348075 5.318808 49.264854 254 218 237
2.352029 5.434143 49.347824 254 205 227
2.355977 5.549820 49.430656 254 166 193
2.359926 5.665857 49.513512 253 144 173
2.363877 5.782255 49.596401 253 145 173
2.367825 5.899003 49.679222 253 138 165
2.371758 6.016072 49.761753 253 131 156
2.375663 6.133423 49.843678 253 138 160
2.379519 6.250998 49.924580 254 142 160
2.383302 6.368730 50.003963 254 138 155
2.386989 6.486539 50.081310 253 138 153
2.390553 6.604345 50.156094 252 138 154
2.393970 6.722058 50.227776 251 137 155
2.397215 6.839591 50.295856 252 140 160
2.400266 6.956856 50.359886 254 145 167
2.403107 7.073777 50.419487 254 145 169
2.405721 7.190278 50.474335 248 135 159
2.408101 7.306303 50.524258 238 120 144
2.410240 7.421803 50.569138 233 115 137
2.412141 7.536753 50.609024 237 120 143
2.413810 7.651139 50.644039 247 132 156
2.415259 7.764970 50.674450 253 143 168
2.416508 7.878279 50.700653 254 143 170
2.417581 7.991117 50.723152 253 132 161
2.418505 8.103558 50.742558 249 120 150
2.419317 8.215696 50.759575 247 115 144
2.420051 8.327645 50.774994 243 111 140
2.420750 8.439536 50.789658 238 107 134
2.421455 8.551509 50.804436 236 108 134
2.422207 8.663718 50.820229 237 113 138
2.423051 8.776325 50.837925 238 117 142
2.424026 8.889490 50.858383 239 120 144
2.425170 9.003371 50.882385 239 123 146
2.426517 9.118120 50.910660 239 125 146
2.428099 9.233880 50.943840 239 127 147
2.429939 9.350778 50.982437 239 129 147
2.432055 9.468920 51.026848 239 130 147
2.434462 9.588394 51.077339 239 130 148
2.437164 9.709266 51.134037 238 131 148
2.440163 9.831574 51.196949 238 131 150
2.443449 9.955330 51.265911 239 132 152
2.447013 10.080520 51.340668 239 132 154
2.450833 10.207103 51.420818 237 132 154
2.454886 10.335014 51.505863 235 131 154
2.459143 10.464157 51.595177 235 130 153
2.463570 10.594417 51.688057 235 130 153
2.468129 10.725653 51.783718 236 130 154
2.472781 10.857705 51.881313 236 130 154
2.477482 10.990397 51.979942 236 130 154
2.482187 11.123533 52.078655 234 130 152
2.486851 11.256912 52.176525 232 129 152
2.491431 11.390325 52.272614 231 129 152
2.495882 11.523558 52.365997 229 129 152
2.500163 11.656397 52.455803 227 128 152
2.504234 11.788641 52.541229 225 127 152
2.508062 11.920094 52.621544 223 126 152
2.511616 12.050582 52.696114 222 126 152
2.514872 12.179943 52.764416 221 126 152
2.517810 12.308048 52.826061 222 126 153
2.520418 12.434791 52.880779 224 127 154
2.522691 12.560099 52.928463 225 127 154
2.524628 12.683930 52.969116 224 125 152
2.526240 12.806282 53.002922 223 123 150
2.527538 12.927179 53.030167 221 118 145
2.528544 13.046688 53.051285 219 114 141
2.529284 13.164900 53.066807 218 110 138
2.529788 13.281938 53.077374 219 105 135
2.530090 13.397954 53.083710 218 100 132
2.530227 13.513116 53.086582 216 95 128
2.530238 13.627613 53.086815 212 89 123
2.530162 13.741636 53.085217 207 83 117
2.530039 13.855395 53.082634 201 78 110
2.529906 13.969089 53.079842 195 73 104
2.529799 14.082918 53.077606 188 68 97
2.529751 14.197066 53.076599 179 62 89
2.529792 14.311710 53.077450 169 56 79
2.529945 14.427000 53.080658 160 50 71
2.530230 14.543065 53.086647 152 44 63
2.530663 14.660008 53.095726 150 43 61
2.531252 14.777907 53.108097 152 45 63
2.532003 14.896805 53.123840 155 48 67
2.532912 15.016714 53.142921 158 51 70
2.533975 15.137620 53.165215 161 53 73
2.535179 15.259473 53.190475 163 56 76
2.536508 15.382197 53.218372 165 58 79
2.537944 15.505689 53.248493 166 60 80
2.539463 15.629825 53.280365 166 63 81
2.541041 15.754464 53.313477 166 64 81
2.542653 15.879455 53.347290 166 67 82
2.544272 16.004639 53.381264 167 69 84
2.545875 16.129868 53.414898 168 71 86
2.547440 16.254999 53.447735 169 72 88
2.548950 16.379913 53.479404 169 72 88
2.550390 16.504519 53.509624 168 72 88
2.551755 16.628763 53.538265 167 70 87
2.553045 16.752638 53.565331 167 69 85
2.554267 16.876179 53.590961 166 67 84
2.555435 16.999475 53.615475 164 65 82
2.556572 17.122663 53.639320 162 63 80
2.329591 1.318878 46.762093 254 175 200
2.329647 1.419716 46.763226 252 172 196
2.329756 1.520593 46.765415 248 167 191
2.329929 1.621523 46.768875 240 163 185
2.330182 1.722529 46.773964 230 155 177
2.330538 1.823636 46.781105 232 161 183
2.331024 1.924882 46.790867 245 195 216
2.331673 2.026311 46.803883 253 225 244
2.332519 2.127976 46.820862 253 218 241
2.333599 2.229938 46.842541 249 184 214
2.334950 2.332264 46.869663 244 151 182
2.336607 2.435027 46.902935 242 138 169
2.338602 2.538299 46.942978 247 150 179
2.340961 2.642154 46.990318 252 170 197
2.343700 2.746660 47.045315 252 176 201
2.346830 2.851878 47.108147 241 159 184
2.350351 2.957857 47.178806 221 132 157
2.354248 3.064632 47.257046 215 128 153
2.358501 3.172223 47.342419 233 167 189
2.363077 3.280629 47.434261 251 214 232
2.367933 3.389833 47.531738 250 213 232
2.373020 3.499799 47.633854 241 170 195
2.378285 3.610473 47.739532 239 156 182
2.383670 3.721792 47.847637 247 188 212
2.389121 3.833682 47.957050 250 198 222
2.394583 3.946063 48.066692 240 153 183
2.400010 4.058857 48.175632 230 123 159
2.405362 4.171990 48.283062 240 147 186
2.410609 4.285399 48.388386 251 172 212
2.415730 4.399034 48.491173 253 174 217
2.420715 4.512857 48.591236 243 156 201
2.425562 4.626850 48.688538 231 134 175
2.430281 4.741011 48.783253 236 146 182
2.434884 4.855350 48.875645 248 184 213
2.439389 4.969889 48.966091 253 212 236
2.443819 5.084660 49.055004 254 221 242
2.448193 5.199697 49.142815 254 222 243
2.452531 5.315032 49.229885 254 215 237
2.456848 5.430698 49.316544 253 184 210
2.461154 5.546713 49.402985 252 151 180
2.465455 5.663087 49.489311 252 142 172
2.469748 5.779815 49.575474 254 145 173
2.474024 5.896877 49.661320 254 137 164
2.478271 6.014236 49.746571 254 134 158
2.482471 6.131846 49.830868 254 143 163
2.486599 6.249642 49.913742 254 145 161
2.490632 6.367549 49.994690 254 141 154
2.494541 6.485483 50.073154 254 144 156
2.498299 6.603358 50.148598 254 149 161
2.501881 6.721082 50.220486 254 147 162
2.505260 6.838565 50.288319 254 144 162
2.508415 6.955719 50.351654 254 145 166
2.511329 7.072466 50.410145 254 146 168
2.513987 7.188735 50.463501 250 137 160
2.516382 7.304467 50.511559 240 122 146
2.518509 7.419620 50.554260 234 115 138
2.520373 7.534170 50.591675 238 120 144
2.521981 7.648107 50.623966 247 132 157
2.523350 7.761445 50.651443 252 142 168
2.524501 7.874221 50.674538 254 142 170
2.525460 7.986491 50.693787 253 132 162
2.526259 8.098332 50.709831 251 122 152
2.526936 8.209845 50.723419 249 117 146
2.527530 8.321144 50.735352 246 114 142
2.528086 8.432366 50.746510 242 110 138
2.528648 8.543657 50.757790 238 111 136
2.529262 8.655176 50.770119 238 114 138
2.529974 8.767086 50.784409 239 117 141
2.530827 8.879554 50.801533 239 121 144
2.531863 8.992743 50.822319 240 123 145
2.533118 9.106810 50.847507 240 125 146
2.534624 9.221900 50.877747 241 127 147
2.536410 9.338149 50.913586 240 129 147
2.538494 9.455667 50.955437 240 129 147
2.540893 9.574548 51.003574 240 130 148
2.543612 9.694859 51.058159 240 131 149
2.546653 9.816645 51.119202 240 132 150
2.550008 9.939919 51.186554 240 133 153
2.553665 10.064674 51.259964 240 133 153
2.557604 10.190867 51.339027 239 133 153
2.561800 10.318436 51.423241 236 131 153
2.566220 10.447284 51.511978 236 130 152
2.570831 10.577295 51.604527 236 130 153
2.575591 10.708329 51.700081 237 130 154
2.580459 10.840225 51.797791 237 130 154
2.585388 10.972803 51.896729 237 130 154
2.590330 11.105865 51.995937 236 130 154
2.595239 11.239209 52.094471 234 129 153
2.600066 11.372623 52.191376 233 129 153
2.604766 11.505889 52.285709 231 129 153
2.609293 11.638794 52.376587 229 128 152
2.613607 11.771131 52.463188 227 128 152
2.617671 11.902703 52.544765 224 127 151
2.621453 12.033329 52.620667 223 126 151
2.624924 12.162846 52.690350 222 126 150
2.628065 12.291118 52.753395 222 125 150
2.630861 12.418036 52.809525 224 127 152
2.633305 12.543514 52.858574 226 128 153
2.635396 12.667510 52.900543 224 125 150
2.637140 12.790007 52.935562 222 121 147
2.638552 12.911025 52.963898 221 117 144
2.639650 13.030618 52.985935 219 114 140
2.640460 13.148870 53.002193 219 110 137
2.641012 13.265903 53.013290 219 105 134
2.641343 13.381854 53.019920 218 101 130
2.641489 13.496893 53.022850 215 95 126
2.641491 13.611205 53.022900 212 90 120
2.641391 13.724986 53.020897 207 84 114
2.641232 13.838449 53.017704 202 79 108
2.641055 13.951797 53.014133 196 75 103
2.640898 14.065242 53.010986 190 71 98
2.640798 14.178983 53.008991 182 66 91
2.640790 14.293209 53.008831 173 60 82
2.640901 14.408083 53.011055 163 52 72
2.641155 14.523754 53.016159 154 45 63
2.641571 14.640343 53.024502 150 42 60
2.642161 14.757941 53.036343 151 44 62
2.642931 14.876605 53.051804 155 47 65
2.643882 14.996361 53.070892 158 50 69
2.645009 15.117205 53.093513 161 54 74
2.646301 15.239093 53.119438 164 57 77
2.647739 15.361950 53.148323 166 60 80
2.649306 15.485674 53.179756 167 63 82
2.650974 15.610134 53.213245 166 65 82
2.652717 15.735183 53.248230 166 67 84
2.654505 15.860653 53.284126 167 69 85
2.656309 15.986371 53.320332 168 71 87
2.658099 16.112165 53.356277 169 74 90
2.659852 16.237883 53.391453 171 75 92
2.661543 16.363373 53.425400 171 75 93
2.663156 16.488529 53.457787 171 74 93
2.664682 16.613277 53.488407 170 72 91
2.666117 16.737589 53.517212 169 70 89
2.667467 16.861488 53.544312 168 68 87
2.668745 16.985048 53.569973 166 66 84
2.669974 17.108402 53.594646 163 64 81
2.671184 17.231735 53.618919 160 61 78
2.430416 1.218086 46.762512 254 163 195
2.430358 1.318859 46.761395 254 161 192
2.430323 1.419640 46.760727 253 155 183
2.430318 1.520437 46.760628 248 148 175
2.430356 1.621262 46.761353 239 139 164
2.430457 1.722136 46.763298 227 128 151
2.430647 1.823084 46.766956 228 136 159
2.430958 1.924144 46.772942 244 180 201
2.431427 2.025362 46.781971 253 221 240
2.432095 2.126792 46.794815 254 225 247
2.433003 2.228498 46.812286 254 200 228
2.434194 2.330549 46.835197 252 166 197
2.435708 2.433023 46.864334 247 140 170
2.437582 2.535995 46.900383 247 135 163
2.439845 2.639545 46.943924 251 149 175
2.442519 2.743745 46.995380 254 163 188
2.445617 2.848659 47.054985 249 158 183
2.449139 2.954342 47.122749 234 138 163
2.453074 3.060834 47.198479 226 133 158
2.457401 3.168156 47.281727 239 165 189
2.462085 3.276313 47.371853 252 207 227
2.467084 3.385290 47.468025 251 210 230
2.472345 3.495052 47.569244 246 180 203
2.477812 3.605550 47.674431 248 176 200
2.483425 3.716721 47.782436 252 198 220
2.489126 3.828493 47.892136 245 187 210
2.494859 3.940788 48.002434 228 137 165
2.500573 4.053528 48.112381 224 120 151
2.506227 4.166641 48.221157 238 143 176
2.511787 4.280065 48.328148 247 159 194
2.517233 4.393748 48.432919 251 176 212
2.522551 4.507657 48.535236 247 179 215
2.527740 4.621770 48.635082 239 158 193
2.532807 4.736085 48.732571 245 169 201
2.537764 4.850612 48.827957 253 208 233
2.542630 4.965371 48.921581 254 232 250
2.547425 5.080390 49.013821 254 233 251
2.552166 5.195701 49.105049 255 222 244
2.556872 5.311330 49.195595 253 196 222
2.561556 5.427303 49.285713 250 159 188
2.566225 5.543634 49.375557 250 139 170
2.570883 5.660325 49.465168 252 142 172
2.575522 5.777363 49.554440 254 144 173
2.580133 5.894720 49.643154 253 137 163
2.584698 6.012353 49.730995 254 136 157
2.589197 6.130207 49.817543 254 142 159
2.593602 6.248209 49.902306 253 142 156
2.597886 6.366280 49.984730 254 142 153
2.602020 6.484331 50.064259 254 150 160
2.605973 6.602269 50.140331 254 157 169
2.609719 6.720001 50.212410 254 153 167
2.613233 6.837435 50.280006 254 145 162
2.616491 6.954482 50.342697 254 143 164
2.619477 7.071064 50.400146 254 144 166
2.622177 7.187110 50.452095 251 137 160
2.624584 7.302567 50.498417 242 124 148
2.626698 7.417393 50.539093 235 116 140
2.628523 7.531568 50.574207 237 118 143
2.630070 7.645086 50.603977 245 128 154
2.631358 7.757967 50.628742 252 137 164
2.632409 7.870247 50.648964 254 139 168
2.633254 7.981990 50.665218 253 134 163
2.633926 8.093275 50.678165 251 124 154
2.634467 8.204205 50.688576 250 118 148
2.634920 8.314901 50.697292 247 116 144
2.635332 8.425503 50.705204 244 114 141
2.635749 8.536158 50.713234 241 114 139
2.636221 8.647028 50.722324 240 116 140
2.636798 8.758284 50.733418 240 118 141
2.637525 8.870091 50.747398 241 120 143
2.638446 8.982621 50.765121 241 123 144
2.639601 9.096033 50.787338 241 124 145
2.641025 9.210480 50.814735 241 126 146
2.642747 9.326097 50.847878 241 128 147
2.644790 9.443002 50.887184 241 129 147
2.647169 9.561292 50.932964 241 129 148
2.649894 9.681040 50.985382 240 130 149
2.652965 9.802295 51.044476 240 131 150
2.656376 9.925075 51.110107 240 132 152
2.660114 10.049370 51.182018 240 133 152
2.664157 10.175146 51.259827 238 132 151
2.668482 10.302340 51.343025 237 130 152
2.673053 10.430857 51.430984 236 130 152
2.677835 10.560582 51.522984 238 131 153
2.682784 10.691372 51.618210 239 131 154
2.687856 10.823066 51.715797 240 131 154
2.693002 10.955484 51.814819 239 130 154
2.698173 11.088428 51.914295 238 130 154
2.703317 11.221692 52.013279 237 129 153
2.708385 11.355064 52.110798 234 129 153
2.713327 11.488323 52.205887 231 128 151
2.718097 11.621255 52.297661 229 128 150
2.722651 11.753652 52.385284 227 128 150
2.726950 11.885311 52.467991 225 127 150
2.730958 12.016049 52.545105 224 127 149
2.734647 12.145700 52.616074 224 126 149
2.737992 12.274122 52.680447 224 126 149
2.740979 12.401198 52.737923 225 127 150
2.743598 12.526838 52.788300 225 126 149
2.745845 12.650988 52.831547 223 122 147
2.747727 12.773623 52.867756 221 118 144
2.749256 12.894757 52.897163 220 116 142
2.750449 13.014431 52.920116 220 113 140
2.751332 13.132725 52.937115 220 109 137
2.751936 13.249746 52.948730 220 105 133
2.752296 13.365634 52.955654 218 101 129
2.752451 13.480548 52.958641 215 95 124
2.752444 13.594675 52.958508 211 90 118
2.752319 13.708214 52.956104 207 84 111
2.752121 13.821378 52.952305 202 80 106
2.751895 13.934380 52.947952 197 77 101
2.751684 14.047441 52.943893 192 74 98
2.751529 14.160771 52.940910 186 70 93
2.751468 14.274574 52.939724 177 64 84
2.751532 14.389031 52.940960 165 53 72
2.751751 14.504307 52.945168 155 45 63
2.752145 14.620535 52.952759 151 42 59
2.752732 14.737824 52.964046 151 42 59
2.753520 14.856248 52.979206 154 45 63
2.754511 14.975842 52.998280 158 50 68
2.755702 15.096612 53.021191 163 55 74
2.757082 15.218524 53.047737 167 59 79
2.758632 15.341501 53.077576 169 63 82
2.760332 15.465440 53.110271 169 65 83
2.762153 15.590207 53.145313 168 67 83
2.764066 15.715647 53.182117 167 69 85
2.766036 15.841573 53.220028 167 71 87
2.768031 15.967803 53.258404 169 74 90
2.770016 16.094147 53.296608 170 76 93
2.771962 16.220425 53.334053 171 77 95
2.773843 16.346476 53.370228 172 77 96
2.775636 16.472164 53.404732 172 76 96
2.777328 16.597401 53.437290 172 74 95
2.778914 16.722139 53.467812 171 72 92
2.780398 16.846386 53.496353 169 69 89
2.781792 16.970209 53.523170 167 66 85
2.783118 17.093733 53.548691 164 64 81
2.784407 17.217138 53.573498 161 61 78
2.531555 1.218247 46.768696 254 161 196
2.531421 1.318995 46.766220 254 155 188
2.531284 1.419730 46.763691 254 147 179
2.531153 1.520458 46.761280 253 143 173
2.531045 1.621190 46.759274 249 141 168
2.530982 1.721945 46.758121 242 135 161
2.530996 1.822749 46.758366 240 137 163
2.531121 1.923640 46.760685 246 162 187
2.531400 2.024664 46.765842 253 200 223
2.531879 2.125877 46.774689 254 217 241
2.532605 2.227346 46.788090 254 202 229
2.533625 2.329143 46.806942 254 172 201
2.534985 2.431348 46.832069 252 147 176
2.536727 2.534041 46.864243 251 137 165
2.538883 2.637305 46.904087 253 144 170
2.541481 2.741216 46.952076 254 154 180
2.544534 2.845844 47.008484 252 154 181
2.548046 2.951246 47.073364 242 142 169
2.552006 3.057465 47.146526 235 136 163
2.556393 3.164528 47.227573 241 157 184
2.561172 3.272440 47.315853 251 196 219
2.566298 3.381191 47.410549 254 217 237
2.571717 3.490748 47.510670 253 209 229
2.577371 3.601064 47.615116 253 192 215
2.583197 3.712078 47.722752 250 177 202
2.589134 3.823720 47.832424 233 147 174
2.595122 3.935912 47.943050 218 118 145
2.601109 4.048580 48.053654 227 136 160
2.607050 4.161652 48.163422 241 166 189
2.612912 4.275067 48.271713 243 163 190
2.618670 4.388774 48.378086 247 179 205
2.624311 4.502740 48.482300 250 196 220
2.629833 4.616945 48.584309 247 179 205
2.635241 4.731386 48.684216 250 183 210
2.640547 4.846071 48.782246 254 218 239
2.645768 4.961019 48.878700 254 238 253
2.650922 5.076255 48.973923 254 232 248
2.656028 5.191808 49.068256 254 205 229
2.661101 5.307700 49.161964 251 169 199
2.666151 5.423950 49.255260 248 141 173
2.671184 5.540566 49.348240 249 135 166
2.676198 5.657545 49.440876 253 142 172
2.681185 5.774866 49.533016 253 142 169
2.686131 5.892492 49.624390 251 135 160
2.691015 6.010374 49.714622 252 136 157
2.695813 6.128449 49.803261 252 138 155
2.700496 6.246639 49.889763 251 139 152
2.705032 6.364858 49.973560 253 147 159
2.709389 6.483010 50.054062 254 162 172
2.713538 6.601003 50.130714 254 166 178
2.717449 6.718738 50.202969 254 156 171
2.721096 6.836121 50.270340 254 146 163
2.724457 6.953064 50.332432 254 142 162
2.727515 7.069489 50.388920 254 141 164
2.730258 7.185328 50.439587 252 135 159
2.732679 7.300529 50.484329 244 124 148
2.734781 7.415053 50.523148 236 116 140
2.736569 7.528885 50.556190 237 117 142
2.738057 7.642021 50.583683 244 125 152
2.739266 7.754483 50.606007 251 133 161
2.740220 7.866313 50.623646 254 137 165
2.740954 7.977576 50.637199 254 134 163
2.741505 8.088357 50.647369 252 126 155
2.741914 8.198760 50.654934 249 120 148
2.742229 8.308908 50.660748 247 118 145
2.742499 8.418944 50.665733 246 117 143
2.742774 8.529017 50.670811 244 117 141
2.743106 8.639294 50.676956 243 118 141
2.743548 8.749945 50.685116 242 119 142
2.744148 8.861142 50.696198 243 122 144
2.744952 8.973057 50.711063 242 124 145
2.746004 9.085853 50.730495 242 124 146
2.747341 9.199686 50.755188 242 125 146
2.748994 9.314698 50.785728 241 126 147
2.750987 9.431010 50.822559 241 127 147
2.753339 9.548722 50.866005 241 128 148
2.756059 9.667913 50.916256 240 129 149
2.759150 9.788636 50.973351 240 130 150
2.762604 9.910911 51.037170 240 131 151
2.766410 10.034734 51.107475 240 131 151
2.770546 10.160072 51.183887 240 131 152
2.774985 10.286863 51.265900 239 131 152
2.779694 10.415017 51.352886 240 131 153
2.784632 10.544418 51.444126 241 131 154
2.789757 10.674924 51.538799 242 131 154
2.795021 10.806375 51.636040 242 131 154
2.800372 10.938588 51.734905 241 130 154
2.805759 11.071366 51.834419 239 129 153
2.811128 11.204506 51.933617 237 128 152
2.816427 11.337790 52.031517 234 128 151
2.821604 11.470998 52.127151 231 127 150
2.826609 11.603914 52.219624 229 127 149
2.831397 11.736328 52.308075 227 128 148
2.835926 11.868037 52.391735 226 128 148
2.840157 11.998854 52.469910 225 128 148
2.844061 12.128608 52.542023 225 128 148
2.847611 12.257151 52.607605 225 127 148
2.850788 12.384358 52.666309 225 126 147
2.853582 12.510137 52.717918 224 124 146
2.855988 12.634422 52.762367 222 121 144
2.858008 12.757179 52.799694 220 117 141
2.859655 12.878413 52.830116 220 114 140
2.860945 12.998156 52.853939 220 112 139
2.861902 13.116478 52.871620 220 109 136
2.862557 13.233480 52.883728 220 105 132
2.862946 13.349296 52.890923 217 101 127
2.863110 13.464079 52.893940 214 95 121
2.863092 13.578016 52.893612 210 90 114
2.862939 13.691306 52.890789 206 85 108
2.862700 13.804167 52.886368 202 81 102
2.862422 13.916821 52.881233 197 77 98
2.862152 14.029494 52.876255 192 75 95
2.861937 14.142414 52.872276 187 72 91
2.861817 14.255792 52.870064 179 66 84
2.861831 14.369831 52.870316 168 56 74
2.862010 14.484705 52.873615 158 48 66
2.862380 14.600572 52.880455 152 43 60
2.862961 14.717549 52.891186 150 41 58
2.863764 14.835727 52.906029 153 43 60
2.864794 14.955153 52.925064 158 48 66
2.866049 15.075841 52.948238 164 55 73
2.867517 15.197763 52.975372 170 61 80
2.869181 15.320845 53.006111 173 66 83
2.871017 15.444983 53.040020 171 67 84
2.872995 15.570037 53.076557 169 69 84
2.875081 15.695841 53.115097 168 71 86
2.877238 15.822202 53.154949 168 73 88
2.879428 15.948916 53.195408 169 75 92
2.881613 16.075779 53.235783 171 77 95
2.883759 16.202595 53.275425 172 78 98
2.885833 16.329174 53.313740 173 79 99
2.887811 16.455372 53.350285 174 78 99
2.889675 16.581072 53.384720 173 76 98
2.891418 16.706221 53.416912 173 73 95
2.893039 16.830805 53.446873 170 70 91
2.894552 16.954880 53.474823 168 67 87
2.895979 17.078568 53.501186 165 64 83
2.897352 17.202047 53.526543 162 61 79
2.898710 17.325548 53.551628 159 59 76
2.633034 1.218553 46.780453 254 158 192
2.632816 1.319287 46.776577 254 147 181
2.632570 1.419988 46.772202 254 142 173
2.632306 1.520661 46.767517 254 146 175
2.632044 1.621315 46.762867 254 153 180
2.631811 1.721967 46.758724 253 153 179
2.631641 1.822646 46.755699 251 148 174
2.631574 1.923386 46.754513 252 152 178
2.631657 2.024237 46.755989 254 174 199
2.631941 2.125257 46.761032 254 197 222
2.632478 2.226512 46.770573 254 194 221
2.633321 2.328079 46.785553 254 172 200
2.634521 2.430039 46.806866 254 152 180
2.636122 2.532477 46.835320 254 143 170
2.638164 2.635478 46.871601 254 145 173
2.640676 2.739123 46.916214 254 151 180
2.643673 2.843483 46.969479 254 152 182
2.647163 2.948620 47.031471 246 144 175
2.651134 3.054580 47.102039 238 136 168
2.655567 3.161392 47.180782 240 152 182
2.660424 3.269067 47.267086 250 191 218
2.665661 3.377594 47.360123 254 222 242
2.671221 3.486945 47.458908 252 215 235
2.677043 3.597074 47.562351 248 183 209
2.683063 3.707921 47.669304 240 153 182
2.689216 3.819419 47.778625 221 123 151
2.695441 3.931493 47.889214 211 116 141
2.701682 4.044067 48.000095 231 158 178
2.707893 4.157074 48.110443 245 187 203
2.714038 4.270454 48.219631 242 175 190
2.720092 4.384157 48.327190 246 185 200
2.726041 4.498150 48.432884 252 202 215
2.731880 4.612414 48.536633 252 191 209
2.737616 4.726947 48.638535 253 200 218
2.743259 4.841754 48.738792 254 226 242
2.748825 4.956855 48.837673 254 235 250
2.754330 5.072271 48.935490 254 219 238
2.759792 5.188027 49.032532 254 184 211
2.765224 5.304144 49.129032 251 150 182
2.770633 5.420633 49.225143 249 136 167
2.776023 5.537498 49.320908 251 138 169
2.781390 5.654728 49.416260 254 145 174
2.786721 5.772295 49.510971 253 143 169
2.791998 5.890157 49.604729 250 136 159
2.797198 6.008257 49.697113 251 136 157
2.802292 6.126525 49.787621 251 138 156
2.807249 6.244877 49.875687 251 144 159
2.812034 6.363221 49.960709 253 159 173
2.816614 6.481458 50.042076 254 175 188
2.820957 6.599491 50.119228 254 175 189
2.825032 6.717219 50.191624 254 161 177
2.828812 6.834549 50.258785 253 146 165
2.832275 6.951391 50.320324 254 140 161
2.835407 7.067669 50.375954 254 139 161
2.838193 7.183316 50.425465 252 134 157
2.840632 7.298283 50.468800 245 125 148
2.842726 7.412535 50.505989 238 118 141
2.844482 7.526057 50.537201 239 119 143
2.845917 7.638851 50.562698 246 128 152
2.847054 7.750940 50.582890 252 135 160
2.847920 7.862371 50.598282 254 136 162
2.848552 7.973212 50.609501 254 133 160
2.848988 8.083548 50.617256 253 127 154
2.849274 8.193484 50.622341 250 121 147
2.849460 8.303149 50.625633 248 119 145
2.849596 8.412683 50.628056 247 119 143
2.849736 8.522240 50.630550 245 119 142
2.849936 8.631986 50.634087 244 119 142
2.850248 8.742093 50.639629 243 121 144
2.850724 8.852736 50.648106 245 123 146
2.851415 8.964087 50.660374 246 125 148
2.852365 9.076316 50.677246 245 125 148
2.853613 9.189579 50.699425 243 125 147
2.855194 9.304021 50.727512 242 125 147
2.857134 9.419767 50.761974 242 126 147
2.859452 9.536924 50.803158 241 127 148
2.862159 9.655573 50.851265 241 129 149
2.865260 9.775769 50.906349 241 130 150
2.868747 9.897539 50.968315 241 131 151
2.872610 10.020883 51.036930 241 131 152
2.876825 10.145767 51.111820 241 132 152
2.881366 10.272135 51.192497 242 131 153
2.886197 10.399898 51.278336 243 131 154
2.891278 10.528940 51.368610 244 131 154
2.896564 10.659125 51.462521 244 131 154
2.902004 10.790288 51.559174 244 131 154
2.907547 10.922253 51.657646 243 130 154
2.913136 11.054820 51.756950 240 129 152
2.918717 11.187784 51.856113 237 128 151
2.924235 11.320930 51.954147 234 127 150
2.929635 11.454039 52.050091 231 127 149
2.934866 11.586892 52.143024 229 127 148
2.939879 11.719278 52.232086 228 128 147
2.944629 11.850992 52.316486 226 128 147
2.949078 11.981844 52.395527 226 128 147
2.953191 12.111659 52.468601 225 128 147
2.956940 12.240284 52.535213 225 126 147
2.960305 12.367589 52.594994 226 125 146
2.963271 12.493473 52.647697 225 123 145
2.965833 12.617862 52.693207 223 119 142
2.967991 12.740714 52.731548 221 116 139
2.969754 12.862021 52.762875 221 113 139
2.971139 12.981812 52.787479 222 112 138
2.972169 13.100142 52.805779 222 109 135
2.972874 13.217108 52.818298 220 105 131
2.973290 13.332834 52.825699 217 101 126
2.973459 13.447474 52.828705 214 96 118
2.973428 13.561211 52.828144 210 90 112
2.973244 13.674243 52.824871 206 85 105
2.972959 13.786794 52.819809 202 81 100
2.972625 13.899094 52.813873 198 78 96
2.972293 14.011378 52.807980 193 76 93
2.972013 14.123884 52.803001 188 73 90
2.971831 14.236839 52.799774 181 68 84
2.971790 14.350458 52.799042 172 61 77
2.971925 14.464935 52.801449 164 53 69
2.972268 14.580436 52.807529 156 45 62
2.972841 14.697104 52.817707 151 41 57
2.973658 14.815032 52.832230 152 41 58
2.974727 14.934286 52.851215 158 47 64
2.976045 15.054885 52.874638 165 55 73
2.977603 15.176806 52.902321 172 63 80
2.979382 15.299979 52.933922 175 68 84
2.981355 15.424297 52.968987 173 69 85
2.983492 15.549618 53.006947 169 70 85
2.985754 15.675761 53.047146 169 72 87
2.988102 15.802528 53.088856 169 75 89
2.990491 15.929698 53.131306 171 77 93
2.992880 16.057049 53.173752 172 79 97
2.995229 16.184364 53.215485 173 80 100
2.997502 16.311445 53.255856 174 80 101
2.999668 16.438116 53.294342 174 79 102
3.001707 16.564255 53.330574 173 77 100
3.003609 16.689785 53.364361 173 74 97
3.005372 16.814684 53.395683 171 72 94
3.007008 16.939003 53.424747 170 68 90
3.008538 17.062849 53.451942 167 65 86
3.009997 17.186403 53.477863 164 63 82
3.011426 17.309896 53.503250 160 60 77
2.734885 1.219002 46.797707 254 159 189
2.734578 1.319734 46.792450 254 147 177
2.734218 1.420416 46.786289 254 147 174
2.733818 1.521049 46.779442 254 157 184
2.733400 1.621642 46.772285 254 170 195
2.732994 1.722211 46.765343 254 175 201
2.732638 1.822784 46.759262 254 169 195
2.732378 1.923398 46.754807 254 158 185
2.732264 2.024101 46.752857 254 160 187
2.732352 2.124953 46.754356 254 176 204
2.732699 2.226022 46.760288 254 184 213
2.733362 2.327387 46.771648 254 171 199
2.734398 2.429131 46.789364 254 151 179
2.735855 2.531341 46.814297 254 143 170
2.737776 2.634105 46.847168 254 146 174
2.740193 2.737506 46.888531 254 150 180
2.743126 2.841620 46.938713 252 150 182
2.746581 2.946511 46.997837 241 141 175
2.750551 3.052228 47.065765 229 133 167
2.755013 3.158802 47.142117 236 157 188
2.759932 3.266246 47.226288 250 202 226
2.765260 3.374552 47.317467 254 222 241
2.770941 3.483695 47.414677 250 199 222
2.776911 3.593630 47.516819 244 170 199
2.783102 3.704301 47.622765 236 157 186
2.789449 3.815641 47.731365 218 133 160
2.795887 3.927577 47.841522 212 135 156
2.802359 4.040038 47.952271 233 177 190
2.808817 4.152956 48.062775 243 187 197
2.815224 4.266272 48.172409 242 180 187
2.821552 4.379939 48.280697 248 197 202
2.827788 4.493926 48.387398 253 201 208
2.833926 4.608213 48.492428 253 199 210
2.839970 4.722799 48.595856 253 219 229
2.845932 4.837689 48.697872 254 231 244
2.851825 4.952901 48.798717 254 217 236
2.857667 5.068455 48.898666 254 192 218
2.863470 5.184371 48.997978 254 167 197
2.869248 5.300668 49.096832 252 146 179
2.875005 5.417352 49.195343 252 140 172
2.880741 5.534420 49.293499 254 142 173
2.886449 5.651858 49.391174 254 145 173
2.892114 5.769629 49.488106 253 142 168
2.897713 5.887687 49.583923 252 139 163
2.903220 6.005966 49.678158 249 136 158
2.908604 6.124390 49.770275 248 139 159
2.913829 6.242872 49.859676 250 155 173
2.918858 6.361313 49.945732 254 173 190
2.923656 6.479613 50.027828 254 181 197
2.928188 6.597669 50.105392 254 179 195
2.932425 6.715381 50.177879 253 164 182
2.936337 6.832651 50.244831 250 143 164
2.939904 6.949395 50.305870 252 137 158
2.943111 7.065535 50.360733 254 137 160
2.945946 7.181005 50.409245 252 134 157
2.948407 7.295762 50.451363 247 127 150
2.950499 7.409771 50.487156 242 122 144
2.952232 7.523021 50.516815 243 125 146
2.953624 7.635517 50.540634 249 133 156
2.954700 7.747285 50.559036 253 138 162
2.955490 7.858375 50.572556 254 137 160
2.956032 7.968853 50.581833 254 132 155
2.956368 8.078809 50.587582 253 127 150
2.956545 8.188349 50.590614 251 123 145
2.956614 8.297601 50.591801 249 121 143
2.956631 8.406706 50.592083 247 120 142
2.956649 8.515818 50.592392 245 119 141
2.956726 8.625104 50.593719 243 119 141
2.956919 8.734735 50.597012 244 120 143
2.957282 8.844891 50.603218 245 123 147
2.957865 8.955741 50.613205 247 125 149
2.958718 9.067458 50.627792 246 125 149
2.959881 9.180202 50.647694 244 124 148
2.961391 9.294120 50.673531 243 125 148
2.963275 9.409340 50.705780 242 126 149
2.965556 9.525970 50.744804 242 127 150
2.968246 9.644098 50.790829 241 129 151
2.971349 9.763783 50.843933 241 130 152
2.974861 9.885056 50.904026 241 131 153
2.978769 10.007915 50.970890 242 131 153
2.983051 10.132338 51.044167 243 131 154
2.987680 10.258265 51.123371 244 131 154
2.992620 10.385612 51.207897 245 132 154
2.997828 10.514268 51.297028 246 132 155
3.003259 10.644094 51.389957 247 132 155
3.008860 10.774933 51.485802 246 131 154
3.014578 10.906604 51.583633 244 129 153
3.020354 11.038912 51.682472 241 129 152
3.026132 11.171652 51.781338 237 128 151
3.031853 11.304608 51.879242 233 127 149
3.037462 11.437565 51.975224 231 127 148
3.042905 11.570301 52.068359 230 128 147
3.048131 11.702604 52.157772 229 129 147
3.053092 11.834271 52.242672 227 128 147
3.057748 11.965107 52.322338 226 128 147
3.062061 12.094933 52.396141 226 128 148
3.066002 12.223593 52.463577 226 126 148
3.069547 12.350951 52.524239 227 125 147
3.072680 12.476896 52.577843 226 124 146
3.075392 12.601348 52.624249 224 120 144
3.077682 12.724257 52.663433 223 117 142
3.079558 12.845605 52.695530 223 114 140
3.081033 12.965408 52.720779 223 113 139
3.082132 13.083719 52.739574 223 109 136
3.082882 13.200622 52.752415 221 105 131
3.083322 13.316238 52.759945 218 101 126
3.083493 13.430716 52.762871 215 96 120
3.083443 13.544234 52.762012 210 91 113
3.083223 13.656998 52.758251 206 86 106
3.082888 13.769232 52.752525 203 82 101
3.082494 13.881172 52.745773 199 78 96
3.082095 13.993064 52.738953 194 76 93
3.081746 14.105155 52.732983 190 75 90
3.081499 14.217689 52.728752 184 71 86
3.081399 14.330892 52.727051 176 65 80
3.081489 14.444973 52.728580 169 57 73
3.081802 14.560115 52.733932 160 48 64
3.082365 14.676471 52.743561 153 41 57
3.083195 14.794153 52.757771 153 40 57
3.084301 14.913232 52.776707 158 47 63
3.085684 15.033735 52.800362 166 56 72
3.087333 15.155649 52.828571 173 64 80
3.089227 15.278900 52.860992 174 69 85
3.091341 15.403383 52.897163 173 70 85
3.093639 15.528947 52.936485 170 71 86
