ply
format ascii 1.0
element vertex 1217
property float x
property float y
property float z
property uchar red
property uchar green
property uchar blue
end_header
18.745050 4.871462 41.784218 135 93 114
18.743038 4.961002 41.779732 134 91 112
18.741549 5.050664 41.776409 132 90 110
18.740629 5.140468 41.774361 129 89 108
18.740337 5.230438 41.773712 127 88 106
18.740732 5.320600 41.774590 126 89 107
18.741869 5.410980 41.777122 126 90 108
18.743797 5.501603 41.781422 128 91 110
18.746550 5.592491 41.787560 149 111 131
18.750151 5.683662 41.795586 184 144 166
18.754604 5.775131 41.805511 201 159 183
18.759901 5.866906 41.817318 186 142 166
18.766008 5.958990 41.830933 157 111 135
18.772881 6.051378 41.846252 135 87 112
18.780453 6.144062 41.863132 126 76 101
18.788649 6.237025 41.881401 123 72 98
18.797379 6.330247 41.900860 124 73 98
18.806547 6.423704 41.921299 125 74 99
18.816055 6.517365 41.942490 127 75 101
18.825796 6.611199 41.964207 127 75 101
18.835669 6.705175 41.986214 127 75 102
18.845568 6.799254 42.008278 127 75 103
18.855389 6.893400 42.030167 127 75 104
18.865036 6.987577 42.051674 126 75 104
18.874416 7.081745 42.072582 126 75 105
18.883440 7.175869 42.092697 126 75 105
18.892027 7.269911 42.111839 125 75 103
18.900103 7.363837 42.129841 124 74 102
18.907606 7.457613 42.146564 123 73 100
18.914474 7.551209 42.161873 122 73 98
18.920668 7.644598 42.175682 122 72 96
18.926155 7.737759 42.187912 121 72 95
18.930922 7.830673 42.198540 121 73 94
18.934969 7.923333 42.207561 122 73 93
18.938316 8.015735 42.215023 122 72 93
18.941008 8.107888 42.221020 122 72 93
18.943100 8.199807 42.225681 121 72 93
18.944668 8.291518 42.229179 120 72 93
18.945810 8.383056 42.231728 120 72 92
18.946638 8.474463 42.233570 119 72 91
18.947271 8.565791 42.234985 116 72 87
18.947844 8.657097 42.236256 112 70 83
18.948490 8.748442 42.237698 108 68 79
18.949350 8.839893 42.239616 106 67 76
18.950562 8.931519 42.242317 105 67 74
18.952250 9.023383 42.246078 104 66 72
18.954531 9.115549 42.251167 103 65 71
18.957514 9.208076 42.257812 103 64 71
18.961279 9.301017 42.266205 103 63 71
18.965902 9.394419 42.276512 102 62 71
18.971432 9.488318 42.288837 100 61 72
18.977900 9.582745 42.303253 100 61 72
18.985310 9.677713 42.319771 99 61 72
18.993654 9.773234 42.338375 98 61 71
19.002899 9.869303 42.358978 98 61 70
19.012991 9.965905 42.381477 97 60 69
19.023855 10.063011 42.405693 96 59 68
19.035400 10.160586 42.431427 96 59 68
19.047520 10.258581 42.458443 95 59 67
19.060091 10.356939 42.486469 94 58 67
19.072979 10.455590 42.515194 92 56 65
19.086035 10.554458 42.544296 90 54 63
19.099096 10.653456 42.573414 88 52 61
19.112003 10.752491 42.602184 86 50 59
19.124580 10.851463 42.630219 84 48 58
19.136660 10.950272 42.657143 84 47 57
19.148066 11.048808 42.682571 84 47 58
19.158634 11.146965 42.706127 85 48 60
19.168196 11.244635 42.727440 85 49 61
19.176596 11.341709 42.746166 84 49 61
19.183689 11.438084 42.761974 83 49 61
19.189341 11.533662 42.774574 82 50 60
19.193436 11.628350 42.783703 81 50 60
19.195873 11.722066 42.789139 80 50 58
19.196579 11.814738 42.790707 79 50 57
19.195488 11.906305 42.788280 78 49 56
19.192581 11.996725 42.781799 78 49 56
19.187860 12.085975 42.771275 77 48 55
19.181364 12.174052 42.756794 76 47 55
19.173180 12.260987 42.738548 76 47 55
19.163425 12.346832 42.716808 76 46 55
19.152283 12.431684 42.691971 75 47 55
19.139969 12.515661 42.664524 74 48 54
19.126764 12.598932 42.635086 72 48 54
18.885927 3.800815 41.896923 146 109 126
18.877384 3.889370 41.877968 144 108 123
18.869707 3.978026 41.860939 142 107 121
18.862860 4.066788 41.845749 142 107 120
18.856777 4.155653 41.832253 141 106 120
18.851395 4.244617 41.820312 140 105 120
18.846638 4.333674 41.809761 138 102 119
18.842436 4.422815 41.800442 136 100 117
18.838732 4.512036 41.792225 135 97 116
18.835474 4.601330 41.784996 134 95 115
18.832630 4.690696 41.778687 133 92 113
18.830187 4.780137 41.773266 132 91 112
18.828144 4.869658 41.768734 131 89 111
18.826527 4.959270 41.765144 130 88 109
18.825369 5.048992 41.762577 130 88 108
18.824720 5.138840 41.761135 130 88 108
18.824629 5.228838 41.760937 130 90 109
18.825157 5.319010 41.762108 136 98 116
18.826361 5.409380 41.764778 141 104 123
18.828285 5.499974 41.769047 145 107 127
18.830971 5.590811 41.775005 164 125 145
18.834440 5.681911 41.782703 189 148 170
18.838705 5.773287 41.792164 196 153 176
18.843758 5.864949 41.803371 179 135 159
18.849573 5.956901 41.816273 155 109 133
18.856113 6.049141 41.830784 139 91 116
18.863319 6.141660 41.846767 131 82 106
18.871122 6.234446 41.864075 128 77 101
18.879440 6.327478 41.882530 128 77 101
18.888186 6.420736 41.901932 127 77 100
18.897266 6.514192 41.922073 128 76 100
18.906584 6.607819 41.942745 127 76 99
18.916037 6.701582 41.963715 126 75 98
18.925529 6.795450 41.984776 125 74 99
18.934958 6.889386 42.005692 125 74 100
18.944229 6.983353 42.026257 125 74 101
18.953245 7.077315 42.046261 125 73 101
18.961922 7.171234 42.065510 125 73 101
18.970169 7.265071 42.083805 124 72 100
18.977915 7.358793 42.100986 123 72 99
18.985083 7.452362 42.116890 122 71 98
18.991615 7.545748 42.131382 122 71 96
18.997461 7.638920 42.144352 121 71 95
19.002586 7.731854 42.155720 121 71 94
19.006969 7.824532 42.165440 122 72 93
19.010605 7.916940 42.173512 122 72 92
19.013517 8.009079 42.179970 123 72 91
19.015741 8.100952 42.184902 122 72 91
19.017336 8.192575 42.188442 121 72 92
19.018383 8.283976 42.190765 120 71 91
19.018984 8.375189 42.192097 120 71 90
19.019251 8.466260 42.192688 119 72 90
19.019316 8.557242 42.192833 116 72 87
19.019320 8.648198 42.192844 112 70 83
19.019409 8.739193 42.193039 108 68 79
19.019735 8.830297 42.193760 106 67 75
19.020443 8.921585 42.195332 105 67 73
19.021669 9.013125 42.198055 105 67 72
19.023546 9.104988 42.202217 104 66 71
19.026186 9.197238 42.208073 104 65 71
19.029682 9.289931 42.215828 103 64 71
19.034113 9.383119 42.225662 102 63 72
19.039537 9.476843 42.237694 100 62 72
19.045988 9.571135 42.252003 99 62 72
19.053474 9.666014 42.268612 98 62 72
19.061989 9.761491 42.287498 98 62 72
19.071493 9.857561 42.308586 98 61 71
19.081936 9.954211 42.331749 97 61 70
19.093233 10.051412 42.356812 97 60 69
19.105289 10.149123 42.383556 96 60 68
19.117992 10.247297 42.411739 95 59 68
19.131214 10.345873 42.441071 94 58 68
19.144806 10.444777 42.471226 93 56 66
19.158609 10.543926 42.501842 91 55 64
19.172455 10.643232 42.532558 89 52 61
19.186165 10.742595 42.562977 86 50 60
19.199556 10.841908 42.592682 85 49 59
19.212446 10.941064 42.621277 84 48 58
19.224648 11.039948 42.648342 83 47 58
19.235977 11.138444 42.673477 84 48 59
19.246258 11.236436 42.696285 84 49 60
19.255320 11.333808 42.716389 83 49 61
19.262997 11.430446 42.733421 83 49 61
19.269152 11.526247 42.747074 82 49 60
19.273653 11.621109 42.757057 81 49 60
19.276388 11.714941 42.763130 79 49 58
19.277271 11.807665 42.765087 79 49 57
19.276237 11.899214 42.762794 78 49 56
19.273258 11.989542 42.756184 77 48 55
19.268333 12.078623 42.745258 76 47 54
19.261507 12.166455 42.730114 76 46 54
19.252865 12.253068 42.710945 76 47 54
19.242542 12.338519 42.688042 75 46 54
19.230726 12.422907 42.661831 74 47 54
19.217653 12.506364 42.632828 72 48 54
18.953791 3.886526 41.847351 144 105 122
18.946766 3.975261 41.831841 140 102 119
18.940571 4.064107 41.818165 139 102 117
18.935141 4.153062 41.806175 138 101 117
18.930401 4.242120 41.795708 137 100 116
18.926273 4.331273 41.786594 135 98 116
18.922680 4.420511 41.778664 133 96 114
18.919558 4.509828 41.771767 132 94 114
18.916847 4.599215 41.765785 132 92 113
18.914513 4.688669 41.760628 131 90 112
18.912531 4.778190 41.756256 130 88 111
18.910902 4.867783 41.752655 130 87 110
18.909639 4.957457 41.749870 130 87 109
18.908779 5.047226 41.747971 131 89 110
18.908365 5.137107 41.747055 135 92 113
18.908443 5.227122 41.747231 138 96 117
18.909077 5.317293 41.748627 145 105 124
18.910316 5.407644 41.751366 151 112 131
18.912216 5.498198 41.755558 155 115 135
18.914808 5.588975 41.761284 167 127 147
18.918125 5.679994 41.768608 180 139 159
18.922182 5.771270 41.777561 178 135 157
18.926973 5.862813 41.788139 162 118 141
18.932484 5.954627 41.800308 147 101 126
18.938677 6.046711 41.813980 140 92 117
18.945501 6.139060 41.829048 136 87 111
18.952900 6.231661 41.845383 133 83 106
18.960794 6.324499 41.862812 131 81 104
18.969105 6.417553 41.881161 130 80 102
18.977747 6.510800 41.900242 129 78 100
18.986628 6.604212 41.919849 127 76 99
18.995653 6.697759 41.939774 125 74 98
19.004726 6.791409 41.959812 124 73 97
19.013754 6.885130 41.979740 123 72 97
19.022638 6.978883 41.999355 122 72 98
19.031284 7.072633 42.018444 122 72 98
19.039602 7.166341 42.036808 122 71 98
19.047503 7.259970 42.054253 122 70 97
19.054907 7.353482 42.070602 121 70 96
19.061737 7.446840 42.085682 122 70 95
19.067930 7.540011 42.099354 122 70 94
19.073425 7.632962 42.111485 122 70 93
19.078182 7.725667 42.121990 122 70 92
19.082178 7.818105 42.130814 122 71 91
19.085405 7.910263 42.137936 123 71 91
19.087879 8.002134 42.143398 124 71 91
19.089640 8.093728 42.147285 123 71 90
19.090740 8.185056 42.149715 122 71 90
19.091270 8.276146 42.150887 121 71 89
19.091330 8.367035 42.151016 119 70 87
19.091043 8.457771 42.150383 118 71 87
19.090546 8.548410 42.149284 117 72 86
19.089987 8.639017 42.148052 113 71 83
19.089527 8.729664 42.147034 110 69 80
19.089323 8.820425 42.146587 107 68 77
19.089535 8.911377 42.147053 106 68 74
19.090311 9.002598 42.148766 106 68 73
19.091789 9.094161 42.152031 106 68 72
19.094093 9.186135 42.157120 105 67 72
19.097330 9.278584 42.164265 104 66 72
19.101580 9.371561 42.173649 102 64 72
19.106909 9.465114 42.185413 100 64 73
19.113356 9.559275 42.199646 99 63 72
19.120930 9.654067 42.216370 98 62 72
19.129623 9.749502 42.235561 98 62 72
19.139399 9.845576 42.257145 97 62 72
19.150196 9.942274 42.280987 97 62 72
19.161938 10.039570 42.306908 97 61 71
19.174515 10.137419 42.334679 96 60 70
19.187807 10.235769 42.364025 95 59 69
19.201683 10.334559 42.394661 94 58 69
19.215982 10.433712 42.426231 92 56 67
19.230536 10.533140 42.458366 90 55 65
19.245163 10.632748 42.490662 88 52 63
19.259678 10.732431 42.522705 86 51 61
19.273884 10.832080 42.554073 85 49 60
19.287586 10.931578 42.584324 83 48 59
19.300581 11.030803 42.613014 83 47 58
19.312679 11.129634 42.639729 83 48 58
19.323687 11.227946 42.664028 83 48 59
19.333418 11.325617 42.685516 83 49 60
19.341703 11.422524 42.703804 82 49 60
19.348385 11.518558 42.718559 81 49 60
19.353323 11.613607 42.729462 80 49 60
19.356396 11.707577 42.736248 79 49 59
19.357510 11.800380 42.738705 78 49 57
19.356590 11.891946 42.736675 77 48 56
19.353605 11.982224 42.730087 76 47 55
19.348558 12.071187 42.718941 76 47 54
19.341488 12.158831 42.703335 76 47 54
19.332491 12.245186 42.683468 75 46 53
19.321705 12.330314 42.659653 74 46 53
19.309330 12.414317 42.632332 73 47 53
19.024076 3.972574 41.803570 138 97 115
19.018486 4.061495 41.791286 137 97 114
19.013655 4.150529 41.780670 136 97 114
19.009508 4.239669 41.771557 134 96 113
19.005957 4.328905 41.763756 132 95 112
19.002922 4.418228 41.757088 130 92 111
19.000328 4.507627 41.751389 129 90 110
18.998114 4.597093 41.746521 131 90 111
18.996237 4.686622 41.742397 133 91 113
18.994669 4.776210 41.738953 133 90 113
18.993404 4.865861 41.736172 132 88 112
18.992455 4.955583 41.734085 133 89 112
18.991850 5.045386 41.732758 136 92 115
18.991631 5.135289 41.732273 141 97 120
18.991846 5.225308 41.732746 144 101 123
18.992550 5.315467 41.734295 148 106 127
18.993799 5.405788 41.737041 149 108 129
18.995646 5.496294 41.741096 151 110 130
18.998129 5.587003 41.746552 157 115 135
19.001278 5.677936 41.753471 160 118 138
19.005110 5.769105 41.761894 155 112 133
19.009632 5.860524 41.771832 145 100 123
19.014826 5.952196 41.783245 139 93 117
19.020668 6.044123 41.796082 138 91 115
19.027109 6.136299 41.810234 137 88 111
19.034096 6.228714 41.825588 135 85 107
19.041567 6.321356 41.842007 133 83 106
19.049442 6.414205 41.859310 132 82 103
19.057646 6.507240 41.877335 130 80 101
19.066092 6.600438 41.895893 128 77 99
19.074686 6.693768 41.914783 126 75 97
19.083344 6.787200 41.933807 123 73 96
19.091969 6.880704 41.952759 122 71 95
19.100466 6.974243 41.971428 120 70 95
19.108740 7.067779 41.989609 120 70 95
19.116697 7.161276 42.007099 120 70 95
19.124254 7.254695 42.023701 119 69 93
19.131319 7.347998 42.039227 120 69 93
19.137815 7.441146 42.053501 121 69 93
19.143667 7.534102 42.066360 121 69 91
19.148815 7.626834 42.077671 122 69 90
19.153214 7.719311 42.087334 122 70 90
19.156828 7.811512 42.095280 123 70 89
19.159651 7.903419 42.101482 124 71 90
19.161697 7.995030 42.105980 124 71 91
19.163002 8.086347 42.108845 124 71 90
19.163622 8.177383 42.110210 123 71 90
19.163643 8.268168 42.110256 121 71 88
19.163177 8.358741 42.109234 120 70 86
19.162348 8.449148 42.107410 118 70 86
19.161301 8.539452 42.105110 117 72 85
19.160196 8.629717 42.102680 114 71 84
19.159199 8.720023 42.100491 111 70 81
19.158482 8.810447 42.098911 109 70 78
19.158211 8.901073 42.098316 108 69 76
19.158546 8.991981 42.099056 107 68 74
19.159641 9.083251 42.101463 108 68 74
19.161627 9.174958 42.105824 108 68 74
19.164614 9.267168 42.112389 105 67 74
19.168697 9.359942 42.121361 103 65 73
19.173943 9.453328 42.132889 101 64 73
19.180395 9.547363 42.147064 100 64 73
19.188065 9.642073 42.163918 98 64 73
19.196945 9.737469 42.183434 97 63 72
19.206997 9.833548 42.205521 97 63 72
19.218161 9.930298 42.230053 97 63 72
19.230347 10.027685 42.256828 96 62 72
19.243444 10.125669 42.285610 96 61 71
19.257328 10.224195 42.316120 95 59 71
19.271854 10.323195 42.348038 94 57 70
19.286856 10.422588 42.381001 92 56 68
19.302153 10.522286 42.414616 89 54 66
19.317556 10.622189 42.448463 87 52 64
19.332867 10.722184 42.482109 86 51 63
19.347878 10.822159 42.515095 84 49 61
19.362383 10.921988 42.546967 83 48 60
19.376171 11.021548 42.577263 82 48 59
19.389030 11.120707 42.605522 82 48 58
19.400766 11.219337 42.631310 82 49 59
19.411179 11.317305 42.654190 82 49 59
19.420080 11.414486 42.673752 82 49 59
19.427309 11.510758 42.689636 81 49 59
19.432714 11.606011 42.701511 80 48 59
19.436161 11.700137 42.709087 78 48 58
19.437555 11.793048 42.712151 77 48 57
19.436811 11.884667 42.710518 76 48 56
19.433893 11.974938 42.704105 75 47 55
19.428806 12.063835 42.692924 75 47 54
19.421591 12.151352 42.677071 75 47 54
19.412342 12.237519 42.656746 74 46 53
19.096762 4.058985 41.765453 135 93 113
19.092476 4.148086 41.756077 134 93 112
19.088861 4.237295 41.748173 133 93 111
19.085827 4.326602 41.741539 131 93 111
19.083286 4.415996 41.735985 129 91 109
19.081161 4.505463 41.731335 129 90 109
19.079384 4.594993 41.727448 132 91 112
19.077906 4.684580 41.724213 138 96 118
19.076694 4.774220 41.721565 140 96 120
19.075739 4.863914 41.719475 138 93 117
19.075048 4.953668 41.717964 138 92 117
19.074650 5.043492 41.717091 142 96 120
19.074581 5.133402 41.716946 146 100 125
19.074892 5.223415 41.717625 148 102 126
19.075636 5.313551 41.719250 144 100 124
19.076870 5.403833 41.721947 139 96 119
19.078642 5.494282 41.725822 137 94 116
19.080996 5.584918 41.730972 138 95 116
19.083963 5.675758 41.737461 139 96 117
19.087566 5.766819 41.745342 138 94 116
19.091814 5.858111 41.754631 135 91 113
19.096695 5.949641 41.765308 135 89 113
19.102186 6.041409 41.777317 136 89 112
19.108250 6.133414 41.790577 136 87 111
19.114841 6.225646 41.804993 135 86 108
19.121895 6.318095 41.820423 134 85 106
19.129347 6.410743 41.836720 133 83 104
19.137123 6.503572 41.853725 131 81 102
19.145142 6.596557 41.871262 129 79 99
19.153320 6.689674 41.889149 126 76 97
19.161573 6.782894 41.907200 123 74 96
19.169804 6.876184 41.925198 121 71 94
19.177923 6.969512 41.942959 119 70 94
19.185835 7.062839 41.960258 118 70 93
19.193447 7.156129 41.976910 118 70 92
19.200665 7.249342 41.992695 118 69 91
19.207403 7.342440 42.007427 119 69 91
19.213572 7.435381 42.020920 119 69 91
19.219095 7.528128 42.033001 120 68 89
19.223907 7.620645 42.043526 122 69 89
19.227957 7.712901 42.052383 123 70 89
19.231209 7.804871 42.059494 123 70 89
19.233644 7.896537 42.064819 124 71 89
19.235279 7.987894 42.068398 124 71 89
19.236147 8.078943 42.070293 124 71 89
19.236303 8.169700 42.070637 124 71 89
19.235840 8.260190 42.069622 122 71 88
19.234867 8.350455 42.067493 120 70 86
19.233519 8.440547 42.064545 118 70 85
19.231943 8.530525 42.061100 117 71 84
19.230310 8.620463 42.057529 115 71 83
19.228798 8.710440 42.054218 113 70 82
19.227585 8.800540 42.051571 111 70 80
19.226852 8.890849 42.049965 109 69 78
19.226770 8.981457 42.049789 109 68 76
19.227499 9.072446 42.051380 108 68 75
19.229179 9.163896 42.055058 108 68 74
19.231936 9.255877 42.061081 106 66 74
19.235861 9.348455 42.069672 104 65 73
19.241037 9.441684 42.080990 102 65 73
19.247505 9.535600 42.095135 100 64 73
19.255278 9.630231 42.112133 99 64 73
19.264353 9.725592 42.131981 97 64 73
19.274685 9.821679 42.154579 97 64 73
19.286213 9.918478 42.179790 97 63 73
19.298840 10.015957 42.207405 96 62 73
19.312456 10.114073 42.237183 96 60 73
19.326923 10.212767 42.268826 95 59 72
19.342089 10.311970 42.301994 94 57 71
19.357779 10.411597 42.336308 92 55 70
19.373806 10.511556 42.371361 89 54 68
19.389967 10.611739 42.406708 87 53 66
19.406059 10.712036 42.441898 84 51 64
19.421860 10.812323 42.476456 83 50 63
19.437151 10.912473 42.509899 82 49 61
19.451715 11.012355 42.541752 82 48 60
19.465332 11.111835 42.571533 81 48 59
19.477791 11.210774 42.598778 81 49 58
19.488880 11.309038 42.623032 81 49 59
19.498409 11.406493 42.643871 81 49 59
19.506201 11.503015 42.660915 81 49 59
19.512098 11.598483 42.673813 79 48 58
19.515961 11.692787 42.682259 78 48 58
19.517679 11.785833 42.686016 77 48 57
19.517174 11.877542 42.684910 76 47 56
19.514399 11.967855 42.678844 75 47 55
19.509357 12.056741 42.667820 74 47 55
19.502094 12.144196 42.651936 74 47 54
19.168600 4.235029 41.725849 132 92 111
19.166014 4.324393 41.720219 133 93 112
19.163902 4.413841 41.715622 133 94 112
19.162174 4.503360 41.711861 134 94 113
19.160763 4.592938 41.708790 140 99 119
19.159615 4.682568 41.706291 149 105 127
19.158693 4.772243 41.704285 151 105 129
19.157986 4.861964 41.702744 145 99 124
19.157495 4.951734 41.701675 144 97 122
19.157251 5.041564 41.701145 147 100 126
19.157290 5.131468 41.701225 148 100 127
19.157654 5.221461 41.702019 146 98 125
19.158403 5.311564 41.703651 140 93 118
19.159588 5.401798 41.706234 130 85 109
19.161268 5.492184 41.709888 127 81 105
19.163477 5.582740 41.714699 130 84 106
19.166258 5.673486 41.720753 133 88 109
19.169632 5.764437 41.728096 133 89 110
19.173611 5.855603 41.736755 133 88 110
19.178188 5.946993 41.746719 134 88 111
19.183344 6.038608 41.757942 134 88 111
19.189049 6.130446 41.770359 135 87 110
19.195259 6.222503 41.783878 135 86 108
19.201920 6.314765 41.798378 134 85 107
19.208971 6.407220 41.813728 134 84 105
19.216341 6.499849 41.829773 132 83 103
19.223959 6.592633 41.846355 129 80 100
19.231743 6.685545 41.863297 126 78 98
19.239609 6.778560 41.880421 123 75 96
19.247469 6.871646 41.897530 121 73 94
19.255230 6.964770 41.914425 118 72 93
19.262800 7.057897 41.930901 117 71 92
19.270082 7.150988 41.946751 117 71 91
19.276981 7.244004 41.961769 117 70 90
19.283407 7.336904 41.975758 118 69 90
19.289267 7.429647 41.988514 119 69 89
19.294483 7.522194 41.999870 119 68 88
19.298979 7.614505 42.009655 121 68 87
19.302702 7.706550 42.017757 122 69 87
19.305609 7.798300 42.024086 123 70 87
19.307682 7.889738 42.028599 124 70 88
19.308929 7.980853 42.031315 124 70 88
19.309387 8.071650 42.032310 124 70 88
19.309111 8.162140 42.031708 124 71 88
19.308187 8.252352 42.029701 122 70 87
19.306736 8.342326 42.026539 120 70 86
19.304897 8.432117 42.022537 118 70 85
19.302822 8.521789 42.018021 116 70 83
19.300694 8.611415 42.013386 115 69 82
19.298693 8.701080 42.009033 113 69 81
19.297012 8.790872 42.005375 111 69 79
19.295845 8.880884 42.002834 110 69 78
19.295366 8.971206 42.001793 109 68 77
19.295750 9.061927 42.002625 108 68 76
19.297148 9.153133 42.005669 108 67 75
19.299686 9.244900 42.011192 106 66 75
19.303474 9.337294 42.019440 104 65 74
19.308590 9.430372 42.030575 102 65 74
19.315081 9.524177 42.044704 101 65 74
19.322966 9.618735 42.061867 99 65 74
19.332235 9.714065 42.082047 98 64 74
19.342848 9.810162 42.105145 97 64 73
19.354734 9.907010 42.131020 97 63 73
19.367796 10.004579 42.159454 96 62 73
19.381916 10.102819 42.190189 95 60 73
19.396950 10.201674 42.222916 94 58 73
19.412739 10.301071 42.257286 93 56 73
19.429096 10.400920 42.292889 91 55 72
19.445829 10.501125 42.329315 89 53 70
19.462727 10.601577 42.366096 87 53 68
19.479572 10.702159 42.402767 84 51 66
19.496140 10.802745 42.438828 82 50 65
19.512197 10.903202 42.473785 81 49 63
19.527515 11.003393 42.507130 81 49 61
19.541872 11.103181 42.538380 80 48 59
19.555042 11.202424 42.567047 80 49 59
19.566807 11.300979 42.592655 80 49 58
19.576965 11.398709 42.614769 81 49 59
19.585335 11.495484 42.632988 80 49 59
19.591747 11.591182 42.646950 79 48 58
19.596058 11.685684 42.656334 78 47 58
19.598154 11.778896 42.660892 76 47 57
19.597948 11.870734 42.660442 75 47 56
19.595392 11.961136 42.654881 74 47 56
19.246651 4.322305 41.700077 135 95 113
19.244886 4.411791 41.696251 139 98 116
19.243481 4.501346 41.693207 144 103 121
19.242359 4.590955 41.690777 152 110 129
19.241465 4.680608 41.688835 161 117 138
19.240761 4.770301 41.687313 160 113 137
19.240231 4.860031 41.686165 150 102 128
19.239880 4.949802 41.685402 150 101 128
19.239731 5.039622 41.685081 154 104 133
19.239820 5.129506 41.685276 149 99 128
19.240198 5.219467 41.686092 143 94 122
19.240915 5.309526 41.687645 136 87 115
19.242029 5.399704 41.690060 129 82 109
19.243595 5.490020 41.693451 130 83 108
19.245653 5.580494 41.697914 136 90 113
19.248245 5.671144 41.703529 140 94 116
19.251394 5.761985 41.710354 137 92 113
19.255116 5.853030 41.718414 134 89 110
19.259405 5.944285 41.727711 134 88 111
19.264252 6.035754 41.738209 133 87 110
19.269623 6.127436 41.749847 134 86 109
19.275484 6.219326 41.762547 133 85 108
19.281784 6.311413 41.776192 133 85 107
19.288465 6.403687 41.790672 133 84 106
19.295467 6.496131 41.805840 131 83 104
19.302717 6.588725 41.821548 129 81 102
19.310137 6.681446 41.837627 126 78 98
19.317652 6.774268 41.853905 123 76 96
19.325169 6.867162 41.870193 121 74 94
19.332602 6.960097 41.886299 118 72 93
19.339855 7.053034 41.902012 117 71 92
19.346834 7.145939 41.917133 117 71 91
19.353439 7.238769 41.931446 117 70 89
19.359581 7.331485 41.944752 117 70 88
19.365160 7.424042 41.956841 117 68 87
19.370090 7.516400 41.967522 117 67 85
19.374300 7.608521 41.976639 119 67 85
19.377724 7.700369 41.984058 121 68 85
19.380316 7.791914 41.989674 123 70 87
19.382057 7.883139 41.993446 124 70 87
19.382952 7.974030 41.995384 124 70 88
19.383032 8.064591 41.995560 124 70 88
19.382353 8.154835 41.994091 123 70 88
19.381010 8.244788 41.991180 122 70 87
19.379118 8.334493 41.987080 120 69 86
19.376823 8.424006 41.982109 118 69 84
19.374287 8.513391 41.976612 116 69 83
19.371695 8.602727 41.970997 114 68 81
19.369242 8.692101 41.965683 112 68 80
19.367130 8.781608 41.961105 111 68 79
19.365555 8.871340 41.957695 111 68 79
19.364712 8.961396 41.955864 109 67 78
19.364777 9.051869 41.956005 108 67 77
19.365911 9.142848 41.958469 108 66 76
19.368254 9.234413 41.963543 107 66 76
19.371918 9.326636 41.971478 105 65 75
19.376986 9.419577 41.982460 103 66 75
19.383509 9.513278 41.996590 101 65 75
19.391506 9.607771 42.013920 100 65 75
19.400969 9.703072 42.034420 99 64 75
19.411854 9.799178 42.058006 97 64 74
19.424089 9.896074 42.084515 96 62 73
19.437572 9.993727 42.113728 95 61 73
19.452177 10.092087 42.145370 94 59 73
19.467756 10.191093 42.179123 93 57 73
19.484138 10.290670 42.214619 92 55 73
19.501135 10.390727 42.251446 91 54 72
19.518543 10.491164 42.289162 89 53 71
19.536144 10.591867 42.327297 87 52 69
19.553713 10.692718 42.365360 84 52 67
19.571011 10.793583 42.402836 82 51 66
19.587805 10.894330 42.439224 81 50 64
19.603853 10.994816 42.473995 80 49 62
19.618927 11.094900 42.506653 79 49 60
19.632792 11.194435 42.536690 80 49 58
19.645224 11.293277 42.563629 80 49 59
19.656013 11.391282 42.587006 80 49 59
19.664970 11.488318 42.606411 79 49 59
19.671923 11.584258 42.621475 79 48 59
19.676718 11.678981 42.631863 78 47 59
19.679237 11.772388 42.637325 76 46 58
19.325193 4.499445 41.675598 150 109 126
19.324276 4.589066 41.673622 160 116 135
19.323551 4.678725 41.672062 164 118 139
19.322989 4.768416 41.670845 157 109 133
19.322561 4.858137 41.669922 147 98 124
19.322277 4.947891 41.669312 154 104 132
19.322161 5.037686 41.669064 161 110 140
19.322252 5.127534 41.669258 153 103 133
19.322596 5.217452 41.669998 142 92 122
19.323246 5.307457 41.671398 133 84 114
19.324261 5.397570 41.673588 130 82 110
19.325697 5.487812 41.676689 137 90 115
19.327597 5.578201 41.680782 147 101 124
19.330002 5.668756 41.685970 151 105 127
19.332939 5.759492 41.692307 144 98 120
19.336424 5.850421 41.699818 138 92 113
19.340454 5.941550 41.708511 136 89 112
19.345020 6.032884 41.718357 134 87 110
19.350096 6.124421 41.729301 132 85 108
19.355646 6.216157 41.741272 131 84 107
19.361628 6.308086 41.754173 131 83 106
19.367985 6.400195 41.767883 131 83 106
19.374659 6.492469 41.782272 130 82 104
19.381582 6.584889 41.797203 128 81 102
19.388681 6.677435 41.812515 125 78 99
19.395884 6.770083 41.828045 122 76 96
19.403097 6.862802 41.843605 120 74 94
19.410240 6.955562 41.859009 118 72 93
19.417213 7.048327 41.874046 118 72 92
19.423923 7.141060 41.888515 116 71 90
19.430269 7.233721 41.902203 116 70 88
19.436157 7.326266 41.914898 115 69 87
19.441488 7.418655 41.926392 115 67 85
19.446169 7.510842 41.936489 115 65 83
19.450121 7.602788 41.945011 116 65 82
19.453281 7.694458 41.951828 119 67 83
19.455595 7.785818 41.956818 122 70 86
19.457043 7.876848 41.959938 124 71 88
19.457623 7.967537 41.961189 123 71 88
19.457365 8.057885 41.960636 122 70 87
19.456331 8.147904 41.958401 122 69 87
19.454607 8.237623 41.954685 121 69 87
19.452320 8.327084 41.949753 120 69 86
19.449615 8.416343 41.943920 119 68 85
19.446659 8.505467 41.937550 116 68 83
19.443651 8.594541 41.931057 114 68 81
19.440786 8.683651 41.924881 113 67 80
19.438278 8.772895 41.919476 112 67 80
19.436335 8.862372 41.915279 111 67 79
19.435158 8.952185 41.912743 110 66 79
19.434935 9.042431 41.912262 109 66 78
19.435835 9.133204 41.914204 108 66 77
19.438002 9.224585 41.918877 107 65 77
19.441557 9.316651 41.926544 105 65 76
19.446589 9.409465 41.937393 103 65 76
19.453148 9.503072 41.951538 102 65 76
19.461258 9.597505 41.969028 101 65 76
19.470909 9.692780 41.989841 99 64 76
19.482056 9.788898 42.013878 97 63 74
19.494623 9.885839 42.040981 95 62 73
19.508503 9.983567 42.070915 94 60 73
19.523567 10.082037 42.103401 93 59 73
19.539658 10.181182 42.138100 92 57 73
19.556602 10.280926 42.174644 91 55 72
19.574203 10.381174 42.212601 90 53 71
19.592247 10.481824 42.251511 88 53 70
19.610510 10.582760 42.290897 87 52 69
19.628759 10.683858 42.330254 85 52 68
19.646751 10.784984 42.369053 82 51 66
19.664244 10.886001 42.406776 81 51 65
19.680992 10.986765 42.442894 79 50 63
19.696754 11.087131 42.476887 79 49 61
19.711294 11.186948 42.508244 79 49 60
19.724382 11.286071 42.536469 78 49 59
19.735800 11.384351 42.561092 78 48 59
19.745354 11.481654 42.581696 78 48 58
19.752867 11.577848 42.597893 78 48 59
19.758181 11.672815 42.609356 78 47 59
19.405975 4.676939 41.656158 151 104 126
19.405462 4.766610 41.655056 146 97 122
19.405058 4.856303 41.654190 141 90 118
19.404770 4.946022 41.653572 151 100 129
19.404623 5.035775 41.653259 159 108 138
19.404657 5.125575 41.653328 153 103 133
19.404921 5.215436 41.653893 141 92 123
19.405466 5.305377 41.655067 133 84 113
19.406359 5.395419 41.656982 132 84 112
19.407652 5.485583 41.659760 143 96 122
19.409391 5.575887 41.663490 156 110 134
19.411617 5.666349 41.668270 159 113 135
19.414358 5.756985 41.674152 149 103 125
19.417627 5.847805 41.681171 141 95 116
19.421432 5.938819 41.689339 137 90 112
19.425758 6.030030 41.698624 133 87 109
19.430582 6.121438 41.708977 131 84 107
19.435871 6.213039 41.720333 130 83 106
19.441584 6.304827 41.732597 129 82 105
19.447668 6.396789 41.745655 128 81 104
19.454065 6.488913 41.759388 127 80 102
19.460716 6.581181 41.773663 126 79 101
19.467546 6.673573 41.788326 124 78 98
19.474483 6.766064 41.803215 121 76 96
19.481441 6.858627 41.818153 120 74 94
19.488337 6.951232 41.832951 118 72 92
19.495073 7.043844 41.847412 118 72 91
19.501553 7.136425 41.861324 116 71 90
19.507679 7.228934 41.874474 116 70 88
19.513351 7.321329 41.886650 115 69 86
19.518471 7.413567 41.897636 114 66 83
19.522940 7.505602 41.907230 112 64 81
19.526678 7.597394 41.915257 113 63 79
19.529613 7.688905 41.921555 116 65 81
19.531691 7.780102 41.926018 120 70 86
19.532887 7.870962 41.928581 123 72 88
19.533197 7.961473 41.929253 122 71 88
19.532652 8.051633 41.928082 120 69 87
19.531309 8.141457 41.925198 120 69 87
19.529259 8.230968 41.920795 119 69 87
19.526625 8.320213 41.915142 119 69 86
19.523560 8.409248 41.908562 117 68 85
19.520241 8.498144 41.901436 116 68 83
19.516861 8.586983 41.894184 114 67 82
19.513634 8.675858 41.887257 113 66 81
19.510777 8.764869 41.881123 112 66 81
19.508507 8.854120 41.876251 111 66 80
19.507034 8.943716 41.873089 111 66 80
19.506556 9.033758 41.872063 110 65 79
19.507248 9.124344 41.873547 109 65 78
19.509264 9.215561 41.877872 107 65 77
19.512728 9.307488 41.885307 105 64 76
19.517729 9.400187 41.896046 103 65 76
19.524328 9.493711 41.910213 102 65 76
19.532549 9.588090 41.927856 101 64 76
19.542377 9.683342 41.948956 99 63 76
19.553770 9.779468 41.973412 97 62 74
19.566645 9.876448 42.001049 94 60 73
19.580896 9.974247 42.031639 93 59 72
19.596386 10.072815 42.064888 92 58 72
19.612951 10.172084 42.100445 91 57 72
19.630413 10.271976 42.137928 90 54 71
19.648571 10.372396 42.176907 88 52 69
19.667204 10.473239 42.216904 88 52 68
19.686083 10.574384 42.257427 87 53 68
19.704966 10.675707 42.297962 84 52 67
19.723606 10.777073 42.337975 82 52 66
19.741756 10.878341 42.376938 80 51 64
19.759165 10.979364 42.414307 79 51 63
19.775587 11.079996 42.449554 79 51 62
19.790779 11.180085 42.482162 78 50 61
19.804506 11.279481 42.511631 78 49 60
19.816547 11.378036 42.537479 77 49 59
19.826706 11.475612 42.559284 77 48 59
19.488266 4.764901 41.640121 138 88 113
19.487801 4.854547 41.639130 136 86 113
19.487432 4.944213 41.638340 143 92 121
19.487185 5.033908 41.637814 149 99 128
19.487104 5.123643 41.637638 147 97 127
19.487238 5.213436 41.637924 139 90 120
19.487648 5.303305 41.638802 132 84 114
19.488392 5.393270 41.640388 133 86 114
19.489529 5.483353 41.642822 144 98 125
19.491106 5.573572 41.646191 158 112 136
19.493164 5.663945 41.650589 159 113 136
19.495728 5.754486 41.656067 148 102 124
19.498819 5.845209 41.662670 140 95 116
19.502434 5.936120 41.670395 136 90 111
19.506567 6.027224 41.679222 131 85 106
19.511189 6.118520 41.689098 128 83 105
19.516272 6.210005 41.699963 127 81 104
19.521772 6.301672 41.711716 126 80 103
19.527643 6.393511 41.724258 126 80 103
19.533827 6.485507 41.737469 125 79 102
19.540260 6.577644 41.751217 124 79 100
19.546879 6.669904 41.765358 123 77 98
19.553604 6.762262 41.779728 121 76 97
19.560358 6.854692 41.794159 119 74 95
19.567057 6.947164 41.808472 119 73 93
19.573603 7.039644 41.822456 118 72 92
19.579899 7.132092 41.835915 117 71 90
19.585850 7.224472 41.848625 116 70 88
19.591351 7.316738 41.860382 115 68 86
19.596300 7.408846 41.870956 113 66 83
19.600601 7.500751 41.880146 111 62 80
19.604168 7.592412 41.887764 111 61 78
19.606924 7.683788 41.893658 113 62 79
19.608814 7.774846 41.897694 117 67 83
19.609810 7.865562 41.899818 120 70 87
19.609903 7.955923 41.900021 120 70 88
19.609123 8.045925 41.898354 119 69 87
19.607525 8.135581 41.894939 118 69 87
19.605206 8.224918 41.889984 118 69 87
19.602283 8.313980 41.883739 118 69 86
19.598921 8.402825 41.876553 116 68 85
19.595289 8.491524 41.868797 115 68 84
19.591599 8.580162 41.860909 113 67 83
19.588062 8.668835 41.853352 112 67 82
19.584908 8.757647 41.846615 112 66 82
19.582357 8.846702 41.841164 111 66 82
19.580631 8.936110 41.837479 110 65 81
19.579935 9.025975 41.835987 110 65 80
19.580450 9.116400 41.837090 109 65 79
19.582336 9.207474 41.841122 107 65 78
19.585722 9.299276 41.848354 105 64 76
19.590706 9.391877 41.859005 103 64 76
19.597347 9.485325 41.873196 102 63 76
19.605669 9.579656 41.890976 100 63 76
19.615662 9.674887 41.912327 99 62 75
19.627277 9.771018 41.937141 97 61 74
19.640434 9.868031 41.965256 94 59 72
19.655018 9.965889 41.996418 92 58 71
19.670891 10.064540 42.030331 91 57 71
19.687885 10.163917 42.066643 91 56 71
19.705818 10.263939 42.104961 89 55 69
19.724480 10.364509 42.144833 87 52 67
19.743647 10.465519 42.185787 87 52 67
19.763086 10.566852 42.227325 86 53 67
19.782553 10.668377 42.268917 84 53 66
19.801792 10.769958 42.310024 81 51 64
19.820553 10.871454 42.350109 79 51 63
19.838581 10.972719 42.388634 79 51 62
19.855627 11.073601 42.425053 78 51 62
19.871443 11.173948 42.458847 77 51 61
19.885794 11.273611 42.489510 77 50 60
19.570343 4.942484 41.623779 135 86 113
19.569929 5.032104 41.622894 137 88 116
19.569672 5.121762 41.622349 136 88 117
19.569630 5.211475 41.622261 133 86 115
19.569864 5.301262 41.622761 130 84 112
19.570440 5.391145 41.623981 132 87 114
19.571411 5.481144 41.626049 140 95 120
19.572828 5.571279 41.629063 148 104 127
19.574730 5.661567 41.633106 147 103 126
19.577143 5.752024 41.638241 140 95 118
19.580088 5.842660 41.644501 135 90 111
19.583557 5.933483 41.651882 130 86 107
19.587543 6.024497 41.660362 127 82 103
19.592020 6.115700 41.669884 126 81 102
19.596958 6.207090 41.680386 125 80 102
19.602312 6.298659 41.691769 124 79 102
19.608030 6.390396 41.703934 124 79 102
19.614061 6.482289 41.716759 123 79 101
19.620342 6.574321 41.730118 123 78 100
19.626808 6.666473 41.743870 122 77 98
19.633385 6.758722 41.757858 120 75 98
19.639992 6.851043 41.771912 120 75 96
19.646544 6.943405 41.785847 119 74 94
19.652950 7.035775 41.799473 119 73 93
19.659115 7.128116 41.812584 118 72 92
19.664936 7.220387 41.824966 118 71 90
19.670313 7.312546 41.836403 117 69 88
19.675140 7.404548 41.846668 114 66 85
19.679319 7.496347 41.855556 112 63 81
19.682762 7.587901 41.862877 111 61 79
19.685390 7.679169 41.868469 111 61 78
19.687145 7.770115 41.872200 113 64 80
19.687992 7.860716 41.874001 115 66 83
19.687925 7.950955 41.873859 116 68 85
19.686972 8.040832 41.871830 117 68 86
19.685183 8.130354 41.868027 117 68 87
19.682655 8.219552 41.862648 116 68 86
19.679510 8.308466 41.855961 116 68 86
19.675911 8.397157 41.848305 115 68 85
19.672035 8.485697 41.840065 114 67 84
19.668095 8.574171 41.831680 112 67 83
19.664310 8.662680 41.823631 111 66 83
19.660913 8.751326 41.816410 111 66 83
19.658136 8.840219 41.810505 111 65 82
19.656204 8.929470 41.806393 110 65 81
19.655329 9.019189 41.804531 109 65 81
19.655701 9.109478 41.805321 108 65 80
19.657484 9.200430 41.809113 106 65 78
19.660810 9.292129 41.816189 105 64 76
19.665783 9.384644 41.826763 103 63 76
19.672464 9.478027 41.840977 101 63 75
19.680878 9.572314 41.858871 100 62 75
19.691013 9.667524 41.880428 98 61 75
19.702824 9.763657 41.905548 96 60 73
19.716227 9.860694 41.934052 94 59 72
19.731100 9.958597 41.965691 92 57 71
19.747309 10.057316 42.000164 90 56 70
19.764679 10.156780 42.037106 90 56 70
19.783026 10.256909 42.076126 88 55 68
19.802132 10.357606 42.116764 86 53 66
19.821775 10.458759 42.158543 86 53 65
19.841715 10.560251 42.200951 85 53 65
19.861704 10.661954 42.243469 84 53 64
19.881487 10.763726 42.285545 81 51 62
19.900808 10.865429 42.326637 78 50 61
19.919413 10.966913 42.366203 78 51 61
19.937044 11.068028 42.403706 77 51 61
19.652929 5.030384 41.608662 130 82 110
19.652439 5.119950 41.607620 128 82 109
19.652172 5.209571 41.607056 127 82 109
19.652197 5.299269 41.607109 127 82 109
19.652578 5.389064 41.607918 128 84 109
19.653374 5.478979 41.609600 131 88 112
19.654633 5.569032 41.612267 135 91 114
19.656397 5.659241 41.616001 134 92 114
19.658688 5.749621 41.620850 132 88 110
19.661520 5.840183 41.626846 129 86 107
19.664890 5.930933 41.633984 126 83 104
19.668783 6.021874 41.642227 124 81 102
19.673174 6.113005 41.651520 124 79 100
19.678028 6.204322 41.661797 123 79 100
19.683298 6.295816 41.672955 123 78 101
19.688932 6.387477 41.684883 123 78 101
19.694878 6.479291 41.697468 122 78 101
19.701071 6.571243 41.710583 122 77 100
19.707449 6.663313 41.724087 121 76 98
19.713936 6.755479 41.737820 120 75 98
19.720451 6.847715 41.751617 120 75 97
19.726919 6.939992 41.765308 119 75 95
19.733242 7.032278 41.778694 120 74 94
19.739323 7.124533 41.791569 119 74 93
19.745066 7.216721 41.803726 119 72 92
19.750366 7.308797 41.814949 118 70 90
19.755121 7.400717 41.825016 116 68 87
19.759230 7.492435 41.833714 114 65 84
19.762598 7.583908 41.840847 112 62 81
19.765152 7.675094 41.846252 110 61 79
19.766827 7.765958 41.849800 110 62 79
19.767586 7.856474 41.851406 112 64 81
19.767420 7.946625 41.851055 113 65 83
19.766356 8.036409 41.848801 114 67 85
19.764442 8.125834 41.844753 115 68 86
19.761776 8.214929 41.839104 115 68 86
19.758480 8.303735 41.832127 114 67 85
19.754715 8.392312 41.824158 113 67 84
19.750668 8.480732 41.815586 111 67 84
19.746546 8.569084 41.806862 111 67 84
19.742579 8.657466 41.798462 110 66 84
19.739002 8.745985 41.790890 110 65 83
19.736055 8.834753 41.784653 109 64 81
19.733967 8.923882 41.780231 109 64 80
19.732958 9.013485 41.778091 108 64 80
19.733219 9.103665 41.778648 107 64 79
19.734922 9.194520 41.782253 106 64 77
19.738207 9.286133 41.789207 104 63 76
19.743176 9.378576 41.799725 102 63 75
19.749893 9.471904 41.813946 101 62 74
19.758385 9.566153 41.831928 99 61 74
19.768642 9.661342 41.853645 97 60 74
19.780615 9.757469 41.878990 96 59 73
19.794222 9.854520 41.907799 94 58 72
19.809340 9.952456 41.939808 92 57 70
19.825829 10.051223 41.974716 90 56 69
19.843515 10.150753 42.012161 88 56 67
19.862211 10.250966 42.051743 87 55 66
19.881697 10.351761 42.092999 86 54 65
19.901751 10.453032 42.135456 85 54 65
19.922125 10.554657 42.178593 85 54 64
19.942575 10.656507 42.221889 83 53 63
19.962841 10.758446 42.264797 80 51 61
19.982672 10.860332 42.306778 77 50 59
19.734947 5.207746 41.592480 125 83 108
19.734726 5.297346 41.592014 124 82 106
19.734892 5.387050 41.592361 124 82 106
19.735504 5.476879 41.593655 126 84 107
19.736609 5.566853 41.595982 127 86 108
19.738249 5.656989 41.599438 128 87 108
19.740440 5.747302 41.604057 127 86 107
19.743200 5.837802 41.609875 126 84 105
19.746515 5.928494 41.616863 124 82 103
19.750372 6.019382 41.624989 123 80 101
19.754734 6.110460 41.634182 122 79 100
19.759565 6.201726 41.644363 122 79 99
19.764818 6.293169 41.655434 121 79 100
19.770437 6.384779 41.667278 121 78 100
19.776363 6.476541 41.679768 121 78 100
19.782536 6.568438 41.692776 121 77 99
19.788889 6.660451 41.706165 119 76 98
19.795347 6.752559 41.719780 120 76 98
19.801836 6.844736 41.733452 120 75 98
19.808271 6.936953 41.747017 119 75 96
19.814564 7.029177 41.760277 120 75 95
19.820616 7.121373 41.773033 120 74 94
19.826332 7.213501 41.785080 120 74 93
19.831608 7.305519 41.796200 120 72 91
19.836340 7.397382 41.806171 118 70 88
19.840429 7.489046 41.814789 115 67 86
19.843779 7.580464 41.821850 113 65 83
19.846313 7.671598 41.827194 111 63 81
19.847967 7.762410 41.830673 110 63 80
19.848700 7.852873 41.832222 110 63 80
19.848503 7.942970 41.831802 111 64 82
19.847397 8.032698 41.829472 112 65 84
19.845432 8.122064 41.825333 113 67 85
19.842701 8.211095 41.819576 113 67 85
19.839329 8.299833 41.812469 112 67 85
19.835476 8.388337 41.804352 111 67 84
19.831331 8.476682 41.795616 110 67 84
19.827105 8.564954 41.786709 109 66 84
19.823027 8.653251 41.778114 108 65 83
19.819340 8.741684 41.770344 108 65 82
19.816284 8.830365 41.763901 108 64 81
19.814096 8.919410 41.759289 107 63 79
19.812996 9.008928 41.756969 107 63 78
19.813187 9.099030 41.757378 106 63 77
19.814838 9.189811 41.760857 104 63 76
19.818098 9.281360 41.767723 102 63 75
19.823067 9.373746 41.778194 100 62 74
19.829813 9.467027 41.792416 100 62 73
19.838367 9.561239 41.810444 98 60 72
19.848717 9.656404 41.832256 97 59 72
19.860815 9.752522 41.857754 95 58 71
19.874578 9.849573 41.886761 92 58 71
19.889887 9.947524 41.919025 91 57 69
19.906599 10.046320 41.954243 89 57 67
19.924536 10.145894 41.992050 87 56 66
19.943510 10.246162 42.032040 86 55 65
19.963308 10.347031 42.073765 85 55 64
19.983698 10.448388 42.116737 85 55 64
20.004438 10.550117 42.160450 85 55 64
20.025284 10.652088 42.204380 84 54 63
19.817465 5.385124 41.577496 121 82 104
19.817883 5.474866 41.578373 123 83 105
19.818838 5.564764 41.580376 125 86 107
19.820368 5.654834 41.583588 127 87 108
19.822491 5.745089 41.588043 127 87 108
19.825212 5.835540 41.593754 126 85 106
19.828520 5.926190 41.600689 124 83 103
19.832388 6.017041 41.608807 123 81 101
19.836781 6.108088 41.618019 122 80 100
19.841652 6.199325 41.628242 121 79 99
19.846951 6.290741 41.639359 120 79 99
19.852619 6.382323 41.651249 120 78 100
19.858591 6.474056 41.663780 119 77 100
19.864809 6.565925 41.676826 119 77 99
19.871201 6.657907 41.690235 119 76 98
19.877693 6.749982 41.703857 119 76 98
19.884211 6.842124 41.717533 119 75 98
19.890673 6.934306 41.731087 119 75 97
19.896986 7.026494 41.744335 120 75 96
19.903063 7.118654 41.757084 121 75 95
19.908802 7.210747 41.769123 121 75 94
19.914104 7.302732 41.780247 120 73 92
19.918867 7.394564 41.790241 119 71 90
19.922989 7.486198 41.798889 116 69 87
19.926376 7.577591 41.805996 113 67 84
19.928951 7.668701 41.811398 113 65 83
19.930645 7.759491 41.814949 112 65 82
19.931417 7.849935 41.816570 111 63 82
19.931257 7.940014 41.816238 111 63 82
19.930182 8.029722 41.813980 111 65 84
19.928242 8.119069 41.809910 112 66 85
19.925526 8.208077 41.804211 112 67 85
19.922159 8.296792 41.797150 112 67 85
19.918304 8.385269 41.789059 110 66 84
19.914143 8.473581 41.780327 109 66 83
19.909891 8.561817 41.771408 108 66 83
19.905779 8.650076 41.762783 107 65 82
19.902052 8.738466 41.754963 107 64 81
19.898954 8.827101 41.748463 106 63 79
19.896723 8.916097 41.743782 105 62 78
19.895584 9.005567 41.741390 105 61 77
19.895741 9.095619 41.741722 104 61 76
19.897369 9.186352 41.745140 102 61 74
19.900616 9.277854 41.751949 101 61 74
19.905590 9.370198 41.762386 99 61 73
19.912359 9.463442 41.776588 98 60 72
19.920956 9.557622 41.794621 97 59 71
19.931368 9.652760 41.816467 95 58 71
19.943550 9.748857 41.842026 93 58 70
19.957422 9.845898 41.871128 92 57 70
19.972862 9.943845 41.903522 90 57 69
19.989727 10.042647 41.938908 89 57 67
20.007847 10.142239 41.976925 87 56 65
20.027031 10.242538 42.017170 86 55 64
20.047062 10.343449 42.059196 85 55 63
19.901419 5.562792 41.565647 126 87 109
19.902853 5.652802 41.568645 128 90 111
19.904932 5.743009 41.572987 129 91 112
19.907650 5.833423 41.578659 128 88 108
19.910988 5.924046 41.585636 125 85 105
19.914919 6.014878 41.593845 124 83 102
19.919395 6.105912 41.603195 122 82 100
19.924366 6.197141 41.613575 121 81 99
19.929771 6.288551 41.624866 119 80 98
19.935551 6.380130 41.636936 119 79 98
19.941633 6.471859 41.649639 118 78 98
19.947956 6.563722 41.662846 117 76 98
19.954445 6.655698 41.676399 117 76 97
19.961029 6.747764 41.690151 118 75 97
19.967632 6.839895 41.703941 118 75 97
19.974174 6.932065 41.717602 119 75 97
19.980564 7.024241 41.730949 120 76 96
19.986715 7.116389 41.743793 121 76 96
19.992527 7.208470 41.755936 121 75 95
19.997908 7.300446 41.767170 120 74 93
20.002750 7.392272 41.777287 119 73 91
20.006960 7.483904 41.786079 117 71 89
20.010441 7.575299 41.793350 114 68 86
20.013115 7.666415 41.798935 114 68 86
20.014914 7.757216 41.802689 114 68 86
20.015793 7.847674 41.804527 112 66 85
20.015741 7.937770 41.804420 111 65 84
20.014772 8.027498 41.802399 111 65 85
20.012938 8.116865 41.798565 111 67 86
20.010323 8.205896 41.793102 111 67 86
20.007048 8.294631 41.786263 111 67 85
20.003273 8.383126 41.778378 109 66 84
19.999182 8.471453 41.769833 108 66 83
19.994989 8.559699 41.761074 107 65 82
19.990925 8.647964 41.752586 106 65 81
19.987234 8.736356 41.744881 105 64 80
19.984163 8.824987 41.738464 105 63 78
19.981949 8.913974 41.733841 104 62 77
19.980822 9.003429 41.731487 102 61 75
19.980988 9.093464 41.731834 101 60 74
19.982620 9.184175 41.735245 100 60 73
19.985874 9.275652 41.742039 98 60 72
19.990854 9.367968 41.752441 97 59 71
19.997637 9.461181 41.766609 96 59 71
20.006252 9.555330 41.784603 95 58 70
20.016693 9.650437 41.806408 93 57 69
20.028917 9.746506 41.831936 92 57 69
20.042841 9.843520 41.861019 91 57 69
20.058350 9.941445 41.893410 90 56 68
20.075302 10.040232 41.928818 89 56 67
19.985800 5.650918 41.554794 128 90 112
19.987854 5.741086 41.559067 130 93 113
19.990601 5.831475 41.564777 129 91 110
19.994013 5.922085 41.571869 126 88 107
19.998049 6.012914 41.580265 125 86 104
20.002659 6.103953 41.589848 123 85 102
20.007782 6.195193 41.600498 121 83 100
20.013351 6.286619 41.612080 119 81 99
20.019297 6.378215 41.624439 118 80 98
20.025545 6.469962 41.637432 117 78 97
20.032030 6.561842 41.650917 116 77 97
20.038673 6.653834 41.664730 116 76 96
20.045404 6.745914 41.678722 117 74 96
20.052145 6.838058 41.692738 118 74 96
20.058815 6.930238 41.706608 119 75 96
20.065331 7.022424 41.720154 120 76 95
20.071604 7.114582 41.733196 121 76 95
20.077541 7.206676 41.745544 121 76 95
20.083046 7.298666 41.756989 120 75 93
20.088022 7.390511 41.767338 119 74 92
20.092371 7.482167 41.776379 118 72 90
20.096001 7.573590 41.783928 115 70 88
20.098833 7.664742 41.789814 115 71 88
20.100800 7.755586 41.793903 116 71 88
20.101856 7.846092 41.796101 115 70 88
20.101988 7.936242 41.796375 113 68 87
20.101208 8.026030 41.794750 112 67 87
20.099560 8.115459 41.791325 113 68 88
20.097128 8.204556 41.786270 112 69 88
20.094034 8.293355 41.779835 111 68 86
20.090431 8.381915 41.772343 109 67 84
20.086500 8.470304 41.764172 107 66 83
20.082455 8.558610 41.755760 106 65 82
20.078524 8.646928 41.747585 105 64 80
20.074949 8.735367 41.740154 104 63 79
20.071976 8.824037 41.733971 103 62 78
20.069843 8.913054 41.729538 102 61 76
20.068781 9.002533 41.727329 101 61 74
20.068995 9.092580 41.727772 99 60 73
20.070663 9.183294 41.731243 98 58 72
20.073938 9.274766 41.738052 96 58 71
20.078930 9.367067 41.748432 95 58 70
20.085714 9.460258 41.762539 94 57 69
20.094326 9.554379 41.780441 92 57 69
20.104759 9.649451 41.802135 91 56 68
20.116974 9.745481 41.827534 91 56 68
20.130896 9.842453 41.856480 90 56 68
20.074165 5.829722 41.552284 127 90 109
20.077682 5.920332 41.559563 126 89 107
20.081865 6.011172 41.568222 125 88 105
20.086653 6.102234 41.578133 124 87 104
20.091974 6.193503 41.589149 122 85 102
20.097755 6.284963 41.601112 119 82 100
20.103920 6.376596 41.613873 117 80 98
20.110384 6.468381 41.627254 116 78 97
20.117081 6.560299 41.641117 115 76 96
20.123930 6.652327 41.655293 114 75 95
20.130852 6.744441 41.669621 115 74 95
20.137777 6.836617 41.683956 116 73 95
20.144625 6.928830 41.698132 117 73 95
20.151312 7.021047 41.711971 118 74 95
20.157753 7.113236 41.725304 119 75 95
20.163858 7.205364 41.737942 119 75 94
20.169538 7.297392 41.749699 119 75 93
20.174694 7.389279 41.760372 118 74 93
20.179235 7.480983 41.769772 117 73 91
20.183071 7.572464 41.777710 115 71 90
20.186123 7.663681 41.784027 115 71 89
20.188320 7.754598 41.788578 116 72 90
20.189623 7.845186 41.791275 115 72 89
20.190014 7.935428 41.792084 114 70 89
20.189499 8.025312 41.791016 113 70 89
20.188126 8.114847 41.788174 113 70 89
20.185968 8.204052 41.783707 113 70 89
20.183146 8.292964 41.777866 111 68 86
20.179806 8.381636 41.770950 109 67 85
20.176128 8.470137 41.763344 107 66 83
20.172321 8.558548 41.755459 105 64 82
20.168608 8.646967 41.747776 104 63 80
20.165232 8.735498 41.740788 103 63 79
20.162432 8.824252 41.734989 102 62 77
20.160444 8.913341 41.730877 101 61 75
20.159502 9.002877 41.728928 99 60 74
