ply
format ascii 1.0
element vertex 1157
property float x
property float y
property float z
property uchar red
property uchar green
property uchar blue
end_header
17.686014 16.676311 51.890644 161 104 125
17.675825 16.778498 51.860744 162 104 126
17.664400 16.879375 51.827229 162 104 126
17.651703 16.978886 51.789974 162 103 126
17.637732 17.077000 51.748985 161 102 126
17.622520 17.173729 51.704353 161 101 126
17.606134 17.269114 51.656277 161 100 126
17.588669 17.363226 51.605034 161 100 126
17.570250 17.456169 51.550991 160 100 124
17.312691 0.879580 50.476070 227 93 122
17.298452 0.987577 50.434559 225 93 125
17.285627 1.095484 50.397163 227 97 131
17.274563 1.203352 50.364906 228 101 136
17.265547 1.311237 50.338615 227 104 139
17.258795 1.419195 50.318932 225 106 141
17.254440 1.527280 50.306236 222 108 140
17.252539 1.635544 50.300694 217 111 138
17.253075 1.744029 50.302254 212 114 135
17.255943 1.852772 50.310616 212 121 136
17.260965 1.961795 50.325256 215 131 141
17.267902 2.071111 50.345482 219 140 147
17.276461 2.180720 50.370441 228 155 159
17.286316 2.290607 50.399170 239 171 173
17.297110 2.400749 50.430641 243 182 183
17.308474 2.511109 50.463776 245 200 202
17.320044 2.621644 50.497505 251 227 228
17.331467 2.732300 50.530811 253 237 238
17.342407 2.843021 50.562710 247 220 223
17.352566 2.953746 50.592327 240 197 205
17.361671 3.064413 50.618874 239 187 200
17.369497 3.174961 50.641693 240 183 200
17.375868 3.285332 50.660263 231 169 191
17.380640 3.395471 50.674179 220 154 180
17.383724 3.505329 50.683170 214 147 176
17.385078 3.614866 50.687115 210 142 174
17.384701 3.724050 50.686016 212 150 181
17.382637 3.832857 50.680004 228 177 206
17.378973 3.941275 50.669319 238 189 217
17.373838 4.049304 50.654350 228 169 197
17.367395 4.156956 50.635563 227 156 182
17.359840 4.264253 50.613537 233 157 182
17.351398 4.371233 50.588924 233 157 181
17.342321 4.477941 50.562458 232 155 178
17.332880 4.584440 50.534931 228 152 174
17.323364 4.690799 50.507187 216 142 163
17.314058 4.797097 50.480057 199 127 146
17.305265 4.903424 50.454422 195 125 142
17.297274 5.009872 50.431122 212 142 158
17.290369 5.116541 50.410988 225 157 171
17.284819 5.223533 50.394806 224 157 169
17.280870 5.330949 50.383293 217 152 162
17.278748 5.438890 50.377106 206 144 154
17.278652 5.547456 50.376831 197 137 148
17.280748 5.656737 50.382938 199 142 154
17.285170 5.766821 50.395828 206 151 165
17.292004 5.877780 50.415756 199 147 164
17.301311 5.989682 50.442894 187 138 158
17.313110 6.102579 50.477291 185 139 161
17.327374 6.216508 50.518879 191 147 171
17.344034 6.331492 50.567451 192 152 177
17.362984 6.447535 50.622704 186 147 175
17.384085 6.564629 50.684223 178 142 172
17.407152 6.682743 50.751476 174 139 170
17.431976 6.801832 50.823853 170 136 167
17.458321 6.921836 50.900661 169 136 165
17.485929 7.042680 50.981155 169 137 164
17.514540 7.164281 51.064571 169 138 163
17.543880 7.286546 51.150116 169 140 162
17.573681 7.409372 51.237000 168 140 162
17.603683 7.532660 51.324474 167 141 161
17.633650 7.656309 51.411839 166 143 162
17.663355 7.780221 51.498447 166 145 164
17.692604 7.904301 51.583725 166 145 165
17.721230 8.028467 51.667187 165 145 165
17.749092 8.152642 51.748421 163 141 162
17.776075 8.276757 51.827091 162 136 156
17.802092 8.400756 51.902939 160 130 151
17.827066 8.524584 51.975758 161 125 147
17.850956 8.648200 52.045410 164 124 146
17.873722 8.771564 52.111786 166 124 146
17.895336 8.894643 52.174801 164 119 142
17.915777 9.017403 52.234398 163 116 139
17.935028 9.139813 52.290527 171 123 146
17.953075 9.261845 52.343143 187 137 161
17.969904 9.383466 52.392208 198 147 171
17.985506 9.504651 52.437698 201 150 174
17.999874 9.625373 52.479591 204 152 175
18.013006 9.745605 52.517876 205 153 175
18.024910 9.865332 52.552582 198 147 168
18.035612 9.984542 52.583782 185 134 154
18.045149 10.103234 52.611588 180 129 149
18.053576 10.221418 52.636158 194 143 163
18.060978 10.339121 52.657738 212 162 182
18.067455 10.456383 52.676624 217 167 187
18.073135 10.573258 52.693184 217 166 186
18.078161 10.689819 52.707840 217 166 186
18.082703 10.806153 52.721077 215 163 183
18.086933 10.922357 52.733410 212 160 180
18.091042 11.038539 52.745392 209 156 177
18.095207 11.154808 52.757538 206 153 173
18.099598 11.271271 52.770340 201 149 168
18.104383 11.388035 52.784290 194 144 163
18.109682 11.505187 52.799740 187 139 157
18.115585 11.622793 52.816952 178 134 150
18.122147 11.740899 52.836079 172 131 147
18.129364 11.859517 52.857121 171 132 147
18.137194 11.978630 52.879951 169 132 147
18.145535 12.098183 52.904266 167 132 147
18.154232 12.218080 52.929626 169 134 150
18.163092 12.338197 52.955456 171 136 152
18.171881 12.458377 52.981083 170 136 152
18.180326 12.578429 53.005707 170 134 151
18.188139 12.698147 53.028484 171 134 152
18.195017 12.817303 53.048534 174 136 155
18.200665 12.935672 53.065006 177 136 155
18.204796 13.053024 53.077049 177 136 155
18.207153 13.169147 53.083923 178 135 153
18.207518 13.283843 53.084984 177 134 152
18.205719 13.396953 53.079742 175 132 149
18.201637 13.508346 53.067841 172 128 145
18.195223 13.617940 53.049137 169 124 140
18.186483 13.725701 53.023659 167 122 137
18.175503 13.831646 52.991646 167 121 136
18.162420 13.935841 52.953503 169 121 135
18.147446 14.038406 52.909843 171 122 135
18.130835 14.139507 52.861412 174 123 136
18.112896 14.239356 52.809109 175 121 136
18.093960 14.338190 52.753902 174 119 135
18.074390 14.436278 52.696842 173 116 133
18.054546 14.533901 52.638992 173 113 132
18.034786 14.631342 52.581379 172 110 130
18.015448 14.728878 52.524994 171 106 127
17.996828 14.826765 52.470707 168 102 123
17.979187 14.925230 52.419273 168 101 120
17.962732 15.024465 52.371300 168 101 118
17.947607 15.124614 52.327202 166 99 116
17.933889 15.225766 52.287205 168 101 117
17.921591 15.327962 52.251347 176 110 125
17.910667 15.431188 52.219505 186 120 135
17.901014 15.535377 52.191357 184 118 136
17.892469 15.640414 52.166443 169 103 122
17.884832 15.746145 52.144180 163 98 119
17.877874 15.852380 52.123890 164 99 122
17.871338 15.958904 52.104836 164 99 123
17.864958 16.065487 52.086235 164 100 124
17.858465 16.171888 52.067307 163 100 124
17.851620 16.277885 52.047344 162 100 123
17.844189 16.383259 52.025677 162 100 123
17.835964 16.487806 52.001701 162 101 123
17.826784 16.591362 51.974937 162 102 123
17.816513 16.693779 51.944992 162 102 123
17.805056 16.794947 51.911587 162 102 123
17.792356 16.894793 51.874561 162 102 124
17.778399 16.993275 51.833866 162 101 125
17.763193 17.090382 51.789536 162 100 125
17.746794 17.186140 51.741718 161 99 124
17.729273 17.280602 51.690639 160 98 123
17.710741 17.373848 51.636604 160 98 123
17.408421 0.987648 50.438171 223 91 126
17.395506 1.095562 50.400753 224 94 130
17.384241 1.203429 50.368118 225 98 133
17.374920 1.311302 50.341110 224 101 136
17.367769 1.419236 50.320389 222 104 137
17.362923 1.527284 50.306351 219 106 137
17.360456 1.635495 50.299202 214 109 136
17.360359 1.743914 50.298920 210 112 135
17.362545 1.852574 50.305256 208 118 136
17.366850 1.961502 50.317730 210 126 139
17.373049 2.070709 50.335690 216 136 146
17.380859 2.180195 50.358322 228 155 161
17.389971 2.289951 50.384720 240 173 177
17.400038 2.399951 50.413883 242 181 183
17.410698 2.510164 50.444771 242 195 197
17.421595 2.620545 50.476341 248 220 222
17.432379 2.731044 50.507591 249 228 230
17.442722 2.841607 50.537560 244 214 218
17.452318 2.952172 50.565361 242 206 214
17.460894 3.062678 50.590210 245 205 217
17.468225 3.173065 50.611446 245 195 211
17.474125 3.283275 50.628540 237 176 197
17.478445 3.393252 50.641060 230 164 189
17.481092 3.502947 50.648727 226 159 188
17.482014 3.612319 50.651394 216 148 180
17.481205 3.721334 50.649052 205 139 172
17.478706 3.829969 50.641815 214 152 184
17.474600 3.938210 50.629917 237 183 212
17.469013 4.046057 50.613731 243 193 218
17.462112 4.153522 50.593739 234 170 196
17.454096 4.260628 50.570511 228 154 179
17.445192 4.367413 50.544716 229 152 176
17.435661 4.473924 50.517101 229 153 175
17.425783 4.580225 50.488476 229 153 174
17.415848 4.686388 50.459690 223 150 168
17.406160 4.792495 50.431625 205 135 152
17.397024 4.898636 50.405155 192 123 138
17.388741 5.004909 50.381157 201 134 148
17.381605 5.111414 50.360477 221 155 168
17.375891 5.218258 50.343922 227 163 175
17.371853 5.325545 50.332226 219 156 167
17.369730 5.433381 50.326077 205 145 156
17.369724 5.541865 50.326054 195 136 148
17.372007 5.651094 50.332672 196 140 155
17.376719 5.761156 50.346321 204 151 168
17.383955 5.872130 50.367290 201 151 170
17.393780 5.984085 50.395756 189 141 163
17.406210 6.097075 50.431770 185 139 163
17.421225 6.211142 50.475269 190 147 172
17.438751 6.326308 50.526051 191 152 177
17.458683 6.442580 50.583801 185 149 175
17.480867 6.559947 50.648079 178 144 172
17.505117 6.678379 50.718334 173 141 169
17.531202 6.797825 50.793915 168 138 166
17.558874 6.918222 50.874092 166 137 163
17.587854 7.039489 50.958054 165 137 161
17.617851 7.161530 51.044964 163 137 159
17.648569 7.284245 51.133968 162 138 158
17.679712 7.407522 51.224201 159 138 156
17.710995 7.531245 51.314835 155 139 155
17.742147 7.655305 51.405098 153 141 157
17.772926 7.779590 51.494274 153 143 159
17.803116 7.903996 51.581741 152 145 161
17.832529 8.028432 51.666962 151 143 160
17.861021 8.152814 51.749512 148 138 154
17.888472 8.277070 51.829044 141 127 143
17.914797 8.401140 51.905315 136 117 134
17.939936 8.524977 51.978153 138 112 130
17.963856 8.648540 52.047462 143 111 129
17.986544 8.771802 52.113194 145 108 127
18.007996 8.894736 52.175350 144 103 123
18.028223 9.017326 52.233955 150 106 127
18.047241 9.139556 52.289055 168 122 144
18.065062 9.261410 52.340687 189 141 164
18.081705 9.382874 52.388908 201 151 176
18.097185 9.503938 52.433762 204 154 178
18.111523 9.624586 52.475300 205 155 178
18.124729 9.744806 52.513565 205 154 177
18.136831 9.864590 52.548630 197 146 169
18.147858 9.983932 52.580578 182 131 153
18.157848 10.102838 52.609524 177 126 148
18.166855 10.221313 52.635620 192 143 163
18.174950 10.339383 52.659073 209 160 180
18.182220 10.457080 52.680138 212 163 182
18.188776 10.574452 52.699135 212 162 181
18.194742 10.691559 52.716415 211 161 180
18.200258 10.808474 52.732399 210 159 178
18.205481 10.925281 52.747532 207 156 175
18.210571 11.042073 52.762280 204 151 171
18.215689 11.158946 52.777107 199 146 166
18.220984 11.275992 52.792446 193 142 161
18.226601 11.393307 52.808723 188 138 156
18.232655 11.510966 52.826260 184 137 154
18.239218 11.629027 52.845280 178 135 151
18.246342 11.747529 52.865917 172 131 147
18.254019 11.866482 52.888161 168 130 145
18.262207 11.985865 52.911884 166 130 145
18.270809 12.105624 52.936810 167 132 147
18.279680 12.225672 52.962513 169 134 150
18.288639 12.345889 52.988472 169 135 151
18.297462 12.466125 53.014030 169 135 151
18.305893 12.586202 53.038460 168 134 151
18.313662 12.705924 53.060966 170 135 151
18.320482 12.825081 53.080727 174 137 154
18.326077 12.943457 53.096939 177 139 156
18.330181 13.060840 53.108829 179 140 157
18.332552 13.177030 53.115700 180 139 157
18.332989 13.291845 53.116966 180 138 155
18.331327 13.405132 53.112152 178 135 152
18.327467 13.516778 53.100967 174 130 147
18.321362 13.626704 53.083275 170 125 141
18.313026 13.734881 53.059124 167 120 136
18.302542 13.841331 53.028751 167 119 134
18.290052 13.946120 52.992565 168 119 131
18.275757 14.049365 52.951145 169 119 131
18.259909 14.151227 52.905228 172 120 132
18.242800 14.251907 52.855656 174 119 131
18.224751 14.351633 52.803364 174 118 131
18.206106 14.450661 52.749344 174 115 130
18.187212 14.549255 52.694599 173 111 129
18.168404 14.647684 52.640106 171 107 126
18.149998 14.746204 52.586781 169 103 124
18.132278 14.845056 52.535435 168 101 120
18.115475 14.944443 52.486752 167 100 118
18.099781 15.044541 52.441280 167 99 117
18.085321 15.145478 52.399387 166 99 115
18.072153 15.247324 52.361237 166 99 115
18.060280 15.350104 52.326832 169 102 118
18.049639 15.453794 52.296001 172 106 121
18.040113 15.558311 52.268406 173 107 123
18.031542 15.663539 52.243568 168 102 120
18.023722 15.769316 52.220913 165 99 119
18.016418 15.875451 52.199749 164 99 121
18.009382 15.981731 52.179363 164 98 122
18.002354 16.087933 52.159000 164 98 123
17.995079 16.193823 52.137924 163 99 122
17.987329 16.299192 52.115471 162 99 122
17.978888 16.403833 52.091015 162 99 121
17.969570 16.507565 52.064018 162 99 121
17.959229 16.610233 52.034054 162 99 121
17.947754 16.711716 52.000805 161 99 120
17.935066 16.811920 51.964046 162 99 120
17.921137 16.910791 51.923691 161 99 120
17.905960 17.008307 51.879719 161 99 122
17.889574 17.104473 51.832237 161 99 122
17.872036 17.199329 51.781425 160 97 122
17.853441 17.292940 51.727551 159 96 121
17.517075 0.987643 50.437962 223 89 126
17.504131 1.095561 50.400696 223 92 129
17.492750 1.203424 50.367920 223 95 131
17.483221 1.311286 50.340488 221 99 132
17.475779 1.419199 50.319054 219 102 134
17.470566 1.527214 50.304047 215 105 134
17.467665 1.635381 50.295692 211 108 134
17.467079 1.743743 50.294006 208 112 135
17.468731 1.852335 50.298759 206 117 136
17.472466 1.961181 50.309513 205 122 137
17.478073 2.070296 50.325661 211 132 144
17.485283 2.179680 50.346420 228 156 165
17.493790 2.289323 50.370914 241 175 182
17.503260 2.399204 50.398182 239 177 182
17.513342 2.509290 50.427212 236 185 188
17.523678 2.619539 50.456974 242 208 211
17.533928 2.729903 50.486488 239 211 214
17.543762 2.840327 50.514801 230 194 199
17.552872 2.950752 50.541035 234 196 205
17.560989 3.061116 50.564407 245 209 221
17.567881 3.171360 50.584248 246 198 214
17.573351 3.281424 50.600002 239 178 198
17.577253 3.391253 50.611237 237 172 196
17.579483 3.500798 50.617657 238 172 200
17.579987 3.610016 50.619106 229 162 193
17.578749 3.718872 50.615543 210 143 176
17.575811 3.827343 50.607086 205 138 172
17.571253 3.935413 50.593960 228 172 202
17.565201 4.043084 50.576530 246 200 224
17.557821 4.150365 50.555286 241 184 208
17.549318 4.257283 50.530800 233 162 187
17.539925 4.363873 50.503757 232 156 180
17.529909 4.470188 50.474918 230 154 175
17.519556 4.576291 50.445107 228 153 172
17.509172 4.682256 50.415207 226 153 171
17.499065 4.788169 50.386108 213 142 159
17.489553 4.894123 50.358715 195 127 143
17.480944 5.000217 50.333927 195 129 144
17.473539 5.106556 50.312611 214 150 164
17.467628 5.213249 50.295586 226 163 177
17.463474 5.320403 50.283623 220 159 174
17.461317 5.428127 50.277412 206 146 162
17.461367 5.536524 50.277557 193 135 153
17.463808 5.645695 50.284584 194 138 158
17.468779 5.755729 50.298901 206 153 175
17.476385 5.866710 50.320801 207 157 180
17.486691 5.978708 50.350475 193 145 170
17.499720 6.091782 50.387985 185 140 165
17.515444 6.205973 50.433266 189 148 173
17.533800 6.321308 50.486118 191 153 178
17.554668 6.437792 50.546207 186 151 176
17.577896 6.555415 50.613087 179 147 173
17.603277 6.674143 50.686172 172 144 169
17.630575 6.793925 50.764771 167 140 165
17.659517 6.914689 50.848106 164 140 163
17.689808 7.036348 50.935322 162 140 161
17.721132 7.158802 51.025517 159 140 158
17.753164 7.281935 51.117744 156 140 155
17.785583 7.405626 51.211098 151 138 152
17.818075 7.529750 51.304646 146 137 150
17.850346 7.654184 51.397568 143 139 151
17.882126 7.778804 51.489071 142 143 154
17.913177 7.903498 51.578484 141 145 157
17.943306 8.028164 51.665234 137 142 154
17.972351 8.152712 51.748867 130 131 143
18.000195 8.277069 51.829041 123 121 133
18.026754 8.401172 51.905510 133 124 136
18.051983 8.524977 51.978153 151 135 146
18.075863 8.648450 52.046917 155 134 146
18.098404 8.771570 52.111816 145 116 130
18.119633 8.894326 52.172943 129 94 110
18.139589 9.016713 52.230404 134 94 112
18.158321 9.138732 52.284340 162 119 139
18.175871 9.260381 52.334869 189 143 166
18.192291 9.381665 52.382156 202 154 178
18.207624 9.502586 52.426304 204 156 181
18.221914 9.623146 52.467449 206 157 181
18.235195 9.743344 52.505688 206 156 181
18.247501 9.863180 52.541122 198 148 172
18.258871 9.982657 52.573860 181 131 154
18.269348 10.101782 52.604027 174 124 147
18.278978 10.220564 52.631756 190 141 162
18.287825 10.339021 52.657227 205 156 177
18.295956 10.457180 52.680641 207 158 177
18.303467 10.575081 52.702267 206 157 175
18.310455 10.692771 52.722393 206 156 174
18.317041 10.810309 52.741352 205 154 173
18.323353 10.927766 52.759529 202 150 169
18.329529 11.045218 52.777306 197 145 163
18.335701 11.162747 52.795082 191 138 157
18.341997 11.280427 52.813206 185 134 152
18.348545 11.398342 52.832062 182 133 150
18.355438 11.516556 52.851913 182 136 153
18.362745 11.635116 52.872948 179 136 152
18.370499 11.754053 52.895275 171 131 147
18.378696 11.873374 52.918880 165 127 143
18.387295 11.993057 52.943634 163 128 144
18.396196 12.113047 52.969269 166 132 147
18.405270 12.233261 52.995392 169 135 150
18.414341 12.353588 53.021515 169 136 151
18.423201 12.473884 53.047024 167 134 149
18.431616 12.593984 53.071251 166 132 147
18.439327 12.713704 53.093456 168 134 149
18.446072 12.832849 53.112877 173 138 153
18.451591 12.951217 53.128773 178 142 157
18.455639 13.068610 53.140427 182 144 160
18.457993 13.184844 53.147202 184 144 160
18.458466 13.299753 53.148567 183 141 158
18.456913 13.413195 53.144096 180 137 154
18.453245 13.525066 53.133530 176 132 148
18.447418 13.635299 53.116756 172 126 142
18.439459 13.743868 53.093838 168 121 136
18.429453 13.850801 53.065029 168 119 132
18.417540 13.956162 53.030724 169 119 130
18.403915 14.060071 52.991497 174 122 133
18.388821 14.162677 52.948032 179 124 135
18.372540 14.264174 52.901154 179 123 134
18.355385 14.364786 52.851757 177 119 132
18.337675 14.464748 52.800766 175 115 130
18.319742 14.564312 52.749130 172 110 127
18.301905 14.663729 52.697769 169 105 123
18.284454 14.763239 52.647526 167 101 120
18.267653 14.863058 52.599148 166 100 118
18.251717 14.963379 52.553257 166 99 117
18.236811 15.064353 52.510342 166 100 116
18.223043 15.166089 52.470695 166 100 115
18.210453 15.268642 52.434448 166 100 115
18.199028 15.372024 52.401550 167 101 116
18.188698 15.476193 52.371807 168 102 117
18.179331 15.581061 52.344833 167 102 118
18.170759 15.686501 52.320156 165 100 117
18.162779 15.792346 52.297176 165 98 118
18.155157 15.898406 52.275230 164 98 120
18.147648 16.004473 52.253609 164 97 121
18.140003 16.110325 52.231598 163 97 121
18.131981 16.215742 52.208496 162 97 121
18.123362 16.320524 52.183678 161 97 120
18.113949 16.424480 52.156574 161 97 119
18.103579 16.527445 52.126717 161 97 119
18.092123 16.629282 52.093731 162 98 119
18.079493 16.729893 52.057365 161 97 118
18.065632 16.829199 52.017456 160 96 118
18.050528 16.927166 51.973965 160 96 118
18.034197 17.023788 51.926941 160 97 120
18.016691 17.119093 51.876537 160 97 121
17.998085 17.213127 51.822964 159 96 120
17.611443 1.095477 50.396873 221 89 126
17.600029 1.203336 50.364208 220 93 128
17.590395 1.311186 50.336643 218 96 129
17.582777 1.419080 50.314842 215 99 130
17.577326 1.527068 50.299244 211 103 131
17.574131 1.635199 50.290100 207 106 131
17.573200 1.743515 50.287434 205 111 133
17.574467 1.852051 50.291058 203 116 136
17.577784 1.960832 50.300556 200 119 136
17.582954 2.069872 50.315346 207 131 145
17.589710 2.179172 50.334679 227 158 170
17.597755 2.288723 50.357704 243 179 189
17.606768 2.398505 50.383492 240 178 186
17.616394 2.508485 50.411041 236 181 188
17.626289 2.618625 50.439358 239 199 205
17.636108 2.728874 50.467453 233 197 203
17.645527 2.839180 50.494404 221 175 183
17.654232 2.949484 50.519318 226 180 190
17.661957 3.059725 50.541424 242 199 212
17.668461 3.169842 50.560036 244 192 208
17.673550 3.279776 50.574596 240 177 198
17.677067 3.389472 50.584660 242 177 201
17.678902 3.498879 50.589912 245 180 207
17.678999 3.607954 50.590187 239 173 203
17.677338 3.716660 50.585438 221 155 187
17.673960 3.824974 50.575768 206 140 173
17.668940 3.932881 50.561401 217 155 187
17.662407 4.040380 50.542709 239 184 213
17.654530 4.147482 50.520168 247 189 216
17.645519 4.254214 50.494381 246 179 205
17.635611 4.360613 50.466030 242 170 194
17.625084 4.466733 50.435905 231 157 178
17.614233 4.572639 50.404858 224 148 168
17.603371 4.678408 50.373772 224 149 168
17.592819 4.784128 50.343575 218 146 164
17.582901 4.889893 50.315197 202 133 151
17.573938 4.995808 50.289551 196 130 146
17.566246 5.101981 50.267536 207 144 160
17.560112 5.208522 50.249985 220 159 176
17.555817 5.315543 50.237690 218 160 178
17.553600 5.423154 50.231350 205 148 169
17.553686 5.531463 50.231594 190 134 157
17.556259 5.640572 50.238956 192 137 162
17.561466 5.750575 50.253857 211 159 185
17.569412 5.861557 50.276596 215 166 193
17.580172 5.973592 50.307384 196 148 175
17.593761 6.086740 50.346275 184 139 166
17.610163 6.201044 50.393208 189 147 173
17.629301 6.316532 50.447975 191 154 178
17.651062 6.433212 50.510242 187 153 177
17.675274 6.551069 50.579529 180 150 174
17.701731 6.670071 50.655239 172 146 169
17.730177 6.790160 50.736637 165 142 164
17.760323 6.911262 50.822903 162 141 162
17.791849 7.033282 50.913120 159 142 160
17.824423 7.156111 51.006336 156 143 156
17.857689 7.279624 51.101528 151 142 151
17.891300 7.403691 51.197712 143 139 146
17.924917 7.528174 51.293907 136 136 142
17.958218 7.652938 51.389202 132 137 142
17.990910 7.777849 51.482750 133 141 147
18.022741 7.902786 51.573841 131 142 150
18.053499 8.027639 51.661861 128 139 150
18.083015 8.152311 51.746326 124 133 144
18.111170 8.276726 51.826893 131 135 145
18.137886 8.400821 51.903339 163 162 169
18.163130 8.524554 51.975574 194 188 194
18.186899 8.647899 52.043598 200 189 195
18.209232 8.770844 52.107502 176 159 167
18.230179 8.893389 52.167442 135 108 120
18.249809 9.015542 52.223618 125 89 104
18.268206 9.137321 52.276264 155 114 132
18.285448 9.258740 52.325603 189 145 166
18.301615 9.379823 52.371868 203 157 180
18.316780 9.500586 52.415264 205 158 182
18.331011 9.621043 52.455986 206 159 184
18.344360 9.741209 52.494186 207 158 183
18.356880 9.861094 52.530014 200 151 175
18.368618 9.980709 52.563599 182 133 157
18.379612 10.100060 52.595062 172 123 146
18.389910 10.219160 52.624531 186 138 158
18.399561 10.338023 52.652145 202 153 172
18.408619 10.456669 52.678070 203 154 173
18.417160 10.575130 52.702507 200 151 169
18.425255 10.693436 52.725674 200 149 167
18.432999 10.811637 52.747833 200 148 167
18.440491 10.929785 52.769276 197 145 163
18.447845 11.047942 52.790321 191 138 157
18.455166 11.166169 52.811268 184 132 150
18.462557 11.284530 52.832417 180 129 146
18.470123 11.403090 52.854073 179 131 148
18.477943 11.521902 52.876450 182 136 152
18.486069 11.641003 52.899700 178 136 151
18.494524 11.760413 52.923893 167 126 142
18.503302 11.880135 52.949013 160 122 138
18.512356 12.000144 52.974922 161 125 141
18.521595 12.120387 53.001362 166 131 147
18.530895 12.240783 53.027977 169 136 152
18.540096 12.361228 53.054302 170 137 152
18.549002 12.481587 53.079788 168 134 150
18.557394 12.601708 53.103802 166 132 148
18.565037 12.721419 53.125671 168 134 148
18.571686 12.840537 53.144699 173 139 153
18.577106 12.958881 53.160213 180 144 157
18.581068 13.076264 53.171551 184 147 161
18.583374 13.192521 53.178146 187 148 163
18.583849 13.307496 53.179508 187 147 162
18.582371 13.421064 53.175274 184 141 156
18.578856 13.533132 53.165215 180 134 150
18.573277 13.643641 53.149250 176 128 144
18.565664 13.752574 53.127472 172 123 138
18.556107 13.859961 53.100121 169 119 132
18.544743 13.965867 53.067600 170 118 129
18.531765 14.070410 53.030464 180 126 136
18.517408 14.173738 52.989384 191 135 145
18.501944 14.276031 52.945129 190 132 144
18.485668 14.377505 52.898552 182 123 136
18.468891 14.478385 52.850544 175 114 130
18.451920 14.578902 52.801975 172 109 126
18.435053 14.679296 52.753716 168 103 122
18.418564 14.779783 52.706528 166 100 119
18.402691 14.880567 52.661106 165 99 117
18.387630 14.981814 52.618008 164 100 116
18.373528 15.083663 52.577648 165 100 116
18.360466 15.186200 52.540276 165 100 115
18.348475 15.289467 52.505959 165 100 114
18.337519 15.393455 52.474609 165 100 114
18.327517 15.498115 52.445984 165 99 114
18.318331 15.603346 52.419701 164 99 115
18.309784 15.709013 52.395245 164 98 116
18.301670 15.814948 52.372025 164 97 117
18.293760 15.920960 52.349392 163 96 118
18.285812 16.026842 52.326645 162 96 119
18.277588 16.132381 52.303108 162 96 120
18.268854 16.237366 52.278118 161 95 119
18.259409 16.341608 52.251091 160 96 118
18.249077 16.444933 52.221523 160 97 118
18.237711 16.547192 52.188999 160 97 117
18.225201 16.648266 52.153198 159 96 116
18.211477 16.748070 52.113930 157 95 115
18.196510 16.846554 52.071102 157 94 115
18.180305 16.943699 52.024727 157 94 116
18.162893 17.039513 51.974903 158 95 119
18.144346 17.134037 51.921825 159 95 120
18.124750 17.227337 51.865749 158 94 119
17.706039 1.203162 50.356934 217 89 124
17.696405 1.311001 50.329533 214 92 125
17.688730 1.418879 50.307709 211 96 126
17.683172 1.526845 50.291901 207 99 127
17.679823 1.634948 50.282372 202 103 128
17.678694 1.743228 50.279160 201 108 132
17.679724 1.851721 50.282089 198 113 134
17.682777 1.960451 50.290779 196 116 136
17.687656 2.069432 50.304653 206 132 149
17.694107 2.178666 50.322998 229 161 177
17.701836 2.288144 50.344978 246 182 196
17.710520 2.397847 50.369678 246 183 195
17.719820 2.507743 50.396126 242 184 195
17.729383 2.617792 50.423328 241 193 204
17.738874 2.727947 50.450317 234 188 199
17.747965 2.838155 50.476173 225 171 182
17.756346 2.948356 50.500008 228 173 186
17.763741 3.058491 50.521038 240 187 202
17.769913 3.168497 50.538593 243 185 202
17.774658 3.278317 50.552090 243 180 201
17.777819 3.387892 50.561081 245 182 206
17.779282 3.497173 50.565239 246 182 209
17.778984 3.606114 50.564392 243 178 208
17.776905 3.714679 50.558479 233 169 201
17.773081 3.822844 50.547604 218 154 187
17.767591 3.930593 50.531994 212 146 178
17.760567 4.037926 50.512012 225 158 190
17.752176 4.144854 50.488152 243 180 208
17.742638 4.251403 50.461021 252 193 218
17.732197 4.357615 50.431324 246 186 207
17.721138 4.463542 50.399876 229 160 180
17.709766 4.569253 50.367535 219 143 162
17.698406 4.674828 50.335224 220 144 163
17.687387 4.780356 50.303890 219 146 165
17.677050 4.885937 50.274487 207 138 157
17.667721 4.991676 50.247955 196 130 149
17.659721 5.097685 50.225204 200 137 157
17.653355 5.204076 50.207096 212 152 173
17.648903 5.310966 50.194435 216 158 181
17.646618 5.418467 50.187935 206 149 174
17.646727 5.526689 50.188248 190 134 161
17.649416 5.635737 50.195896 190 136 163
17.654842 5.745708 50.211327 213 162 190
17.663111 5.856688 50.234840 221 173 200
17.674295 5.968755 50.266655 197 149 176
17.688419 6.081970 50.306824 183 137 163
17.705458 6.196377 50.355282 189 146 171
17.725338 6.312006 50.411819 192 154 178
17.747936 6.428862 50.476089 189 155 178
17.773079 6.546933 50.547600 181 152 174
17.800545 6.666183 50.625713 172 147 169
17.830063 6.786550 50.709663 164 143 164
17.861330 6.907956 50.798588 158 142 160
17.894009 7.030299 50.891525 155 143 157
17.927736 7.153462 50.987450 152 144 154
17.962139 7.277312 51.085300 147 142 149
17.996845 7.401709 51.184002 137 138 140
18.031485 7.526503 51.282520 128 134 134
18.065716 7.651549 51.379875 130 140 140
18.099224 7.776704 51.475174 139 152 154
18.131737 7.901836 51.567642 139 153 159
18.163029 8.026828 51.656635 132 147 155
18.192926 8.151578 51.741669 139 152 162
18.221308 8.276006 51.822384 162 168 177
18.248102 8.400051 51.898586 193 195 200
18.273285 8.523674 51.970211 221 220 222
18.296879 8.646855 52.037315 234 232 233
18.318939 8.769590 52.100052 214 205 209
18.339548 8.891892 52.158669 160 139 148
18.358809 9.013785 52.213444 128 96 109
18.376831 9.135300 52.264706 150 112 128
18.393732 9.256470 52.312767 188 146 164
18.409622 9.377333 52.357960 206 161 182
18.424603 9.497921 52.400566 207 161 184
18.438765 9.618267 52.440845 207 161 185
18.452187 9.738395 52.479019 207 160 184
18.464933 9.858328 52.515274 201 153 177
18.477057 9.978080 52.549751 185 137 160
18.488604 10.097666 52.582588 173 126 148
18.499611 10.217094 52.613892 184 137 158
18.510115 10.336379 52.643772 197 148 168
18.520161 10.455532 52.672340 198 150 169
18.529797 10.574574 52.699745 195 146 164
18.539072 10.693527 52.726124 193 143 161
18.548054 10.812424 52.751671 194 143 160
18.556814 10.931299 52.776585 192 140 158
18.565434 11.050198 52.801098 187 135 153
18.573992 11.169166 52.825439 181 129 147
18.582563 11.288246 52.849815 179 129 146
18.591234 11.407494 52.874477 180 132 149
18.600058 11.526940 52.899570 182 136 152
18.609072 11.646616 52.925209 175 132 148
18.618294 11.766532 52.951431 163 122 137
18.627707 11.886684 52.978203 156 118 133
18.637260 12.007043 53.005379 160 124 139
18.646875 12.127558 53.032722 167 133 148
18.656431 12.248152 53.059898 172 138 154
18.665775 12.368723 53.086475 173 140 156
18.674732 12.489150 53.111950 173 140 155
18.683102 12.609290 53.135754 172 139 154
18.690666 12.728985 53.157269 173 140 153
18.697205 12.848066 53.175861 177 143 155
18.702501 12.966369 53.190929 180 145 157
18.706352 13.083723 53.201878 185 148 161
18.708576 13.199978 53.208202 192 154 167
18.709023 13.314994 53.209473 195 155 169
18.707577 13.428658 53.205364 191 149 164
18.704182 13.540893 53.195705 184 139 154
18.698814 13.651646 53.180439 178 130 146
18.691509 13.760908 53.159668 174 125 140
18.682367 13.868715 53.133663 171 121 134
18.671518 13.975134 53.102810 170 117 129
18.659159 14.080278 53.067657 179 124 136
18.645512 14.184293 53.028843 193 137 148
18.630838 14.287354 52.987114 196 138 150
18.615423 14.389660 52.943272 186 127 140
18.599558 14.491426 52.898151 175 114 130
18.583532 14.592873 52.852573 172 108 126
18.567627 14.694218 52.807335 168 104 123
18.552090 14.795662 52.763149 166 100 119
18.537144 14.897388 52.720638 165 100 117
18.522955 14.999547 52.680286 164 100 116
18.509655 15.102257 52.642460 165 100 116
18.497305 15.205585 52.607338 165 100 116
18.485918 15.309557 52.574951 164 99 114
18.475441 15.414149 52.545151 163 98 113
18.465782 15.519301 52.517681 163 97 112
18.456793 15.624902 52.492119 163 97 114
18.448292 15.730808 52.467941 163 96 115
18.440071 15.836852 52.444561 163 95 116
18.431902 15.942839 52.421326 162 95 116
18.423550 16.048565 52.397572 161 94 116
18.414783 16.153828 52.372639 160 94 117
18.405384 16.258423 52.345909 159 94 116
18.395170 16.362177 52.316856 160 95 116
18.383974 16.464928 52.285019 160 97 116
18.371674 16.566544 52.250034 158 97 116
18.358177 16.666925 52.211651 155 95 115
18.343441 16.766006 52.169739 152 93 113
18.327448 16.863750 52.124252 152 92 114
18.310221 16.960157 52.075260 153 93 117
18.291815 17.055252 52.022915 154 94 120
18.272312 17.149092 51.967445 156 94 121
17.801239 1.310731 50.319187 211 87 120
17.793625 1.418596 50.297668 207 92 122
17.788088 1.526545 50.282013 203 96 124
17.784718 1.634627 50.272488 199 100 126
17.783529 1.742881 50.269131 196 106 130
17.784472 1.851342 50.271790 193 109 132
17.787407 1.960034 50.280090 193 114 135
17.792143 2.068972 50.293476 207 134 155
17.798426 2.178157 50.311234 232 166 186
17.805971 2.287580 50.332565 248 185 204
17.814455 2.397222 50.356548 249 185 202
17.823544 2.507052 50.382236 246 183 199
17.832884 2.617030 50.408638 243 185 200
17.842140 2.727109 50.434807 237 181 196
17.850988 2.837235 50.459816 232 174 189
17.859114 2.947351 50.482784 233 174 190
17.866240 3.057394 50.502926 238 180 197
17.872124 3.167304 50.519562 242 183 201
17.876564 3.277021 50.532112 247 187 209
17.879395 3.386488 50.540115 248 190 214
17.880501 3.495651 50.543240 247 185 212
17.879816 3.604468 50.541306 246 183 212
17.877323 3.712900 50.534256 246 187 217
17.873049 3.820921 50.522175 234 177 208
17.867081 3.928517 50.505302 209 144 175
17.859547 4.035687 50.484013 207 135 165
17.850632 4.142445 50.458805 232 168 194
17.840548 4.248816 50.430305 251 202 224
17.829557 4.354842 50.399239 246 197 217
17.817953 4.460581 50.366432 226 162 183
17.806047 4.566101 50.332783 215 139 159
17.794178 4.671485 50.299229 216 139 159
17.782686 4.776826 50.266747 216 142 163
17.771919 4.882227 50.236309 208 138 159
17.762218 4.987795 50.208889 195 130 152
17.753912 5.093646 50.185410 193 132 155
17.747311 5.199894 50.166748 204 146 170
17.742704 5.306659 50.153732 212 157 182
17.740351 5.414055 50.147076 205 151 177
17.740479 5.522195 50.147438 188 134 161
17.743284 5.631187 50.155369 185 132 159
17.748924 5.741129 50.171307 210 159 186
17.757504 5.852108 50.195560 222 174 199
17.769098 5.964206 50.228336 198 150 174
17.783728 6.077481 50.269691 181 133 157
17.801373 6.191982 50.319569 188 145 166
17.821951 6.307738 50.377739 193 155 175
17.845337 6.424755 50.443840 190 156 177
17.871344 6.543016 50.517357 183 153 174
17.899744 6.662485 50.597633 173 149 170
17.930252 6.783098 50.683872 163 144 164
17.962551 6.904771 50.775173 156 142 158
17.996279 7.027396 50.870514 152 143 155
18.031061 7.150849 50.968834 150 145 153
18.066492 7.274989 51.068989 145 144 148
18.102179 7.399664 51.169861 133 136 135
18.137728 7.524717 51.270351 121 127 124
18.172777 7.649993 51.369427 132 142 139
18.206991 7.775339 51.466137 164 175 175
18.240078 7.900614 51.559666 169 181 185
18.271807 8.025696 51.649353 146 158 167
18.301991 8.150476 51.734673 151 163 174
18.330509 8.274874 51.815292 178 184 195
18.357302 8.398828 51.891026 188 189 197
18.382355 8.522302 51.961845 207 205 209
18.405708 8.645284 52.027859 234 233 236
18.427441 8.767778 52.089291 231 225 228
18.447666 8.889812 52.146461 180 164 171
18.466515 9.011419 52.199738 137 110 121
18.484133 9.132649 52.249542 148 113 127
18.500666 9.253551 52.296276 187 147 164
18.516262 9.374180 52.340363 208 166 184
18.531046 9.494584 52.382156 211 166 187
18.545141 9.614810 52.421997 210 164 186
18.558643 9.734896 52.460159 208 162 185
18.571629 9.854874 52.496872 202 156 179
18.584160 9.974765 52.532291 186 140 163
18.596287 10.094589 52.566570 175 129 152
18.608038 10.214355 52.599789 181 134 156
18.619446 10.334075 52.632038 188 142 162
18.630531 10.453752 52.663372 190 144 163
18.641323 10.573397 52.693874 189 142 160
18.651848 10.693021 52.723625 189 140 157
18.662140 10.812638 52.752720 189 140 156
18.672243 10.932271 52.781277 189 139 155
18.682205 11.051944 52.809441 187 136 153
18.692080 11.171683 52.837349 184 132 150
18.701908 11.291518 52.865135 183 133 151
18.711756 11.411483 52.892967 184 136 153
18.721655 11.531600 52.920952 181 135 152
18.731625 11.651881 52.949135 172 127 143
18.741669 11.772330 52.977524 160 119 134
18.751764 11.892936 53.006065 157 118 133
18.761868 12.013667 53.034618 162 125 140
18.771891 12.134472 53.062958 169 134 150
18.781723 12.255274 53.090748 174 140 156
18.791233 12.375981 53.117626 178 144 159
18.800249 12.496478 53.143116 180 146 161
18.808596 12.616636 53.166710 181 148 162
18.816076 12.736308 53.187851 182 149 161
18.822489 12.855344 53.205978 183 150 160
18.827646 12.973591 53.220558 181 147 158
18.831360 13.090899 53.231056 184 148 159
18.833473 13.207129 53.237030 197 159 171
18.833857 13.322161 53.238113 209 169 182
18.832415 13.435897 53.234039 206 164 178
18.829100 13.548265 53.224667 191 146 160
18.823906 13.659230 53.209984 178 131 146
18.816875 13.768790 53.190113 174 124 138
18.808105 13.876980 53.165325 172 120 134
18.797739 13.983873 53.136021 171 117 129
18.785957 14.089581 53.102718 175 120 131
18.772985 14.194244 53.066048 186 129 141
18.759071 14.298031 53.026714 192 134 147
18.744484 14.401132 52.985481 186 128 142
18.729500 14.503748 52.943127 176 116 133
18.714394 14.606084 52.900425 171 110 128
18.699423 14.708345 52.858109 168 105 125
18.684818 14.810713 52.816826 165 102 122
18.670778 14.913353 52.777134 164 101 119
18.657450 15.016396 52.739460 164 101 118
18.644941 15.119940 52.704102 164 101 118
18.633295 15.224038 52.671185 164 101 116
18.622507 15.328699 52.640690 163 99 114
18.612511 15.433886 52.612431 161 97 112
18.603201 15.539523 52.586113 160 95 111
18.594418 15.645492 52.561287 161 95 113
18.585979 15.751644 52.537434 162 95 114
18.577673 15.857806 52.513950 162 94 115
18.569273 15.963787 52.490208 161 93 115
18.560553 16.069389 52.465557 159 92 114
18.551289 16.174410 52.439369 158 93 114
18.541277 16.278662 52.411076 158 93 114
18.530348 16.381981 52.380180 156 95 114
18.518356 16.484219 52.346279 155 97 115
18.505192 16.585262 52.309071 153 97 115
18.490788 16.685026 52.268356 149 96 115
18.475119 16.783464 52.224064 145 94 115
18.458185 16.880556 52.176193 144 92 116
18.440029 16.976315 52.124874 145 93 119
18.420725 17.070789 52.070305 147 92 123
17.904896 1.310379 50.305664 206 82 113
17.897457 1.418232 50.284763 204 88 117
17.892061 1.526168 50.269604 201 93 120
17.888798 1.634235 50.260437 197 98 124
17.887691 1.742471 50.257324 194 104 127
17.888678 1.850911 50.260094 189 106 128
17.891628 1.959578 50.268387 189 111 133
17.896355 2.068486 50.281666 208 137 158
17.902599 2.177636 50.299213 235 170 192
17.910082 2.287020 50.320232 247 185 205
17.918482 2.396617 50.343838 245 180 199
17.927464 2.506397 50.369068 243 176 195
17.936678 2.616319 50.394955 240 176 194
17.945786 2.726338 50.420547 238 175 192
17.954462 2.836398 50.444923 235 175 191
17.962393 2.946441 50.467209 233 175 191
17.969299 3.056406 50.486610 234 176 193
17.974937 3.166231 50.502449 240 181 200
17.979099 3.275856 50.514145 248 190 212
17.981621 3.385222 50.521229 249 195 218
17.982382 3.494277 50.523369 248 188 213
17.981314 3.602974 50.520367 249 189 216
17.978401 3.711278 50.512184 251 198 225
17.973671 3.819160 50.498898 241 186 214
17.967215 3.926608 50.480751 214 148 177
17.959164 4.033619 50.458138 203 131 158
17.949707 4.140209 50.431564 223 161 185
17.939070 4.246404 50.401676 246 205 224
17.927517 4.352248 50.369221 245 207 224
17.915356 4.457801 50.335049 225 167 186
17.902908 4.563134 50.300079 211 136 156
17.890528 4.668334 50.265293 210 132 153
17.878561 4.773493 50.231670 212 137 159
17.867371 4.878720 50.200230 208 137 161
17.857304 4.984126 50.171951 196 131 156
17.848701 5.089826 50.147778 189 129 154
17.841877 5.195940 50.128605 196 140 165
17.837132 5.302590 50.115273 208 155 180
17.834724 5.409892 50.108509 205 153 177
17.834888 5.517959 50.108967 185 134 155
17.837818 5.626902 50.117203 177 126 145
17.843674 5.736820 50.133656 201 155 173
17.852564 5.847803 50.158627 222 181 197
17.864559 5.959930 50.192333 200 155 171
17.879683 6.073265 50.234821 177 130 145
17.897903 6.187854 50.286015 186 142 156
17.919140 6.303724 50.345680 194 154 170
17.943256 6.420883 50.413441 191 156 174
17.970066 6.539313 50.488766 185 155 174
17.999323 6.658973 50.570965 176 152 171
18.030733 6.779799 50.659218 164 146 164
18.063963 6.901699 50.752579 154 142 157
18.098635 7.024561 50.849995 149 142 154
18.134352 7.148256 50.950344 147 145 152
18.170691 7.272632 51.052444 144 145 147
18.207235 7.397532 51.155117 131 135 133
18.243574 7.522789 51.257214 117 123 119
18.279318 7.648238 51.357639 134 142 138
18.314117 7.773719 51.455414 185 192 192
18.347668 7.899084 51.549679 197 203 208
18.379726 8.024203 51.639748 156 164 175
18.410099 8.148966 51.725086 146 153 168
18.438673 8.273288 51.805367 163 166 181
18.465384 8.397109 51.880409 155 153 167
18.490238 8.520399 51.950241 164 159 170
18.513292 8.643149 52.015015 204 199 208
18.534649 8.765376 52.075020 220 212 218
18.554449 8.887116 52.130650 181 166 172
18.572853 9.008419 52.182358 140 115 123
18.590042 9.129348 52.230652 148 115 126
18.606192 9.249969 52.276028 187 149 162
18.621481 9.370352 52.318985 210 170 185
18.636070 9.490563 52.359974 212 169 187
18.650099 9.610662 52.399387 210 166 186
18.663685 9.730701 52.437561 208 163 185
18.676926 9.850723 52.474762 201 157 180
18.689886 9.970755 52.511173 185 141 164
18.702620 10.090821 52.546951 174 129 152
18.715153 10.210933 52.582161 175 131 153
18.727501 10.331095 52.616859 180 136 156
18.739674 10.451307 52.651058 183 139 157
18.751675 10.571571 52.684776 185 139 157
18.763504 10.691882 52.718010 186 140 156
18.775167 10.812241 52.750778 188 141 156
18.786676 10.932652 52.783115 189 141 157
18.798048 11.053121 52.815063 190 141 157
18.809303 11.173658 52.846687 190 140 156
18.820457 11.294272 52.878029 189 140 156
18.831549 11.414983 52.909191 187 139 155
18.842587 11.535794 52.940201 180 135 151
18.853567 11.656705 52.971054 170 127 142
18.864489 11.777711 53.001740 162 120 136
18.875319 11.898792 53.032169 161 121 137
18.886005 12.019913 53.062191 166 128 144
18.896471 12.141021 53.091595 172 136 152
18.906609 12.262044 53.120079 176 142 158
18.916296 12.382894 53.147293 180 146 161
18.925385 12.503467 53.172832 183 150 165
18.933714 12.623642 53.196236 187 154 168
18.941105 12.743288 53.216999 189 156 168
18.947386 12.862269 53.234646 189 155 167
18.952387 12.980451 53.248695 185 150 161
18.955946 13.097696 53.258694 185 148 160
18.957926 13.213883 53.264259 198 159 172
18.958220 13.328911 53.265087 214 173 186
18.956751 13.442690 53.260956 212 170 184
18.953484 13.555167 53.251781 193 148 163
18.948427 13.666312 53.237572 176 128 144
18.941631 13.776132 53.218479 171 121 136
18.933199 13.884669 53.194786 170 118 132
18.923269 13.991998 53.166889 170 116 128
18.912029 14.098228 53.135307 171 116 128
18.899689 14.203496 53.100636 176 120 131
18.886492 14.307965 53.063557 181 125 137
18.872694 14.411816 53.024792 183 126 141
18.858555 14.515237 52.985065 180 122 140
18.844332 14.618422 52.945107 173 115 134
18.830261 14.721553 52.905571 166 106 128
18.816555 14.824801 52.867065 163 103 125
18.803391 14.928312 52.830078 163 102 124
18.790895 15.032202 52.794971 163 102 123
18.779156 15.136547 52.761990 164 102 121
18.768198 15.241385 52.731197 164 101 119
18.757996 15.346709 52.702538 162 99 116
18.748470 15.452468 52.675774 161 97 114
18.739508 15.558577 52.650593 159 95 112
18.730938 15.664907 52.626514 160 94 112
18.722572 15.771304 52.603008 161 94 114
18.714197 15.877594 52.579479 161 94 114
18.705595 15.983586 52.555309 160 92 114
18.696541 16.089087 52.529869 158 92 112
18.686821 16.193901 52.502563 157 92 112
18.676250 16.297853 52.472866 155 93 111
18.664667 16.400789 52.440319 152 95 111
18.651945 16.502577 52.404575 149 97 112
18.637999 16.603119 52.365391 145 99 113
18.622770 16.702343 52.322605 140 99 115
18.606256 16.800222 52.276207 136 97 117
18.588476 16.896751 52.226254 134 95 120
18.569490 16.991961 52.172909 133 94 122
18.000240 1.417789 50.269085 200 84 110
17.995098 1.525717 50.254723 199 90 116
17.992064 1.633773 50.246254 196 96 120
17.991154 1.741999 50.243710 191 100 124
17.992310 1.850427 50.246937 185 100 124
17.995399 1.959078 50.255566 187 107 131
18.000231 2.067968 50.269058 210 136 160
18.006554 2.177095 50.286716 236 169 192
18.014082 2.286452 50.307739 243 177 200
18.022497 2.396017 50.331242 236 168 190
18.031462 2.505760 50.356277 231 162 183
18.040628 2.615640 50.381874 230 163 183
18.049660 2.725610 50.407097 231 167 185
18.058224 2.835616 50.431019 230 169 185
18.066011 2.945598 50.452763 228 168 184
18.072737 3.055494 50.471546 227 167 185
18.078157 3.165243 50.486683 232 172 192
18.082064 3.274783 50.497589 241 180 201
18.084286 3.384054 50.503799 242 182 205
18.084705 3.493004 50.504967 242 178 203
18.083256 3.601587 50.500919 247 184 208
18.079916 3.709765 50.491592 246 187 212
18.074722 3.817511 50.477093 238 178 203
18.067762 3.924811 50.457653 226 159 185
18.059183 4.031665 50.433693 213 141 166
18.049171 4.138088 50.405735 217 151 174
18.037968 4.244110 50.374447 237 192 210
18.025846 4.349775 50.340595 244 207 222
18.013124 4.455145 50.305065 226 172 189
18.000139 4.560297 50.268803 208 135 155
17.987247 4.665316 50.232803 205 128 150
17.974819 4.770302 50.198093 208 134 158
17.963219 4.875364 50.165695 207 138 163
17.952806 4.980616 50.136620 199 134 160
17.943932 5.086178 50.111832 188 128 155
17.936913 5.192171 50.092232 189 134 160
17.932056 5.298717 50.078671 203 151 174
17.929623 5.405936 50.071869 205 154 172
17.929848 5.513943 50.072498 183 132 145
17.932928 5.622849 50.081104 166 117 125
17.939020 5.732753 50.098114 193 153 157
17.948229 5.843747 50.123833 226 199 201
17.960629 5.955908 50.158463 205 173 175
17.976231 6.069301 50.202034 172 130 132
17.995007 6.183972 50.254471 179 136 140
18.016865 6.299947 50.315514 192 152 160
18.041664 6.417231 50.384773 193 157 169
18.069210 6.535807 50.461697 189 158 173
18.099247 6.655631 50.545582 179 155 171
18.131468 6.776632 50.635563 165 147 164
18.165524 6.898719 50.730671 153 141 157
18.201025 7.021773 50.829811 147 140 153
18.237553 7.145658 50.931828 145 142 152
18.274673 7.270217 51.035492 144 143 148
18.311943 7.395284 51.139576 134 136 137
18.348936 7.520686 51.242882 123 126 125
18.385248 7.646250 51.344292 140 144 144
18.420509 7.771808 51.442764 192 194 196
18.454407 7.897208 51.537434 204 205 212
18.486687 8.022312 51.627579 158 160 173
18.517153 8.147009 51.712662 136 137 155
18.545691 8.271211 51.792358 140 138 158
18.572248 8.394862 51.866524 128 122 142
18.596840 8.517933 51.935204 130 121 139
18.619543 8.640423 51.998604 167 157 171
18.640482 8.762357 52.057079 192 180 189
18.659824 8.883783 52.111099 170 152 159
18.677761 9.004765 52.161190 140 114 122
18.694504 9.125380 52.207947 151 119 128
18.710262 9.245708 52.251953 189 153 164
18.725241 9.365839 52.293785 214 175 188
18.739634 9.485852 52.333981 219 180 195
18.753603 9.605822 52.372993 215 175 192
18.767288 9.725812 52.411209 206 164 184
18.780796 9.845875 52.448936 197 154 176
18.794209 9.966049 52.486389 181 138 162
18.807573 10.086360 52.523716 169 126 150
18.820915 10.206819 52.560974 169 127 150
18.834240 10.327428 52.598186 175 133 154
18.847534 10.448183 52.635319 179 138 156
18.860786 10.569073 52.672325 182 140 157
18.873964 10.690081 52.709126 186 142 157
18.887049 10.811193 52.745667 189 144 159
18.900015 10.932395 52.781876 192 146 161
18.912853 11.053679 52.817730 194 147 162
18.925545 11.175030 52.853176 195 148 164
18.938084 11.296442 52.888191 193 146 162
18.950470 11.417915 52.922783 186 140 156
18.962696 11.539438 52.956928 178 134 150
18.974743 11.660998 52.990566 169 128 143
18.986586 11.782578 53.023640 164 124 140
18.998190 11.904151 53.056053 165 126 142
19.009499 12.025676 53.087631 170 133 149
19.020437 12.147099 53.118179 174 139 155
19.030905 12.268353 53.147411 177 143 159
19.040791 12.389354 53.175018 180 147 163
19.049967 12.510006 53.200645 184 150 166
19.058283 12.630200 53.223869 187 154 168
19.065588 12.749819 53.244274 190 156 170
19.071733 12.868742 53.261436 191 157 170
19.076571 12.986848 53.274940 188 153 166
19.079962 13.104020 53.284412 185 148 161
19.081793 13.220152 53.289524 190 151 164
19.081974 13.335154 53.290031 200 159 173
19.080452 13.448956 53.285782 200 158 173
19.077206 13.561514 53.276714 187 142 159
19.072252 13.672810 53.262882 174 127 143
19.065657 13.782859 53.244465 169 119 134
19.057524 13.891707 53.221752 168 116 129
19.047995 13.999433 53.195141 168 114 127
19.037252 14.106143 53.165138 169 114 126
19.025501 14.211971 53.132324 170 114 126
19.012980 14.317077 53.097351 174 118 131
18.999924 14.421627 53.060890 180 124 139
18.986584 14.525803 53.023636 182 126 144
18.973196 14.629781 52.986248 174 117 137
18.959984 14.733735 52.949352 164 107 129
18.947136 14.837813 52.913467 161 102 126
18.934807 14.942149 52.879044 164 105 128
18.923109 15.046836 52.846371 168 108 131
18.912106 15.151940 52.815643 168 107 129
18.901806 15.257478 52.786877 164 102 122
18.892168 15.363431 52.759964 161 98 117
18.883099 15.469734 52.734634 161 97 115
18.874470 15.576291 52.710537 160 95 114
18.866110 15.682968 52.687191 160 94 114
18.857824 15.789605 52.664051 159 93 114
18.849400 15.896028 52.640522 159 93 114
18.840618 16.002045 52.615997 158 91 113
18.831264 16.107466 52.589878 157 91 112
18.821136 16.212109 52.561596 155 91 110
18.810057 16.315804 52.530655 152 93 109
18.797884 16.418407 52.496655 149 95 109
18.784506 16.519808 52.459293 144 97 110
18.769852 16.619917 52.418373 138 100 112
18.753887 16.718681 52.373783 132 101 115
18.736622 16.816086 52.325569 127 102 118
