ply
format ascii 1.0
element vertex 1161
property float x
property float y
property float z
property uchar red
property uchar green
property uchar blue
end_header
15.866228 6.830362 79.048805 192 144 144
15.855015 6.995817 78.992935 191 145 145
15.844162 7.161194 78.938866 189 144 145
15.833615 7.326479 78.886322 190 144 147
15.823307 7.491652 78.834961 193 147 151
15.813165 7.656682 78.784431 199 154 158
15.803100 7.821533 78.734283 207 162 166
15.793021 7.986161 78.684074 211 165 170
15.782839 8.150519 78.633339 211 165 169
15.772463 8.314556 78.581642 211 164 168
15.761814 8.478224 78.528587 213 167 171
15.750823 8.641475 78.473831 220 175 180
15.739433 8.804267 78.417084 227 183 190
15.727613 8.966569 78.358192 218 175 185
15.715346 9.128358 78.297081 202 159 172
15.702646 9.289627 78.233803 205 162 177
15.689547 9.450381 78.168541 225 184 200
15.676101 9.610643 78.101547 240 201 217
15.662385 9.770448 78.033211 230 189 204
15.648497 9.929849 77.964020 205 159 173
15.634542 10.088908 77.894501 206 157 169
15.620641 10.247703 77.825233 232 180 191
15.606918 10.406318 77.756866 249 198 207
15.593502 10.564845 77.690025 252 203 212
15.580513 10.723379 77.625313 237 185 194
15.568073 10.882017 77.563332 205 147 158
15.556288 11.040854 77.504616 189 131 141
15.545262 11.199984 77.449684 195 137 149
15.535082 11.359495 77.398964 201 144 156
15.525830 11.519477 77.352875 204 147 158
15.517570 11.680006 77.311714 204 149 159
15.510360 11.841159 77.275795 203 150 161
15.504244 12.003005 77.245323 203 151 160
15.499258 12.165606 77.220482 202 152 160
15.495428 12.329021 77.201401 205 157 163
15.492770 12.493298 77.188156 207 157 165
15.491285 12.658476 77.180763 198 147 156
15.490967 12.824588 77.179176 193 138 148
15.491792 12.991652 77.183281 209 152 164
15.493718 13.159669 77.192879 233 175 191
15.496686 13.328624 77.207672 239 174 193
15.500621 13.498484 77.227272 220 141 162
15.505418 13.669189 77.251175 197 107 130
15.510957 13.840659 77.278770 189 94 118
15.517097 14.012791 77.309357 193 94 117
15.523674 14.185454 77.342125 196 93 117
15.530513 14.358500 77.376198 194 90 112
15.537426 14.531763 77.410645 190 84 106
15.544215 14.705057 77.444466 185 78 99
15.550690 14.878195 77.476723 185 77 97
15.556661 15.050986 77.506477 189 80 101
15.561954 15.223243 77.532852 193 87 107
15.566418 15.394791 77.555084 194 90 110
15.569918 15.565473 77.572525 188 85 106
15.572355 15.735156 77.584663 180 81 101
15.573663 15.903738 77.591179 175 79 98
15.573806 16.071146 77.591896 173 82 100
15.572787 16.237345 77.586823 177 89 107
15.570640 16.402334 77.576118 181 96 114
15.567427 16.566143 77.560112 183 99 118
15.563240 16.728836 77.539253 183 100 119
15.558193 16.890507 77.514107 184 102 121
15.552414 17.051264 77.485313 184 103 122
15.546041 17.211241 77.453568 182 102 121
15.539220 17.370581 77.419579 180 99 118
15.532090 17.529425 77.384064 177 96 116
15.524786 17.687916 77.347672 174 92 112
15.517432 17.846193 77.311028 171 87 108
15.510134 18.004379 77.274666 171 84 106
15.502984 18.162580 77.239044 171 83 106
15.496052 18.320885 77.204506 171 82 105
15.489389 18.479364 77.171318 172 81 106
15.483027 18.638060 77.139610 174 82 111
15.476977 18.796999 77.109474 178 86 116
15.471238 18.956190 77.080879 178 88 119
15.465792 19.115618 77.053749 173 86 115
15.460607 19.275257 77.027916 168 83 109
15.455648 19.435068 77.003212 164 84 104
15.450869 19.594999 76.979401 165 89 101
15.446226 19.755003 76.956268 178 107 114
15.441678 19.915030 76.933609 206 142 147
15.437192 20.075037 76.911255 221 163 168
15.432740 20.234995 76.889076 214 154 162
15.428305 20.394880 76.866982 203 140 153
15.423888 20.554693 76.844978 203 140 157
15.419506 20.714458 76.823143 206 144 166
15.415193 20.874222 76.801651 202 140 165
15.411002 21.034061 76.780777 192 128 156
15.407010 21.194082 76.760887 189 122 151
15.403316 21.354431 76.742477 204 133 163
15.400033 21.515276 76.726120 230 154 185
15.397300 21.676825 76.712502 232 151 183
15.395270 21.839312 76.702393 208 120 152
15.394110 22.002996 76.696609 182 90 119
15.393999 22.168169 76.696060 169 74 100
15.395122 22.335129 76.701653 167 72 93
15.397663 22.504187 76.714310 168 74 90
15.401802 22.675650 76.734932 166 76 87
15.407709 22.849825 76.764366 159 73 80
15.415534 23.026993 76.803352 147 64 68
15.425400 23.207396 76.852501 141 60 64
15.437398 23.391245 76.912285 145 67 70
16.301279 2.266285 80.353325 138 44 58
16.304228 2.439941 80.367867 158 63 77
16.305519 2.613394 80.374222 162 67 82
16.305147 2.786591 80.372391 157 63 79
16.303143 2.959482 80.362503 161 68 86
16.299553 3.132027 80.344810 166 76 95
16.294453 3.304189 80.319672 162 76 95
16.287931 3.475940 80.287529 155 75 94
16.280098 3.647257 80.248909 156 80 98
16.271063 3.818127 80.204384 162 91 108
16.260956 3.988541 80.154556 172 103 121
16.249903 4.158499 80.100075 179 114 130
16.238041 4.328006 80.041603 183 120 135
16.225502 4.497074 79.979797 186 124 138
16.212425 4.665720 79.915337 189 128 141
16.198940 4.833966 79.848862 192 132 144
16.185175 5.001840 79.781013 193 133 146
16.171251 5.169370 79.712379 191 132 144
16.157280 5.336588 79.643517 188 130 141
16.143360 5.503527 79.574898 188 131 141
16.129585 5.670222 79.507004 187 131 141
16.116035 5.836705 79.440208 187 131 141
16.102777 6.003008 79.374855 188 134 143
16.089861 6.169161 79.311188 192 138 145
16.077330 6.335191 79.249413 195 143 147
16.065205 6.501120 79.189644 195 145 149
16.053493 6.666963 79.131927 194 146 149
16.042191 6.832731 79.076210 193 147 149
16.031269 6.998424 79.022377 194 149 150
16.020689 7.164038 78.970215 194 150 153
16.010397 7.329560 78.919487 194 151 155
16.000322 7.494965 78.869835 195 152 157
15.990393 7.660225 78.820885 201 158 163
15.980522 7.825303 78.772224 211 167 173
15.970616 7.990153 78.723404 216 171 178
15.960589 8.154731 78.673973 216 171 177
15.950350 8.318985 78.623505 217 172 177
15.939821 8.482868 78.571602 220 176 181
15.928936 8.646334 78.517952 224 181 187
15.917642 8.809340 78.462273 229 187 194
15.905905 8.971859 78.404419 226 184 195
15.893717 9.133868 78.344345 211 170 183
15.881089 9.295361 78.282097 204 163 177
15.868059 9.456346 78.217865 215 174 189
15.854681 9.616842 78.151924 231 191 206
15.841035 9.776890 78.084663 230 188 202
15.827218 9.936539 78.016548 208 161 174
15.813336 10.095854 77.948128 199 150 162
15.799516 10.254913 77.879997 218 167 177
15.785876 10.413798 77.812767 239 190 199
15.772551 10.572604 77.747086 251 203 210
15.759660 10.731423 77.683540 239 188 196
15.747326 10.890352 77.622742 212 155 166
15.735659 11.049488 77.565231 198 141 153
15.724760 11.208924 77.511505 198 141 153
15.714722 11.368751 77.462029 199 144 155
15.705625 11.529055 77.417183 203 148 157
15.697536 11.689917 77.377312 203 149 158
15.690514 11.851412 77.342697 201 149 157
15.684604 12.013610 77.313568 199 148 155
15.679842 12.176574 77.290092 200 150 157
15.676251 12.340359 77.272400 209 159 165
15.673847 12.505014 77.260544 215 164 171
15.672630 12.670578 77.254547 206 153 161
15.672589 12.837079 77.254341 195 137 147
15.673693 13.004529 77.259789 203 142 154
15.675900 13.172929 77.270660 226 161 176
15.679139 13.342256 77.286636 234 161 179
15.683331 13.512471 77.307297 217 134 154
15.688365 13.683510 77.332108 196 104 126
15.694114 13.855288 77.360443 190 92 115
15.700428 14.027692 77.391571 194 92 116
15.707143 14.200593 77.424667 198 93 116
15.714072 14.373834 77.458832 196 89 111
15.721028 14.547245 77.493118 189 81 102
15.727810 14.720641 77.526543 185 75 96
15.734223 14.893833 77.558159 185 75 95
15.740081 15.066629 77.587029 188 78 98
15.745208 15.238843 77.612305 192 84 104
15.749454 15.410303 77.633232 191 86 106
15.752690 15.580855 77.649185 186 83 103
15.754822 15.750372 77.659691 180 81 101
15.755785 15.918754 77.664444 176 81 100
15.755551 16.085934 77.663284 174 84 102
15.754128 16.251881 77.656273 176 90 107
15.751559 16.416603 77.643608 180 96 113
15.747910 16.580135 77.625626 181 99 117
15.743281 16.742548 77.602806 182 101 119
15.737795 16.903940 77.575760 183 103 121
15.731586 17.064432 77.545158 183 103 122
15.724798 17.224159 77.511696 181 102 121
15.717585 17.383268 77.476135 178 98 118
15.710090 17.541914 77.439194 175 95 115
15.702455 17.700239 77.401558 172 91 111
15.694805 17.858387 77.363853 172 88 109
15.687252 18.016483 77.326622 172 86 107
15.679890 18.174639 77.290329 172 85 106
15.672785 18.332941 77.255310 173 83 105
15.665990 18.491457 77.221817 173 81 104
15.659531 18.650229 77.189980 175 82 106
15.653419 18.809280 77.159851 178 84 110
15.647644 18.968611 77.131386 176 83 111
15.642182 19.128201 77.104462 170 79 106
15.636996 19.288013 77.078896 165 78 103
15.632041 19.448006 77.054474 165 81 102
15.627262 19.608112 77.030914 166 86 101
15.622612 19.768282 77.007996 172 97 107
15.618040 19.928452 76.985458 186 115 122
15.613508 20.088575 76.963120 198 131 138
15.608984 20.248613 76.940819 203 139 147
15.604450 20.408541 76.918465 208 143 154
15.599901 20.568354 76.896042 213 149 164
15.595354 20.728071 76.873627 214 150 168
15.590841 20.887739 76.851387 207 143 163
15.586421 21.047436 76.829597 198 133 155
15.582166 21.207264 76.808624 195 126 150
15.578175 21.367363 76.788948 198 125 150
15.574564 21.527903 76.771149 214 136 161
15.571471 21.689087 76.755905 223 139 165
15.569045 21.851143 76.743950 213 124 148
15.567454 22.014328 76.736107 193 101 123
15.566874 22.178917 76.733246 178 83 102
15.567483 22.345203 76.736252 172 77 92
15.569464 22.513485 76.746010 172 78 90
15.572993 22.684065 76.763412 171 80 88
15.578237 22.857235 76.789261 164 78 83
15.585341 23.033266 76.824280 152 69 73
15.594432 23.212404 76.869087 142 62 66
16.469055 2.265537 80.326797 138 44 58
16.472321 2.439178 80.342720 160 66 79
16.473915 2.612623 80.350510 162 69 83
16.473837 2.785818 80.350121 155 63 78
16.472115 2.958717 80.341721 159 69 85
16.468801 3.131277 80.325562 164 78 94
16.463974 3.303463 80.302010 158 77 93
16.457720 3.475246 80.271515 154 77 93
16.450150 3.646606 80.234581 159 87 103
16.441381 3.817529 80.191818 170 101 116
16.431540 3.988007 80.143822 180 114 129
16.420757 4.158040 80.091225 186 122 137
16.409170 4.327634 80.034714 189 127 141
16.396914 4.496800 79.974937 190 129 143
16.384125 4.665558 79.912560 192 132 145
16.370937 4.833928 79.848236 195 135 148
16.357477 5.001938 79.782585 196 137 149
16.343864 5.169617 79.716187 194 136 147
16.330214 5.336997 79.649605 190 133 143
16.316618 5.504108 79.583298 189 133 143
16.303173 5.670986 79.517715 189 134 144
16.289951 5.837661 79.453232 189 135 144
16.277023 6.004167 79.390175 190 137 146
16.264435 6.170529 79.328773 193 141 147
16.252226 6.336775 79.269226 194 144 149
16.240416 6.502924 79.211624 195 146 151
16.229010 6.668991 79.155991 194 147 151
16.217999 6.834983 79.102287 193 147 151
16.207354 7.000903 79.050362 195 151 155
16.197033 7.166743 79.000031 198 156 160
16.186983 7.332488 78.951012 200 158 164
16.177135 7.498115 78.902969 200 159 165
16.167412 7.663594 78.855553 203 161 168
16.157728 7.828888 78.808319 210 167 175
16.147993 7.993953 78.760834 215 172 179
16.138121 8.158743 78.712677 217 173 180
16.128021 8.323210 78.663422 218 174 180
16.117620 8.487305 78.612701 220 176 183
16.106855 8.650985 78.560188 221 179 187
16.095673 8.814210 78.505646 223 182 191
16.084044 8.976952 78.448929 222 181 191
16.071960 9.139190 78.389992 214 172 186
16.059437 9.300920 78.328911 204 163 178
16.046515 9.462150 78.265877 205 163 179
16.033247 9.622902 78.201164 223 182 198
16.019714 9.783214 78.135170 237 198 213
16.006018 9.943138 78.068359 230 187 202
15.992263 10.102737 78.001274 214 166 178
15.978575 10.262091 77.934509 207 159 168
15.965074 10.421279 77.868660 219 171 179
15.951894 10.580395 77.804375 237 191 198
15.939155 10.739532 77.742241 237 187 195
15.926981 10.898787 77.682861 221 168 177
15.915483 11.058256 77.626778 212 157 169
15.904762 11.218033 77.574493 202 147 159
15.894912 11.378205 77.526451 194 141 152
15.886015 11.538864 77.483055 199 146 156
15.878140 11.700089 77.444649 202 150 159
15.871344 11.861954 77.411499 198 148 155
15.865674 12.024530 77.383842 196 146 152
15.861167 12.187880 77.361862 202 152 157
15.857845 12.352058 77.345657 214 164 169
15.855720 12.517112 77.335289 219 166 174
15.854792 12.683079 77.330765 211 155 165
15.855044 12.849982 77.331993 203 142 154
15.856444 13.017834 77.338829 210 144 158
15.858941 13.186625 77.351006 226 155 172
15.862462 13.356333 77.368179 231 153 171
15.866917 13.526910 77.389900 217 129 150
15.872189 13.698287 77.415619 199 105 126
15.878146 13.870374 77.444679 193 93 115
15.884629 14.043050 77.476295 197 93 115
15.891470 14.216182 77.509659 201 94 116
15.898476 14.389607 77.543831 196 89 110
15.905454 14.563154 77.577866 187 77 98
15.912202 14.736636 77.610779 182 71 93
15.918523 14.909860 77.641609 184 73 95
15.924229 15.082632 77.669441 187 76 97
15.929147 15.254772 77.693428 189 80 100
15.933127 15.426106 77.712845 188 82 102
15.936048 15.596487 77.727089 185 83 102
15.937815 15.765789 77.735710 182 83 102
15.938371 15.933916 77.738419 179 85 104
15.937693 16.100809 77.735107 177 87 105
15.935797 16.266445 77.725861 176 91 108
15.932731 16.430834 77.710907 177 96 112
15.928571 16.594019 77.690620 179 99 116
15.923424 16.756077 77.665512 181 102 119
15.917419 16.917116 77.636230 182 103 121
15.910700 17.077261 77.603455 180 103 121
15.903420 17.236660 77.567947 177 101 119
15.895737 17.395460 77.530472 175 98 117
15.887801 17.553823 77.491768 173 95 114
15.879760 17.711899 77.452545 172 92 112
15.871744 17.869837 77.413452 172 89 109
15.863869 18.027763 77.375038 172 87 107
15.856226 18.185793 77.337761 173 85 105
15.848888 18.344015 77.301971 173 83 103
15.841903 18.502491 77.267899 174 81 101
15.835296 18.661270 77.235672 176 82 103
15.829071 18.820364 77.205315 179 83 107
15.823217 18.979771 77.176765 178 82 107
15.817701 19.139462 77.149857 173 78 103
15.812481 19.299400 77.124397 169 77 101
15.807502 19.459524 77.100113 169 81 102
15.802706 19.619772 77.076721 168 84 101
15.798035 19.780075 77.053932 168 88 102
15.793433 19.940369 77.031494 172 96 107
15.788859 20.100599 77.009186 179 106 116
15.784272 20.260717 76.986809 186 118 127
15.779654 20.420696 76.964279 197 131 141
15.774996 20.580530 76.941566 209 144 156
15.770312 20.740231 76.918724 214 149 164
15.765638 20.899845 76.895927 210 145 161
15.761026 21.059444 76.873428 203 137 152
15.756552 21.219131 76.851608 196 127 143
15.752313 21.379045 76.830933 190 117 135
15.748425 21.539349 76.811974 204 129 147
15.745024 21.700243 76.795380 225 149 167
15.742256 21.861944 76.781883 225 142 158
15.740288 22.024704 76.772278 206 117 130
15.739286 22.188789 76.767395 185 92 104
15.739431 22.354479 76.768105 175 80 90
15.740897 22.522062 76.775253 173 79 87
15.743858 22.691832 76.789696 173 83 88
15.748475 22.864067 76.812210 168 81 86
15.754893 23.039034 76.843521 156 71 76
15.763236 23.216970 76.884209 144 64 68
16.640566 2.438453 80.318848 156 64 77
16.642447 2.611889 80.327919 160 69 82
16.642643 2.785082 80.328880 152 63 76
16.641188 2.957985 80.321854 153 67 81
16.638136 3.130558 80.307121 157 75 89
16.633566 3.302765 80.285057 156 78 92
16.627567 3.474579 80.256111 156 83 97
16.620253 3.645980 80.220802 165 96 110
16.611740 3.816953 80.179718 178 112 125
16.602160 3.987492 80.133476 189 124 138
16.591640 4.157597 80.082703 193 130 144
16.580324 4.327275 80.028076 193 132 146
16.568344 4.496537 79.970253 194 133 147
16.555836 4.665401 79.909889 194 135 148
16.542938 4.833891 79.847633 195 137 150
16.529774 5.002033 79.784096 198 140 151
16.516466 5.169855 79.719864 198 141 152
16.503122 5.337389 79.655457 195 140 150
16.489841 5.504665 79.591347 192 138 147
16.476711 5.671717 79.527969 191 138 147
16.463806 5.838576 79.465691 191 139 147
16.451193 6.005273 79.404800 191 140 147
16.438915 6.171834 79.345543 192 142 148
16.427010 6.338283 79.288086 193 144 149
16.415497 6.504639 79.232513 193 146 151
16.404377 6.670915 79.178841 194 147 152
16.393639 6.837120 79.127007 193 148 154
16.383251 7.003251 79.076874 196 153 159
16.373175 7.169302 79.028236 202 160 167
16.363350 7.335256 78.980812 205 164 172
16.353712 7.501091 78.934288 206 165 173
16.344179 7.666775 78.888283 206 166 175
16.334671 7.832273 78.842392 210 169 178
16.325100 7.997541 78.796196 214 172 182
16.315378 8.162535 78.749268 218 176 185
16.305420 8.327207 78.701202 220 178 185
16.295151 8.491509 78.651642 221 179 186
16.284512 8.655400 78.600288 223 182 190
16.273455 8.818844 78.546921 221 180 190
16.261951 8.981812 78.491402 214 174 185
16.250000 9.144286 78.433708 210 169 182
16.237612 9.306263 78.373909 207 166 182
16.224829 9.467752 78.312210 208 167 184
16.211710 9.628775 78.248894 220 179 196
16.198338 9.789371 78.184349 236 196 212
16.184807 9.949593 78.119041 242 201 215
16.171228 10.109502 78.053497 233 189 202
16.157722 10.269176 77.988312 216 170 180
16.144413 10.428696 77.924080 207 160 168
16.131432 10.588153 77.861420 216 171 179
16.118902 10.747641 77.800941 226 178 187
16.106941 10.907253 77.743202 225 174 185
16.095661 11.067086 77.688766 221 170 182
16.085169 11.227234 77.638123 205 153 166
16.075556 11.387785 77.591721 189 138 151
16.066902 11.548826 77.549950 193 143 153
16.059280 11.710440 77.513161 201 153 160
16.052748 11.872702 77.481636 199 152 157
16.047354 12.035680 77.455597 196 149 152
16.043133 12.199437 77.435219 205 157 161
16.040104 12.364028 77.420609 218 169 173
16.038284 12.529499 77.411827 217 165 171
16.037664 12.695882 77.408829 210 153 163
16.038229 12.863202 77.411552 212 150 162
16.039938 13.031464 77.419800 223 155 170
16.042734 13.200656 77.433304 232 158 174
16.046541 13.370749 77.451683 231 149 167
16.051262 13.541690 77.474457 220 131 150
16.056770 13.713404 77.501045 206 110 130
16.062927 13.885793 77.530769 197 96 116
16.069569 14.058733 77.562828 199 94 114
16.076519 14.232084 77.596367 203 95 116
16.083580 14.405682 77.630455 197 87 109
16.090555 14.579346 77.664116 185 74 96
16.097237 14.752888 77.696373 180 68 92
16.103430 14.926115 77.726257 183 71 94
16.108944 15.098834 77.752876 186 74 96
16.113607 15.270863 77.775383 188 78 99
16.117270 15.442030 77.793060 187 80 101
16.119816 15.612191 77.805351 185 83 102
16.121157 15.781226 77.811821 183 85 103
16.121241 15.949045 77.812225 181 87 105
16.120052 16.115593 77.806488 178 89 107
16.117611 16.280853 77.794708 176 93 109
16.113977 16.444843 77.777168 176 96 112
16.109230 16.607611 77.754257 177 100 116
16.103491 16.769247 77.726562 179 103 119
16.096895 16.929861 77.694717 180 103 121
16.089594 17.089590 77.659477 178 103 120
16.081749 17.248583 77.621613 175 100 118
16.073524 17.407001 77.581909 173 98 115
16.065079 17.565008 77.541153 173 96 114
16.056566 17.722765 77.500061 173 94 113
16.048120 17.880419 77.459297 174 91 110
16.039858 18.038105 77.419418 174 89 107
16.031878 18.195938 77.380905 173 86 104
16.024250 18.354008 77.344086 174 83 102
16.017023 18.512381 77.309196 175 81 100
16.010218 18.671097 77.276352 178 82 102
16.003838 18.830172 77.245552 182 84 105
15.997863 18.989595 77.216721 182 83 106
15.992257 19.149338 77.189667 178 79 104
15.986971 19.309347 77.164146 175 78 102
15.981944 19.469564 77.139885 174 81 103
15.977111 19.629913 77.116562 171 82 101
15.972406 19.790321 77.093849 167 82 99
15.967770 19.950716 77.071472 166 86 100
15.963153 20.111040 77.049187 168 92 104
15.958512 20.271236 77.026787 173 100 112
15.953823 20.431276 77.004158 184 113 125
15.949077 20.591143 76.981247 199 129 142
15.944285 20.750854 76.958122 209 140 155
15.939481 20.910446 76.934929 211 142 157
15.934717 21.069992 76.911934 206 137 151
15.930068 21.229593 76.889496 193 122 136
15.925629 21.389378 76.868065 179 104 118
15.921515 21.549511 76.848213 198 129 142
15.917858 21.710184 76.830566 229 165 175
15.914804 21.871607 76.815819 235 162 171
15.912511 22.034021 76.804756 217 131 138
15.911145 22.197681 76.798164 193 100 106
15.910880 22.362860 76.796883 178 85 90
15.911886 22.529833 76.801743 174 81 85
15.914330 22.698877 76.813538 175 84 88
15.918371 22.870266 76.833038 170 83 88
15.924150 23.044254 76.860931 158 73 79
15.931788 23.221075 76.897804 147 66 72
16.811159 2.611198 80.306686 155 67 79
16.811613 2.784388 80.308853 150 64 76
16.810408 2.957294 80.303093 148 66 78
16.807600 3.129878 80.289680 152 73 86
16.803272 3.302105 80.269005 155 81 94
16.797518 3.473948 80.241516 161 92 103
16.790449 3.645386 80.207748 171 104 116
16.782185 3.816408 80.168266 183 119 131
16.772854 3.987006 80.123703 194 131 143
16.762592 4.157180 80.074677 197 135 148
16.751535 4.326939 80.021866 195 134 148
16.739822 4.496293 79.965912 196 136 150
16.727592 4.665261 79.907486 195 136 150
16.714973 4.833866 79.847206 195 136 150
16.702097 5.002133 79.785698 196 139 151
16.689079 5.170092 79.723511 199 144 155
16.676033 5.337772 79.661186 200 146 155
16.663050 5.505206 79.599167 197 145 153
16.650219 5.672423 79.537872 194 143 151
16.637613 5.839456 79.477661 192 142 149
16.625296 6.006332 79.418808 191 142 149
16.613308 6.173079 79.361549 192 144 150
16.601686 6.339717 79.306030 193 145 150
16.590446 6.506267 79.252342 193 147 151
16.579588 6.672738 79.200470 194 148 153
16.569099 6.839138 79.150368 193 150 154
16.558947 7.005464 79.101868 198 155 161
16.549089 7.171709 79.054779 205 164 171
16.539469 7.337857 79.008820 209 169 177
16.530016 7.503882 78.963669 209 170 178
16.520658 7.669756 78.918961 210 170 178
16.511312 7.835444 78.874313 211 172 180
16.501888 8.000901 78.829300 215 175 184
16.492306 8.166086 78.783524 221 180 189
16.482483 8.330952 78.736595 225 184 192
16.472345 8.495454 78.688179 228 188 195
16.461840 8.659552 78.637985 229 189 197
16.450916 8.823211 78.585808 221 182 190
16.439554 8.986404 78.531532 209 170 179
16.427750 9.149117 78.475136 206 167 179
16.415522 9.311347 78.416725 216 176 190
16.402910 9.473104 78.356483 225 185 200
16.389977 9.634411 78.294693 225 184 201
16.376801 9.795307 78.231758 224 184 200
16.363480 9.955844 78.168121 234 194 207
16.350122 10.116084 78.104317 240 198 210
16.336849 10.276102 78.040916 233 191 200
16.323784 10.435979 77.978500 216 173 181
16.311052 10.595803 77.917679 209 164 174
16.298780 10.755670 77.859055 217 171 182
16.287083 10.915668 77.803177 223 176 188
16.276075 11.075893 77.750595 220 172 186
16.265860 11.236441 77.701790 206 157 172
16.256525 11.397396 77.657204 190 142 156
16.248159 11.558847 77.617241 191 144 155
16.240831 11.720875 77.582237 202 156 163
16.234602 11.883556 77.552475 204 159 164
16.229515 12.046958 77.528183 201 155 158
16.225609 12.211142 77.509514 209 163 166
16.222902 12.376163 77.496590 223 175 178
16.221409 12.542063 77.489449 222 170 175
16.221117 12.708877 77.488060 215 158 167
16.222006 12.876620 77.492310 221 159 171
16.224033 13.045298 77.501991 233 165 179
16.227139 13.214893 77.516823 236 160 176
16.231234 13.385371 77.536385 229 145 163
16.236214 13.556672 77.560181 219 129 147
16.241953 13.728717 77.587593 208 112 130
16.248299 13.901399 77.617905 199 99 117
16.255085 14.074592 77.650322 200 94 112
16.262121 14.248146 77.683937 202 94 113
16.269213 14.421892 77.717812 195 84 106
16.276154 14.595650 77.750969 182 70 93
16.282736 14.769224 77.782410 179 66 90
16.288757 14.942421 77.811172 182 69 93
16.294031 15.115048 77.836372 184 73 95
16.298388 15.286923 77.857178 186 76 98
16.301682 15.457880 77.872910 187 80 100
16.303795 15.627774 77.883011 186 84 102
16.304649 15.796491 77.887085 184 85 103
16.304195 15.963945 77.884926 180 87 104
16.302427 16.130089 77.876480 178 90 106
16.299376 16.294914 77.861900 176 94 109
16.295103 16.458443 77.841492 176 97 113
16.289703 16.620733 77.815697 176 100 116
16.283302 16.781881 77.785118 177 102 118
16.276049 16.942007 77.750465 178 103 120
16.268097 17.101254 77.712486 176 103 119
16.259621 17.259779 77.671989 174 101 117
16.250793 17.417751 77.629822 173 100 115
16.241779 17.575342 77.586761 173 98 113
16.232737 17.732712 77.543564 174 96 113
16.223804 17.890020 77.500893 174 94 110
16.215105 18.047405 77.459343 175 91 107
16.206738 18.204981 77.419365 175 88 104
16.198771 18.362841 77.381310 176 86 102
16.191254 18.521051 77.345406 177 83 100
16.184210 18.679651 77.311752 180 83 102
16.177633 18.838652 77.280342 183 84 105
16.171503 18.998039 77.251053 183 84 105
16.165775 19.157780 77.223694 181 81 104
16.160397 19.317818 77.197998 179 81 103
16.155298 19.478083 77.173637 178 82 104
16.150410 19.638498 77.150284 174 82 102
16.145657 19.798983 77.127586 168 80 98
16.140980 19.959457 77.105240 165 81 98
16.136316 20.119856 77.082962 164 85 101
16.131624 20.280125 77.060555 168 92 106
16.126877 20.440224 77.037872 177 103 117
16.122061 20.600136 77.014862 189 117 130
16.117184 20.759872 76.991570 199 127 141
16.112278 20.919472 76.968140 202 130 144
16.107397 21.079002 76.944824 202 129 142
16.102613 21.238558 76.921967 189 115 127
16.098019 21.398268 76.900017 174 97 110
16.093725 21.558289 76.879509 194 124 135
16.089867 21.718805 76.861076 227 165 173
16.086580 21.880022 76.845375 239 170 176
16.084021 22.042168 76.833153 224 142 146
16.082352 22.205488 76.825172 200 108 112
16.081736 22.370243 76.822235 182 89 92
16.082340 22.536694 76.825127 174 81 84
16.084330 22.705111 76.834625 173 82 85
16.087852 22.875750 76.851456 169 82 87
16.093052 23.048862 76.876297 158 73 80
16.980104 2.610557 80.286964 148 62 74
16.980791 2.783741 80.290215 146 64 75
16.979816 2.956650 80.285606 147 68 79
16.977238 3.129244 80.273422 152 76 88
16.973137 3.301489 80.254028 157 86 97
16.967613 3.473358 80.227905 165 98 108
16.960775 3.644833 80.195572 174 110 120
16.952747 3.815901 80.157616 185 123 134
16.943659 3.986555 80.114639 195 133 145
16.933643 4.156797 80.067284 197 136 149
16.922840 4.326633 80.016205 195 135 149
16.911386 4.496076 79.962051 195 136 150
16.899420 4.665144 79.905472 195 137 151
16.887074 4.833858 79.847092 194 136 151
16.874472 5.002246 79.787506 194 138 151
16.861732 5.170336 79.727272 198 144 156
16.848967 5.338156 79.666908 202 150 160
16.836266 5.505737 79.606857 199 149 158
16.823715 5.673111 79.547516 194 145 154
16.811388 5.840306 79.489227 191 144 152
16.799343 6.007350 79.432274 191 144 152
16.787622 6.174269 79.376854 192 146 152
16.776258 6.341084 79.323120 194 148 153
16.765263 6.507810 79.271133 196 151 155
16.754641 6.674460 79.220909 197 153 156
16.744370 6.841038 79.172348 197 154 157
16.734425 7.007542 79.125320 200 158 163
16.724758 7.173963 79.079613 207 166 172
16.715313 7.340284 79.034958 210 170 178
16.706022 7.506483 78.991028 209 170 178
16.696814 7.672529 78.947487 209 170 178
16.687605 7.838387 78.903946 211 172 180
16.678312 8.004019 78.860008 217 178 187
16.668856 8.169379 78.815300 227 187 196
16.659155 8.334425 78.769424 231 191 200
16.649145 8.499115 78.722092 230 189 199
16.638767 8.663410 78.673027 225 185 194
16.627983 8.827277 78.622032 215 175 185
16.616770 8.990694 78.569023 209 169 180
16.605129 9.153645 78.513977 214 175 187
16.593081 9.316130 78.457008 225 185 200
16.580666 9.478160 78.398300 231 191 206
16.567945 9.639759 78.338158 222 181 197
16.555002 9.800966 78.276955 211 171 186
16.541929 9.961833 78.215141 220 181 194
16.528835 10.122419 78.153236 235 195 206
16.515839 10.282801 78.091789 239 199 209
16.503063 10.443055 78.031372 230 190 200
16.490629 10.603270 77.972588 218 176 187
16.478662 10.763535 77.916000 218 175 188
16.467278 10.923944 77.862175 221 177 193
16.456585 11.084587 77.811615 214 170 187
16.446690 11.245557 77.764832 203 158 175
16.437683 11.406940 77.722237 194 149 165
16.429646 11.568824 77.684235 194 149 162
16.422651 11.731289 77.651161 201 158 167
16.416756 11.894408 77.623291 207 163 169
16.412010 12.058249 77.600845 206 161 165
16.408447 12.222878 77.584007 213 168 170
16.406086 12.388340 77.572845 228 181 183
16.404936 12.554681 77.567406 232 181 185
16.404989 12.721931 77.567657 228 172 180
16.406216 12.890103 77.573448 231 170 180
16.408569 13.059199 77.584579 236 169 182
16.411982 13.229196 77.600716 232 157 173
16.416363 13.400053 77.621429 223 140 157
16.421598 13.571707 77.646194 213 124 142
16.427555 13.744069 77.674355 205 109 127
16.434076 13.917030 77.705185 200 99 117
16.440981 14.090454 77.737831 202 97 114
16.448080 14.264188 77.771400 201 92 112
16.455170 14.438058 77.804924 191 80 102
16.462040 14.611876 77.837410 180 68 91
16.468481 14.785450 77.867859 176 64 89
16.474289 14.958581 77.895325 179 67 92
16.479277 15.131077 77.918907 182 71 95
16.483274 15.302755 77.937813 186 76 98
16.486141 15.473453 77.951363 187 81 101
16.487764 15.643030 77.959038 187 85 103
16.488071 15.811378 77.960487 183 86 103
16.487019 15.978414 77.955513 179 86 102
16.484610 16.144100 77.944122 176 89 105
16.480881 16.308432 77.926491 176 94 109
16.475908 16.471445 77.902977 176 98 113
16.469793 16.633202 77.874069 175 101 116
16.462671 16.793806 77.840393 175 102 118
16.454697 16.953388 77.802689 174 102 118
16.446041 17.112099 77.761757 173 102 117
16.436882 17.270102 77.718452 172 102 116
16.427397 17.427574 77.673607 173 102 115
16.417765 17.584696 77.628059 174 99 114
16.408142 17.741631 77.582565 175 98 113
16.398680 17.898544 77.537819 176 97 112
16.389500 18.055578 77.494415 177 94 109
16.380703 18.212849 77.452820 178 91 106
16.372360 18.370449 77.413368 178 88 103
16.364519 18.528450 77.376297 179 85 102
16.357199 18.686884 77.341682 181 84 103
16.350393 18.845762 77.309509 183 85 105
16.344074 19.005068 77.279633 184 85 106
16.338198 19.164764 77.251846 183 84 106
16.332699 19.324787 77.225845 182 84 106
16.327507 19.485064 77.201294 180 84 107
16.322544 19.645510 77.177826 175 83 104
16.317730 19.806036 77.155067 169 80 101
16.313000 19.966566 77.132698 165 80 99
16.308289 20.127024 77.110420 165 83 101
16.303549 20.287350 77.088013 168 89 107
16.298748 20.447502 77.065315 175 99 115
16.293871 20.607462 77.042252 184 109 124
16.288929 20.767239 77.018890 190 115 130
16.283949 20.926865 76.995338 191 117 131
16.278978 21.086403 76.971840 191 116 128
16.274094 21.245951 76.948738 182 107 119
16.269384 21.405630 76.926476 173 96 107
16.264957 21.565590 76.905548 191 118 126
16.260944 21.726009 76.886566 224 157 163
16.257479 21.887085 76.870178 242 173 177
16.254709 22.049034 76.857086 232 154 156
16.252794 22.212095 76.848030 207 119 120
16.251892 22.376511 76.843765 183 92 93
16.252161 22.542534 76.845039 170 78 80
16.253761 22.710421 76.852600 166 76 79
16.256838 22.880421 76.867149 164 77 83
16.261528 23.052769 76.889328 157 72 80
17.150209 2.783148 80.273087 143 64 75
17.149446 2.956058 80.269508 148 72 82
17.147078 3.128659 80.258423 154 81 92
17.143188 3.300921 80.240219 161 92 102
17.137878 3.472816 80.215363 168 103 113
17.131258 3.644325 80.184387 177 114 124
17.123455 3.815436 80.147858 186 125 135
17.114597 3.986145 80.106392 194 134 145
17.104818 4.156451 80.060631 196 137 149
17.094259 4.326363 80.011200 195 136 149
17.083055 4.495891 79.958763 193 136 150
17.071342 4.665054 79.903938 195 138 153
17.059256 4.833875 79.847366 194 139 154
17.046915 5.002378 79.789604 192 139 153
17.034441 5.170591 79.731224 195 143 156
17.021938 5.338544 79.672707 199 149 161
17.009501 5.506265 79.614487 198 150 160
16.997210 5.673784 79.556961 193 147 156
16.985138 5.841131 79.500458 191 146 154
16.973341 6.008331 79.445236 191 147 154
16.961859 6.175408 79.391495 192 148 154
16.950724 6.342382 79.339371 195 150 156
16.939945 6.509270 79.288925 199 155 159
16.929525 6.676081 79.240150 202 159 163
16.919445 6.842819 79.192970 203 161 164
16.909672 7.009481 79.147224 204 162 166
16.900162 7.176058 79.102715 206 166 170
16.890862 7.342534 79.059181 206 166 173
16.881701 7.508884 79.016312 206 165 173
16.872612 7.675083 78.973770 205 165 173
16.863516 7.841094 78.931190 206 166 175
16.854332 8.006880 78.888199 216 176 186
16.844978 8.172399 78.844421 232 191 201
16.835384 8.337609 78.799515 235 194 205
16.825485 8.502472 78.753189 223 182 193
16.815231 8.666952 78.705185 210 169 180
16.804583 8.831018 78.655350 206 165 176
16.793522 8.994649 78.603577 213 172 184
16.782053 9.157832 78.549896 225 185 197
16.770197 9.320570 78.494400 231 190 205
16.757996 9.482874 78.437294 226 186 201
16.745514 9.644769 78.378868 211 171 185
16.732828 9.806293 78.319496 199 159 173
16.720036 9.967497 78.259613 211 172 183
16.707241 10.128442 78.199730 227 188 198
16.694559 10.289198 78.140373 234 194 204
16.682110 10.449844 78.082100 233 194 205
16.670017 10.610466 78.025505 223 183 196
16.658400 10.771151 77.971123 219 178 193
16.647371 10.931988 77.919502 219 177 195
16.637037 11.093066 77.871140 209 168 187
16.627506 11.254478 77.826523 198 155 174
16.618864 11.416309 77.786072 194 151 169
16.611195 11.578644 77.750175 194 152 167
16.604567 11.741560 77.719154 198 156 167
16.599041 11.905133 77.693291 204 161 170
16.594664 12.069430 77.672798 208 164 170
16.591467 12.234510 77.657845 216 171 174
16.589474 12.400424 77.648506 228 180 182
16.588686 12.567212 77.644829 234 183 186
16.589094 12.734900 77.646729 232 177 182
16.590666 12.903502 77.654091 231 170 178
16.593346 13.073010 77.666634 230 163 174
16.597067 13.243402 77.684052 225 151 165
16.601727 13.414629 77.705864 217 135 151
16.607208 13.586620 77.731514 208 119 136
16.613365 13.759283 77.760338 202 106 123
16.620035 13.932500 77.791557 202 102 119
16.627035 14.106131 77.824318 205 100 117
16.634167 14.280017 77.857704 200 92 111
16.641220 14.453978 77.890717 188 78 99
16.647982 14.627826 77.922363 176 65 88
16.654240 14.801360 77.951653 173 62 86
16.659786 14.974384 77.977615 175 65 90
16.664436 15.146704 77.999382 180 71 95
16.668022 15.318140 78.016167 185 78 99
16.670408 15.488533 78.027328 187 82 102
16.671486 15.657745 78.032372 186 86 103
16.671186 15.825672 78.030975 183 87 103
16.669477 15.992242 78.022972 178 87 103
16.666370 16.157421 78.008430 175 89 104
16.661909 16.321211 77.987556 174 93 108
16.656181 16.483656 77.960739 175 98 113
16.649298 16.644833 77.928520 175 102 117
16.641401 16.804848 77.891563 174 103 118
16.632660 16.963839 77.850655 172 102 116
16.623253 17.121969 77.806618 170 102 115
16.613367 17.279411 77.760345 172 103 115
16.603186 17.436346 77.712692 173 102 115
16.592896 17.592957 77.664528 174 101 114
16.582661 17.749420 77.616623 176 100 113
16.572636 17.905903 77.569695 179 99 112
16.562941 18.062546 77.524323 180 97 111
16.553686 18.219475 77.481003 181 94 109
16.544937 18.376781 77.440056 180 90 106
16.536743 18.534533 77.401703 179 86 103
16.529119 18.692762 77.366020 180 84 104
16.522060 18.851482 77.332977 183 86 107
16.515530 19.010670 77.302406 186 88 110
16.509478 19.170280 77.274086 184 88 110
16.503839 19.330252 77.247688 182 87 109
16.498531 19.490503 77.222847 180 87 109
16.493475 19.650946 77.199181 176 85 107
16.488586 19.811485 77.176300 171 83 104
16.483791 19.972042 77.153854 167 82 102
16.479023 20.132534 77.131531 165 84 103
16.474230 20.292900 77.109100 169 89 107
16.469378 20.453096 77.086395 175 97 115
16.464449 20.613096 77.063324 183 105 122
16.459452 20.772913 77.039932 188 111 127
16.454412 20.932573 77.016342 188 111 126
16.449379 21.092140 76.992783 185 109 121
16.444420 21.251703 76.969574 179 103 114
16.439629 21.411383 76.947144 173 96 105
16.435110 21.571325 76.925995 186 110 117
16.430984 21.731695 76.906693 217 146 149
16.427387 21.892687 76.889854 241 173 174
16.424463 22.054508 76.876167 240 168 168
16.422361 22.217382 76.866325 218 135 134
16.421234 22.381544 76.861046 188 99 99
16.421234 22.547230 76.861046 166 76 78
16.422514 22.714687 76.867043 159 69 73
16.425217 22.884153 76.879692 158 71 77
17.319326 2.955519 80.254898 149 76 86
17.317148 3.128129 80.244812 156 87 96
17.313454 3.300405 80.227684 163 98 107
17.308340 3.472323 80.203995 171 108 117
17.301924 3.643865 80.174263 179 118 126
17.294333 3.815018 80.139076 186 126 135
17.285692 3.985779 80.099045 193 134 144
17.276138 4.156147 80.054771 195 137 148
17.265812 4.326131 80.006920 195 138 150
17.254845 4.495741 79.956100 195 138 152
17.243376 4.664997 79.902954 196 142 156
17.231533 4.833919 79.848076 196 143 158
17.219440 5.002531 79.792046 193 142 156
17.207214 5.170862 79.735390 192 143 156
17.194960 5.338939 79.678604 194 146 159
17.182764 5.506791 79.622093 195 149 160
17.170710 5.674446 79.566238 194 150 159
17.158867 5.841932 79.511360 191 149 157
17.147291 6.009275 79.457718 190 147 156
17.136019 6.176496 79.405487 190 147 155
17.125080 6.343616 79.354797 192 150 156
17.114485 6.510647 79.305695 200 158 162
17.104233 6.677601 79.258186 207 164 168
17.094305 6.844480 79.212181 208 165 169
17.084669 7.011280 79.167534 206 164 168
17.075281 7.177992 79.124031 205 164 168
17.066088 7.344600 79.081429 203 162 169
17.057026 7.511083 79.039436 203 161 170
17.048023 7.677411 78.997726 201 161 169
17.039007 7.843553 78.955948 200 159 168
17.029900 8.009472 78.913742 205 163 174
17.020624 8.175129 78.870766 220 178 189
17.011116 8.340486 78.826706 224 182 194
17.001312 8.505505 78.781273 213 171 184
16.991165 8.670153 78.734253 205 162 174
16.980644 8.834403 78.685493 208 165 178
16.969732 8.998237 78.634933 217 175 189
16.958435 9.161643 78.582581 228 186 200
16.946777 9.324627 78.528564 232 189 204
16.934803 9.487200 78.473076 224 182 196
16.922573 9.649387 78.416405 207 165 178
16.910166 9.811229 78.358917 195 154 166
16.897678 9.972774 78.301048 206 165 175
16.885208 10.134081 78.243271 221 180 190
16.872873 10.295220 78.186111 226 185 195
16.860788 10.456268 78.130104 225 184 196
16.849072 10.617307 78.075813 215 175 189
16.837839 10.778422 78.023766 209 169 186
16.827202 10.939700 77.974472 211 170 190
16.817268 11.101229 77.928444 207 166 187
16.808136 11.263098 77.886131 198 157 178
16.799894 11.425388 77.847939 197 155 175
16.792625 11.588186 77.814247 195 153 171
16.786396 11.751567 77.785385 194 151 166
16.781267 11.915605 77.761627 199 156 167
16.777285 12.080363 77.743164 208 164 171
16.774479 12.245904 77.730164 215 169 173
16.772869 12.412272 77.722702 221 172 175
16.772457 12.579508 77.720795 224 172 175
16.773226 12.747632 77.724358 223 167 171
16.775146 12.916657 77.733253 221 159 165
16.778154 13.086571 77.747192 218 151 160
16.782173 13.257342 77.765816 216 142 154
16.787100 13.428921 77.788651 211 130 144
16.792809 13.601231 77.815102 202 114 130
16.799147 13.774171 77.844475 196 102 118
16.805943 13.947618 77.875969 201 103 119
16.813007 14.121426 77.908699 206 104 121
16.820137 14.295429 77.941742 198 93 111
16.827116 14.469446 77.974075 183 75 95
16.833727 14.643283 78.004707 170 62 83
16.839752 14.816736 78.032631 167 59 82
16.844992 14.989612 78.056915 170 64 86
16.849257 15.161713 78.076668 177 72 94
16.852381 15.332862 78.091148 182 79 100
16.854231 15.502903 78.099724 184 83 102
16.854710 15.671704 78.101944 183 86 103
16.853752 15.839166 78.097504 181 89 103
16.851337 16.005224 78.086311 179 91 104
16.847481 16.169851 78.068443 175 92 106
16.842241 16.333057 78.044159 173 95 108
16.835711 16.494898 78.013901 174 100 114
16.828014 16.655453 77.978241 176 104 119
16.819307 16.814842 77.937889 175 105 119
16.809763 16.973213 77.893669 171 103 117
16.799570 17.130732 77.846436 170 102 116
16.788925 17.287580 77.797104 172 104 116
16.778023 17.443949 77.746582 173 103 116
16.767050 17.600027 77.695740 174 102 114
16.756180 17.755993 77.645370 177 101 114
16.745567 17.912020 77.596191 179 99 113
16.735342 18.068251 77.548805 181 98 113
16.725607 18.224813 77.503700 183 96 113
16.716434 18.381798 77.461197 181 92 110
16.707869 18.539274 77.421501 178 86 105
16.699924 18.697275 77.384697 178 84 104
16.692591 18.855804 77.350708 182 87 109
16.685829 19.014843 77.319382 186 91 114
16.679585 19.174337 77.290443 185 91 114
16.673784 19.334225 77.263557 181 90 112
16.668344 19.494417 77.238358 179 89 111
16.663177 19.654821 77.214409 175 88 109
16.658197 19.815346 77.191330 171 85 106
16.653322 19.975897 77.168747 168 85 104
16.648485 20.136395 77.146332 167 86 104
16.643631 20.296780 77.123840 168 89 106
16.638723 20.456997 77.101097 174 95 112
16.633745 20.617029 77.078026 181 103 119
16.628696 20.776878 77.054634 186 108 123
16.623608 20.936571 77.031052 185 108 120
16.618525 21.096172 77.007500 183 106 116
16.613516 21.255766 76.984291 180 104 111
16.608669 21.415468 76.961830 175 100 104
16.604088 21.575418 76.940598 182 106 109
16.599890 21.735781 76.921150 207 133 133
16.596207 21.896738 76.904083 233 165 162
16.593174 22.058485 76.890030 243 175 171
16.590939 22.221239 76.879669 228 151 148
16.589645 22.385221 76.873680 197 110 108
16.589443 22.550661 76.872742 167 77 78
16.590477 22.717789 76.877533 156 66 70
16.592884 22.886831 76.888687 154 66 73
17.487469 3.127653 80.232597 158 92 100
17.483946 3.299942 80.216438 165 102 110
17.479013 3.471882 80.193810 173 112 120
17.472788 3.643455 80.165245 180 120 128
17.465391 3.814648 80.131302 187 128 136
17.456955 3.985459 80.092606 192 134 143
17.447615 4.155887 80.049751 195 138 149
17.437506 4.325939 80.003372 196 140 152
17.426764 4.495628 79.954086 197 142 155
17.415524 4.664971 79.902519 199 145 159
17.403913 4.833989 79.849243 200 148 162
17.392052 5.002706 79.794823 198 148 162
17.380056 5.171147 79.739792 195 147 161
17.368027 5.339341 79.684601 194 149 161
17.356052 5.507314 79.629654 195 152 163
17.344212 5.675095 79.575333 194 153 163
17.332573 5.842709 79.521935 191 151 160
17.321188 6.010181 79.469696 188 147 157
17.310093 6.177532 79.418800 188 147 156
17.299318 6.344780 79.369362 191 150 157
17.288870 6.511939 79.321426 199 158 163
17.278748 6.679016 79.274986 208 166 171
17.268934 6.846015 79.229958 209 166 171
17.259396 7.012933 79.186195 206 164 169
17.250092 7.179759 79.143509 204 162 167
17.240967 7.346478 79.101646 202 160 167
17.231962 7.513068 79.060333 204 161 170
17.223009 7.679504 79.019264 204 162 171
17.214037 7.845754 78.978096 198 155 166
17.204975 8.011784 78.936516 192 149 161
17.195749 8.177557 78.894188 197 154 167
17.186298 8.343038 78.850830 205 163 175
17.176563 8.508192 78.806168 210 167 180
17.166508 8.672991 78.760025 214 171 183
17.156096 8.837408 78.712257 219 176 189
17.145321 9.001429 78.662827 224 181 196
17.134190 9.165045 78.611755 228 186 200
17.122730 9.328261 78.559174 230 186 201
17.110983 9.491094 78.505280 223 180 193
17.099014 9.653566 78.450363 205 162 173
17.086899 9.815719 78.394775 194 152 160
17.074730 9.977601 78.338951 207 165 171
17.062607 10.139270 78.283333 221 179 185
17.050640 10.300793 78.228424 221 179 186
17.038942 10.462244 78.174759 215 173 183
17.027630 10.623704 78.122856 202 161 173
17.016811 10.785254 78.073227 194 154 170
17.006601 10.946981 78.026375 200 160 179
16.997095 11.108967 77.982758 207 166 187
16.988394 11.271299 77.942841 210 169 190
16.980583 11.434058 77.907013 212 171 192
16.973743 11.597326 77.875626 205 163 182
16.967941 11.761178 77.849007 194 151 167
16.963234 11.925685 77.827408 194 149 162
16.959665 12.090911 77.811035 202 156 165
16.957266 12.256911 77.800034 208 161 167
16.956053 12.423733 77.794464 211 162 165
16.956024 12.591410 77.794334 213 160 162
16.957161 12.759963 77.799545 213 156 159
16.959427 12.929399 77.809937 211 149 154
16.962755 13.099703 77.825211 209 141 148
16.967064 13.270837 77.844978 207 133 142
16.972242 13.442746 77.868736 203 123 135
16.978155 13.615347 77.895866 195 108 122
16.984646 13.788533 77.925644 191 99 113
16.991537 13.962178 77.957268 199 103 118
16.998632 14.136127 77.989815 204 105 121
17.005720 14.310211 78.022331 194 91 109
17.012581 14.484242 78.053810 176 73 91
17.018997 14.658027 78.083252 164 60 80
17.024748 14.831358 78.109634 161 58 78
17.029633 15.004040 78.132042 165 64 83
17.033461 15.175878 78.149612 174 73 93
17.036076 15.346696 78.161606 180 81 100
17.037344 15.516342 78.167427 181 85 103
17.037178 15.684690 78.166656 180 88 103
17.035517 15.851646 78.159042 179 92 105
17.032351 16.017153 78.144516 178 95 107
17.027706 16.181192 78.123207 177 98 109
17.021648 16.343782 78.095413 175 100 111
17.014282 16.504986 78.061615 175 103 116
17.005743 16.664892 78.022446 176 107 120
16.996197 16.823633 77.978645 175 107 120
16.985826 16.981361 77.931061 173 106 118
16.974829 17.138250 77.880600 173 105 118
16.963409 17.294493 77.828209 174 104 117
16.951771 17.450283 77.774818 174 103 116
16.940104 17.605814 77.721291 175 102 115
16.928589 17.761274 77.668457 178 100 114
16.917383 17.916834 77.617043 179 98 113
16.906618 18.072641 77.567657 181 97 114
16.896397 18.228825 77.520760 182 96 114
16.886793 18.385475 77.476692 180 91 111
16.877848 18.542662 77.435654 177 86 107
16.869572 18.700413 77.397682 176 85 106
16.861952 18.858734 77.362724 181 89 111
16.854946 19.017597 77.330582 185 94 116
16.848494 19.176952 77.300980 185 93 116
16.842516 19.336723 77.273552 181 91 114
16.836926 19.496826 77.247902 178 91 112
16.831633 19.657164 77.223618 174 89 110
16.826542 19.817638 77.200264 170 87 107
16.821571 19.978153 77.177460 169 88 106
16.816652 20.138632 77.154892 169 89 106
16.811728 20.299004 77.132294 170 91 106
16.806753 20.459221 77.109474 173 94 108
16.801716 20.619259 77.086365 178 100 112
16.796618 20.779123 77.062965 182 105 116
16.791481 20.938843 77.039406 182 106 114
16.786358 21.098473 77.015892 180 104 109
16.781309 21.258097 76.992737 180 105 107
16.776426 21.417833 76.970329 178 104 103
16.771807 21.577812 76.949135 180 107 102
16.767567 21.738192 76.929688 197 124 117
16.763832 21.899149 76.912552 223 152 144
16.760735 22.060871 76.898346 241 171 162
16.758415 22.223562 76.887703 236 161 153
16.757015 22.387434 76.881271 208 123 118
16.756672 22.552702 76.879700 174 84 83
16.757528 22.719591 76.883629 159 69 71
16.759716 22.888313 76.893669 156 67 74
17.658049 3.127232 80.221817 160 95 105
17.654680 3.299534 80.206512 166 105 113
17.649910 3.471494 80.184837 175 114 122
17.643854 3.643095 80.157326 182 123 130
17.636637 3.814326 80.124542 189 130 137
17.628391 3.985183 80.087074 194 136 145
17.619249 4.155668 80.045540 197 140 151
17.609344 4.325786 80.000542 199 143 155
17.598812 4.495550 79.952698 199 145 158
17.587786 4.664976 79.902603 201 148 161
17.576389 4.834085 79.850830 202 151 165
17.564745 5.002900 79.797920 203 155 168
17.552958 5.171445 79.744377 202 157 169
17.541136 5.339747 79.690666 202 158 169
17.529358 5.507833 79.637161 199 158 168
17.517704 5.675728 79.584213 195 156 165
17.506239 5.843459 79.532135 190 151 160
17.495016 6.011046 79.481140 188 149 158
17.484066 6.178512 79.431396 190 151 159
17.473417 6.345872 79.383018 192 152 159
17.463081 6.513140 79.336060 198 158 164
17.453053 6.680323 79.290497 205 164 169
17.443312 6.847423 79.246246 205 164 169
17.433830 7.014436 79.203171 203 161 166
17.424568 7.181354 79.161087 204 161 166
17.415470 7.348160 79.119766 205 161 169
17.406483 7.514835 79.078926 206 163 171
17.397539 7.681354 79.038292 207 163 173
17.388573 7.847688 78.997566 200 156 167
17.379517 8.013803 78.956421 191 148 158
17.370304 8.179669 78.914574 188 146 157
17.360878 8.345251 78.871742 195 152 164
17.351187 8.510519 78.827721 212 169 181
17.341192 8.675445 78.782310 223 180 193
17.330870 8.840008 78.735413 226 183 196
17.320215 9.004196 78.687012 229 185 200
17.309235 9.168002 78.637123 230 186 200
17.297962 9.331436 78.585907 231 187 200
17.286438 9.494512 78.533562 225 180 192
17.274727 9.657257 78.480354 203 158 166
17.262905 9.819710 78.426651 192 148 153
17.251064 9.981919 78.372849 209 166 169
17.239298 10.143941 78.319397 223 180 182
17.227716 10.305842 78.266777 219 176 179
17.216423 10.467693 78.215477 209 167 173
17.205534 10.629573 78.166008 195 153 163
17.195154 10.791558 78.118851 188 146 159
17.185390 10.953732 78.074486 194 154 169
17.176340 11.116177 78.033371 207 166 184
17.168095 11.278974 77.995918 220 180 199
17.160740 11.442203 77.962502 228 189 207
17.154352 11.605943 77.933487 218 177 195
17.148996 11.770265 77.909149 198 153 170
17.144730 11.935240 77.889763 188 142 155
17.141592 12.100929 77.875511 192 144 154
17.139610 12.267385 77.866508 200 150 156
17.138802 12.434651 77.862831 204 151 156
17.139160 12.602760 77.864456 204 149 152
17.140661 12.771729 77.871284 204 145 149
17.143265 12.941559 77.883110 204 140 144
