ply
format ascii 1.0
element vertex 1206
property float x
property float y
property float z
property uchar red
property uchar green
property uchar blue
end_header
-16.035948 8.038995 70.252197 61 45 50
-16.035690 8.190304 70.251060 63 46 53
-16.034393 8.341066 70.245384 65 47 56
-16.032093 8.491274 70.235306 67 48 57
-16.028816 8.640911 70.220955 70 48 57
-16.024588 8.789964 70.202423 72 50 59
-16.019421 8.938414 70.179787 73 50 59
-16.013323 9.086238 70.153076 74 50 58
-16.006290 9.233407 70.122261 75 50 58
-15.998316 9.379892 70.087334 75 51 57
-15.989385 9.525656 70.048203 74 50 56
-15.979479 9.670661 70.004807 72 50 55
-15.968573 9.814865 69.957031 71 49 54
-15.956645 9.958225 69.904778 69 48 53
-15.943675 10.100698 69.847954 67 48 51
-15.929644 10.242246 69.786484 66 48 50
-15.914545 10.382832 69.720337 66 47 48
-15.898377 10.522425 69.649506 65 46 47
-15.881151 10.661001 69.574043 65 46 47
-15.862887 10.798547 69.494034 65 45 47
-15.843619 10.935054 69.409622 66 45 47
-15.823388 11.070523 69.320984 65 44 46
-15.802246 11.204965 69.228363 64 43 45
-15.780250 11.338392 69.131996 63 42 44
-15.757454 11.470823 69.032135 61 41 42
-15.733912 11.602273 68.928993 60 39 41
-13.503751 -4.623951 59.722855 108 62 64
-13.513347 -4.498403 59.765293 108 61 64
-13.524157 -4.373065 59.813099 109 60 63
-13.536276 -4.247931 59.866703 109 59 62
-13.549801 -4.122994 59.926517 109 59 61
-13.564824 -3.998241 59.992962 108 58 60
-13.581435 -3.873654 60.066425 107 58 60
-13.599714 -3.749210 60.147266 105 57 59
-13.619727 -3.624880 60.235783 104 56 59
-13.641536 -3.500628 60.332233 103 56 60
-13.665182 -3.376415 60.436810 103 56 62
-13.690689 -3.252192 60.549622 103 57 63
-13.718065 -3.127910 60.670700 102 57 63
-13.747295 -3.003510 60.799973 100 56 61
-13.778344 -2.878934 60.937290 98 54 59
-13.811152 -2.754116 61.082390 96 53 56
-13.845634 -2.628990 61.234898 95 51 53
-13.881692 -2.503491 61.394367 93 50 51
-13.919194 -2.377551 61.560226 91 49 50
-13.957999 -2.251107 61.731853 90 48 50
-13.997944 -2.124095 61.908516 90 48 50
-14.038853 -1.996459 62.089439 91 49 51
-14.080540 -1.868146 62.273811 92 50 54
-14.122815 -1.739110 62.460781 94 51 56
-14.165483 -1.609313 62.649487 94 51 57
-14.208354 -1.478724 62.839092 93 50 56
-14.251243 -1.347319 63.028774 92 49 55
-14.293977 -1.215083 63.217777 92 49 54
-14.336394 -1.082008 63.405373 93 49 53
-14.378350 -0.948094 63.590935 93 49 53
-14.419719 -0.813346 63.773891 93 49 53
-14.460393 -0.677778 63.953781 93 48 53
-14.500282 -0.541404 64.130196 94 47 54
-14.539319 -0.404247 64.302841 95 47 55
-14.577452 -0.266328 64.471497 96 47 56
-14.614649 -0.127674 64.636009 97 48 57
-14.650891 0.011688 64.796295 97 50 57
-14.686176 0.151732 64.952354 98 52 57
-14.720516 0.292429 65.104225 97 53 56
-14.753929 0.433754 65.251999 94 53 54
-14.786448 0.575682 65.395821 91 51 52
-14.818114 0.718188 65.535866 88 51 50
-14.848976 0.861251 65.672363 86 50 49
-14.879091 1.004852 65.805550 85 49 48
-14.908525 1.148975 65.935722 83 49 49
-14.937346 1.293607 66.063194 82 48 50
-14.965637 1.438736 66.188316 81 48 51
-14.993484 1.584359 66.311470 81 47 52
-15.020973 1.730471 66.433052 80 47 53
-15.048203 1.877074 66.553474 80 46 53
-15.075267 2.024175 66.673172 80 46 53
-15.102263 2.171782 66.792572 79 46 52
-15.129287 2.319909 66.912086 79 46 51
-15.156426 2.468569 67.032120 79 46 51
-15.183759 2.617780 67.153000 79 46 50
-15.211352 2.767559 67.275040 78 45 49
-15.239259 2.917925 67.398460 77 45 49
-15.267509 3.068892 67.523407 76 45 48
-15.296120 3.220473 67.649933 75 46 48
-15.325076 3.372676 67.778008 74 46 48
-15.354346 3.525504 67.907455 73 46 48
-15.383871 3.678950 68.038033 73 45 48
-15.413568 3.833002 68.169373 72 45 47
-15.443336 3.987638 68.301033 72 45 47
-15.473054 4.142829 68.432465 72 45 47
-15.502582 4.298534 68.563057 72 45 47
-15.531775 4.454706 68.692169 71 45 47
-15.560477 4.611289 68.819107 70 44 46
-15.588533 4.768221 68.943192 69 43 45
-15.615788 4.925436 69.063728 68 43 45
-15.642091 5.082861 69.180061 69 42 45
-15.667307 5.240425 69.291580 69 41 46
-15.691314 5.398053 69.397758 69 41 46
-15.714002 5.555672 69.498100 69 41 46
-15.735285 5.713214 69.592224 68 42 46
-15.755092 5.870612 69.679832 68 42 46
-15.773375 6.027805 69.760689 68 44 46
-15.790101 6.184737 69.834663 69 45 47
-15.805255 6.341357 69.901680 69 45 49
-15.818840 6.497622 69.961761 69 45 49
-15.830872 6.653492 70.014977 69 45 49
-15.841379 6.808937 70.061447 69 45 47
-15.850400 6.963930 70.101349 68 45 46
-15.857982 7.118448 70.134880 66 44 46
-15.864177 7.272475 70.162277 65 44 46
-15.869042 7.425998 70.183792 63 43 45
-15.872634 7.579006 70.199684 62 43 45
-15.875016 7.731493 70.210213 61 43 46
-15.876245 7.883452 70.215645 61 44 48
-15.876377 8.034881 70.216232 63 46 50
-15.875467 8.185774 70.212212 64 47 53
-15.873563 8.336127 70.203789 67 48 56
-15.870709 8.485937 70.191170 69 49 57
-15.866940 8.635194 70.174492 72 50 58
-15.862283 8.783888 70.153900 73 51 59
-15.856758 8.932005 70.129471 73 51 59
-15.850378 9.079525 70.101250 73 51 59
-15.843146 9.226428 70.069267 74 51 58
-15.835056 9.372685 70.033485 75 51 58
-15.826103 9.518270 69.993889 74 51 56
-15.816267 9.663143 69.950386 72 50 55
-15.805531 9.807271 69.902901 70 49 54
-15.793874 9.950614 69.851349 69 49 53
-15.781280 10.093135 69.795647 67 49 52
-15.767730 10.234796 69.735718 66 48 51
-15.753218 10.375565 69.671539 66 47 49
-15.737742 10.515412 69.603096 66 46 48
-15.721312 10.654318 69.530426 65 46 47
-15.703943 10.792266 69.453613 65 45 47
-15.685666 10.929250 69.372780 65 45 47
-15.666514 11.065268 69.288078 64 45 46
-15.646538 11.200329 69.199730 63 44 45
-15.625782 11.334445 69.107933 62 43 44
-15.604296 11.467628 69.012901 60 41 43
-15.582125 11.599892 68.914848 59 39 41
-15.559309 11.731246 68.813942 58 37 40
-15.535869 11.861690 68.710274 57 37 41
-13.358727 -4.746908 59.650150 106 62 66
-13.367378 -4.621314 59.688782 107 61 66
-13.377151 -4.495929 59.732422 108 61 65
-13.388130 -4.370750 59.781445 109 60 65
-13.400404 -4.245770 59.836250 109 59 64
-13.414061 -4.120979 59.897228 109 58 63
-13.429184 -3.996361 59.964760 108 58 62
-13.445857 -3.871899 60.039207 106 57 61
-13.464154 -3.747567 60.120911 104 56 60
-13.484138 -3.623337 60.210148 103 55 60
-13.505868 -3.499174 60.307175 102 55 60
-13.529381 -3.375038 60.412167 102 55 62
-13.554704 -3.250883 60.525238 102 56 62
-13.581841 -3.126658 60.646416 102 57 63
-13.610784 -3.002309 60.775650 100 56 61
-13.641495 -2.877776 60.912785 99 54 59
-13.673923 -2.752997 61.057579 97 53 56
-13.707984 -2.627907 61.209675 96 52 54
-13.743581 -2.502441 61.368622 94 51 52
-13.780592 -2.376534 61.533886 92 50 50
-13.818875 -2.250121 61.704834 90 49 49
-13.858272 -2.123142 61.880745 91 49 51
-13.898608 -1.995540 62.060860 92 50 53
-13.939701 -1.867262 62.244350 94 51 55
-13.981360 -1.738263 62.430370 95 52 57
-14.023392 -1.608506 62.618050 95 52 58
-14.065606 -1.477958 62.806549 94 51 57
-14.107816 -1.346597 62.995026 93 50 56
-14.149851 -1.214409 63.182720 92 49 55
-14.191545 -1.081385 63.368900 93 49 55
-14.232756 -0.947527 63.552914 94 49 55
-14.273355 -0.812840 63.734203 94 49 55
-14.313238 -0.677338 63.912289 95 49 56
-14.352315 -0.541038 64.086777 95 48 57
-14.390521 -0.403961 64.257378 96 47 57
-14.427809 -0.266131 64.423874 96 46 58
-14.464149 -0.127576 64.586151 97 47 58
-14.499531 0.011679 64.744133 97 49 58
-14.533956 0.151604 64.897850 98 50 57
-14.567443 0.292174 65.047379 97 52 56
-14.600021 0.433361 65.192848 95 53 55
-14.631727 0.575141 65.334427 93 52 54
-14.662611 0.717492 65.472328 91 52 52
-14.692731 0.860392 65.606827 89 51 51
-14.722152 1.003824 65.738190 87 51 50
-14.750943 1.147774 65.866753 85 50 50
-14.779184 1.292229 65.992859 83 49 50
-14.806961 1.437184 66.116890 82 48 51
-14.834364 1.582633 66.239250 81 47 52
-14.861485 1.728577 66.360359 80 46 52
-14.888425 1.875020 66.480644 79 46 53
-14.915281 2.021971 66.600571 79 46 53
-14.942155 2.169441 66.720566 79 46 52
-14.969137 2.317446 66.841049 78 46 51
-14.996320 2.466002 66.962425 79 46 50
-15.023779 2.615130 67.085037 79 46 50
-15.051580 2.764850 67.209175 78 45 49
-15.079772 2.915180 67.335060 78 45 49
-15.108381 3.066138 67.462807 76 45 49
-15.137418 3.217737 67.592461 75 45 48
-15.166862 3.369986 67.723938 73 45 48
-15.196672 3.522887 67.857048 73 45 48
-15.226780 3.676433 67.991486 72 45 47
-15.257092 3.830610 68.126839 73 45 47
-15.287495 3.985394 68.262596 74 45 48
-15.317853 4.140752 68.398155 74 46 48
-15.348016 4.296639 68.532837 74 46 48
-15.377823 4.453004 68.665932 72 45 47
-15.407104 4.609786 68.796677 71 44 46
-15.435688 4.766916 68.924316 70 44 46
-15.463408 4.924321 69.048096 70 43 45
-15.490106 5.081924 69.167305 69 42 45
-15.515631 5.239645 69.281281 69 41 46
-15.539853 5.397406 69.389442 69 41 46
-15.562659 5.555127 69.491280 69 41 46
-15.583960 5.712735 69.586388 68 42 46
-15.603683 5.870159 69.674454 69 43 46
-15.621778 6.027336 69.755257 69 44 47
-15.638219 6.184206 69.828674 69 45 48
-15.653000 6.340721 69.894669 69 45 49
-15.666128 6.496835 69.953293 70 46 50
-15.677632 6.652512 70.004662 69 46 49
-15.687551 6.807723 70.048950 68 45 48
-15.695936 6.962444 70.086395 67 45 47
-15.702846 7.116658 70.117249 66 44 47
-15.708347 7.270353 70.141808 65 44 46
-15.712507 7.423521 70.160385 64 44 46
-15.715397 7.576156 70.173286 64 44 47
-15.717090 7.728259 70.180847 63 44 48
-15.717653 7.879827 70.183365 64 45 49
-15.717155 8.030865 70.181145 64 46 51
-15.715655 8.181371 70.174446 66 48 54
-15.713213 8.331348 70.163536 69 49 56
-15.709876 8.480796 70.148636 71 50 57
-15.705685 8.629709 70.129921 73 51 58
-15.700676 8.778086 70.107552 73 52 59
-15.694871 8.925913 70.081635 73 52 59
-15.688287 9.073177 70.052238 73 52 59
-15.680934 9.219863 70.019402 74 51 57
-15.672809 9.365946 69.983124 74 51 57
-15.663908 9.511401 69.943382 73 50 55
-15.654220 9.656199 69.900116 71 50 54
-15.643725 9.800305 69.853256 70 49 53
-15.632409 9.943687 69.802727 69 49 53
-15.620255 10.086310 69.748451 67 49 52
-15.607248 10.228141 69.690376 67 48 51
-15.593379 10.369147 69.628448 66 47 50
-15.578647 10.509304 69.562660 66 47 48
-15.563056 10.648590 69.493050 66 46 48
-15.546623 10.786992 69.419670 66 46 48
-15.529370 10.924500 69.342628 65 46 48
-15.511329 11.061114 69.262070 64 45 47
-15.492537 11.196839 69.178162 63 44 46
-15.473038 11.331683 69.091095 61 43 45
-15.452872 11.465658 69.001045 60 41 43
-15.432078 11.598772 68.908195 58 39 42
-15.410687 11.731032 68.812683 58 38 40
-15.388721 11.862435 68.714592 57 37 41
-15.366179 11.992968 68.613937 56 37 41
-15.343048 12.122601 68.510658 57 38 41
-15.319292 12.251288 68.404579 57 38 41
-13.206849 -4.995269 59.545135 104 61 64
-13.213675 -4.869426 59.575912 105 61 65
-13.221486 -4.743803 59.611130 106 61 66
-13.230349 -4.618395 59.651085 107 61 66
-13.240334 -4.493196 59.696106 108 60 66
-13.251517 -4.368197 59.746529 108 59 66
-13.263980 -4.243391 59.802715 108 58 65
-13.277798 -4.118763 59.865021 108 58 65
-13.293050 -3.994297 59.933788 107 58 64
-13.309812 -3.869974 60.009354 105 56 62
-13.328151 -3.745768 60.092041 103 54 60
-13.348125 -3.621649 60.182102 101 54 60
-13.369789 -3.497584 60.279774 101 53 61
-13.393179 -3.373533 60.385235 101 53 61
-13.418324 -3.249452 60.498600 101 54 62
-13.445226 -3.125291 60.619892 101 55 62
-13.473878 -3.000996 60.749077 101 55 61
-13.504250 -2.876511 60.886013 100 55 59
-13.536289 -2.751775 61.030468 99 54 57
-13.569921 -2.626724 61.182106 98 53 54
-13.605052 -2.501294 61.340496 95 52 52
-13.641564 -2.375423 61.505119 93 50 49
-13.679321 -2.249046 61.675350 91 49 49
-13.718166 -2.122104 61.850487 91 49 51
-13.757931 -1.994540 62.029774 93 51 53
-13.798434 -1.866303 62.212391 95 52 55
-13.839489 -1.737348 62.397488 97 52 57
-13.880898 -1.607636 62.584190 97 52 58
-13.922475 -1.477137 62.771645 96 51 58
-13.964031 -1.345827 62.959007 94 50 57
-14.005393 -1.213693 63.145496 94 49 56
-14.046397 -1.080728 63.330368 94 49 56
-14.086895 -0.946931 63.512959 95 49 57
-14.126760 -0.812311 63.692696 95 49 57
-14.165884 -0.676880 63.869091 95 48 58
-14.204179 -0.540658 64.041748 96 48 59
-14.241580 -0.403665 64.210381 96 47 58
-14.278044 -0.265928 64.374786 96 46 59
-14.313542 -0.127474 64.534836 97 47 59
-14.348068 0.011669 64.690498 97 48 58
-14.381631 0.151474 64.841820 97 50 57
-14.414253 0.291911 64.988907 97 51 56
-14.445972 0.432956 65.131912 95 52 55
-14.476833 0.574583 65.271057 93 52 55
-14.506895 0.716771 65.406593 92 52 54
-14.536222 0.859500 65.538818 90 52 53
-14.564889 1.002753 65.668068 89 51 52
-14.592976 1.146518 65.794701 87 50 51
-14.620567 1.290785 65.919106 84 49 51
-14.647758 1.435549 66.041695 83 48 51
-14.674645 1.580809 66.162918 81 47 51
-14.701327 1.726568 66.283226 80 47 52
-14.727909 1.872832 66.403069 79 47 53
-14.754494 2.019614 66.522934 79 47 53
-14.781185 2.166928 66.643272 79 47 52
-14.808078 2.314792 66.764526 79 46 50
-14.835263 2.463228 66.887093 78 45 49
-14.862820 2.612257 67.011337 78 45 49
-14.890811 2.761903 67.137535 78 45 49
-14.919279 2.912185 67.265892 78 45 49
-14.948252 3.063125 67.396523 77 45 49
-14.977729 3.214736 67.529419 75 45 48
-15.007688 3.367028 67.664497 73 45 48
-15.038073 3.520002 67.801491 72 45 47
-15.068807 3.673652 67.940063 73 45 47
-15.099786 3.827961 68.079735 73 45 47
-15.130880 3.982904 68.219933 74 45 48
-15.161942 4.138441 68.359970 74 45 48
-15.192802 4.294525 68.499115 74 46 48
-15.223288 4.451100 68.636559 73 45 47
-15.253210 4.608097 68.771477 72 44 46
-15.282387 4.765443 68.903015 71 44 46
-15.310634 4.923058 69.030373 70 43 45
-15.337779 5.080856 69.152763 69 42 45
-15.363667 5.238753 69.269478 69 41 46
-15.388153 5.396662 69.379883 69 41 46
-15.411123 5.554501 69.483452 69 41 46
-15.432480 5.712189 69.579742 69 42 46
-15.452153 5.869652 69.668434 69 44 47
-15.470096 6.026824 69.749336 69 44 48
-15.486286 6.183645 69.822334 69 45 49
-15.500722 6.340063 69.887413 69 45 49
-15.513425 6.496036 69.944695 69 46 49
-15.524431 6.651529 69.994316 69 46 49
-15.533793 6.806515 70.036530 68 45 48
-15.541575 6.960976 70.071609 67 45 48
-15.547851 7.114898 70.099907 66 45 48
-15.552697 7.268275 70.121758 65 45 48
-15.556196 7.421103 70.137535 65 44 48
-15.558432 7.573384 70.147614 66 44 49
-15.559487 7.725122 70.152374 66 45 50
-15.559443 7.876325 70.152168 66 46 51
-15.558374 8.026999 70.147354 67 47 53
-15.556351 8.177149 70.138229 68 49 54
-15.553436 8.326783 70.125092 70 50 56
-15.549687 8.475905 70.108185 72 51 57
-15.545151 8.624517 70.087730 73 52 58
-15.539864 8.772619 70.063896 73 53 58
-15.533856 8.920203 70.036812 73 52 58
-15.527148 9.067262 70.006569 73 51 58
-15.519752 9.213781 69.973213 73 51 56
-15.511669 9.359742 69.936775 73 50 55
-15.502898 9.505125 69.897224 72 50 53
-15.493428 9.649901 69.854530 71 49 52
-15.483247 9.794044 69.808624 70 49 52
-15.472338 9.937521 69.759445 69 49 52
-15.460685 10.080301 69.706902 68 49 52
-15.448277 10.222356 69.650963 67 48 51
-15.435102 10.363653 69.591560 67 47 50
-15.421157 10.504171 69.528687 67 47 50
-15.406447 10.643888 69.462364 67 47 50
-15.390981 10.782790 69.392632 67 47 50
-15.374778 10.920868 69.319580 65 46 49
-15.357862 11.058119 69.243317 64 45 47
-15.340270 11.194546 69.163994 62 44 46
-15.322034 11.330155 69.081772 60 43 45
-15.303189 11.464953 68.996811 59 41 44
-15.283766 11.598948 68.909233 58 39 43
-15.263791 11.732140 68.819176 57 38 41
-15.243279 11.864525 68.726692 57 37 41
-15.222230 11.996088 68.631790 57 37 42
-15.200624 12.126799 68.534378 57 38 42
-15.178426 12.256611 68.434296 58 39 43
-15.155574 12.385457 68.331268 58 40 43
-15.131988 12.513251 68.224922 58 41 43
-13.062387 -5.117321 59.471825 105 61 62
-13.068470 -4.991443 59.499516 105 61 62
-13.075505 -4.865799 59.531548 106 60 64
-13.083546 -4.740383 59.568153 106 60 65
-13.092648 -4.615182 59.609596 107 60 66
-13.102875 -4.490189 59.656155 107 60 66
-13.114292 -4.365391 59.708141 107 59 66
-13.126969 -4.240776 59.765858 106 58 65
-13.140975 -4.116328 59.829624 106 57 65
-13.156379 -3.992029 59.899757 105 56 63
-13.173247 -3.867858 59.976555 103 54 61
-13.191643 -3.743790 60.060310 101 52 60
-13.211619 -3.619793 60.151260 99 52 60
-13.233226 -3.495835 60.249634 99 52 60
-13.256499 -3.371877 60.355595 100 52 60
-13.281463 -3.247875 60.469254 100 53 61
-13.308127 -3.123783 60.590652 101 54 61
-13.336484 -2.999548 60.719761 101 55 60
-13.366508 -2.875114 60.856453 101 55 58
-13.398150 -2.750424 61.000519 100 54 56
-13.431344 -2.625416 61.151646 98 54 54
-13.465999 -2.500027 61.309425 96 52 52
-13.502003 -2.374196 61.473351 94 50 50
-13.539227 -2.247860 61.642830 92 49 49
-13.577520 -2.120961 61.817173 92 49 50
-13.616716 -1.993442 61.995632 94 51 53
-13.656639 -1.865253 62.177395 96 52 55
-13.697102 -1.736349 62.361614 97 52 57
-13.737910 -1.606691 62.547413 98 52 59
-13.778874 -1.476249 62.733921 97 52 59
-13.819809 -1.345000 62.920292 96 51 58
-13.860536 -1.212929 63.105717 95 50 57
-13.900887 -1.080029 63.289436 95 50 57
-13.940716 -0.946302 63.470768 96 50 58
-13.979888 -0.811755 63.649117 95 49 58
-14.018297 -0.676402 63.823990 96 48 59
-14.055851 -0.540263 63.994968 96 47 60
-14.092485 -0.403360 64.161766 96 47 60
-14.128154 -0.265719 64.324158 96 47 60
-14.162834 -0.127370 64.482048 97 47 60
-14.196519 0.011659 64.635422 97 48 59
-14.229222 0.151339 64.784309 97 49 58
-14.260975 0.291642 64.928879 96 50 57
-14.291819 0.432540 65.069305 95 51 56
-14.321807 0.574009 65.205841 94 52 56
-14.351008 0.716028 65.338791 92 53 55
-14.379495 0.858577 65.468491 92 53 54
-14.407352 1.001642 65.595322 90 52 53
-14.434670 1.145211 65.719696 88 51 52
-14.461545 1.289276 65.842056 86 49 51
-14.488077 1.433835 65.962852 84 48 50
-14.514374 1.578890 66.082581 82 47 51
-14.540543 1.724445 66.201721 81 47 52
-14.566695 1.870512 66.320793 81 48 53
-14.592942 2.017105 66.440300 81 48 53
-14.619392 2.164244 66.560722 80 47 51
-14.646145 2.311949 66.682518 79 46 50
-14.673292 2.460246 66.806122 78 46 49
-14.700914 2.609160 66.931877 78 45 48
-14.729075 2.758717 67.060097 78 45 48
-14.757814 2.908941 67.190941 78 45 48
-14.787155 3.059853 67.324532 77 45 48
-14.817092 3.211471 67.460823 75 45 48
-14.847590 3.363803 67.599686 74 45 48
-14.878590 3.516852 67.740822 73 44 47
-14.909998 3.670611 67.883820 73 44 47
-14.941697 3.825061 68.028145 74 44 47
-14.973545 3.980172 68.173141 74 44 48
-15.005373 4.135903 68.318054 74 45 48
-15.037000 4.292201 68.462044 74 45 48
-15.068230 4.449003 68.604233 73 45 47
-15.098863 4.606236 68.743698 72 44 47
-15.128695 4.763818 68.879532 71 44 46
-15.157532 4.921662 69.010818 70 44 46
-15.185185 5.079677 69.136719 69 42 46
-15.211488 5.237769 69.256470 68 41 46
-15.236289 5.395846 69.369392 68 40 46
-15.259465 5.553818 69.474907 68 41 46
-15.280919 5.711602 69.572586 68 42 46
-15.300580 5.869118 69.662102 70 44 48
-15.318403 6.026298 69.743248 70 45 49
-15.334373 6.183080 69.815956 70 45 49
-15.348496 6.339414 69.880264 70 45 50
-15.360804 6.495256 69.936295 69 46 50
-15.371344 6.650575 69.984283 69 46 50
-15.380181 6.805348 70.024521 68 45 49
-15.387395 6.959560 70.057365 67 45 48
-15.393071 7.113203 70.083206 66 46 49
-15.397303 7.266276 70.102470 66 45 49
-15.400187 7.418783 70.115601 66 45 49
-15.401816 7.570729 70.123024 66 45 50
-15.402289 7.722128 70.125175 67 45 52
-15.401693 7.872990 70.122459 67 46 53
-15.400115 8.023328 70.115273 68 48 54
-15.397633 8.173155 70.103973 70 50 55
-15.394316 8.322482 70.088875 71 51 56
-15.390225 8.471318 70.070251 73 53 57
-15.385415 8.619672 70.048347 74 53 57
-15.379927 8.767544 70.023361 74 53 58
-15.373793 8.914933 69.995438 73 53 58
-15.367037 9.061835 69.964676 72 52 57
-15.359673 9.208241 69.931145 72 50 55
-15.351707 9.354136 69.894875 72 50 53
-15.343137 9.499499 69.855858 72 50 52
-15.333957 9.644311 69.814064 71 49 52
-15.324154 9.788546 69.769432 70 49 51
-15.313713 9.932173 69.721893 69 48 51
-15.302620 10.075166 69.671387 69 48 51
-15.290860 10.217496 69.617851 68 48 52
-15.278424 10.359138 69.561234 68 48 52
-15.265306 10.500064 69.501503 68 48 52
-15.251505 10.640258 69.438667 68 48 52
-15.237030 10.779703 69.372765 67 47 52
-15.221893 10.918390 69.303848 65 46 50
-15.206116 11.056314 69.232018 63 46 49
-15.189724 11.193477 69.157387 62 44 47
-15.172748 11.329879 69.080093 60 43 45
-15.155211 11.465527 69.000252 58 41 44
-15.137144 11.600421 68.917992 58 40 43
-15.118565 11.734564 68.833405 57 38 42
-15.099482 11.867947 68.746521 58 37 42
-15.079891 12.000551 68.657326 58 38 43
-15.059776 12.132349 68.565742 58 39 44
-15.039098 12.263291 68.471603 59 40 45
-15.017799 12.393317 68.374634 60 41 45
-14.995804 12.522342 68.274490 59 41 44
-14.973010 12.650261 68.170708 58 41 42
-14.949306 12.776954 68.062782 57 40 40
-14.924557 12.902280 67.950104 57 39 39
-12.917710 -5.238840 59.396065 107 60 60
-12.923051 -5.112915 59.420624 106 60 60
-12.929338 -4.987249 59.449528 106 60 61
-12.936604 -4.861827 59.482941 107 60 63
-12.944899 -4.736637 59.521080 107 60 65
-12.954265 -4.611663 59.564144 107 60 66
-12.964756 -4.486894 59.612381 107 59 66
-12.976428 -4.362314 59.666054 106 58 66
-12.989341 -4.237906 59.725422 104 57 65
-13.003551 -4.113654 59.790764 103 56 63
-13.019121 -3.989537 59.862354 101 54 62
-13.036108 -3.865531 59.940464 100 52 60
-13.054569 -3.741611 60.025349 98 51 59
-13.074553 -3.617746 60.117233 97 51 58
-13.096103 -3.493902 60.216320 97 51 58
-13.119255 -3.370044 60.322773 98 51 59
-13.144035 -3.246128 60.436714 100 52 59
-13.170452 -3.122109 60.558178 101 53 60
-13.198502 -2.997937 60.687157 102 54 59
-13.228164 -2.873560 60.823540 102 55 58
-13.259397 -2.748920 60.967152 101 55 57
-13.292137 -2.623958 61.117695 100 55 55
-13.326305 -2.498616 61.274799 98 53 54
-13.361794 -2.372830 61.437977 96 52 52
-13.398481 -2.246542 61.606667 95 50 51
-13.436220 -2.119692 61.780193 94 51 52
-13.474854 -1.992227 61.957832 96 51 54
-13.514208 -1.864095 62.138779 97 52 56
-13.554096 -1.735251 62.322189 98 53 58
-13.594329 -1.605658 62.507183 99 53 60
-13.634715 -1.475283 62.692875 98 52 60
-13.675066 -1.344104 62.878410 98 52 60
-13.715200 -1.212107 63.062950 97 51 59
-13.754951 -1.079283 63.245724 97 50 58
-13.794159 -0.945635 63.426006 97 50 58
-13.832695 -0.811169 63.603195 96 50 59
-13.870440 -0.675902 63.776752 96 49 59
-13.907304 -0.539851 63.946251 96 49 61
-13.943216 -0.403043 64.111382 96 48 61
-13.978131 -0.265504 64.271919 96 48 61
-14.012025 -0.127263 64.427765 96 48 61
-14.044893 0.011649 64.578888 96 48 60
-14.076752 0.151202 64.725372 95 49 58
-14.107636 0.291365 64.867386 95 49 57
-14.137595 0.432113 65.005142 95 51 57
-14.166690 0.573420 65.138916 94 52 57
-14.194998 0.715264 65.269073 93 53 56
-14.222602 0.857627 65.396004 92 53 55
-14.249599 1.000494 65.520134 91 53 53
-14.276087 1.143856 65.641930 89 51 52
-14.302176 1.287707 65.761887 86 49 51
-14.327979 1.432046 65.880524 84 48 50
-14.353613 1.576878 65.998390 83 47 50
-14.379195 1.722213 66.116020 82 47 52
-14.404849 1.868063 66.233978 82 48 53
-14.430692 2.014449 66.352806 81 48 52
-14.456841 2.161393 66.473038 79 47 51
-14.483400 2.308920 66.595161 78 47 50
-14.510468 2.457061 66.719620 78 46 49
-14.538126 2.605843 66.846786 78 45 48
-14.566438 2.755297 66.976967 78 46 48
-14.595442 2.905451 67.110336 78 46 48
-14.625156 3.056328 67.246964 77 46 48
-14.655570 3.207947 67.386803 76 45 48
-14.686641 3.360319 67.529663 74 45 48
-14.718293 3.513446 67.675209 74 44 47
-14.750425 3.667320 67.822952 74 44 48
-14.782902 3.821919 67.972275 75 44 48
-14.815562 3.977212 68.122452 75 44 49
-14.848224 4.133153 68.272629 75 45 49
-14.880684 4.289683 68.421883 75 45 49
-14.912729 4.446733 68.569229 74 45 49
-14.944139 4.604223 68.713654 72 45 48
-14.974694 4.762063 68.854149 71 45 48
-15.004183 4.920159 68.989738 69 44 47
-15.032401 5.078411 69.119484 68 43 47
-15.059173 5.236719 69.242584 67 42 46
-15.084336 5.394982 69.358284 67 41 46
-15.107764 5.553106 69.466003 67 40 45
-15.129354 5.711002 69.565277 68 42 46
-15.149038 5.868587 69.655785 70 44 49
-15.166775 6.025787 69.737343 71 46 50
-15.182554 6.182543 69.809898 71 46 50
-15.196394 6.338803 69.873528 70 46 50
-15.208334 6.494525 69.928429 69 46 50
-15.218437 6.649682 69.974884 69 46 50
-15.226781 6.804253 70.013252 68 46 50
-15.233461 6.958229 70.043968 67 46 50
-15.238576 7.111608 70.067482 66 46 50
-15.242235 7.264393 70.084305 66 46 50
-15.244547 7.416596 70.094940 66 45 51
-15.245620 7.568230 70.099869 67 46 52
-15.245561 7.719311 70.099602 67 46 54
-15.244470 7.869859 70.094582 68 47 55
-15.242442 8.019893 70.085258 70 49 55
-15.239564 8.169430 70.072029 71 51 56
-15.235910 8.318487 70.055229 73 53 58
-15.231549 8.467078 70.035179 74 54 58
-15.226538 8.615215 70.012131 74 54 57
-15.220921 8.762904 69.986305 74 54 57
-15.214735 8.910148 69.957863 74 53 57
-15.208003 9.056945 69.926910 72 52 56
-15.200746 9.203289 69.893539 72 51 54
-15.192966 9.349169 69.857765 71 50 52
-15.184667 9.494569 69.819603 71 49 51
-15.175840 9.639470 69.779022 71 49 51
-15.166476 9.783850 69.735962 71 48 51
-15.156559 9.927681 69.690369 70 48 51
-15.146074 10.070939 69.642159 69 48 52
-15.135007 10.213595 69.591270 69 48 53
-15.123346 10.355626 69.537651 69 48 53
-15.111084 10.497007 69.481270 69 49 54
-15.098215 10.637719 69.422104 68 49 54
-15.084746 10.777746 69.360168 67 48 54
-15.070684 10.917077 69.295509 66 47 52
-15.056045 11.055705 69.228195 64 46 50
-15.040848 11.193627 69.158318 62 45 49
-15.025115 11.330846 69.085983 60 43 47
-15.008871 11.467360 69.011292 59 42 45
-14.992134 11.603171 68.934334 58 40 44
-14.974916 11.738275 68.855171 58 39 44
-14.957226 11.872661 68.773827 58 38 45
-14.939057 12.006312 68.690285 58 38 45
-14.920387 12.139195 68.604439 59 39 46
-14.901183 12.271269 68.516136 60 40 46
-14.881387 12.402468 68.425117 60 41 46
-14.860928 12.532716 68.331047 59 41 44
-14.839714 12.661913 68.233498 58 40 42
-14.817638 12.789948 68.131996 57 40 40
-14.794581 12.916686 68.025978 57 39 39
-14.770411 13.041986 67.914841 57 38 39
-14.744986 13.165685 67.797935 57 37 39
-12.772858 -5.359822 59.317974 110 60 61
-12.777429 -5.233824 59.339203 109 60 60
-12.782954 -5.108117 59.364864 108 60 60
-12.789462 -4.982682 59.395088 108 60 61
-12.796980 -4.857500 59.430004 109 60 62
-12.805545 -4.732554 59.469776 108 60 64
-12.815192 -4.607826 59.514580 108 60 65
-12.825964 -4.483298 59.564606 107 60 65
-12.837905 -4.358951 59.620060 105 59 65
-12.851066 -4.234767 59.681179 103 57 63
-12.865490 -4.110723 59.748169 100 55 62
-12.881233 -3.986799 59.821281 99 53 60
-12.898343 -3.862969 59.900742 97 51 59
-12.916870 -3.739207 59.986782 97 50 58
-12.936856 -3.615481 60.079597 96 50 57
-12.958344 -3.491760 60.179386 96 50 57
-12.981366 -3.368006 60.286304 98 50 57
-13.005949 -3.244181 60.400467 99 52 58
-13.032104 -3.120240 60.521931 100 53 58
-13.059831 -2.996136 60.650700 101 54 58
-13.089114 -2.871819 60.786694 103 55 58
-13.119920 -2.747234 60.929756 103 56 57
-13.152193 -2.622324 61.079636 101 56 57
-13.185860 -2.497033 61.235985 99 54 55
-13.220823 -2.371300 61.398357 97 52 53
-13.256968 -2.245067 61.566216 95 50 53
-13.294156 -2.118276 61.738922 96 50 53
-13.332234 -1.990874 61.915756 97 51 55
-13.371032 -1.862810 62.095936 98 52 57
-13.410370 -1.734038 62.278625 99 53 59
-13.450057 -1.604521 62.462936 100 53 61
-13.489902 -1.474226 62.647980 100 53 61
-13.529716 -1.343131 62.832874 100 52 61
-13.569311 -1.211219 63.016754 100 52 61
-13.608514 -1.078483 63.198818 99 52 60
-13.647166 -0.944924 63.378319 99 52 59
-13.685125 -0.810550 63.554604 98 51 59
-13.722271 -0.675376 63.727112 97 51 60
-13.758504 -0.539422 63.895382 96 51 61
-13.793753 -0.402714 64.059082 95 50 61
-13.827965 -0.265281 64.217964 95 49 61
-13.861115 -0.127152 64.371910 95 49 61
-13.893199 0.011639 64.520912 94 49 60
-13.924235 0.151061 64.665047 94 49 59
-13.954264 0.291083 64.804504 94 49 58
-13.983337 0.431677 64.939522 94 50 57
-14.011527 0.572817 65.070435 94 52 57
-14.038916 0.714481 65.197632 93 53 57
-14.065601 0.856651 65.321564 92 53 56
-14.091690 0.999312 65.442719 91 53 54
-14.117294 1.142457 65.561630 89 51 53
-14.142537 1.286081 65.678856 87 49 51
-14.167543 1.430187 65.794983 85 48 50
-14.192444 1.574781 65.910629 84 48 50
-14.217370 1.719878 66.026390 83 48 51
-14.242457 1.865494 66.142891 83 48 52
-14.267833 2.011654 66.260735 81 48 51
-14.293621 2.158384 66.380501 79 48 50
-14.319938 2.305715 66.502716 78 47 50
-14.346886 2.453681 66.627861 78 46 49
-14.374549 2.602317 66.756332 78 46 48
-14.402995 2.751655 66.888435 78 47 48
-14.432259 2.901728 67.024338 79 47 49
-14.462354 3.052562 67.164108 78 47 49
-14.493263 3.204179 67.307648 77 46 49
-14.524934 3.356590 67.454727 76 45 49
-14.557281 3.509799 67.604950 75 44 49
-14.590184 3.663795 67.757759 75 44 49
-14.623493 3.818555 67.912445 75 43 48
-14.657030 3.974045 68.068199 75 44 49
-14.690591 4.130212 68.224052 75 45 49
-14.723952 4.286994 68.378983 75 46 49
-14.756881 4.444313 68.531906 74 46 49
-14.789135 4.602081 68.681702 73 46 49
-14.820476 4.760202 68.827248 70 45 49
-14.850676 4.918573 68.967499 69 44 48
-14.879516 5.077085 69.101433 67 44 48
-14.906806 5.235629 69.228172 67 43 48
-14.932379 5.394099 69.346931 66 42 47
-14.956099 5.552393 69.457085 66 42 46
-14.977862 5.710417 69.558167 68 43 47
-14.997602 5.868085 69.649834 70 45 49
-15.015283 6.025321 69.731941 71 46 50
-15.030900 6.182063 69.804474 71 46 50
-15.044482 6.338260 69.867546 70 47 51
-15.056082 6.493874 69.921417 69 47 51
-15.065775 6.648879 69.966431 68 46 51
-15.073657 6.803261 70.003036 68 46 51
-15.079834 6.957013 70.031723 67 47 52
-15.084425 7.110142 70.053047 66 47 52
-15.087548 7.262656 70.067551 66 46 52
-15.089332 7.414575 70.075829 66 45 53
-15.089893 7.565916 70.078438 67 46 54
-15.089355 7.716706 70.075935 68 47 55
-15.087824 7.866968 70.068832 69 48 56
-15.085406 8.016728 70.057602 70 50 57
-15.082193 8.166009 70.042679 72 52 57
-15.078269 8.314833 70.024452 73 53 58
-15.073704 8.463220 70.003258 75 54 58
-15.068559 8.611182 69.979362 75 54 57
-15.062882 8.758734 69.953003 75 54 57
-15.056713 8.905879 69.924347 74 53 56
-15.050076 9.052620 69.893524 72 52 55
-15.042990 9.198955 69.860619 72 51 53
-15.035462 9.344872 69.825661 71 49 51
-15.027495 9.490361 69.788658 71 49 50
-15.019081 9.635404 69.749588 71 48 50
-15.010209 9.779980 69.708382 71 48 50
-15.000865 9.924066 69.664986 71 47 51
-14.991031 10.067636 69.619316 71 47 52
-14.980692 10.210664 69.571297 71 48 53
-14.969835 10.353128 69.520882 70 49 55
-14.958449 10.495003 69.468002 69 49 55
-14.946527 10.636270 69.412643 69 49 55
-14.934071 10.776910 69.354790 68 49 55
-14.921082 10.916912 69.294464 66 48 53
-14.907571 11.056268 69.231720 64 46 52
-14.893553 11.194971 69.166618 62 45 50
-14.879044 11.333019 69.099236 60 43 48
-14.864061 11.470412 69.029663 59 42 47
-14.848618 11.607145 68.957939 58 41 46
-14.832724 11.743212 68.884125 58 40 46
-14.816382 11.878601 68.808235 58 39 46
-14.799584 12.013293 68.730225 58 39 47
-14.782309 12.147256 68.649994 59 39 47
-14.764521 12.280448 68.567390 60 40 46
-14.746170 12.412808 68.482162 60 40 46
-14.727187 12.544264 68.394005 59 40 44
-14.707490 12.674724 68.302536 58 39 41
-14.686980 12.804081 68.207283 58 39 40
-14.665549 12.932215 68.107758 58 38 40
-14.643078 13.058990 68.003395 58 38 39
-14.619435 13.184262 67.893600 58 37 39
-14.594496 13.307878 67.777786 57 38 39
-14.568128 13.429676 67.655327 56 38 38
-12.627924 -5.480286 59.237926 110 59 61
-12.631667 -5.354176 59.255489 110 59 61
-12.636394 -5.228396 59.277657 110 60 61
-12.642118 -5.102924 59.304508 111 61 61
-12.648859 -4.977736 59.336136 111 61 61
-12.656642 -4.852812 59.372646 110 61 62
-12.665489 -4.728127 59.414150 110 61 63
-12.675428 -4.603660 59.460773 109 61 64
-12.686489 -4.479388 59.512661 107 60 64
-12.698708 -4.355289 59.569973 105 59 64
-12.712119 -4.231341 59.632889 103 57 62
-12.726760 -4.107518 59.701569 100 54 61
-12.742674 -3.983797 59.776222 98 52 59
-12.759903 -3.860151 59.857044 96 50 58
-12.778487 -3.736554 59.944221 95 49 57
-12.798466 -3.612974 60.037945 95 49 56
-12.819877 -3.489380 60.138386 95 49 56
-12.842752 -3.365737 60.245693 97 50 56
-12.867119 -3.242007 60.359997 98 52 57
-12.892991 -3.118149 60.481365 100 53 58
-12.920375 -2.994117 60.609821 101 55 58
-12.949259 -2.869864 60.745319 103 57 58
-12.979618 -2.745339 60.887733 103 57 58
-13.011405 -2.620487 61.036846 102 56 57
-13.044556 -2.495254 61.192356 101 55 56
-13.078983 -2.369581 61.353859 98 52 54
-13.114580 -2.243412 61.520847 95 50 53
-13.151218 -2.116691 61.692719 95 50 54
-13.188750 -1.989363 61.868778 96 50 56
-13.227011 -1.861379 62.048260 97 51 58
-13.265825 -1.732694 62.230339 99 52 59
-13.305000 -1.603267 62.414112 100 53 61
-13.344349 -1.473067 62.598694 101 53 62
-13.383674 -1.342069 62.783173 101 53 62
-13.422789 -1.210256 62.966660 101 53 62
-13.461510 -1.077621 63.148300 101 54 61
-13.499673 -0.944163 63.327324 101 54 60
-13.537127 -0.809892 63.503021 100 54 60
-13.573743 -0.674821 63.674793 99 53 60
-13.609417 -0.538972 63.842140 97 53 60
-13.644066 -0.402372 64.004677 96 51 60
-13.677635 -0.265050 64.162155 95 50 60
-13.710095 -0.127039 64.314423 94 49 60
-13.741440 0.011628 64.461464 93 49 59
-13.771688 0.150916 64.603355 93 49 58
-13.800879 0.290795 64.740295 93 50 57
-13.829078 0.431232 64.872574 92 50 56
-13.856358 0.572202 65.000542 92 51 57
-13.882812 0.713681 65.124641 92 52 57
-13.908553 0.855652 65.245392 92 53 57
-13.933696 0.998100 65.363342 92 53 55
-13.958370 1.141018 65.479088 90 52 54
-13.982710 1.284405 65.593269 88 50 52
-14.006859 1.428264 65.706551 86 49 51
-14.030965 1.572607 65.819626 85 48 51
-14.055170 1.717450 65.933174 84 48 50
-14.079624 1.862815 66.047897 83 48 51
-14.104472 2.008731 66.164459 81 49 51
-14.129847 2.155229 66.283485 80 49 50
-14.155874 2.302347 66.405586 79 48 50
-14.182664 2.450124 66.531258 79 48 49
-14.210306 2.598597 66.660927 78 48 49
-14.238868 2.747808 66.794907 78 48 49
-14.268386 2.897790 66.933380 79 48 49
-14.298869 3.048575 67.076378 79 48 50
-14.330293 3.200186 67.223785 79 47 50
-14.362595 3.352638 67.375313 78 45 50
-14.395674 3.505933 67.530495 76 45 50
-14.429397 3.660060 67.688683 76 44 49
-14.463593 3.814994 67.849106 75 43 48
-14.498067 3.970695 68.010818 75 44 49
-14.532589 4.127107 68.172760 76 46 49
-14.566916 4.284161 68.333794 76 47 50
-14.600791 4.441770 68.492699 74 47 50
-14.633951 4.599841 68.648254 72 46 50
-14.666139 4.758266 68.799248 70 45 50
-14.697105 4.916934 68.944511 68 45 49
-14.726620 5.075727 69.082970 67 44 49
-14.754476 5.234530 69.213638 66 44 48
-14.780499 5.393227 69.335716 66 43 48
-14.804547 5.551709 69.448524 67 43 48
-14.826517 5.709878 69.551590 69 44 49
-14.846342 5.867643 69.644585 70 45 50
-14.863991 6.024927 69.727379 70 46 50
-14.879471 6.181666 69.799995 71 46 51
-14.892819 6.337812 69.862617 70 47 51
-14.904103 6.493329 69.915550 69 47 51
-14.913414 6.648194 69.959221 69 46 52
-14.920860 6.802397 69.994156 69 46 53
-14.926565 6.955939 70.020912 68 47 53
-14.930663 7.108832 70.040138 68 47 53
-14.933290 7.261092 70.052460 67 46 53
-14.934586 7.412745 70.058540 67 46 54
-14.934681 7.563816 70.058983 68 46 55
-14.933711 7.714338 70.054436 69 47 56
-14.931792 7.864342 70.045441 70 48 57
-14.929039 8.013858 70.032516 71 50 57
-14.925550 8.162916 70.016151 72 52 58
-14.921415 8.311544 69.996758 74 53 58
-14.916709 8.459764 69.974678 75 54 58
-14.911494 8.607596 69.950218 75 54 57
-14.905823 8.755054 69.923615 75 53 57
-14.899734 8.902148 69.895050 74 53 56
-14.893255 9.048882 69.864655 73 52 55
-14.886403 9.195254 69.832512 72 51 53
-14.879187 9.341259 69.798660 71 49 51
-14.871607 9.486886 69.763107 71 48 50
-14.863655 9.632119 69.725807 71 48 50
-14.855322 9.776939 69.686714 71 47 51
-14.846589 9.921325 69.645744 71 47 52
-14.837440 10.065251 69.602829 71 48 53
-14.827857 10.208694 69.557877 71 48 54
-14.817824 10.351628 69.510811 70 49 56
-14.807327 10.494031 69.461563 69 49 56
-14.796358 10.635881 69.410110 68 49 56
-14.784909 10.777162 69.356407 67 49 55
-14.772985 10.917857 69.300461 66 48 54
-14.760585 11.057956 69.242294 64 46 52
-14.747721 11.197453 69.181953 62 45 51
-14.734405 11.336340 69.119484 61 43 49
-14.720646 11.474613 69.054947 60 42 49
-14.706454 11.612267 68.988373 60 41 48
-14.691837 11.749293 68.919800 60 41 48
-14.676791 11.885676 68.849220 60 40 48
-14.661308 12.021397 68.776588 60 40 49
-14.645366 12.156423 68.701805 59 40 48
-14.628933 12.290714 68.624710 59 39 47
-14.611961 12.424215 68.545097 59 39 46
-14.594389 12.556856 68.462669 59 39 44
-14.576138 12.688552 68.377052 59 38 42
-14.557125 12.819206 68.287865 59 38 41
-14.537249 12.948708 68.194618 59 38 40
-14.516401 13.076933 68.096825 59 38 40
-14.494469 13.203747 67.993942 59 38 40
-14.471334 13.329011 67.885414 59 38 40
-14.446880 13.452578 67.770699 58 38 39
-14.420993 13.574301 67.649261 57 38 39
-14.393566 13.694036 67.520599 57 37 38
-14.364504 13.811644 67.384270 56 37 38
-12.485877 -5.473995 59.169926 111 59 62
-12.489740 -5.348098 59.188232 111 60 62
-12.494633 -5.222553 59.211418 112 61 61
-12.500566 -5.097333 59.239536 112 62 61
-12.507553 -4.972410 59.272648 112 62 62
-12.515607 -4.847758 59.310814 112 61 62
-12.524743 -4.723349 59.354107 111 61 63
-12.534977 -4.599157 59.402607 110 61 63
-12.546329 -4.475154 59.456406 108 60 63
-12.558821 -4.351314 59.515602 106 59 63
-12.572480 -4.227612 59.580330 103 57 62
-12.587331 -4.104018 59.650711 100 54 60
-12.603406 -3.980509 59.726891 98 51 58
-12.620740 -3.857055 59.809032 96 50 57
-12.639366 -3.733629 59.897305 95 49 56
-12.659319 -3.610201 59.991856 95 49 56
-12.680632 -3.486739 60.092857 95 49 56
-12.703338 -3.363210 60.200462 96 50 56
-12.727464 -3.239579 60.314793 98 52 57
-12.753028 -3.115807 60.435940 100 54 59
-12.780042 -2.991851 60.563953 102 56 59
-12.808501 -2.867667 60.698826 103 58 59
-12.838389 -2.743208 60.840466 103 58 58
-12.869671 -2.618420 60.988705 103 57 57
-12.902290 -2.493253 61.143284 101 56 56
-12.936172 -2.367650 61.303844 99 53 55
-12.971217 -2.241555 61.469925 96 50 55
-13.007307 -2.114915 61.640957 96 50 56
-13.044304 -1.987675 61.816280 96 50 57
-13.082048 -1.859786 61.995152 97 50 58
-13.120366 -1.731202 62.176739 99 51 59
-13.159072 -1.601881 62.360161 100 52 60
-13.197969 -1.471791 62.544495 101 53 62
-13.236864 -1.340907 62.728813 102 53 62
-13.275560 -1.209209 62.912193 102 54 62
-13.313870 -1.076690 63.093742 103 55 62
-13.351619 -0.943348 63.272629 103 55 61
-13.388645 -0.809191 63.448097 102 55 60
-13.424812 -0.674235 63.619492 101 55 59
-13.460003 -0.538501 63.786259 98 54 59
-13.494128 -0.402016 63.947975 96 52 59
-13.527124 -0.264811 64.104340 95 50 58
-13.558956 -0.126922 64.255196 94 49 58
-13.589615 0.011617 64.400482 93 49 58
-13.619117 0.150769 64.540291 92 49 57
-13.647505 0.290501 64.674820 92 49 55
-13.674848 0.430779 64.804390 91 49 54
-13.701223 0.571576 64.929390 91 50 55
-13.726741 0.712867 65.050316 92 52 56
-13.751517 0.854633 65.167732 92 53 56
-13.775686 0.996862 65.282265 91 53 56
-13.799392 1.139546 65.394608 90 52 55
-13.822785 1.282686 65.505463 88 51 53
-13.846026 1.426287 65.615601 86 49 52
-13.869281 1.570365 65.725800 85 49 51
-13.892709 1.714940 65.836823 84 48 51
-13.916475 1.860039 65.949455 84 49 51
-13.940740 2.005694 66.064445 82 49 51
-13.965652 2.151946 66.182503 81 49 51
-13.991348 2.298835 66.304276 80 49 51
-14.017945 2.446406 66.430313 79 49 50
-14.045541 2.594706 66.561089 79 49 50
-14.074205 2.743777 66.696930 79 49 50
-14.103973 2.893661 66.837997 80 49 50
-14.134852 3.044392 66.984337 80 48 50
-14.166807 3.195996 67.135765 80 48 50
-14.199768 3.348491 67.291962 79 46 50
-14.233617 3.501877 67.452377 77 45 50
-14.268204 3.656145 67.616280 76 44 49
-14.303340 3.811265 67.782791 75 43 48
-14.338803 3.967194 67.950844 75 45 48
-14.374345 4.123869 68.119278 77 47 50
-14.409697 4.281215 68.286804 76 48 50
-14.444577 4.439137 68.452103 74 48 51
-14.478702 4.597533 68.613815 72 47 51
-14.511789 4.756286 68.770615 70 46 51
-14.543573 4.915274 68.921242 68 46 50
-14.573805 5.074371 69.064507 67 45 49
-14.602268 5.233452 69.199394 66 45 49
-14.628776 5.392394 69.325012 67 44 48
-14.653185 5.551082 69.440681 68 44 48
-14.675387 5.709411 69.545898 69 45 49
-14.695321 5.867287 69.640366 70 45 50
-14.712961 6.024632 69.723961 70 45 50
-14.728324 6.181380 69.796761 70 46 50
-14.741459 6.337486 69.859009 70 47 51
-14.752449 6.492915 69.911095 70 47 51
-14.761396 6.647649 69.953491 70 47 52
-14.768432 6.801686 69.986832 70 47 53
-14.773691 6.955030 70.011757 69 47 53
-14.777328 7.107701 70.028992 68 47 53
-14.779492 7.259723 70.039253 68 46 54
-14.780337 7.411128 70.043251 68 46 55
-14.780009 7.561949 70.041702 69 46 56
-14.778653 7.712228 70.035271 70 47 57
-14.776396 7.861999 70.024574 71 49 58
-14.773360 8.011302 70.010185 72 51 58
-14.769650 8.160172 69.992607 73 52 58
-14.765361 8.308638 69.972282 74 53 58
-14.760571 8.456730 69.949577 75 54 58
-14.755345 8.604471 69.924820 75 54 57
-14.749739 8.751878 69.898247 75 53 56
-14.743789 8.898964 69.870049 74 52 55
-14.737522 9.045734 69.840355 73 51 54
-14.730960 9.192191 69.809258 72 50 52
-14.724106 9.338329 69.776772 71 49 51
-14.716961 9.484140 69.742912 71 48 50
-14.709515 9.629608 69.707626 71 48 51
-14.701757 9.774716 69.670868 71 48 51
-14.693668 9.919443 69.632530 71 48 53
-14.685230 10.063765 69.592545 71 48 53
-14.676421 10.207655 69.550797 70 48 54
-14.667224 10.351092 69.507210 70 49 56
-14.657620 10.494052 69.461708 69 49 56
-14.647598 10.636510 69.414207 68 49 56
-14.637149 10.778449 69.364693 66 49 55
-14.626268 10.919852 69.313126 66 48 54
-14.614954 11.060705 69.259506 64 47 52
-14.603212 11.200999 69.203865 62 45 51
-14.591048 11.340726 69.146225 61 44 51
-14.578470 11.479877 69.086617 61 42 50
-14.565482 11.618443 69.025063 60 41 50
-14.552085 11.756415 68.961578 60 41 50
-14.538277 11.893776 68.896141 60 40 50
-14.524046 12.030506 68.828705 60 40 49
-14.509373 12.166574 68.759171 59 40 48
-14.494226 12.301939 68.687386 59 39 47
-14.478563 12.436552 68.613159 59 39 45
-14.462328 12.570348 68.536224 59 39 43
-14.445451 12.703247 68.456245 59 38 42
-14.427858 12.835165 68.372871 59 38 41
-14.409458 12.965998 68.285675 59 38 40
-14.390157 13.095634 68.194206 59 38 40
-14.369852 13.223951 68.097984 59 38 40
-14.348441 13.350825 67.996521 59 38 40
-14.325816 13.476120 67.889305 59 38 39
-14.301876 13.599702 67.775848 58 38 39
-14.276524 13.721437 67.655701 58 37 39
-14.249667 13.841192 67.528435 58 38 39
-14.221231 13.958850 67.393677 58 38 40
-14.191151 14.074295 67.251129 58 39 40
-12.340194 -5.593326 59.083103 112 60 64
-12.343122 -5.467259 59.097122 112 60 64
-12.347116 -5.341594 59.116245 112 60 63
-12.352184 -5.216300 59.140514 113 61 62
-12.358334 -5.091346 59.169960 113 62 62
-12.365570 -4.966702 59.204605 112 62 62
-12.373897 -4.842336 59.244473 112 61 62
-12.383321 -4.718215 59.289593 111 61 62
-12.393847 -4.594308 59.339989 111 61 62
-12.405482 -4.470585 59.395702 110 60 62
-12.418240 -4.347013 59.456779 108 59 63
-12.432133 -4.223565 59.523296 105 57 62
-12.447177 -4.100208 59.595329 102 55 60
-12.463396 -3.976916 59.672981 100 53 59
-12.480814 -3.853659 59.756374 98 51 58
-12.499458 -3.730409 59.845642 97 50 57
-12.519358 -3.607136 59.940922 97 50 57
-12.540546 -3.483809 60.042366 97 50 57
-12.563052 -3.360398 60.150124 97 50 57
-12.586906 -3.236869 60.264336 98 52 58
-12.612133 -3.113186 60.385113 100 54 59
-12.638746 -2.989311 60.512535 101 56 60
-12.666755 -2.865202 60.646633 103 58 60
-12.696147 -2.740813 60.787361 103 58 59
-12.726900 -2.616098 60.934605 103 57 58
-12.758971 -2.491005 61.088154 101 55 56
-12.792295 -2.365481 61.247707 98 52 55
-12.826787 -2.239474 61.412846 96 50 55
-12.862334 -2.112928 61.583042 96 50 56
-12.898808 -1.985791 61.757679 96 49 57
-12.936058 -1.858012 61.936020 97 49 58
-12.973913 -1.729546 62.117268 98 50 58
-13.012188 -1.600349 62.300522 99 51 59
-13.050687 -1.470388 62.484848 101 52 60
-13.089211 -1.339634 62.669296 102 53 61
-13.127558 -1.208069 62.852894 103 54 61
-13.165531 -1.075682 63.034706 103 55 62
-13.202944 -0.942471 63.213833 103 56 61
-13.239627 -0.808443 63.389465 102 56 59
-13.275429 -0.673614 63.560883 101 56 59
-13.310222 -0.538004 63.727463 99 55 59
-13.343904 -0.401643 63.888729 96 53 58
-13.376404 -0.264563 64.044334 95 52 57
-13.407679 -0.126801 64.194077 93 50 56
-13.437713 0.011606 64.337875 92 48 55
-13.466522 0.150619 64.475807 91 48 54
-13.494149 0.290201 64.608086 91 48 53
-13.520665 0.430318 64.735039 90 48 53
-13.546157 0.570939 64.857086 91 50 53
-13.570742 0.712039 64.974792 91 51 54
-13.594549 0.853598 65.088783 91 52 56
-13.617728 0.995602 65.199760 90 52 56
-13.640439 1.138046 65.308502 89 51 56
-13.662853 1.280930 65.415810 88 51 55
-13.685146 1.424265 65.522552 86 50 54
-13.707503 1.568067 65.629593 84 49 53
-13.730107 1.712361 65.737816 83 48 52
-13.753139 1.857180 65.848091 83 49 52
-13.776777 2.002562 65.961266 82 49 52
-13.801185 2.148552 66.078125 82 49 51
-13.826512 2.295198 66.199387 81 49 51
-13.852888 2.442553 66.325676 80 49 51
-13.880416 2.590666 66.457474 80 49 50
-13.909171 2.739590 66.595146 80 49 50
-13.939188 2.889369 66.738869 80 49 50
-13.970470 3.040042 66.888641 80 48 50
-14.002975 3.191640 67.044266 80 48 50
-14.036618 3.344181 67.205345 79 47 50
-14.071270 3.497666 67.371254 78 46 50
-14.106761 3.652084 67.541183 76 44 49
-14.142880 3.807404 67.714111 75 43 48
-14.179382 3.963576 67.888885 75 45 48
-14.215995 4.120533 68.064178 76 47 50
-14.252422 4.278192 68.238586 75 48 50
-14.288359 4.436449 68.410645 73 48 50
-14.323496 4.595192 68.578880 72 47 51
-14.357529 4.754294 68.741821 70 47 51
-14.390171 4.913625 68.898109 69 46 51
-14.421158 5.073046 69.046471 68 46 50
-14.450259 5.232425 69.185806 67 45 49
-14.477282 5.391630 69.315186 67 45 48
-14.502073 5.550539 69.433884 68 45 49
-14.524530 5.709042 69.541405 69 45 49
-14.544591 5.867042 69.637451 70 45 49
-14.562239 6.024457 69.721947 70 45 49
-14.577500 6.181226 69.795013 71 46 50
-14.590438 6.337300 69.856956 71 46 51
-14.601150 6.492651 69.908241 71 47 52
-14.609755 6.647264 69.949448 71 47 53
-14.616399 6.801144 69.981255 70 47 53
-14.621239 6.954302 70.004433 69 47 53
-14.624442 7.106764 70.019768 68 47 53
-14.626174 7.258563 70.028061 68 46 54
-14.626604 7.409738 70.030121 69 46 55
-14.625892 7.560331 70.026711 70 47 56
-14.624190 7.710388 70.018562 71 48 58
-14.621641 7.859953 70.006355 72 49 58
-14.618369 8.009071 69.990692 73 51 58
-14.614489 8.157782 69.972107 74 52 58
-14.610097 8.306121 69.951088 75 53 58
-14.605276 8.454122 69.928001 75 53 57
-14.600094 8.601810 69.903191 75 53 56
-14.594602 8.749205 69.876892 75 52 55
-14.588841 8.896323 69.849319 75 51 54
-14.582839 9.043173 69.820580 73 50 53
-14.576612 9.189755 69.790756 72 49 51
-14.570163 9.336069 69.759880 72 48 51
-14.563490 9.482103 69.727936 72 49 51
-14.556586 9.627848 69.694885 71 49 51
-14.549434 9.773281 69.660637 71 49 52
-14.542012 9.918385 69.625107 71 49 53
-14.534300 10.063133 69.588181 70 49 54
-14.526276 10.207502 69.549759 70 48 55
-14.517917 10.351468 69.509735 69 48 55
-14.509202 10.495005 69.468018 68 48 56
-14.500116 10.638088 69.424515 67 48 55
-14.490646 10.780699 69.379173 65 48 55
-14.480783 10.922817 69.331947 65 48 54
-14.470523 11.064428 69.282822 64 47 53
-14.459864 11.205519 69.231789 63 46 52
-14.448810 11.346079 69.178864 62 44 51
-14.437360 11.486095 69.124039 61 43 51
-14.425517 11.625560 69.067345 60 41 50
-14.413282 11.764459 69.008759 60 41 50
-14.400647 11.902776 68.948265 60 40 50
-14.387603 12.040488 68.885811 59 40 49
-14.374127 12.177567 68.821297 59 39 47
-14.360195 12.313975 68.754593 58 39 46
-14.345766 12.449665 68.685501 58 39 44
-14.330791 12.584577 68.613808 59 39 43
-14.315210 12.718642 68.539207 59 38 41
-14.298956 12.851781 68.461388 59 38 41
-14.281951 12.983901 68.379967 60 38 40
-14.264112 13.114903 68.294556 60 39 40
-14.245349 13.244678 68.204720 60 39 40
-14.225572 13.373113 68.110031 60 39 41
-14.204684 13.500084 68.010025 59 38 41
-14.182597 13.625471 67.904274 59 38 40
-14.159220 13.749149 67.792351 58 37 39
-14.134471 13.870998 67.673851 59 38 40
-14.108275 13.990903 67.548431 59 39 41
