ply
format ascii 1.0
element vertex 1205
property float x
property float y
property float z
property uchar red
property uchar green
property uchar blue
end_header
-0.258780 19.867682 63.525455 66 63 65
-0.258833 20.008730 63.538502 64 62 63
-0.258889 20.150059 63.552254 62 59 60
-0.258948 20.291653 63.566654 57 55 56
-0.259008 20.433443 63.581474 50 49 49
-0.259069 20.575310 63.596329 44 43 43
-0.259127 20.717093 63.610729 40 39 39
-0.259181 20.858562 63.623993 38 37 36
-0.259228 20.999498 63.635456 37 36 35
-0.259264 21.139639 63.644382 37 36 35
-0.259287 21.278725 63.650032 37 35 34
-0.259294 21.416489 63.651688 36 35 35
-0.259282 21.552677 63.648663 36 34 35
-0.259248 21.687040 63.640327 36 34 35
-0.259190 21.819359 63.626125 36 34 35
-0.259106 21.949413 63.605549 36 34 35
-0.258995 22.077007 63.578136 36 34 34
-0.258853 22.201944 63.543465 35 33 33
-0.258681 22.324038 63.501118 34 32 33
-0.258475 22.443079 63.450665 33 31 32
-0.258235 22.558842 63.391609 32 30 30
-0.257957 22.671059 63.323364 31 30 29
-0.257639 22.779428 63.245255 31 30 29
-0.257277 22.883595 63.156467 31 30 29
-0.256868 22.983131 63.056030 31 29 28
-0.256407 23.077557 62.942837 30 29 28
-0.255888 23.166332 62.815647 29 29 27
-0.255308 23.248875 62.673130 27 28 27
-0.254659 23.324560 62.513885 27 28 27
-0.253937 23.392757 62.336514 25 27 26
-0.253135 23.452858 62.139717 25 27 25
-0.252250 23.504305 61.922356 24 26 24
-0.251277 23.546614 61.683506 24 25 23
-0.250214 23.579418 61.422588 24 24 23
-0.117361 5.287239 61.190006 252 248 249
-0.117351 5.418667 61.184620 250 245 247
-0.117342 5.550118 61.179749 252 249 250
-0.117333 5.681585 61.175270 254 254 254
-0.117325 5.813057 61.171047 254 254 254
-0.117317 5.944520 61.166920 254 254 254
-0.117309 6.075959 61.162727 254 254 254
-0.117300 6.207356 61.158302 254 254 254
-0.117291 6.338692 61.153469 254 254 254
-0.117281 6.469948 61.148079 254 254 254
-0.117269 6.601105 61.141987 254 254 254
-0.117256 6.732142 61.135048 254 254 254
-0.117241 6.863043 61.127159 254 254 254
-0.117224 6.993793 61.118248 254 254 254
-0.117204 7.124378 61.108250 254 254 254
-0.117183 7.254790 61.097164 254 254 254
-0.117160 7.385026 61.085014 254 254 254
-0.117135 7.515089 61.071884 254 254 254
-0.117108 7.644986 61.057880 253 254 253
-0.117080 7.774735 61.043190 252 252 252
-0.117050 7.904358 61.028015 253 253 253
-0.117021 8.033887 61.012615 254 254 254
-0.116992 8.163357 60.997280 254 254 254
-0.116963 8.292814 60.982338 254 254 254
-0.116936 8.422311 60.968140 254 254 254
-0.116911 8.551901 60.955051 251 251 251
-0.116888 8.681645 60.943436 244 245 244
-0.116869 8.811603 60.933647 245 245 244
-0.116855 8.941836 60.926022 251 251 250
-0.116845 9.072402 60.920853 253 253 253
-0.116840 9.203356 60.918396 253 253 253
-0.116841 9.334743 60.918839 250 251 250
-0.116848 9.466602 60.922306 245 246 245
-0.116860 9.598963 60.928856 245 246 245
-0.116879 9.731838 60.938457 250 251 250
-0.116903 9.865233 60.951015 252 253 253
-0.116932 9.999138 60.966351 251 253 252
-0.116967 10.133533 60.984234 251 252 252
-0.117005 10.268381 61.004356 251 252 252
-0.117047 10.403643 61.026390 250 251 252
-0.117093 10.539265 61.049969 251 252 253
-0.117140 10.675195 61.074726 251 251 254
-0.117189 10.811377 61.100292 249 249 254
-0.117239 10.947752 61.126339 244 244 250
-0.117289 11.084271 61.152550 226 225 235
-0.117339 11.220890 61.178688 203 201 216
-0.117389 11.357570 61.204552 205 205 220
-0.117438 11.494287 61.230015 231 232 242
-0.117486 11.631021 61.255001 246 248 253
-0.117533 11.767772 61.279503 247 250 252
-0.117579 11.904541 61.303555 246 250 252
-0.117624 12.041340 61.327236 234 240 242
-0.117669 12.178190 61.350658 224 230 232
-0.117714 12.315116 61.373955 237 240 242
-0.117759 12.452145 61.397259 246 248 249
-0.117804 12.589305 61.420723 238 242 242
-0.117849 12.726627 61.444477 239 243 243
-0.117896 12.864141 61.468651 246 248 248
-0.117943 13.001869 61.493355 245 248 247
-0.117992 13.139842 61.518700 244 247 246
-0.118042 13.278079 61.544765 249 250 250
-0.118093 13.416610 61.571663 253 254 254
-0.118147 13.555458 61.599476 254 254 254
-0.118202 13.694653 61.628307 250 251 252
-0.118259 13.834228 61.658283 242 243 247
-0.118319 13.974221 61.689533 234 235 242
-0.118382 14.114679 61.722225 233 234 243
-0.118448 14.255651 61.756538 232 233 241
-0.118517 14.397196 61.792664 225 224 233
-0.118590 14.539375 61.830833 218 218 226
-0.118668 14.682257 61.871269 218 217 224
-0.118750 14.825912 61.914204 215 213 220
-0.118838 14.970408 61.959858 202 199 205
-0.118931 15.115817 62.008442 189 186 192
-0.119030 15.262195 62.060120 186 182 188
-0.119135 15.409595 62.115021 183 178 184
-0.119247 15.558057 62.173218 169 165 171
-0.119365 15.707598 62.234695 154 151 157
-0.119489 15.858215 62.299358 145 142 150
-0.119619 16.009884 62.367031 140 136 147
-0.119754 16.162546 62.437416 134 130 141
-0.119893 16.316116 62.510117 127 122 135
-0.120036 16.470474 62.584621 122 114 129
-0.120181 16.625473 62.660332 115 105 121
-0.120327 16.780935 62.736549 104 93 108
-0.120473 16.936653 62.812500 88 76 90
-0.120617 17.092403 62.887367 73 61 72
-0.120757 17.247953 62.960316 64 53 61
-0.120891 17.403055 63.030514 60 49 55
-0.121019 17.557476 63.097168 56 47 51
-0.121139 17.710993 63.159576 54 46 48
-0.121249 17.863411 63.217152 52 45 46
-0.121349 18.014570 63.269428 51 44 46
-0.121439 18.164354 63.316120 48 43 44
-0.121518 18.312693 63.357121 46 41 43
-0.121586 18.459574 63.392506 44 39 40
-0.121643 18.605034 63.422531 43 38 39
-0.121691 18.749161 63.447601 43 39 39
-0.121731 18.892084 63.468273 44 41 42
-0.121763 19.033979 63.485210 47 44 45
-0.121790 19.175037 63.499134 52 48 49
-0.121812 19.315464 63.510792 56 53 54
-0.121832 19.455467 63.520897 61 58 59
-0.121849 19.595243 63.530125 65 62 63
-0.121867 19.734961 63.539036 66 64 65
-0.121884 19.874750 63.548054 64 62 62
-0.121902 20.014696 63.557449 61 59 60
-0.121921 20.154839 63.567333 59 56 57
-0.121941 20.295158 63.577637 55 52 53
-0.121961 20.435581 63.588127 49 47 48
-0.121980 20.575989 63.598431 43 42 42
-0.121999 20.716219 63.608047 39 38 37
-0.122015 20.856049 63.616322 36 35 35
-0.122027 20.995256 63.622601 36 35 34
-0.122034 21.133591 63.626171 36 35 34
-0.122034 21.270798 63.626324 36 35 34
-0.122026 21.406616 63.622345 36 35 34
-0.122010 21.540796 63.613579 36 35 35
-0.121982 21.673100 63.599415 36 34 35
-0.121944 21.803303 63.579304 36 34 35
-0.121893 21.931198 63.552765 36 34 35
-0.121829 22.056593 63.519344 36 34 34
-0.121751 22.179293 63.478630 36 33 34
-0.121658 22.299112 63.430222 35 32 33
-0.121549 22.415854 63.373695 34 31 32
-0.121425 22.529293 63.308578 33 30 31
-0.121282 22.639174 63.234306 32 30 30
-0.121121 22.745205 63.150234 32 30 30
-0.120939 22.847042 63.055588 32 30 29
-0.120736 22.944281 62.949444 32 30 28
-0.120508 23.036461 62.830750 30 29 28
-0.120254 23.123072 62.698345 29 29 28
-0.119971 23.203554 62.550961 27 28 27
-0.119658 23.277327 62.387287 27 28 27
-0.119310 23.343790 62.206028 25 28 27
-0.118926 23.402378 62.005966 25 28 26
-0.118504 23.452570 61.786057 24 27 25
-0.118043 23.493921 61.545471 24 26 25
-0.117541 23.526104 61.283707 25 26 24
0.014552 5.290309 61.225536 252 248 250
0.014551 5.421770 61.219654 249 243 246
0.014550 5.553257 61.214340 251 246 248
0.014548 5.684762 61.209480 254 252 253
0.014547 5.816278 61.204929 254 254 254
0.014546 5.947789 61.200550 255 255 255
0.014545 6.079281 61.196163 254 254 254
0.014544 6.210737 61.191616 254 254 254
0.014543 6.342140 61.186729 254 254 254
0.014542 6.473470 61.181366 254 254 254
0.014540 6.604708 61.175362 254 254 254
0.014539 6.735837 61.168594 254 254 254
0.014537 6.866838 61.160954 254 254 254
0.014535 6.997696 61.152359 254 254 254
0.014533 7.128401 61.142761 254 254 254
0.014530 7.258944 61.132145 254 254 254
0.014527 7.389321 61.120544 254 254 254
0.014524 7.519536 61.108028 252 252 251
0.014521 7.649598 61.094711 251 251 250
0.014518 7.779521 61.080765 252 252 252
0.014514 7.909328 61.066383 254 254 254
0.014511 8.039049 61.051823 254 254 254
0.014508 8.168721 61.037365 254 254 254
0.014504 8.298388 61.023327 255 255 255
0.014501 8.428100 61.010048 255 255 255
0.014498 8.557910 60.997879 248 248 248
0.014496 8.687877 60.987186 238 238 238
0.014494 8.818061 60.978306 239 239 238
0.014492 8.948521 60.971569 247 248 247
0.014491 9.079313 60.967262 250 251 250
0.014491 9.210493 60.965637 249 250 249
0.014491 9.342106 60.966888 249 250 249
0.014492 9.474190 60.971130 248 249 249
0.014494 9.606771 60.978424 248 249 249
0.014496 9.739869 60.988747 251 251 251
0.014499 9.873486 61.002003 253 253 253
0.014503 10.007613 61.018028 252 253 253
0.014507 10.142232 61.036587 252 253 253
0.014512 10.277308 61.057388 252 253 253
0.014518 10.412799 61.080105 251 252 253
0.014523 10.548657 61.104374 251 252 253
0.014530 10.684829 61.129841 252 252 254
0.014536 10.821259 61.156143 251 252 255
0.014542 10.957891 61.182945 247 247 251
0.014549 11.094675 61.209949 229 228 236
0.014555 11.231566 61.236904 206 203 217
0.014561 11.368530 61.263618 207 205 219
0.014568 11.505540 61.289967 230 230 240
0.014574 11.642578 61.315861 243 244 251
0.014580 11.779640 61.341305 244 246 250
0.014586 11.916731 61.366333 246 249 250
0.014592 12.053862 61.391010 235 241 242
0.014597 12.191053 61.415459 227 232 234
0.014603 12.328328 61.439800 240 243 244
0.014609 12.465716 61.464176 244 246 246
0.014615 12.603246 61.488735 235 239 239
0.014621 12.740946 61.513603 242 245 245
0.014627 12.878845 61.538918 247 249 249
0.014633 13.016972 61.564781 239 243 242
0.014639 13.155351 61.591309 238 242 241
0.014646 13.294005 61.618584 246 249 248
0.014652 13.432962 61.646709 252 253 253
0.014659 13.572248 61.675774 253 254 254
0.014666 13.711890 61.705883 250 251 253
0.014674 13.851921 61.737141 243 244 248
0.014682 13.992381 61.769699 236 236 244
0.014690 14.133311 61.803703 233 234 243
0.014698 14.274762 61.839321 230 230 240
0.014707 14.416788 61.876755 222 221 230
0.014716 14.559449 61.916203 217 215 223
0.014726 14.702810 61.957882 218 215 223
0.014737 14.846937 62.002010 215 211 218
0.014748 14.991894 62.048782 202 197 203
0.014760 15.137744 62.098392 188 183 188
0.014772 15.284539 62.150978 184 179 184
0.014785 15.432326 62.206646 179 174 179
0.014799 15.581132 62.265427 165 160 166
0.014814 15.730970 62.327293 150 146 152
0.014830 15.881828 62.392120 141 137 145
0.014846 16.033672 62.459698 136 132 142
0.014862 16.186436 62.529709 132 127 138
0.014879 16.340029 62.601734 126 120 133
0.014897 16.494326 62.675255 120 112 126
0.014915 16.649176 62.749664 112 103 117
0.014932 16.804396 62.824261 99 89 103
0.014950 16.959784 62.898285 83 72 84
0.014967 17.115118 62.970936 69 59 68
0.014984 17.270168 63.041412 64 53 60
0.015000 17.424698 63.108902 60 51 56
0.015015 17.578484 63.172665 57 48 51
0.015029 17.731312 63.232037 54 46 48
0.015042 17.883001 63.286476 52 45 46
0.015054 18.033400 63.335552 50 44 45
0.015064 18.182402 63.379032 47 42 44
0.015073 18.329948 63.416821 45 41 42
0.015081 18.476032 63.449028 43 39 40
0.015087 18.620695 63.475922 42 38 39
0.015092 18.764025 63.497902 42 38 39
0.015097 18.906153 63.515530 44 40 40
0.015100 19.047241 63.529446 46 42 43
0.015102 19.187481 63.540340 50 46 47
0.015105 19.327066 63.548939 54 50 51
0.015106 19.466192 63.555912 58 55 55
0.015108 19.605045 63.561901 62 59 59
0.015109 19.743780 63.567432 64 61 62
0.015110 19.882521 63.572899 61 58 59
0.015112 20.021341 63.578548 58 55 56
0.015113 20.160273 63.584469 56 54 55
0.015114 20.299292 63.590584 53 51 52
0.015116 20.438322 63.596653 49 47 48
0.015117 20.577240 63.602295 43 42 42
0.015118 20.715889 63.607037 37 37 37
0.015119 20.854050 63.610226 35 34 33
0.015119 20.991507 63.611240 35 34 33
0.015119 21.128012 63.609375 35 34 33
0.015118 21.263315 63.603943 35 34 33
0.015115 21.397169 63.594269 35 34 33
0.015112 21.529324 63.579700 35 34 34
0.015107 21.659552 63.559658 36 34 35
0.015101 21.787630 63.533607 36 34 35
0.015093 21.913361 63.501072 36 34 34
0.015084 22.036551 63.461628 36 33 33
0.015073 22.157009 63.414852 35 33 33
0.015060 22.274557 63.360374 35 32 33
0.015045 22.388998 63.297768 34 31 32
0.015028 22.500114 63.226585 33 30 31
0.015009 22.607658 63.146278 33 30 31
0.014987 22.711346 63.056229 33 30 31
0.014964 22.810846 62.955692 32 30 29
0.014937 22.905773 62.843796 32 30 28
0.014907 22.995684 62.719536 31 30 28
0.014875 23.080093 62.581810 29 29 28
0.014838 23.158476 62.429436 28 29 28
0.014798 23.230276 62.261185 27 29 28
0.014754 23.294935 62.075836 26 29 28
0.014706 23.351925 61.872288 26 29 28
0.014653 23.400766 61.649578 25 28 27
0.014595 23.441053 61.406975 26 28 26
0.014533 23.472496 61.144066 26 27 26
0.146622 5.293485 61.262287 253 251 252
0.146607 5.424983 61.255936 251 245 249
0.146593 5.556509 61.250195 251 247 250
0.146580 5.688056 61.244942 254 251 253
0.146569 5.819615 61.240051 254 254 254
0.146557 5.951173 61.235374 254 254 254
0.146546 6.082716 61.230740 254 254 254
0.146535 6.214228 61.226002 254 254 254
0.146523 6.345690 61.220982 254 254 254
0.146510 6.477086 61.215538 254 254 254
0.146496 6.608396 61.209522 254 254 254
0.146480 6.739604 61.202808 254 254 254
0.146462 6.870693 61.195290 254 254 254
0.146441 7.001648 61.186897 254 254 254
0.146419 7.132460 61.177574 254 254 254
0.146395 7.263120 61.167316 254 254 254
0.146368 7.393625 61.156139 253 253 253
0.146339 7.523980 61.144135 246 246 245
0.146309 7.654191 61.131401 243 243 242
0.146277 7.784276 61.118099 248 248 248
0.146244 7.914256 61.104435 252 252 252
0.146211 8.044162 61.090649 253 253 253
0.146178 8.174027 61.077011 254 254 254
0.146147 8.303896 61.063828 254 254 254
0.146117 8.433816 61.051430 254 254 254
0.146090 8.563842 61.040165 249 249 249
0.146067 8.694029 61.030373 238 238 238
0.146048 8.824436 61.022396 235 235 234
0.146034 8.955121 61.016541 244 245 244
0.146026 9.086142 61.013115 249 249 249
0.146024 9.217548 61.012337 246 247 246
0.146029 9.349387 61.014408 247 248 247
0.146041 9.481696 61.019444 249 250 249
0.146060 9.614504 61.027504 248 249 249
0.146086 9.747827 61.038574 250 251 251
0.146120 9.881668 61.052555 253 253 253
0.146160 10.016022 61.069290 254 254 254
0.146206 10.150867 61.088558 254 254 254
0.146258 10.286175 61.110065 254 254 254
0.146314 10.421901 61.133492 253 254 254
0.146373 10.557999 61.158485 253 253 254
0.146436 10.694416 61.184692 253 253 254
0.146501 10.831099 61.211754 253 254 255
0.146567 10.967992 61.239342 249 249 251
0.146634 11.105045 61.267162 230 228 235
0.146700 11.242215 61.294964 206 203 216
0.146766 11.379467 61.322552 208 206 218
0.146831 11.516772 61.349800 231 231 240
0.146896 11.654118 61.376637 241 243 249
0.146959 11.791496 61.403046 242 244 248
0.147021 11.928913 61.429066 247 249 250
0.147083 12.066381 61.454769 243 247 248
0.147144 12.203918 61.480267 239 243 243
0.147204 12.341549 61.505688 244 247 247
0.147265 12.479303 61.531170 241 244 244
0.147327 12.617209 61.556862 236 240 240
0.147389 12.755297 61.582893 246 247 247
0.147453 12.893596 61.609394 248 250 250
0.147517 13.032131 61.636482 240 243 242
0.147584 13.170932 61.664257 238 242 241
0.147652 13.310020 61.692818 246 248 248
0.147723 13.449423 61.722248 250 252 253
0.147795 13.589167 61.752655 251 252 254
0.147871 13.729277 61.784126 250 252 253
0.147949 13.869788 61.816772 246 247 251
0.148030 14.010736 61.850727 238 239 247
0.148115 14.152163 61.886139 231 231 241
0.148204 14.294115 61.923161 224 224 234
0.148296 14.436645 61.961979 218 217 227
0.148394 14.579809 62.002789 214 213 221
0.148497 14.723669 62.045780 214 211 219
0.148606 14.868283 62.091152 211 206 213
0.148720 15.013713 62.139088 198 192 199
0.148842 15.160016 62.189758 185 178 184
0.148970 15.307237 62.243271 181 174 180
0.149105 15.455413 62.299706 176 170 175
0.149247 15.604568 62.359081 163 158 163
0.149396 15.754703 62.421326 148 144 150
0.149551 15.905801 62.486301 138 134 141
0.149713 16.057821 62.553772 133 128 137
0.149879 16.210688 62.623390 130 125 135
0.150050 16.364304 62.694736 126 119 131
0.150224 16.518541 62.767269 119 111 124
0.150399 16.673246 62.840382 109 100 113
0.150574 16.828234 62.913380 94 85 96
0.150746 16.983303 62.985512 76 67 77
0.150915 17.138235 63.055996 65 56 63
0.151078 17.292807 63.124046 61 52 58
0.151233 17.446787 63.188900 59 50 54
0.151379 17.599960 63.249851 55 48 50
0.151514 17.752127 63.306271 52 46 47
0.151637 17.903114 63.357655 50 45 45
0.151747 18.052780 63.403618 48 44 44
0.151843 18.201031 63.443962 46 42 43
0.151926 18.347811 63.478615 44 40 42
0.151996 18.493120 63.507710 42 39 40
0.152053 18.637007 63.531521 41 38 39
0.152098 18.779554 63.550457 41 38 38
0.152133 18.920895 63.565056 42 39 39
0.152159 19.061186 63.575951 44 41 41
0.152178 19.200607 63.583813 47 43 44
0.152191 19.339348 63.589321 50 46 47
0.152200 19.477589 63.593121 53 49 50
0.152207 19.615507 63.595821 56 52 53
0.152212 19.753250 63.597916 58 54 56
0.152216 19.890924 63.599766 56 53 54
0.152221 20.028599 63.601597 55 52 53
0.152225 20.166300 63.603477 53 51 52
0.152230 20.303995 63.605320 51 49 50
0.152233 20.441607 63.606876 47 46 47
0.152235 20.579016 63.607784 42 42 42
0.152235 20.716063 63.607567 37 37 37
0.152230 20.852533 63.605598 34 33 33
0.152220 20.988214 63.601265 34 33 32
0.152202 21.122868 63.593887 34 33 32
0.152176 21.256250 63.582809 34 33 32
0.152139 21.388119 63.567368 34 33 32
0.152090 21.518232 63.546944 34 33 33
0.152028 21.646368 63.520973 34 33 33
0.151951 21.772312 63.488937 34 33 33
0.151859 21.895864 63.450371 34 32 33
0.151750 22.016840 63.404869 34 32 32
0.151623 22.135054 63.352013 34 32 32
0.151478 22.250326 63.291443 34 31 32
0.151314 22.362463 63.222752 34 31 32
0.151129 22.471254 63.145489 33 30 31
0.150922 22.576458 63.059132 33 30 31
0.150692 22.677795 62.963074 33 30 30
0.150438 22.774948 62.856613 33 30 29
0.150156 22.867542 62.738907 32 30 28
0.149845 22.955156 62.609001 31 30 28
0.149502 23.037331 62.465858 30 29 28
0.149125 23.113562 62.308361 29 29 28
0.148711 23.183331 62.135361 28 29 28
0.148258 23.246113 61.945740 28 29 28
0.147762 23.301422 61.738472 27 29 28
0.147221 23.348812 61.512707 27 29 28
0.146635 23.387926 61.267803 27 29 28
0.146002 23.418512 61.003437 28 28 27
0.278855 5.296762 61.300228 254 253 254
0.278824 5.428304 61.293442 253 251 252
0.278796 5.559874 61.287285 253 251 253
0.278771 5.691465 61.281647 254 252 253
0.278747 5.823068 61.276390 254 253 254
0.278724 5.954672 61.271378 254 253 254
0.278702 6.086263 61.266445 254 254 254
0.278679 6.217824 61.261436 254 254 254
0.278655 6.349339 61.256195 254 254 254
0.278629 6.480793 61.250576 254 254 254
0.278601 6.612165 61.244431 254 254 254
0.278571 6.743441 61.237656 254 254 254
0.278536 6.874606 61.230145 254 254 254
0.278499 7.005645 61.221821 254 254 254
0.278457 7.136549 61.212643 254 254 254
0.278411 7.267311 61.202614 254 254 254
0.278362 7.397930 61.191750 251 251 251
0.278309 7.528410 61.180134 240 240 239
0.278253 7.658759 61.167877 235 235 234
0.278195 7.788993 61.155132 243 243 243
0.278136 7.919135 61.142101 248 248 248
0.278076 8.049212 61.129009 249 249 248
0.278018 8.179262 61.116127 251 251 251
0.277962 8.309325 61.103752 254 254 254
0.277909 8.439448 61.092197 254 254 254
0.277862 8.569684 61.081802 252 252 252
0.277821 8.700088 61.072899 242 242 242
0.277789 8.830715 61.065815 235 235 234
0.277766 8.961624 61.060852 239 239 238
0.277755 9.092871 61.058300 240 241 240
0.277755 9.224504 61.058380 241 242 241
0.277768 9.356571 61.061287 241 242 241
0.277795 9.489108 61.067142 236 237 236
0.277835 9.622143 61.075993 238 239 239
0.277889 9.755692 61.087830 248 248 248
0.277956 9.889762 61.102562 254 254 254
0.278036 10.024344 61.120037 254 254 254
0.278127 10.159421 61.140030 254 254 254
0.278228 10.294961 61.162266 254 254 254
0.278338 10.430924 61.186424 254 254 254
0.278455 10.567265 61.212158 252 252 254
0.278577 10.703930 61.239124 252 252 254
0.278704 10.840868 61.266964 253 253 254
0.278833 10.978023 61.295353 248 248 249
0.278963 11.115347 61.323997 226 225 231
0.279094 11.252796 61.352650 202 200 211
0.279223 11.390335 61.381123 208 206 217
0.279351 11.527939 61.409286 232 233 240
0.279478 11.665591 61.437061 242 244 249
0.279602 11.803287 61.464443 243 244 247
0.279725 11.941030 61.491459 248 250 250
0.279847 12.078833 61.518188 250 252 253
0.279968 12.216717 61.544743 249 252 252
0.280088 12.354706 61.571255 244 246 246
0.280209 12.492828 61.597858 233 237 238
0.280331 12.631114 61.624699 235 239 239
0.280455 12.769593 61.651917 247 249 249
0.280581 12.908297 61.679642 251 252 252
0.280710 13.047251 61.707993 246 248 248
0.280843 13.186484 61.737072 244 247 246
0.280979 13.326018 61.766968 248 250 250
0.281119 13.465880 61.797779 250 252 253
0.281263 13.606096 61.829590 249 252 253
0.281413 13.746694 61.862503 249 251 253
0.281568 13.887702 61.896614 246 248 251
0.281729 14.029158 61.932053 235 237 244
0.281897 14.171099 61.968945 223 225 234
0.282072 14.313571 62.007446 217 217 228
0.282256 14.456623 62.047726 215 215 224
0.282448 14.600307 62.089954 214 213 221
0.282650 14.744678 62.134315 211 208 216
0.282862 14.889794 62.180981 206 201 209
0.283085 15.035707 62.230118 196 189 196
0.283321 15.182469 62.281868 184 177 184
0.283569 15.330120 62.336319 180 172 179
0.283829 15.478689 62.393536 175 168 175
0.284102 15.628193 62.453491 163 157 164
0.284386 15.778625 62.516109 148 143 150
0.284683 15.929963 62.581223 137 132 140
0.284989 16.082155 62.648567 131 126 135
0.285304 16.235125 62.717793 128 122 132
0.285625 16.388767 62.788456 124 117 128
0.285951 16.542948 62.860008 117 108 119
0.286278 16.697514 62.931843 105 95 106
0.286602 16.852278 63.003269 88 78 88
0.286922 17.007042 63.073551 70 61 69
0.287233 17.161589 63.141918 61 52 58
0.287532 17.315702 63.207623 59 51 54
0.287815 17.469158 63.269924 57 49 52
0.288080 17.621748 63.328148 54 47 49
0.288324 17.773281 63.381710 51 46 46
0.288544 17.923597 63.430141 49 45 44
0.288740 18.072561 63.473095 46 43 43
0.288909 18.220089 63.510399 44 42 42
0.289053 18.366131 63.542004 43 40 41
0.289172 18.510695 63.568062 41 39 39
0.289266 18.653826 63.588856 41 38 39
0.289339 18.795612 63.604794 40 38 38
0.289392 18.936178 63.616405 40 38 38
0.289428 19.075682 63.624302 41 39 39
0.289450 19.214293 63.629131 43 40 40
0.289460 19.352190 63.631546 45 42 42
0.289463 19.489546 63.632156 47 44 44
0.289460 19.626524 63.631542 50 46 47
0.289454 19.763262 63.630154 52 48 50
0.289446 19.899860 63.628345 53 50 51
0.289437 20.036379 63.626301 53 49 51
0.289427 20.172834 63.624088 51 48 50
0.289415 20.309193 63.621601 49 47 48
0.289402 20.445372 63.618591 46 45 46
0.289384 20.581253 63.614697 43 41 43
0.289360 20.716677 63.609455 38 37 38
0.289327 20.851439 63.602257 34 34 33
0.289283 20.985329 63.592518 33 33 32
0.289224 21.118113 63.579571 33 32 31
0.289148 21.249556 63.562782 33 32 31
0.289051 21.379421 63.541515 33 32 31
0.288931 21.507479 63.515186 33 32 32
0.288786 21.633507 63.483231 33 32 32
0.288613 21.757299 63.445164 33 32 32
0.288410 21.878666 63.400532 33 32 32
0.288175 21.997417 63.348930 33 31 32
0.287907 22.113377 63.289974 33 31 31
0.287603 22.226366 63.223289 33 31 31
0.287263 22.336195 63.148487 33 30 31
0.286884 22.442656 63.065125 33 29 30
0.286463 22.545509 62.972691 33 29 29
0.285999 22.644487 62.870602 32 29 29
0.285488 22.739279 62.758171 32 29 28
0.284925 22.829523 62.634598 31 29 28
0.284308 22.914816 62.498970 31 29 28
0.283632 22.994715 62.350304 30 29 28
0.282892 23.068748 62.187557 29 29 28
0.282082 23.136427 62.009651 29 29 28
0.281200 23.197260 61.815556 29 30 29
0.280239 23.250801 61.604351 28 30 29
0.279197 23.296646 61.375275 28 30 29
0.278071 23.334480 61.127796 29 30 29
0.276860 23.364094 60.861683 29 29 28
0.275566 23.385418 60.577072 29 29 27
0.411260 5.300139 61.339298 254 254 254
0.411212 5.431730 61.332115 254 254 254
0.411168 5.563346 61.325565 254 253 254
0.411127 5.694984 61.319534 254 252 254
0.411090 5.826632 61.313892 254 250 252
0.411053 5.958280 61.308502 254 251 252
0.411018 6.089915 61.303207 254 254 254
0.410982 6.221521 61.297863 254 254 254
0.410945 6.353083 61.292305 254 254 254
0.410905 6.484584 61.286407 254 254 254
0.410863 6.616009 61.280037 254 254 254
0.410816 6.747342 61.273071 254 254 254
0.410765 6.878568 61.265434 255 255 255
0.410708 7.009676 61.257053 254 254 254
0.410647 7.140659 61.247898 254 254 254
0.410581 7.271509 61.237968 254 254 254
0.410509 7.402227 61.227291 251 251 251
0.410433 7.532817 61.215954 239 239 238
0.410353 7.663290 61.204063 233 234 233
0.410271 7.793660 61.191776 242 242 242
0.410187 7.923951 61.179287 247 247 247
0.410103 8.054191 61.166813 246 246 245
0.410022 8.184414 61.154621 250 250 249
0.409944 8.314663 61.143002 254 254 253
0.409872 8.444982 61.132256 254 254 254
0.409808 8.575422 61.122704 253 253 253
0.409754 8.706038 61.114670 246 246 245
0.409712 8.836884 61.108467 237 238 237
0.409685 8.968016 61.104397 229 230 228
0.409674 9.099487 61.102726 218 219 217
0.409680 9.231348 61.103683 224 225 224
0.409705 9.363644 61.107445 224 225 224
0.409750 9.496409 61.114128 203 204 203
0.409815 9.629674 61.123795 212 213 213
0.409900 9.763453 61.136421 241 242 241
0.410004 9.897753 61.151932 253 253 253
0.410126 10.032566 61.170166 253 253 253
0.410265 10.167874 61.190907 254 254 254
0.410419 10.303649 61.213886 254 254 254
0.410586 10.439852 61.238789 253 254 254
0.410764 10.576435 61.265278 252 252 254
0.410950 10.713348 61.293007 251 251 253
0.411141 10.850540 61.321629 252 252 253
0.411337 10.987957 61.350819 247 246 248
0.411535 11.125549 61.380283 224 223 228
0.411732 11.263275 61.409786 200 199 208
0.411929 11.401099 61.439129 209 208 217
0.412124 11.538997 61.468189 236 236 241
0.412316 11.676950 61.496887 244 246 248
0.412506 11.814959 61.525223 243 245 246
0.412694 11.953023 61.553223 249 250 250
0.412880 12.091159 61.580967 253 254 254
0.413065 12.229384 61.608562 252 252 252
0.413250 12.367727 61.636150 238 240 240
0.413436 12.506215 61.663864 224 227 227
0.413624 12.644879 61.691856 232 235 235
0.413814 12.783751 61.720268 248 250 250
0.414008 12.922861 61.749233 252 253 253
0.414207 13.062236 61.778862 248 252 251
0.414411 13.201905 61.809269 246 250 250
0.414621 13.341892 61.840546 250 252 252
0.414837 13.482223 61.872776 252 253 254
0.415060 13.622923 61.906052 250 253 254
0.415291 13.764017 61.940460 248 251 253
0.415529 13.905537 61.976101 242 244 248
0.415777 14.047512 62.013081 229 231 239
0.416035 14.189982 62.051521 218 220 230
0.416304 14.332989 62.091564 215 216 226
0.416584 14.476574 62.133358 218 217 227
0.416877 14.620789 62.177055 218 216 225
0.417184 14.765682 62.222824 212 209 217
0.417505 14.911306 62.270821 205 200 208
0.417843 15.057710 62.321182 198 191 198
0.418197 15.204935 62.374023 188 181 189
0.418569 15.353017 62.429424 181 174 183
0.418958 15.501979 62.487411 174 167 176
0.419363 15.651828 62.547943 162 157 165
0.419786 15.802556 62.610928 149 144 153
0.420223 15.954128 62.676155 137 133 141
0.420674 16.106491 62.743366 131 125 135
0.421135 16.259560 62.812187 127 120 131
0.421604 16.413225 62.882160 122 114 125
0.422078 16.567354 62.952747 113 104 114
0.422551 16.721785 63.023319 99 89 98
0.423019 16.876337 63.093212 82 71 79
0.423478 17.030807 63.161690 66 56 63
0.423923 17.184988 63.228012 59 50 55
0.424348 17.338663 63.291439 57 49 52
0.424750 17.491619 63.351276 55 48 50
0.425122 17.643656 63.406879 52 47 47
0.425463 17.794588 63.457691 50 46 45
0.425769 17.944263 63.503281 47 44 43
0.426037 18.092560 63.543335 45 42 42
0.426268 18.239397 63.577702 43 41 41
0.426460 18.384733 63.606361 41 40 40
0.426615 18.528578 63.629475 40 39 39
0.426735 18.670980 63.647335 39 38 38
0.426822 18.812027 63.660347 39 37 37
0.426880 18.951841 63.669025 39 37 37
0.426913 19.090570 63.673962 39 37 37
0.426925 19.228380 63.675785 40 38 38
0.426921 19.365440 63.675117 41 39 39
0.426904 19.501915 63.672543 43 40 40
0.426877 19.637955 63.668598 45 41 43
0.426844 19.773689 63.663727 47 43 45
0.426808 19.909208 63.658234 50 46 48
0.426768 20.044565 63.652294 50 46 48
0.426725 20.179766 63.645954 49 46 48
0.426679 20.314777 63.639099 48 45 47
0.426628 20.449516 63.631485 46 43 45
0.426570 20.583858 63.622753 42 41 42
0.426501 20.717653 63.612450 39 38 38
0.426417 20.850693 63.599983 35 35 34
0.426315 20.982777 63.584782 33 33 32
0.426191 21.113678 63.566219 33 32 31
0.426039 21.243166 63.543671 32 32 31
0.425858 21.371016 63.516533 32 31 31
0.425641 21.497000 63.484241 33 32 32
0.425386 21.620907 63.446259 33 32 32
0.425090 21.742540 63.402119 33 32 32
0.424750 21.861704 63.351383 33 32 32
0.424363 21.978224 63.293655 33 32 32
0.423927 22.091919 63.228561 33 31 31
0.423439 22.202618 63.155735 34 31 31
0.422896 22.310131 63.074802 33 30 30
0.422296 22.414255 62.985317 33 29 30
0.421635 22.514753 62.886784 32 28 28
0.420910 22.611362 62.778629 32 28 28
0.420116 22.703779 62.660194 31 28 27
0.419248 22.791653 62.530697 31 28 27
0.418300 22.874598 62.389278 30 28 27
0.417265 22.952188 62.234997 30 28 27
0.416138 23.023983 62.066875 29 28 28
0.414911 23.089514 61.883919 29 28 28
0.413579 23.148333 61.685177 29 29 29
0.412135 23.200029 61.469833 29 30 29
0.410575 23.244242 61.237217 29 30 29
0.408897 23.280699 60.986912 30 31 30
0.407100 23.309235 60.718777 30 31 30
0.405184 23.329821 60.433052 30 30 29
0.543842 5.303605 61.379410 254 254 254
0.543775 5.435250 61.371864 254 254 254
0.543714 5.566917 61.364925 254 254 254
0.543657 5.698603 61.358498 254 252 253
0.543603 5.830296 61.352451 254 249 251
0.543552 5.961987 61.346642 254 250 251
0.543501 6.093662 61.340935 254 253 253
0.543450 6.225308 61.335171 254 254 254
0.543397 6.356909 61.329216 254 254 254
0.543342 6.488450 61.322937 254 254 254
0.543282 6.619915 61.316219 254 254 254
0.543218 6.751293 61.308952 254 254 254
0.543148 6.882568 61.301064 254 254 254
0.543072 7.013733 61.292503 254 254 254
0.542990 7.144779 61.283237 254 254 254
0.542902 7.275702 61.273277 254 254 254
0.542808 7.406504 61.262665 251 251 251
0.542709 7.537190 61.251488 243 243 243
0.542606 7.667771 61.239857 240 240 240
0.542500 7.798265 61.227928 247 247 247
0.542393 7.928692 61.215889 249 249 249
0.542288 8.059082 61.203960 245 245 244
0.542185 8.189469 61.192394 246 246 245
0.542088 8.319895 61.181477 252 252 251
0.542000 8.450402 61.171494 254 254 254
0.541923 8.581041 61.162758 254 254 254
0.541859 8.711865 61.155575 249 249 248
0.541812 8.842925 61.150249 239 240 238
0.541784 8.974278 61.147068 220 221 219
0.541777 9.105975 61.146294 198 199 197
0.541793 9.238064 61.148132 210 211 209
0.541834 9.370589 61.152775 210 211 209
0.541901 9.503587 61.160316 178 180 179
0.541994 9.637082 61.170818 193 195 194
0.542113 9.771092 61.184261 235 236 235
0.542258 9.905624 61.200565 251 252 251
0.542426 10.040670 61.219578 252 252 252
0.542617 10.176212 61.241085 254 254 254
0.542827 10.312223 61.264824 254 255 255
0.543054 10.448664 61.290482 254 254 254
0.543296 10.585489 61.317730 253 253 254
0.543548 10.722650 61.346222 251 251 253
0.543809 10.860093 61.375614 251 251 253
0.544074 10.997766 61.405594 246 246 248
0.544342 11.135623 61.435863 224 224 229
0.544611 11.273620 61.466187 202 202 210
0.544878 11.411722 61.496376 211 212 218
0.545144 11.549905 61.526299 238 239 242
0.545406 11.688153 61.555889 247 248 249
0.545665 11.826465 61.585136 244 246 247
0.545921 11.964842 61.614082 249 250 250
0.546176 12.103299 61.642799 253 253 253
0.546429 12.241858 61.671406 250 250 250
0.546683 12.380547 61.700035 236 238 237
0.546938 12.519392 61.728836 224 227 226
0.547196 12.658428 61.757961 236 238 238
0.547458 12.797686 61.787548 251 252 251
0.547726 12.937198 61.817738 249 251 251
0.548000 13.076992 61.848652 243 247 246
0.548281 13.217097 61.880398 245 248 248
0.548571 13.357537 61.913063 251 252 252
0.548869 13.498340 61.946739 253 254 254
0.549177 13.639528 61.981510 252 254 254
0.549495 13.781126 62.017456 248 250 253
0.549825 13.923162 62.054657 240 242 247
0.550167 14.065666 62.093220 227 228 237
0.550521 14.208673 62.133255 217 218 229
0.550890 14.352221 62.174877 217 218 229
0.551274 14.496346 62.218220 223 222 233
0.551675 14.641099 62.263428 222 220 230
0.552093 14.786519 62.310631 214 211 219
0.552530 14.932655 62.359974 206 202 210
0.552987 15.079548 62.411568 200 194 203
0.553465 15.227236 62.465511 191 185 194
0.553965 15.375746 62.521847 182 176 185
0.554485 15.525096 62.580593 172 167 177
0.555026 15.675287 62.641689 162 157 167
0.555587 15.826302 62.705006 149 144 155
0.556166 15.978103 62.770340 137 132 142
0.556760 16.130629 62.837399 129 123 134
0.557367 16.283792 62.905804 125 118 129
0.557980 16.437481 62.975090 120 110 122
0.558597 16.591557 63.044708 109 98 108
0.559212 16.745857 63.114048 93 82 91
0.559818 16.900202 63.182438 77 66 73
0.560409 17.054394 63.249161 65 54 60
0.560979 17.208223 63.313496 59 50 53
0.561521 17.361485 63.374741 56 49 50
0.562031 17.513966 63.432205 54 48 48
0.562501 17.665474 63.485287 51 46 46
0.562928 17.815836 63.533466 48 45 44
0.563308 17.964905 63.576332 46 43 42
0.563638 18.112568 63.613602 43 42 41
0.563917 18.258747 63.645153 41 41 40
0.564146 18.403412 63.670982 40 39 40
0.564326 18.546568 63.691257 39 38 38
0.564459 18.688271 63.706276 38 37 38
0.564549 18.828604 63.716442 38 37 37
0.564601 18.967688 63.722260 37 36 36
0.564619 19.105663 63.724300 37 36 36
0.564609 19.242687 63.723164 37 36 36
0.564576 19.378925 63.719456 39 37 37
0.564525 19.514526 63.713718 40 38 38
0.564461 19.649637 63.706478 42 39 39
0.564387 19.784374 63.698128 44 40 41
0.564305 19.918816 63.688953 46 42 43
0.564218 20.053013 63.679123 47 43 45
0.564126 20.186962 63.668648 47 44 45
0.564026 20.320629 63.657425 46 44 45
0.563918 20.453922 63.645199 45 43 44
0.563797 20.586725 63.631611 42 41 42
0.563661 20.718882 63.616222 39 39 39
0.563504 20.850195 63.598465 36 36 36
0.563320 20.980465 63.577782 35 35 34
0.563106 21.109474 63.553566 33 33 32
0.562855 21.237001 63.525227 32 32 32
0.562562 21.362822 63.492184 32 32 32
0.562223 21.486723 63.453892 33 32 32
0.561832 21.608500 63.409847 33 33 33
0.561387 21.727955 63.359592 33 32 32
0.560883 21.844910 63.302715 33 32 32
0.560317 21.959187 63.238831 33 32 32
0.559686 22.070610 63.167576 33 31 30
0.558986 22.179012 63.088593 33 30 30
0.558214 22.284206 63.001507 33 30 30
0.557367 22.385988 62.905884 32 29 29
0.556440 22.484125 62.801231 32 29 28
0.555428 22.578358 62.686996 32 29 28
0.554325 22.668388 62.562523 31 29 27
0.553125 22.753881 62.427067 30 29 27
0.551820 22.834455 62.279793 30 28 27
0.550402 22.909714 62.119823 29 27 27
0.548864 22.979229 61.946236 29 28 28
0.547198 23.042572 61.758106 29 27 28
0.545394 23.099321 61.554569 29 28 28
0.543448 23.149105 61.334904 29 29 28
0.541354 23.191610 61.098557 30 29 28
0.539109 23.226604 60.845200 31 30 29
0.536713 23.253969 60.574818 31 31 30
0.534170 23.273726 60.287743 31 31 30
0.676607 5.307149 61.420433 254 254 254
0.676520 5.438852 61.412544 254 254 254
0.676440 5.570574 61.405235 254 254 254
0.676365 5.702309 61.398403 254 252 254
0.676293 5.834047 61.391922 254 251 253
0.676224 5.965779 61.385662 254 252 252
0.676156 6.097491 61.379471 254 253 253
0.676087 6.229170 61.373222 255 253 254
0.676016 6.360802 61.366779 254 253 254
0.675942 6.492374 61.360027 254 254 254
0.675863 6.623870 61.352848 254 254 254
0.675778 6.755280 61.345165 254 254 254
0.675687 6.886592 61.336903 254 254 254
0.675590 7.017798 61.328030 254 254 254
0.675485 7.148893 61.318523 254 254 254
0.675373 7.279874 61.308411 254 254 254
0.675256 7.410745 61.297741 253 253 253
0.675133 7.541512 61.286610 250 250 250
0.675007 7.672188 61.275131 250 250 250
0.674878 7.802790 61.263458 252 252 252
0.674749 7.933341 61.251781 249 249 249
0.674623 8.063870 61.240326 237 238 237
0.674502 8.194412 61.229324 236 237 236
0.674389 8.325005 61.219055 246 246 245
0.674287 8.455693 61.209793 253 253 253
0.674199 8.586526 61.201847 254 254 254
0.674129 8.717552 61.195499 250 250 250
0.674080 8.848825 61.191044 239 240 237
0.674055 8.980396 61.188755 214 216 212
0.674057 9.112317 61.188881 194 195 192
0.674087 9.244636 61.191631 211 212 209
0.674148 9.377392 61.197166 210 211 209
0.674241 9.510621 61.205589 176 177 176
0.674366 9.644350 61.216949 191 193 192
0.674523 9.778595 61.231239 235 237 236
0.674712 9.913360 61.248360 252 252 252
0.674930 10.048640 61.268173 253 253 253
0.675176 10.184419 61.290466 254 254 254
0.675446 10.320664 61.314968 254 254 254
0.675737 10.457343 61.341389 254 254 254
0.676045 10.594408 61.369389 254 254 254
0.676367 10.731811 61.398632 252 253 253
0.676699 10.869500 61.428783 252 253 253
0.677038 11.007425 61.459522 247 247 249
0.677380 11.145538 61.490562 226 226 231
0.677723 11.283796 61.521671 205 205 213
0.678064 11.422167 61.552662 214 214 221
0.678403 11.560625 61.583401 239 240 242
0.678738 11.699155 61.613827 247 248 250
0.679070 11.837756 61.643936 244 246 248
0.679398 11.976433 61.673771 248 249 250
0.679725 12.115199 61.703403 251 253 252
0.680050 12.254077 61.732956 250 251 251
0.680377 12.393097 61.762581 242 243 243
0.680705 12.532287 61.792416 235 237 237
0.681038 12.671682 61.822624 245 245 245
0.681376 12.811316 61.853355 252 253 253
0.681722 12.951221 61.884747 242 245 244
0.682077 13.091426 61.916920 232 236 236
0.682441 13.231961 61.949986 239 242 243
0.682816 13.372850 61.984039 250 252 252
0.683203 13.514121 62.019161 254 254 254
0.683603 13.655795 62.055435 253 254 255
0.684016 13.797897 62.092926 251 252 254
0.684443 13.940452 62.131714 243 244 249
0.684885 14.083487 62.171886 228 229 237
0.685344 14.227032 62.213531 217 218 229
0.685820 14.371120 62.256756 220 220 232
0.686315 14.515791 62.301674 226 225 236
0.686830 14.661080 62.348400 223 221 231
0.687366 14.807027 62.397053 213 211 220
0.687924 14.953672 62.447742 205 202 211
0.688506 15.101052 62.500568 199 195 204
0.689112 15.249197 62.555599 191 186 196
0.689743 15.398128 62.612862 182 176 187
0.690398 15.547858 62.672348 171 167 178
0.691077 15.698380 62.733974 161 156 168
0.691778 15.849673 62.797607 148 143 156
0.692499 16.001692 62.863010 136 130 143
0.693236 16.154373 62.929893 127 120 134
0.693984 16.307625 62.997868 122 113 126
0.694740 16.461329 63.066456 115 104 116
0.695496 16.615347 63.135113 103 91 102
0.696247 16.769520 63.203232 88 76 85
0.696984 16.923664 63.270149 75 62 69
0.697700 17.077585 63.335171 65 54 59
0.698388 17.231079 63.397587 60 50 53
0.699039 17.383942 63.456718 56 49 49
0.699647 17.535971 63.511909 53 48 48
0.700205 17.686981 63.562576 51 46 46
0.700708 17.836803 63.608234 47 44 43
0.701152 17.985298 63.648502 44 42 42
0.701533 18.132360 63.683121 42 40 40
0.701851 18.277918 63.711975 40 39 39
0.702106 18.421942 63.735096 38 38 38
0.702299 18.564447 63.752655 38 37 37
0.702434 18.705481 63.764938 38 37 37
0.702516 18.845129 63.772362 37 36 36
0.702550 18.983507 63.775406 37 36 36
0.702541 19.120752 63.774628 36 35 35
0.702497 19.257015 63.770611 37 35 35
0.702423 19.392447 63.763916 37 35 35
0.702326 19.527193 63.755077 38 36 35
0.702210 19.661388 63.744576 39 36 36
0.702080 19.795139 63.732788 41 38 38
0.701939 19.928518 63.719975 43 39 40
0.701788 20.061563 63.706276 44 41 42
0.701628 20.194273 63.691704 45 43 43
0.701456 20.326599 63.676128 45 43 43
0.701271 20.458456 63.659306 45 43 43
0.701068 20.589722 63.640873 43 42 43
0.700842 20.720245 63.620415 41 40 41
0.700588 20.849833 63.597359 38 38 38
0.700300 20.978289 63.571186 36 36 36
0.699971 21.105404 63.541309 34 34 34
0.699595 21.230963 63.507164 33 33 33
0.699166 21.354750 63.468193 32 32 32
0.698677 21.476561 63.423882 32 32 32
0.698125 21.596197 63.373749 33 32 32
0.697504 21.713474 63.317364 33 32 32
0.696810 21.828211 63.254326 33 32 32
0.696038 21.940239 63.184269 32 31 31
0.695185 22.049387 63.106834 32 30 30
0.694247 22.155491 63.021683 32 29 29
0.693220 22.258362 62.928436 32 29 29
0.692099 22.357801 62.826679 32 29 28
0.690878 22.453575 62.715904 32 29 28
0.689553 22.545433 62.595581 32 29 28
0.688115 22.633076 62.465061 31 30 28
0.686557 22.716177 62.323627 30 29 28
0.684870 22.794376 62.170479 30 29 28
0.683044 22.867283 62.004776 29 28 27
0.681071 22.934498 61.825649 29 27 27
0.678941 22.995617 61.632259 29 27 27
0.676645 23.050257 61.423824 28 27 27
0.674176 23.098082 61.199715 29 28 27
0.671529 23.138819 60.959476 29 28 27
0.668703 23.172285 60.702904 30 29 28
0.665698 23.198410 60.430088 31 30 29
0.662518 23.217257 60.141472 31 30 29
0.809451 5.442523 61.453999 254 254 254
0.809350 5.574302 61.446323 254 253 254
0.809255 5.706086 61.439079 254 252 253
0.809163 5.837869 61.432140 254 252 253
0.809074 5.969639 61.425377 254 253 253
0.808986 6.101384 61.418655 254 253 253
0.808896 6.233090 61.411850 254 253 254
0.808804 6.364747 61.404831 254 253 253
0.808707 6.496339 61.397499 254 254 254
0.808605 6.627856 61.389763 254 254 254
0.808497 6.759286 61.381542 254 254 254
0.808382 6.890621 61.372787 254 254 254
0.808259 7.021855 61.363483 254 254 254
0.808129 7.152984 61.353615 253 253 253
0.807992 7.284009 61.343231 249 249 249
0.807849 7.414933 61.332386 246 247 246
0.807702 7.545767 61.321186 250 251 250
0.807551 7.676523 61.309753 253 253 253
0.807400 7.807220 61.298241 253 253 253
0.807250 7.937882 61.286846 245 245 245
0.807104 8.068539 61.275780 231 231 230
0.806965 8.199224 61.265278 230 230 229
0.806838 8.329975 61.255604 244 244 244
0.806725 8.460837 61.247032 253 253 253
0.806630 8.591856 61.239841 254 254 254
0.806558 8.723082 61.234314 252 252 251
0.806510 8.854563 61.230724 240 241 238
0.806492 8.986352 61.229332 215 216 212
0.806506 9.118497 61.230377 200 202 197
0.806554 9.251043 61.234047 219 221 217
0.806639 9.384033 61.240505 216 218 215
0.806762 9.517496 61.249836 184 186 184
0.806923 9.651461 61.262089 198 200 198
0.807123 9.785941 61.277241 238 239 238
0.807360 9.920942 61.295208 254 254 254
0.807631 10.056458 61.315838 254 254 254
0.807936 10.192472 61.338932 254 254 254
0.808269 10.328953 61.364212 254 254 254
0.808627 10.465866 61.391388 254 254 254
0.809005 10.603168 61.420135 254 254 254
0.809400 10.740808 61.450111 254 254 254
0.809807 10.878738 61.480991 253 254 254
0.810221 11.016907 61.512455 247 248 249
0.810640 11.155265 61.544228 226 226 231
0.811059 11.293774 61.576065 207 207 215
0.811477 11.432398 61.607792 216 216 222
0.811892 11.571116 61.639290 237 238 242
0.812303 11.709912 61.670483 243 244 248
0.812710 11.848786 61.701378 243 245 247
0.813113 11.987743 61.732018 248 249 250
0.813515 12.126801 61.762493 251 252 252
0.813915 12.265981 61.792923 252 253 253
0.814318 12.405313 61.823463 250 251 251
0.814723 12.544831 61.854267 248 249 248
0.815135 12.684568 61.885494 251 251 251
0.815554 12.824562 61.917305 251 253 253
0.815982 12.964844 61.949841 235 237 237
0.816422 13.105447 61.983234 222 226 226
0.816875 13.246400 62.017590 234 236 237
0.817341 13.387729 62.053001 249 250 251
0.817823 13.529460 62.089554 254 254 254
0.818320 13.671613 62.127316 254 254 254
0.818834 13.814212 62.166348 253 253 254
0.819366 13.957280 62.206718 243 244 248
0.819916 14.100842 62.248501 228 228 237
0.820486 14.244921 62.291759 219 219 231
0.821076 14.389549 62.336594 222 222 234
0.821689 14.534759 62.383083 225 225 236
0.822324 14.680580 62.431328 219 218 229
0.822984 14.827048 62.481422 209 208 218
0.823669 14.974195 62.533451 202 200 210
0.824381 15.122053 62.587486 197 193 203
0.825120 15.270646 62.643585 188 185 196
0.825886 15.419987 62.701744 180 175 187
0.826679 15.570084 62.761936 171 167 179
0.827497 15.720923 62.824066 159 154 168
0.828339 15.872479 62.887966 145 140 154
0.829201 16.024704 62.953411 133 127 142
0.830079 16.177526 63.020088 125 116 133
0.830968 16.330853 63.087601 118 107 123
0.831863 16.484564 63.155476 108 96 110
0.832754 16.638521 63.223167 95 82 93
0.833635 16.792562 63.290077 82 68 77
0.834498 16.946508 63.355553 73 60 66
0.835332 17.100164 63.418911 66 55 59
0.836130 17.253334 63.479469 61 51 53
0.836882 17.405815 63.536564 57 49 50
0.837580 17.557413 63.589569 53 47 47
0.838217 17.707949 63.637936 50 46 45
0.838787 17.857260 63.681187 47 44 43
0.839285 18.005213 63.718975 44 42 41
0.839707 18.151707 63.751064 41 40 40
0.840054 18.296677 63.777363 39 38 38
0.840324 18.440094 63.797897 37 37 37
0.840521 18.581980 63.812862 37 36 36
0.840649 18.722378 63.822540 37 36 36
0.840712 18.861374 63.827332 37 36 35
0.840717 18.999075 63.827709 37 35 35
0.840671 19.135618 63.824211 37 35 34
0.840581 19.271145 63.817402 37 35 33
0.840455 19.405798 63.807812 36 34 33
0.840299 19.539711 63.795944 37 34 33
0.840118 19.673010 63.782253 37 34 34
0.839919 19.805796 63.767097 39 36 36
0.839703 19.938129 63.750706 40 37 37
0.839472 20.070042 63.733200 43 39 40
0.839227 20.201525 63.714577 44 41 42
0.838965 20.332527 63.694702 45 43 43
0.838683 20.462961 63.673321 45 43 43
0.838377 20.592703 63.650089 44 43 43
0.838041 20.721603 63.624584 43 42 42
0.837668 20.849470 63.596260 40 40 40
0.837252 20.976122 63.564617 38 38 38
0.836784 21.101345 63.529095 35 35 35
0.836258 21.224939 63.489147 33 33 33
0.835666 21.346695 63.444252 32 32 32
0.835003 21.466415 63.393917 32 32 32
0.834263 21.583912 63.337696 32 32 32
0.833439 21.699007 63.275177 32 32 32
0.832528 21.811527 63.205975 32 32 32
0.831524 21.921307 63.129745 31 30 30
0.830423 22.028185 63.046146 31 29 29
0.829220 22.131990 62.954838 31 28 28
0.827911 22.232546 62.855453 31 28 28
0.826490 22.329651 62.747574 31 29 28
0.824951 22.423075 62.630711 31 29 28
0.823286 22.512564 62.504322 31 29 28
0.821487 22.597828 62.367783 31 29 29
0.819546 22.678549 62.220390 31 30 29
0.817451 22.754374 62.061375 30 29 28
0.815193 22.824928 61.889931 30 29 28
0.812761 22.889837 61.705254 29 28 27
0.810144 22.948719 61.506565 29 28 27
0.807333 23.001226 61.293171 29 27 27
0.804321 23.047064 61.064537 28 27 26
0.801105 23.085997 60.820316 29 27 27
0.797681 23.117891 60.560413 29 28 28
0.794054 23.142727 60.285042 30 29 28
0.790231 23.160618 59.994751 30 30 28
0.942569 5.446245 61.496021 254 253 254
0.942446 5.578081 61.487988 254 251 253
0.942329 5.709916 61.480316 254 251 253
0.942215 5.841741 61.472889 254 252 253
0.942103 5.973546 61.465584 253 251 252
0.941991 6.105319 61.458267 253 252 253
0.941877 6.237047 61.450832 254 253 254
0.941759 6.368719 61.443161 254 253 254
0.941637 6.500324 61.435165 254 254 254
0.941508 6.631850 61.426758 254 254 254
0.941372 6.763289 61.417896 254 254 254
0.941229 6.894635 61.408539 254 254 254
0.941078 7.025883 61.398682 254 254 254
0.940919 7.157032 61.388336 251 251 251
0.940754 7.288085 61.377563 240 240 239
0.940583 7.419049 61.366432 234 234 233
0.940409 7.549934 61.355057 243 244 243
0.940233 7.680756 61.343563 251 251 251
0.940057 7.811535 61.332123 250 250 250
0.939886 7.942296 61.320923 245 245 245
0.939721 8.073068 61.310173 236 236 235
0.939567 8.203885 61.300110 237 237 236
0.939427 8.334786 61.290985 248 248 248
0.939305 8.465815 61.283058 254 254 254
0.939206 8.597013 61.276600 254 254 254
0.939134 8.728433 61.271877 252 252 251
0.939092 8.860120 61.269154 242 242 240
0.939085 8.992124 61.268661 221 221 218
0.939115 9.124493 61.270638 210 210 207
0.939186 9.257268 61.275249 227 228 225
0.939299 9.390491 61.282650 224 225 223
0.939456 9.524190 61.292912 197 199 197
0.939658 9.658393 61.306087 209 211 209
0.939904 9.793111 61.322136 242 242 242
0.940193 9.928349 61.340969 254 254 254
0.940522 10.064101 61.362442 254 254 254
0.940888 10.200349 61.386341 254 254 254
0.941288 10.337065 61.412407 254 254 254
0.941716 10.474212 61.440338 254 254 254
0.942168 10.611745 61.469818 255 255 255
0.942638 10.749618 61.500507 254 254 254
0.943122 10.887779 61.532085 254 254 254
0.943615 11.026179 61.564232 248 248 249
0.944112 11.164771 61.596676 227 227 232
0.944611 11.303516 61.629189 209 210 217
0.945107 11.442379 61.661583 217 218 224
0.945600 11.581339 61.693748 234 235 240
0.946089 11.720383 61.725624 240 241 246
0.946573 11.859509 61.757214 244 245 249
0.947053 11.998727 61.788574 249 250 251
0.947532 12.138051 61.819794 249 250 251
0.948010 12.277510 61.851006 252 253 252
0.948491 12.417133 61.882370 253 254 253
0.948977 12.556956 61.914051 254 254 254
0.949470 12.697015 61.946217 254 254 254
