ply
format ascii 1.0
element vertex 1275
property float x
property float y
property float z
property uchar red
property uchar green
property uchar blue
end_header
1.848877 6.551149 53.238365 36 24 22
1.847239 6.660005 53.191174 35 24 21
1.845623 6.768742 53.144653 34 23 20
1.844032 6.877369 53.098835 33 22 19
1.842465 6.985891 53.053715 32 22 19
1.840922 7.094311 53.009281 32 22 19
1.839402 7.202631 52.965530 32 21 20
1.837905 7.310853 52.922428 33 20 19
1.836431 7.418981 52.879978 33 20 18
1.834980 7.527020 52.838203 33 19 18
1.833554 7.634984 52.797138 32 19 17
1.832156 7.742885 52.756863 32 20 16
1.830788 7.850746 52.717480 32 20 16
1.829456 7.958593 52.679123 32 20 16
1.828165 8.066457 52.641960 32 21 17
1.826921 8.174368 52.606133 33 22 19
1.825729 8.282361 52.571808 34 22 19
1.824595 8.390471 52.539143 34 21 20
1.823522 8.498729 52.508247 34 21 20
1.822514 8.607159 52.479229 34 21 21
1.821572 8.715778 52.452099 34 21 21
1.820695 8.824599 52.426865 33 21 21
1.819882 8.933621 52.403442 32 21 21
1.819127 9.042832 52.381702 32 21 20
1.818424 9.152212 52.361462 32 21 20
1.817764 9.261724 52.342468 31 20 20
1.817138 9.371326 52.324429 31 21 19
1.816532 9.480959 52.306984 30 21 19
1.815934 9.590557 52.289768 30 21 19
1.815330 9.700047 52.272369 30 22 19
1.814705 9.809348 52.254356 30 22 18
1.814043 9.918371 52.235294 30 21 17
1.813329 10.027025 52.214741 30 21 17
1.812548 10.135220 52.192268 31 21 18
1.811687 10.242858 52.167465 31 21 18
1.810731 10.349851 52.139942 32 21 19
1.809669 10.456108 52.109352 31 21 19
1.808489 10.561547 52.075371 31 21 19
1.807182 10.666090 52.037739 31 21 19
1.805741 10.769673 51.996254 31 21 19
1.804161 10.872241 51.950768 30 21 18
1.802441 10.973752 51.901218 30 22 18
1.800579 11.074186 51.847622 30 22 19
1.798581 11.173535 51.790070 30 21 19
1.796452 11.271824 51.728786 30 22 20
1.794206 11.369100 51.664104 30 22 20
1.791857 11.465441 51.596470 31 22 20
1.789426 11.560956 51.526455 32 22 21
1.786937 11.655794 51.454781 33 22 21
1.784419 11.750136 51.382290 34 22 21
1.781907 11.844203 51.309963 35 22 22
1.779438 11.938247 51.238873 36 23 22
1.777054 12.032557 51.170219 36 23 23
1.774799 12.127451 51.105274 36 23 23
1.772718 12.223267 51.045349 36 23 23
1.770857 12.320358 50.991772 36 23 23
1.769262 12.419082 50.945835 37 23 22
1.767975 12.519792 50.908783 37 23 22
1.767036 12.622827 50.881748 37 23 21
1.766480 12.728503 50.865734 36 23 21
1.766335 12.837099 50.861557 37 24 21
1.766623 12.948852 50.869854 37 24 21
1.767359 13.063950 50.891048 37 25 22
1.768550 13.182528 50.925327 38 26 23
1.770193 13.304659 50.972656 39 26 24
1.772281 13.430362 51.032780 39 27 24
1.774797 13.559593 51.105228 38 27 24
1.777718 13.692257 51.189339 38 28 25
1.781016 13.828212 51.284309 38 28 25
1.784659 13.967268 51.389183 38 28 25
1.788609 14.109205 51.502926 38 28 25
1.792828 14.253776 51.624428 37 27 24
1.797279 14.400722 51.752583 37 26 24
1.801922 14.549773 51.886280 36 26 23
1.806721 14.700671 52.024471 37 25 22
1.811642 14.853168 52.166183 37 24 21
1.816656 15.007040 52.310562 38 23 21
1.821737 15.162092 52.456867 38 22 21
1.826865 15.318170 52.604527 39 22 22
1.832026 15.475157 52.753120 40 23 23
1.837210 15.632985 52.902390 41 23 23
1.842414 15.791631 53.052242 43 23 23
1.847640 15.951113 53.202732 44 24 24
1.852895 16.111494 53.354053 46 25 25
1.858190 16.272875 53.506512 49 26 27
1.863537 16.435377 53.660484 51 28 29
1.868953 16.599155 53.816452 54 29 30
1.874455 16.764366 53.974857 57 31 33
1.880056 16.931166 54.136158 60 33 35
1.885772 17.099693 54.300743 63 36 39
1.891612 17.270067 54.468910 67 40 43
1.897582 17.442362 54.640820 70 44 47
1.903683 17.616600 54.816479 74 48 51
1.909907 17.792749 54.995701 75 51 52
1.916242 17.970711 55.178112 76 51 52
1.922667 18.150311 55.363125 75 50 51
1.929155 18.331305 55.549946 74 49 50
1.935671 18.513380 55.737591 72 46 48
1.942177 18.696157 55.924923 70 44 45
1.948627 18.879202 56.110649 69 42 44
1.954974 19.062042 56.293404 69 41 43
1.961167 19.244167 56.471748 69 41 43
1.967159 19.425068 56.644279 68 41 44
1.972902 19.604239 56.809643 66 40 43
1.978352 19.781197 56.966583 65 39 42
1.983472 19.955513 57.114025 63 38 41
1.988232 20.126810 57.251068 62 37 40
1.992607 20.294785 57.377048 61 37 39
1.996583 20.459213 57.491539 62 38 40
2.000154 20.619957 57.594360 62 39 40
2.003321 20.776960 57.685562 64 41 40
2.006094 20.930246 57.765419 64 42 41
2.008489 21.079905 57.834381 63 42 39
2.010525 21.226074 57.893017 61 40 37
2.012228 21.368950 57.942036 59 38 34
2.013622 21.508749 57.982189 56 37 33
2.014736 21.645700 58.014252 55 36 33
2.015594 21.780031 58.038956 54 34 32
2.016221 21.911961 58.057018 54 34 32
2.016641 22.041702 58.069107 54 34 33
2.016874 22.169439 58.075813 53 33 32
2.001731 0.243770 54.271049 57 27 26
2.005697 0.361475 54.378563 56 27 26
2.009429 0.479587 54.479755 55 26 25
2.012910 0.598062 54.574135 54 26 25
2.016122 0.716847 54.661232 54 26 25
2.019052 0.835891 54.740650 54 26 25
2.021685 0.955138 54.812042 54 25 25
2.024012 1.074529 54.875126 54 25 25
2.026025 1.194008 54.929703 55 25 25
2.027720 1.313516 54.975674 54 24 24
2.029098 1.432998 55.013016 53 24 24
2.030159 1.552399 55.041798 53 24 23
2.030912 1.671670 55.062206 53 24 24
2.031365 1.790765 55.074478 53 24 24
2.031529 1.909642 55.078953 53 25 24
2.031421 2.028265 55.076019 52 25 24
2.031056 2.146605 55.066120 50 25 24
2.030452 2.264635 55.049736 48 25 24
2.029627 2.382336 55.027378 46 24 23
2.028601 2.499692 54.999554 44 24 23
2.027392 2.616691 54.966770 43 24 22
2.026019 2.733329 54.929546 43 24 22
2.024501 2.849602 54.888386 42 24 22
2.022855 2.965509 54.843758 42 23 21
2.021099 3.081057 54.796150 43 23 21
2.019250 3.196253 54.746029 43 22 21
2.017326 3.311109 54.693859 43 22 22
2.015342 3.425638 54.640079 43 22 22
2.013315 3.539860 54.585121 43 21 22
2.011260 3.653794 54.529408 43 21 22
2.009192 3.767463 54.473343 42 21 21
2.007125 3.880892 54.417286 41 20 21
2.005070 3.994104 54.361572 41 20 21
2.003038 4.107122 54.306484 40 20 21
2.001037 4.219970 54.252243 40 21 21
1.999073 4.332664 54.199001 40 22 21
1.997150 4.445216 54.146843 39 22 21
1.995267 4.557638 54.095791 39 23 21
1.993422 4.669930 54.045792 39 23 20
1.991613 4.782089 53.996727 38 23 19
1.989832 4.894107 53.948441 38 23 19
1.988073 5.005972 53.900742 38 23 20
1.986327 5.117667 53.853428 38 23 21
1.984589 5.229175 53.806282 38 22 21
1.982849 5.340478 53.759121 38 23 21
1.981103 5.451560 53.711784 37 23 21
1.979347 5.562409 53.664162 37 22 22
1.977577 5.673015 53.616192 38 21 22
1.975794 5.783374 53.567852 38 21 21
1.973999 5.893490 53.519184 37 20 21
1.972195 6.003368 53.470280 37 21 22
1.970387 6.113021 53.421246 38 22 22
1.968579 6.222464 53.372227 38 22 23
1.966777 6.331715 53.323368 38 23 23
1.964985 6.440792 53.274807 38 23 23
1.963210 6.549711 53.226673 37 23 22
1.961454 6.658489 53.179066 36 23 21
1.959721 6.767139 53.132069 34 22 20
1.958011 6.875669 53.085705 33 21 19
1.956325 6.984085 53.039993 33 21 19
1.954662 7.092390 52.994926 33 21 20
1.953023 7.200585 52.950481 34 21 20
1.951406 7.308671 52.906631 34 21 20
1.949810 7.416648 52.863354 34 20 19
1.948234 7.524520 52.820652 33 20 18
1.946682 7.632296 52.778549 33 20 17
1.945152 7.739983 52.737087 33 20 17
1.943650 7.847600 52.696346 33 20 17
1.942178 7.955166 52.656437 34 20 18
1.940741 8.062708 52.617496 34 21 18
1.939345 8.170253 52.579651 34 21 19
1.937995 8.277831 52.543053 35 22 19
1.936697 8.385472 52.507835 35 22 20
1.935454 8.493206 52.474133 35 22 21
1.934269 8.601057 52.442028 35 21 21
1.933146 8.709044 52.411575 34 21 21
1.932084 8.817180 52.382782 33 21 21
1.931082 8.925466 52.355598 33 20 20
1.930135 9.033895 52.329933 32 20 19
1.929239 9.142454 52.305634 32 20 19
1.928385 9.251113 52.282494 31 20 19
1.927565 9.359833 52.260250 30 20 19
1.926766 9.468563 52.238598 29 20 19
1.925977 9.577249 52.217205 29 21 19
1.925184 9.685820 52.195694 30 21 20
1.924371 9.794200 52.173664 31 21 19
1.923524 9.902309 52.150703 31 21 18
1.922627 10.010059 52.126389 31 21 18
1.921665 10.117361 52.100304 31 21 18
1.920622 10.224120 52.072033 31 21 18
1.919484 10.330245 52.041176 32 21 18
1.918237 10.435644 52.007366 32 21 18
1.916869 10.540233 51.970276 32 21 17
1.915369 10.643928 51.929607 31 20 17
1.913728 10.746653 51.885109 30 21 17
1.911939 10.848349 51.836605 30 21 17
1.909998 10.948965 51.783981 29 21 17
1.907905 11.048470 51.727226 29 21 18
1.905660 11.146848 51.666370 29 21 18
1.903272 11.244113 51.601612 29 21 19
1.900750 11.340302 51.533241 30 22 19
1.898110 11.435487 51.461674 31 22 20
1.895373 11.529772 51.387470 32 22 21
1.892565 11.623298 51.311325 33 22 21
1.889716 11.716246 51.234089 33 22 21
1.886863 11.808833 51.156738 34 22 21
1.884046 11.901317 51.080368 35 23 22
1.881310 11.993988 51.006203 36 23 22
1.878704 12.087170 50.935528 36 23 22
1.876276 12.181209 50.869713 36 23 22
1.874078 12.276468 50.810120 36 23 23
1.872159 12.373315 50.758091 36 23 22
1.870566 12.472114 50.714912 37 23 22
1.869344 12.573216 50.681770 37 23 22
1.868530 12.676949 50.659710 36 23 21
1.868158 12.783604 50.649609 36 24 20
1.868251 12.893429 50.652126 36 24 21
1.868827 13.006625 50.667740 37 25 22
1.869894 13.123337 50.696667 37 25 23
1.871451 13.243645 50.738899 38 26 23
1.873491 13.367575 50.794201 38 27 24
1.875997 13.495093 50.862133 38 27 24
1.878944 13.626111 50.942047 38 28 25
1.882304 13.760487 51.033138 38 28 25
1.886041 13.898036 51.134464 38 28 25
1.890118 14.038542 51.244984 38 28 25
1.894492 14.181756 51.363590 37 27 24
1.899124 14.327420 51.489159 37 27 24
1.903971 14.475266 51.620579 36 26 24
1.908995 14.625029 51.756779 37 25 23
1.914158 14.776461 51.896778 37 24 22
1.919429 14.929331 52.039688 37 23 21
1.924780 15.083444 52.184765 37 23 22
1.930189 15.238640 52.331413 39 23 22
1.935640 15.394797 52.479183 40 23 23
1.941122 15.551846 52.627811 40 24 24
1.946631 15.709757 52.777187 42 24 24
1.952170 15.868546 52.927345 43 24 23
1.957744 16.028276 53.078472 45 25 24
1.963365 16.189043 53.230865 47 26 26
1.969046 16.350971 53.384907 49 26 27
1.974805 16.514210 53.541046 51 27 29
1.980659 16.678921 53.699757 53 29 31
1.986624 16.845257 53.861469 56 30 32
1.992714 17.013361 54.026588 59 32 35
1.998940 17.183344 54.195389 63 37 40
2.005308 17.355282 54.368031 69 43 46
2.011817 17.529194 54.544506 73 48 50
2.018460 17.705042 54.724602 76 50 52
2.025222 17.882719 54.907936 76 50 52
2.032081 18.062046 55.093891 75 49 51
2.039005 18.242764 55.281639 73 48 49
2.045959 18.424551 55.470161 72 46 48
2.052898 18.607021 55.658295 70 44 45
2.059774 18.789730 55.844730 69 42 44
2.066536 18.972189 56.028053 70 42 44
2.073130 19.153887 56.206821 70 42 45
2.079503 19.334307 56.379616 69 43 46
2.085606 19.512939 56.545074 67 41 45
2.091392 19.689304 56.701946 66 39 44
2.096822 19.862974 56.849167 64 38 42
2.101864 20.033577 56.985863 62 37 41
2.106494 20.200821 57.111393 61 37 40
2.110698 20.364492 57.225365 62 38 40
2.114470 20.524464 57.327629 63 40 41
2.117813 20.680687 57.418266 65 43 43
2.120738 20.833199 57.497578 66 45 44
2.123263 20.982098 57.566040 65 44 43
2.125410 21.127529 57.624237 63 42 40
2.127204 21.269688 57.672882 60 40 37
2.128672 21.408777 57.712692 58 38 35
2.129844 21.545038 57.744453 56 37 34
2.130744 21.678673 57.768856 55 36 33
2.131397 21.809891 57.786575 55 35 33
2.131828 21.938889 57.798248 55 35 33
2.118243 0.360678 54.258804 58 28 27
2.122154 0.478524 54.358978 56 26 26
2.125821 0.596733 54.452915 55 26 25
2.129228 0.715260 54.540180 55 26 25
2.132359 0.834055 54.620377 56 26 25
2.135201 0.953066 54.693172 55 26 25
2.137742 1.072241 54.758263 55 26 25
2.139973 1.191524 54.815430 55 25 25
2.141890 1.310861 54.864532 54 24 24
2.143489 1.430197 54.905491 53 24 24
2.144772 1.549481 54.938339 53 23 23
2.145741 1.668663 54.963154 53 24 23
2.146403 1.787697 54.980133 53 24 24
2.146770 1.906541 54.989513 53 24 24
2.146852 2.025157 54.991615 53 25 24
2.146663 2.143513 54.986797 51 25 24
2.146221 2.261580 54.975460 49 25 23
2.145541 2.379334 54.958046 46 24 22
2.144642 2.496758 54.935005 44 24 22
2.143540 2.613836 54.906784 43 25 22
2.142255 2.730558 54.873863 42 24 21
2.140804 2.846918 54.836697 42 24 21
2.139205 2.962914 54.795753 42 24 21
2.137477 3.078546 54.751488 42 23 21
2.135638 3.193822 54.704391 43 23 21
2.133707 3.308750 54.654903 43 23 22
2.131700 3.423346 54.603512 43 22 22
2.129637 3.537625 54.550659 43 22 22
2.127534 3.651609 54.496803 43 21 22
2.125410 3.765322 54.442379 43 21 21
2.123279 3.878789 54.387798 42 20 21
2.121156 3.992035 54.333424 41 20 21
2.119054 4.105087 54.279572 40 19 21
2.116982 4.217968 54.226501 40 20 21
2.114948 4.330698 54.174408 40 21 20
2.112956 4.443290 54.123383 40 22 21
2.111007 4.555756 54.073456 40 22 21
2.109100 4.668098 54.024601 39 23 20
2.107229 4.780314 53.976692 39 23 20
2.105390 4.892395 53.929569 39 23 20
2.103573 5.004327 53.883034 39 23 21
2.101770 5.116092 53.836849 39 23 22
2.099972 5.227671 53.790802 38 22 22
2.098171 5.339043 53.744675 38 22 22
2.096360 5.450191 53.698284 37 22 21
2.094534 5.561097 53.651501 38 22 22
2.092689 5.671751 53.604244 38 21 22
2.090825 5.782147 53.556484 38 21 22
2.088942 5.892287 53.508266 37 21 21
2.087044 6.002175 53.459656 37 21 22
2.085136 6.111823 53.410774 37 22 22
2.083223 6.221245 53.361771 38 23 22
2.081311 6.330461 53.312801 38 23 22
2.079407 6.439488 53.264027 39 24 22
2.077516 6.548346 53.215580 38 24 22
2.075642 6.657051 53.167580 38 24 22
2.073789 6.765618 53.120121 36 23 21
2.071959 6.874056 53.073250 34 22 20
2.070153 6.982372 53.026981 34 22 20
2.068370 7.090568 52.981316 34 22 21
2.066610 7.198646 52.936218 35 22 21
2.064871 7.306604 52.891670 35 22 20
2.063151 7.414440 52.847618 35 21 19
2.061450 7.522156 52.804050 34 21 18
2.059768 7.629754 52.760971 34 21 18
2.058106 7.737239 52.718391 34 21 17
2.056465 7.844625 52.676373 34 20 17
2.054850 7.951926 52.634991 35 21 18
2.053263 8.059162 52.594353 35 22 18
2.051710 8.166356 52.554569 35 22 19
2.050196 8.273535 52.515781 35 22 20
2.048725 8.380725 52.478111 35 23 21
2.047303 8.487954 52.441681 35 23 21
2.045933 8.595244 52.406586 35 22 21
2.044617 8.702615 52.372883 34 22 21
2.043357 8.810080 52.340603 34 21 21
2.042152 8.917645 52.309723 33 21 20
2.040998 9.025307 52.280178 32 21 19
2.039893 9.133055 52.251858 31 20 19
2.038828 9.240866 52.224583 30 20 19
2.037796 9.348709 52.198143 29 19 19
2.036786 9.456541 52.172272 29 19 19
2.035786 9.564311 52.146667 29 20 19
2.034784 9.671957 52.120991 30 21 20
2.033764 9.779410 52.094879 31 21 20
2.032712 9.886593 52.067936 32 21 19
2.031612 9.993423 52.039761 32 20 18
2.030449 10.099815 52.009953 32 20 18
2.029205 10.205676 51.978096 32 21 18
2.027865 10.310912 51.943783 31 20 17
2.026416 10.415434 51.906647 31 20 17
2.024842 10.519151 51.866333 31 20 17
2.023131 10.621975 51.822506 30 21 17
2.021272 10.723825 51.774899 30 21 17
2.019258 10.824635 51.723293 30 21 17
2.017081 10.924344 51.667538 29 21 17
2.014740 11.022916 51.607582 28 21 17
2.012235 11.120320 51.543415 28 21 18
2.009572 11.216565 51.475193 28 21 18
2.006761 11.311683 51.403183 30 21 19
2.003816 11.405730 51.327763 31 22 20
2.000760 11.498809 51.249470 32 22 21
1.997618 11.591054 51.168983 32 22 21
1.994423 11.682643 51.087151 33 22 22
1.991213 11.773794 51.004944 34 22 21
1.988033 11.864759 50.923466 34 22 21
1.984928 11.955836 50.843956 34 23 21
1.981953 12.047353 50.767738 34 23 21
1.979160 12.139658 50.696194 35 23 21
1.976604 12.233125 50.630730 35 23 22
1.974340 12.328127 50.572720 35 23 22
1.972418 12.425039 50.523495 36 23 22
1.970887 12.524224 50.484287 36 23 22
1.969790 12.626020 50.456188 36 24 21
1.969162 12.730727 50.440105 35 24 20
1.969031 12.838604 50.436749 36 24 21
1.969417 12.949864 50.446625 36 25 21
1.970329 13.064657 50.469982 36 25 22
1.971768 13.183077 50.506855 37 26 23
1.973727 13.305156 50.557026 37 27 23
1.976188 13.430869 50.620075 37 27 23
1.979128 13.560130 50.695374 37 27 24
1.982515 13.692805 50.782131 37 27 24
1.986313 13.828714 50.879410 37 27 25
1.990481 13.967644 50.986183 37 27 25
1.994977 14.109348 51.101341 37 27 25
1.999756 14.253570 51.223759 36 27 25
2.004775 14.400039 51.352310 36 26 24
2.009991 14.548493 51.485928 36 25 24
2.015366 14.698683 51.623611 36 24 23
2.020865 14.850373 51.764465 37 24 22
2.026458 15.003370 51.907730 37 23 22
2.032121 15.157507 52.052792 39 24 23
2.037837 15.312663 52.199196 40 25 24
2.043593 15.468760 52.346653 40 25 25
2.049387 15.625773 52.495045 41 25 24
2.055218 15.783717 52.644409 42 25 24
2.061093 15.942644 52.794899 43 25 24
2.067024 16.102657 52.946823 44 25 24
2.073025 16.263876 53.100552 46 25 25
2.079115 16.426455 53.256531 47 26 27
2.085310 16.590548 53.415226 49 27 29
2.091628 16.756311 53.577072 52 28 30
2.098084 16.923882 53.742443 54 29 32
2.104689 17.093374 53.911629 59 34 37
2.111448 17.264856 54.084759 65 41 43
2.118360 17.438345 54.261810 71 46 48
2.125417 17.613792 54.442562 74 49 50
2.132601 17.791088 54.626591 75 48 51
2.139888 17.970037 54.813248 75 48 50
2.147244 18.150379 55.001682 74 47 49
2.154629 18.331774 55.190838 73 46 48
2.161996 18.513828 55.379532 72 45 47
2.169291 18.696087 55.566414 72 44 46
2.176461 18.878054 55.750057 72 44 46
2.183446 19.059210 55.928993 72 44 47
2.190193 19.239037 56.101803 70 43 47
2.196647 19.417023 56.267124 68 42 46
2.202760 19.592691 56.423717 66 40 45
2.208492 19.765617 56.570530 64 38 43
2.213809 19.935444 56.706718 63 37 42
2.218687 20.101885 56.831688 62 37 41
2.223114 20.264742 56.945065 62 39 41
2.227083 20.423897 57.046734 64 41 42
2.230600 20.579321 57.136833 66 43 45
2.233678 20.731056 57.215672 68 46 46
2.236336 20.879210 57.283760 67 46 46
2.238598 21.023935 57.341694 65 44 43
2.240490 21.165422 57.390167 62 41 40
2.242042 21.303883 57.429920 60 39 37
2.243282 21.439535 57.461689 59 39 36
2.244237 21.572578 57.486137 58 38 35
2.244931 21.703205 57.503906 57 37 35
2.245386 21.831596 57.515583 57 37 35
2.234646 0.477522 54.245201 57 26 26
2.238466 0.595473 54.337914 55 25 25
2.242034 0.713743 54.424541 56 26 25
2.245337 0.832289 54.504730 56 26 25
2.248362 0.951062 54.578140 56 26 25
2.251094 1.070012 54.644466 55 26 25
2.253525 1.189090 54.703487 55 25 25
2.255648 1.308244 54.755013 54 24 24
2.257458 1.427422 54.798946 54 24 24
2.258953 1.546573 54.835239 54 23 24
2.260135 1.665650 54.863926 54 23 23
2.261008 1.784608 54.885120 54 23 23
2.261579 1.903402 54.898991 54 24 24
2.261858 2.021996 54.905762 53 24 23
2.261857 2.140352 54.905724 52 24 23
2.261588 2.258442 54.899200 49 24 23
2.261067 2.376239 54.886559 46 24 22
2.260310 2.493720 54.868168 44 24 22
2.259332 2.610868 54.844440 43 24 22
2.258151 2.727668 54.815773 42 24 22
2.256785 2.844110 54.782616 42 24 22
2.255251 2.960190 54.745384 42 24 22
2.253569 3.075906 54.704540 42 23 21
2.251756 3.191262 54.660538 42 23 21
2.249833 3.306265 54.613853 43 23 22
2.247819 3.420929 54.564964 43 22 22
2.245734 3.535271 54.514355 43 22 22
2.243598 3.649311 54.462498 43 22 22
2.241430 3.763074 54.409870 43 21 22
2.239248 3.876586 54.356915 42 21 22
2.237070 3.989876 54.304028 41 20 22
2.234908 4.102969 54.251564 41 20 22
2.232777 4.215893 54.199825 41 20 21
2.230684 4.328668 54.149014 41 21 21
2.228634 4.441309 54.099251 41 22 21
2.226629 4.553829 54.050591 40 22 21
2.224669 4.666232 54.002998 40 22 20
2.222747 4.778513 53.956356 40 23 21
2.220858 4.890666 53.910503 40 23 21
2.218993 5.002672 53.865215 40 23 22
2.217140 5.114515 53.820255 39 23 22
2.215292 5.226171 53.775368 39 23 22
2.213436 5.337619 53.730339 38 23 22
2.211566 5.448837 53.684952 37 23 21
2.209676 5.559806 53.639053 38 23 22
2.207760 5.670514 53.592556 38 22 22
2.205819 5.780952 53.545418 38 22 22
2.203851 5.891120 53.497665 38 22 21
2.201862 6.001022 53.449379 37 22 22
2.199856 6.110668 53.400681 38 22 22
2.197839 6.220073 53.351715 38 23 22
2.195818 6.329256 53.302658 39 24 22
2.193800 6.438238 53.253685 39 24 22
2.191793 6.547038 53.204948 39 24 22
2.189800 6.655674 53.156582 39 24 22
2.187827 6.764162 53.108688 38 23 21
2.185877 6.872513 53.061337 36 22 21
2.183949 6.980733 53.014538 36 22 21
2.182044 7.088827 52.968304 36 22 21
2.180161 7.196794 52.922600 36 22 21
2.178298 7.304630 52.877380 36 22 20
2.176454 7.412333 52.832600 36 22 19
2.174625 7.519900 52.788219 36 22 19
2.172813 7.627330 52.744213 35 21 18
2.171015 7.734625 52.700577 34 21 17
2.169234 7.841791 52.657345 35 20 17
2.167471 7.948838 52.614552 36 21 18
2.165730 8.055782 52.572296 36 22 18
2.164016 8.162642 52.530670 36 22 19
2.162331 8.269438 52.489777 36 22 19
2.160681 8.376193 52.449734 36 23 20
2.159072 8.482933 52.410664 36 23 21
2.157506 8.589681 52.372662 35 22 21
2.155988 8.696452 52.335793 34 22 21
2.154518 8.803264 52.300106 34 22 21
2.153096 8.910123 52.265602 34 22 20
2.151722 9.017030 52.232239 33 21 19
2.150391 9.123980 52.199940 32 21 19
2.149099 9.230956 52.168579 31 20 19
2.147838 9.337931 52.137966 30 20 19
2.146599 9.444869 52.107876 30 20 19
2.145370 9.551726 52.078053 30 20 19
2.144140 9.658447 52.048191 30 20 19
2.142894 9.764969 52.017952 31 21 19
2.141618 9.871221 51.986973 32 21 19
2.140296 9.977122 51.954872 33 21 19
2.138911 10.082591 51.921257 32 21 18
2.137447 10.187540 51.885727 32 21 18
2.135888 10.291874 51.847874 32 21 17
2.134217 10.395502 51.807312 31 20 17
2.132419 10.498330 51.763672 31 21 18
2.130481 10.600270 51.716618 30 21 18
2.128388 10.701234 51.665829 30 22 18
2.126132 10.801148 51.611069 30 22 18
2.123705 10.899948 51.552155 30 22 18
2.121103 10.997584 51.488987 29 22 18
2.118324 11.094025 51.421532 28 21 18
2.115374 11.189264 51.349903 29 21 18
2.112260 11.283327 51.274330 30 22 19
2.108999 11.376266 51.195164 31 22 21
2.105611 11.468172 51.112923 32 22 21
2.102123 11.559177 51.028263 32 22 21
2.098570 11.649452 50.942009 32 22 21
2.094992 11.739215 50.855145 32 22 21
2.091434 11.828715 50.768764 33 22 21
2.087947 11.918255 50.684132 33 22 20
2.084587 12.008156 50.602566 34 23 20
2.081411 12.098780 50.525478 34 23 21
2.078479 12.190498 50.454304 34 23 22
2.075849 12.283696 50.390457 35 23 22
2.073576 12.378754 50.335289 35 23 22
2.071713 12.476043 50.290070 35 24 22
2.070307 12.575908 50.255928 35 24 21
2.069396 12.678660 50.233814 35 24 20
2.069011 12.784570 50.224472 35 25 20
2.069175 12.893856 50.228439 35 25 21
2.069899 13.006680 50.246014 36 25 22
2.071185 13.123143 50.277237 35 26 22
2.073026 13.243286 50.321930 35 26 22
2.075406 13.367092 50.379704 35 26 22
2.078300 13.494482 50.449947 35 26 22
2.081675 13.625330 50.531887 36 26 22
2.085495 13.759459 50.624599 36 26 23
2.089716 13.896659 50.727066 36 27 24
2.094294 14.036693 50.838196 36 27 25
2.099182 14.179299 50.956852 36 27 25
2.104334 14.324218 51.081924 36 26 24
2.109706 14.471184 51.212337 36 25 23
2.115257 14.619946 51.347080 36 24 23
2.120950 14.770275 51.485264 36 24 22
2.126752 14.921969 51.626106 37 24 22
2.132638 15.074865 51.768993 39 25 23
2.138589 15.228842 51.913460 40 26 24
2.144594 15.383820 52.059208 40 26 25
2.150645 15.539768 52.206108 41 26 25
2.156745 15.696705 52.354191 42 26 24
2.162901 15.854681 52.503601 42 26 24
2.169122 16.013796 52.654636 43 25 23
2.175427 16.174173 52.807674 44 25 24
2.181832 16.335962 52.963142 45 25 26
2.188355 16.499317 53.121502 47 26 27
2.195015 16.664394 53.283173 48 26 28
2.201827 16.831326 53.448528 49 27 29
2.208802 17.000225 53.617840 54 31 33
2.215944 17.171150 53.791210 60 37 39
2.223252 17.344114 53.968601 67 43 45
2.230715 17.519062 54.149761 71 47 48
2.238315 17.695875 54.334248 73 47 49
2.246023 17.874350 54.521370 74 47 50
2.253804 18.054205 54.710243 74 46 49
2.261612 18.235102 54.899788 74 46 49
2.269398 18.416628 55.088783 74 45 49
2.277104 18.598324 55.275852 74 46 49
2.284672 18.779686 55.459553 74 46 50
2.292040 18.960186 55.638412 73 46 50
2.299150 19.139309 55.810997 71 44 48
2.305945 19.316540 55.975945 68 43 46
2.312376 19.491411 56.132050 66 41 45
2.318399 19.663507 56.278282 64 39 44
2.323983 19.832474 56.413826 63 38 42
2.329103 19.998047 56.538113 63 38 42
2.333747 20.160034 56.650829 63 39 42
2.337910 20.318340 56.751900 65 41 44
2.341601 20.472944 56.841484 66 43 45
2.344833 20.623905 56.919949 68 46 47
2.347628 20.771334 56.987793 68 46 46
2.350011 20.915390 57.045643 66 43 44
2.352012 21.056273 57.094208 63 40 41
2.353659 21.194180 57.134190 61 38 38
2.354982 21.329327 57.166313 61 38 37
2.356008 21.461899 57.191200 60 39 37
2.356759 21.592070 57.209450 59 39 36
2.350867 0.594276 54.228741 56 26 25
2.354563 0.712293 54.313995 56 27 26
2.358006 0.830589 54.393417 56 27 26
2.361182 0.949120 54.466690 56 27 26
2.364079 1.067840 54.533524 56 27 26
2.366687 1.186703 54.593666 55 26 25
2.368996 1.305662 54.646935 54 25 25
2.371001 1.424667 54.693184 54 24 25
2.372698 1.543671 54.732323 54 23 24
2.374085 1.662627 54.764324 55 23 24
2.375165 1.781490 54.789238 55 24 24
2.375942 1.900218 54.807152 54 24 24
2.376421 2.018772 54.818218 53 24 23
2.376613 2.137114 54.822643 52 24 23
2.376528 2.255212 54.820671 50 24 23
2.376178 2.373037 54.812592 48 24 23
2.375576 2.490564 54.798717 46 24 22
2.374737 2.607770 54.779369 44 25 22
2.373677 2.724640 54.754921 44 25 22
2.372413 2.841159 54.725758 43 25 22
2.370962 2.957319 54.692280 42 24 22
2.369342 3.073116 54.654911 42 24 22
2.367573 3.188551 54.614109 43 23 22
2.365676 3.303631 54.570339 44 23 22
2.363671 3.418367 54.524101 44 23 22
2.361581 3.532775 54.475876 44 23 23
2.359426 3.646878 54.426186 44 22 23
2.357230 3.760698 54.375526 44 22 23
2.355012 3.874265 54.324364 43 22 23
2.352792 3.987606 54.273140 43 22 23
2.350585 4.100751 54.222240 43 22 23
2.348407 4.213727 54.171989 43 22 23
2.346267 4.326558 54.122620 42 22 23
2.344171 4.439259 54.074280 41 23 22
2.342123 4.551844 54.027027 41 23 22
2.340120 4.664316 53.980824 41 23 22
2.338158 4.776673 53.935581 41 24 22
2.336230 4.888905 53.891098 40 24 23
2.334325 5.000995 53.847157 40 24 23
2.332432 5.112922 53.803497 39 24 23
2.330540 5.224663 53.759857 39 24 22
2.328639 5.336193 53.715984 38 24 22
2.326717 5.447487 53.671654 38 24 21
2.324768 5.558525 53.626694 38 23 21
2.322787 5.669291 53.580997 38 23 21
2.320771 5.779775 53.534512 38 22 21
2.318723 5.889975 53.487267 38 22 22
2.316645 5.999893 53.439327 38 22 22
2.314543 6.109540 53.390827 39 22 23
2.312423 6.218932 53.341927 39 23 23
2.310293 6.328086 53.292805 39 24 22
2.308163 6.437026 53.243660 39 24 22
2.306038 6.545771 53.194653 39 24 22
2.303927 6.654342 53.145943 39 23 22
2.301833 6.762754 53.097641 38 23 21
2.299760 6.871021 53.049820 38 22 21
2.297709 6.979151 53.002525 37 22 21
2.295681 7.087145 52.955738 37 22 21
2.293675 7.195005 52.909451 36 22 21
2.291687 7.302726 52.863594 37 22 21
2.289715 7.410302 52.818123 37 22 20
2.287758 7.517727 52.772961 37 22 20
2.285812 7.624997 52.728077 36 22 19
2.283877 7.732109 52.683437 35 21 17
2.281952 7.839066 52.639042 35 21 17
2.280039 7.945870 52.594910 36 21 18
2.278140 8.052534 52.551102 36 21 18
2.276258 8.159072 52.507694 36 22 19
2.274397 8.265498 52.464771 36 22 19
2.272563 8.371836 52.422443 36 22 20
2.270758 8.478103 52.380817 35 23 20
2.268988 8.584323 52.339996 35 23 21
2.267256 8.690512 52.300045 34 23 21
2.265565 8.796686 52.261032 35 23 21
2.263916 8.902858 52.222984 34 22 20
2.262307 9.009027 52.185879 33 22 20
2.260738 9.115194 52.149673 32 21 20
2.259203 9.221347 52.114273 31 20 20
2.257697 9.327465 52.079529 31 20 20
2.256211 9.433518 52.045258 31 20 19
2.254736 9.539470 52.011227 31 20 19
2.253259 9.645269 51.977173 32 20 19
2.251769 9.750861 51.942795 32 21 20
2.250250 9.856178 51.907753 33 22 20
2.248687 9.961148 51.871693 35 22 20
2.247062 10.065690 51.834221 34 22 19
2.245360 10.169719 51.794960 33 22 18
2.243563 10.273141 51.753498 32 21 18
2.241653 10.375866 51.709454 31 21 18
2.239615 10.477799 51.662441 30 21 18
2.237433 10.578848 51.612099 30 22 19
2.235092 10.678921 51.558098 30 22 19
2.232581 10.777940 51.500172 30 22 20
2.229890 10.875833 51.438099 30 22 20
2.227014 10.972544 51.371746 29 22 20
2.223949 11.068033 51.301060 28 22 20
2.220700 11.162290 51.226109 29 22 21
2.217274 11.255326 51.147087 30 22 21
2.213687 11.347191 51.064323 31 22 22
2.209958 11.437968 50.978302 32 23 23
2.206115 11.527782 50.889668 31 22 23
2.202194 11.616799 50.799221 30 21 21
2.198236 11.705232 50.707932 30 21 21
2.194290 11.793330 50.616894 31 22 21
2.190409 11.881391 50.527363 32 23 21
2.186651 11.969741 50.440681 33 24 21
2.183079 12.058740 50.358269 33 24 22
2.179754 12.148764 50.281570 34 24 23
2.176739 12.240202 50.212032 34 24 23
2.174094 12.333438 50.151020 34 24 23
2.171876 12.428853 50.099854 34 24 22
2.170134 12.526797 50.059673 35 24 21
2.168911 12.627591 50.031471 35 25 20
2.168242 12.731512 50.016033 35 25 20
2.168150 12.838786 50.013916 35 25 21
2.168651 12.949586 50.025452 35 25 21
2.169746 13.064019 50.050720 35 25 21
2.171431 13.182138 50.089581 34 25 21
2.173688 13.303932 50.141659 34 25 21
2.176494 13.429332 50.206375 34 25 21
2.179815 13.558215 50.282978 34 25 21
2.183612 13.690414 50.370571 35 25 22
2.187842 13.825727 50.468147 35 26 23
2.192458 13.963920 50.574627 35 26 24
2.197412 14.104738 50.688896 35 26 24
2.202655 14.247922 50.809845 35 26 23
2.208141 14.393213 50.936405 35 25 23
2.213827 14.540361 51.067570 35 24 22
2.219674 14.689137 51.202438 36 24 22
2.225648 14.839343 51.340240 37 25 22
2.231722 14.990816 51.480354 38 25 23
2.237876 15.143433 51.622307 39 26 24
2.244096 15.297114 51.765797 40 27 24
2.250377 15.451833 51.910690 41 27 25
2.256720 15.607600 52.056995 41 27 25
2.263131 15.764476 52.204884 42 26 24
2.269622 15.922551 52.354618 42 25 23
2.276209 16.081951 52.506573 43 24 24
2.282912 16.242825 52.661182 44 24 25
2.289748 16.405325 52.818878 45 25 26
2.296736 16.569599 52.980080 45 25 27
2.303892 16.735786 53.145142 46 25 27
2.311225 16.903986 53.314308 49 28 29
2.318741 17.074257 53.487679 55 34 35
2.326436 17.246599 53.665169 63 40 42
2.334296 17.420948 53.846500 70 45 47
2.342303 17.597178 54.031197 73 46 49
2.350425 17.775070 54.218544 75 46 50
2.358621 17.954340 54.407612 75 46 50
2.366844 18.134626 54.597294 76 46 50
2.375039 18.315517 54.786331 76 46 50
2.383146 18.496538 54.973335 76 47 50
2.391101 18.677181 55.156845 75 47 51
2.398840 18.856918 55.335369 74 47 51
2.406302 19.035227 55.507488 72 45 49
2.413427 19.211603 55.671856 69 43 46
2.420165 19.385580 55.827271 66 42 45
2.426471 19.556753 55.972744 65 40 44
2.432313 19.724787 56.107502 64 39 43
2.437668 19.889423 56.231018 64 39 43
2.442523 20.050497 56.343025 64 40 43
2.446878 20.207922 56.443485 66 41 44
2.450742 20.361692 56.532600 66 42 44
2.454130 20.511883 56.610775 67 44 45
2.457068 20.658613 56.678532 67 44 45
2.459581 20.802050 56.736511 66 43 44
2.461701 20.942390 56.785419 63 40 41
2.463458 21.079832 56.825935 61 38 39
2.464881 21.214581 56.858772 61 39 38
2.465997 21.346807 56.884510 60 40 39
2.466831 0.710906 54.208199 56 28 27
2.470379 0.828951 54.286163 56 28 27
2.473675 0.947236 54.358589 56 27 27
2.476707 1.065719 54.425224 56 27 26
2.479465 1.184359 54.485817 55 26 26
2.481937 1.303110 54.540157 54 25 26
2.484118 1.421929 54.588081 54 24 26
2.486001 1.540769 54.629463 54 23 25
2.487583 1.659587 54.664215 55 23 25
2.488862 1.778339 54.692329 55 24 24
2.489841 1.896983 54.713829 54 24 24
2.490522 2.015478 54.728794 54 24 24
2.490910 2.133788 54.737335 52 24 23
2.491015 2.251878 54.739635 50 24 23
2.490844 2.369716 54.735889 48 24 23
2.490411 2.487275 54.726349 46 24 22
2.489724 2.604529 54.711277 45 25 22
2.488801 2.721458 54.690983 44 25 22
2.487655 2.838046 54.665794 43 25 23
2.486303 2.954280 54.636089 43 24 23
2.484764 3.070155 54.602261 44 24 23
2.483056 3.185669 54.564743 44 23 23
2.481203 3.300827 54.524017 45 23 23
2.479225 3.415637 54.480560 45 23 23
2.477147 3.530118 54.434895 45 23 23
2.474993 3.644288 54.387543 45 22 23
2.472785 3.758174 54.339024 45 23 23
2.470547 3.871804 54.289852 45 23 23
2.468300 3.985207 54.240482 44 23 24
2.466064 4.098414 54.191338 44 23 24
2.463853 4.211454 54.142761 44 23 24
2.461681 4.324351 54.095016 43 23 24
2.459553 4.437123 54.048260 42 24 23
2.457473 4.549783 54.002560 42 24 22
2.455441 4.662335 53.957901 41 24 23
2.453451 4.774777 53.914173 41 24 23
2.451495 4.887098 53.871181 40 25 23
2.449561 4.999280 53.828693 40 25 23
2.447638 5.111300 53.786430 39 25 23
2.445712 5.223133 53.744110 39 25 23
2.443771 5.334751 53.701462 39 24 22
2.441805 5.446127 53.658249 38 24 21
2.439804 5.557238 53.614277 38 23 21
2.437762 5.668066 53.569420 39 23 21
2.435678 5.778600 53.523624 39 23 21
2.433553 5.888834 53.476910 39 23 22
2.431389 5.998773 53.429356 39 22 22
2.429192 6.108425 53.381081 39 22 23
2.426970 6.217805 53.332264 39 23 23
2.424733 6.326934 53.283104 39 24 22
2.422490 6.435835 53.233807 39 24 22
2.420248 6.544528 53.184547 38 23 22
2.418017 6.653035 53.135509 37 23 22
2.415801 6.761376 53.086823 37 22 21
2.413605 6.869563 53.038563 37 22 21
2.411431 6.977605 52.990780 37 22 21
2.409278 7.085504 52.943474 37 21 20
2.407146 7.193261 52.896622 37 21 20
2.405031 7.300870 52.850159 37 21 20
2.402931 7.408322 52.804012 37 21 20
2.400842 7.515611 52.758110 37 22 20
2.398762 7.622727 52.712383 37 22 20
2.396686 7.729663 52.666771 36 22 18
2.394615 7.836416 52.621254 36 22 18
2.392548 7.942988 52.575832 36 21 17
2.390486 8.049382 52.530529 35 21 18
2.388433 8.155607 52.485401 35 21 18
2.386390 8.261679 52.440525 35 22 19
2.384363 8.367609 52.395977 34 22 19
2.382356 8.473419 52.351879 34 23 20
2.380374 8.579126 52.308311 34 23 21
2.378420 8.684751 52.265373 34 23 21
2.376497 8.790305 52.223122 34 23 21
2.374608 8.895803 52.181606 34 22 21
2.372753 9.001252 52.140842 33 22 21
2.370931 9.106652 52.100807 33 21 21
2.369139 9.211997 52.061432 32 20 20
2.367373 9.317272 52.022617 32 20 20
2.365625 9.422453 51.984207 31 20 19
2.363887 9.527509 51.946014 32 20 19
2.362148 9.632395 51.907799 33 20 19
2.360395 9.737062 51.869289 34 21 20
2.358616 9.841450 51.830189 35 22 20
2.356794 9.945488 51.790142 36 23 20
2.354912 10.049103 51.748802 36 23 20
2.352955 10.152209 51.705788 35 22 19
2.350903 10.254719 51.660690 32 22 19
2.348738 10.356539 51.613132 31 22 19
2.346444 10.457575 51.562721 30 22 19
2.344004 10.557734 51.509087 29 22 20
2.341400 10.656919 51.451874 29 22 20
2.338620 10.755049 51.390793 29 22 21
2.335654 10.852047 51.325603 29 22 21
2.332493 10.947851 51.256138 29 22 21
2.329133 11.042414 51.182312 28 22 21
2.325577 11.135717 51.104164 29 22 22
2.321831 11.227767 51.021851 30 22 22
2.317909 11.318603 50.935673 31 22 22
2.313833 11.408302 50.846088 32 23 23
2.309629 11.496984 50.753708 32 22 23
2.305334 11.584806 50.659317 31 22 22
2.300990 11.671976 50.563862 31 22 22
2.296647 11.758741 50.468441 31 23 22
2.292362 11.845393 50.374279 32 24 22
2.288197 11.932260 50.282734 32 25 22
2.284214 12.019697 50.195229 33 25 23
2.280482 12.108084 50.113205 34 26 24
2.277066 12.197810 50.038132 34 26 24
2.274029 12.289266 49.971405 34 25 23
2.271433 12.382833 49.914349 34 25 22
2.269330 12.478867 49.868134 34 24 21
2.267766 12.577697 49.833786 34 24 20
2.266780 12.679605 49.812119 34 24 20
2.266398 12.784829 49.803726 34 24 20
2.266637 12.893546 49.808968 34 24 20
2.267501 13.005876 49.827961 34 24 20
2.268987 13.121878 49.860600 34 24 20
2.271077 13.241549 49.906536 33 24 20
2.273748 13.364829 49.965229 33 24 20
2.276967 13.491610 50.035961 34 24 20
2.280693 13.621728 50.117851 34 24 21
2.284883 13.754989 50.209927 34 25 22
2.289489 13.891166 50.311127 34 25 23
2.294459 14.030013 50.420353 35 25 23
2.299745 14.171276 50.536514 35 25 23
2.305299 14.314700 50.658554 35 24 22
2.311074 14.460041 50.785473 35 24 22
2.317032 14.607073 50.916382 36 24 21
2.323136 14.755601 51.050514 37 24 22
2.329358 14.905464 51.187244 38 25 22
2.335677 15.056540 51.326099 39 27 23
2.342078 15.208752 51.466774 40 27 24
2.348557 15.362072 51.609135 41 27 25
2.355112 15.516516 51.753197 41 27 25
2.361752 15.672138 51.899101 41 26 24
2.368488 15.829034 52.047127 41 25 23
2.375337 15.987326 52.197628 42 24 24
2.382317 16.147160 52.351025 43 24 25
2.389449 16.308687 52.507744 43 24 25
2.396750 16.472054 52.668182 43 24 25
2.404236 16.637388 52.832676 43 23 25
2.411916 16.804790 53.001450 46 25 27
2.419794 16.974304 53.174561 53 31 33
2.427865 17.145927 53.351913 61 38 41
2.436113 17.319580 53.533180 69 44 47
2.444517 17.495129 53.717861 73 47 50
2.453042 17.672338 53.905186 75 47 50
2.461644 17.850920 54.094215 75 47 51
2.470271 18.030495 54.283787 76 47 51
2.478864 18.210642 54.472622 76 48 51
2.487360 18.390882 54.659321 76 48 51
2.495691 18.570700 54.842384 75 48 50
2.503789 18.749565 55.020344 73 47 49
2.511590 18.926958 55.191772 71 46 48
2.519034 19.102379 55.355343 69 44 46
2.526067 19.275372 55.509888 67 42 45
2.532645 19.445539 55.654446 65 41 44
2.538736 19.612566 55.788292 65 41 44
2.544317 19.776211 55.910946 65 41 44
2.549380 19.936323 56.022186 65 41 44
2.553923 20.092836 56.122036 66 42 45
2.557960 20.245764 56.210735 66 42 45
2.561508 20.395189 56.288715 66 42 45
2.564595 20.541246 56.356529 66 42 45
2.567248 20.684111 56.414841 65 42 44
2.569500 20.823977 56.464333 62 41 42
2.571383 20.961040 56.505703 61 40 41
2.572926 21.095499 56.539612 60 41 41
2.574155 21.227512 56.566616 60 42 41
2.582469 0.827371 54.182682 56 28 27
2.585851 0.945407 54.253628 56 28 27
2.588986 1.063647 54.319405 56 27 26
2.591864 1.182054 54.379791 55 26 26
2.594475 1.300587 54.434563 55 26 26
2.596809 1.419206 54.483540 54 25 26
2.598860 1.537867 54.526566 54 24 25
2.600621 1.656530 54.563515 55 24 25
2.602089 1.775152 54.594318 55 24 24
2.603262 1.893692 54.618931 55 24 24
2.604141 2.012111 54.637360 54 24 24
2.604726 2.130370 54.649651 53 24 23
2.605024 2.248433 54.655899 51 24 23
2.605041 2.366268 54.656242 49 24 23
2.604783 2.483843 54.650841 47 24 22
2.604261 2.601130 54.639893 45 24 22
2.603487 2.718108 54.623657 44 24 22
2.602475 2.834755 54.602413 43 24 23
2.601239 2.951057 54.576485 44 24 23
2.599798 3.067005 54.546242 45 23 23
2.598171 3.182596 54.512108 46 23 23
2.596380 3.297831 54.474541 47 22 23
2.594449 3.412719 54.434017 47 22 23
2.592402 3.527276 54.391071 47 22 23
2.590265 3.641521 54.346241 47 22 23
2.588064 3.755480 54.300068 47 23 23
2.585825 3.869181 54.253086 46 23 23
2.583570 3.982657 54.205776 45 24 24
2.581321 4.095937 54.158581 45 24 24
2.579095 4.209052 54.111877 45 24 24
2.576905 4.322026 54.065937 44 24 23
2.574761 4.434880 54.020943 42 24 23
2.572665 4.547627 53.976971 42 25 23
2.570617 4.660271 53.934006 41 24 23
2.568612 4.772808 53.891930 40 24 23
2.566639 4.885227 53.850552 39 25 23
2.564689 4.997509 53.809624 39 25 23
2.562745 5.109630 53.768848 39 25 23
2.560795 5.221560 53.727928 39 25 23
2.558824 5.333272 53.686581 39 24 22
2.556820 5.444735 53.644535 38 24 21
2.554774 5.555924 53.601604 39 23 21
2.552678 5.666819 53.557636 39 23 21
2.550531 5.777407 53.512573 39 23 21
2.548331 5.887680 53.466431 39 23 21
2.546084 5.997642 53.419281 39 22 22
2.543796 6.107302 53.371265 39 22 22
2.541474 6.216674 53.322567 39 23 22
2.539131 6.325781 53.273396 39 23 22
2.536775 6.434645 53.223965 38 23 22
2.534417 6.543290 53.174492 37 23 21
2.532065 6.651738 53.125145 36 22 21
2.529727 6.760009 53.076088 36 22 21
2.527407 6.868119 53.027409 37 22 21
2.525107 6.976075 52.979160 37 22 20
2.522829 7.083882 52.931358 37 21 20
2.520569 7.191539 52.883957 37 20 20
2.518327 7.299039 52.836906 37 21 20
2.516096 7.406372 52.790108 37 21 20
2.513874 7.513527 52.743481 37 22 20
2.511655 7.620492 52.696930 37 22 20
2.509436 7.727257 52.650375 37 22 19
2.507215 7.833814 52.603775 36 22 18
2.504991 7.940157 52.557098 34 21 18
2.502762 8.046289 52.510345 34 20 18
2.500532 8.152212 52.463551 33 20 17
2.498302 8.257936 52.416775 33 20 17
2.496077 8.363473 52.370079 32 21 18
2.493860 8.468838 52.323578 32 21 19
2.491657 8.574049 52.277355 33 22 20
2.489472 8.679122 52.231499 33 22 21
2.487308 8.784072 52.186092 33 22 21
2.485168 8.888915 52.141201 33 22 21
2.483054 8.993658 52.096855 33 21 21
2.480967 9.098308 52.053062 32 21 21
2.478905 9.202861 52.009796 32 21 20
2.476864 9.307307 51.966980 32 20 20
2.474839 9.411630 51.924492 32 19 19
2.472822 9.515800 51.882179 32 19 19
2.470804 9.619785 51.839844 33 20 18
2.468774 9.723537 51.797245 34 21 18
2.466718 9.827003 51.754097 35 22 19
2.464621 9.930117 51.710094 35 22 20
2.462466 10.032808 51.664894 35 22 20
2.460237 10.134998 51.618130 34 22 19
2.457915 10.236599 51.569408 32 22 19
2.455481 10.337518 51.518341 31 22 20
2.452917 10.437664 51.464546 29 22 20
2.450205 10.536940 51.407639 29 22 20
2.447327 10.635250 51.347252 29 22 21
2.444268 10.732508 51.283081 29 22 21
2.441016 10.828630 51.214855 29 22 21
2.437562 10.923554 51.142387 29 22 22
2.433900 11.017223 51.065552 28 22 22
2.430031 11.109613 50.984367 29 22 22
2.425960 11.200724 50.898960 30 22 22
2.421700 11.290586 50.809593 30 23 22
2.417273 11.379270 50.716690 31 23 22
2.412704 11.466884 50.620834 32 22 23
2.408031 11.553584 50.522789 31 22 23
2.403297 11.639568 50.423470 31 23 23
2.398553 11.725076 50.323944 31 23 22
2.393859 11.810397 50.225452 31 24 22
2.389277 11.895853 50.129318 32 25 23
2.384875 11.981800 50.036964 33 26 24
2.380723 12.068613 49.949841 35 27 25
2.376889 12.156680 49.869408 35 28 25
2.373442 12.246395 49.797081 34 26 23
2.370445 12.338140 49.734196 33 24 22
2.367954 12.432277 49.681953 33 24 21
2.366022 12.529140 49.641399 33 23 20
2.364686 12.629015 49.613373 33 23 20
2.363977 12.732146 49.598499 33 23 19
2.363914 12.838721 49.597172 33 23 19
2.364504 12.948870 49.609562 33 23 19
2.365744 13.062656 49.635571 33 23 19
2.367619 13.180093 49.674915 33 23 19
2.370105 13.301126 49.727074 33 23 19
2.373169 13.425657 49.791367 33 23 20
2.376773 13.553537 49.866962 34 23 21
2.380869 13.684579 49.952908 34 24 21
2.385410 13.818564 50.048176 34 24 22
2.390343 13.955256 50.151691 34 24 22
2.395620 14.094410 50.262398 34 24 22
2.401189 14.235774 50.379242 34 24 22
2.407004 14.379116 50.501255 35 23 21
2.413024 14.524212 50.627552 36 23 21
2.419211 14.670871 50.757370 36 24 21
2.425538 14.818938 50.890106 37 25 21
2.431981 14.968294 51.025280 38 26 21
2.438525 15.118865 51.162598 39 27 22
2.445166 15.270624 51.301914 39 27 23
2.451902 15.423587 51.443245 40 27 23
2.458740 15.577809 51.586727 41 26 23
2.465695 15.733388 51.732639 41 25 23
2.472781 15.890443 51.881313 41 24 24
2.480019 16.049118 52.033165 42 23 24
2.487427 16.209560 52.188595 42 23 24
2.495024 16.371914 52.347992 43 22 24
2.502825 16.536297 52.511658 43 22 24
2.510838 16.702803 52.679787 45 23 26
2.519066 16.871468 52.852413 51 28 32
2.527501 17.042276 53.029392 60 36 40
2.536127 17.215145 53.210381 68 43 48
2.544918 17.389917 53.394817 73 47 51
2.553835 17.566355 53.581905 75 47 52
2.562831 17.744144 53.770657 75 47 52
2.571851 17.922911 53.959888 76 47 51
2.580831 18.102217 54.148296 76 48 51
2.589703 18.281572 54.334442 76 48 51
2.598397 18.460466 54.516850 75 47 49
2.606841 18.638359 54.694016 73 46 47
2.614969 18.814741 54.864544 70 45 46
2.622717 18.989113 55.027119 68 44 45
2.630033 19.161034 55.180614 67 43 45
2.636873 19.330122 55.324108 66 42 46
2.643203 19.496073 55.456924 66 42 46
2.649004 19.658669 55.578636 66 43 46
2.654267 19.817776 55.689064 67 43 46
2.658997 19.973349 55.788292 67 43 47
2.663206 20.125420 55.876614 66 43 46
2.666918 20.274086 55.954483 65 43 46
2.670159 20.419495 56.022495 64 43 45
2.672962 20.561825 56.081310 62 43 45
2.675361 20.701279 56.131641 59 44 45
2.677387 20.838049 56.174152 58 44 44
2.700924 1.061621 54.215908 55 27 26
2.703892 1.179787 54.275471 55 26 26
2.706612 1.298091 54.330070 55 26 26
2.709074 1.416496 54.379501 55 25 26
2.711271 1.534963 54.423588 54 24 26
2.713193 1.653453 54.462170 55 24 25
2.714835 1.771927 54.495129 55 24 24
2.716192 1.890345 54.522366 55 24 24
2.717261 2.008667 54.543827 55 24 23
2.718040 2.126854 54.559467 53 25 23
2.718531 2.244872 54.569336 52 24 23
2.718738 2.362684 54.573475 50 25 23
2.718663 2.480259 54.571987 49 25 22
2.718315 2.597565 54.564995 47 25 23
2.717703 2.714577 54.552700 46 24 23
2.716837 2.831272 54.535332 46 24 23
2.715734 2.947634 54.513172 46 23 23
2.714407 3.063649 54.486553 47 23 23
2.712879 3.179313 54.455872 48 22 22
2.711170 3.294624 54.421566 49 22 22
2.709304 3.409591 54.384121 50 22 22
2.707309 3.524227 54.344063 49 22 22
2.705210 3.638552 54.301941 49 23 22
2.703037 3.752592 54.258320 48 23 22
2.700816 3.866374 54.213726 48 24 23
2.698572 3.979932 54.168690 47 24 23
2.696329 4.093296 54.123661 46 25 23
2.694106 4.206497 54.079037 45 25 23
2.691917 4.319561 54.035103 44 25 23
2.689772 4.432508 53.992054 42 25 22
2.687676 4.545352 53.949978 42 25 22
2.685628 4.658098 53.908859 41 25 23
2.683621 4.770740 53.868580 40 25 23
2.681647 4.883266 53.828945 39 24 22
2.679691 4.995658 53.789688 38 25 22
2.677739 5.107886 53.750500 39 25 22
2.675774 5.219922 53.711067 39 25 22
2.673783 5.331733 53.671089 38 25 22
2.671750 5.443289 53.630287 38 24 21
2.669666 5.554561 53.588448 39 23 22
2.667522 5.665526 53.545414 39 23 22
2.665316 5.776171 53.501133 39 22 22
2.663047 5.886487 53.455597 39 22 21
2.660721 5.996477 53.408897 39 22 22
2.658344 6.106147 53.361179 39 22 22
2.655925 6.215516 53.312626 39 23 22
2.653476 6.324603 53.263470 39 23 22
2.651009 6.433434 53.213947 38 23 21
2.648535 6.542033 53.164280 37 22 21
2.646063 6.650425 53.114662 36 22 20
2.643601 6.758630 53.065262 35 22 20
2.641157 6.866665 53.016186 36 21 20
2.638731 6.974539 52.967499 36 21 20
2.636326 7.082256 52.919209 36 21 20
2.633938 7.189815 52.871284 36 21 20
2.631565 7.297208 52.823650 37 20 20
2.629202 7.404423 52.776218 37 20 20
2.626844 7.511447 52.728878 37 21 20
2.624485 7.618265 52.681526 37 22 20
2.622120 7.724861 52.634052 37 22 20
2.619745 7.831224 52.586388 35 22 19
2.617358 7.937346 52.538483 34 21 19
2.614959 8.043220 52.490314 33 21 18
2.612547 8.148848 52.441898 32 20 17
2.610124 8.254232 52.393265 32 20 17
2.607694 8.359384 52.344479 31 20 18
2.605260 8.464315 52.295631 30 21 19
2.602828 8.569040 52.246815 31 21 20
2.600402 8.673574 52.198116 32 22 21
2.597987 8.777935 52.149632 32 22 21
2.595586 8.882137 52.101440 32 22 21
2.593203 8.986191 52.053600 33 22 22
2.590838 9.090105 52.006138 32 21 21
2.588493 9.193882 51.959057 33 21 21
2.586164 9.297517 51.912312 33 20 20
2.583848 9.400994 51.865818 33 20 20
2.581538 9.504296 51.819454 33 20 19
2.579227 9.607392 51.773060 33 20 18
2.576903 9.710240 51.726410 33 20 17
2.574554 9.812794 51.679272 34 21 18
2.572167 9.914993 51.631344 34 21 19
2.569724 10.016772 51.582314 34 22 20
2.567209 10.118054 51.531834 33 22 20
2.564603 10.218755 51.479515 32 22 20
2.561887 10.318786 51.424988 31 21 20
2.559040 10.418054 51.367859 29 21 20
2.556045 10.516463 51.307735 28 21 20
2.552883 10.613917 51.244259 28 21 20
2.549537 10.710326 51.177094 28 21 20
2.545993 10.805605 51.105953 28 21 21
2.542240 10.899684 51.030628 28 21 22
2.538272 10.992502 50.950970 28 21 22
2.534086 11.084029 50.866955 29 22 22
2.529689 11.174256 50.778687 29 22 21
2.525091 11.263209 50.686394 29 22 21
2.520312 11.350946 50.590454 30 22 21
2.515379 11.437572 50.491432 30 22 22
2.510328 11.523229 50.390045 31 22 23
2.505203 11.608108 50.287178 31 23 22
2.500058 11.692445 50.183891 30 23 22
2.494951 11.776518 50.081375 30 24 22
2.489947 11.860643 49.980946 31 24 22
2.485118 11.945173 49.884010 32 25 23
2.480535 12.030477 49.792004 33 27 25
2.476270 12.116943 49.706398 34 27 25
2.472394 12.204961 49.628597 33 25 24
2.468975 12.294914 49.559956 32 24 22
2.466072 12.387170 49.501694 32 23 21
2.463739 12.482059 49.454865 32 23 20
2.462019 12.579879 49.420341 32 23 20
2.460945 12.680880 49.398785 32 23 19
2.460539 12.785254 49.390625 32 23 19
2.460809 12.893140 49.396049 32 23 18
2.461755 13.004617 49.415035 32 23 18
2.463363 13.119703 49.447311 33 23 18
2.465610 13.238362 49.492428 33 22 19
2.468465 13.360501 49.549725 33 23 19
2.471887 13.485986 49.618423 33 23 20
2.475832 13.614638 49.697605 33 23 20
2.480250 13.746255 49.786285 33 23 21
2.485089 13.880609 49.883430 34 23 21
2.490299 14.017463 49.987995 34 23 20
2.495827 14.156580 50.098976 34 23 20
2.501628 14.297729 50.215408 35 23 20
2.507657 14.440697 50.336437 35 23 20
2.513879 14.585301 50.461323 36 24 20
2.520262 14.731391 50.589455 36 24 20
2.526784 14.878850 50.720375 37 26 20
