ply
format ascii 1.0
element vertex 1267
property float x
property float y
property float z
property uchar red
property uchar green
property uchar blue
end_header
5.007007 13.098767 62.589767 40 30 30
4.997822 13.209414 62.474953 41 29 30
4.988389 13.318902 62.357033 41 30 31
4.978711 13.427222 62.236053 42 30 31
4.968790 13.534358 62.112034 42 30 32
4.958620 13.640276 61.984913 42 30 32
4.948192 13.744928 61.854557 41 30 32
4.937490 13.848249 61.720776 40 29 31
4.926492 13.950155 61.583294 38 29 31
4.915171 14.050546 61.441776 37 29 30
4.903497 14.149308 61.295845 36 28 30
4.891435 14.246310 61.145065 35 28 29
4.878946 14.341409 60.988953 34 28 27
4.865989 14.434445 60.826988 33 27 27
4.852523 14.525257 60.658646 33 27 26
4.838503 14.613674 60.483398 34 27 26
4.823890 14.699527 60.300728 34 27 26
4.808643 14.782643 60.110138 34 27 26
4.792728 14.862864 59.911182 34 27 27
4.776111 14.940034 59.703468 33 27 27
4.758767 15.014014 59.486664 33 27 27
4.740675 15.084678 59.260498 32 27 27
4.721820 15.151920 59.024807 32 26 27
4.702195 15.215655 58.779488 32 26 27
4.681799 15.275816 58.524532 32 25 26
4.660638 15.332359 58.260006 32 24 26
4.638726 15.385273 57.986095 32 24 25
4.616086 15.434569 57.703079 32 23 24
4.592749 15.480299 57.411362 31 23 23
4.568756 15.522543 57.111443 31 23 23
4.544159 15.561422 56.803967 30 22 22
4.519018 15.597101 56.489697 29 22 22
4.493408 15.629790 56.169552 28 22 21
4.467410 15.659743 55.844570 27 22 22
4.441119 15.687258 55.515919 27 23 23
4.414637 15.712674 55.184879 27 23 24
4.388072 15.736372 54.852818 26 23 24
4.361544 15.758763 54.521194 26 23 24
4.335166 15.780279 54.191471 26 23 23
5.168071 -11.650974 62.907974 58 41 42
5.165023 -11.508574 62.870872 58 41 41
5.162340 -11.367138 62.838215 58 41 41
5.160067 -11.226734 62.810543 59 41 42
5.158244 -11.087419 62.788361 61 41 42
5.156910 -10.949236 62.772121 62 41 43
5.156097 -10.812215 62.762222 64 42 44
5.155832 -10.676373 62.759003 65 43 44
5.156138 -10.541711 62.762726 65 44 45
5.157032 -10.408218 62.773602 63 44 45
5.158522 -10.275868 62.791744 62 44 45
5.160614 -10.144622 62.817200 61 44 44
5.163303 -10.014426 62.849937 61 43 44
5.166582 -9.885215 62.889843 60 43 45
5.170431 -9.756909 62.936699 60 41 45
5.174827 -9.629420 62.990215 59 39 43
5.179739 -9.502645 63.050003 58 37 40
5.185129 -9.376478 63.115612 57 36 38
5.190953 -9.250800 63.186501 58 38 39
5.197161 -9.125492 63.262066 60 40 41
5.203700 -9.000431 63.341667 61 42 42
5.210515 -8.875497 63.424625 61 43 42
5.217548 -8.750569 63.510231 61 43 43
5.224741 -8.625537 63.597778 62 44 45
5.232035 -8.500293 63.686577 63 43 46
5.239379 -8.374744 63.775963 63 43 47
5.246719 -8.248805 63.865311 64 43 48
5.254008 -8.122401 63.954037 64 42 48
5.261201 -7.995469 64.041588 63 41 48
5.268257 -7.867955 64.127487 63 40 47
5.275139 -7.739815 64.211250 62 39 46
5.281810 -7.611010 64.292450 63 39 45
5.288234 -7.481506 64.370651 63 38 44
5.294376 -7.351273 64.445419 64 39 43
5.300199 -7.220283 64.516296 65 40 42
5.305661 -7.088504 64.582779 66 41 43
5.310716 -6.955906 64.644310 67 42 43
5.315316 -6.822459 64.700294 67 43 44
5.319404 -6.688127 64.750061 67 43 44
5.322922 -6.552878 64.792885 67 43 44
5.325807 -6.416683 64.828003 68 43 45
5.327994 -6.279514 64.854630 69 44 46
5.329420 -6.141352 64.871979 70 44 48
5.330022 -6.002188 64.879318 72 45 50
5.329745 -5.862026 64.875946 73 46 51
5.328543 -5.720884 64.861313 73 47 51
5.326382 -5.578801 64.834999 73 47 51
5.323243 -5.435833 64.796791 73 48 51
5.319125 -5.292056 64.746666 72 48 51
5.314049 -5.147567 64.684875 71 47 50
5.308056 -5.002481 64.611931 70 45 48
5.301209 -4.856926 64.528587 69 44 47
5.293591 -4.711045 64.435860 69 43 46
5.285307 -4.564988 64.335022 70 43 47
5.276474 -4.418906 64.227509 70 43 47
5.267225 -4.272950 64.114922 70 44 46
5.257699 -4.127262 63.998974 70 44 46
5.248042 -3.981974 63.881420 68 43 44
5.238395 -3.837201 63.763992 65 41 42
5.228897 -3.693039 63.648373 65 41 42
5.219675 -3.549563 63.536118 64 40 42
5.210845 -3.406827 63.428631 64 40 41
5.202505 -3.264863 63.327122 63 40 40
5.194739 -3.123681 63.232586 63 40 41
5.187609 -2.983273 63.145794 63 41 42
5.181160 -2.843612 63.067303 63 42 43
5.175421 -2.704661 62.997440 63 43 44
5.170403 -2.566369 62.936359 63 43 44
5.166104 -2.428679 62.884029 63 43 44
5.162511 -2.291527 62.840302 62 42 44
5.159603 -2.154850 62.804893 61 41 43
5.157350 -2.018582 62.777477 60 40 42
5.155722 -1.882661 62.757656 60 39 41
5.154686 -1.747025 62.745045 59 39 40
5.154209 -1.611619 62.739235 59 39 40
5.154260 -1.476389 62.739857 59 38 40
5.154811 -1.341286 62.746567 59 38 40
5.155838 -1.206266 62.759064 58 36 40
5.157318 -1.071286 62.777081 57 36 39
5.159234 -0.936307 62.800400 57 37 39
5.161569 -0.801293 62.828823 57 38 40
5.164310 -0.666209 62.862190 58 39 42
5.167443 -0.531021 62.900333 58 40 42
5.170959 -0.395699 62.943123 59 40 42
5.174843 -0.260210 62.990406 60 41 42
5.179085 -0.124526 63.042038 60 40 42
5.183671 0.011382 63.097858 60 39 41
5.188586 0.147539 63.157692 61 39 41
5.193816 0.283972 63.221352 63 38 40
5.199342 0.420703 63.288620 64 39 41
5.205146 0.557754 63.359264 64 39 41
5.211205 0.695143 63.433018 64 40 41
5.217495 0.832888 63.509583 63 40 41
5.223989 0.971000 63.588627 63 40 41
5.230655 1.109490 63.669773 61 39 40
5.237460 1.248362 63.752609 60 38 39
5.244364 1.387618 63.836651 59 39 39
5.251326 1.527253 63.921387 59 40 40
5.258295 1.667256 64.006218 59 40 39
5.265220 1.807609 64.090508 58 39 39
5.272043 1.948288 64.173561 58 38 39
5.278704 2.089261 64.254646 57 37 38
5.285139 2.230488 64.332977 57 37 38
5.291282 2.371922 64.407753 59 38 40
5.297068 2.513509 64.478172 61 40 41
5.302432 2.655188 64.543472 63 41 43
5.307312 2.796894 64.602882 63 42 44
5.311656 2.938559 64.655746 63 42 43
5.315410 3.080110 64.701447 63 41 42
5.318536 3.221478 64.739502 62 40 42
5.321002 3.362594 64.769524 61 40 41
5.322790 3.503392 64.791283 60 40 41
5.323890 3.643813 64.804672 59 40 42
5.324308 3.783806 64.809753 59 40 42
5.324058 3.923330 64.806709 58 40 42
5.323167 4.062352 64.795876 58 40 42
5.321675 4.200852 64.777702 58 40 42
5.319628 4.338821 64.752785 59 39 42
5.317082 4.476263 64.721794 60 39 42
5.314098 4.613192 64.685478 62 39 42
5.310745 4.749632 64.644661 62 38 41
5.307091 4.885621 64.600182 62 38 40
5.303207 5.021199 64.552902 61 37 39
5.299165 5.156421 64.503708 60 37 38
5.295035 5.291342 64.453430 59 37 38
5.290882 5.426023 64.402878 59 38 38
5.286767 5.560526 64.352798 59 38 39
5.282747 5.694914 64.303856 59 38 39
5.278870 5.829250 64.256660 60 39 40
5.275177 5.963592 64.211716 59 39 39
5.271702 6.097991 64.169418 59 39 39
5.268472 6.232497 64.130089 59 38 39
5.265502 6.367149 64.093941 59 38 39
5.262803 6.501979 64.061089 59 38 39
5.260376 6.637012 64.031555 58 38 39
5.258219 6.772264 64.005295 58 39 40
5.256322 6.907744 63.982201 57 39 40
5.254671 7.043456 63.962109 56 39 40
5.253251 7.179395 63.944817 55 39 40
5.252042 7.315555 63.930103 53 39 39
5.251026 7.451925 63.917736 52 39 38
5.250185 7.588495 63.907505 52 38 37
5.249503 7.725254 63.899197 51 38 37
5.248963 7.862191 63.892632 52 39 37
5.248555 7.999299 63.887657 52 39 36
5.248266 8.136572 63.884140 52 39 36
5.248088 8.274004 63.881977 53 39 36
5.248014 8.411593 63.881073 54 40 37
5.248037 8.549337 63.881355 55 40 38
5.248152 8.687234 63.882751 55 41 38
5.248351 8.825277 63.885174 56 42 39
5.248625 8.963461 63.888512 55 41 39
5.248963 9.101770 63.892632 54 40 38
5.249352 9.240185 63.897362 53 39 37
5.249773 9.378677 63.902477 53 39 38
5.250203 9.517209 63.907719 52 38 39
5.250617 9.655733 63.912750 52 38 40
5.250984 9.794193 63.917225 52 38 40
5.251271 9.932521 63.920723 52 38 40
5.251441 10.070638 63.922787 51 38 39
5.251452 10.208456 63.922928 51 37 37
5.251265 10.345882 63.920643 50 37 36
5.250834 10.482815 63.915405 49 36 35
5.250119 10.619147 63.906693 48 35 35
5.249075 10.754770 63.893990 47 35 34
5.247664 10.889576 63.876812 46 35 34
5.245850 11.023460 63.854725 45 35 33
5.243599 11.156321 63.827332 45 35 33
5.240886 11.288069 63.794312 45 35 33
5.237690 11.418620 63.755413 45 35 33
5.233997 11.547907 63.710453 45 34 33
5.229799 11.675874 63.659359 45 33 33
5.225098 11.802482 63.602131 45 33 32
5.219900 11.927709 63.538857 45 33 32
5.214217 12.051543 63.469688 44 33 32
5.208069 12.173992 63.394852 43 32 32
5.201477 12.295067 63.314610 41 31 32
5.194467 12.414797 63.229271 42 32 33
5.187064 12.533211 63.139164 42 32 33
5.179296 12.650345 63.044609 41 32 32
5.171190 12.766236 62.945942 40 31 31
5.162770 12.880919 62.843445 40 31 30
5.154058 12.994422 62.737392 41 31 30
5.145071 13.106769 62.627998 41 30 30
5.135823 13.217974 62.515434 41 30 30
5.126325 13.328042 62.399826 42 31 31
5.116579 13.436960 62.281189 42 31 32
5.106585 13.544708 62.159534 42 32 33
5.096336 13.651252 62.034786 41 31 33
5.085823 13.756540 61.906815 40 31 32
5.075027 13.860504 61.775394 40 31 32
5.063924 13.963059 61.640259 39 30 31
5.052489 14.064102 61.501057 37 29 30
5.040687 14.163517 61.357403 36 28 29
5.028483 14.261170 61.208847 35 28 28
5.015834 14.356913 61.054886 34 27 27
5.002697 14.450580 60.894974 33 27 26
4.989027 14.542002 60.728573 33 27 26
4.974776 14.630999 60.555099 33 27 25
4.959898 14.717389 60.374004 33 27 25
4.944350 14.800990 60.184742 33 27 25
4.928090 14.881628 59.986820 33 27 26
4.911081 14.959131 59.779781 32 27 27
4.893292 15.033343 59.563244 32 27 27
4.874696 15.104121 59.336884 31 27 27
4.855274 15.171345 59.100471 31 26 27
4.835015 15.234911 58.853874 31 26 26
4.813914 15.294739 58.597027 31 25 26
4.791976 15.350778 58.329990 32 25 26
4.769215 15.403004 58.052921 32 24 25
4.745652 15.451429 57.766109 32 24 24
4.721323 15.496103 57.469971 31 24 23
4.696272 15.537110 57.165043 31 24 23
4.670557 15.574585 56.852013 29 22 22
4.644243 15.608705 56.531719 27 21 21
4.617415 15.639696 56.205151 27 21 21
4.590163 15.667835 55.873428 26 22 21
4.562591 15.693444 55.537811 26 22 22
4.534812 15.716889 55.199684 26 23 24
4.506948 15.738574 54.860497 26 23 24
4.479121 15.758933 54.521778 26 23 24
4.451462 15.778426 54.185108 26 23 24
5.296609 -11.635443 62.824116 59 40 41
5.293662 -11.493616 62.789158 59 40 41
5.291059 -11.352680 62.758289 60 40 41
5.288850 -11.212709 62.732079 61 40 42
5.287076 -11.073766 62.711044 62 41 42
5.285782 -10.935905 62.695694 63 41 42
5.285004 -10.799163 62.686462 65 42 43
5.284774 -10.663568 62.683735 65 43 44
5.285120 -10.529134 62.687843 65 44 44
5.286065 -10.395857 62.699043 64 44 44
5.287621 -10.263721 62.717510 63 44 44
5.289801 -10.132697 62.743359 62 44 44
5.292603 -10.002740 62.776596 61 43 44
5.296023 -9.873791 62.817162 60 42 45
5.300047 -9.745777 62.864887 60 41 45
5.304653 -9.618612 62.919518 58 39 42
5.309811 -9.492200 62.980698 57 37 40
5.315484 -9.366433 63.047993 56 36 38
5.321629 -9.241193 63.120876 57 37 38
5.328195 -9.116361 63.198761 58 39 40
5.335128 -8.991810 63.280991 59 41 41
5.342368 -8.867414 63.366867 60 42 41
5.349855 -8.743052 63.455669 60 43 43
5.357525 -8.618603 63.546650 61 43 44
5.365317 -8.493953 63.639076 60 42 45
5.373171 -8.369001 63.732231 61 42 47
5.381030 -8.243655 63.825443 62 42 48
5.388837 -8.117831 63.918053 63 41 48
5.396544 -7.991457 64.009460 62 40 48
5.404102 -7.864473 64.099106 62 39 47
5.411467 -7.736827 64.186462 62 39 46
5.418597 -7.608474 64.271027 63 38 45
5.425452 -7.479377 64.352341 64 38 44
5.431992 -7.349505 64.429916 65 39 44
5.438177 -7.218825 64.503273 66 40 44
5.443963 -7.087310 64.571899 66 41 44
5.449303 -6.954931 64.635239 67 42 44
5.454149 -6.821660 64.692719 68 43 45
5.458447 -6.687469 64.743698 67 42 45
5.462139 -6.552333 64.787491 66 42 45
5.465164 -6.416225 64.823380 66 42 45
5.467464 -6.279130 64.850662 67 42 46
5.468976 -6.141031 64.868591 69 44 48
5.469643 -6.001927 64.876495 71 46 50
5.469411 -5.861827 64.873749 73 47 51
5.468240 -5.720756 64.859856 73 48 51
5.466096 -5.578752 64.834427 73 48 51
5.462963 -5.435874 64.797272 73 48 51
5.458843 -5.292198 64.748398 72 48 50
5.453757 -5.147821 64.688072 71 48 50
5.447744 -5.002854 64.616753 70 47 49
5.440869 -4.857424 64.535210 70 46 48
5.433214 -4.711669 64.444405 70 45 48
5.424881 -4.565736 64.345566 71 45 48
5.415987 -4.419771 64.240074 71 45 48
5.406663 -4.273921 64.129486 71 45 47
5.397049 -4.128325 64.015450 71 44 46
5.387288 -3.983112 63.899666 68 44 44
5.377522 -3.838395 63.783829 66 42 42
5.367888 -3.694268 63.669563 65 41 41
5.358515 -3.550807 63.558395 64 40 41
5.349522 -3.408067 63.451717 63 40 41
5.341006 -3.266080 63.350719 63 40 41
5.333054 -3.124857 63.256390 63 41 41
5.325729 -2.984393 63.169514 63 41 42
5.319082 -2.844666 63.090664 63 42 43
5.313141 -2.705638 63.020199 63 43 44
5.307922 -2.567264 62.958302 63 43 44
5.303427 -2.429488 62.904984 63 43 43
5.299646 -2.292251 62.860138 62 42 43
5.296561 -2.155490 62.823540 61 41 42
5.294146 -2.019142 62.794895 60 40 41
5.292373 -1.883147 62.773872 60 40 40
5.291213 -1.747444 62.760105 59 39 40
5.290635 -1.611979 62.753250 59 39 40
5.290609 -1.476697 62.752949 59 38 40
5.291111 -1.341550 62.758892 59 38 40
5.292115 -1.206491 62.770802 59 37 39
5.293600 -1.071479 62.788414 58 37 39
5.295547 -0.936473 62.811516 57 37 39
5.297940 -0.801434 62.839893 58 39 40
5.300763 -0.666328 62.873379 58 41 42
5.304000 -0.531118 62.911777 59 42 43
5.307638 -0.395773 62.954926 59 42 43
5.311660 -0.260260 63.002640 60 42 43
5.316053 -0.124551 63.054745 61 41 43
5.320799 0.011384 63.111034 62 40 42
5.325880 0.147571 63.171295 62 40 42
5.331276 0.284035 63.235302 63 39 40
5.336968 0.420797 63.302814 63 38 40
5.342933 0.557880 63.373569 63 39 39
5.349146 0.695300 63.447269 63 39 39
5.355583 0.833072 63.523609 62 39 39
5.362213 0.971208 63.602249 61 39 40
5.369006 1.109717 63.682819 60 39 39
5.375926 1.248603 63.764896 60 38 39
5.382935 1.387866 63.848038 59 39 39
5.389991 1.527500 63.931736 59 39 39
5.397048 1.667496 64.015427 58 39 39
5.404052 1.807835 64.098511 58 38 38
5.410949 1.948493 64.180321 57 37 38
5.417681 2.089441 64.260170 56 36 37
5.424185 2.230638 64.337311 55 35 36
5.430396 2.372041 64.410980 57 36 37
5.436250 2.513596 64.480415 60 38 40
5.441684 2.655246 64.544876 63 40 42
5.446638 2.796927 64.603638 63 41 43
5.451056 2.938572 64.656036 63 41 43
5.454889 3.080113 64.701500 63 41 43
5.458095 3.221480 64.739525 63 41 43
5.460642 3.362605 64.769737 62 40 42
5.462510 3.503425 64.791901 61 41 42
5.463689 3.643880 64.805878 60 40 42
5.464181 3.783921 64.811722 59 40 43
5.464000 3.923503 64.809570 59 40 43
5.463171 4.062594 64.799736 58 39 42
5.461730 4.201172 64.782639 58 38 42
5.459722 4.339226 64.758827 58 38 41
5.457201 4.476756 64.728928 59 38 41
5.454228 4.613775 64.693657 62 38 41
5.450867 4.750304 64.653801 62 38 41
5.447189 4.886376 64.610168 61 38 40
5.443263 5.022031 64.563606 60 37 39
5.439161 5.157319 64.514946 60 37 38
5.434950 5.292292 64.465004 59 37 38
5.430700 5.427010 64.414597 59 38 38
5.426471 5.561531 64.364426 59 38 39
5.422319 5.695918 64.315186 59 39 39
5.418296 5.830230 64.267456 59 39 39
5.414443 5.964525 64.221764 59 39 39
5.410797 6.098855 64.178513 59 39 38
5.407383 6.233268 64.138031 59 38 39
5.404223 6.367805 64.100540 59 38 39
5.401328 6.502498 64.066200 59 39 39
5.398702 6.637374 64.035049 59 39 40
5.396344 6.772453 64.007088 59 40 41
5.394248 6.907747 63.982220 58 40 41
5.392403 7.043261 63.960339 57 40 41
5.390795 7.178997 63.941265 55 40 40
5.389410 7.314952 63.924835 54 39 39
5.388231 7.451123 63.910854 53 39 39
5.387243 7.587502 63.899143 52 39 38
5.386433 7.724084 63.889523 52 39 38
5.385786 7.860866 63.881859 52 39 37
5.385293 7.997840 63.876007 52 39 37
5.384944 8.135009 63.871872 52 39 37
5.384731 8.272367 63.869343 52 39 36
5.384647 8.409917 63.868347 53 39 36
5.384685 8.547655 63.868790 54 40 37
5.384837 8.685580 63.870594 55 41 38
5.385094 8.823686 63.873646 56 42 39
5.385445 8.961960 63.877811 55 42 39
5.385875 9.100386 63.882912 54 40 38
5.386367 9.238938 63.888744 53 39 38
5.386897 9.377585 63.895039 52 39 38
5.387441 9.516282 63.901489 52 38 39
5.387968 9.654975 63.907730 52 38 40
5.388443 9.793602 63.913368 52 38 40
5.388829 9.932091 63.917953 52 38 40
5.389087 10.070358 63.921013 51 38 39
5.389173 10.208312 63.922024 51 37 37
5.389043 10.345858 63.920486 50 37 36
5.388654 10.482891 63.915871 49 36 35
5.387962 10.619308 63.907661 48 36 34
5.386925 10.755002 63.895367 47 36 34
5.385505 10.889867 63.878521 46 36 33
5.383666 11.023803 63.856712 46 35 33
5.381380 11.156715 63.829590 46 35 34
5.378620 11.288519 63.796856 46 35 34
5.375369 11.419138 63.758301 46 35 34
5.371615 11.548508 63.713772 45 34 33
5.367353 11.676582 63.663223 45 33 33
5.362586 11.803327 63.606682 45 34 33
5.357324 11.928724 63.544266 45 34 33
5.351579 12.052765 63.476124 45 34 33
5.345372 12.175460 63.402496 45 33 33
5.338724 12.296822 63.323643 44 33 33
5.331661 12.416878 63.239872 43 33 33
5.324210 12.535658 63.151489 42 32 32
5.316397 12.653195 63.058815 42 32 32
5.308247 12.769524 62.962151 41 31 31
5.299784 12.884674 62.861767 41 31 30
5.291029 12.998674 62.757923 41 31 30
5.281998 13.111541 62.650803 41 30 30
5.272704 13.223287 62.540565 41 31 31
5.263155 13.333914 62.427315 42 31 32
5.253355 13.443405 62.311062 42 32 33
5.243301 13.551742 62.191814 42 33 34
5.232987 13.658886 62.069477 41 32 33
5.222402 13.764788 61.943928 40 31 32
5.211528 13.869378 61.814945 40 32 32
5.200340 13.972570 61.682247 40 32 32
5.188811 14.074265 61.545498 38 30 31
5.176908 14.174344 61.404305 36 29 30
5.164590 14.272672 61.258205 35 28 29
5.151816 14.369095 61.106693 35 28 28
5.138537 14.463446 60.949196 34 28 27
5.124707 14.555549 60.785145 33 28 27
5.110273 14.645216 60.613945 33 28 26
5.095185 14.732253 60.434978 32 28 26
5.079393 14.816465 60.247665 32 28 26
5.062850 14.897662 60.051453 31 28 26
5.045514 14.975657 59.845821 31 27 27
5.027345 15.050272 59.630318 30 27 26
5.008311 15.121347 59.404556 30 26 26
4.988389 15.188743 59.168251 30 25 26
4.967560 15.252337 58.921196 30 25 26
4.945817 15.312035 58.663292 31 25 25
4.923159 15.367767 58.394547 31 25 25
4.899601 15.419505 58.115116 31 25 25
4.875164 15.467252 57.825264 31 25 24
4.849884 15.511051 57.525410 31 24 23
4.823808 15.550997 57.216129 30 24 22
4.797002 15.587230 56.898170 29 24 22
4.769537 15.619938 56.572403 28 23 22
4.741505 15.649368 56.239910 27 23 22
4.713006 15.675816 55.901886 27 23 22
4.684156 15.699626 55.559692 27 22 22
4.655079 15.721192 55.214794 26 23 23
4.625905 15.740945 54.868759 26 23 24
4.596772 15.759344 54.523205 26 23 24
4.567818 15.776875 54.179779 26 23 24
5.422709 -11.480266 62.716225 61 41 43
5.420194 -11.339810 62.687149 61 41 43
5.418052 -11.200251 62.662376 62 41 43
5.416331 -11.061657 62.642471 63 41 43
5.415077 -10.924091 62.627968 65 42 43
5.414331 -10.787600 62.619343 66 43 43
5.414133 -10.652223 62.617039 66 44 44
5.414513 -10.517980 62.621437 65 44 44
5.415500 -10.384882 62.632854 63 44 44
5.417115 -10.252923 62.651531 62 44 44
5.419371 -10.122081 62.677620 62 43 44
5.422274 -9.992319 62.711201 61 43 44
5.425824 -9.863588 62.752254 60 42 44
5.430009 -9.735820 62.800659 60 41 44
5.434811 -9.608932 62.856197 58 39 42
5.440202 -9.482833 62.918545 57 38 41
5.446146 -9.357415 62.987293 56 37 40
5.452600 -9.232563 63.061932 56 37 39
5.459511 -9.108153 63.141869 57 39 40
5.466825 -8.984060 63.226456 59 40 41
5.474480 -8.860154 63.314987 60 41 42
5.482410 -8.736306 63.406708 60 42 44
5.490550 -8.612390 63.500847 60 42 45
5.498831 -8.488287 63.596626 60 41 45
5.507190 -8.363889 63.693298 61 41 47
5.515561 -8.239093 63.790115 61 41 48
5.523885 -8.113809 63.886383 61 40 48
5.532103 -7.987957 63.981422 61 39 47
5.540161 -7.861469 64.074623 61 39 47
5.548010 -7.734288 64.165398 61 38 46
5.555602 -7.606363 64.253197 63 38 45
5.562891 -7.477653 64.337502 64 38 45
5.569833 -7.348122 64.417793 65 40 45
5.576385 -7.217740 64.493568 66 41 45
5.582501 -7.086476 64.564301 66 41 45
5.588133 -6.954307 64.629440 67 42 45
5.593232 -6.821206 64.688416 67 42 46
5.597745 -6.687151 64.740616 67 42 46
5.601619 -6.552123 64.785408 66 41 46
5.604793 -6.416101 64.822121 65 41 45
5.607212 -6.279075 64.850098 66 41 46
5.608818 -6.141038 64.868668 67 43 46
5.609556 -6.001993 64.877205 69 45 48
5.609379 -5.861955 64.875160 71 47 50
5.608246 -5.720950 64.862061 72 48 51
5.606130 -5.579023 64.837585 72 48 51
5.603015 -5.436234 64.801567 72 48 50
5.598906 -5.292658 64.754028 71 48 50
5.593822 -5.148391 64.695236 71 48 49
5.587806 -5.003543 64.625656 70 47 49
5.580919 -4.858237 64.546005 70 46 49
5.573244 -4.712608 64.457237 70 46 49
5.564881 -4.566797 64.360519 71 46 49
5.555947 -4.420949 64.257195 71 46 48
5.546571 -4.275205 64.148750 71 46 47
5.536890 -4.129701 64.036789 71 45 47
5.527047 -3.984563 63.922947 68 45 45
5.517183 -3.839902 63.808868 65 43 43
5.507436 -3.695810 63.696140 64 42 42
5.497934 -3.552364 63.586250 63 42 41
5.488796 -3.409616 63.480560 62 41 41
5.480122 -3.267601 63.380238 62 41 41
5.471997 -3.126333 63.286274 62 41 41
5.464490 -2.985808 63.199455 62 41 42
5.457652 -2.846005 63.120365 62 42 43
5.451515 -2.706892 63.049393 62 42 43
5.446099 -2.568424 62.986748 62 42 43
5.441407 -2.430550 62.932480 61 42 42
5.437433 -2.293213 62.886528 60 41 41
5.434163 -2.156353 62.848705 59 40 40
5.431574 -2.019910 62.818768 59 40 40
5.429643 -1.883824 62.796425 59 39 39
5.428341 -1.748036 62.781364 58 39 39
5.427641 -1.612493 62.773273 59 38 40
5.427516 -1.477141 62.771835 59 38 40
5.427942 -1.341931 62.776760 60 38 40
5.428896 -1.206818 62.787792 59 37 39
5.430357 -1.071757 62.804684 58 37 38
5.432305 -0.936707 62.827213 58 38 39
5.434723 -0.801629 62.855175 59 40 41
5.437594 -0.666487 62.888386 60 42 42
5.440901 -0.531243 62.926628 60 43 43
5.444626 -0.395866 62.969719 60 42 44
5.448752 -0.260321 63.017437 61 42 44
5.453261 -0.124580 63.069580 62 42 43
5.458131 0.011387 63.125904 63 41 42
5.463341 0.147606 63.186165 63 41 42
5.468870 0.284101 63.250107 63 39 40
5.474693 0.420895 63.317451 63 38 39
5.480785 0.558006 63.387909 63 38 38
5.487120 0.695452 63.461174 63 38 38
5.493670 0.833246 63.536926 62 39 39
5.500404 0.971400 63.614811 62 39 39
5.507291 1.109920 63.694462 61 39 39
5.514295 1.248810 63.775471 59 38 39
5.521379 1.388069 63.857395 58 38 39
5.528501 1.527692 63.939770 57 38 39
5.535616 1.667668 64.022049 57 37 38
5.542673 1.807980 64.103668 57 37 38
5.549618 1.948605 64.183998 56 36 37
5.556396 2.089513 64.262383 56 35 36
5.562944 2.230666 64.338120 55 34 35
5.569202 2.372023 64.410492 56 35 36
5.575105 2.513532 64.478767 59 37 39
5.580592 2.655137 64.542221 62 39 41
5.585604 2.796777 64.600189 63 41 43
5.590085 2.938389 64.652008 63 41 43
5.593986 3.079905 64.697128 63 41 43
5.597264 3.221257 64.735046 62 40 43
5.599889 3.362380 64.765404 61 40 42
5.601836 3.503210 64.787918 60 40 42
5.603094 3.643689 64.802475 59 39 42
5.603665 3.783767 64.809074 58 39 42
5.603558 3.923398 64.807838 58 39 42
5.602798 4.062551 64.799042 58 39 42
5.601415 4.201199 64.783058 57 38 41
5.599456 4.339331 64.760399 57 37 40
5.596970 4.476944 64.731644 59 37 39
5.594016 4.614047 64.697479 61 38 40
5.590658 4.750659 64.658638 61 38 40
5.586962 4.886809 64.615906 61 38 40
5.583000 5.022535 64.570076 60 37 39
5.578840 5.157880 64.521965 60 38 38
5.574553 5.292897 64.472374 60 38 38
5.570204 5.427640 64.422081 59 38 38
5.565856 5.562168 64.371796 59 39 39
5.561567 5.696538 64.322189 59 39 39
5.557387 5.830810 64.273849 60 39 39
5.553362 5.965039 64.227303 60 39 38
5.549529 6.099278 64.182961 60 39 38
5.545916 6.233574 64.141174 60 38 38
5.542545 6.367968 64.102188 60 39 39
5.539431 6.502496 64.066177 60 39 40
5.536581 6.637184 64.033218 60 39 41
5.533997 6.772056 64.003326 60 40 42
5.531674 6.907125 63.976467 59 41 43
5.529607 7.042404 63.952557 57 41 42
5.527784 7.177897 63.931473 55 40 40
5.526193 7.313606 63.913071 54 39 39
5.524821 7.449532 63.897213 53 39 38
5.523657 7.585674 63.883747 53 39 38
5.522688 7.722032 63.872543 53 39 38
5.521905 7.858604 63.863480 53 39 38
5.521297 7.995392 63.856453 52 38 38
5.520858 8.132398 63.851368 52 38 37
5.520579 8.269622 63.848145 51 38 36
5.520453 8.407065 63.846687 51 38 36
5.520473 8.544727 63.846916 52 38 36
5.520629 8.682607 63.848724 54 40 38
5.520911 8.820693 63.851986 55 42 39
5.521304 8.958974 63.856529 54 41 39
5.521790 9.097427 63.862148 53 40 38
5.522348 9.236026 63.868603 52 39 38
5.522951 9.374729 63.875580 52 39 39
5.523571 9.513491 63.882744 52 38 39
5.524171 9.652249 63.889690 52 38 40
5.524716 9.790940 63.896000 52 38 40
5.525166 9.929485 63.901192 52 38 39
5.525475 10.067799 63.904766 51 37 39
5.525599 10.205786 63.906208 50 37 37
5.525496 10.343352 63.905010 50 36 35
5.525119 10.480394 63.900650 49 36 34
5.524425 10.616809 63.892620 48 36 33
5.523373 10.752492 63.880455 47 36 33
5.521926 10.887344 63.863724 47 36 32
5.520051 11.021270 63.842037 46 35 33
5.517720 11.154179 63.815079 46 35 34
5.514910 11.285993 63.782581 46 35 34
5.511607 11.416644 63.744373 46 35 34
5.507799 11.546073 63.700336 45 34 33
5.503484 11.674237 63.650436 45 34 33
5.498668 11.801108 63.594730 45 34 33
5.493358 11.926670 63.533325 45 34 33
5.487572 12.050920 63.466404 45 34 34
5.481328 12.173864 63.394188 45 34 34
5.474648 12.295518 63.316929 45 33 34
5.467557 12.415906 63.234924 44 33 33
5.460081 12.535056 63.148460 43 33 32
5.452245 12.652997 63.057827 43 32 31
5.444072 12.769758 62.963306 42 32 31
5.435586 12.885369 62.865162 42 31 31
5.426805 12.999850 62.763603 42 31 31
5.417745 13.113218 62.658817 42 31 31
5.408417 13.225479 62.550938 42 31 31
5.398830 13.336636 62.440060 42 32 32
5.388984 13.446669 62.326187 42 32 33
5.378880 13.555558 62.209328 42 33 34
5.368510 13.663269 62.089397 41 33 33
5.357863 13.769751 61.966263 40 32 33
5.346923 13.874938 61.839729 41 33 33
5.335664 13.978748 61.709518 40 33 34
5.324060 14.081081 61.575306 38 31 32
5.312075 14.181822 61.436699 37 29 31
5.299671 14.280834 61.293243 36 29 30
5.286804 14.377967 61.144421 35 29 29
5.273422 14.473047 60.989655 34 29 28
5.259475 14.565895 60.828350 34 29 28
5.244907 14.656313 60.659874 33 29 27
5.229663 14.744098 60.483570 32 29 27
5.213688 14.829041 60.298801 31 29 26
5.196927 14.910934 60.104954 30 28 26
5.179330 14.989574 59.901440 30 28 25
5.160852 15.064763 59.687733 30 26 25
5.141453 15.136318 59.463367 29 26 25
5.121100 15.204077 59.227985 29 25 25
5.099771 15.267898 58.981308 30 25 25
5.077453 15.327666 58.723179 31 25 24
5.054141 15.383297 58.453560 31 25 24
5.029844 15.434746 58.172558 31 25 24
5.004585 15.482006 57.880424 31 25 23
4.978401 15.525123 57.577595 30 25 22
4.951343 15.564185 57.264656 30 25 22
4.923477 15.599339 56.942371 29 24 22
4.894886 15.630789 56.611706 28 23 22
4.865667 15.658792 56.273777 28 23 23
4.835934 15.683669 55.929893 27 23 23
4.805809 15.705787 55.581493 27 22 23
4.775431 15.725564 55.230148 26 22 23
4.744942 15.743461 54.877529 26 23 24
4.714490 15.759963 54.525341 26 23 24
4.684227 15.775581 54.175339 27 24 24
5.552239 -11.468566 62.652309 63 41 44
5.549823 -11.328577 62.625046 63 41 44
5.547757 -11.189411 62.601734 64 41 44
5.546093 -11.051147 62.582958 65 42 44
5.544882 -10.913855 62.569286 67 42 45
5.544169 -10.777591 62.561241 67 43 45
5.543999 -10.642404 62.559322 66 44 45
5.544409 -10.508325 62.563953 65 44 44
5.545434 -10.375374 62.575512 64 44 44
5.547098 -10.243556 62.594292 62 43 44
5.549422 -10.112859 62.620518 61 42 43
5.552416 -9.983254 62.654305 61 42 43
5.556084 -9.854697 62.695690 61 42 44
5.560418 -9.727128 62.744595 60 41 44
5.565402 -9.600471 62.800842 59 40 43
5.571012 -9.474634 62.864143 58 39 42
5.577212 -9.349514 62.934109 57 38 41
5.583959 -9.224996 63.010242 56 38 40
5.591202 -9.100956 63.091969 58 39 41
5.598882 -8.977265 63.178635 59 40 42
5.606936 -8.853792 63.269520 60 41 43
5.615296 -8.730402 63.363857 60 42 44
5.623892 -8.606965 63.460850 60 42 45
5.632651 -8.483357 63.559689 60 41 46
5.641502 -8.359460 63.659573 60 40 47
5.650378 -8.235167 63.759720 60 40 47
5.659209 -8.110378 63.859371 60 39 46
5.667932 -7.985008 63.957802 60 39 45
5.676487 -7.858982 64.054344 60 39 45
5.684818 -7.732233 64.148354 61 38 45
5.692871 -7.604709 64.239220 62 38 45
5.700596 -7.476362 64.326393 63 39 45
5.707944 -7.347154 64.409309 64 40 45
5.714868 -7.217053 64.487434 65 40 45
5.721320 -7.086030 64.560242 66 41 45
5.727251 -6.954062 64.627167 66 41 46
5.732611 -6.821126 64.687653 67 42 47
5.737350 -6.687204 64.741119 66 41 47
5.741413 -6.552280 64.786972 65 41 47
5.744745 -6.416344 64.824577 65 40 47
5.747293 -6.279387 64.853325 65 41 46
5.749002 -6.141411 64.872612 66 41 46
5.749823 -6.002424 64.881866 67 43 46
5.749709 -5.862445 64.880592 68 45 47
5.748627 -5.721507 64.868378 69 46 48
5.746548 -5.579655 64.844925 70 47 49
5.743463 -5.436950 64.810104 70 48 49
5.739375 -5.293471 64.763977 70 48 49
5.734307 -5.149311 64.706787 70 48 49
5.728300 -5.004577 64.639008 70 47 49
5.721416 -4.859391 64.561333 70 47 49
5.713738 -4.713883 64.474686 70 46 49
5.705364 -4.568192 64.380188 71 47 49
5.696408 -4.422458 64.279137 71 47 49
5.686999 -4.276818 64.172958 71 47 48
5.677273 -4.131404 64.063210 71 47 48
5.667370 -3.986340 63.951462 68 45 46
5.657431 -3.841733 63.839310 64 43 42
5.647593 -3.697676 63.728294 63 42 42
5.637984 -3.554242 63.619865 62 42 41
5.628722 -3.411485 63.515350 61 42 41
5.619909 -3.269440 63.415901 61 42 42
5.611631 -3.128123 63.322502 61 41 42
5.603959 -2.987531 63.235928 61 41 42
5.596945 -2.847647 63.156780 61 41 43
5.590625 -2.708440 63.085464 61 41 43
5.585020 -2.569870 63.022209 60 41 42
5.580137 -2.431887 62.967113 60 42 41
5.575974 -2.294439 62.920139 59 40 40
5.572519 -2.157466 62.881149 58 39 39
5.569753 -2.020912 62.849937 57 38 39
5.567655 -1.884719 62.826260 57 38 39
5.566200 -1.748829 62.809849 57 38 39
5.565364 -1.613190 62.800419 58 38 39
5.565123 -1.477749 62.797688 59 38 40
5.565452 -1.342458 62.801403 59 38 39
5.566330 -1.207270 62.811317 59 38 38
5.567739 -1.072141 62.827206 58 38 39
5.569656 -0.937030 62.848846 58 38 40
5.572066 -0.801895 62.876041 59 40 42
5.574950 -0.666701 62.908581 60 42 43
5.578288 -0.531409 62.946247 60 42 43
5.582062 -0.395986 62.988831 60 42 44
5.586250 -0.260398 63.036095 61 42 44
5.590832 -0.124616 63.087795 62 42 43
5.595783 0.011390 63.143669 63 41 43
5.601080 0.147646 63.203442 63 40 42
5.606698 0.284176 63.266830 63 39 40
5.612609 0.421002 63.333530 63 38 39
5.618785 0.558141 63.403229 63 38 38
5.625200 0.695610 63.475605 62 38 38
5.631821 0.833422 63.550323 62 39 39
5.638619 0.971586 63.627037 62 40 41
5.645561 1.110110 63.705368 61 40 41
5.652612 1.248995 63.784927 60 40 41
5.659734 1.388241 63.865295 58 39 40
5.666886 1.527841 63.946007 56 38 38
5.674026 1.667786 64.026573 56 37 38
5.681103 1.808058 64.106430 56 35 37
5.688066 1.948635 64.185005 56 35 37
5.694861 2.089489 64.261681 56 35 36
5.701428 2.230585 64.335785 56 34 36
5.707708 2.371881 64.406639 57 35 37
5.713638 2.513329 64.473557 59 37 39
5.719160 2.654875 64.535866 62 39 41
5.724212 2.796461 64.592880 63 41 44
5.728742 2.938025 64.643997 63 41 44
5.732700 3.079501 64.688652 62 41 44
5.736044 3.220826 64.726387 60 39 42
5.738739 3.361933 64.756805 58 38 41
5.740763 3.502762 64.779640 57 38 41
5.742101 3.643254 64.794731 58 38 41
5.742752 3.783358 64.802078 58 38 41
5.742723 3.923031 64.801765 57 38 41
5.742037 4.062235 64.794014 58 38 41
5.740721 4.200947 64.779167 58 38 40
5.738818 4.339150 64.757690 58 37 39
5.736375 4.476840 64.730133 59 37 38
5.733449 4.614020 64.697105 60 38 38
5.730100 4.750709 64.659317 60 38 39
5.726394 4.886930 64.617500 61 38 39
5.722400 5.022718 64.572426 61 38 39
5.718186 5.158113 64.524872 60 39 39
5.713821 5.293164 64.475624 60 39 38
5.709372 5.427921 64.425415 60 39 38
5.704900 5.562441 64.374954 60 39 38
5.700465 5.696780 64.324913 60 39 39
5.696119 5.830994 64.275879 60 39 39
5.691909 5.965138 64.228363 60 39 38
5.687871 6.099263 64.182808 61 39 38
5.684040 6.233418 64.139565 61 39 38
5.680438 6.367643 64.098915 61 39 39
5.677082 6.501976 64.061050 60 40 41
5.673983 6.636445 64.026085 61 40 42
5.671146 6.771076 63.994068 61 41 43
5.668570 6.905888 63.965008 60 41 43
5.666252 7.040895 63.938850 57 41 42
5.664185 7.176106 63.915520 55 40 40
5.662359 7.311529 63.894917 54 40 39
5.660766 7.447169 63.876938 54 40 39
5.659395 7.583030 63.861473 54 40 39
5.658239 7.719116 63.848427 54 40 39
5.657289 7.855432 63.837704 53 39 39
5.656537 7.991982 63.829216 52 38 38
5.655977 8.128772 63.822899 52 37 37
5.655602 8.265804 63.818665 51 37 37
5.655403 8.403080 63.816425 51 37 36
5.655373 8.540602 63.816086 51 37 35
5.655501 8.678365 63.817535 53 39 37
5.655775 8.816360 63.820618 54 41 38
5.656174 8.954569 63.825130 54 40 39
5.656681 9.092968 63.830845 53 39 39
5.657269 9.231524 63.837475 52 39 38
5.657908 9.370195 63.844688 52 38 39
5.658565 9.508927 63.852104 52 38 39
5.659202 9.647656 63.859291 52 37 39
5.659779 9.786314 63.865803 52 37 39
5.660252 9.924817 63.871143 52 37 39
5.660577 10.063079 63.874809 51 37 38
5.660707 10.201005 63.876270 50 37 37
5.660597 10.338500 63.875031 50 36 35
5.660203 10.475463 63.870583 49 36 34
5.659481 10.611794 63.862438 48 36 34
5.658392 10.747393 63.850159 48 36 33
5.656902 10.882164 63.833336 48 35 33
5.654978 11.016021 63.811634 48 35 33
5.652596 11.148878 63.784748 47 35 33
5.649734 11.280663 63.752460 47 35 33
5.646381 11.411314 63.714619 46 34 33
5.642527 11.540779 63.671127 45 34 33
5.638172 11.669018 63.621983 45 34 33
5.633320 11.796008 63.567242 46 34 33
5.627984 11.921733 63.507023 46 34 33
5.622177 12.046190 63.441498 45 34 33
5.615919 12.169388 63.370876 45 34 34
5.609230 12.291337 63.295403 44 33 34
5.602135 12.412061 63.215340 44 33 33
5.594656 12.531581 63.130955 43 33 33
5.586819 12.649922 63.042507 43 33 32
5.578643 12.767111 62.950253 43 33 32
5.570150 12.883168 62.854420 43 33 33
5.561358 12.998112 62.755207 42 32 33
5.552280 13.111953 62.652771 42 32 33
5.542928 13.224698 62.547241 42 32 33
5.533309 13.336346 62.438702 42 32 33
5.523425 13.446878 62.327164 42 33 33
5.513275 13.556278 62.212635 42 33 34
5.502854 13.664512 62.095043 41 33 34
5.492152 13.771532 61.974277 41 34 34
5.481153 13.877278 61.850159 42 35 35
5.469833 13.981673 61.722431 40 33 34
5.458167 14.084620 61.590782 38 31 33
5.446121 14.186012 61.454849 37 29 31
5.433654 14.285712 61.314178 36 29 31
5.420722 14.383570 61.168251 36 29 31
5.407273 14.479414 61.016483 35 29 30
5.393251 14.573058 60.858269 34 29 29
5.378600 14.664301 60.692932 33 29 28
5.363255 14.752926 60.519783 32 29 27
5.347157 14.838711 60.338123 31 29 26
5.330243 14.921432 60.147266 30 29 26
5.312456 15.000865 59.946560 30 28 26
5.293742 15.076791 59.735386 30 27 26
5.274051 15.149001 59.513195 29 26 25
5.253345 15.217313 59.279545 30 26 25
5.231592 15.281558 59.034077 30 25 24
5.208770 15.341598 58.776550 30 26 24
5.184872 15.397329 58.506878 30 26 24
5.159902 15.448690 58.225113 30 26 24
5.133880 15.495664 57.931484 30 26 23
5.106844 15.538282 57.626400 30 25 22
5.078847 15.576640 57.310478 30 25 22
5.049960 15.610885 56.984516 29 24 22
5.020272 15.641227 56.649509 28 23 22
4.989889 15.667942 56.306660 28 23 23
4.958933 15.691369 55.957352 27 23 23
4.927542 15.711900 55.603127 27 23 23
4.895862 15.729978 55.245647 27 22 23
4.864051 15.746088 54.886688 27 23 24
4.832270 15.760751 54.528069 26 23 24
5.682320 -11.458531 62.597492 65 42 46
5.680014 -11.318995 62.572083 65 42 45
5.678034 -11.180213 62.550270 65 42 45
5.676435 -11.042265 62.532654 66 42 44
5.675272 -10.905231 62.519840 67 42 45
5.674595 -10.769176 62.512390 67 43 45
5.674455 -10.634156 62.510841 67 44 44
5.674894 -10.500216 62.515682 65 43 44
5.675952 -10.367388 62.527340 64 43 43
5.677662 -10.235681 62.546169 63 42 43
5.680046 -10.105095 62.572441 62 42 43
5.683122 -9.975609 62.606323 61 41 44
5.686897 -9.847187 62.647911 61 41 44
5.691368 -9.719775 62.697163 61 41 44
5.696522 -9.593300 62.753937 60 40 44
5.702335 -9.467676 62.817978 59 40 42
5.708776 -9.342802 62.888931 58 39 41
5.715799 -9.218562 62.966305 57 39 40
5.723355 -9.094835 63.049541 58 39 41
5.731384 -8.971489 63.137985 59 39 42
5.739820 -8.848390 63.230915 59 40 43
5.748592 -8.725400 63.327549 60 41 45
5.757626 -8.602385 63.427071 60 41 45
5.766845 -8.479213 63.528633 60 41 46
5.776175 -8.355763 63.631416 60 40 46
5.785540 -8.231919 63.734577 60 40 46
5.794867 -8.107578 63.837326 59 39 45
5.804085 -7.982645 63.938873 59 39 44
5.813129 -7.857038 64.038506 60 39 44
5.821937 -7.730688 64.135529 61 39 44
5.830448 -7.603533 64.229294 62 39 44
5.838608 -7.475524 64.319183 63 39 44
5.846364 -7.346620 64.404625 64 39 44
5.853663 -7.216784 64.485039 64 40 45
5.860457 -7.085991 64.559883 64 40 45
5.866695 -6.954216 64.628601 65 41 45
5.872326 -6.821440 64.690636 65 41 46
5.877300 -6.687648 64.745430 64 41 47
5.881565 -6.552830 64.792404 64 40 46
5.885067 -6.416978 64.830978 63 40 45
5.887755 -6.280092 64.860596 63 40 44
5.889580 -6.142177 64.880699 63 40 44
5.890494 -6.003248 64.890770 65 41 44
5.890457 -5.863328 64.890358 67 43 44
5.889435 -5.722454 64.879105 68 45 45
5.887406 -5.580673 64.856758 69 46 46
5.884361 -5.438050 64.823212 69 47 47
5.880307 -5.294662 64.778549 69 48 48
5.875266 -5.150602 64.723015 68 47 47
5.869282 -5.005978 64.657097 67 47 47
5.862416 -4.860906 64.581459 67 46 48
5.854749 -4.715514 64.496994 68 47 48
5.846379 -4.569938 64.404793 69 48 49
5.837420 -4.424313 64.306091 70 48 49
5.827997 -4.278772 64.202286 70 47 49
5.818244 -4.133446 64.094856 70 47 48
5.808304 -3.988452 63.985348 67 46 46
5.798312 -3.843898 63.875278 64 45 44
5.788406 -3.699872 63.766151 63 44 43
5.778714 -3.556449 63.659378 61 44 43
5.769352 -3.413682 63.556248 60 43 42
5.760424 -3.271605 63.457897 59 42 42
5.752017 -3.130236 63.365280 59 41 42
5.744201 -2.989574 63.279182 59 41 42
5.737032 -2.849605 63.200207 59 41 43
5.730547 -2.710299 63.128761 60 41 43
5.724769 -2.571620 63.065113 60 41 42
5.719709 -2.433520 63.009373 59 41 41
5.715367 -2.295949 62.961544 58 39 40
5.711734 -2.158851 62.921516 56 38 38
5.708794 -2.022172 62.889133 56 37 38
5.706529 -1.885856 62.864182 55 36 38
5.704917 -1.749848 62.846428 55 36 38
5.703937 -1.614094 62.835621 57 37 39
5.703564 -1.478546 62.831516 58 38 39
5.703779 -1.343153 62.833885 59 38 39
5.704561 -1.207869 62.842495 59 38 39
5.705890 -1.072652 62.857136 59 38 39
5.707747 -0.937458 62.877598 59 39 41
5.710114 -0.802248 62.903675 59 39 42
5.712973 -0.666982 62.935162 60 40 43
5.716301 -0.531625 62.971825 60 40 43
5.720079 -0.396141 63.013447 60 41 44
5.724283 -0.260496 63.059761 60 41 44
5.728890 -0.124661 63.110512 61 41 43
5.733874 0.011394 63.165413 62 41 43
5.739207 0.147695 63.224163 62 40 42
5.744862 0.284264 63.286457 62 40 41
5.750809 0.421124 63.351978 62 38 40
5.757020 0.558292 63.420391 62 39 39
5.763463 0.695783 63.491367 62 40 39
5.770107 0.833609 63.564564 62 41 40
5.776921 0.971779 63.639629 62 41 41
5.783872 1.110299 63.716198 62 41 41
5.790924 1.249170 63.793888 60 41 41
5.798041 1.388393 63.872292 58 40 39
5.805184 1.527960 63.950981 56 38 38
5.812309 1.667861 64.029472 55 37 37
5.819371 1.808081 64.107262 54 35 36
5.826318 1.948599 64.183792 54 34 36
5.833098 2.089386 64.258492 55 34 36
5.839655 2.230410 64.330727 57 35 37
5.845931 2.371631 64.399857 58 36 38
5.851865 2.513004 64.465233 60 38 40
5.857399 2.654477 64.526192 62 40 42
5.862475 2.795995 64.582108 63 41 44
5.867039 2.937497 64.632385 63 41 44
5.871042 3.078922 64.676483 61 41 44
5.874441 3.220206 64.713928 59 39 42
5.877201 3.361286 64.744331 56 38 40
5.879297 3.502101 64.767426 56 37 40
5.880713 3.642595 64.783020 56 37 40
5.881445 3.782717 64.791084 57 37 40
5.881498 3.922420 64.791672 57 37 40
5.880890 4.061668 64.784966 58 37 40
5.879647 4.200435 64.771271 58 37 40
5.877806 4.338701 64.750992 58 37 39
5.875412 4.476459 64.724632 60 37 38
5.872520 4.613711 64.692764 61 37 37
5.869186 4.750468 64.656036 61 38 38
5.865475 4.886753 64.615150 62 39 39
5.861451 5.022593 64.570831 61 40 39
5.857184 5.158029 64.523819 61 40 39
5.852741 5.293102 64.474869 61 40 39
5.848187 5.427862 64.424706 61 40 39
5.843586 5.562360 64.374023 61 40 38
5.838996 5.696651 64.323463 60 39 38
5.834472 5.830790 64.273628 60 39 38
5.830061 5.964828 64.225029 60 38 38
5.825803 6.098819 64.178123 61 38 38
5.821733 6.232808 64.133286 61 39 38
5.817878 6.366838 64.090820 61 40 40
5.814257 6.500948 64.050934 61 41 41
5.810884 6.635169 64.013771 61 41 42
5.807768 6.769529 63.979443 61 41 42
5.804912 6.904049 63.947979 59 41 42
5.802315 7.038750 63.919373 57 41 42
5.799975 7.173644 63.893593 55 41 41
5.797885 7.308743 63.870579 55 40 41
5.796041 7.444058 63.850262 54 40 40
5.794436 7.579599 63.832584 54 40 40
5.793064 7.715372 63.817459 54 40 40
5.791918 7.851388 63.804836 53 39 40
5.790992 7.987653 63.794643 52 37 39
5.790283 8.124177 63.786827 52 36 38
5.789782 8.260965 63.781307 51 36 37
5.789481 8.398020 63.777988 50 36 36
5.789371 8.535341 63.776779 51 37 35
5.789439 8.672925 63.777534 52 38 36
5.789671 8.810760 63.780087 53 39 38
5.790044 8.948826 63.784199 53 39 39
5.790536 9.087095 63.789619 53 39 39
5.791118 9.225532 63.796028 53 39 39
5.791756 9.364085 63.803059 52 38 39
5.792413 9.502701 63.810291 52 37 39
5.793049 9.641313 63.817295 52 37 38
5.793620 9.779844 63.823586 52 37 38
5.794081 9.918216 63.828663 51 37 38
5.794385 10.056337 63.832020 51 37 37
5.794486 10.194115 63.833130 50 37 37
5.794338 10.331455 63.831505 50 36 36
5.793898 10.468259 63.826653 49 36 35
5.793124 10.604430 63.818127 48 36 34
5.791978 10.739876 63.805500 48 35 33
5.790428 10.874507 63.788418 48 35 33
5.788444 11.008241 63.766571 48 35 32
5.786003 11.141001 63.739681 47 34 32
5.783088 11.272720 63.707569 47 34 32
5.779688 11.403343 63.670113 46 34 33
5.775796 11.532823 63.627232 45 34 33
5.771412 11.661123 63.578941 45 34 33
5.766541 11.788222 63.525284 46 34 33
5.761196 11.914107 63.466404 46 34 32
5.755390 12.038774 63.402439 45 34 33
5.749139 12.162226 63.333584 44 34 34
5.742465 12.284473 63.260056 44 33 33
5.735387 12.405532 63.182087 43 33 33
5.727928 12.525420 63.099915 43 33 33
5.720108 12.644156 63.013763 43 33 33
5.711946 12.761757 62.923855 43 34 34
5.703462 12.878242 62.830387 43 34 34
5.694670 12.993622 62.733532 43 34 34
5.685583 13.107906 62.633434 42 34 34
5.676213 13.221097 62.530212 42 33 34
5.666567 13.333194 62.423946 41 33 34
5.656645 13.444180 62.314651 41 33 33
5.646451 13.554039 62.202354 41 33 34
5.635981 13.662743 62.087002 41 33 34
5.625225 13.770251 61.968513 41 34 35
5.614170 13.876511 61.846733 41 34 35
5.602796 13.981449 61.721439 40 33 34
5.591078 14.084980 61.592354 38 31 32
5.578985 14.186999 61.459129 37 30 31
5.566476 14.287378 61.321331 36 30 31
5.553507 14.385970 61.178459 36 29 31
5.540024 14.482603 61.029922 35 30 30
5.525969 14.577087 60.875092 34 30 30
5.511280 14.669215 60.713272 33 30 29
5.495889 14.758762 60.543724 33 30 28
5.479727 14.845490 60.365692 32 30 27
5.462728 14.929161 60.178425 31 29 27
5.444822 15.009525 59.981171 31 29 26
5.425947 15.086342 59.773232 30 28 25
5.406043 15.159379 59.553967 30 27 25
5.385061 15.228423 59.322826 30 26 25
5.362961 15.293282 59.079365 31 26 24
5.339713 15.353790 58.823265 31 26 24
5.315301 15.409822 58.554344 31 26 24
5.289727 15.461293 58.272614 31 26 23
5.263007 15.508175 57.978260 31 26 23
5.235176 15.550488 57.671665 31 25 22
5.206290 15.588319 57.353451 30 25 22
5.176423 15.621819 57.024429 29 24 22
5.145671 15.651210 56.685665 28 24 22
5.114149 15.676777 56.338409 28 23 23
5.081988 15.698876 55.984127 27 23 23
5.049339 15.717926 55.624451 27 23 23
5.016360 15.734391 55.261150 27 23 23
4.983222 15.748789 54.896103 27 23 23
4.950102 15.761666 54.531235 27 23 24
5.813003 -11.450147 62.551685 66 43 47
5.810821 -11.311059 62.528206 66 42 46
5.808939 -11.172650 62.507961 66 42 45
5.807416 -11.035009 62.491566 66 42 45
5.806309 -10.898222 62.479660 67 42 45
5.805676 -10.762362 62.472843 67 42 45
5.805569 -10.627497 62.471695 66 42 44
5.806039 -10.493678 62.476753 64 41 43
5.807131 -10.360949 62.488506 63 41 42
5.808883 -10.229328 62.507351 62 41 42
5.811323 -10.098825 62.533615 62 41 43
5.814475 -9.969426 62.567524 61 41 44
5.818348 -9.841104 62.609207 61 41 44
5.822945 -9.713807 62.658669 61 41 44
5.828255 -9.587471 62.715809 61 41 44
5.834258 -9.462012 62.780399 60 41 43
5.840921 -9.337333 62.852112 59 40 42
5.848204 -9.213318 62.930477 59 39 41
5.856054 -9.089845 63.014942 59 39 41
5.864410 -8.966784 63.104870 59 39 42
5.873207 -8.843997 63.199524 59 39 43
5.882370 -8.721344 63.298119 60 40 45
5.891820 -8.598688 63.399818 61 40 46
5.901480 -8.475893 63.503765 61 41 46
5.911269 -8.352832 63.609089 61 40 46
5.921105 -8.229383 63.714935 61 39 46
5.930910 -8.105435 63.820450 61 39 45
5.940610 -7.980890 63.924820 61 40 44
5.950131 -7.855661 64.027283 62 40 44
5.959406 -7.729670 64.127083 62 40 43
5.968370 -7.602852 64.223541 63 40 43
5.976963 -7.475154 64.316002 63 40 42
5.985126 -7.346530 64.403847 62 39 42
5.992805 -7.216945 64.486473 62 38 42
5.999947 -7.086369 64.563324 62 39 42
6.006499 -6.954779 64.633827 63 40 43
6.012411 -6.822158 64.697441 63 40 44
6.017632 -6.688495 64.753624 63 41 44
6.022109 -6.553781 64.801804 63 41 44
6.025794 -6.418015 64.841461 62 40 43
6.028637 -6.281201 64.872055 62 39 42
6.030591 -6.143349 64.893082 62 39 41
6.031613 -6.004478 64.904076 64 40 42
6.031664 -5.864617 64.904625 66 42 43
6.030716 -5.723805 64.894424 68 44 45
6.028749 -5.582093 64.873260 69 45 46
6.025757 -5.439548 64.841064 69 46 47
6.021748 -5.296246 64.797920 68 46 47
6.016747 -5.152281 64.744110 67 46 47
6.010798 -5.007758 64.680092 66 46 47
6.003962 -4.862792 64.606529 66 45 47
5.996320 -4.717511 64.524300 68 47 48
5.987969 -4.572042 64.434441 69 48 50
5.979023 -4.426519 64.338165 69 49 50
5.969604 -4.281074 64.236816 69 48 49
5.959846 -4.135829 64.131821 68 48 48
5.949888 -3.990903 64.024666 66 47 46
5.939867 -3.846399 63.916832 65 46 45
5.929918 -3.702403 63.809769 64 46 45
5.920167 -3.558990 63.704849 61 45 44
5.910733 -3.416210 63.603329 59 43 42
5.901717 -3.274101 63.506306 58 42 41
5.893207 -3.132679 63.414734 58 41 41
5.885274 -2.991946 63.329376 58 40 41
5.877975 -2.851888 63.250839 59 40 41
5.871350 -2.712479 63.179539 59 40 41
5.865422 -2.573684 63.115753 59 41 41
5.860205 -2.435460 63.059616 59 41 41
5.855701 -2.297757 63.011150 58 39 39
5.851904 -2.160525 62.970295 57 37 38
5.848801 -2.023708 62.936901 55 36 38
5.846375 -1.887254 62.910793 55 35 37
5.844608 -1.751110 62.891777 55 36 38
5.843478 -1.615225 62.879620 56 37 39
5.842967 -1.479548 62.874119 58 38 40
5.843053 -1.344033 62.875050 59 38 39
5.843719 -1.208633 62.882210 59 38 39
5.844944 -1.073305 62.895397 59 38 40
5.846711 -0.938007 62.914413 59 38 40
5.849001 -0.802699 62.939056 59 38 41
5.851795 -0.667342 62.969112 59 38 43
5.855070 -0.531900 63.004353 59 38 43
5.858804 -0.396336 63.044537 59 38 43
5.862973 -0.260619 63.089405 59 38 43
5.867552 -0.124716 63.138672 61 39 43
5.872512 0.011399 63.192047 62 40 43
5.877824 0.147753 63.249207 63 41 43
5.883458 0.284369 63.309834 63 41 43
5.889384 0.421268 63.373596 62 40 42
5.895570 0.558466 63.440166 62 40 42
5.901985 0.695978 63.509190 62 41 41
5.908596 0.833815 63.580330 62 42 41
5.915371 0.971987 63.653240 62 42 41
5.922278 1.110497 63.727566 61 42 41
5.929282 1.249348 63.802929 59 41 40
5.936347 1.388538 63.878948 57 39 39
5.943435 1.528061 63.955223 55 38 37
5.950504 1.667909 64.031288 55 37 36
5.957510 1.808065 64.106674 54 36 36
5.964404 1.948509 64.180862 54 34 35
5.971137 2.089217 64.253311 55 34 36
5.977653 2.230157 64.323425 57 35 38
5.983896 2.371291 64.390610 59 37 40
5.989809 2.512575 64.454231 62 40 42
5.995333 2.653963 64.513680 64 42 44
6.000413 2.795399 64.568344 64 42 44
6.004995 2.936827 64.617645 63 41 44
6.009029 3.078188 64.661064 61 41 43
6.012473 3.219419 64.698120 59 40 41
6.015290 3.360461 64.728432 56 38 39
6.017453 3.501251 64.751709 55 37 38
6.018944 3.641737 64.767754 55 36 38
6.019757 3.781864 64.776489 56 36 38
6.019892 3.921589 64.777954 56 36 39
6.019364 4.060872 64.772270 57 37 39
6.018197 4.199685 64.759705 58 37 39
6.016422 4.338006 64.740616 59 37 39
6.014083 4.475823 64.715439 61 38 38
6.011228 4.613137 64.684723 62 38 37
6.007913 4.749955 64.649048 62 40 38
6.004198 4.886293 64.609070 63 41 39
6.000147 5.022178 64.565483 63 42 39
5.995825 5.157641 64.518974 62 42 39
