ply
format ascii 1.0
element vertex 1245
property float x
property float y
property float z
property uchar red
property uchar green
property uchar blue
end_header
6.672751 -9.918430 56.168346 24 18 17
6.686298 -9.817240 56.282375 25 18 16
6.699969 -9.715739 56.397453 26 18 17
6.713778 -9.613939 56.513691 26 18 17
6.727736 -9.511848 56.631180 26 18 17
6.741851 -9.409471 56.749992 26 18 18
6.756128 -9.306804 56.870171 26 18 18
6.770568 -9.203841 56.991726 26 18 18
6.785174 -9.100575 57.114666 26 19 18
6.799942 -8.996995 57.238976 26 19 18
6.814867 -8.893085 57.364616 25 19 18
6.829950 -8.788835 57.491577 25 19 19
6.845186 -8.684230 57.619820 25 19 19
6.860574 -8.579266 57.749355 25 19 19
6.876116 -8.473930 57.880177 25 19 19
6.891815 -8.368221 58.012321 26 19 19
6.907678 -8.262140 58.145851 27 20 20
6.923715 -8.155688 58.280849 27 21 20
6.939940 -8.048872 58.417419 28 22 21
6.956366 -7.941696 58.555683 29 23 22
6.973008 -7.834167 58.695778 30 23 23
6.989884 -7.726293 58.837830 30 23 24
7.007006 -7.618073 58.981953 30 24 25
7.024385 -7.509508 59.128246 31 24 25
7.042031 -7.400591 59.276779 31 23 25
7.059946 -7.291313 59.427578 33 24 25
7.078127 -7.181654 59.580620 35 25 26
7.096565 -7.071592 59.735828 38 26 27
7.115245 -6.961096 59.893063 40 28 28
7.134142 -6.850132 60.052132 42 29 29
7.153228 -6.738659 60.212788 42 30 29
7.172466 -6.626636 60.374729 42 30 29
7.191818 -6.514016 60.537621 42 31 28
7.211237 -6.400754 60.701088 40 30 27
7.230678 -6.286805 60.864727 37 27 25
7.250087 -6.172125 61.028107 35 25 24
7.269416 -6.056673 61.190811 33 24 23
7.288615 -5.940414 61.352417 33 23 23
7.307633 -5.823314 61.512505 32 22 24
7.326426 -5.705349 61.670696 32 22 23
7.344950 -5.586496 61.826622 31 22 23
7.363165 -5.466743 61.979946 32 22 22
7.381033 -5.346077 62.130360 32 21 22
7.398524 -5.224496 62.277584 33 22 23
7.415606 -5.101999 62.421379 34 22 24
7.432256 -4.978592 62.561523 35 23 24
7.448448 -4.854284 62.697826 37 23 25
7.464165 -4.729086 62.830124 40 24 26
7.479387 -4.603014 62.958260 43 26 28
7.494101 -4.476085 63.082111 47 29 31
7.508291 -4.348320 63.201557 51 33 33
7.521947 -4.219739 63.316509 55 37 36
7.535060 -4.090369 63.426888 58 41 39
7.547625 -3.960234 63.532650 59 43 42
7.559637 -3.829364 63.633766 60 45 44
7.571099 -3.697789 63.730247 61 45 44
7.582017 -3.565542 63.822147 59 44 43
7.592400 -3.432658 63.909550 53 38 38
7.602263 -3.299171 63.992573 50 35 35
7.611626 -3.165118 64.071388 50 35 35
7.620512 -3.030535 64.146187 51 35 35
7.628951 -2.895461 64.217216 53 37 35
7.636971 -2.759928 64.284729 58 41 39
7.644609 -2.623974 64.349022 67 48 46
7.651899 -2.487629 64.410385 80 60 58
7.658877 -2.350924 64.469124 94 71 69
7.665581 -2.213886 64.525558 97 74 73
7.672048 -2.076541 64.579987 85 64 64
7.678311 -1.938910 64.632713 74 54 56
7.684406 -1.801012 64.684021 74 56 59
7.690366 -1.662864 64.734184 83 66 70
7.696222 -1.524479 64.783478 94 80 81
7.702004 -1.385868 64.832146 103 88 90
7.707740 -1.247040 64.880432 104 91 92
7.713457 -1.108001 64.928558 115 103 104
7.719179 -0.968755 64.976715 139 128 129
7.724926 -0.829304 65.025101 144 133 136
7.730719 -0.689648 65.073860 130 121 126
7.736572 -0.549787 65.123131 125 117 124
7.742498 -0.409717 65.173012 126 120 127
7.748503 -0.269435 65.223557 126 121 129
7.754589 -0.128936 65.274788 127 121 128
7.760753 0.011784 65.326675 127 121 127
7.766984 0.152729 65.379120 133 126 131
7.773266 0.293902 65.431999 162 155 159
7.779577 0.435304 65.485130 205 199 201
7.785890 0.576936 65.538269 227 224 224
7.792173 0.718794 65.591156 220 214 215
7.798392 0.860873 65.643501 196 187 187
7.804509 1.003164 65.694992 176 167 167
7.810487 1.145657 65.745308 164 156 157
7.816290 1.288339 65.794159 147 140 143
7.821886 1.431193 65.841263 124 116 122
7.827247 1.574202 65.886391 108 100 109
7.832352 1.717350 65.929359 130 123 132
7.837187 1.860620 65.970062 178 170 180
7.841747 2.003994 66.008446 189 181 193
7.846038 2.147461 66.044563 153 144 159
7.850070 2.291007 66.078506 116 107 122
7.853867 2.434627 66.110466 101 93 107
7.857456 2.578317 66.140678 99 94 105
7.860869 2.722076 66.169411 98 95 105
7.864142 2.865907 66.196960 103 101 108
7.867306 3.009816 66.223595 125 125 130
7.870393 3.153809 66.249580 169 170 173
7.873427 3.297892 66.275116 206 208 209
7.876424 3.442068 66.300339 204 206 206
7.879388 3.586338 66.325287 171 171 170
7.882312 3.730697 66.349907 164 163 163
7.885176 3.875133 66.374008 206 203 205
7.887947 4.019625 66.397339 234 230 232
7.890583 4.164146 66.419518 203 195 196
7.893031 4.308661 66.440132 137 124 124
7.895237 4.453127 66.458702 87 74 72
7.897140 4.597498 66.474724 64 54 46
7.898687 4.741724 66.487740 54 46 33
7.899828 4.885755 66.497345 49 44 28
7.900524 5.029543 66.503204 77 73 55
7.900749 5.173049 66.505096 153 148 134
7.900495 5.316241 66.502960 220 217 211
7.899769 5.459097 66.496857 243 240 238
7.898601 5.601614 66.487015 228 219 219
7.897031 5.743795 66.473801 188 172 175
7.895122 5.885667 66.457733 151 131 137
7.892944 6.027265 66.439400 136 114 121
7.890580 6.168638 66.419502 129 106 114
7.888114 6.309843 66.398743 116 94 101
7.885634 6.450947 66.377869 99 77 84
7.883220 6.592018 66.357552 89 66 74
7.880948 6.733120 66.338417 83 60 67
7.878876 6.874316 66.320984 75 52 59
7.877056 7.015660 66.305656 68 45 50
7.875514 7.157191 66.292679 65 41 45
7.874263 7.298937 66.282150 63 40 42
7.873298 7.440907 66.274033 63 39 40
7.872598 7.583097 66.268135 63 39 40
7.872125 7.725485 66.264153 65 41 41
7.871831 7.868034 66.261681 67 43 42
7.871660 8.010698 66.260239 68 45 44
7.871550 8.153419 66.259315 71 50 48
7.871439 8.296135 66.258385 81 60 58
7.871269 8.438783 66.256943 98 78 76
7.870986 8.581302 66.254562 118 99 98
7.870546 8.723638 66.250870 119 102 101
7.869921 8.865747 66.245605 93 77 76
7.869091 9.007600 66.238609 63 48 48
7.868049 9.149178 66.229843 51 38 38
7.866805 9.290477 66.219368 51 37 38
7.865376 9.431510 66.207344 51 37 37
7.863789 9.572299 66.193985 48 33 33
7.862077 9.712876 66.179573 45 29 29
7.860276 9.853279 66.164413 43 27 27
7.858418 9.993546 66.148781 43 27 26
7.856537 10.133713 66.132942 44 26 26
7.854654 10.273810 66.117088 46 28 27
7.852785 10.413857 66.101357 48 29 29
7.850935 10.553864 66.085785 49 30 31
7.849100 10.693822 66.070343 54 37 38
7.847265 10.833714 66.054893 71 55 56
7.845407 10.973507 66.039253 85 71 72
7.843495 11.113156 66.023155 80 67 68
7.841496 11.252611 66.006332 59 47 48
7.839375 11.391816 65.988480 44 33 33
7.837098 11.530716 65.969315 39 28 28
7.834637 11.669258 65.948601 38 26 26
7.831971 11.807402 65.926155 38 26 27
7.829087 11.945116 65.901878 39 27 28
7.825985 12.082390 65.875771 40 28 29
7.822677 12.219227 65.847916 40 29 29
7.819181 12.355650 65.818497 40 29 29
7.815534 12.491702 65.787788 40 29 29
7.811774 12.627440 65.756142 38 29 28
7.807950 12.762938 65.723953 37 28 27
7.804115 12.898278 65.691673 36 28 26
7.800322 13.033550 65.659744 35 27 26
7.796622 13.168841 65.628601 35 27 26
7.793062 13.304236 65.598633 35 27 27
7.789679 13.439808 65.570160 34 27 27
7.786500 13.575612 65.543396 33 27 27
7.783540 13.711688 65.518486 33 26 27
7.780802 13.848051 65.495438 32 25 26
7.778276 13.984695 65.474174 32 24 25
7.775939 14.121591 65.454498 31 24 25
7.773757 14.258687 65.436134 31 24 24
7.771688 14.395913 65.418716 30 24 23
7.769685 14.533188 65.401863 29 24 21
7.767701 14.670424 65.385162 27 23 19
7.765691 14.807540 65.368240 26 23 18
7.763617 14.944460 65.350784 25 22 17
7.761454 15.081130 65.332565 25 22 17
7.759188 15.217523 65.313499 25 21 17
6.684076 -10.830312 55.260937 18 16 12
6.697485 -10.732676 55.371796 20 16 12
6.710856 -10.634501 55.482342 20 16 12
6.724206 -10.535818 55.592716 21 17 14
6.737554 -10.436655 55.703068 23 18 16
6.750916 -10.337038 55.813545 23 18 18
6.764315 -10.237000 55.924313 24 19 19
6.777768 -10.136566 56.035538 24 19 19
6.791298 -10.035766 56.147396 23 19 18
6.804924 -9.934624 56.260048 24 19 17
6.818665 -9.833162 56.373657 25 18 17
6.832541 -9.731402 56.488377 25 18 17
6.846566 -9.629359 56.604332 26 18 17
6.860754 -9.527040 56.721630 25 18 17
6.875114 -9.424453 56.840355 25 18 17
6.889652 -9.321593 56.960548 25 18 17
6.904372 -9.218459 57.082241 25 18 17
6.919272 -9.115038 57.205433 25 18 18
6.934351 -9.011318 57.330101 25 19 18
6.949607 -8.907287 57.456226 25 19 18
6.965034 -8.802928 57.583771 25 19 19
6.980627 -8.698227 57.712685 25 19 19
6.996384 -8.593170 57.842957 25 19 19
7.012303 -8.487749 57.974567 25 19 19
7.028385 -8.381954 58.107525 26 20 19
7.044633 -8.275782 58.241859 26 20 20
7.061054 -8.169230 58.377621 27 21 20
7.077658 -8.062302 58.514893 28 22 21
7.094454 -7.954998 58.653763 29 23 22
7.111457 -7.847322 58.794334 30 23 23
7.128679 -7.739278 58.936714 30 23 23
7.146132 -7.630867 59.081009 30 24 24
7.163826 -7.522088 59.227295 30 23 24
7.181768 -7.412933 59.375633 30 23 24
7.199963 -7.303395 59.526058 33 24 25
7.218407 -7.193458 59.678547 37 26 27
7.237094 -7.083100 59.833038 40 29 29
7.256009 -6.972295 59.989418 43 30 30
7.275131 -6.861012 60.147514 44 32 31
7.294434 -6.749214 60.307102 45 32 31
7.313885 -6.636863 60.467911 43 31 30
7.333446 -6.523916 60.629635 41 30 29
7.353075 -6.410331 60.791916 39 29 27
7.372725 -6.296065 60.954372 37 27 26
7.392347 -6.181075 61.116604 35 25 25
7.411892 -6.065322 61.278194 34 24 24
7.431310 -5.948771 61.438732 33 23 24
7.450550 -5.831388 61.597794 33 22 24
7.469564 -5.713148 61.754997 32 22 23
7.488307 -5.594027 61.909958 31 22 22
7.506738 -5.474009 62.062332 31 21 21
7.524814 -5.353084 62.211781 31 21 21
7.542502 -5.231244 62.358021 32 22 23
7.559770 -5.108490 62.500782 34 23 24
7.576588 -4.984824 62.639824 36 24 24
7.592930 -4.860254 62.774933 38 24 25
7.608774 -4.734791 62.905918 41 26 27
7.624099 -4.608451 63.032623 44 28 29
7.638888 -4.481250 63.154896 48 31 32
7.653126 -4.353208 63.272606 51 34 34
7.666800 -4.224348 63.385658 53 37 36
7.679901 -4.094695 63.493965 55 39 38
7.692421 -3.964275 63.597481 55 40 39
7.704359 -3.833120 63.696175 55 40 39
7.715715 -3.701260 63.790066 55 40 39
7.726499 -3.568731 63.879215 54 39 39
7.736721 -3.435568 63.963730 52 37 38
7.746398 -3.301809 64.043739 51 36 36
7.755553 -3.167491 64.119431 50 36 36
7.764214 -3.032654 64.191032 51 36 36
7.772412 -2.897336 64.258812 53 38 36
7.780182 -2.761574 64.323051 59 43 40
7.787563 -2.625403 64.384071 71 54 50
7.794593 -2.488857 64.442192 89 71 67
7.801313 -2.351968 64.497757 110 89 86
7.807764 -2.214762 64.551079 119 97 96
7.813983 -2.077265 64.602501 105 84 85
7.820010 -1.939498 64.652328 84 65 68
7.825881 -1.801481 64.700859 79 61 65
7.831627 -1.663229 64.748375 88 72 76
7.837285 -1.524753 64.795151 101 87 89
7.842882 -1.386066 64.841423 109 96 97
7.848447 -1.247174 64.887436 106 94 95
7.854006 -1.108083 64.933388 122 111 112
7.859581 -0.968796 64.979485 160 150 151
7.865195 -0.829314 65.025894 169 161 162
7.870864 -0.689637 65.072762 149 142 146
7.876602 -0.549762 65.120201 139 132 137
7.882420 -0.409687 65.168297 136 130 135
7.888322 -0.269408 65.217102 133 127 132
7.894311 -0.128920 65.266617 133 128 132
7.900380 0.011782 65.316788 135 130 134
7.906517 0.152702 65.367523 137 132 135
7.912703 0.293842 65.418671 149 143 146
7.918916 0.435204 65.470039 167 161 164
7.925126 0.576787 65.521385 173 166 169
7.931301 0.718589 65.572426 163 154 157
7.937403 0.860602 65.622879 153 143 146
7.943395 1.002819 65.672417 170 160 162
7.949237 1.145229 65.720726 202 194 196
7.954895 1.287816 65.767494 209 202 204
7.960334 1.430566 65.812462 179 171 175
7.965528 1.573462 65.855400 134 125 129
7.970455 1.716485 65.896133 116 107 112
7.975103 1.859619 65.934570 146 138 143
7.979471 2.002848 65.970673 178 169 176
7.983563 2.146158 66.004517 167 158 168
7.987397 2.289541 66.036209 128 119 130
7.990998 2.432989 66.065979 100 91 103
7.994397 2.576500 66.094078 95 88 98
7.997632 2.720077 66.120827 99 94 102
8.000742 2.863725 66.146538 106 102 108
8.003765 3.007450 66.171532 119 117 121
8.006738 3.151263 66.196106 137 138 140
8.009688 3.295174 66.220497 151 154 155
8.012636 3.439188 66.244873 161 165 166
8.015593 3.583312 66.269318 167 169 171
8.018551 3.727541 66.293777 176 175 179
8.021494 3.871869 66.318108 207 204 209
8.024389 4.016277 66.342041 240 237 241
8.027195 4.160743 66.365234 237 233 236
8.029856 4.305231 66.387238 199 189 192
8.032314 4.449701 66.407562 138 127 128
8.034506 4.594107 66.425682 81 71 68
8.036371 4.738398 66.441109 53 45 38
8.037855 4.882524 66.453369 48 42 31
8.038910 5.026434 66.462090 62 57 44
8.039503 5.170086 66.467003 112 106 96
8.039619 5.313443 66.467957 180 175 169
8.039260 5.456481 66.464981 219 213 210
8.038445 5.599190 66.458244 205 194 195
8.037212 5.741571 66.448059 165 149 151
8.035618 5.883643 66.434875 130 112 116
8.033731 6.025440 66.419281 115 93 99
8.031631 6.167004 66.401917 111 88 94
8.029402 6.308393 66.383484 105 82 86
8.027129 6.449667 66.364700 96 73 76
8.024898 6.590894 66.346245 91 67 70
8.022781 6.732139 66.328751 87 63 65
8.020845 6.873463 66.312752 82 57 60
8.019139 7.014918 66.298637 75 51 54
8.017695 7.156546 66.286697 70 47 49
8.016528 7.298376 66.277046 66 43 45
8.015634 7.440416 66.269653 63 40 41
8.014993 7.582665 66.264359 62 38 38
8.014571 7.725102 66.260872 63 39 38
8.014320 7.867692 66.258797 64 40 39
8.014186 8.010389 66.257683 66 43 41
8.014105 8.153136 66.257019 69 46 44
8.014015 8.295872 66.256279 72 49 47
8.013860 8.438533 66.254990 78 56 55
8.013582 8.581060 66.252701 90 70 69
8.013143 8.723399 66.249062 94 76 75
8.012506 8.865505 66.243797 81 64 64
8.011656 9.007349 66.236771 62 47 48
8.010585 9.148911 66.227913 52 38 39
8.009302 9.290188 66.217316 52 38 39
8.007826 9.431190 66.205101 52 38 37
8.006182 9.571941 66.191513 49 35 34
8.004404 9.712471 66.176819 46 31 30
8.002528 9.852817 66.161308 44 28 28
8.000588 9.993015 66.145271 44 27 27
7.998616 10.133102 66.128960 44 27 26
7.996634 10.273108 66.112572 45 26 26
7.994658 10.413052 66.096245 46 28 28
7.992695 10.552940 66.080009 46 28 30
7.990737 10.692767 66.063828 50 33 35
7.988771 10.832513 66.047569 63 47 49
7.986773 10.972144 66.031052 76 62 63
7.984712 11.111616 66.014008 74 61 62
7.982553 11.250877 65.996155 58 46 47
7.980259 11.389869 65.977196 44 33 33
7.977798 11.528536 65.956841 39 27 28
7.975137 11.666825 65.934845 38 26 26
7.972257 11.804693 65.911034 39 26 27
7.969142 11.942108 65.885284 40 27 28
7.965795 12.079059 65.857605 41 28 29
7.962222 12.215544 65.828072 41 29 29
7.958447 12.351588 65.796860 41 29 29
7.954502 12.487230 65.764244 40 29 29
7.950429 12.622530 65.730568 39 29 28
7.946278 12.757559 65.696251 38 29 27
7.942102 12.892400 65.661736 37 28 26
7.937959 13.027144 65.627472 36 27 26
7.933900 13.161882 65.593918 36 27 26
7.929976 13.296700 65.561478 35 27 26
7.926228 13.431678 65.530495 34 27 26
7.922686 13.566874 65.501205 34 27 26
7.919369 13.702332 65.473778 33 26 26
7.916283 13.838078 65.448265 32 25 25
7.913423 13.974111 65.424622 32 24 25
7.910769 14.110412 65.402679 32 24 24
7.908290 14.246932 65.382187 31 24 24
7.905949 14.383614 65.362831 30 24 23
7.903699 14.520382 65.344231 29 23 21
7.901496 14.657155 65.326019 27 23 19
7.899297 14.793858 65.307838 26 22 18
7.897064 14.930417 65.289375 25 21 18
7.894771 15.066782 65.270416 25 22 18
7.892405 15.202926 65.250854 24 21 18
6.814666 -10.848564 55.354069 18 16 11
6.828313 -10.750727 55.464924 19 16 11
6.841912 -10.652336 55.575390 20 16 12
6.855482 -10.553424 55.685616 21 17 13
6.869043 -10.454022 55.795765 23 18 16
6.882615 -10.354163 55.906006 23 19 17
6.896220 -10.253878 56.016514 24 19 19
6.909881 -10.153198 56.127483 24 19 19
6.923621 -10.052155 56.239090 23 19 18
6.937463 -9.950776 56.351524 24 19 17
6.951426 -9.849085 56.464943 24 18 17
6.965534 -9.747108 56.579536 24 18 17
6.979801 -9.644856 56.695431 25 18 17
6.994245 -9.542345 56.812748 24 18 16
7.008874 -9.439578 56.931580 24 18 16
7.023697 -9.336557 57.051987 24 18 16
7.038717 -9.233276 57.173992 24 18 16
7.053936 -9.129725 57.297607 24 19 17
7.069349 -9.025889 57.422806 24 19 17
7.084953 -8.921756 57.549557 25 19 18
7.100743 -8.817305 57.677814 26 20 19
7.116710 -8.712519 57.807514 26 20 19
7.132850 -8.607381 57.938614 26 20 19
7.149158 -8.501879 58.071075 26 20 19
7.165630 -8.395998 58.204880 26 20 19
7.182268 -8.289730 58.340023 26 20 20
7.199073 -8.183072 58.476532 27 21 20
7.216052 -8.076017 58.614441 28 22 21
7.233210 -7.968567 58.753815 29 23 22
7.250558 -7.860723 58.894733 29 23 22
7.268108 -7.752484 59.037285 30 23 22
7.285868 -7.643852 59.181541 30 23 23
7.303848 -7.534825 59.327591 29 22 22
7.322054 -7.425398 59.475475 31 22 23
7.340491 -7.315564 59.625240 34 25 26
7.359160 -7.205310 59.776882 37 28 28
7.378054 -7.094620 59.930351 41 31 31
7.397162 -6.983469 60.085560 45 34 34
7.416467 -6.871832 60.242371 48 37 35
7.435945 -6.759677 60.400585 46 35 34
7.455568 -6.646968 60.559982 43 32 31
7.475301 -6.533669 60.720268 40 29 29
7.495105 -6.419739 60.881130 38 28 27
7.514935 -6.305138 61.042210 36 26 26
7.534745 -6.189825 61.203121 35 25 25
7.554485 -6.073762 61.363464 34 23 24
7.574105 -5.956914 61.522835 33 22 23
7.593554 -5.839248 61.680817 32 21 22
7.612783 -5.720735 61.837006 31 21 21
7.631744 -5.601351 61.991020 31 21 20
7.650391 -5.481079 62.142490 30 21 20
7.668681 -5.359904 62.291054 29 21 20
7.686576 -5.237820 62.436409 31 21 22
7.704038 -5.114821 62.578247 34 23 24
7.721035 -4.990911 62.716316 37 24 25
7.737539 -4.866095 62.850368 39 25 26
7.753521 -4.740382 62.980194 43 28 28
7.768961 -4.613787 63.105606 46 31 31
7.783836 -4.486326 63.226437 48 33 33
7.798131 -4.358019 63.342545 50 35 34
7.811828 -4.228889 63.453808 51 36 35
7.824919 -4.098962 63.560143 51 37 35
7.837396 -3.968265 63.661491 51 37 36
7.849257 -3.836830 63.757835 51 37 36
7.860504 -3.704691 63.849190 50 36 36
7.871145 -3.571882 63.935627 50 35 36
7.881196 -3.438444 64.017265 49 34 36
7.890676 -3.304414 64.094269 49 34 36
7.899610 -3.169833 64.166840 51 36 37
7.908030 -3.034742 64.235237 52 38 37
7.915973 -2.899182 64.299751 55 41 38
7.923477 -2.763190 64.360703 61 48 43
7.930585 -2.626804 64.418442 75 60 55
7.937341 -2.490060 64.473320 96 80 76
7.943790 -2.352987 64.525703 124 106 103
7.949975 -2.215615 64.575943 141 121 120
7.955938 -2.077969 64.624382 126 108 108
7.961720 -1.940069 64.671341 94 77 79
7.967359 -1.801935 64.717148 79 64 66
7.972889 -1.663580 64.762070 87 73 75
7.978344 -1.525018 64.806381 103 92 92
7.983754 -1.386256 64.850319 116 106 105
7.989146 -1.247303 64.894127 119 110 108
7.994545 -1.108161 64.937973 129 121 120
7.999973 -0.968834 64.982063 153 147 146
8.005448 -0.829322 65.026543 157 150 152
8.010987 -0.689624 65.071533 147 141 144
8.016603 -0.549736 65.117149 153 147 150
8.022304 -0.409657 65.163452 159 152 156
8.028093 -0.269381 65.210480 152 146 149
8.033969 -0.128903 65.258209 146 141 143
8.039926 0.011780 65.306595 146 140 143
8.045950 0.152674 65.355530 144 138 142
8.052021 0.293780 65.404839 140 134 139
8.058113 0.435099 65.454330 133 127 133
8.064198 0.576632 65.503754 122 114 120
8.070240 0.718374 65.552834 114 105 111
8.076202 0.860319 65.601265 124 113 117
8.082047 1.002458 65.648735 164 153 155
8.087732 1.144779 65.694923 217 209 211
8.093225 1.287269 65.739532 241 236 237
8.098492 1.429911 65.782310 222 215 215
8.103503 1.572688 65.823021 175 165 164
8.108242 1.715583 65.861511 131 121 120
8.112698 1.858579 65.897705 122 113 114
8.116868 2.001661 65.931580 145 137 140
8.120763 2.144816 65.963219 161 153 158
8.124401 2.288035 65.992775 148 139 146
8.127812 2.431313 66.020477 124 115 123
8.131031 2.574650 66.046623 113 104 112
8.134099 2.718050 66.071541 112 104 111
8.137060 2.861519 66.095596 113 107 112
8.139957 3.005069 66.119133 113 110 113
8.142831 3.148710 66.142471 109 108 111
8.145715 3.292457 66.165894 106 107 110
8.148631 3.436318 66.189590 129 131 136
8.151595 3.580302 66.213661 168 168 175
8.154602 3.724410 66.238091 185 182 193
8.157638 3.868637 66.262741 193 188 200
8.160670 4.012968 66.287376 210 205 214
8.163654 4.157381 66.311615 223 219 225
8.166537 4.301845 66.335037 220 212 220
8.169256 4.446321 66.357117 176 164 171
8.171742 4.590761 66.377319 106 94 97
8.173932 4.735117 66.395103 64 53 53
8.175763 4.879335 66.409973 53 44 41
8.177182 5.023364 66.421501 54 47 41
8.178148 5.167157 66.429352 78 71 65
8.178640 5.310676 66.433342 133 125 121
8.178653 5.453892 66.433441 178 169 168
8.178198 5.596789 66.429749 176 164 165
8.177309 5.739365 66.422531 147 130 134
8.176039 5.881636 66.412209 119 100 105
8.174451 6.023628 66.399315 101 80 84
8.172623 6.165383 66.384468 93 70 73
8.170637 6.306953 66.368340 90 66 67
8.168582 6.448399 66.351639 89 64 63
8.166538 6.589782 66.335045 89 64 62
8.164586 6.731168 66.319183 89 64 61
8.162789 6.872617 66.304588 87 62 60
8.161201 7.014182 66.291679 84 59 57
8.159855 7.155905 66.280754 78 54 53
8.158771 7.297813 66.271942 72 48 49
8.157945 7.439920 66.265236 67 44 43
8.157360 7.582222 66.260490 63 40 39
8.156984 7.724702 66.257439 63 39 38
8.156771 7.867324 66.255699 64 40 39
8.156665 8.010045 66.254837 68 44 43
8.156606 8.152809 66.254356 73 48 48
8.156531 8.295556 66.253761 74 51 50
8.156384 8.438224 66.252556 74 52 51
8.156109 8.580752 66.250320 75 54 54
8.155663 8.723089 66.246696 74 55 55
8.155014 8.865190 66.241432 68 51 52
8.154144 9.007023 66.234367 60 43 45
8.153047 9.148571 66.225456 53 37 39
8.151731 9.289829 66.214760 52 37 37
8.150211 9.430809 66.202423 52 37 37
8.148518 9.571530 66.188667 51 36 36
8.146682 9.712022 66.173752 49 33 33
8.144740 9.852322 66.157982 47 31 31
8.142727 9.992464 66.141624 45 29 29
8.140671 10.132484 66.124924 44 27 27
8.138597 10.272411 66.108086 44 27 26
8.136521 10.412261 66.091225 45 27 28
8.134447 10.552041 66.074371 46 28 30
8.132370 10.691744 66.057503 49 31 33
8.130274 10.831348 66.040466 55 39 41
8.128133 10.970820 66.023087 62 48 49
8.125916 11.110114 66.005081 63 50 51
8.123590 11.249176 65.986183 55 43 44
8.121115 11.387950 65.966080 47 34 35
8.118457 11.526377 65.944489 42 29 30
8.115586 11.664405 65.921165 40 27 28
8.112478 11.801988 65.895927 41 27 28
8.109122 11.939095 65.868660 41 27 29
8.105515 12.075711 65.839355 42 28 30
8.101665 12.211838 65.808098 42 28 30
8.097600 12.347498 65.775070 41 29 29
8.093349 12.482729 65.740532 41 29 28
8.088956 12.617592 65.704857 40 29 28
8.084473 12.752158 65.668442 39 29 27
8.079955 12.886512 65.631744 38 28 26
8.075461 13.020746 65.595245 37 28 25
8.071048 13.154954 65.559395 36 27 25
8.066767 13.289226 65.524620 36 27 25
8.062663 13.423641 65.491280 35 27 25
8.058769 13.558268 65.459656 34 27 25
8.055110 13.693155 65.429932 33 26 25
8.051693 13.828332 65.402176 32 25 25
8.048516 13.963807 65.376373 32 24 24
8.045567 14.099566 65.352409 32 24 25
8.042813 14.235570 65.330048 31 24 24
8.040220 14.371765 65.308983 30 24 23
8.037746 14.508084 65.288887 29 23 21
8.035347 14.644452 65.269402 27 22 20
8.032981 14.780798 65.250183 26 21 19
8.030610 14.917051 65.230927 26 21 19
8.028208 15.053164 65.211418 25 21 19
8.025761 15.189106 65.191536 25 21 19
6.945304 -10.866265 55.444389 17 16 11
6.959222 -10.768282 55.555496 18 16 11
6.973082 -10.669729 55.666134 19 16 12
6.986904 -10.570643 55.776478 20 17 13
7.000711 -10.471061 55.886703 21 17 15
7.014526 -10.371014 55.996990 22 18 16
7.028373 -10.270536 56.107521 23 18 17
7.042275 -10.169663 56.218506 23 19 18
7.056258 -10.068428 56.330132 23 19 18
7.070345 -9.966857 56.442589 23 19 17
7.084561 -9.864982 56.556080 24 18 17
7.098930 -9.762826 56.670780 24 18 16
7.113468 -9.660407 56.786842 24 18 16
7.128193 -9.557737 56.904392 24 18 16
7.143119 -9.454827 57.023548 23 18 15
7.158253 -9.351674 57.144356 23 18 15
7.173598 -9.248274 57.266861 23 19 15
7.189157 -9.144616 57.391068 24 19 16
7.204926 -9.040688 57.516949 24 19 17
7.220899 -8.936468 57.644463 25 20 18
7.237070 -8.831941 57.773556 26 20 19
7.253427 -8.727081 57.904133 26 20 19
7.269963 -8.621870 58.036144 27 21 19
7.286670 -8.516290 58.169514 27 20 19
7.303541 -8.410323 58.304192 27 21 19
7.320570 -8.303956 58.440136 28 21 20
7.337758 -8.197180 58.577347 29 22 21
7.355104 -8.089986 58.715820 30 23 21
7.372613 -7.982372 58.855598 30 23 21
7.390292 -7.874335 58.996723 30 23 21
7.408147 -7.765876 59.139263 30 23 22
7.426188 -7.656993 59.283283 30 23 22
7.444423 -7.547686 59.428852 30 22 22
7.462859 -7.437952 59.576027 32 23 23
7.481502 -7.327786 59.724857 35 26 26
7.500355 -7.217181 59.875359 38 29 29
7.519414 -7.106121 60.027508 44 33 33
7.538672 -6.994590 60.181244 49 39 38
7.558117 -6.882566 60.336472 53 43 42
7.577729 -6.770023 60.493034 49 39 39
7.597484 -6.656930 60.650742 41 32 32
7.617352 -6.543254 60.809349 38 27 28
7.637297 -6.428959 60.968567 37 25 27
7.657278 -6.314007 61.128075 36 24 25
7.677249 -6.198359 61.287506 35 23 24
7.697163 -6.081979 61.446480 34 22 23
7.716969 -5.964831 61.604591 33 21 23
7.736616 -5.846880 61.761433 32 21 23
7.756052 -5.728097 61.916592 31 21 21
7.775227 -5.608457 62.069660 30 21 20
7.794091 -5.487938 62.220257 29 20 19
7.812598 -5.366525 62.367996 29 21 19
7.830704 -5.244206 62.512539 30 21 21
7.848369 -5.120976 62.653557 33 23 24
7.865555 -4.996835 62.790752 37 25 26
7.882230 -4.871785 62.923866 41 27 28
7.898361 -4.745835 63.052643 45 31 31
7.913923 -4.618998 63.176880 47 33 34
7.928893 -4.491289 63.296383 48 35 35
7.943249 -4.362729 63.410984 49 35 35
7.956975 -4.233338 63.520561 48 35 34
7.970059 -4.103145 63.625008 48 34 33
7.982492 -3.972178 63.724266 47 34 33
7.994274 -3.840470 63.818314 46 34 33
8.005405 -3.708055 63.907181 46 33 33
8.015899 -3.574973 63.990944 47 33 34
8.025768 -3.441262 64.069740 48 33 35
8.035040 -3.306965 64.143753 50 34 37
8.043741 -3.172124 64.213211 51 36 38
8.051908 -3.036782 64.278412 53 38 39
8.059584 -2.900982 64.339684 57 45 41
8.066809 -2.764764 64.397362 66 55 50
8.073633 -2.628166 64.451843 82 70 64
8.080105 -2.491225 64.503502 104 90 84
8.086273 -2.353973 64.552750 134 118 115
8.092185 -2.216438 64.599937 161 143 142
8.097886 -2.078646 64.645454 148 131 131
8.103419 -1.940618 64.689629 104 88 89
8.108826 -1.802370 64.732780 77 62 63
8.114139 -1.663917 64.775192 81 69 70
8.119391 -1.525271 64.817131 103 92 92
8.124616 -1.386438 64.858841 126 117 117
8.129837 -1.247426 64.900513 138 132 131
8.135077 -1.108236 64.942345 139 133 133
8.140357 -0.968871 64.984497 136 131 132
8.145694 -0.829329 65.027100 129 124 127
8.151101 -0.689610 65.070267 136 131 134
8.156590 -0.549711 65.114082 172 167 170
8.162166 -0.409626 65.158600 200 196 197
8.167831 -0.269353 65.203827 195 191 191
8.173583 -0.128886 65.249741 181 176 175
8.179412 0.011778 65.296272 172 166 167
8.185305 0.152645 65.343315 159 153 156
8.191239 0.293716 65.390694 136 130 136
8.197191 0.434992 65.438202 114 109 117
8.203127 0.576472 65.485588 104 98 107
8.209015 0.718152 65.532593 109 100 109
8.214815 0.860025 65.578896 129 119 126
8.220490 1.002083 65.624199 170 159 163
8.225999 1.144313 65.668182 217 206 209
8.231309 1.286702 65.710564 236 228 227
8.236386 1.429233 65.751099 223 215 211
8.241205 1.571889 65.789574 199 189 184
8.245747 1.714653 65.825829 169 160 154
8.250004 1.857510 65.859810 137 129 125
8.253976 2.000445 65.891525 130 122 120
8.257676 2.143445 65.921059 149 141 142
8.261126 2.286503 65.948593 168 160 163
8.264356 2.429616 65.974380 175 167 171
8.267406 2.572784 65.998734 169 161 165
8.270323 2.716012 66.022018 153 145 148
8.273152 2.859312 66.044601 132 125 126
8.275942 3.002693 66.066872 112 106 107
8.278735 3.146173 66.089172 95 91 93
8.281569 3.289765 66.111801 88 85 90
8.284472 3.433483 66.134972 108 106 114
8.287459 3.577337 66.158821 142 140 152
8.290530 3.721331 66.183334 157 151 168
8.293671 3.865464 66.208397 149 141 159
8.296848 4.009723 66.233765 143 133 150
8.300021 4.154088 66.259094 160 149 163
8.303131 4.298531 66.283920 193 180 193
8.306112 4.443011 66.307724 187 173 183
8.308896 4.587485 66.329948 132 117 125
8.311410 4.731901 66.350014 83 70 75
8.313586 4.876206 66.367393 62 51 54
8.315369 5.020348 66.381615 55 46 47
8.316708 5.164276 66.392303 63 54 55
8.317575 5.307949 66.399223 92 83 84
8.317957 5.451334 66.402283 126 116 119
8.317864 5.594412 66.401535 143 129 134
8.317322 5.737177 66.397209 143 126 133
8.316378 5.879640 66.389671 133 114 120
8.315093 6.021823 66.379417 116 94 98
8.313541 6.163764 66.367027 96 72 74
8.311806 6.305512 66.353172 84 58 57
8.309972 6.447124 66.338531 82 56 52
8.308123 6.588662 66.323776 86 59 54
8.306338 6.730188 66.309525 90 63 57
8.304684 6.871760 66.296318 93 66 61
8.303215 7.013432 66.284599 93 67 63
8.301970 7.155246 66.274651 88 62 60
8.300966 7.297230 66.266647 80 55 54
8.300206 7.439397 66.260574 72 48 47
8.299675 7.581747 66.256332 66 42 42
8.299339 7.724261 66.253654 63 39 39
8.299157 7.866909 66.252197 65 41 40
8.299073 8.009645 66.251534 72 48 47
8.299029 8.152418 66.251183 84 59 59
8.298964 8.295168 66.250656 90 66 65
8.298819 8.437834 66.249496 87 64 65
8.298540 8.580358 66.247276 79 58 59
8.298086 8.722688 66.243652 72 52 53
8.297424 8.864779 66.238365 66 47 50
8.296535 9.006602 66.231277 60 42 45
8.295415 9.148138 66.222328 55 37 39
8.294068 9.289383 66.211578 52 36 37
8.292514 9.430346 66.199165 53 37 36
8.290779 9.571046 66.185318 52 37 36
8.288894 9.711511 66.170273 53 37 36
8.286897 9.851777 66.154327 52 36 35
8.284818 9.991876 66.137726 49 34 33
8.282689 10.131843 66.120735 46 30 29
8.280533 10.271702 66.103523 44 27 27
8.278362 10.411469 66.086197 44 27 27
8.276183 10.551151 66.068802 45 28 29
8.273988 10.690737 66.051277 47 30 32
8.271761 10.830204 66.033493 50 34 35
8.269475 10.969519 66.015251 53 38 39
8.267099 11.108633 65.996284 55 41 42
8.264597 11.247493 65.976311 52 39 40
8.261931 11.386042 65.955025 48 35 35
8.259066 11.524220 65.932152 45 31 32
8.255970 11.661975 65.907440 44 29 31
8.252622 11.799261 65.880707 43 28 31
8.249007 11.936049 65.851852 43 28 31
8.245126 12.072320 65.820869 43 28 31
8.240989 12.208078 65.787842 42 28 31
8.236618 12.343346 65.752953 42 29 30
8.232051 12.478163 65.716484 41 29 28
8.227330 12.612590 65.678810 40 29 27
8.222509 12.746698 65.640327 39 29 26
8.217649 12.880576 65.601517 38 28 25
8.212807 13.014318 65.562859 38 28 25
8.208042 13.148019 65.524834 37 28 25
8.203414 13.281774 65.487877 37 28 25
8.198966 13.415666 65.452370 35 27 25
8.194737 13.549767 65.418617 34 27 25
8.190754 13.684133 65.386818 33 26 24
8.187028 13.818796 65.357071 32 25 24
8.183560 13.953771 65.329391 33 25 25
8.180339 14.089050 65.303673 33 25 25
8.177338 14.224603 65.279709 32 25 25
8.174521 14.360376 65.257233 31 25 24
8.171851 14.496312 65.235916 29 24 22
8.169283 14.632339 65.215416 28 23 21
8.166776 14.768388 65.195396 27 22 20
8.164292 14.904393 65.175575 27 21 19
8.161805 15.040306 65.155716 26 21 20
8.159298 15.176097 65.135704 25 20 20
7.075953 -10.883383 55.531727 18 15 12
7.090172 -10.785306 55.643326 18 15 12
7.104328 -10.686650 55.754414 19 16 12
7.118439 -10.587451 55.865158 20 16 13
7.132530 -10.487743 55.975742 21 17 14
7.146624 -10.387565 56.086353 21 17 15
7.160748 -10.286951 56.197197 22 17 16
7.174926 -10.185937 56.308464 22 18 17
7.189187 -10.084558 56.420380 23 18 17
7.203554 -9.982845 56.533134 23 18 17
7.218055 -9.880831 56.646942 24 18 17
7.232715 -9.778538 56.761986 24 18 17
7.247554 -9.675991 56.878448 24 17 16
7.262591 -9.573200 56.996452 23 17 16
7.277839 -9.470177 57.116123 22 18 15
7.293310 -9.366922 57.237534 22 18 14
7.309005 -9.263431 57.360714 22 19 15
7.324928 -9.159691 57.485676 23 19 15
7.341074 -9.055689 57.612389 24 19 16
7.357436 -8.951403 57.740795 25 20 17
7.374005 -8.846811 57.870827 26 20 18
7.390768 -8.741888 58.002384 26 20 18
7.407713 -8.636611 58.135365 27 21 18
7.424827 -8.530954 58.269680 28 21 18
7.442101 -8.424899 58.405239 28 21 19
7.459523 -8.318425 58.541969 29 22 21
7.477089 -8.211520 58.679829 30 23 21
7.494796 -8.104173 58.818787 31 23 22
7.512642 -7.996375 58.958847 32 23 22
7.530632 -7.888123 59.100025 32 23 22
7.548770 -7.779416 59.242374 32 23 22
7.567065 -7.670253 59.385952 32 23 23
7.585524 -7.560636 59.530815 32 23 23
7.604154 -7.450562 59.677025 34 24 24
7.622965 -7.340031 59.824654 36 27 26
7.641961 -7.229039 59.973736 40 31 29
7.661144 -7.117577 60.124279 44 34 33
7.680511 -7.005634 60.276268 49 39 38
7.700054 -6.893194 60.429642 52 42 41
7.719759 -6.780235 60.584282 46 37 36
7.739607 -6.666733 60.740055 38 28 28
7.759573 -6.552659 60.896751 35 24 25
7.779627 -6.437981 61.054127 35 23 24
7.799728 -6.322664 61.211887 35 22 24
7.819837 -6.206671 61.369694 35 21 24
7.839903 -6.089967 61.527172 35 21 24
7.859879 -5.972514 61.683945 34 21 24
7.879711 -5.854278 61.839581 33 21 23
7.899346 -5.735229 61.993675 32 21 21
7.918729 -5.615336 62.145798 30 21 20
7.937809 -5.494578 62.295540 30 21 19
7.956534 -5.372935 62.442490 29 21 19
7.974856 -5.250392 62.586277 30 22 21
7.992728 -5.126941 62.726536 33 23 24
8.010110 -5.002580 62.862946 37 26 26
8.026961 -4.877308 62.995197 41 30 30
8.043249 -4.751132 63.123020 47 34 35
8.058940 -4.624063 63.246162 49 37 38
8.074008 -4.496117 63.364418 49 37 36
8.088430 -4.367312 63.477600 47 36 35
8.102186 -4.237670 63.585560 46 34 33
8.115264 -4.107220 63.688190 44 32 32
8.127652 -3.975990 63.785412 43 31 30
8.139350 -3.844015 63.877216 43 31 30
8.150361 -3.711331 63.963634 44 31 31
8.160699 -3.577979 64.044762 46 31 32
8.170382 -3.444002 64.120750 48 32 35
8.179435 -3.309442 64.191803 50 34 37
8.187894 -3.174346 64.258186 53 36 40
8.195799 -3.038758 64.320221 55 40 41
8.203196 -2.902722 64.378273 61 49 47
8.210134 -2.766282 64.432724 76 65 62
8.216666 -2.629478 64.483994 96 84 79
8.222847 -2.492345 64.532501 111 98 95
8.228730 -2.354918 64.578667 133 118 116
8.234366 -2.217226 64.622902 160 145 143
8.239804 -2.079293 64.665581 154 139 138
8.245090 -1.941140 64.707054 107 93 94
8.250264 -1.802785 64.747665 70 58 58
8.255363 -1.664238 64.787689 73 62 62
8.260421 -1.525512 64.827377 102 93 93
8.265464 -1.386612 64.866951 136 129 128
8.270518 -1.247543 64.906616 157 151 151
8.275604 -1.108307 64.946533 155 151 151
8.280740 -0.968905 64.986839 139 135 137
8.285940 -0.829336 65.027649 129 125 128
8.291216 -0.689597 65.069054 139 135 138
8.296574 -0.549685 65.111099 180 177 179
8.302020 -0.409596 65.153847 225 223 224
8.307553 -0.269326 65.197266 235 234 233
8.313169 -0.128870 65.241341 225 222 220
8.318858 0.011777 65.285988 213 209 209
8.324603 0.152616 65.331078 190 186 187
8.330384 0.293652 65.376442 146 142 147
8.336173 0.434884 65.421875 111 107 114
8.341941 0.576310 65.467148 107 102 111
8.347652 0.717926 65.511963 124 117 127
8.353270 0.859726 65.556046 151 141 149
8.358755 1.001700 65.599098 188 177 182
8.364070 1.143836 65.640808 220 207 209
8.369180 1.286121 65.680916 219 207 204
8.374055 1.428539 65.719170 198 186 180
8.378671 1.571072 65.755394 189 178 172
8.383009 1.713706 65.789444 187 177 171
8.387065 1.856423 65.821274 170 162 157
8.390841 1.999211 65.850906 161 153 150
8.394350 2.142059 65.878448 169 162 161
8.397619 2.284961 65.904099 182 175 175
8.400681 2.427912 65.928131 197 189 190
8.403579 2.570918 65.950874 210 203 202
8.406360 2.713984 65.972694 203 196 195
8.409076 2.857121 65.994011 168 161 160
8.411777 3.000345 66.015205 123 116 115
8.414509 3.143673 66.036652 89 84 85
8.417314 3.287121 66.058662 80 75 80
8.420220 3.430705 66.081474 92 87 95
8.423245 3.574439 66.105217 111 105 117
8.426394 3.718328 66.129921 121 112 127
8.429649 3.862374 66.155472 114 103 119
8.432981 4.006566 66.181618 102 87 104
8.436345 4.150886 66.208023 114 97 113
8.439684 4.295308 66.234222 156 138 150
8.442928 4.439792 66.259682 173 156 165
8.446004 4.584295 66.283821 142 126 133
8.448836 4.728766 66.306053 101 86 92
8.451353 4.873151 66.325806 74 61 66
8.453490 5.017395 66.342575 60 49 53
8.455194 5.161448 66.355949 57 47 52
8.456429 5.305264 66.365646 68 58 64
8.457177 5.448808 66.371513 87 76 83
8.457441 5.592056 66.373581 109 96 103
8.457243 5.735001 66.372025 132 115 124
8.456623 5.877646 66.367165 149 130 137
8.455642 6.020013 66.359459 149 126 131
8.454369 6.162134 66.349472 132 108 109
8.452886 6.304055 66.337830 110 84 82
8.451276 6.445829 66.325195 91 63 59
8.449625 6.587516 66.312241 86 56 51
8.448011 6.729177 66.299576 91 61 55
8.446503 6.870871 66.287743 98 69 62
8.445156 7.012646 66.277168 103 75 70
8.444011 7.154547 66.268181 100 72 69
8.443089 7.296602 66.260941 88 61 60
8.442392 7.438825 66.255478 77 51 51
8.441910 7.581215 66.251686 70 45 46
8.441610 7.723758 66.249344 66 41 42
8.441454 7.866423 66.248108 66 41 42
8.441386 8.009168 66.247581 76 51 52
8.441351 8.151941 66.247307 94 70 70
8.441288 8.294686 66.246811 109 85 85
8.441139 8.437344 66.245651 111 88 89
8.440854 8.579857 66.243408 100 77 79
8.440390 8.722176 66.239761 84 62 64
8.439713 8.864256 66.234459 72 51 54
8.438808 9.006069 66.227356 63 43 45
8.437667 9.147594 66.218391 56 38 39
8.436296 9.288831 66.207642 54 36 37
8.434713 9.429783 66.195221 53 37 36
8.432946 9.570471 66.181343 54 38 37
8.431023 9.710920 66.166252 56 40 39
8.428980 9.851165 66.150215 58 42 41
8.426847 9.991235 66.133484 55 40 39
8.424656 10.131161 66.116287 49 34 33
8.422425 10.270965 66.098778 44 29 28
8.420169 10.410662 66.081070 43 27 27
8.417890 10.550254 66.063187 45 28 29
8.415580 10.689730 66.045059 47 30 31
8.413221 10.829065 66.026550 48 32 32
8.410789 10.968223 66.007454 49 35 35
8.408247 11.107156 65.987511 50 37 37
8.405561 11.245810 65.966431 49 36 36
8.402693 11.384125 65.943924 46 33 33
8.399607 11.522044 65.919701 44 31 32
8.396272 11.659514 65.893532 45 31 32
8.392667 11.796491 65.865234 47 32 34
8.388779 11.932942 65.834717 47 32 35
8.384606 12.068855 65.801979 47 32 36
8.380165 12.204233 65.767120 46 32 35
8.375477 12.339099 65.730331 44 30 33
8.370581 12.473495 65.691910 42 28 30
8.365524 12.607485 65.652222 40 28 28
8.360361 12.741140 65.611702 39 28 26
8.355154 12.874553 65.570831 38 28 25
8.349966 13.007819 65.530121 38 28 25
8.344859 13.141038 65.490044 38 28 25
8.339892 13.274308 65.451065 37 29 25
8.335117 13.407717 65.413589 35 28 24
8.330574 13.541341 65.377930 34 27 24
8.326290 13.675238 65.344315 34 26 24
8.322281 13.809446 65.312851 34 26 25
8.318551 13.943986 65.283577 34 26 25
8.315089 14.078855 65.256416 34 26 25
8.311872 14.214024 65.231163 33 26 25
8.308867 14.349448 65.207573 32 25 25
8.306032 14.485071 65.185333 30 25 23
8.303327 14.620826 65.164101 29 24 22
8.300709 14.756643 65.143555 28 23 21
8.298141 14.892462 65.123398 28 22 21
8.295593 15.028232 65.103409 27 22 21
8.293050 15.163921 65.083450 26 20 22
7.206582 -10.899901 55.616013 18 15 13
7.221141 -10.801790 55.728371 18 15 13
7.235628 -10.703088 55.840172 18 15 12
7.250066 -10.603833 55.951599 19 16 13
7.264480 -10.504061 56.062832 20 16 14
7.278892 -10.403809 56.174061 21 16 15
7.293331 -10.303113 56.285488 21 17 16
7.307823 -10.202012 56.397327 22 17 16
7.322396 -10.100541 56.509800 22 18 17
7.337079 -9.998734 56.623112 23 18 17
7.351899 -9.896624 56.737484 24 18 17
7.366882 -9.794237 56.853115 24 18 17
7.382053 -9.691598 56.970192 24 18 16
7.397429 -9.588720 57.088860 23 17 16
7.413029 -9.485618 57.209248 21 18 15
7.428861 -9.382288 57.331425 21 18 14
7.444932 -9.278730 57.455452 22 18 14
7.461241 -9.174931 57.581318 23 19 15
7.477785 -9.070873 57.708996 24 20 16
7.494555 -8.966537 57.838417 25 20 16
7.511539 -8.861893 57.969482 26 20 17
7.528720 -8.756915 58.102081 27 20 17
7.546084 -8.651574 58.236088 28 21 18
7.563614 -8.545843 58.371372 29 21 19
7.581293 -8.439694 58.507805 30 22 20
7.599108 -8.333107 58.645290 31 23 21
7.617047 -8.226061 58.783733 32 23 22
7.635103 -8.118543 58.923077 32 23 22
7.653272 -8.010541 59.063297 32 23 22
7.671554 -7.902052 59.204384 32 23 22
7.689951 -7.793071 59.346367 32 23 23
7.708471 -7.683600 59.489288 32 23 23
7.727122 -7.573642 59.633224 32 23 24
7.745912 -7.463197 59.778236 34 24 25
7.764853 -7.352271 59.924412 37 27 26
7.783954 -7.240861 60.071819 40 31 29
7.803219 -7.128968 60.220497 43 34 33
7.822653 -7.016584 60.370480 47 37 37
7.842254 -6.903700 60.521744 46 37 36
7.862013 -6.790302 60.674232 41 32 32
7.881918 -6.676369 60.827850 34 25 26
7.901949 -6.561878 60.982433 32 22 24
7.922079 -6.446802 61.137783 33 21 24
7.942273 -6.331107 61.293629 34 21 24
7.962492 -6.214760 61.449673 35 22 24
7.982692 -6.097725 61.605560 36 22 25
8.002821 -5.979965 61.760902 35 22 24
8.022824 -5.861444 61.915276 34 22 23
8.042648 -5.742129 62.068264 32 22 22
8.062235 -5.621989 62.219421 31 21 20
8.081527 -5.500997 62.368305 30 21 20
8.100469 -5.379130 62.514488 30 22 20
8.119006 -5.256371 62.657547 31 22 21
8.137088 -5.132709 62.797092 33 24 24
8.154668 -5.008136 62.932766 37 27 27
8.171700 -4.882650 63.064205 41 31 32
8.188146 -4.756258 63.191128 47 36 37
8.203969 -4.628967 63.313236 50 39 40
8.219138 -4.500792 63.430305 48 38 39
8.233625 -4.371750 63.542114 46 35 35
8.247413 -4.241866 63.648510 43 33 33
8.260481 -4.111165 63.749363 41 30 30
8.272820 -3.979679 63.844597 41 29 29
8.284431 -3.847444 63.934196 41 29 29
8.295317 -3.714497 64.018204 43 30 30
8.305492 -3.580883 64.096733 46 32 32
8.314979 -3.446644 64.169945 49 33 35
8.323807 -3.311828 64.238075 52 34 38
8.332016 -3.176482 64.301430 55 38 42
8.339651 -3.040653 64.360352 59 43 45
8.346763 -2.904389 64.415237 67 53 54
8.353408 -2.767733 64.466522 85 72 71
8.359645 -2.630728 64.514656 104 92 89
8.365533 -2.493411 64.560089 111 97 95
8.371129 -2.355816 64.603279 116 101 100
8.376491 -2.217973 64.644653 135 121 120
8.381668 -2.079906 64.684616 137 123 122
8.386711 -1.941635 64.723534 98 85 86
8.391661 -1.803176 64.761734 62 52 52
8.396554 -1.664542 64.799492 68 58 59
8.401423 -1.525740 64.837067 103 96 96
8.406294 -1.386777 64.874657 144 139 139
8.411190 -1.247655 64.912453 172 167 168
8.416130 -1.108376 64.950569 171 167 169
8.421128 -0.968940 64.989143 157 154 158
8.426196 -0.829344 65.028252 153 150 155
8.431342 -0.689586 65.067970 156 153 158
8.436570 -0.549662 65.108322 176 173 177
8.441884 -0.409568 65.149323 214 213 215
8.447279 -0.269300 65.190964 241 240 241
8.452750 -0.128854 65.233185 245 243 243
8.458286 0.011775 65.275909 239 236 237
8.463870 0.152588 65.319000 216 212 215
8.469481 0.293588 65.362297 168 164 169
8.475090 0.434775 65.405594 128 123 132
8.480669 0.576147 65.448647 121 116 126
8.486185 0.717698 65.491211 136 129 140
8.491600 0.859423 65.532997 160 151 161
8.496877 1.001312 65.573723 191 181 187
8.501980 1.143354 65.613106 211 199 201
8.506877 1.285533 65.650894 200 188 186
8.511539 1.427837 65.686874 177 165 161
8.515941 1.570247 65.720848 178 167 162
8.520072 1.712749 65.752731 193 183 179
8.523925 1.855329 65.782463 199 191 189
8.527507 1.997973 65.810112 205 200 198
8.530834 2.140672 65.835785 210 205 203
8.533932 2.283421 65.859688 190 185 183
8.536839 2.426218 65.882126 171 165 162
8.539598 2.569068 65.903427 190 184 180
8.542263 2.711980 65.923988 216 210 208
8.544885 2.854966 65.944221 196 189 187
8.547517 2.998042 65.964531 138 130 129
8.550208 3.141228 65.985306 93 85 87
8.553001 3.284543 66.006859 83 75 80
8.555928 3.428004 66.029449 90 82 91
8.559009 3.571627 66.053215 98 88 100
8.562244 3.715419 66.078186 103 91 104
8.565622 3.859384 66.104263 106 91 105
8.569113 4.003513 66.131195 104 87 100
8.572670 4.147791 66.158653 108 89 101
8.576234 4.292191 66.186157 127 107 117
8.579735 4.436676 66.213173 140 120 128
8.583095 4.581203 66.239105 130 111 118
8.586235 4.725720 66.263344 108 90 97
8.589081 4.870174 66.285294 85 69 76
8.591560 5.014511 66.304436 67 53 60
8.593616 5.158675 66.320297 59 47 54
8.595206 5.302620 66.332573 61 49 58
8.596309 5.446310 66.341080 69 57 67
8.596921 5.589716 66.345802 83 70 80
8.597057 5.732826 66.346855 108 92 102
8.596758 5.875643 66.344543 141 122 130
8.596076 6.018183 66.339287 170 148 153
8.595080 6.160474 66.331604 187 163 165
8.593850 6.302560 66.322105 170 146 144
8.592467 6.444491 66.311432 125 97 93
8.591016 6.586324 66.300232 94 64 59
8.589576 6.728116 66.289116 93 61 56
8.588215 6.869925 66.278618 105 74 68
8.586992 7.011801 66.269180 116 85 81
8.585948 7.153785 66.261116 110 80 78
8.585106 7.295906 66.254623 92 63 64
8.584473 7.438179 66.249733 80 52 55
8.584035 7.580606 66.246361 74 48 51
8.583769 7.723171 66.244301 68 42 46
8.583632 7.865846 66.243248 65 41 45
8.583575 8.008591 66.242813 75 50 54
8.583543 8.151358 66.242561 93 69 72
8.583477 8.294090 66.242050 114 89 92
8.583322 8.436733 66.240852 128 104 107
8.583026 8.579230 66.238571 124 100 103
8.582548 8.721534 66.234886 104 81 84
8.581859 8.863601 66.229561 84 62 64
8.580937 9.005404 66.222458 69 47 49
8.579781 9.146922 66.213524 58 38 39
8.578392 9.288154 66.202812 54 35 35
8.576790 9.429104 66.190445 53 35 35
8.574999 9.569788 66.176620 54 38 36
8.573049 9.710234 66.161575 58 42 41
8.570971 9.850469 66.145538 64 48 47
8.568797 9.990520 66.128761 63 47 47
8.566553 10.130419 66.111443 55 40 39
8.564259 10.270181 66.093735 46 31 30
8.561924 10.409819 66.075722 43 27 27
8.559551 10.549331 66.057404 45 28 29
8.557130 10.688704 66.038719 47 30 31
8.554641 10.827911 66.019516 47 32 32
8.552057 10.966914 65.999573 48 33 33
8.549345 11.105663 65.978645 48 35 34
8.546467 11.244104 65.956429 47 34 34
8.543385 11.382177 65.932640 45 32 33
8.540063 11.519826 65.907013 44 31 32
8.536473 11.656997 65.879303 46 32 34
8.532593 11.793648 65.849365 49 34 37
8.528412 11.929749 65.817093 53 38 41
8.523933 12.065288 65.782532 58 43 46
8.519169 12.200271 65.745766 59 45 48
8.514150 12.334723 65.707024 53 40 42
8.508912 12.468692 65.666611 46 32 33
8.503509 12.602239 65.624908 41 28 28
8.497997 12.735445 65.582375 39 28 26
8.492443 12.868402 65.539513 39 28 26
8.486913 13.001211 65.496826 38 28 25
8.481472 13.133974 65.454842 37 28 25
8.476182 13.266793 65.414017 37 28 24
8.471097 13.399760 65.374771 36 28 24
8.466261 13.532955 65.337448 35 27 24
8.461704 13.666442 65.302284 34 26 24
8.457444 13.800261 65.269409 34 26 25
8.453485 13.934435 65.238861 34 26 25
8.449821 14.068965 65.210579 34 26 25
8.446425 14.203827 65.184372 33 26 25
8.443267 14.338979 65.159996 32 25 25
8.440305 14.474362 65.137138 31 25 25
8.437498 14.609917 65.115479 31 24 24
8.434803 14.745572 65.094681 30 24 23
8.432180 14.881266 65.074440 29 23 23
8.429601 15.016949 65.054535 28 22 22
8.427045 15.152588 65.034798 27 20 22
7.337182 -10.915836 55.697323 18 15 13
7.352118 -10.817748 55.810699 18 15 13
7.366976 -10.719057 55.923489 19 15 14
7.381781 -10.619804 56.035873 20 16 14
7.396556 -10.520024 56.148033 21 16 15
7.411326 -10.419755 56.260159 21 16 16
7.426118 -10.319031 56.372448 22 17 16
7.440963 -10.217896 56.485130 23 18 17
7.455886 -10.116381 56.598419 23 18 17
7.470920 -10.014525 56.712540 23 19 17
7.486092 -9.912362 56.827709 23 19 17
7.501431 -9.809921 56.944157 23 18 17
7.516964 -9.707227 57.062065 23 18 16
7.532710 -9.604297 57.181595 22 18 15
7.548687 -9.501142 57.302879 22 18 14
7.564907 -9.397765 57.425999 22 18 14
7.581376 -9.294164 57.551022 22 18 14
7.598093 -9.190324 57.677921 23 19 15
7.615055 -9.086228 57.806683 24 19 15
7.632249 -8.981852 57.937206 25 19 15
7.649662 -8.877166 58.069389 26 20 16
7.667274 -8.772138 58.203087 29 21 18
7.685066 -8.666736 58.338142 29 21 19
7.703015 -8.560926 58.474396 30 22 19
7.721101 -8.454680 58.611691 31 23 20
7.739305 -8.347968 58.749874 32 23 21
7.757610 -8.240768 58.888832 32 24 22
7.776004 -8.133062 59.028465 32 24 22
7.794479 -8.024838 59.168709 32 24 23
7.813032 -7.916088 59.309551 32 24 23
7.831665 -7.806810 59.450993 32 23 24
7.850382 -7.697006 59.593075 32 23 24
7.869193 -7.586678 59.735867 32 23 24
7.888108 -7.475835 59.879459 33 24 25
7.907143 -7.364483 60.023952 36 27 26
7.926310 -7.252629 60.169449 39 30 29
7.945620 -7.140277 60.316036 42 33 32
7.965083 -7.027428 60.463779 44 35 35
7.984703 -6.914078 60.612720 42 33 33
8.004480 -6.800219 60.762848 37 28 28
8.024406 -6.685837 60.914112 33 23 24
8.044468 -6.570914 61.066406 33 21 23
8.064645 -6.455426 61.219570 34 21 24
8.084906 -6.339344 61.373371 35 22 25
8.105214 -6.222635 61.527531 36 22 25
8.125525 -6.105264 61.681721 37 23 25
8.145790 -5.987193 61.835548 37 23 25
8.165952 -5.868386 61.988602 35 22 24
8.185954 -5.748806 62.140438 34 22 23
8.205735 -5.628420 62.290600 33 21 22
8.225234 -5.507198 62.438614 31 21 22
8.244388 -5.385113 62.584015 31 22 22
8.263139 -5.262144 62.726357 32 23 22
8.281429 -5.138275 62.865200 34 25 25
