ply
format ascii 1.0
element vertex 1247
property float x
property float y
property float z
property uchar red
property uchar green
property uchar blue
end_header
5.201938 15.150651 65.026489 36 25 24
5.195769 15.272693 64.949379 36 24 24
5.189519 15.394162 64.871254 37 23 25
5.183193 15.515065 64.792168 38 24 26
5.176792 15.635405 64.712158 38 25 26
5.170321 15.755182 64.631264 39 25 26
5.163780 15.874398 64.549500 40 26 26
5.157171 15.993049 64.466881 40 28 27
5.150492 16.111126 64.383392 41 28 27
5.143743 16.228619 64.299019 41 29 27
5.136917 16.345509 64.213699 43 30 28
5.130012 16.461773 64.127380 45 31 30
5.123019 16.577383 64.039970 46 33 32
5.115932 16.692308 63.951378 47 35 34
5.108741 16.806509 63.861488 50 37 36
5.101438 16.919950 63.770195 54 40 40
5.094013 17.032591 63.677383 58 44 44
5.086462 17.144405 63.582989 62 47 47
5.078780 17.255369 63.486954 61 47 46
5.070966 17.365469 63.389290 59 44 44
5.063027 17.474712 63.290043 58 42 42
5.054972 17.583126 63.189350 56 39 40
5.046817 17.690756 63.087410 55 38 39
5.038586 17.797674 62.984512 56 37 40
6.042950 -15.208963 73.557381 35 32 32
6.043374 -15.051455 73.562538 37 33 33
6.043794 -14.893912 73.567650 38 34 35
6.044237 -14.736405 73.573036 40 36 37
6.044729 -14.578995 73.579033 41 37 38
6.045297 -14.421737 73.585945 42 36 37
6.045959 -14.264674 73.594009 42 36 36
6.046734 -14.107837 73.603432 41 35 35
6.047631 -13.951242 73.614357 42 34 34
6.048658 -13.794897 73.626862 42 32 32
6.049817 -13.638794 73.640961 44 34 33
6.051102 -13.482914 73.656609 45 35 34
6.052508 -13.327230 73.673721 45 35 34
6.054025 -13.171715 73.692184 44 36 33
6.055639 -13.016330 73.711838 47 40 38
6.057340 -12.861041 73.732529 51 45 42
6.059111 -12.705813 73.754097 55 50 47
6.060943 -12.550617 73.776390 57 53 49
6.062825 -12.395428 73.799294 56 51 48
6.064747 -12.240223 73.822708 55 49 45
6.066706 -12.084987 73.846542 59 51 48
6.068697 -11.929712 73.870781 67 58 55
6.070718 -11.774391 73.895378 74 63 61
6.072769 -11.619022 73.920341 79 66 66
6.074852 -11.463606 73.945702 82 68 69
6.076969 -11.308143 73.971466 78 63 65
6.079120 -11.152632 73.997650 67 51 54
6.081306 -10.997069 74.024254 62 45 48
6.083524 -10.841452 74.051254 72 53 56
6.085772 -10.685769 74.078621 85 66 67
6.088044 -10.530010 74.106277 89 70 69
6.090333 -10.374162 74.134140 86 68 66
6.092630 -10.218206 74.162102 86 70 67
6.094926 -10.062128 74.190048 89 76 72
6.097209 -9.905909 74.217842 87 77 73
6.099467 -9.749530 74.245331 79 71 68
6.101689 -9.592975 74.272377 69 62 60
6.103865 -9.436232 74.298851 62 54 55
6.105982 -9.279285 74.324623 62 53 57
6.108032 -9.122129 74.349586 70 59 64
6.110008 -8.964756 74.373634 78 65 72
6.111904 -8.807164 74.396721 81 68 74
6.113717 -8.649353 74.418777 87 74 78
6.115444 -8.491329 74.439796 96 86 87
6.117088 -8.333103 74.459824 96 89 87
6.118655 -8.174685 74.478889 87 82 78
6.120152 -8.016095 74.497108 86 83 78
6.121592 -7.857353 74.514641 101 98 94
6.122992 -7.698484 74.531670 117 114 111
6.124371 -7.539517 74.548462 120 115 114
6.125753 -7.380480 74.565285 110 104 107
6.127164 -7.221406 74.582466 101 93 100
6.128633 -7.062325 74.600349 100 91 101
6.130191 -6.903266 74.619316 103 94 107
6.131868 -6.744256 74.639732 106 100 113
6.133696 -6.585320 74.661972 107 101 113
6.135701 -6.426475 74.686386 101 95 107
6.137912 -6.267733 74.713295 100 94 104
6.140349 -6.109101 74.742958 120 114 121
6.143032 -5.950579 74.775612 146 142 145
6.145974 -5.792161 74.811432 147 145 145
6.149184 -5.633834 74.850502 122 123 120
6.152665 -5.475580 74.892876 117 121 115
6.156415 -5.317375 74.938515 156 162 154
6.160425 -5.159191 74.987328 201 208 199
6.164681 -5.000997 75.039146 224 230 222
6.169167 -4.842758 75.093735 223 227 221
6.173853 -4.684437 75.150787 188 190 182
6.178712 -4.525997 75.209930 144 144 136
6.183705 -4.367396 75.270714 138 135 130
6.188792 -4.208597 75.332626 160 156 152
6.193925 -4.049562 75.395111 187 182 180
6.199054 -3.890254 75.457542 200 194 194
6.204124 -3.730641 75.519257 182 176 177
6.209077 -3.570695 75.579544 169 163 166
6.213855 -3.410393 75.637703 186 181 186
6.218400 -3.249720 75.693039 171 168 176
6.222657 -3.088664 75.744850 131 130 142
6.226573 -2.927224 75.792511 147 145 163
6.230100 -2.765407 75.835442 182 182 202
6.233196 -2.603224 75.873131 181 183 205
6.235827 -2.440697 75.905159 167 169 193
6.237967 -2.277852 75.931206 140 138 165
6.239594 -2.114722 75.951012 102 98 123
6.240698 -1.951342 75.964447 92 87 107
6.241271 -1.787753 75.971420 99 93 109
6.241310 -1.623994 75.971901 89 82 94
6.240819 -1.460109 75.965919 74 66 74
6.239799 -1.296141 75.953514 77 69 73
6.238258 -1.132131 75.934746 76 68 68
6.236199 -0.968121 75.909691 62 54 53
6.233629 -0.804154 75.878403 57 49 45
6.230550 -0.640269 75.840919 56 49 45
6.226966 -0.476508 75.797302 53 46 42
6.222882 -0.312909 75.747581 46 39 36
6.218300 -0.149512 75.691818 40 32 31
6.213228 0.013642 75.630074 38 29 29
6.207675 0.176518 75.562477 37 29 29
6.201653 0.339075 75.489166 35 28 28
6.195179 0.501281 75.410370 34 26 26
6.188276 0.663101 75.326347 33 25 24
6.180972 0.824504 75.237434 32 25 23
6.173298 0.985466 75.144028 32 24 23
6.165291 1.145963 75.046570 32 24 23
6.156990 1.305977 74.945518 34 25 24
6.148435 1.465495 74.841377 36 26 25
6.139666 1.624508 74.734634 39 28 27
6.130721 1.783009 74.625763 41 28 29
6.121637 1.940997 74.515190 44 29 30
6.112443 2.098470 74.403275 47 29 30
6.103165 2.255430 74.290329 48 30 31
6.093818 2.411875 74.176559 49 31 31
6.084414 2.567806 74.062088 49 32 32
6.074954 2.723219 73.946945 49 34 33
6.065435 2.878106 73.831078 50 35 34
6.055845 3.032459 73.714348 51 36 34
6.046170 3.186264 73.596573 50 35 33
6.036388 3.339501 73.477501 49 34 33
6.026478 3.492152 73.356873 50 35 35
6.016419 3.644192 73.234428 52 38 37
6.006190 3.795596 73.109917 53 41 39
5.995775 3.946341 72.983139 53 42 40
5.985161 4.096404 72.853943 49 39 38
5.974344 4.245765 72.722275 43 34 32
5.963324 4.394409 72.588127 37 30 29
5.952109 4.542326 72.451622 34 27 26
5.940716 4.689514 72.312943 31 26 25
5.929168 4.835978 72.172371 30 25 25
5.917493 4.981728 72.030258 30 25 24
5.905724 5.126784 71.887001 30 25 24
5.893896 5.271170 71.743027 30 25 23
5.882047 5.414916 71.598793 29 24 21
5.870214 5.558054 71.454750 29 23 19
5.858430 5.700621 71.311317 29 22 18
5.846727 5.842649 71.168869 28 22 18
5.835133 5.984175 71.027740 27 22 18
5.823670 6.125231 70.888206 26 21 18
5.812355 6.265843 70.750473 26 21 19
5.801200 6.406040 70.614693 25 21 19
5.790212 6.545839 70.480942 25 20 19
5.779397 6.685262 70.349289 25 20 18
5.768754 6.824321 70.219749 25 21 18
5.758285 6.963032 70.092308 24 20 17
5.747987 7.101404 69.966957 24 20 17
5.737858 7.239450 69.843674 24 19 17
5.727899 7.377182 69.722435 24 19 17
5.718107 7.514613 69.603249 24 19 16
5.708484 7.651755 69.486115 24 18 16
5.699031 7.788625 69.371048 23 17 15
5.689749 7.925236 69.258064 22 17 14
5.680640 8.061606 69.147186 22 17 14
5.671706 8.197750 69.038429 22 17 14
5.662945 8.333682 68.931793 22 18 15
5.654359 8.469415 68.827278 23 18 16
5.645944 8.604958 68.724846 23 19 17
5.637696 8.740318 68.624451 24 20 18
5.629610 8.875501 68.526016 25 20 19
5.621678 9.010508 68.429474 25 20 19
5.613893 9.145335 68.334709 26 20 20
5.606246 9.279985 68.241631 26 20 20
5.598730 9.414453 68.150139 25 20 19
5.591336 9.548734 68.060143 25 19 19
5.584058 9.682828 67.971542 26 20 19
5.576890 9.816734 67.884293 26 20 20
5.569829 9.950457 67.798347 26 21 20
5.562874 10.083999 67.713684 26 21 20
5.556024 10.217370 67.630310 26 20 19
5.549282 10.350582 67.548233 27 19 19
5.542650 10.483649 67.467514 27 19 19
5.536133 10.616590 67.388184 27 19 20
5.529737 10.749421 67.310326 27 20 20
5.523464 10.882162 67.233971 27 21 21
5.517319 11.014828 67.159172 27 22 21
5.511305 11.147435 67.085960 28 22 21
5.505421 11.279994 67.014343 28 22 22
5.499666 11.412513 66.944290 29 22 22
5.494036 11.544991 66.875763 29 22 23
5.488525 11.677427 66.808678 30 22 23
5.483122 11.809808 66.742912 30 22 23
5.477818 11.942119 66.678345 29 22 23
5.472599 12.074339 66.614815 30 21 23
5.467451 12.206446 66.552155 30 21 22
5.462359 12.338409 66.490181 30 22 22
5.457310 12.470202 66.428719 30 22 22
5.452289 12.601794 66.367592 31 23 22
5.447281 12.733155 66.306641 31 23 23
5.442275 12.864255 66.245697 31 23 23
5.437257 12.995067 66.184624 31 23 24
5.432217 13.125560 66.123268 32 23 25
5.427144 13.255710 66.061523 33 24 25
5.422030 13.385491 65.999275 34 25 26
5.416866 13.514878 65.936409 35 26 26
5.411642 13.643846 65.872826 36 26 26
5.406352 13.772369 65.808434 36 26 26
5.400988 13.900424 65.743141 37 26 25
5.395543 14.027987 65.676857 37 27 26
5.390008 14.155029 65.609489 37 27 26
5.384380 14.281533 65.540977 37 27 27
5.378654 14.407479 65.471283 37 28 27
5.372827 14.532851 65.400345 37 28 27
5.366896 14.657635 65.328156 37 28 27
5.360861 14.781820 65.254700 36 27 26
5.354723 14.905403 65.179985 37 27 25
5.348485 15.028381 65.104057 36 26 25
5.342150 15.150754 65.026932 36 25 24
5.335721 15.272530 64.948685 36 24 23
5.329204 15.393711 64.869347 37 24 24
5.322603 15.514307 64.789001 37 24 24
5.315923 15.634324 64.707687 37 24 25
5.309167 15.753766 64.625450 38 25 25
5.302338 15.872635 64.542336 38 26 26
5.295439 15.990932 64.458351 38 27 26
5.288468 16.108650 64.373505 39 27 27
5.281425 16.225780 64.287766 39 28 28
5.274305 16.342302 64.201103 41 29 28
5.267105 16.458200 64.113464 43 30 30
5.259818 16.573444 64.024750 45 32 31
5.252434 16.688002 63.934879 46 33 34
5.244946 16.801836 63.843731 49 36 36
5.237344 16.914909 63.751198 54 39 40
5.229620 17.027184 63.657169 60 45 45
5.221766 17.138630 63.561565 66 51 50
5.213778 17.249222 63.464344 67 52 51
5.205657 17.358950 63.365490 63 48 47
5.197408 17.467819 63.265079 59 44 43
5.189041 17.575855 63.163223 56 40 40
5.180572 17.683107 63.060139 54 37 38
6.200460 -15.206376 73.544868 35 31 30
6.200994 -15.049135 73.551208 35 31 31
6.201522 -14.891850 73.557465 36 32 32
6.202071 -14.734589 73.563972 36 32 32
6.202665 -14.577408 73.571022 37 33 33
6.203331 -14.420361 73.578918 38 34 34
6.204088 -14.263488 73.587891 40 35 34
6.204952 -14.106822 73.598137 41 35 34
6.205934 -13.950377 73.609787 42 34 34
6.207042 -13.794162 73.622940 43 34 33
6.208278 -13.638170 73.637596 44 34 33
6.209637 -13.482384 73.653717 45 36 34
6.211114 -13.326779 73.671227 45 36 34
6.212698 -13.171328 73.690018 46 38 35
6.214377 -13.015994 73.709938 50 43 40
6.216139 -12.860745 73.730835 55 49 46
6.217970 -12.705549 73.752556 60 55 51
6.219860 -12.550376 73.774971 61 57 52
6.221797 -12.395201 73.797943 58 53 48
6.223773 -12.240004 73.821381 56 50 45
6.225782 -12.084770 73.845222 59 51 47
6.227822 -11.929492 73.869415 64 54 51
6.229891 -11.774164 73.893951 68 56 54
6.231988 -11.618783 73.918823 72 60 58
6.234115 -11.463351 73.944054 77 63 63
6.236275 -11.307869 73.969673 76 61 62
6.238468 -11.152334 73.995682 68 52 53
6.240694 -10.996747 74.022079 64 45 47
6.242950 -10.841100 74.048851 71 51 52
6.245235 -10.685385 74.075958 84 63 63
6.247543 -10.529591 74.103325 90 68 66
6.249865 -10.373704 74.130867 89 69 66
6.252193 -10.217708 74.158478 93 75 70
6.254517 -10.061584 74.186035 100 85 80
6.256824 -9.905316 74.213409 100 88 84
6.259103 -9.748888 74.240440 86 76 73
6.261343 -9.592280 74.266998 65 57 56
6.263531 -9.435484 74.292961 56 49 50
6.265659 -9.278484 74.318207 63 54 59
6.267717 -9.121274 74.342613 74 64 71
6.269699 -8.963850 74.366119 81 69 77
6.271600 -8.806211 74.388672 83 70 79
6.273419 -8.648361 74.410240 85 72 79
6.275156 -8.490308 74.430840 85 73 78
6.276813 -8.332061 74.450500 80 70 72
6.278400 -8.173635 74.469322 77 70 68
6.279926 -8.015053 74.487427 81 76 73
6.281407 -7.856335 74.504990 94 90 87
6.282860 -7.697508 74.522224 110 105 104
6.284308 -7.538600 74.539406 118 113 114
6.285776 -7.379642 74.556816 112 106 110
6.287292 -7.220664 74.574799 102 94 103
6.288885 -7.061694 74.593689 100 92 104
6.290587 -6.902763 74.613876 106 98 112
6.292428 -6.743894 74.635719 106 99 113
6.294439 -6.585108 74.659569 96 89 101
6.296648 -6.426422 74.685768 88 82 91
6.299080 -6.267844 74.714615 100 95 100
6.301755 -6.109379 74.746353 131 127 129
6.304693 -5.951024 74.781189 157 155 154
6.307905 -5.792770 74.819290 142 143 139
6.311397 -5.634603 74.860710 97 100 95
6.315172 -5.476501 74.905487 93 98 93
6.319225 -5.318442 74.953568 149 155 150
6.323548 -5.160395 75.004829 202 207 203
6.328125 -5.002327 75.059120 218 222 219
6.332934 -4.844204 75.116165 205 207 205
6.337951 -4.685988 75.175667 172 171 171
6.343141 -4.527639 75.237228 158 154 155
6.348466 -4.369118 75.300392 175 168 170
6.353885 -4.210386 75.364662 189 181 183
6.359346 -4.051405 75.429443 199 192 192
6.364798 -3.892138 75.494102 206 201 199
6.370182 -3.732553 75.557968 188 184 181
6.375439 -3.572622 75.620323 175 172 171
6.380508 -3.412321 75.680450 188 185 188
6.385329 -3.251634 75.737625 170 171 175
6.389843 -3.090553 75.791176 150 153 162
6.393996 -2.929075 75.840431 173 177 190
6.397738 -2.767207 75.884819 167 173 193
6.401027 -2.604964 75.923836 148 155 180
6.403828 -2.442366 75.957054 159 164 191
6.406112 -2.279441 75.984146 129 131 159
6.407861 -2.116222 76.004890 80 79 104
6.409061 -1.952747 76.019127 85 82 103
6.409708 -1.789056 76.026794 98 94 110
6.409799 -1.625190 76.027870 80 75 86
6.409336 -1.461195 76.022385 74 68 75
6.408325 -1.297111 76.010384 93 86 90
6.406770 -1.132983 75.991951 88 81 82
6.404678 -0.968854 75.967133 64 57 56
6.402052 -0.804764 75.935989 54 47 44
6.398897 -0.640756 75.898560 53 47 43
6.395214 -0.476870 75.854881 51 45 42
6.391007 -0.313146 75.804977 47 40 38
6.386280 -0.149625 75.748909 42 34 34
6.381038 0.013653 75.686729 40 31 31
6.375289 0.176648 75.618553 37 30 30
6.369048 0.339324 75.544510 35 28 28
6.362330 0.501643 75.464836 34 27 26
6.355161 0.663571 75.379799 32 25 24
6.347569 0.825078 75.289749 31 25 23
6.339588 0.986136 75.195091 31 24 23
6.331258 1.146722 75.096291 32 24 24
6.322620 1.306819 74.993828 33 25 24
6.313717 1.466413 74.888237 36 26 26
6.304594 1.625494 74.780014 39 27 28
6.295291 1.784058 74.669670 41 28 29
6.285846 1.942103 74.557648 44 29 30
6.276293 2.099628 74.444336 47 29 31
6.266657 2.256635 74.330040 50 30 32
6.256957 2.413125 74.214981 51 32 33
6.247202 2.569096 74.099281 53 34 34
6.237396 2.724545 73.982971 53 35 35
6.227534 2.879468 73.865990 54 37 37
6.217603 3.033852 73.748199 55 39 38
6.207586 3.187685 73.629387 53 37 36
6.197462 3.340947 73.509300 51 34 34
6.187206 3.493617 73.387657 52 35 36
6.176797 3.645673 73.264191 57 40 40
6.166211 3.797087 73.138634 62 47 47
6.155432 3.947835 73.010773 64 51 51
6.144446 4.097896 72.880470 59 48 47
6.133249 4.247247 72.747658 48 39 37
6.121841 4.395875 72.612350 39 32 30
6.110232 4.543770 72.474655 35 28 27
6.098440 4.690930 72.334778 32 27 26
6.086488 4.837361 72.193024 31 26 25
6.074408 4.983075 72.049736 31 26 25
6.062233 5.128091 71.905334 31 26 24
6.050003 5.272437 71.760269 30 25 23
6.037757 5.416142 71.615005 30 25 22
6.025532 5.559241 71.470009 30 24 20
6.013365 5.701769 71.325691 29 24 19
6.001288 5.843764 71.182449 28 24 19
5.989331 5.985260 71.040619 27 23 18
5.977514 6.126289 70.900459 27 22 18
5.965856 6.266881 70.762184 26 22 19
5.954368 6.407058 70.625923 25 21 19
5.943057 6.546844 70.491760 24 21 19
5.931926 6.686254 70.359726 24 20 19
5.920976 6.825303 70.229851 24 20 18
5.910204 6.964003 70.102081 24 20 18
5.899609 7.102364 69.976410 24 20 17
5.889186 7.240396 69.852783 24 20 17
5.878935 7.378109 69.731194 25 20 17
5.868854 7.515516 69.611618 24 19 16
5.858942 7.652628 69.494049 24 18 16
5.849199 7.789461 69.378494 24 17 15
5.839629 7.926027 69.264977 24 18 15
5.830231 8.062343 69.153503 23 18 15
5.821007 8.198423 69.044098 22 18 14
5.811958 8.334283 68.936760 23 18 15
5.803082 8.469933 68.831490 23 18 15
5.794379 8.605385 68.728256 23 19 17
5.785844 8.740645 68.627022 24 20 18
5.777472 8.875721 68.527718 25 20 18
5.769256 9.010612 68.430267 26 20 19
5.761189 9.145319 68.334587 26 20 19
5.753263 9.279842 68.240578 26 20 19
5.745471 9.414178 68.148155 26 20 18
5.737805 9.548326 68.057228 25 19 18
5.730260 9.682284 67.967728 26 20 19
5.722831 9.816057 67.879608 27 21 20
5.715515 9.949647 67.792839 27 21 20
5.708312 10.083062 67.707397 27 20 20
5.701223 10.216314 67.623322 25 19 18
5.694252 10.349417 67.540634 25 19 18
5.687403 10.482388 67.459396 26 19 19
5.680681 10.615247 67.379662 26 19 20
5.674093 10.748014 67.301514 27 20 20
5.667643 10.880712 67.225014 27 21 21
5.661335 11.013355 67.150192 28 22 21
5.655173 11.145964 67.077103 28 22 21
5.649157 11.278548 67.005753 29 23 22
5.643285 11.411118 66.936111 29 23 23
5.637553 11.543672 66.868118 30 23 23
5.631953 11.676207 66.801689 30 23 23
5.626475 11.808711 66.736710 30 22 23
5.621105 11.941166 66.673027 30 22 22
5.615830 12.073550 66.610458 29 22 22
5.610634 12.205835 66.548820 29 21 21
5.605500 12.337991 66.487923 29 21 21
5.600411 12.469985 66.427559 30 22 21
5.595350 12.601783 66.367538 30 23 22
5.590302 12.733352 66.307663 30 23 23
5.585251 12.864655 66.247757 30 23 24
5.580184 12.995663 66.187660 31 24 24
5.575089 13.126342 66.127213 32 23 25
5.569951 13.256663 66.066277 33 24 26
5.564762 13.386598 66.004730 34 25 26
5.559512 13.516116 65.942451 35 26 26
5.554190 13.645193 65.879333 35 26 26
5.548789 13.773798 65.815262 36 26 26
5.543299 13.901907 65.750153 36 26 25
5.537714 14.029493 65.683914 37 26 26
5.532027 14.156530 65.616447 37 27 26
5.526231 14.282997 65.547699 37 27 26
5.520322 14.408874 65.477615 37 28 27
5.514299 14.534145 65.406174 37 29 27
5.508159 14.658799 65.333344 37 29 27
5.501903 14.782826 65.259140 37 29 26
5.495532 14.906222 65.183571 36 28 25
5.489050 15.028989 65.106689 36 27 24
5.482461 15.151128 65.028534 36 26 23
5.475770 15.272647 64.949181 36 25 24
5.468984 15.393554 64.868683 36 25 24
5.462108 15.513860 64.787132 37 24 24
5.455149 15.633574 64.704582 37 24 25
5.448110 15.752702 64.621086 37 25 25
5.440995 15.871250 64.536705 37 25 25
5.433807 15.989220 64.451447 37 26 26
5.426547 16.106606 64.365334 38 27 28
5.419214 16.223402 64.278351 38 28 29
5.411804 16.339594 64.190460 39 28 29
5.404314 16.455158 64.101616 41 29 30
5.396735 16.570072 64.011726 43 31 31
5.389061 16.684299 63.920700 45 32 33
5.381281 16.797806 63.828423 48 35 36
5.373386 16.910555 63.734783 52 38 39
5.365367 17.022503 63.639668 59 44 44
5.357217 17.133623 63.542999 65 50 49
5.348931 17.243887 63.444714 67 52 51
5.340508 17.353285 63.344810 65 50 49
5.331954 17.461821 63.243351 61 46 45
5.323279 17.569521 63.140457 57 42 41
5.314500 17.676430 63.036324 54 38 38
6.357974 -15.203927 73.533020 35 30 29
6.358618 -15.046939 73.540466 34 29 29
6.359255 -14.889902 73.547836 34 29 29
6.359911 -14.732878 73.555428 34 30 29
6.360612 -14.575923 73.563530 35 30 29
6.361382 -14.419089 73.572433 36 31 30
6.362238 -14.262413 73.582344 38 33 31
6.363201 -14.105927 73.593468 40 34 33
6.364278 -13.949646 73.605927 41 34 33
6.365479 -13.793578 73.619820 42 34 34
6.366804 -13.637716 73.635139 43 35 34
6.368249 -13.482044 73.651855 44 36 35
6.369809 -13.326538 73.669899 45 37 37
6.371473 -13.171172 73.689148 48 40 38
6.373230 -13.015909 73.709457 51 44 42
6.375065 -12.860721 73.730690 56 49 46
6.376968 -12.705572 73.752693 59 54 50
6.378924 -12.550436 73.775322 60 54 50
6.380925 -12.395288 73.798462 57 51 47
6.382962 -12.240108 73.822014 55 48 44
6.385028 -12.084884 73.845917 57 48 45
6.387121 -11.929606 73.870125 60 50 48
6.389239 -11.774271 73.894615 62 51 49
6.391383 -11.618876 73.919411 67 55 53
6.393554 -11.463423 73.944519 74 60 59
6.395753 -11.307912 73.969955 78 62 62
6.397984 -11.152346 73.995750 71 54 54
6.400244 -10.996719 74.021896 64 45 46
6.402533 -10.841029 74.048370 68 47 47
6.404848 -10.685267 74.075142 79 57 56
6.407183 -10.529424 74.102142 88 66 63
6.409529 -10.373483 74.129288 92 71 67
6.411879 -10.217428 74.156456 98 80 75
6.414222 -10.061247 74.183556 107 92 87
6.416545 -9.904920 74.210426 107 95 91
6.418839 -9.748429 74.236946 89 79 76
6.421088 -9.591760 74.262962 65 57 56
6.423285 -9.434900 74.288368 61 53 55
6.425418 -9.277841 74.313049 71 63 69
6.427482 -9.120574 74.336906 81 71 79
6.429468 -8.963099 74.359886 84 72 83
6.431375 -8.805414 74.381943 83 70 81
6.433201 -8.647527 74.403061 77 64 74
6.434950 -8.489447 74.423294 70 58 66
6.436627 -8.331185 74.442688 70 60 64
6.438242 -8.172762 74.461357 77 69 70
6.439807 -8.014195 74.479462 83 76 76
6.441339 -7.855512 74.497177 92 86 85
6.442859 -7.696737 74.514755 106 101 101
6.444391 -7.537899 74.532471 111 106 109
6.445961 -7.379030 74.550629 105 99 105
6.447598 -7.220158 74.569572 105 97 107
6.449335 -7.061312 74.589653 115 105 118
6.451200 -6.902517 74.611221 118 108 123
6.453226 -6.743798 74.634651 106 96 110
6.455442 -6.585171 74.660286 94 85 95
6.457875 -6.426651 74.688423 99 90 97
6.460550 -6.268242 74.719360 117 110 112
6.463487 -6.109949 74.753326 147 142 140
6.466699 -5.951763 74.790482 168 166 161
6.470200 -5.793674 74.830971 137 140 133
6.473994 -5.635666 74.874847 83 88 81
6.478080 -5.477716 74.922104 86 92 87
6.482453 -5.319799 74.972687 142 148 145
6.487102 -5.161881 75.026443 191 196 195
6.492010 -5.003933 75.083206 208 211 212
6.497154 -4.845916 75.142700 185 185 189
6.502507 -4.687792 75.204613 156 152 159
6.508034 -4.529523 75.268532 175 167 176
6.513696 -4.371069 75.334015 210 201 209
6.519446 -4.212390 75.400520 217 207 213
6.525234 -4.053448 75.467468 216 209 210
6.531005 -3.894206 75.534210 205 200 197
6.536700 -3.734633 75.600067 174 171 166
6.542255 -3.574700 75.664322 178 176 171
6.547609 -3.414385 75.726234 204 204 201
6.552698 -3.253672 75.785095 195 199 198
6.557461 -3.092551 75.840187 188 194 196
6.561844 -2.931023 75.890877 191 198 205
6.565795 -2.769094 75.936577 153 163 178
6.569270 -2.606780 75.976761 134 144 165
6.572234 -2.444102 76.011040 149 156 180
6.574658 -2.281088 76.039078 110 114 138
6.576523 -2.117774 76.060646 67 67 89
6.577818 -1.954198 76.075623 86 83 101
6.578537 -1.790400 76.083939 99 94 107
6.578679 -1.626424 76.085571 78 73 81
6.578247 -1.462313 76.080582 83 77 81
6.577246 -1.298111 76.069008 105 98 99
6.575682 -1.133863 76.050919 92 85 85
6.573560 -0.969609 76.026375 64 57 55
6.570884 -0.805394 75.995422 52 45 42
6.567656 -0.641259 75.958099 51 44 41
6.563879 -0.477244 75.914421 51 44 41
6.559555 -0.313391 75.864403 49 41 39
6.554687 -0.149742 75.808090 44 35 35
6.549277 0.013663 75.745537 40 32 31
6.543336 0.176785 75.676826 38 30 29
6.536877 0.339583 75.602112 35 28 27
6.529916 0.502020 75.521614 33 27 25
6.522480 0.664062 75.435608 31 25 24
6.514599 0.825677 75.344460 30 25 23
6.506309 0.986837 75.248581 31 25 23
6.497652 1.147519 75.148468 32 25 24
6.488673 1.307704 75.044624 33 25 26
6.479419 1.467379 74.937592 36 26 28
6.469935 1.626535 74.827911 39 27 29
6.460268 1.785168 74.716095 42 27 30
6.450457 1.943275 74.602631 45 28 31
6.440537 2.100857 74.487907 48 28 32
6.430537 2.257916 74.372246 51 31 34
6.420475 2.414454 74.255875 55 36 38
6.410362 2.570470 74.138916 56 38 39
6.400202 2.725961 74.021400 55 37 38
6.389986 2.880920 73.903259 57 40 40
6.379704 3.035339 73.784332 61 44 45
6.369334 3.189201 73.664406 59 42 44
6.358855 3.342488 73.543213 54 36 39
6.348241 3.495178 73.420456 53 35 37
6.337467 3.647248 73.295845 60 42 44
6.326510 3.798670 73.169128 72 56 57
6.315352 3.949420 73.040077 77 62 62
6.303979 4.099474 72.908539 68 56 54
6.292386 4.248812 72.774460 54 43 42
6.280575 4.397419 72.637863 43 35 33
6.268556 4.545288 72.498856 37 30 28
6.256349 4.692415 72.357674 34 28 26
6.243979 4.838808 72.214615 33 27 26
6.231480 4.984480 72.070053 33 27 26
6.218888 5.129453 71.924431 32 27 25
6.206245 5.273755 71.778206 32 27 24
6.193592 5.417417 71.631866 32 27 23
6.180969 5.560475 71.485870 31 26 22
6.168414 5.702967 71.340668 30 25 20
6.155960 5.844929 71.196632 29 25 19
6.143638 5.986398 71.054123 28 24 18
6.131469 6.127406 70.913383 27 23 19
6.119472 6.267982 70.774628 25 22 19
6.107656 6.408151 70.637970 24 21 19
6.096028 6.547934 70.503494 24 21 19
6.084591 6.687346 70.371216 24 20 19
6.073343 6.826399 70.241127 24 20 19
6.062281 6.965106 70.113190 24 20 18
6.051401 7.103475 69.987358 24 20 17
6.040698 7.241513 69.863571 24 20 16
6.030169 7.379232 69.741806 24 20 16
6.019812 7.516639 69.622017 24 19 16
6.009625 7.653747 69.504196 25 18 16
5.999608 7.790566 69.388344 25 18 16
5.989761 7.927113 69.274460 24 18 16
5.980086 8.063400 69.162567 23 19 15
5.970584 8.199442 69.052666 23 19 15
5.961255 8.335251 68.944771 23 19 15
5.952097 8.470840 68.838860 23 19 15
5.943111 8.606220 68.734932 23 19 16
5.934291 8.741399 68.632927 24 20 17
5.925634 8.876379 68.532799 25 20 18
5.917132 9.011166 68.434471 26 21 19
5.908779 9.145758 68.337868 26 20 19
5.900568 9.280158 68.242905 26 20 19
5.892491 9.414363 68.149490 26 20 18
5.884544 9.548374 68.057571 25 19 18
5.876719 9.682192 67.967079 26 20 18
5.869016 9.815823 67.877991 26 21 19
5.861432 9.949271 67.790276 27 21 19
5.853968 10.082549 67.703949 27 20 19
5.846627 10.215669 67.619049 26 19 18
5.839414 10.348650 67.535629 25 18 18
5.832335 10.481512 67.453751 26 19 19
5.825397 10.614278 67.373512 26 19 19
5.818607 10.746971 67.294983 27 20 20
5.811971 10.879615 67.218231 27 21 21
5.805495 11.012230 67.143333 28 22 21
5.799181 11.144835 67.070312 28 22 21
5.793031 11.277443 66.999184 29 23 22
5.787042 11.410063 66.929916 30 24 23
5.781209 11.542695 66.862457 30 24 23
5.775524 11.675334 66.796700 30 23 23
5.769973 11.807967 66.732506 30 23 23
5.764544 11.940574 66.669716 30 22 22
5.759219 12.073128 66.608131 29 22 21
5.753980 12.205601 66.547546 29 21 21
5.748808 12.337955 66.487732 29 21 20
5.743685 12.470157 66.428474 30 22 21
5.738590 12.602165 66.369545 30 23 22
5.733506 12.733944 66.310745 30 23 24
5.728414 12.865452 66.251862 31 23 24
5.723300 12.996655 66.192711 31 23 24
5.718148 13.127517 66.133125 32 23 25
5.712945 13.258002 66.072945 33 24 26
5.707678 13.388081 66.012039 34 25 26
5.702338 13.517721 65.950279 34 25 26
5.696913 13.646893 65.887535 35 25 25
5.691394 13.775565 65.823708 35 25 25
5.685773 13.903713 65.758698 36 25 25
5.680042 14.031309 65.692413 37 26 25
5.674192 14.158324 65.624763 37 27 25
5.668221 14.284739 65.555695 37 27 26
5.662123 14.410537 65.485176 38 28 27
5.655897 14.535698 65.413162 37 29 27
5.649541 14.660214 65.339653 37 29 27
5.643058 14.784080 65.264671 37 29 26
5.636449 14.907290 65.188240 36 28 25
5.629719 15.029845 65.110405 35 27 24
5.622874 15.151756 65.031235 35 26 23
5.615919 15.273027 64.950798 35 26 24
5.608862 15.393673 64.869186 35 25 25
5.601711 15.513703 64.786476 36 25 25
5.594472 15.633132 64.702751 36 25 26
5.587151 15.751969 64.618080 36 24 25
5.579752 15.870220 64.532509 36 24 25
5.572279 15.987889 64.446083 36 26 26
5.564734 16.104975 64.358810 37 27 28
5.557114 16.221470 64.270699 38 28 29
5.549419 16.337362 64.181694 38 28 30
5.541644 16.452633 64.091774 39 29 31
5.533781 16.567251 64.000832 40 30 32
5.525823 16.681192 63.908791 43 31 33
5.517759 16.794415 63.815529 46 33 34
5.509579 16.906878 63.720928 50 36 37
5.501274 17.018547 63.624874 55 40 41
5.492835 17.129383 63.527275 59 44 45
5.484258 17.239365 63.428074 62 47 47
5.475541 17.348476 63.327259 62 48 47
5.466689 17.456720 63.224880 61 46 46
5.457712 17.564123 63.121059 59 43 43
5.448627 17.670729 63.015991 57 40 41
6.516209 -15.044773 73.529884 35 29 28
6.516957 -14.887977 73.538330 34 28 27
6.517725 -14.731189 73.546997 33 28 26
6.518537 -14.574463 73.556160 33 28 26
6.519417 -14.417847 73.566093 34 30 27
6.520385 -14.261379 73.577011 36 31 29
6.521456 -14.105088 73.589096 38 32 31
6.522641 -13.948989 73.602463 40 33 32
6.523947 -13.793088 73.617203 41 34 34
6.525374 -13.637378 73.633308 42 34 35
6.526921 -13.481844 73.650764 43 35 36
6.528579 -13.326463 73.669479 45 38 38
6.530338 -13.171204 73.689323 48 40 39
6.532186 -13.016037 73.710182 51 43 42
6.534110 -12.860929 73.731880 53 46 44
6.536095 -12.705848 73.754288 54 48 45
6.538131 -12.550765 73.777260 54 48 45
6.540205 -12.395658 73.800667 53 46 43
6.542311 -12.240509 73.824432 52 44 42
6.544441 -12.085301 73.848465 53 44 43
6.546592 -11.930030 73.872742 55 45 43
6.548763 -11.774688 73.897232 57 46 44
6.550954 -11.619277 73.921967 63 51 49
6.553167 -11.463797 73.946930 76 63 61
6.555405 -11.308252 73.972183 83 69 67
6.557668 -11.152642 73.997726 73 58 57
6.559958 -10.996967 74.023560 61 43 43
6.562272 -10.841221 74.049675 61 42 42
6.564609 -10.685397 74.076042 72 52 50
6.566961 -10.529487 74.102585 83 64 60
6.569324 -10.373477 74.129242 89 71 67
6.571686 -10.217351 74.155899 93 76 72
6.574038 -10.061095 74.182434 100 85 81
6.576368 -9.904693 74.208733 99 87 83
6.578665 -9.748128 74.234657 82 72 69
6.580917 -9.591385 74.260071 67 57 58
6.583115 -9.434455 74.284866 71 63 66
6.585248 -9.277328 74.308945 84 76 82
6.587312 -9.120000 74.332230 88 78 87
6.589300 -8.962469 74.354660 85 73 85
6.591211 -8.804738 74.376228 77 64 76
6.593047 -8.646816 74.396942 65 52 63
6.594812 -8.488712 74.416855 59 47 56
6.596513 -8.330443 74.436050 69 59 65
6.598162 -8.172026 74.454659 83 74 78
6.599774 -8.013485 74.472855 85 78 80
6.601369 -7.854845 74.490852 88 82 83
6.602969 -7.696132 74.508904 98 91 93
6.604599 -7.537376 74.527298 99 93 97
6.606288 -7.378607 74.546356 99 92 99
6.608066 -7.219852 74.566414 112 102 113
6.609963 -7.061139 74.587830 128 117 131
6.612013 -6.902493 74.610954 124 112 126
6.614244 -6.743932 74.636131 103 90 103
6.616687 -6.585473 74.663696 97 85 94
6.619367 -6.427125 74.693947 111 101 105
6.622307 -6.268893 74.727119 127 120 118
6.625525 -6.110775 74.763428 151 146 140
6.629035 -5.952761 74.803032 165 164 156
6.632844 -5.794839 74.846016 127 129 121
6.636958 -5.636991 74.892433 77 83 76
6.641372 -5.479190 74.942253 86 93 89
6.646080 -5.321409 74.995377 135 142 141
6.651068 -5.163617 75.051659 184 188 190
6.656319 -5.005779 75.110909 202 204 208
6.661807 -4.847859 75.172836 165 164 172
6.667503 -4.689818 75.237122 135 128 142
6.673371 -4.531618 75.303329 174 164 179
6.679370 -4.373217 75.371025 225 213 225
6.685453 -4.214577 75.439667 235 225 232
6.691566 -4.055659 75.508644 223 217 217
6.697653 -3.896429 75.577332 188 183 178
6.703651 -3.736854 75.645020 161 157 149
6.709498 -3.576905 75.710999 190 190 180
6.715128 -3.416563 75.774529 220 223 213
6.720477 -3.255810 75.834877 213 218 209
6.725482 -3.094638 75.891350 206 214 207
6.730084 -2.933048 75.943298 190 198 199
6.734235 -2.771048 75.990135 152 162 171
6.737889 -2.608653 76.031364 142 152 166
6.741009 -2.445887 76.066566 139 145 162
6.743567 -2.282779 76.095436 96 97 115
6.745545 -2.119365 76.117760 73 71 87
6.746932 -1.955682 76.133400 97 92 105
6.747722 -1.791774 76.142311 102 94 103
6.747915 -1.627683 76.144493 83 76 81
6.747515 -1.463455 76.139984 94 85 87
6.746528 -1.299133 76.128845 105 97 96
6.744958 -1.134760 76.111130 85 77 75
6.742810 -0.970381 76.086899 63 56 53
6.740089 -0.806038 76.056183 55 47 43
6.736795 -0.641773 76.019020 52 43 41
6.732930 -0.477627 75.975403 52 43 42
6.728493 -0.313643 75.925339 50 41 40
6.723487 -0.149862 75.868843 44 35 34
6.717915 0.013674 75.805969 40 31 30
6.711785 0.176925 75.736801 37 29 28
6.705109 0.339849 75.661469 35 28 26
6.697906 0.502410 75.580193 33 27 25
6.690203 0.664570 75.493263 31 26 24
6.682032 0.826297 75.401054 31 25 23
6.673430 0.987564 75.304001 31 25 24
6.664443 1.148345 75.202591 32 25 25
6.655119 1.308623 75.097374 34 25 27
6.645508 1.468384 74.988922 37 26 29
6.635659 1.627619 74.877785 40 26 30
6.625620 1.786324 74.764503 43 26 31
6.615436 1.944497 74.649574 46 27 32
6.605141 2.102141 74.533417 49 28 33
6.594768 2.259256 74.416359 54 34 38
6.584335 2.415844 74.298630 61 42 45
6.573854 2.571907 74.180367 61 44 45
6.563327 2.727440 74.061577 56 40 41
6.552747 2.882438 73.942192 58 43 44
6.542101 3.036891 73.822060 65 49 53
6.531367 3.190782 73.700935 65 49 54
6.520520 3.344093 73.578537 56 39 46
6.509534 3.496802 73.454567 52 33 40
6.498382 3.648884 73.328720 61 41 47
6.487039 3.800311 73.200737 79 60 64
6.475487 3.951059 73.070381 86 69 71
6.463713 4.101103 72.937515 75 60 60
6.451710 4.250424 72.802071 61 48 47
6.439482 4.399007 72.664085 49 39 37
6.427040 4.546844 72.523689 41 32 30
6.414406 4.693936 72.381126 37 28 27
6.401608 4.840289 72.236710 36 28 27
6.388680 4.985918 72.090836 36 29 27
6.375664 5.130846 71.943962 36 29 27
6.362601 5.275103 71.796562 35 29 26
6.349537 5.418723 71.649139 36 30 26
6.336513 5.561743 71.502167 34 29 24
6.323568 5.704201 71.356102 32 28 22
6.310739 5.846135 71.211334 30 26 21
6.298054 5.987584 71.068199 28 25 20
6.285538 6.128579 70.926964 27 24 19
6.273208 6.269152 70.787827 25 22 19
6.261073 6.409324 70.650894 23 21 19
6.249138 6.549116 70.516228 23 20 19
6.237407 6.688545 70.383842 23 20 19
6.225874 6.827621 70.253708 23 20 19
6.214535 6.966354 70.125755 24 20 18
6.203385 7.104752 69.999939 24 20 17
6.192418 7.242820 69.876183 24 20 16
6.181628 7.380567 69.754425 24 20 16
6.171011 7.518000 69.634628 25 19 16
6.160565 7.655129 69.516754 25 19 17
6.150289 7.791964 69.400787 25 20 17
6.140182 7.928517 69.286736 25 20 17
6.130243 8.064802 69.174591 24 20 16
6.120475 8.200830 69.064362 24 20 16
6.110876 8.336615 68.956055 24 20 15
6.101446 8.472167 68.849640 24 19 16
6.092183 8.607496 68.745117 24 19 16
6.083083 8.742609 68.642433 25 19 17
6.074142 8.877512 68.541542 26 20 18
6.065354 9.012206 68.442375 26 20 19
6.056712 9.146693 68.344856 26 20 20
6.048210 9.280975 68.248917 26 20 20
6.039842 9.415053 68.154488 26 20 19
6.031602 9.548927 68.061516 25 20 18
6.023488 9.682602 67.969955 25 20 17
6.015498 9.816083 67.879791 25 20 18
6.007632 9.949382 67.791031 26 20 18
5.999893 10.082512 67.703705 26 19 18
5.992286 10.215490 67.617867 26 19 18
5.984818 10.348338 67.533592 26 18 18
5.977496 10.481079 67.450974 26 19 19
5.970329 10.613741 67.370102 26 19 19
5.963327 10.746349 67.291092 26 20 19
5.956497 10.878931 67.214012 27 21 20
5.949844 11.011510 67.138939 28 22 21
5.943373 11.144105 67.065926 29 22 21
5.937085 11.276733 66.994965 30 23 22
5.930977 11.409402 66.926041 30 24 23
5.925043 11.542111 66.859077 31 24 23
5.919272 11.674856 66.793961 31 23 23
5.913652 11.807620 66.730553 31 23 23
5.908166 11.940382 66.668648 31 22 22
5.902795 12.073112 66.608040 30 22 21
5.897518 12.205774 66.548492 30 21 21
5.892313 12.338332 66.489761 30 21 20
5.887159 12.470743 66.431602 30 22 21
5.882033 12.602964 66.373756 31 23 22
5.876915 12.734952 66.316002 31 24 24
5.871784 12.866663 66.258095 31 24 25
5.866621 12.998056 66.199852 32 24 25
5.861412 13.129092 66.141068 32 24 25
5.856141 13.259734 66.081581 33 24 25
5.850793 13.389945 66.021233 33 25 25
5.845357 13.519692 65.959900 34 25 25
5.839823 13.648944 65.897446 34 25 25
5.834179 13.777669 65.833763 35 25 25
5.828417 13.905838 65.768745 36 25 24
5.822532 14.033427 65.702332 37 26 24
5.816512 14.160405 65.634407 37 27 24
5.810357 14.286755 65.564941 37 27 25
5.804060 14.412457 65.493896 37 28 26
5.797623 14.537498 65.421257 37 29 27
5.791044 14.661868 65.347023 37 29 27
5.784327 14.785563 65.271217 36 29 26
5.777474 14.908582 65.193893 36 28 25
5.770491 15.030930 65.115097 36 27 24
5.763385 15.152614 65.034912 35 26 24
5.756164 15.273645 64.953423 34 26 24
5.748836 15.394039 64.870735 35 26 25
5.741408 15.513809 64.786919 35 25 26
5.733890 15.632970 64.702080 35 25 26
5.726287 15.751534 64.616295 35 25 26
5.718607 15.869512 64.529633 35 25 26
5.710852 15.986906 64.442116 35 25 26
5.703025 16.103720 64.353798 36 27 27
5.695125 16.219946 64.264656 37 28 29
5.687151 16.335575 64.174675 38 28 30
5.679098 16.450586 64.083801 39 29 31
5.670959 16.564955 63.991959 40 30 32
5.662725 16.678648 63.899044 42 31 32
5.654386 16.791628 63.804943 44 32 33
5.645930 16.903856 63.709534 48 34 34
5.637348 17.015287 63.612694 51 37 37
5.628631 17.125891 63.514324 55 40 41
5.619771 17.235636 63.414352 57 43 43
5.610769 17.344505 63.312767 59 45 44
5.601626 17.452503 63.209602 60 45 45
5.592354 17.559649 63.104977 60 45 45
5.582970 17.665987 62.999081 59 43 44
6.673724 -15.042541 73.518974 36 30 28
6.674587 -14.885984 73.528488 34 29 26
6.675473 -14.729437 73.538246 33 28 25
6.676405 -14.572947 73.548508 33 28 24
6.677406 -14.416562 73.559540 33 28 25
6.678495 -14.260318 73.571533 34 30 27
6.679687 -14.104239 73.584671 36 31 29
6.680994 -13.948344 73.599068 38 32 31
6.682421 -13.792634 73.614784 39 33 33
6.683969 -13.637104 73.631836 40 33 34
6.685633 -13.481735 73.650169 41 34 35
6.687406 -13.326503 73.669701 45 37 38
6.689277 -13.171380 73.690315 48 40 41
6.691233 -13.016334 73.711861 50 42 42
6.693260 -12.861331 73.734192 51 44 43
6.695343 -12.706339 73.757141 50 43 43
6.697472 -12.551332 73.780586 50 42 42
6.699632 -12.396281 73.804382 49 40 40
6.701816 -12.241174 73.828445 49 40 40
6.704018 -12.085994 73.852699 49 40 40
6.706233 -11.930734 73.877098 49 40 40
6.708460 -11.775390 73.901642 52 42 41
6.710701 -11.619962 73.926323 61 50 49
6.712956 -11.464453 73.951164 79 66 66
6.715229 -11.308867 73.976204 86 73 72
6.717522 -11.153207 74.001465 72 59 58
6.719835 -10.997469 74.026939 57 42 42
6.722167 -10.841654 74.052635 56 41 40
6.724516 -10.685755 74.078514 66 50 49
6.726878 -10.529762 74.104530 77 61 59
6.729244 -10.373667 74.130600 82 66 64
6.731608 -10.217453 74.156639 81 67 64
6.733958 -10.061109 74.182533 83 69 67
6.736285 -9.904616 74.208160 79 67 66
6.738576 -9.747963 74.233398 68 58 58
6.740820 -9.591134 74.258125 68 58 60
6.743011 -9.434123 74.282249 83 74 79
6.745137 -9.276920 74.305679 96 86 94
6.747195 -9.119523 74.328346 96 85 95
6.749180 -8.961933 74.350220 83 71 82
6.751095 -8.804155 74.371307 67 53 65
6.752939 -8.646197 74.391624 55 42 53
6.754721 -8.488073 74.411255 58 46 55
6.756450 -8.329800 74.430305 73 63 70
6.758141 -8.171397 74.448929 84 76 80
6.759810 -8.012889 74.467316 83 77 79
6.761478 -7.854301 74.485695 83 76 78
6.763171 -7.695660 74.504341 87 79 82
6.764914 -7.536996 74.523544 92 83 88
6.766738 -7.378338 74.543640 101 92 99
6.768673 -7.219711 74.564957 115 103 114
6.770752 -7.061142 74.587860 122 109 122
6.773006 -6.902653 74.612686 114 99 113
6.775465 -6.744260 74.639771 99 84 96
6.778155 -6.585976 74.669411 100 87 95
6.781104 -6.427809 74.701889 112 101 103
6.784330 -6.269759 74.737442 119 111 108
6.787851 -6.111820 74.776222 139 135 128
6.791677 -5.953982 74.818375 152 152 143
6.795815 -5.796228 74.863960 120 123 115
6.800267 -5.638538 74.912994 85 91 84
6.805026 -5.480884 74.965424 101 108 104
6.810083 -5.323237 75.021141 145 152 152
6.815423 -5.165564 75.079964 190 194 198
6.821026 -5.007830 75.141685 198 200 207
6.826866 -4.849998 75.206017 148 145 158
6.832911 -4.692031 75.272614 118 109 127
6.839123 -4.533887 75.341049 165 152 171
6.845460 -4.375528 75.410858 223 210 225
6.851873 -4.216914 75.481506 233 221 231
6.858308 -4.058009 75.552383 204 195 196
6.864705 -3.898776 75.622864 172 165 159
6.871001 -3.739185 75.692215 176 173 163
6.877131 -3.579209 75.759750 215 215 204
6.883029 -3.418826 75.824715 225 228 214
6.888626 -3.258020 75.886383 200 205 188
6.893862 -3.096787 75.944061 187 194 181
6.898677 -2.935126 75.997101 181 188 181
6.903018 -2.773046 76.044922 165 173 173
6.906842 -2.610564 76.087044 147 154 157
6.910110 -2.447703 76.123055 120 122 128
6.912796 -2.284495 76.152641 96 94 100
6.914882 -2.120976 76.175621 97 92 97
6.916358 -1.957184 76.191872 107 100 102
6.917217 -1.793163 76.201347 100 90 91
6.917462 -1.628956 76.204041 92 81 81
6.917097 -1.464609 76.200012 104 93 91
6.916125 -1.300164 76.189308 103 92 89
6.914553 -1.135668 76.171997 80 69 66
6.912385 -0.971162 76.148109 64 54 50
6.909624 -0.806690 76.117699 59 50 46
6.906270 -0.642294 76.080742 55 46 43
6.902322 -0.478016 76.037254 54 44 43
6.897779 -0.313899 75.987206 50 40 39
6.892640 -0.149984 75.930603 43 34 32
6.886910 0.013685 75.867470 38 30 28
6.880594 0.177067 75.797897 36 29 26
6.873705 0.340121 75.722008 34 28 25
6.866262 0.502807 75.640015 33 27 24
6.858292 0.665089 75.552208 31 26 24
6.849829 0.826932 75.458977 31 25 23
6.840913 0.988308 75.360764 31 24 24
6.831594 1.149193 75.258102 32 24 25
6.821920 1.309567 75.151527 34 24 27
6.811946 1.469417 75.041656 37 25 28
6.801725 1.628734 74.929062 40 25 30
6.791307 1.787514 74.814293 43 25 31
6.780740 1.945756 74.697884 46 26 31
6.770061 2.103462 74.580254 50 29 34
6.759305 2.260634 74.461746 60 40 43
6.748490 2.417274 74.342613 69 51 54
6.737629 2.573384 74.222961 66 51 53
6.726724 2.728960 74.102837 57 44 46
6.715767 2.883995 73.982132 55 43 47
6.704744 3.038480 73.860703 63 51 58
6.693631 3.192399 73.738274 69 54 65
6.682403 3.345732 73.614586 62 45 57
6.671030 3.498456 73.489304 53 34 46
6.659486 3.650546 73.362129 60 38 50
6.647745 3.801975 73.232780 79 58 66
6.635786 3.952716 73.101044 89 69 73
6.623596 4.102747 72.966759 81 63 64
6.611172 4.252048 72.829887 68 52 52
6.598516 4.400604 72.690468 57 44 42
6.585641 4.548409 72.548645 48 36 34
6.572572 4.695463 72.404671 42 31 29
6.559339 4.841774 72.258888 39 29 28
6.545978 4.987360 72.111702 39 30 29
6.532533 5.132246 71.963593 39 31 29
6.519050 5.276462 71.815056 39 31 29
6.505574 5.420044 71.666603 39 32 29
6.492150 5.563030 71.518723 37 31 26
6.478819 5.705462 71.371872 34 29 22
6.465620 5.847377 71.226463 31 28 21
6.452580 5.988816 71.082817 29 26 20
6.439726 6.129810 70.941208 27 24 19
6.427072 6.270391 70.801819 25 23 19
6.414629 6.410581 70.664742 23 21 18
6.402402 6.550400 70.530045 23 21 19
6.390389 6.689863 70.397705 23 20 19
6.378587 6.828981 70.267693 23 20 18
6.366988 6.967762 70.139915 23 20 18
6.355586 7.106210 70.014305 23 19 17
6.344371 7.244331 69.890762 23 19 17
6.333338 7.382133 69.769218 24 19 16
6.322480 7.519617 69.649605 25 19 17
6.311792 7.656794 69.531876 25 20 17
6.301274 7.793671 69.416000 25 20 18
6.290922 7.930260 69.301964 25 20 18
6.280736 8.066569 69.189758 25 20 17
6.270717 8.202612 69.079369 25 20 16
6.260860 8.338398 68.970795 25 20 16
6.251168 8.473937 68.864021 25 19 16
6.241637 8.609238 68.759026 25 19 17
6.232263 8.744307 68.655754 26 19 17
6.223042 8.879148 68.554176 26 20 18
6.213967 9.013764 68.454208 27 21 20
6.205034 9.148158 68.355797 28 21 21
6.196236 9.282331 68.258881 27 21 20
6.187570 9.416286 68.163406 26 20 19
6.179030 9.550024 68.069336 25 20 18
6.170616 9.683554 67.976639 24 19 17
6.162326 9.816884 67.885330 25 20 17
6.154165 9.950027 67.795425 26 20 17
6.146138 10.083001 67.706993 26 19 17
6.138250 10.215828 67.620102 26 18 17
6.130513 10.348533 67.534859 26 18 17
6.122934 10.481143 67.451378 26 19 18
6.115527 10.613689 67.369774 26 19 18
6.108301 10.746203 67.290169 26 20 19
6.101265 10.878713 67.212662 27 21 20
6.094428 11.011248 67.137344 28 22 21
6.087792 11.143826 67.064247 29 22 21
6.081361 11.276468 66.993393 30 23 22
6.075130 11.409182 66.924751 30 23 22
6.069092 11.541967 66.858246 31 23 22
6.063237 11.674816 66.793732 31 23 23
6.057547 11.807711 66.731056 31 23 23
6.052006 11.940626 66.670013 31 23 22
6.046590 12.073531 66.610352 30 22 22
6.041277 12.206387 66.551826 30 21 21
6.036042 12.339147 66.494148 30 22 21
6.030858 12.471766 66.437050 31 22 21
6.025702 12.604197 66.380249 31 23 23
6.020549 12.736390 66.323486 31 24 24
6.015378 12.868298 66.266510 32 24 25
6.010166 12.999873 66.209099 32 24 25
6.004897 13.131074 66.151047 32 24 25
5.999551 13.261859 66.092171 33 24 25
5.994117 13.392189 66.032295 33 24 25
5.988579 13.522028 65.971291 34 24 25
5.982926 13.651343 65.909027 34 24 25
5.977149 13.780101 65.845383 35 24 24
5.971239 13.908275 65.780266 35 24 24
5.965188 14.035837 65.713608 36 25 24
5.958989 14.162760 65.645317 36 26 25
5.952639 14.289026 65.575371 36 27 26
5.946135 14.414618 65.503723 36 28 26
5.939477 14.539526 65.430382 36 28 27
5.932668 14.663739 65.355362 36 28 27
5.925708 14.787257 65.278702 36 28 27
5.918605 14.910081 65.200447 36 28 26
5.911364 15.032218 65.120682 36 27 25
5.903993 15.153676 65.039474 35 26 25
5.896501 15.274473 64.956947 35 26 25
5.888898 15.394624 64.873192 35 26 25
5.881194 15.514144 64.788315 35 25 26
5.873396 15.633053 64.702423 35 25 27
5.865515 15.751363 64.615593 35 25 27
5.857554 15.869086 64.527901 36 25 27
5.849521 15.986232 64.439407 36 26 27
5.841417 16.102802 64.350128 37 27 27
5.833243 16.218792 64.260078 38 28 28
5.824996 16.334190 64.169235 39 28 30
5.816673 16.448980 64.077553 39 29 30
5.808267 16.563139 63.984943 40 30 31
5.799767 16.676630 63.891312 41 30 31
5.791163 16.789413 63.796528 43 32 32
5.782444 16.901449 63.700466 46 33 33
5.773596 17.012695 63.602997 48 35 35
5.764610 17.123112 63.504013 51 38 38
5.755480 17.232666 63.403431 54 40 40
5.746201 17.341341 63.301212 56 42 42
5.736778 17.449135 63.197403 58 43 44
5.727218 17.556065 63.092094 60 45 46
6.832102 -14.883832 73.517853 35 29 26
6.833114 -14.727532 73.528740 33 28 25
6.834175 -14.571293 73.540161 32 28 24
6.835309 -14.415155 73.552361 33 28 24
6.836533 -14.259155 73.565536 33 29 26
6.837863 -14.103316 73.579849 35 30 28
6.839308 -13.947650 73.595398 36 31 31
6.840874 -13.792160 73.612251 37 32 33
6.842561 -13.636838 73.630394 38 32 33
6.844362 -13.481665 73.649788 39 33 34
6.846270 -13.326614 73.670311 44 37 38
6.848272 -13.171656 73.691856 48 41 42
6.850355 -13.016759 73.714264 50 43 43
6.852503 -12.861887 73.737381 50 43 43
6.854701 -12.707009 73.761032 49 41 42
6.856936 -12.552096 73.785088 48 40 40
6.859195 -12.397123 73.809395 47 38 39
6.861469 -12.242073 73.833862 46 37 38
6.863751 -12.086931 73.858421 46 37 38
6.866038 -11.931691 73.883034 46 37 38
6.868327 -11.776349 73.907661 48 39 39
6.870620 -11.620907 73.932335 58 47 48
6.872917 -11.465366 73.957054 73 62 63
6.875224 -11.309734 73.981880 78 67 68
6.877542 -11.154013 74.006813 68 55 56
6.879872 -10.998204 74.031891 56 44 45
6.882215 -10.842307 74.057098 56 43 44
6.884568 -10.686317 74.082420 63 50 51
6.886928 -10.530230 74.107819 71 58 58
6.889288 -10.374032 74.133217 75 62 61
6.891641 -10.217715 74.158539 73 61 60
6.893978 -10.061264 74.183678 70 58 57
6.896288 -9.904667 74.208534 62 51 51
6.898561 -9.747911 74.233002 58 48 49
6.900788 -9.590984 74.256958 70 60 62
6.902960 -9.433880 74.280334 91 81 86
6.905071 -9.276592 74.303055 106 95 103
6.907117 -9.119122 74.325066 102 89 100
6.909095 -8.961468 74.346359 79 66 77
6.911008 -8.803638 74.366943 56 42 53
6.912861 -8.645646 74.386879 50 37 47
6.914662 -8.487504 74.406258 61 50 58
6.916423 -8.329229 74.425209 75 67 72
6.918161 -8.170847 74.443909 82 75 78
6.919895 -8.012378 74.462570 80 74 77
6.921648 -7.853850 74.481422 79 73 75
6.923445 -7.695292 74.500771 81 73 77
6.925316 -7.536729 74.520897 90 82 87
6.927291 -7.378191 74.542160 103 93 101
6.929403 -7.219704 74.564880 108 96 106
6.931682 -7.061288 74.589409 105 90 103
6.934160 -6.902965 74.616066 102 85 98
6.936866 -6.744749 74.645180 103 86 98
6.939826 -6.586649 74.677032 111 96 104
6.943063 -6.428668 74.711876 114 101 104
6.946597 -6.270804 74.749901 108 99 97
6.950441 -6.113049 74.791260 120 116 110
6.954604 -5.955389 74.836052 140 139 132
6.959088 -5.797804 74.884315 129 133 126
6.963893 -5.640271 74.936020 116 122 118
6.969012 -5.482761 74.991104 136 144 142
6.974432 -5.325244 75.049423 170 176 179
6.980134 -5.167684 75.110779 195 198 205
6.986099 -5.010048 75.174965 183 182 195
6.992296 -4.852297 75.241653 134 129 146
6.998693 -4.694392 75.310493 120 109 131
7.005252 -4.536295 75.381065 171 157 178
7.011927 -4.377966 75.452888 219 204 222
7.018667 -4.219368 75.525414 214 199 211
7.025418 -4.060462 75.598061 184 170 174
7.032118 -3.901215 75.670166 182 173 168
7.038704 -3.741596 75.741028 209 208 196
7.045108 -3.581580 75.809944 232 236 220
7.051262 -3.421145 75.876167 218 221 200
7.057099 -3.260278 75.938972 168 171 148
7.062555 -3.098974 75.997688 153 157 138
7.067571 -2.937233 76.051651 181 185 172
7.072093 -2.775066 76.100319 180 184 175
7.076077 -2.612490 76.143188 136 137 131
7.079487 -2.449531 76.179878 108 105 101
7.082295 -2.286219 76.210106 123 117 113
7.084485 -2.122592 76.233658 138 129 124
7.086045 -1.958689 76.250443 126 114 109
7.086973 -1.794554 76.260429 103 90 85
7.087269 -1.630230 76.263626 99 84 81
7.086938 -1.465763 76.260063 110 95 92
7.085986 -1.301197 76.249809 103 89 86
7.084417 -1.136576 76.232925 79 66 63
7.082233 -0.971944 76.209435 67 55 51
7.079438 -0.807343 76.179352 64 53 49
7.076028 -0.642817 76.142662 60 49 45
