ply
format ascii 1.0
element vertex 1215
property float x
property float y
property float z
property uchar red
property uchar green
property uchar blue
end_header
11.180183 -14.873892 66.398766 45 31 31
11.179450 -14.729792 66.394402 45 31 31
11.178679 -14.585662 66.389832 45 30 30
11.177870 -14.441503 66.385025 45 29 29
11.177011 -14.297301 66.379929 45 29 29
11.176088 -14.153039 66.374443 46 29 29
11.175074 -14.008686 66.368416 46 29 29
11.173932 -13.864202 66.361641 47 29 30
11.172624 -13.719542 66.353867 48 30 31
11.171098 -13.574651 66.344803 50 30 31
11.169300 -13.429472 66.334129 50 30 31
11.167172 -13.283947 66.321487 49 28 30
11.164659 -13.138022 66.306564 48 26 28
11.161701 -12.991646 66.289001 50 27 28
11.158252 -12.844777 66.268509 52 29 30
11.154263 -12.697386 66.244827 54 31 32
11.149704 -12.549452 66.217743 57 33 34
11.144547 -12.400970 66.187119 59 35 37
11.138780 -12.251949 66.152870 59 36 37
11.132400 -12.102410 66.114975 60 37 38
11.125415 -11.952385 66.073494 62 40 41
11.117842 -11.801913 66.028519 66 43 44
11.109697 -11.651037 65.980148 68 44 44
11.101007 -11.499804 65.928543 68 43 43
11.091796 -11.348260 65.873833 67 40 41
11.082082 -11.196444 65.816139 66 38 40
11.071881 -11.044392 65.755562 67 38 41
11.061204 -10.892130 65.692146 71 42 45
11.050051 -10.739680 65.625908 78 48 53
11.038412 -10.587050 65.556786 83 53 59
11.026272 -10.434242 65.484680 82 52 59
11.013603 -10.281254 65.409447 77 48 55
11.000376 -10.128075 65.330887 74 46 53
10.986550 -9.974691 65.248787 72 43 52
10.972085 -9.821090 65.162872 73 43 52
10.956940 -9.667257 65.072922 74 44 52
10.941071 -9.513184 64.978676 74 44 51
10.924444 -9.358868 64.879936 74 45 50
10.907031 -9.204314 64.776520 75 46 49
10.888815 -9.049539 64.668335 76 47 50
10.869790 -8.894567 64.555344 79 50 51
10.849968 -8.739442 64.437622 80 53 52
10.829375 -8.584213 64.315323 77 51 50
10.808059 -8.428946 64.188728 72 47 46
10.786082 -8.273720 64.058212 67 42 41
10.763530 -8.118621 63.924271 64 39 39
10.740500 -7.963746 63.787498 63 38 37
10.717110 -7.809197 63.648579 62 37 37
10.693484 -7.655080 63.508270 63 36 36
10.669760 -7.501498 63.367371 62 35 35
10.646077 -7.348552 63.226723 62 34 34
10.622581 -7.196339 63.087181 61 32 34
10.599410 -7.044944 62.949570 61 33 34
10.576699 -6.894442 62.814690 61 33 34
10.554573 -6.744894 62.683277 61 33 35
10.533145 -6.596351 62.556019 62 33 36
10.512518 -6.448848 62.433517 61 35 36
10.492778 -6.302406 62.316284 62 36 38
10.473998 -6.157033 62.204750 63 37 39
10.456236 -6.012727 62.099262 65 37 40
10.439535 -5.869472 62.000076 64 37 41
10.423925 -5.727244 61.907368 65 36 41
10.409419 -5.586009 61.821220 65 35 39
10.396021 -5.445724 61.741646 67 37 40
10.383719 -5.306344 61.668587 72 41 44
10.372490 -5.167812 61.601898 78 47 48
10.362300 -5.030073 61.541374 83 52 53
10.353103 -4.893064 61.486755 89 56 59
10.344842 -4.756721 61.437698 93 61 65
10.337456 -4.620979 61.393829 94 61 67
10.330870 -4.485775 61.354713 90 57 64
10.325006 -4.351044 61.319889 85 52 60
10.319782 -4.216725 61.288864 83 49 57
10.315113 -4.082759 61.261139 85 50 58
10.310917 -3.949093 61.236217 96 62 68
10.307111 -3.815680 61.213612 101 69 74
10.303617 -3.682475 61.192860 95 63 67
10.300361 -3.549442 61.173523 89 58 62
10.297280 -3.416550 61.155228 88 58 61
10.294318 -3.283775 61.137634 86 56 59
10.291427 -3.151098 61.120464 83 52 55
10.288571 -3.018505 61.103504 80 49 53
10.285723 -2.885987 61.086590 78 47 51
10.282867 -2.753540 61.069630 76 44 48
10.279996 -2.621163 61.052578 74 42 46
10.277115 -2.488856 61.035465 74 42 44
10.274234 -2.356623 61.018356 72 42 43
10.271375 -2.224469 61.001377 73 43 45
10.268565 -2.092398 60.984688 76 46 47
10.265838 -1.960415 60.968491 81 49 50
10.263230 -1.828523 60.953007 85 53 53
10.260781 -1.696724 60.938457 93 60 59
10.258526 -1.565017 60.925064 109 75 76
10.256499 -1.433400 60.913029 129 94 97
10.254726 -1.301867 60.902500 134 98 104
10.253226 -1.170410 60.893597 119 84 93
10.252006 -1.039021 60.886341 108 73 85
10.251058 -0.907686 60.880711 106 71 86
10.250360 -0.776395 60.876575 103 70 85
10.249884 -0.645136 60.873741 101 69 83
10.249578 -0.513897 60.871925 102 71 84
10.249391 -0.382671 60.870811 107 76 88
10.249254 -0.251450 60.870003 109 80 90
10.249104 -0.120233 60.869114 108 79 89
10.248874 0.010980 60.867741 108 79 89
10.248503 0.142185 60.865536 109 81 91
10.247939 0.273375 60.862190 109 81 92
10.247145 0.404542 60.857475 112 83 94
10.246100 0.535676 60.851273 121 92 103
10.244801 0.666766 60.843552 132 103 114
10.243261 0.797804 60.834412 140 111 123
10.241519 0.928785 60.824062 139 110 122
10.239624 1.059705 60.812809 127 100 111
10.237644 1.190567 60.801052 112 84 95
10.235658 1.321377 60.789257 99 72 82
10.233751 1.452147 60.777931 96 70 79
10.232012 1.582895 60.767601 101 77 85
10.230526 1.713641 60.758778 108 85 91
10.229378 1.844409 60.751957 115 93 97
10.228638 1.975227 60.747562 121 100 104
10.228370 2.106123 60.745968 124 104 107
10.228620 2.237126 60.747456 122 103 106
10.229423 2.368262 60.752220 121 102 107
10.230794 2.499559 60.760368 122 103 109
10.232736 2.631037 60.771896 126 106 115
10.235236 2.762716 60.786751 132 110 122
10.238272 2.894609 60.804775 133 112 124
10.241805 3.026728 60.825764 129 109 121
10.245792 3.159078 60.849445 121 102 114
10.250182 3.291658 60.875515 110 91 103
10.254921 3.424468 60.903656 102 82 95
10.259951 3.557499 60.933529 101 81 93
10.265216 3.690745 60.964798 105 85 97
10.270664 3.824193 60.997158 113 92 102
10.276247 3.957833 61.030315 123 101 110
10.281923 4.091652 61.064022 130 108 116
10.287654 4.225639 61.098057 130 109 115
10.293408 4.359783 61.132229 126 105 110
10.299162 4.494074 61.166405 120 99 102
10.304898 4.628505 61.200470 117 96 97
10.310601 4.763067 61.234341 121 99 98
10.316263 4.897756 61.267967 127 105 103
10.321879 5.032568 61.301323 134 112 109
10.327445 5.167497 61.334373 139 118 115
10.332957 5.302542 61.367111 142 121 119
10.338412 5.437698 61.399513 149 130 128
10.343807 5.572962 61.431553 171 152 152
10.349137 5.708327 61.463207 182 164 165
10.354395 5.843788 61.494427 166 148 151
10.359572 5.979338 61.525181 145 127 132
10.364662 6.114968 61.555405 133 116 122
10.369655 6.250670 61.585056 126 109 117
10.374540 6.386435 61.614071 118 103 111
10.379311 6.522251 61.642403 110 96 105
10.383958 6.658111 61.670002 107 93 102
10.388477 6.794007 61.696846 112 99 108
10.392868 6.929932 61.722919 122 108 118
10.397131 7.065883 61.748238 126 111 121
10.401272 7.201859 61.772831 117 100 111
10.405299 7.337860 61.796749 105 85 96
10.409225 7.473891 61.820061 95 75 86
10.413062 7.609959 61.842854 92 72 83
10.416828 7.746072 61.865223 94 74 84
10.420542 7.882241 61.887272 99 79 89
10.424218 8.018477 61.909107 104 82 95
10.427875 8.154792 61.930820 107 85 99
10.431527 8.291198 61.952515 110 88 102
10.435191 8.427706 61.974277 110 88 101
10.438878 8.564325 61.996174 107 85 97
10.442595 8.701065 62.018246 99 77 88
10.446347 8.837931 62.040531 88 65 74
10.450139 8.974926 62.063053 79 55 62
10.453971 9.112052 62.085808 80 55 60
10.457840 9.249310 62.108788 88 63 66
10.461746 9.386701 62.131985 98 73 75
10.465684 9.524220 62.155373 106 82 84
10.469650 9.661866 62.178928 112 90 93
10.473641 9.799638 62.202633 113 92 96
10.477654 9.937532 62.226467 96 77 82
10.481684 10.075544 62.250397 72 54 60
10.485727 10.213674 62.274406 74 57 63
10.489779 10.351914 62.298470 103 86 92
10.493834 10.490264 62.322559 127 109 116
10.497889 10.628715 62.346634 124 106 113
10.501932 10.767259 62.370651 101 85 90
10.505956 10.905886 62.394547 84 68 70
10.509947 11.044580 62.418247 77 63 60
10.513888 11.183327 62.441658 72 61 53
10.517765 11.322103 62.464680 67 57 45
10.521555 11.460883 62.487186 87 78 64
10.525234 11.599640 62.509037 154 148 135
10.528774 11.738336 62.530067 215 210 202
10.532146 11.876932 62.550091 217 209 206
10.535317 12.015385 62.568924 180 166 167
10.538251 12.153646 62.586346 143 126 130
10.540908 12.291659 62.602127 123 104 109
10.543252 12.429372 62.616047 115 93 99
10.545241 12.566721 62.627857 111 86 91
10.546835 12.703645 62.637321 107 80 84
10.547995 12.840082 62.644211 104 77 79
10.548683 12.975968 62.648300 103 77 77
10.548869 13.111249 62.649406 100 75 74
10.548524 13.245866 62.647354 95 72 70
10.547626 13.379773 62.642021 92 70 68
10.546161 13.512931 62.633320 91 70 69
10.544119 13.645306 62.621197 89 68 68
10.541498 13.776871 62.605633 83 62 64
10.538304 13.907612 62.586662 77 57 58
10.534547 14.037521 62.564346 72 51 54
10.530244 14.166599 62.538788 70 48 52
10.525413 14.294850 62.510098 71 49 54
10.520075 14.422284 62.478397 80 58 63
10.514256 14.548914 62.443840 91 68 74
10.507977 14.674754 62.406555 95 73 77
10.501265 14.799821 62.366684 88 66 70
10.494138 14.924127 62.324356 75 53 57
10.486620 15.047689 62.279709 66 44 46
10.478733 15.170526 62.232872 64 42 42
10.470497 15.292649 62.183956 66 45 44
10.461935 15.414083 62.133106 69 47 46
10.453070 15.534845 62.080460 70 47 46
10.443926 15.654963 62.026150 70 48 46
10.434526 15.774461 61.970325 71 48 46
10.424901 15.893374 61.913162 73 48 47
10.415080 16.011740 61.854836 75 50 49
10.405094 16.129597 61.795528 78 52 52
10.394975 16.246992 61.735432 80 55 55
10.384758 16.363974 61.674755 81 58 57
10.374475 16.480587 61.613682 79 56 55
10.364153 16.596878 61.552383 72 51 49
10.353823 16.712889 61.491035 65 47 43
10.343511 16.828665 61.429787 64 47 43
10.333237 16.944241 61.368774 63 49 44
10.323019 17.059645 61.308086 63 51 45
10.312865 17.174894 61.247787 64 52 46
11.318542 -15.010693 66.370766 43 29 30
11.317803 -14.866649 66.366432 44 30 30
11.317080 -14.722644 66.362190 44 30 30
11.316374 -14.578680 66.358047 44 30 29
11.315683 -14.434754 66.354004 44 30 29
11.314999 -14.290852 66.349983 45 29 29
11.314300 -14.146951 66.345886 45 29 29
11.313560 -14.003016 66.341553 45 29 29
11.312742 -13.859003 66.336754 46 30 30
11.311800 -13.714862 66.331230 47 30 31
11.310681 -13.570532 66.324669 49 30 31
11.309325 -13.425948 66.316719 49 30 31
11.307671 -13.281049 66.307014 48 29 30
11.305654 -13.135769 66.295189 47 27 29
11.303215 -12.990056 66.280891 48 27 29
11.300297 -12.843861 66.263779 50 28 29
11.296851 -12.697145 66.243576 51 30 31
11.292838 -12.549887 66.220039 54 31 32
11.288229 -12.402075 66.193008 55 33 34
11.283006 -12.253712 66.162384 56 34 34
11.277163 -12.104815 66.128120 56 35 36
11.270702 -11.955414 66.090240 59 38 39
11.263639 -11.805542 66.048820 63 42 42
11.255988 -11.655241 66.003952 65 43 43
11.247771 -11.504554 65.955772 65 42 42
11.239008 -11.353522 65.904381 64 39 41
11.229717 -11.202188 65.849907 64 38 40
11.219913 -11.050580 65.792412 65 38 41
11.209598 -10.898726 65.731926 68 40 44
11.198773 -10.746642 65.668449 72 44 48
11.187428 -10.594339 65.601921 76 47 52
11.175541 -10.441816 65.532219 76 48 54
11.163085 -10.289071 65.459183 74 46 53
11.150028 -10.136093 65.382614 71 44 51
11.136329 -9.982870 65.302284 70 42 49
11.121944 -9.829389 65.217941 71 42 50
11.106836 -9.675638 65.129341 72 42 50
11.090962 -9.521614 65.036255 73 42 49
11.074289 -9.367314 64.938492 73 42 49
11.056792 -9.212750 64.835892 75 44 49
11.038458 -9.057941 64.728378 77 46 50
11.019286 -8.902919 64.615959 78 47 48
10.999291 -8.747726 64.498711 77 47 47
10.978506 -8.592422 64.376831 73 44 43
10.956981 -8.437072 64.250603 68 40 39
10.934784 -8.281758 64.120445 65 38 37
10.912004 -8.126571 63.986862 65 38 37
10.888741 -7.971606 63.850452 66 39 38
10.865113 -7.816967 63.711906 68 41 40
10.841250 -7.662758 63.571972 70 42 42
10.817286 -7.509084 63.431454 70 41 41
10.793364 -7.356043 63.291172 66 38 38
10.769623 -7.203728 63.151955 64 36 36
10.746202 -7.052224 63.014618 62 34 36
10.723232 -6.901602 62.879929 61 34 36
10.700839 -6.751925 62.748615 61 34 36
10.679132 -6.603238 62.621334 61 34 37
10.658214 -6.455577 62.498669 60 34 37
10.638170 -6.308964 62.381134 59 34 37
10.619073 -6.163407 62.269150 60 35 37
10.600983 -6.018905 62.163071 60 34 37
10.583944 -5.875444 62.063160 62 35 39
10.567989 -5.733001 61.969601 64 35 40
10.553136 -5.591546 61.882500 64 34 38
10.539392 -5.451039 61.801903 64 34 37
10.526749 -5.311436 61.727772 69 40 42
10.515191 -5.172686 61.659996 76 46 47
10.504686 -5.034733 61.598396 82 52 53
10.495194 -4.897519 61.542740 89 58 61
10.486664 -4.760980 61.492718 96 65 69
10.479033 -4.625055 61.447971 96 65 71
10.472232 -4.489678 61.408089 91 59 66
10.466184 -4.354786 61.372623 86 53 61
10.460806 -4.220317 61.341084 83 49 57
10.456013 -4.086214 61.312981 85 51 57
10.451719 -3.952420 61.287804 95 61 66
10.447841 -3.818887 61.265064 97 64 68
10.444297 -3.685569 61.244278 91 59 61
10.441010 -3.552429 61.225002 90 59 61
10.437910 -3.419433 61.206829 95 65 66
10.434938 -3.286556 61.189400 93 63 64
10.432040 -3.153776 61.172405 87 56 58
10.429174 -3.021079 61.155605 85 53 56
10.426311 -2.888454 61.138809 84 52 55
10.423424 -2.755896 61.121883 81 48 51
10.420506 -2.623404 61.104774 77 44 47
10.417556 -2.490977 61.087475 74 43 44
10.414580 -2.358619 61.070026 72 41 43
10.411599 -2.226335 61.052544 72 41 43
10.408637 -2.094131 61.035175 74 44 45
10.405725 -1.962010 61.018105 78 46 48
10.402902 -1.829979 61.001545 82 50 51
10.400206 -1.698040 60.985737 88 55 56
10.397676 -1.566194 60.970894 99 65 67
10.395346 -1.434440 60.957237 112 76 80
10.393249 -1.302774 60.944939 114 78 84
10.391405 -1.171190 60.934132 106 70 79
10.389827 -1.039678 60.924873 100 64 76
10.388512 -0.908230 60.917160 98 62 76
10.387444 -0.776833 60.910904 97 61 76
10.386598 -0.645477 60.905941 97 62 75
10.385931 -0.514151 60.902031 99 65 77
10.385393 -0.382847 60.898876 103 68 79
10.384924 -0.251558 60.896122 105 71 80
10.384460 -0.120281 60.893406 105 72 79
10.383941 0.010984 60.890358 104 71 80
10.383307 0.142234 60.886642 103 71 81
10.382511 0.273464 60.881973 102 70 81
10.381516 0.404666 60.876137 104 73 84
10.380301 0.535832 60.869015 110 79 91
10.378863 0.666953 60.860588 118 86 97
10.377220 0.798021 60.850952 124 92 103
10.375405 0.929033 60.840309 126 96 106
10.373468 1.059986 60.828949 122 92 102
10.371476 1.190884 60.817268 110 81 90
10.369504 1.321734 60.805698 98 69 77
10.367635 1.452549 60.794743 94 66 74
10.365954 1.583345 60.784889 97 70 78
10.364547 1.714144 60.776634 101 75 82
10.363489 1.844970 60.770432 104 79 85
10.362853 1.975849 60.766701 107 83 88
10.362694 2.106809 60.765766 110 87 91
10.363057 2.237878 60.767899 113 90 95
10.363971 2.369082 60.773254 115 92 98
10.365449 2.500446 60.781925 117 95 102
10.367491 2.631989 60.793900 122 99 109
10.370082 2.763731 60.809090 126 103 115
10.373194 2.895684 60.827335 125 103 116
10.376790 3.027856 60.848423 120 99 113
10.380824 3.160253 60.872082 114 94 109
10.385245 3.292875 60.898010 108 89 103
10.390000 3.425718 60.925888 102 82 97
10.395030 3.558776 60.955383 99 78 93
10.400283 3.692039 60.986187 102 81 95
10.405706 3.825499 61.017990 111 90 103
10.411254 3.959143 61.050522 124 102 113
10.416885 4.092960 61.083546 132 111 120
10.422565 4.226939 61.116848 132 111 119
10.428264 4.361069 61.150265 125 104 111
10.433958 4.495342 61.183651 117 96 102
10.439631 4.629749 61.216923 113 91 95
10.445271 4.764285 61.249992 116 94 96
10.450870 4.898943 61.282822 126 104 104
10.456421 5.033721 61.315376 138 117 115
10.461923 5.168614 61.347633 152 131 128
10.467370 5.303619 61.379578 160 140 138
10.472761 5.438733 61.411190 171 152 150
10.478092 5.573950 61.442451 196 177 178
10.483356 5.709267 61.473324 207 188 191
10.488549 5.844676 61.503773 180 161 165
10.493664 5.980172 61.533764 144 124 131
10.498690 6.115746 61.563236 123 103 111
10.503620 6.251390 61.592144 115 95 104
10.508447 6.387095 61.620449 110 91 99
10.513161 6.522853 61.648094 105 88 96
10.517758 6.658657 61.675053 102 86 94
10.522235 6.794498 61.701302 101 85 93
10.526590 6.930372 61.726841 102 85 93
10.530828 7.066278 61.751694 101 83 91
10.534956 7.202216 61.775898 97 77 86
10.538983 7.338188 61.799511 93 71 80
10.542923 7.474200 61.822613 90 67 75
10.546789 7.610259 61.845287 88 66 74
10.550600 7.746375 61.867634 89 67 74
10.554373 7.882557 61.889751 91 69 77
10.558122 8.018818 61.911739 95 72 81
10.561864 8.155169 61.933685 100 78 88
10.565614 8.291619 61.955669 105 83 93
10.569383 8.428180 61.977768 105 84 92
10.573178 8.564858 62.000031 99 78 86
10.577008 8.701661 62.022488 90 69 75
10.580874 8.838590 62.045158 81 58 63
10.584778 8.975648 62.068047 74 50 54
10.588717 9.112835 62.091141 76 52 54
10.592688 9.250151 62.114426 87 62 64
10.596686 9.387591 62.137878 100 76 76
10.600712 9.525156 62.161480 111 87 89
10.604757 9.662842 62.185204 121 99 101
10.608822 9.800647 62.209038 121 101 104
10.612902 9.938569 62.232964 98 80 84
10.616996 10.076609 62.256969 71 54 59
10.621100 10.214761 62.281036 84 68 74
10.625215 10.353027 62.305164 132 115 122
10.629336 10.491404 62.329330 153 137 144
10.633459 10.629887 62.353508 130 113 120
10.637578 10.768469 62.377659 94 78 83
10.641685 10.907144 62.401745 77 62 63
10.645767 11.045897 62.425678 76 63 59
10.649811 11.184711 62.449390 75 64 55
10.653797 11.323569 62.472771 77 66 54
10.657706 11.462443 62.495693 106 96 82
10.661513 11.601306 62.518017 172 164 153
10.665190 11.740120 62.539574 218 212 206
10.668702 11.878845 62.560173 203 194 192
10.672018 12.017438 62.579613 157 142 145
10.675097 12.155845 62.597672 123 104 112
10.677901 12.294012 62.614109 109 86 97
10.680387 12.431880 62.628685 103 78 88
10.682511 12.569387 62.641148 100 73 82
10.684233 12.706468 62.651237 100 71 79
10.685509 12.843056 62.658722 101 72 78
10.686300 12.979089 62.663364 103 75 78
10.686575 13.114507 62.664978 101 75 75
10.686301 13.249252 62.663368 97 72 71
10.685459 13.383278 62.658428 93 70 69
10.684031 13.516541 62.650059 93 71 71
10.682010 13.649011 62.638203 93 71 72
10.679392 13.780660 62.622852 86 65 67
10.676185 13.911474 62.604046 78 56 58
10.672399 14.041448 62.581848 71 49 52
10.668054 14.170581 62.556366 67 45 48
10.663170 14.298882 62.527733 69 46 50
10.657773 14.426366 62.496082 76 53 58
10.651887 14.553044 62.461567 83 61 66
10.645538 14.678937 62.424343 85 64 68
10.638754 14.804062 62.384556 80 59 62
10.631557 14.928436 62.342358 72 51 54
10.623975 15.052083 62.297894 67 45 47
10.616029 15.175017 62.251297 65 44 44
10.607742 15.297261 62.202709 67 46 46
10.599141 15.418837 62.152271 70 48 48
10.590249 15.539768 62.100128 70 48 48
10.581092 15.660082 62.046432 70 47 47
10.571693 15.779805 61.991322 71 47 47
10.562085 15.898973 61.934978 74 49 49
10.552296 16.017626 61.877575 78 52 52
10.542356 16.135799 61.819290 81 55 55
10.532298 16.253540 61.760311 82 57 57
10.522155 16.370892 61.700829 81 57 56
10.511954 16.487900 61.641018 77 54 53
10.501728 16.604607 61.581047 71 51 49
10.491497 16.721048 61.521057 67 49 46
10.481289 16.837269 61.461197 66 50 46
10.471120 16.953295 61.401566 66 52 48
10.461002 17.069147 61.342239 66 54 48
10.450946 17.184843 61.283268 68 55 50
11.455495 -15.002678 66.335327 42 28 29
11.454696 -14.858644 66.330696 43 29 29
11.453964 -14.714718 66.326462 43 30 29
11.453306 -14.570903 66.322647 44 30 29
11.452719 -14.427194 66.319252 44 30 29
11.452192 -14.283575 66.316200 44 30 29
11.451707 -14.140020 66.313393 44 30 29
11.451233 -13.996492 66.310646 45 30 29
11.450732 -13.852942 66.307747 45 30 30
11.450153 -13.709312 66.304390 46 30 31
11.449439 -13.565536 66.300255 47 30 31
11.448526 -13.421545 66.294968 48 30 31
11.447349 -13.277269 66.288147 47 30 31
11.445836 -13.132639 66.279396 47 29 30
11.443925 -12.987594 66.268326 48 28 30
11.441552 -12.842079 66.254585 48 28 30
11.438664 -12.696051 66.237862 49 29 30
11.435218 -12.549482 66.217903 50 30 31
11.431177 -12.402354 66.194504 51 31 32
11.426520 -12.254667 66.167542 52 32 33
11.421238 -12.106433 66.136948 54 33 34
11.415329 -11.957674 66.102737 56 35 36
11.408803 -11.808425 66.064949 59 38 39
11.401674 -11.658721 66.023666 62 40 41
11.393957 -11.508602 65.978981 62 39 40
11.385673 -11.358109 65.931007 62 37 39
11.376834 -11.207277 65.879822 62 37 39
11.367452 -11.056136 65.825493 63 37 39
11.357527 -10.904711 65.768021 65 37 41
11.347057 -10.753015 65.707390 67 39 43
11.336028 -10.601058 65.643524 69 42 46
11.324418 -10.448840 65.576294 70 43 48
11.312197 -10.296356 65.505524 69 42 49
11.299330 -10.143598 65.431015 69 41 48
11.285775 -9.990551 65.352531 69 41 48
11.271492 -9.837208 65.269821 70 42 48
11.256439 -9.683558 65.182655 72 42 48
11.240578 -9.529599 65.090805 73 43 49
11.223877 -9.375336 64.994095 76 44 50
11.206316 -9.220780 64.892403 80 47 51
11.187884 -9.065959 64.785675 83 49 52
11.168587 -8.910905 64.673920 82 49 49
11.148441 -8.755669 64.557266 79 46 44
11.127486 -8.600309 64.435928 73 42 40
11.105779 -8.444901 64.310226 68 37 36
11.083391 -8.289525 64.180580 65 36 34
11.060413 -8.134274 64.047523 65 37 35
11.036950 -7.979247 63.911655 68 41 39
11.013123 -7.824546 63.773678 75 47 46
10.989058 -7.670275 63.634335 82 54 53
10.964896 -7.516537 63.494415 82 53 52
10.940772 -7.363429 63.354721 73 44 44
10.916829 -7.211041 63.216072 67 39 39
10.893201 -7.059457 63.079250 64 37 38
10.870019 -6.908745 62.945007 63 36 38
10.847404 -6.758965 62.814049 62 35 38
10.825463 -6.610163 62.687004 61 35 38
10.804299 -6.462372 62.564449 60 35 38
10.783997 -6.315613 62.446877 59 35 38
10.764627 -6.169897 62.334713 59 34 38
10.746248 -6.025220 62.228294 59 33 37
10.728911 -5.881573 62.127899 61 34 38
10.712650 -5.738935 62.033733 64 35 40
10.697484 -5.597275 61.945908 62 32 37
10.683425 -5.456560 61.864502 62 32 36
10.670472 -5.316747 61.789494 67 38 40
10.658610 -5.177787 61.720806 74 45 46
10.647814 -5.039629 61.658287 81 52 53
10.638047 -4.902213 61.601730 88 59 61
10.629263 -4.765482 61.550861 95 65 70
10.621400 -4.629372 61.505333 97 66 72
10.614393 -4.493821 61.464756 91 60 66
10.608166 -4.358765 61.428696 86 53 60
10.602636 -4.224143 61.396679 83 50 56
10.597719 -4.089894 61.368206 84 51 56
10.593328 -3.955966 61.342777 91 58 61
10.589376 -3.822304 61.319893 92 60 62
10.585779 -3.688866 61.299061 86 55 56
10.582456 -3.555609 61.279816 88 58 58
10.579332 -3.422500 61.261730 96 66 67
10.576344 -3.289511 61.244427 97 67 67
10.573435 -3.156620 61.227577 91 59 61
10.570555 -3.023810 61.210903 92 59 60
10.567669 -2.891071 61.194191 95 60 63
10.564750 -2.758394 61.177284 91 57 59
10.561782 -2.625779 61.160099 85 51 52
10.558761 -2.493225 61.142605 77 45 46
10.555689 -2.360735 61.124817 73 41 43
10.552583 -2.228315 61.106834 72 41 43
10.549467 -2.095970 61.088787 73 42 45
10.546370 -1.963706 61.070850 76 44 46
10.543327 -1.831530 61.053238 79 47 49
10.540382 -1.699445 61.036182 84 51 54
10.537571 -1.567453 61.019901 92 58 62
10.534934 -1.435555 61.004635 102 67 71
10.532505 -1.303749 60.990566 104 69 75
10.530309 -1.172030 60.977852 100 64 72
10.528361 -1.040390 60.966568 95 59 70
10.526667 -0.908820 60.956757 93 57 69
10.525214 -0.777310 60.948349 92 56 69
10.523984 -0.645851 60.941227 92 57 68
10.522939 -0.514431 60.935173 95 59 70
10.522033 -0.383042 60.929924 98 62 71
10.521212 -0.251678 60.925171 101 64 72
10.520418 -0.120335 60.920574 101 65 72
10.519591 0.010988 60.915791 100 65 72
10.518681 0.142290 60.910511 99 64 73
10.517635 0.273565 60.904465 97 63 73
10.516426 0.404808 60.897457 98 65 75
10.515030 0.536011 60.889374 101 68 80
10.513446 0.667168 60.880199 106 73 84
10.511689 0.798272 60.870029 110 79 88
10.509794 0.929319 60.859055 115 84 92
10.507809 1.060311 60.847561 115 85 91
10.505798 1.191249 60.835918 107 77 83
10.503835 1.322144 60.824543 98 69 75
10.501998 1.453007 60.813911 94 66 72
10.500371 1.583856 60.804489 94 67 73
10.499034 1.714712 60.796745 96 69 75
10.498060 1.845598 60.791111 98 71 78
10.497518 1.976541 60.787964 100 74 80
10.497458 2.107567 60.787621 103 78 84
10.497922 2.238704 60.790310 107 82 89
10.498935 2.369976 60.796173 112 87 94
10.500508 2.501406 60.805283 118 94 102
10.502636 2.633016 60.817604 125 101 110
10.505301 2.764819 60.833038 125 101 112
10.508475 2.896830 60.851421 119 96 108
10.512120 3.029055 60.872524 113 92 105
10.516189 3.161499 60.896084 110 89 104
10.520629 3.294161 60.921795 108 87 102
10.525386 3.427037 60.949345 102 82 98
10.530407 3.560120 60.978420 96 75 91
10.535638 3.693403 61.008705 99 76 92
10.541028 3.826874 61.039921 109 86 101
10.546534 3.960523 61.071804 120 97 110
10.552115 4.094339 61.104126 126 104 116
10.557740 4.228312 61.136700 126 104 115
10.563380 4.362431 61.169357 120 99 108
10.569013 4.496688 61.201973 112 90 99
10.574624 4.631076 61.234463 106 85 91
10.580199 4.765588 61.266754 108 86 90
10.585733 4.900220 61.298798 118 96 98
10.591220 5.034968 61.330570 136 114 113
10.596656 5.169828 61.362045 156 135 133
10.602038 5.304797 61.393211 168 149 146
10.607363 5.439871 61.424046 173 155 154
10.612626 5.575046 61.454525 185 167 168
10.617823 5.710316 61.484619 188 170 173
10.622947 5.845675 61.514290 165 146 151
10.627991 5.981118 61.543495 134 113 120
10.632946 6.116636 61.572193 116 94 102
10.637808 6.252222 61.600342 108 86 94
10.642567 6.387868 61.627899 103 82 90
10.647217 6.523566 61.654827 99 79 86
10.651754 6.659310 61.681107 95 77 83
10.656178 6.795094 61.706722 92 75 81
10.660488 6.930916 61.731682 91 73 79
10.664692 7.066774 61.756023 89 70 75
10.668797 7.202671 61.779793 86 65 70
10.672814 7.338609 61.803059 84 62 67
10.676759 7.474597 61.825897 83 60 65
10.680646 7.610642 61.848404 83 59 64
10.684491 7.746755 61.870674 84 59 64
10.688313 7.882946 61.892803 86 61 65
10.692125 8.019225 61.914879 88 65 69
10.695943 8.155604 61.936989 93 70 75
10.699779 8.292091 61.959194 98 76 80
10.703641 8.428696 61.981564 98 77 80
10.707536 8.565423 62.004120 92 72 75
10.711468 8.702277 62.026886 83 63 66
10.715436 8.839260 62.049862 75 54 56
10.719439 8.976371 62.073044 70 48 49
10.723472 9.113607 62.096401 73 50 51
10.727533 9.250968 62.119915 84 61 61
10.731617 9.388450 62.143562 99 75 76
10.735718 9.526050 62.167313 112 88 90
10.739835 9.663766 62.191151 123 100 103
10.743963 9.801596 62.215061 121 101 106
10.748105 9.939540 62.239040 97 78 84
10.752258 10.077600 62.263092 73 55 62
10.756422 10.215772 62.287201 96 79 87
10.760598 10.354061 62.311386 153 137 146
10.764784 10.492463 62.335625 172 156 164
10.768979 10.630980 62.359921 133 117 123
10.773178 10.769604 62.384232 87 72 75
10.777373 10.908329 62.408524 72 58 57
10.781554 11.047145 62.432739 75 61 55
10.785707 11.186036 62.456787 77 65 55
10.789815 11.324983 62.480572 89 77 64
10.793854 11.463960 62.503956 126 114 100
10.797799 11.602936 62.526802 184 174 162
10.801620 11.741878 62.548935 211 202 196
10.805285 11.880741 62.570152 180 167 167
10.808754 12.019479 62.590240 130 113 117
10.811988 12.158039 62.608967 103 83 91
10.814943 12.296364 62.626083 97 73 85
10.817576 12.434391 62.641331 95 69 81
10.819841 12.572056 62.654446 95 66 78
10.821692 12.709291 62.665165 98 68 78
10.823087 12.846031 62.673237 103 73 80
10.823982 12.982208 62.678425 106 76 81
10.824344 13.117759 62.680515 102 74 77
10.824141 13.252628 62.679340 95 69 70
10.823351 13.386767 62.674767 89 65 66
10.821958 13.520132 62.666698 90 67 68
10.819953 13.652692 62.655094 90 68 69
10.817336 13.784419 62.639935 85 63 64
10.814114 13.915304 62.621281 77 55 56
10.810300 14.045340 62.599194 70 48 50
10.805915 14.174530 62.573799 66 43 46
10.800982 14.302885 62.545235 68 45 48
10.795527 14.430421 62.513649 74 51 55
10.789579 14.557154 62.479206 78 56 60
10.783167 14.683107 62.442074 78 56 61
10.776319 14.808300 62.402416 75 53 57
10.769061 14.932755 62.360390 70 49 52
10.761423 15.056497 62.316162 67 46 48
10.753428 15.179544 62.269867 68 46 47
10.745105 15.301923 62.221664 70 48 49
10.736476 15.423657 62.171703 72 50 51
10.727571 15.544773 62.120129 72 50 50
10.718412 15.665298 62.067101 71 49 49
10.709028 15.785263 62.012764 74 49 49
10.699450 15.904702 61.957294 77 52 51
10.689705 16.023655 61.900864 82 57 56
10.679825 16.142159 61.843651 86 60 60
10.669839 16.260254 61.785828 86 61 60
10.659781 16.377989 61.727581 82 58 57
10.649675 16.495401 61.669067 76 54 53
10.639551 16.612532 61.610443 73 52 51
10.629430 16.729414 61.551830 70 53 50
10.619332 16.846079 61.493359 70 53 50
10.609276 16.962559 61.435120 69 54 50
10.599267 17.078867 61.377167 70 56 52
10.589314 17.195011 61.319527 71 58 53
11.591780 -14.993996 66.296936 42 28 28
11.590903 -14.849959 66.291924 43 29 29
11.590149 -14.706100 66.287613 44 30 29
11.589524 -14.562420 66.284035 44 30 29
11.589026 -14.418915 66.281189 44 30 29
11.588647 -14.275567 66.279022 44 30 28
11.588364 -14.132347 66.277405 44 30 29
11.588148 -13.989214 66.276161 44 30 29
11.587955 -13.846115 66.275063 45 30 30
11.587734 -13.702987 66.273796 45 30 31
11.587422 -13.559758 66.272018 46 30 31
11.586952 -13.416353 66.269325 46 30 31
11.586252 -13.272696 66.265320 46 30 31
11.585248 -13.128714 66.259583 46 29 30
11.583871 -12.984336 66.251701 46 29 30
11.582051 -12.839503 66.241302 46 28 30
11.579734 -12.694169 66.228043 47 28 30
11.576865 -12.548294 66.211632 48 29 30
11.573408 -12.401859 66.191864 49 30 30
11.569335 -12.254858 66.168571 50 31 31
11.564632 -12.107297 66.141670 52 33 32
11.559296 -11.959196 66.111145 53 34 34
11.553329 -11.810583 66.077019 56 35 37
11.546741 -11.661490 66.039345 59 37 39
11.539547 -11.511955 65.998207 60 38 40
11.531762 -11.362015 65.953674 60 37 39
11.523396 -11.211701 65.905830 60 36 38
11.514455 -11.061042 65.854691 61 36 39
11.504941 -10.910059 65.800278 61 36 39
11.494845 -10.758766 65.742538 62 36 40
11.484151 -10.607170 65.681374 64 38 42
11.472835 -10.455271 65.616653 65 39 44
11.460863 -10.303061 65.548187 66 40 46
11.448202 -10.150536 65.475769 67 39 46
11.434809 -9.997682 65.399170 68 39 46
11.420640 -9.844490 65.318138 70 40 47
11.405658 -9.690956 65.232445 72 41 48
11.389824 -9.537079 65.141891 76 43 50
11.373113 -9.382868 65.046310 83 47 54
11.355503 -9.228339 64.945602 91 54 59
11.336992 -9.073523 64.839729 95 59 61
11.317587 -8.918459 64.728745 93 57 57
11.297313 -8.763199 64.612793 87 52 50
11.276214 -8.607809 64.492119 80 46 44
11.254350 -8.452366 64.367073 72 40 37
11.231797 -8.296953 64.238091 64 35 32
11.208652 -8.141665 64.105721 63 35 32
11.185023 -7.986602 63.970570 69 40 37
11.161031 -7.831867 63.833351 80 51 49
11.136804 -7.677563 63.694790 91 62 61
11.112480 -7.523789 63.555676 90 60 60
11.088198 -7.370644 63.416798 78 48 49
11.064095 -7.218214 63.278946 70 40 42
11.040304 -7.066578 63.142883 67 38 40
11.016954 -6.915806 63.009335 65 37 39
10.994163 -6.765953 62.878983 64 36 40
10.972036 -6.617063 62.752434 64 36 40
10.950673 -6.469169 62.630249 63 37 41
10.930156 -6.322291 62.512909 62 37 41
10.910557 -6.176440 62.400814 61 35 39
10.891937 -6.031613 62.294323 60 33 37
10.874345 -5.887803 62.193707 61 33 38
10.857816 -5.744988 62.099174 62 33 38
10.842376 -5.603144 62.010864 61 32 36
10.828038 -5.462237 61.928867 62 33 36
10.814806 -5.322227 61.853184 67 38 41
10.802670 -5.183070 61.783775 73 44 46
10.791608 -5.044714 61.720509 78 50 52
10.781589 -4.907105 61.663204 84 55 59
10.772566 -4.770185 61.611603 90 60 65
10.764487 -4.633893 61.565399 92 62 67
10.757285 -4.498168 61.524204 88 57 63
10.750886 -4.362945 61.487610 85 52 58
10.745210 -4.228165 61.455147 82 50 54
10.740171 -4.093768 61.426327 83 50 54
10.735682 -3.959697 61.400650 85 53 56
10.731652 -3.825902 61.377605 86 55 56
10.727996 -3.692334 61.356693 82 53 53
10.724631 -3.558953 61.337448 84 55 55
10.721478 -3.425723 61.319412 91 61 62
10.718468 -3.292614 61.302197 93 63 63
10.715538 -3.159603 61.285442 92 60 61
10.712638 -3.026673 61.268856 98 64 65
10.709724 -2.893811 61.252190 109 74 75
10.706767 -2.761009 61.235275 110 75 76
10.703744 -2.628264 61.217991 99 65 65
10.700648 -2.495577 61.200283 82 49 50
10.697478 -2.362949 61.182152 73 41 42
10.694247 -2.230387 61.163673 71 41 43
10.690974 -2.097897 61.144955 72 42 45
10.687691 -1.965485 61.126175 74 44 46
10.684430 -1.833158 61.107529 76 45 48
10.681234 -1.700922 61.089249 80 48 52
10.678142 -1.568780 61.071560 87 54 59
10.675195 -1.436734 61.054710 95 61 66
10.672429 -1.304782 61.038891 98 64 70
10.669875 -1.172922 61.024284 96 61 69
10.667553 -1.041148 61.011002 93 57 67
10.665470 -0.909451 60.999088 91 55 65
10.663624 -0.777823 60.988529 89 54 64
10.661998 -0.646254 60.979229 89 53 63
10.660562 -0.514734 60.971012 91 55 63
10.659275 -0.383254 60.963654 95 58 65
10.658088 -0.251809 60.956867 98 60 66
10.656949 -0.120394 60.950352 98 61 66
10.655803 0.010993 60.943798 97 61 66
10.654599 0.142352 60.936916 96 60 66
10.653296 0.273677 60.929459 94 59 66
10.651858 0.404966 60.921242 93 59 68
10.650271 0.536212 60.912163 94 61 71
10.648531 0.667409 60.902206 96 64 74
10.646653 0.798553 60.891468 100 68 77
10.644670 0.929641 60.880127 104 73 79
10.642631 1.060675 60.868462 106 76 80
10.640594 1.191659 60.856815 103 74 77
10.638631 1.322601 60.845589 98 70 73
10.636820 1.453516 60.835228 95 67 71
10.635239 1.584421 60.826183 92 65 69
10.633963 1.715336 60.818886 91 65 70
10.633063 1.846285 60.813744 93 68 73
10.632603 1.977293 60.811108 96 71 77
10.632629 2.108387 60.811260 101 75 82
10.633181 2.239592 60.814415 106 80 88
10.634278 2.370932 60.820694 113 87 95
10.635930 2.502429 60.830139 122 97 105
10.638127 2.634102 60.842705 128 103 112
10.640851 2.765967 60.858288 124 99 109
10.644072 2.898034 60.876705 114 90 101
10.647749 3.030310 60.897736 107 85 97
10.651835 3.162798 60.921108 105 84 96
10.656281 3.295498 60.946529 105 84 98
10.661029 3.428406 60.973690 101 80 94
10.666029 3.561514 61.002281 95 72 88
10.671227 3.694814 61.032013 96 73 88
10.676578 3.828297 61.062614 105 81 96
10.682034 3.961951 61.093826 112 88 103
10.687563 4.095767 61.125443 116 92 107
10.693129 4.229735 61.157280 116 93 107
10.698708 4.363845 61.189186 112 89 102
10.704279 4.498089 61.221046 106 84 96
10.709826 4.632461 61.252773 102 79 88
10.715338 4.766953 61.284298 101 78 84
10.720808 4.901563 61.315582 109 87 90
10.726231 5.036284 61.346596 125 103 104
10.731603 5.171115 61.377319 142 122 121
10.736918 5.306051 61.407722 150 131 129
10.742175 5.441088 61.437790 146 128 128
10.747371 5.576223 61.467503 145 127 130
10.752497 5.711449 61.496822 146 127 132
10.757547 5.846761 61.525707 136 116 123
10.762517 5.982152 61.554127 122 99 108
10.767397 6.117614 61.582043 111 88 96
10.772183 6.253143 61.609417 105 81 88
10.776868 6.388729 61.636208 99 75 82
10.781447 6.524367 61.662399 94 72 77
10.785917 6.660051 61.687965 90 69 73
10.790280 6.795777 61.712917 85 66 70
10.794538 6.931543 61.737267 83 63 66
10.798698 7.067350 61.761063 80 60 62
10.802772 7.203203 61.784359 78 56 58
10.806772 7.339106 61.807236 76 54 56
10.810712 7.475066 61.829773 77 53 56
10.814610 7.611093 61.852062 79 54 56
10.818480 7.747197 61.874203 79 54 56
10.822342 7.883390 61.896290 80 55 55
10.826208 8.019681 61.918396 83 59 58
10.830091 8.156080 61.940605 87 65 64
10.834001 8.292596 61.962967 91 69 68
10.837945 8.429235 61.985527 90 70 69
10.841928 8.566002 62.008305 86 66 65
10.845949 8.702897 62.031303 78 58 58
10.850007 8.839922 62.054512 72 51 52
10.854097 8.977074 62.077904 69 47 47
10.858214 9.114348 62.101452 71 48 49
10.862354 9.251744 62.125130 80 57 58
10.866510 9.389256 62.148899 93 69 71
10.870678 9.526881 62.172737 106 81 85
10.874856 9.664618 62.196632 115 91 96
10.879044 9.802466 62.220585 112 90 97
10.883241 9.940426 62.244583 91 70 78
10.887448 10.078499 62.268646 74 55 64
10.891668 10.216688 62.292786 99 81 91
10.895904 10.354996 62.317009 152 136 145
10.900156 10.493423 62.341331 167 151 159
10.904426 10.631973 62.365749 124 109 115
10.908708 10.770640 62.390236 80 66 68
10.912996 10.909420 62.414764 71 58 55
10.917283 11.048303 62.439281 76 61 55
10.921553 11.187275 62.463703 80 66 55
10.925788 11.326316 62.487926 100 87 74
10.929965 11.465401 62.511818 141 127 115
10.934057 11.604499 62.535225 183 169 159
10.938034 11.743572 62.557964 189 174 170
10.941857 11.882579 62.579834 150 133 133
10.945489 12.021468 62.600601 108 88 93
10.948884 12.160185 62.620018 92 68 79
10.951998 12.298669 62.637825 91 65 78
10.954782 12.436857 62.653755 91 64 77
10.957192 12.574682 62.667534 92 63 76
10.959176 12.712073 62.678883 97 68 79
10.960689 12.848962 62.687534 104 75 84
10.961689 12.985280 62.693256 106 78 85
10.962138 13.120963 62.695827 99 71 77
10.962007 13.255955 62.695072 87 61 65
10.961269 13.390203 62.690857 81 57 59
10.959911 13.523668 62.683090 82 59 61
10.957926 13.656318 62.671734 83 61 62
10.955311 13.788126 62.656780 80 57 58
10.952078 13.919084 62.638287 74 51 52
10.948239 14.049185 62.616333 69 46 47
10.943819 14.178437 62.591049 66 43 44
10.938843 14.306854 62.562588 69 46 47
10.933339 14.434452 62.531113 74 52 54
10.927339 14.561252 62.496792 77 54 57
10.920872 14.687278 62.459812 76 54 58
10.913971 14.812553 62.420341 75 52 57
10.906665 14.937105 62.378555 73 51 55
10.898984 15.060958 62.334629 71 50 53
10.890955 15.184136 62.288708 70 49 51
10.882607 15.306667 62.240955 72 50 52
10.873964 15.428576 62.191532 74 52 53
10.865057 15.549892 62.140591 74 51 53
10.855912 15.670646 62.088287 75 51 52
10.846557 15.790866 62.034775 77 52 53
10.837019 15.910590 61.980232 80 55 55
10.827331 16.029854 61.924816 85 60 60
10.817520 16.148699 61.868706 89 64 64
10.807616 16.267160 61.812065 88 63 64
10.797651 16.385283 61.755070 83 60 59
10.787649 16.503105 61.697868 79 57 56
10.777635 16.620661 61.640591 77 57 56
10.767627 16.737980 61.583351 76 58 55
10.757646 16.855095 61.526268 74 56 53
10.747705 16.972027 61.469414 72 56 52
10.737809 17.088787 61.412819 73 58 54
10.727962 17.205379 61.356499 74 59 55
11.727448 -14.984736 66.255997 42 28 28
11.726482 -14.840690 66.250549 43 30 28
11.725694 -14.696887 66.246094 44 30 29
11.725090 -14.553334 66.242683 44 31 29
11.724671 -14.410023 66.240318 45 31 29
11.724429 -14.266935 66.238945 45 30 28
11.724340 -14.124041 66.238441 44 30 28
11.724373 -13.981292 66.238632 44 30 29
11.724483 -13.838633 66.239250 45 30 30
11.724612 -13.695994 66.239983 45 30 30
11.724698 -13.553303 66.240463 45 30 31
11.724668 -13.410476 66.240295 45 30 31
11.724444 -13.267431 66.239029 45 30 30
11.723950 -13.124089 66.236237 44 29 30
11.723108 -12.980373 66.231483 44 29 30
11.721848 -12.836221 66.224365 45 28 29
11.720104 -12.691575 66.214508 45 28 28
11.717821 -12.546394 66.201614 46 28 28
11.714956 -12.400654 66.185425 47 29 29
11.711477 -12.254340 66.165771 49 31 30
11.707366 -12.107457 66.142548 50 32 32
11.702612 -11.960017 66.115685 52 33 34
11.697216 -11.812045 66.085197 55 35 36
11.691185 -11.663571 66.051125 57 36 38
11.684527 -11.514627 66.013519 58 37 39
11.677255 -11.365245 65.972427 58 37 39
11.669374 -11.215456 65.927902 59 36 38
11.660889 -11.065287 65.879967 59 36 39
11.651796 -10.914755 65.828598 59 35 39
11.642086 -10.763872 65.773735 59 35 39
11.631738 -10.612644 65.715271 60 35 39
11.620726 -10.461071 65.653053 62 37 41
11.609015 -10.309146 65.586899 64 38 43
11.596570 -10.156862 65.516586 65 37 44
11.583346 -10.004210 65.441872 68 37 45
11.569304 -9.851182 65.362541 70 38 46
11.554402 -9.697776 65.278351 72 39 48
11.538609 -9.543994 65.189125 77 43 51
11.521897 -9.389850 65.094711 88 52 59
11.504255 -9.235365 64.995041 103 65 70
11.485681 -9.080572 64.890099 113 76 77
11.466187 -8.925517 64.779968 115 77 76
11.445805 -8.770255 64.664818 112 75 71
11.424583 -8.614858 64.544922 106 71 65
11.402588 -8.459402 64.420654 87 55 49
11.379901 -8.303978 64.292480 66 35 30
11.356619 -8.148680 64.160942 61 32 27
11.332854 -7.993608 64.026680 68 40 36
11.308731 -7.838866 63.890396 79 50 49
11.284378 -7.684556 63.752811 89 60 59
11.259933 -7.530777 63.614704 89 59 59
11.235533 -7.377624 63.476852 81 50 51
11.211313 -7.225180 63.340019 74 43 45
11.187405 -7.073524 63.204945 70 40 43
11.163933 -6.922720 63.072334 67 37 40
11.141010 -6.772823 62.942833 66 37 41
11.118745 -6.623875 62.817039 66 37 42
11.097228 -6.475906 62.695480 67 39 44
11.076545 -6.328938 62.578625 67 40 44
11.056765 -6.182978 62.466873 64 38 42
11.037948 -6.038027 62.360561 62 34 39
11.020144 -5.894077 62.259979 61 33 38
11.003391 -5.751109 62.165333 61 32 37
10.987718 -5.609100 62.076782 62 33 37
10.973140 -5.468019 61.994423 63 34 38
10.959663 -5.327829 61.918285 66 37 42
10.947285 -5.188488 61.848354 71 42 45
10.935986 -5.049945 61.784512 75 46 49
10.925736 -4.912151 61.726612 78 50 54
10.916498 -4.775048 61.674419 82 53 58
10.908218 -4.638578 61.627640 84 55 60
10.900834 -4.502679 61.585922 82 52 57
10.894274 -4.367291 61.548855 81 49 53
10.888456 -4.232351 61.515991 79 48 51
10.883298 -4.097801 61.486847 79 48 51
10.878709 -3.963584 61.460918 80 49 51
10.874599 -3.829648 61.437706 79 50 51
10.870880 -3.695945 61.416691 78 49 51
10.867466 -3.562432 61.397404 79 51 52
10.864275 -3.429073 61.379375 83 54 56
10.861234 -3.295836 61.362194 86 56 57
10.858277 -3.162699 61.345490 89 56 59
10.855348 -3.029641 61.328938 100 66 67
10.852399 -2.896650 61.312279 120 84 85
10.849396 -2.763716 61.295315 134 98 98
10.846313 -2.630836 61.277901 124 89 88
10.843138 -2.498010 61.259960 93 60 60
10.839867 -2.365241 61.241474 74 42 43
10.836508 -2.232533 61.222500 72 41 43
10.833079 -2.099893 61.203129 72 42 45
10.829609 -1.967329 61.183525 72 43 46
10.826131 -1.834849 61.163872 74 44 48
10.822684 -1.702458 61.144402 77 47 51
10.819311 -1.570162 61.125347 82 51 57
10.816055 -1.437963 61.106949 89 57 63
10.812954 -1.305863 61.089428 93 61 68
10.810041 -1.173858 61.072971 93 60 68
10.807341 -1.041945 61.057713 91 57 66
10.804867 -0.910117 61.043736 89 54 63
10.802621 -0.778365 61.031052 88 53 61
10.800592 -0.646681 61.019588 87 52 60
10.798756 -0.515056 61.009216 89 53 60
10.797079 -0.383481 60.999744 92 56 61
10.795517 -0.251950 60.990917 95 57 62
10.794023 -0.120457 60.982475 95 58 62
10.792547 0.010999 60.974136 95 58 63
10.791041 0.142419 60.965630 94 57 63
10.789467 0.273800 60.956738 92 57 63
10.787794 0.405139 60.947285 90 56 64
10.786006 0.536432 60.937180 88 55 65
10.784101 0.667674 60.926414 89 57 66
10.782093 0.798862 60.915073 91 60 68
10.780014 0.929995 60.903332 95 65 71
10.777911 1.061075 60.891449 98 69 73
10.775841 1.192108 60.879753 100 71 74
10.773871 1.323102 60.868626 98 71 74
10.772077 1.454072 60.858486 95 67 71
10.770530 1.585035 60.849747 90 63 67
10.769304 1.716011 60.842823 88 62 66
10.768466 1.847024 60.838085 91 65 70
10.768074 1.978098 60.835873 95 70 75
10.768172 2.109259 60.836426 100 75 81
10.768794 2.240531 60.839943 106 81 88
10.769959 2.371939 60.846527 114 88 96
10.771671 2.503501 60.856197 123 97 105
10.773920 2.635237 60.868904 125 100 108
10.776685 2.767159 60.884521 118 94 102
10.779934 2.899280 60.902878 108 84 93
10.783627 3.031604 60.923740 102 79 88
10.787715 3.164134 60.946838 101 80 90
10.792150 3.296870 60.971893 103 82 93
10.796876 3.429806 60.998596 100 78 91
10.801844 3.562937 61.026657 95 72 86
10.807000 3.696254 61.055794 96 71 87
10.812302 3.829747 61.085743 100 74 91
10.817705 3.963407 61.116268 104 77 95
10.823174 4.097223 61.147171 106 79 97
10.828680 4.231187 61.178272 106 80 97
10.834196 4.365290 61.209438 104 79 95
10.839705 4.499523 61.240559 101 77 91
10.845189 4.633881 61.271545 98 74 86
10.850638 4.768356 61.302334 97 73 82
10.856047 4.902946 61.332886 101 77 83
10.861406 5.037645 61.363171 109 87 90
10.866714 5.172450 61.393158 119 97 100
10.871965 5.307356 61.422825 120 100 103
10.877156 5.442360 61.452148 113 94 98
10.882281 5.577457 61.481106 108 89 94
10.887336 5.712642 61.509659 110 90 97
10.892311 5.847907 61.537773 111 89 98
10.897204 5.983248 61.565414 109 85 95
10.902005 6.118657 61.592537 106 82 90
10.906712 6.254128 61.619129 101 77 84
10.911317 6.389656 61.645149 96 71 77
10.915819 6.525233 61.670578 91 66 72
10.920216 6.660856 61.695423 86 63 67
10.924511 6.796523 61.719688 82 59 62
10.928709 6.932232 61.743408 78 57 59
10.932820 7.067988 61.766632 75 54 54
10.936856 7.203794 61.789433 72 50 50
10.940830 7.339657 61.811886 72 49 49
10.944759 7.475587 61.834084 74 50 51
10.948660 7.611592 61.856121 76 51 52
10.952548 7.747684 61.878090 77 51 51
10.956440 7.883873 61.900078 77 51 50
10.960350 8.020169 61.922165 79 54 53
10.964288 8.156582 61.944412 83 60 58
10.968262 8.293118 61.966866 86 64 61
10.972278 8.429783 61.989552 84 64 61
10.976336 8.566578 62.012478 80 60 58
10.980434 8.703506 62.035633 75 55 53
10.984569 8.840561 62.058994 71 50 49
10.988734 8.977742 62.082527 69 47 47
10.992924 9.115045 62.106194 70 47 47
10.997130 9.252464 62.129963 76 52 54
11.001348 9.389995 62.153790 85 59 63
11.005573 9.527636 62.177662 94 68 73
11.009806 9.665385 62.201572 101 74 81
11.014044 9.803243 62.225513 98 73 81
11.018290 9.941211 62.249504 84 61 70
11.022548 10.079293 62.273560 75 54 64
11.026822 10.217495 62.297707 95 76 86
11.031116 10.355820 62.321972 133 114 125
11.035436 10.494272 62.346371 142 124 133
11.039781 10.632854 62.370918 109 93 99
11.044148 10.771565 62.395599 79 63 65
11.048536 10.910402 62.420387 75 59 57
11.052935 11.049356 62.445232 78 63 55
11.057327 11.188413 62.470055 83 68 57
11.061697 11.327552 62.494743 107 92 79
11.066020 11.466748 62.519165 145 129 116
11.070267 11.605971 62.543159 168 151 142
11.074405 11.745182 62.566536 157 138 134
11.078395 11.884335 62.589077 120 100 101
11.082194 12.023377 62.610542 91 69 75
11.085756 12.162252 62.630669 83 59 69
11.089034 12.300900 62.649185 85 60 73
11.091976 12.439249 62.665810 87 60 74
11.094533 12.577233 62.680248 90 62 75
11.096652 12.714780 62.692226 97 69 81
11.098288 12.851817 62.701466 105 77 87
11.099395 12.988276 62.707718 105 78 87
11.099935 13.124090 62.710766 93 67 74
11.099874 13.259202 62.710430 78 53 59
11.099194 13.393563 62.706585 70 47 51
11.097876 13.527130 62.699135 72 49 52
11.095912 13.659872 62.688046 74 51 53
11.093307 13.791766 62.673321 73 50 51
11.090068 13.922803 62.655025 70 47 47
11.086213 14.052980 62.633251 68 45 44
11.081767 14.182306 62.608131 67 43 43
11.076758 14.310798 62.579834 70 47 47
11.071218 14.438472 62.548527 76 54 54
11.065177 14.565354 62.514400 78 56 58
11.058671 14.691471 62.477646 78 56 59
11.051732 14.816849 62.438442 79 57 62
11.044393 14.941516 62.396976 79 58 63
11.036684 15.065500 62.353424 76 56 60
11.028636 15.188828 62.307953 73 51 54
11.020277 15.311530 62.260731 73 51 54
11.011636 15.433633 62.211914 76 53 55
11.002742 15.555166 62.161663 77 54 56
10.993623 15.676163 62.110146 79 55 57
10.984306 15.796653 62.057510 81 56 58
10.974822 15.916673 62.003925 82 57 60
10.965199 16.036259 61.949558 86 61 63
10.955465 16.155449 61.894569 88 63 65
10.945651 16.274281 61.839123 88 63 65
10.935783 16.392794 61.783375 85 62 63
10.925889 16.511024 61.727470 84 62 62
10.915987 16.629004 61.671528 83 63 62
10.906096 16.746758 61.615646 80 61 59
10.896234 16.864317 61.559929 76 58 55
10.886409 16.981693 61.504421 73 56 52
10.876628 17.098900 61.449165 73 58 54
11.862557 -14.974997 66.212936 41 27 26
11.861498 -14.830938 66.207016 42 29 27
11.860668 -14.687192 66.202393 44 30 27
11.860080 -14.543759 66.199104 44 31 28
11.859734 -14.400637 66.197166 45 31 28
11.859620 -14.257802 66.196541 45 30 28
11.859717 -14.115220 66.197083 44 30 28
11.859993 -13.972846 66.198616 44 30 29
11.860397 -13.830616 66.200874 45 30 30
11.860872 -13.688457 66.203529 45 30 30
11.861351 -13.546291 66.206200 45 30 30
11.861755 -13.404031 66.208458 45 30 30
11.862004 -13.261585 66.209846 44 30 30
11.862016 -13.118872 66.209908 43 29 30
11.861708 -12.975809 66.208191 43 29 29
11.861004 -12.832325 66.204262 44 28 28
11.859835 -12.688359 66.197739 44 29 27
11.858140 -12.543866 66.188271 45 29 27
11.855869 -12.398812 66.175598 46 29 28
11.852986 -12.253181 66.159508 48 30 30
11.849469 -12.106969 66.139877 51 33 33
11.845302 -11.960186 66.116615 55 36 36
11.840483 -11.812852 66.089714 57 37 38
11.835011 -11.664991 66.059174 57 37 39
11.828894 -11.516636 66.025032 57 37 38
11.822138 -11.367812 65.987328 58 36 38
11.814747 -11.218547 65.946068 58 36 38
11.806723 -11.068867 65.901276 58 36 38
11.798055 -10.918784 65.852898 58 36 38
11.788733 -10.768312 65.800865 58 36 38
11.778734 -10.617455 65.745064 59 35 38
11.768029 -10.466210 65.685310 60 36 40
11.756584 -10.314573 65.621422 62 36 41
11.744358 -10.162537 65.553185 64 36 42
11.731310 -10.010092 65.480354 67 36 44
11.717398 -9.857235 65.402695 70 37 46
11.702585 -9.703965 65.320015 72 38 48
