ply
format ascii 1.0
element vertex 1202
property float x
property float y
property float z
property uchar red
property uchar green
property uchar blue
end_header
-6.466386 -10.484027 71.609909 37 29 30
-6.469850 -10.335193 71.648262 37 29 29
-6.473057 -10.185789 71.683777 38 29 29
-6.476007 -10.035835 71.716446 38 28 28
-6.478693 -9.885338 71.746193 37 28 28
-6.481110 -9.734307 71.772964 37 28 27
-6.483245 -9.582744 71.796600 36 28 28
-6.485083 -9.430647 71.816956 36 28 28
-6.486605 -9.278012 71.833817 35 28 28
-6.487795 -9.124836 71.846992 36 28 29
-6.488629 -8.971111 71.856232 36 29 29
-6.489088 -8.816836 71.861305 37 29 30
-6.489150 -8.662010 71.861992 38 30 31
-6.488797 -8.506638 71.858086 39 30 31
-6.488013 -8.350727 71.849403 40 31 32
-6.486783 -8.194289 71.835777 39 31 32
-6.485095 -8.037345 71.817093 39 31 31
-6.482943 -7.879915 71.793259 38 30 30
-6.480321 -7.722029 71.764229 37 29 29
-6.477227 -7.563716 71.729958 36 27 27
-6.473658 -7.405008 71.690430 36 26 26
-6.469614 -7.245938 71.645653 37 25 26
-6.465096 -7.086543 71.595627 38 25 26
-6.460106 -6.926857 71.540367 40 25 27
-6.454647 -6.766915 71.479897 42 25 28
-6.448721 -6.606758 71.414276 46 26 29
-6.442338 -6.446425 71.343590 50 28 31
-6.435510 -6.285964 71.267982 55 32 34
-6.428257 -6.125423 71.187660 62 38 38
-6.420610 -5.964862 71.102974 74 50 49
-6.412609 -5.804346 71.014366 87 63 59
-6.404311 -5.643950 70.922478 93 68 64
-6.395788 -5.483757 70.828087 96 70 67
-6.387127 -5.323857 70.732185 101 76 73
-6.378435 -5.164344 70.635918 111 87 84
-6.369829 -5.005315 70.540619 118 95 91
-6.361442 -4.846862 70.447731 108 88 84
-6.353409 -4.689073 70.358780 91 72 68
-6.345874 -4.532021 70.275330 75 58 54
-6.338970 -4.375766 70.198883 63 47 44
-6.332825 -4.220345 70.130829 59 42 41
-6.327545 -4.065774 70.072357 59 42 42
-6.323214 -3.912042 70.024391 59 42 44
-6.319884 -3.759113 69.987511 59 41 44
-6.317572 -3.606923 69.961906 62 43 47
-6.316259 -3.455391 69.947372 68 49 53
-6.315885 -3.304412 69.943222 72 51 55
-6.316350 -3.153870 69.948380 68 46 50
-6.317522 -3.003642 69.961357 63 40 43
-6.319235 -2.853603 69.980331 61 38 41
-6.321301 -2.703632 70.003204 61 37 41
-6.323512 -2.553622 70.027695 61 38 42
-6.325656 -2.403481 70.051437 61 40 44
-6.327521 -2.253137 70.072090 60 42 46
-6.328904 -2.102545 70.087402 58 44 48
-6.329622 -1.951682 70.095360 56 44 51
-6.329518 -1.800550 70.094208 54 44 53
-6.328468 -1.649177 70.082573 54 42 54
-6.326379 -1.497608 70.059448 55 39 52
-6.323198 -1.345906 70.024208 73 51 64
-6.318906 -1.194147 69.976692 129 100 112
-6.313524 -1.042412 69.917084 175 139 150
-6.307096 -0.890786 69.845909 151 109 118
-6.299701 -0.739354 69.764008 107 57 68
-6.291430 -0.588193 69.672417 95 40 52
-6.282397 -0.437374 69.572380 92 34 46
-6.272720 -0.286957 69.465210 85 24 34
-6.262522 -0.136990 69.352280 90 27 34
-6.251925 0.012489 69.234924 119 53 56
-6.241045 0.161455 69.114433 154 87 84
-6.229990 0.309892 68.992012 173 106 98
-6.218858 0.457796 68.868736 181 112 100
-6.207735 0.605170 68.745552 186 116 102
-6.196695 0.752022 68.623299 192 119 104
-6.185801 0.898369 68.502655 195 120 102
-6.175106 1.044229 68.384216 194 116 96
-6.164654 1.189625 68.268471 191 111 88
-6.154483 1.334583 68.155838 187 106 81
-6.144627 1.479132 68.046692 185 103 76
-6.135118 1.623301 67.941376 188 106 77
-6.125986 1.767126 67.840248 195 113 83
-6.117267 1.910643 67.743690 203 120 91
-6.108994 2.053895 67.652084 209 125 97
-6.101211 2.196927 67.565895 212 127 101
-6.093959 2.339792 67.485588 214 128 103
-6.087288 2.482548 67.411705 217 129 105
-6.081246 2.625256 67.344795 219 129 105
-6.075884 2.767986 67.285416 220 128 104
-6.071254 2.910811 67.234138 221 126 103
-6.067400 3.053806 67.191467 223 123 99
-6.064363 3.197047 67.157829 223 120 96
-6.062175 3.340610 67.133598 224 118 94
-6.060856 3.484570 67.118996 225 117 92
-6.060415 3.628991 67.114113 223 113 89
-6.060844 3.773934 67.118866 221 110 85
-6.062120 3.919445 67.132996 219 106 82
-6.064202 4.065557 67.156044 217 103 79
-6.067033 4.212287 67.187393 218 103 79
-6.070538 4.359638 67.226212 219 103 80
-6.074628 4.507591 67.271515 219 103 81
-6.079203 4.656109 67.322174 218 101 81
-6.084148 4.805139 67.376938 216 98 81
-6.089345 4.954608 67.434479 215 96 83
-6.094667 5.104433 67.493431 213 93 85
-6.099993 5.254513 67.552406 206 85 80
-6.105200 5.404743 67.610069 198 78 76
-6.110177 5.555013 67.665184 196 75 75
-6.114820 5.705208 67.716606 197 75 77
-6.119041 5.855221 67.763344 198 75 79
-6.122767 6.004951 67.804611 195 74 78
-6.125947 6.154308 67.839821 188 68 73
-6.128542 6.303218 67.868568 180 63 69
-6.130539 6.451621 67.890678 173 58 66
-6.131943 6.599481 67.906227 163 53 60
-6.132774 6.746778 67.915428 156 48 56
-6.133069 6.893513 67.918694 152 45 54
-6.132877 7.039702 67.916573 148 44 54
-6.132260 7.185385 67.909737 145 43 54
-6.131283 7.330607 67.898918 145 43 54
-6.130016 7.475429 67.884888 142 40 52
-6.128529 7.619916 67.868408 138 36 49
-6.126888 7.764139 67.850243 135 30 45
-6.125155 7.908164 67.831055 134 26 43
-6.123381 8.052052 67.811401 139 26 45
-6.121608 8.195856 67.791771 146 30 50
-6.119869 8.339622 67.772507 155 36 54
-6.118183 8.483380 67.753845 166 45 60
-6.116560 8.627145 67.735870 181 58 71
-6.114996 8.770918 67.718552 192 68 79
-6.113483 8.914691 67.701805 196 73 81
-6.112002 9.058438 67.685402 199 76 81
-6.110529 9.202127 67.669090 203 81 83
-6.109038 9.345717 67.652573 206 85 86
-6.107502 9.489166 67.635567 211 90 91
-6.105894 9.632428 67.617752 216 96 97
-6.104190 9.775462 67.598885 217 99 102
-6.102376 9.918233 67.578789 221 103 107
-6.100442 10.060720 67.557373 225 109 114
-6.098390 10.202918 67.534653 221 107 110
-6.096231 10.344836 67.510742 207 94 94
-6.093987 10.486506 67.485893 198 88 84
-6.091695 10.627984 67.460510 203 94 88
-6.089400 10.769347 67.435089 220 115 109
-6.087158 10.910696 67.410271 240 139 135
-6.085035 11.052154 67.386749 245 141 140
-6.083104 11.193864 67.365372 239 128 131
-6.081444 11.335987 67.346992 231 116 123
-6.080138 11.478698 67.332527 225 107 119
-6.079266 11.622177 67.322868 218 98 114
-6.078909 11.766612 67.318924 212 92 110
-6.079141 11.912183 67.321480 213 91 109
-6.080027 12.059063 67.331299 216 93 110
-6.081623 12.207410 67.348969 218 94 108
-6.083970 12.357359 67.374962 218 94 105
-6.087096 12.509020 67.409576 219 95 103
-6.091010 12.662470 67.452927 219 95 100
-6.095706 12.817751 67.504936 217 94 96
-6.101160 12.974867 67.565331 214 92 91
-6.107328 13.133779 67.633629 210 90 88
-6.114151 13.294411 67.709198 206 88 87
-6.121556 13.456647 67.791199 206 90 90
-6.129455 13.620334 67.878670 212 97 99
-6.137748 13.785283 67.970512 217 104 108
-6.146329 13.951283 68.065536 220 109 115
-6.155085 14.118093 68.162506 222 112 120
-6.163903 14.285464 68.260155 216 110 119
-6.172670 14.453137 68.357239 213 109 118
-6.181278 14.620854 68.452568 216 116 124
-6.189630 14.788369 68.545059 223 126 133
-6.128517 -13.926212 69.528069 44 31 31
-6.138818 -13.799491 69.644943 47 34 34
-6.148805 -13.671565 69.758240 49 38 37
-6.158471 -13.542444 69.867897 52 41 40
-6.167812 -13.412146 69.973869 51 41 40
-6.176828 -13.280691 70.076164 46 37 36
-6.185524 -13.148114 70.174812 41 34 32
-6.193902 -13.014445 70.269867 37 32 31
-6.201970 -12.879723 70.361397 36 30 30
-6.209735 -12.743983 70.449493 35 30 30
-6.217206 -12.607267 70.534256 36 29 31
-6.224391 -12.469612 70.615761 36 29 31
-6.231296 -12.331053 70.694099 36 29 29
-6.237928 -12.191623 70.769341 36 28 28
-6.244293 -12.051352 70.841553 35 27 26
-6.250393 -11.910266 70.910759 34 26 25
-6.256235 -11.768394 70.977028 34 25 24
-6.261817 -11.625755 71.040359 34 25 24
-6.267143 -11.482374 71.100784 33 25 25
-6.272214 -11.338273 71.158325 34 25 25
-6.277034 -11.193473 71.212997 34 26 26
-6.281601 -11.047996 71.264816 34 26 27
-6.285921 -10.901863 71.313812 34 27 27
-6.289993 -10.755097 71.360016 35 27 28
-6.293820 -10.607720 71.403435 36 27 28
-6.297401 -10.459747 71.444069 36 28 29
-6.300738 -10.311198 71.481918 37 28 28
-6.303826 -10.162085 71.516953 38 28 28
-6.306659 -10.012417 71.549095 38 28 28
-6.309230 -9.862200 71.578270 38 28 27
-6.311529 -9.711437 71.604340 38 28 27
-6.313540 -9.560127 71.627151 37 28 27
-6.315246 -9.408266 71.646515 37 28 27
-6.316630 -9.255848 71.662209 36 28 27
-6.317670 -9.102867 71.674011 35 27 27
-6.318345 -8.949319 71.681671 35 27 27
-6.318635 -8.795200 71.684959 35 27 28
-6.318518 -8.640512 71.683632 36 27 28
-6.317976 -8.485258 71.677483 36 27 28
-6.316993 -8.329450 71.666336 37 28 29
-6.315554 -8.173099 71.650002 37 28 29
-6.313645 -8.016222 71.628357 37 29 29
-6.311262 -7.858848 71.601318 37 29 29
-6.308396 -7.701001 71.568802 37 28 28
-6.305043 -7.542712 71.530762 36 27 27
-6.301201 -7.384013 71.487175 35 25 26
-6.296868 -7.224939 71.438011 35 24 25
-6.292044 -7.065526 71.383286 36 24 25
-6.286730 -6.905810 71.323006 37 23 25
-6.280929 -6.745831 71.257187 39 23 25
-6.274648 -6.585632 71.185921 42 23 25
-6.267896 -6.425258 71.109322 45 24 26
-6.260689 -6.264759 71.027573 50 27 28
-6.253056 -6.104196 70.940964 59 35 36
-6.245028 -5.943631 70.849892 80 54 53
-6.236658 -5.783140 70.754929 100 73 70
-6.228008 -5.622808 70.656792 105 78 74
-6.219159 -5.462722 70.556404 100 73 69
-6.210208 -5.302983 70.454857 95 69 65
-6.201269 -5.143692 70.353439 94 70 65
-6.192468 -4.984949 70.253593 93 71 67
-6.183943 -4.826851 70.156876 86 66 63
-6.175838 -4.669489 70.064934 76 57 54
-6.168299 -4.512937 69.979401 67 50 48
-6.161464 -4.357251 69.901855 60 45 43
-6.155460 -4.202467 69.833740 57 42 41
-6.150394 -4.048595 69.776276 57 42 42
-6.146348 -3.895616 69.730370 58 42 43
-6.143372 -3.743487 69.696594 58 42 44
-6.141477 -3.592136 69.675095 62 44 48
-6.140638 -3.441470 69.665581 69 50 54
-6.140790 -3.291376 69.667305 73 52 56
-6.141827 -3.141727 69.679070 69 46 50
-6.143607 -2.992390 69.699265 63 39 43
-6.145958 -2.843229 69.725937 62 37 42
-6.148682 -2.694118 69.756844 63 39 44
-6.151565 -2.544938 69.789551 64 41 45
-6.154384 -2.395592 69.821533 63 42 46
-6.156919 -2.246006 69.850296 62 44 48
-6.158961 -2.096127 69.873459 60 44 50
-6.160319 -1.945932 69.888863 57 44 50
-6.160827 -1.795423 69.894630 54 44 50
-6.160357 -1.644628 69.889290 53 43 49
-6.158809 -1.493595 69.871735 52 39 44
-6.156127 -1.342391 69.841309 65 45 49
-6.152291 -1.191094 69.797783 114 87 89
-6.147316 -1.039792 69.741356 167 134 135
-6.141253 -0.888576 69.672569 167 127 130
-6.134177 -0.737534 69.592285 145 97 103
-6.126184 -0.586751 69.501602 131 77 86
-6.117391 -0.436302 69.401848 105 48 60
-6.107922 -0.286251 69.294418 84 24 36
-6.097905 -0.136651 69.180779 92 29 38
-6.087468 0.012458 69.062378 126 61 66
-6.076735 0.161048 68.940598 161 94 94
-6.065817 0.309105 68.816742 177 109 103
-6.054820 0.456621 68.691978 183 114 104
-6.043834 0.603601 68.567345 187 117 104
-6.032939 0.750054 68.443741 192 119 104
-6.022199 0.895998 68.321892 194 119 102
-6.011671 1.041453 68.202446 193 115 95
-6.001399 1.186444 68.085915 187 107 85
-5.991421 1.330998 67.972717 183 102 77
-5.981771 1.475144 67.863228 185 104 76
-5.972477 1.618915 67.757797 192 109 80
-5.963570 1.762346 67.656746 198 116 86
-5.955079 1.905474 67.560417 205 122 93
-5.947037 2.048342 67.469177 209 125 97
-5.939480 2.190995 67.383446 212 126 99
-5.932447 2.333485 67.303658 215 128 101
-5.925984 2.475868 67.230331 218 129 103
-5.920135 2.618207 67.163971 219 128 103
-5.914948 2.760569 67.105125 220 127 101
-5.910471 2.903027 67.054337 221 124 98
-5.906748 3.045654 67.012100 222 121 95
-5.903817 3.188526 66.978844 222 118 92
-5.901709 3.331720 66.954933 223 116 90
-5.900446 3.475308 66.940605 223 114 88
-5.900036 3.619358 66.935951 222 111 86
-5.900473 3.763928 66.940910 221 108 84
-5.901736 3.909067 66.955238 220 105 82
-5.903787 4.054808 66.978508 219 104 81
-5.906571 4.201172 67.010094 220 104 82
-5.910017 4.348158 67.049187 221 104 83
-5.914041 4.495752 67.094833 222 104 84
-5.918541 4.643917 67.145889 220 101 83
-5.923410 4.792601 67.201134 215 96 80
-5.928531 4.941732 67.259224 216 95 83
-5.933781 5.091225 67.318794 215 93 86
-5.939039 5.240982 67.378448 203 81 78
-5.944187 5.390895 67.436844 194 73 72
-5.949111 5.540853 67.492706 194 73 74
-5.953711 5.690741 67.544891 197 75 78
-5.957898 5.840449 67.592392 200 78 81
-5.961600 5.989876 67.634399 197 75 79
-5.964763 6.138928 67.670280 187 66 71
-5.967351 6.287530 67.699646 179 60 67
-5.969348 6.435620 67.722298 174 58 65
-5.970757 6.583159 67.738281 167 54 61
-5.971597 6.730127 67.747810 159 49 57
-5.971904 6.876522 67.751297 153 45 54
-5.971725 7.022361 67.749268 149 42 52
-5.971120 7.167680 67.742409 148 42 53
-5.970154 7.312526 67.731438 151 46 57
-5.968894 7.456957 67.717140 151 46 57
-5.967408 7.601040 67.700287 148 42 55
-5.965763 7.744843 67.681625 145 36 51
-5.964019 7.888436 67.661842 144 32 48
-5.962227 8.031878 67.641518 148 32 51
-5.960430 8.175226 67.621124 153 35 54
-5.958661 8.318523 67.601051 159 39 57
-5.956939 8.461803 67.581520 168 45 61
-5.955276 8.605084 67.562660 179 55 69
-5.953672 8.748369 67.544456 190 64 77
-5.952120 8.891654 67.526848 194 70 80
-5.950603 9.034915 67.509636 198 74 82
-5.949101 9.178126 67.492599 202 78 82
-5.947592 9.321252 67.475479 204 82 83
-5.946052 9.464254 67.458000 209 87 88
-5.944457 9.607095 67.439911 213 93 94
-5.942789 9.749736 67.420990 214 95 97
-5.941035 9.892153 67.401093 219 101 103
-5.939189 10.034328 67.380150 230 114 117
-5.937254 10.176260 67.358192 230 117 120
-5.935243 10.317966 67.335381 213 103 102
-5.933178 10.459477 67.311951 199 90 87
-5.931095 10.600856 67.288315 200 91 87
-5.929035 10.742175 67.264954 215 108 103
-5.927053 10.883536 67.242470 233 127 124
-5.925210 11.025058 67.221550 239 131 129
-5.923572 11.166877 67.202965 236 123 125
-5.922210 11.309144 67.187523 234 117 124
-5.921201 11.452025 67.176064 232 113 124
-5.920615 11.595687 67.169418 226 105 119
-5.920524 11.740300 67.168388 220 98 115
-5.920992 11.886033 67.173698 221 98 116
-5.922077 12.033041 67.186005 224 100 116
-5.923824 12.181465 67.205833 223 97 111
-5.926269 12.331426 67.233566 221 95 106
-5.929432 12.483018 67.269455 221 95 103
-5.933320 12.636308 67.313560 221 95 100
-5.937921 12.791325 67.365761 219 94 96
-5.943211 12.948067 67.425766 214 91 90
-5.949147 13.106492 67.493118 210 88 85
-5.955676 13.266526 67.567184 206 86 83
-5.962726 13.428056 67.647163 208 89 87
-5.970217 13.590934 67.732155 215 99 97
-5.978060 13.754987 67.821129 224 107 106
-5.986156 13.920015 67.912994 226 112 112
-5.994407 14.085798 68.006584 226 113 115
-6.002708 14.252109 68.100769 223 114 118
-6.010960 14.418704 68.194389 219 113 118
-6.019066 14.585352 68.286354 219 116 122
-6.026939 14.751824 68.375671 224 125 131
-6.034501 14.917912 68.461456 226 130 136
-5.963292 -14.039962 69.349609 45 30 30
-5.973132 -13.913387 69.464035 48 33 33
-5.982657 -13.785596 69.574814 53 38 37
-5.991866 -13.656604 69.681900 57 43 42
-6.000755 -13.526430 69.785278 61 48 47
-6.009328 -13.395106 69.884979 61 49 48
-6.017590 -13.262667 69.981056 53 42 41
-6.025548 -13.129151 70.073608 44 37 35
-6.033212 -12.994604 70.162735 40 34 32
-6.040594 -12.859071 70.248581 38 32 31
-6.047703 -12.722594 70.331253 37 31 31
-6.054552 -12.585219 70.410904 37 31 32
-6.061151 -12.446989 70.487648 38 31 33
-6.067509 -12.307939 70.561584 37 30 31
-6.073634 -12.168103 70.632820 36 28 28
-6.079532 -12.027511 70.701408 35 27 27
-6.085206 -11.886186 70.767395 35 26 26
-6.090660 -11.744150 70.830818 35 26 25
-6.095892 -11.601422 70.891678 34 26 25
-6.100906 -11.458020 70.949982 34 26 25
-6.105700 -11.313958 71.005722 33 25 25
-6.110271 -11.169251 71.058891 33 25 26
-6.114620 -11.023912 71.109467 33 25 26
-6.118745 -10.877956 71.157433 33 25 27
-6.122644 -10.731400 71.202782 34 26 27
-6.126314 -10.584251 71.245461 35 26 28
-6.129752 -10.436523 71.285439 36 27 28
-6.132954 -10.288227 71.322670 37 28 28
-6.135911 -10.139366 71.357071 38 28 27
-6.138617 -9.989947 71.388527 38 28 27
-6.141057 -9.839969 71.416916 39 28 27
-6.143221 -9.689430 71.442078 39 28 27
-6.145091 -9.538328 71.463821 38 28 27
-6.146648 -9.386655 71.481941 37 28 27
-6.147873 -9.234404 71.496185 36 28 26
-6.148746 -9.081571 71.506332 36 27 26
-6.149244 -8.928150 71.512115 35 26 26
-6.149346 -8.774140 71.513313 34 26 26
-6.149032 -8.619541 71.509659 34 25 26
-6.148284 -8.464361 71.500961 33 24 25
-6.147086 -8.308610 71.487030 34 25 26
-6.145422 -8.152300 71.467674 34 25 26
-6.143281 -7.995453 71.442772 34 26 26
-6.140653 -7.838092 71.412209 34 26 27
-6.137531 -7.680245 71.375908 35 26 27
-6.133910 -7.521942 71.333794 35 26 26
-6.129785 -7.363214 71.285820 34 25 25
-6.125153 -7.204099 71.231949 34 24 25
-6.120013 -7.044631 71.172180 34 23 24
-6.114367 -6.884849 71.106514 36 22 24
-6.108217 -6.724797 71.034996 37 22 24
-6.101571 -6.564519 70.957710 39 21 23
-6.094441 -6.404067 70.874794 41 21 23
-6.086850 -6.243498 70.786514 45 23 24
-6.078826 -6.082877 70.693207 57 33 32
-6.070414 -5.922279 70.595375 79 54 52
-6.061669 -5.761787 70.493675 100 73 70
-6.052664 -5.601492 70.388954 107 80 75
-6.043488 -5.441495 70.282234 104 78 72
-6.034246 -5.281902 70.174767 97 73 66
-6.025063 -5.122820 70.067963 88 66 60
-6.016070 -4.964357 69.963387 81 61 56
-6.007415 -4.806614 69.862732 75 56 53
-5.999246 -4.649682 69.767723 67 50 47
-5.991711 -4.493635 69.680099 61 45 43
-5.984954 -4.338530 69.601524 58 42 41
-5.979101 -4.184397 69.533455 55 40 41
-5.974258 -4.031238 69.477135 55 40 41
-5.970506 -3.879031 69.433495 56 40 41
-5.967888 -3.727721 69.403061 56 40 42
-5.966415 -3.577228 69.385933 59 41 44
-5.966055 -3.427449 69.381737 64 44 48
-5.966734 -3.278258 69.389641 67 46 50
-5.968342 -3.129520 69.408333 65 42 46
-5.970728 -2.981091 69.436081 61 36 41
-5.973712 -2.832825 69.470795 62 37 42
-5.977089 -2.684586 69.510056 65 40 45
-5.980635 -2.536250 69.551300 67 43 47
-5.984122 -2.387712 69.591843 68 45 50
-5.987319 -2.238891 69.629028 67 46 51
-5.990010 -2.089733 69.660324 63 45 51
-5.991996 -1.940212 69.683418 60 45 50
-5.993106 -1.790329 69.696327 58 46 50
-5.993203 -1.640114 69.697456 57 45 46
-5.992185 -1.489617 69.685616 55 41 39
-5.989990 -1.338907 69.660088 59 40 35
-5.986595 -1.188070 69.620605 89 65 56
-5.982016 -1.037197 69.567352 143 111 103
-5.976299 -0.886386 69.500877 179 140 136
-5.969525 -0.735731 69.422089 191 144 145
-5.961792 -0.585321 69.332161 172 119 127
-5.953220 -0.435237 69.232475 120 63 75
-5.943938 -0.285549 69.124535 85 24 37
-5.934082 -0.136314 69.009911 97 33 45
-5.923784 0.012427 68.890144 135 69 76
-5.913174 0.160642 68.766769 166 98 100
-5.902374 0.308316 68.641167 179 109 106
-5.891492 0.455442 68.514618 183 113 104
-5.880626 0.602024 68.388252 186 115 103
-5.869859 0.748074 68.263039 190 115 102
-5.859261 0.893610 68.139786 191 114 98
-5.848889 1.038654 68.019165 189 110 91
-5.838791 1.183234 67.901733 185 104 81
-5.829006 1.327379 67.787941 183 102 76
-5.819564 1.471121 67.678139 188 107 78
-5.810495 1.614492 67.572670 196 113 83
-5.801826 1.757529 67.471848 202 118 89
-5.793582 1.900272 67.375977 207 123 94
-5.785791 2.042762 67.285378 211 125 96
-5.778488 2.185045 67.200447 213 126 97
-5.771706 2.327171 67.121567 215 127 99
-5.765484 2.469198 67.049217 217 127 100
-5.759864 2.611186 66.983856 219 127 99
-5.754890 2.753201 66.926018 220 125 97
-5.750606 2.895314 66.876190 221 123 94
-5.747052 3.037598 66.834862 222 120 92
-5.744264 3.180128 66.802437 222 117 90
-5.742272 3.322979 66.779282 222 115 88
-5.741097 3.466223 66.765610 222 112 86
-5.740747 3.609927 66.761536 222 109 84
-5.741217 3.754150 66.766998 221 106 83
-5.742486 3.898939 66.781761 220 105 82
-5.744519 4.044329 66.805405 220 104 82
-5.747264 4.190341 66.837334 220 104 83
-5.750654 4.336976 66.876755 222 105 85
-5.754607 4.484220 66.922714 223 105 87
-5.759026 4.632036 66.974106 219 100 84
-5.763805 4.780374 67.029694 215 95 81
-5.768833 4.929163 67.088158 218 96 86
-5.773990 5.078318 67.148132 216 94 87
-5.779157 5.227742 67.208229 201 78 75
-5.784219 5.377326 67.267097 191 69 69
-5.789066 5.526958 67.323463 194 72 74
-5.793598 5.676526 67.376167 199 76 79
-5.797728 5.825916 67.424194 202 80 83
-5.801385 5.975026 67.466728 199 76 80
-5.804515 6.123764 67.503128 188 66 71
-5.807082 6.272051 67.532982 180 60 65
-5.809069 6.419825 67.556084 176 58 63
-5.810479 6.567046 67.572479 171 56 63
-5.811329 6.713692 67.582367 165 52 59
-5.811654 6.859760 67.586143 158 46 55
-5.811498 7.005265 67.584335 152 42 51
-5.810920 7.150243 67.577614 153 43 52
-5.809982 7.294740 67.566704 158 49 59
-5.808751 7.438814 67.552383 161 52 62
-5.807291 7.582529 67.535408 160 50 61
-5.805670 7.725955 67.516556 157 44 57
-5.803944 7.869157 67.496483 155 39 55
-5.802165 8.012199 67.475792 156 38 56
-5.800374 8.155137 67.454964 159 39 57
-5.798604 8.298015 67.434380 164 42 59
-5.796877 8.440866 67.414307 169 46 62
-5.795206 8.583713 67.394859 178 53 68
-5.793590 8.726561 67.376076 186 60 74
-5.792027 8.869407 67.357895 192 66 78
-5.790502 9.012234 67.340157 196 70 80
-5.788999 9.155020 67.322685 200 75 81
-5.787498 9.297734 67.305229 204 79 82
-5.785981 9.440346 67.287582 207 83 85
-5.784427 9.582820 67.269508 211 88 89
-5.782821 9.725129 67.250832 212 90 91
-5.781152 9.867250 67.231422 217 97 97
-5.779418 10.009177 67.211266 229 111 112
-5.777624 10.150909 67.190399 231 115 116
-5.775784 10.292470 67.168991 215 102 101
-5.773919 10.433894 67.147308 199 87 86
-5.772064 10.575242 67.125732 198 87 84
-5.770258 10.716590 67.104744 209 98 95
-5.768552 10.858033 67.084900 222 110 107
-5.767001 10.999687 67.066856 228 114 113
-5.765666 11.141682 67.051338 228 113 115
-5.764612 11.284158 67.039070 232 114 120
-5.763904 11.427267 67.030838 235 114 124
-5.763607 11.571166 67.027382 230 108 121
-5.763782 11.716011 67.029419 228 105 121
-5.764485 11.861950 67.037598 233 110 128
-5.765764 12.009127 67.052475 235 111 128
-5.767659 12.157662 67.074509 229 102 118
-5.770196 12.307664 67.104012 224 95 107
-5.773391 12.459211 67.141167 222 93 102
-5.777244 12.612358 67.185982 221 93 97
-5.781744 12.767124 67.238304 218 91 92
-5.786864 12.923502 67.297852 214 88 87
-5.792564 13.081446 67.364143 212 87 83
-5.798792 13.240882 67.436569 210 87 82
-5.805484 13.401699 67.514389 212 90 85
-5.812565 13.563762 67.596741 217 97 91
-5.819955 13.726907 67.682678 222 104 97
-5.827566 13.890950 67.771194 226 109 103
-5.835307 14.055688 67.861214 230 116 112
-5.843089 14.220913 67.951714 234 124 122
-5.850821 14.386406 68.041626 227 119 120
-5.858418 14.551951 68.129974 219 111 115
-5.865802 14.717344 68.215858 219 115 120
-5.872905 14.882395 68.298462 222 121 126
-5.879667 15.046927 68.377098 221 122 128
-5.886040 15.210794 68.451210 220 123 130
-5.799448 -14.154435 69.178444 46 31 31
-5.808894 -14.028120 69.291115 48 31 31
-5.818026 -13.900571 69.400047 51 35 34
-5.826840 -13.771799 69.505180 57 40 39
-5.835336 -13.641831 69.606529 62 46 45
-5.843518 -13.510701 69.704124 65 50 49
-5.851392 -13.378446 69.798058 64 51 50
-5.858968 -13.245111 69.888420 56 45 44
-5.866258 -13.110747 69.975372 48 39 37
-5.873275 -12.975406 70.059074 43 36 34
-5.880033 -12.839138 70.139694 40 34 33
-5.886546 -12.701995 70.217384 38 32 31
-5.892830 -12.564028 70.292343 39 32 33
-5.898896 -12.425278 70.364700 40 34 34
-5.904755 -12.285786 70.434578 38 31 32
-5.910415 -12.145584 70.502098 36 29 29
-5.915883 -12.004702 70.567329 36 28 27
-5.921163 -11.863161 70.630310 36 28 26
-5.926257 -11.720980 70.691071 36 27 26
-5.931163 -11.578172 70.749603 35 27 25
-5.935883 -11.434751 70.805893 34 26 25
-5.940411 -11.290724 70.859909 34 26 24
-5.944745 -11.146100 70.911606 33 25 25
-5.948881 -11.000886 70.960938 33 25 25
-5.952813 -10.855089 71.007851 33 25 26
-5.956538 -10.708716 71.052277 34 25 26
-5.960048 -10.561771 71.094147 35 25 27
-5.963336 -10.414259 71.133369 36 26 27
-5.966394 -10.266182 71.169846 38 26 27
-5.969212 -10.117539 71.203461 38 27 27
-5.971777 -9.968332 71.234062 38 27 27
-5.974075 -9.818552 71.261475 39 28 27
-5.976091 -9.668198 71.285522 38 28 27
-5.977806 -9.517260 71.305977 38 28 27
-5.979201 -9.365732 71.322609 37 28 26
-5.980253 -9.213606 71.335159 37 28 27
-5.980943 -9.060878 71.343399 36 27 26
-5.981250 -8.907541 71.347054 34 26 26
-5.981152 -8.753597 71.345879 33 25 26
-5.980628 -8.599049 71.339645 33 24 25
-5.979664 -8.443902 71.328140 32 23 24
-5.978241 -8.288170 71.311165 31 23 23
-5.976345 -8.131866 71.288544 31 23 23
-5.973963 -7.975012 71.260124 31 23 23
-5.971085 -7.817632 71.225800 32 24 24
-5.967703 -7.659752 71.185463 33 24 24
-5.963809 -7.501403 71.139015 34 25 24
-5.959398 -7.342616 71.086395 33 24 24
-5.954466 -7.183428 71.027565 33 24 24
-5.949009 -7.023874 70.962479 34 23 23
-5.943029 -6.863996 70.891136 34 23 22
-5.936529 -6.703838 70.813599 36 22 22
-5.929518 -6.543450 70.729973 38 21 22
-5.922011 -6.382889 70.640427 40 21 22
-5.914034 -6.222220 70.545273 43 21 23
-5.905623 -6.061515 70.444939 52 29 29
-5.896827 -5.900857 70.340019 68 44 43
-5.887710 -5.740339 70.231270 83 59 56
-5.878354 -5.580063 70.119659 92 68 63
-5.868856 -5.420137 70.006371 95 71 65
-5.859332 -5.260676 69.892761 92 69 63
-5.849912 -5.101795 69.780396 83 61 55
-5.840739 -4.943608 69.670975 74 55 49
-5.831964 -4.786220 69.566307 68 50 47
-5.823742 -4.629722 69.468224 61 44 42
-5.816225 -4.474189 69.378555 56 39 38
-5.809557 -4.319674 69.299019 54 38 37
-5.803865 -4.166203 69.231133 53 37 38
-5.799255 -4.013774 69.176140 53 37 38
-5.795804 -3.862353 69.134964 54 38 39
-5.793552 -3.711879 69.108109 54 38 39
-5.792503 -3.562260 69.095596 56 38 40
-5.792621 -3.413383 69.097000 58 38 41
-5.793825 -3.265111 69.111366 60 37 41
-5.795997 -3.117298 69.137268 60 36 40
-5.798980 -2.969790 69.172852 60 35 39
-5.802586 -2.822430 69.215874 62 36 40
-5.806602 -2.675075 69.263779 66 40 44
-5.810798 -2.527590 69.313828 69 44 48
-5.814935 -2.379866 69.363167 71 47 52
-5.818777 -2.231816 69.409004 71 48 53
-5.822099 -2.083382 69.448631 67 46 51
-5.824696 -1.934537 69.479607 65 47 52
-5.826389 -1.785281 69.499802 66 49 52
-5.827035 -1.635645 69.507515 64 48 48
-5.826529 -1.485680 69.501465 61 43 39
-5.824801 -1.335463 69.480865 58 37 28
-5.821829 -1.185080 69.445412 73 47 35
-5.817625 -1.034632 69.395264 121 89 78
-5.812237 -0.884219 69.330994 177 139 132
-5.805745 -0.733944 69.253548 203 158 157
-5.798251 -0.583902 69.164162 176 124 130
-5.789880 -0.434180 69.064308 116 60 70
-5.780766 -0.284851 68.955582 83 24 35
-5.771049 -0.135978 68.839676 103 39 49
-5.760869 0.012396 68.718254 143 76 83
-5.750365 0.160236 68.592957 171 101 103
-5.739663 0.307526 68.465294 180 109 106
-5.728879 0.454259 68.336662 183 111 103
-5.718116 0.600440 68.208282 186 111 100
-5.707464 0.746082 68.081215 187 111 96
-5.696996 0.891204 67.956345 186 108 91
-5.686774 1.035833 67.834412 184 103 82
-5.676846 1.179998 67.715988 183 101 76
-5.667252 1.323730 67.601540 186 103 76
-5.658022 1.467063 67.491455 193 109 80
-5.649185 1.610033 67.386032 199 115 85
-5.640764 1.752678 67.285583 205 119 90
-5.632783 1.895038 67.190384 209 123 94
-5.625265 2.037155 67.100708 212 125 95
-5.618239 2.179076 67.016891 214 125 95
-5.611733 2.320852 66.939293 215 126 97
-5.605784 2.462537 66.868324 217 125 97
-5.600425 2.604191 66.804405 218 125 96
-5.595698 2.745879 66.748024 219 123 95
-5.591641 2.887670 66.699631 220 121 93
-5.588292 3.029636 66.659668 221 119 90
-5.585681 3.171849 66.628532 222 117 89
-5.583838 3.314384 66.606544 223 115 88
-5.582780 3.457310 66.593925 223 111 86
-5.582517 3.600694 66.590782 223 108 84
-5.583041 3.744593 66.597038 222 107 84
-5.584335 3.889055 66.612473 222 106 83
-5.586364 4.034114 66.636673 219 104 82
-5.589079 4.179791 66.669060 218 102 81
-5.592415 4.326087 66.708855 220 104 84
-5.596294 4.472990 66.755127 222 105 87
-5.600624 4.620463 66.806770 217 99 84
-5.605302 4.768456 66.862587 218 97 85
-5.610221 4.916900 66.921257 222 100 91
-5.615266 5.065711 66.981430 217 94 88
-5.620321 5.214791 67.041733 201 78 75
-5.625276 5.364035 67.100830 193 70 69
-5.630022 5.513329 67.157440 196 74 73
-5.634462 5.662561 67.210419 202 79 80
-5.638514 5.811619 67.258736 205 81 84
-5.642105 5.960401 67.301582 201 77 80
-5.645185 6.108813 67.338318 194 71 74
-5.647717 6.256778 67.368530 186 64 67
-5.649685 6.404232 67.391998 179 58 62
-5.651090 6.551135 67.408752 175 57 62
-5.651948 6.697463 67.418999 172 56 62
-5.652294 6.843214 67.423119 166 50 57
-5.652170 6.988401 67.421638 159 44 53
-5.651630 7.133059 67.415207 159 44 53
-5.650737 7.277233 67.404549 164 50 60
-5.649553 7.420979 67.390419 169 55 66
-5.648142 7.564361 67.373589 170 55 67
-5.646567 7.707446 67.354805 168 50 63
-5.644885 7.850300 67.334740 165 46 61
-5.643145 7.992987 67.313980 164 44 60
-5.641387 8.135559 67.293022 166 43 61
-5.639646 8.278064 67.272247 168 44 61
-5.637942 8.420535 67.251930 171 47 63
-5.636289 8.562996 67.232208 178 51 67
-5.634690 8.705456 67.213127 184 57 71
-5.633142 8.847914 67.194672 190 61 75
-5.631636 8.990358 67.176704 195 66 77
-5.630157 9.132770 67.159058 198 71 79
-5.628691 9.275126 67.141571 202 74 80
-5.627220 9.417398 67.124023 206 78 82
-5.625729 9.559562 67.106239 208 82 85
-5.624207 9.701593 67.088074 211 85 86
-5.622644 9.843479 67.069450 215 91 92
-5.621044 9.985215 67.050354 223 101 102
-5.619410 10.126808 67.030869 223 103 104
-5.617758 10.268284 67.011154 210 92 92
-5.616109 10.409682 66.991493 199 83 83
-5.614496 10.551062 66.972252 200 85 85
-5.612957 10.692498 66.953888 207 92 91
-5.611536 10.834085 66.936935 214 99 98
-5.610284 10.975929 66.922005 220 103 104
-5.609256 11.118154 66.909744 224 106 109
-5.608510 11.260891 66.900848 230 110 116
-5.608103 11.404280 66.895996 231 110 120
-5.608092 11.548461 66.895859 227 103 117
-5.608528 11.693575 66.901062 230 106 123
-5.609460 11.839758 66.912170 241 119 137
-5.610927 11.987133 66.929680 243 120 138
-5.612960 12.135807 66.953934 234 106 121
-5.615582 12.285872 66.985199 224 94 106
-5.618799 12.437391 67.023575 220 90 97
-5.622612 12.590408 67.069054 219 89 92
-5.627005 12.744936 67.121452 218 88 86
-5.631950 12.900957 67.180458 216 88 83
-5.637412 13.058426 67.245598 215 87 81
-5.643339 13.217267 67.316299 215 88 81
-5.649673 13.377375 67.391853 214 90 81
-5.656347 13.538624 67.471458 215 92 82
-5.663287 13.700859 67.554245 217 95 85
-5.670416 13.863914 67.639290 220 101 92
-5.677653 14.027602 67.725609 230 114 106
-5.684918 14.191733 67.812279 240 128 123
-5.692133 14.356110 67.898346 232 120 118
-5.699222 14.520536 67.982895 215 103 105
-5.706118 14.684831 68.065155 212 103 107
-5.712759 14.848819 68.144371 217 110 116
-5.719094 15.012343 68.219933 218 113 120
-5.725080 15.175269 68.291336 218 114 122
-5.730684 15.337481 68.358192 217 115 123
-5.735885 15.498892 68.420227 218 118 126
-5.636802 -14.269333 69.012901 48 34 33
-5.645913 -14.143387 69.124443 49 33 33
-5.654710 -14.016184 69.232155 51 34 33
-5.663190 -13.887737 69.335976 53 36 35
-5.671350 -13.758068 69.435883 57 40 38
-5.679195 -13.627213 69.531937 60 43 42
-5.686732 -13.495211 69.624214 62 45 44
-5.693971 -13.362112 69.712837 60 45 44
-5.700924 -13.227968 69.797966 55 43 42
-5.707607 -13.092838 69.879791 50 40 38
-5.714037 -12.956780 69.958511 45 36 35
-5.720231 -12.819855 70.034348 41 34 33
-5.726204 -12.682114 70.107475 38 31 31
-5.731975 -12.543612 70.178123 39 32 33
-5.737555 -12.404397 70.246445 42 35 35
-5.742958 -12.264508 70.312599 40 32 32
-5.748193 -12.123979 70.376686 37 29 29
-5.753266 -11.982837 70.438797 36 29 27
-5.758181 -11.841102 70.498978 37 29 27
-5.762939 -11.698789 70.557236 37 28 26
-5.767540 -11.555909 70.613564 36 27 25
-5.771980 -11.412469 70.667923 35 26 24
-5.776255 -11.268474 70.720261 34 26 24
-5.780359 -11.123923 70.770515 33 25 24
-5.784286 -10.978819 70.818596 33 25 25
-5.788029 -10.833162 70.864410 34 25 25
-5.791577 -10.686951 70.907860 34 25 26
-5.794924 -10.540184 70.948830 35 25 26
-5.798057 -10.392858 70.987183 36 25 26
-5.800964 -10.244968 71.022781 37 25 26
-5.803634 -10.096511 71.055466 37 26 26
-5.806050 -9.947478 71.085045 38 26 26
-5.808195 -9.797862 71.111313 38 26 26
-5.810051 -9.647654 71.134048 37 27 26
-5.811601 -9.496844 71.153015 37 28 26
-5.812821 -9.345425 71.167961 37 28 26
-5.813691 -9.193386 71.178604 36 28 27
-5.814190 -9.040725 71.184715 35 27 27
-5.814297 -8.887438 71.186020 34 27 27
-5.813992 -8.733525 71.182281 33 25 26
-5.813254 -8.578992 71.173256 32 24 25
-5.812068 -8.423848 71.158737 31 23 23
-5.810418 -8.268106 71.138535 29 22 22
-5.808289 -8.111781 71.112465 29 21 21
-5.805665 -7.954892 71.080345 30 22 22
-5.802539 -7.797466 71.042068 31 22 22
-5.798900 -7.639529 70.997513 32 23 22
-5.794738 -7.481109 70.946556 33 23 23
-5.790046 -7.322238 70.889107 33 23 23
-5.784818 -7.162952 70.825104 33 23 23
-5.779050 -7.003287 70.754486 33 23 23
-5.772743 -6.843287 70.677261 34 23 22
-5.765899 -6.682998 70.593468 35 22 22
-5.758530 -6.522476 70.503250 37 22 23
-5.750654 -6.361782 70.406822 38 21 22
-5.742300 -6.200987 70.304550 41 22 23
-5.733510 -6.040174 70.196930 47 26 26
-5.724341 -5.879436 70.084671 55 33 33
-5.714864 -5.718874 69.968643 64 42 40
-5.705170 -5.558599 69.849953 72 50 46
-5.695365 -5.398733 69.729912 76 55 50
-5.685574 -5.239396 69.610031 75 55 49
-5.675935 -5.080711 69.492012 69 51 45
-5.666597 -4.922798 69.377701 63 46 41
-5.657721 -4.765766 69.269012 60 43 39
-5.649462 -4.609706 69.167900 55 39 37
-5.641978 -4.454695 69.076271 52 36 35
-5.635413 -4.300779 68.995903 52 36 36
-5.629896 -4.147982 68.928345 53 36 37
-5.625528 -3.996293 68.874870 53 36 37
-5.622383 -3.845671 68.836365 52 35 36
-5.620499 -3.696044 68.813301 52 35 36
-5.619873 -3.547311 68.805641 53 35 37
-5.620463 -3.399346 68.812859 54 34 37
-5.622182 -3.252003 68.833916 56 34 37
-5.624906 -3.105124 68.867256 57 34 36
-5.628469 -2.958543 68.910889 58 34 36
-5.632679 -2.812095 68.962418 60 35 38
-5.637312 -2.665626 69.019142 64 38 42
-5.642132 -2.518996 69.078163 68 41 45
-5.646894 -2.372087 69.136459 71 44 49
-5.651354 -2.224808 69.191063 71 45 51
-5.655280 -2.077098 69.239128 70 45 52
-5.658459 -1.928925 69.278061 74 50 58
-5.660708 -1.780292 69.305595 81 57 64
-5.661878 -1.631230 69.319908 78 55 59
-5.661855 -1.481794 69.319633 69 46 44
-5.660571 -1.332062 69.303909 62 37 30
-5.657996 -1.182128 69.272385 68 41 30
-5.654143 -1.032097 69.225212 101 69 59
-5.649060 -0.882077 69.162979 147 110 103
-5.642828 -0.732176 69.086678 168 123 122
-5.635552 -0.582496 68.997597 142 91 95
-5.627360 -0.433130 68.897308 96 42 48
-5.618393 -0.284157 68.787514 82 23 31
-5.608797 -0.135642 68.670021 110 45 52
-5.598718 0.012365 68.546631 150 81 84
-5.588302 0.159830 68.419106 175 102 103
-5.577682 0.306735 68.289078 183 109 104
-5.566982 0.453072 68.158073 185 109 100
-5.556311 0.598848 68.027428 185 107 95
-5.545763 0.744077 67.898285 185 105 90
-5.535417 0.888781 67.771614 183 101 83
-5.525337 1.032990 67.648209 180 97 75
-5.515576 1.176734 67.528694 183 99 73
-5.506173 1.320049 67.413574 191 106 77
-5.497159 1.462971 67.303215 197 112 81
-5.488560 1.605538 67.197929 203 117 85
-5.480397 1.747791 67.098000 207 120 89
-5.472692 1.889772 67.003662 210 123 91
-5.465464 2.031522 66.915161 213 123 93
-5.458734 2.173090 66.832771 215 123 93
-5.452529 2.314524 66.756805 215 123 93
-5.446877 2.455881 66.687599 216 123 94
-5.441809 2.597218 66.625549 217 122 94
-5.437357 2.738599 66.571053 218 120 93
-5.433558 2.880089 66.524529 219 118 92
-5.430443 3.021760 66.486389 220 117 90
-5.428040 3.163682 66.456970 223 117 90
-5.426373 3.305925 66.436562 226 116 92
-5.425460 3.448560 66.425377 225 112 89
-5.425306 3.591649 66.423500 224 109 86
-5.425906 3.735248 66.430840 225 109 87
-5.427240 3.879405 66.447182 225 108 86
-5.429278 4.024153 66.472130 220 104 82
-5.431971 4.169511 66.505096 215 100 78
-5.435256 4.315483 66.545326 218 102 82
-5.439061 4.462053 66.591904 220 103 85
-5.443296 4.609189 66.643753 218 100 85
-5.447865 4.756839 66.699684 224 103 91
-5.452661 4.904936 66.758415 227 106 96
-5.457577 5.053397 66.818604 218 96 88
-5.462502 5.202125 66.878899 205 82 77
-5.467328 5.351017 66.937988 198 76 72
-5.471952 5.499960 66.994598 200 78 75
-5.476281 5.648844 67.047600 206 83 81
-5.480233 5.797556 67.095985 208 85 83
-5.483741 5.945997 67.138939 205 81 80
-5.486755 6.094073 67.175842 204 80 80
-5.489240 6.241707 67.206261 196 73 73
-5.491178 6.388836 67.229988 183 61 63
-5.492572 6.535419 67.247055 178 58 62
-5.493438 6.681435 67.257652 178 59 64
-5.493806 6.826877 67.262169 173 54 61
-5.493719 6.971760 67.261093 167 48 57
-5.493227 7.116117 67.255081 166 46 56
-5.492391 7.259991 67.244843 169 50 60
-5.491271 7.403437 67.231117 176 57 68
-5.489926 7.546517 67.214661 179 59 71
-5.488419 7.689297 67.196205 177 56 69
-5.486803 7.831843 67.176422 173 51 66
-5.485126 7.974214 67.155884 171 48 64
-5.483427 8.116465 67.135086 170 47 63
-5.481739 8.258642 67.114418 170 45 62
-5.480083 8.400780 67.094139 172 46 62
-5.478473 8.542901 67.074432 176 48 65
-5.476914 8.685020 67.055351 181 52 67
-5.475407 8.827138 67.036896 187 58 71
-5.473942 8.969247 67.018959 193 63 75
-5.472510 9.111334 67.001434 197 67 77
-5.471100 9.253381 66.984161 200 70 78
-5.469697 9.395366 66.966980 204 73 80
-5.468289 9.537270 66.949753 206 76 82
-5.466869 9.679076 66.932365 209 79 83
-5.465432 9.820778 66.914772 213 84 87
-5.463980 9.962377 66.896996 217 90 92
-5.462521 10.103884 66.879128 213 89 91
-5.461069 10.245330 66.861359 203 80 82
-5.459647 10.386755 66.843948 198 77 78
-5.458284 10.528219 66.827263 202 82 83
-5.457016 10.669797 66.811737 206 88 88
-5.455884 10.811576 66.797867 211 93 93
-5.454932 10.953658 66.786217 217 98 99
-5.454210 11.096158 66.777374 223 103 106
-5.453767 11.239196 66.771957 228 107 113
-5.453655 11.382900 66.770592 227 103 113
-5.453921 11.527396 66.773834 222 96 110
-5.454609 11.672811 66.782265 227 101 117
-5.455759 11.819262 66.796341 240 115 133
-5.457402 11.966856 66.816460 243 116 133
-5.459564 12.115686 66.842926 232 101 116
-5.462258 12.265827 66.875916 221 88 99
-5.465490 12.417333 66.915489 217 85 91
-5.469255 12.570233 66.961578 218 86 87
-5.473536 12.724530 67.013985 218 87 83
-5.478305 12.880204 67.072380 219 90 83
-5.483527 13.037205 67.136322 223 96 87
-5.489156 13.195459 67.205231 225 101 90
-5.495137 13.354868 67.278465 221 97 85
-5.501411 13.515311 67.355278 216 91 78
-5.507912 13.676647 67.434860 216 91 78
-5.514570 13.838722 67.516380 217 95 83
-5.521314 14.001367 67.598946 224 103 93
-5.528075 14.164411 67.681725 234 115 109
-5.534782 14.327674 67.763855 227 109 106
-5.541373 14.490984 67.844536 213 97 96
-5.547786 14.654175 67.923058 212 97 100
-5.553970 14.817092 67.998772 217 103 108
-5.559879 14.979593 68.071114 218 107 112
-5.565475 15.141559 68.139633 218 108 113
-5.570731 15.302882 68.203979 217 108 114
-5.575627 15.463484 68.263916 217 109 115
-5.580149 15.623300 68.319290 218 112 117
-5.484036 -14.258941 68.962639 52 37 37
-5.492548 -14.132179 69.069672 52 36 36
-5.500743 -14.004153 69.172729 53 36 36
-5.508620 -13.874879 69.271782 54 36 35
-5.516180 -13.744390 69.366852 55 38 36
-5.523429 -13.612723 69.458008 57 39 37
-5.530377 -13.479931 69.545380 57 39 38
-5.537037 -13.346067 69.629128 56 39 38
-5.543425 -13.211194 69.709457 54 40 39
-5.549558 -13.075375 69.786583 50 38 37
-5.555457 -12.938676 69.860756 46 36 34
-5.561138 -12.801158 69.932205 43 33 32
-5.566621 -12.662881 70.001160 40 30 30
-5.571925 -12.523904 70.067856 40 31 31
-5.577064 -12.384272 70.132477 43 33 33
-5.582051 -12.244028 70.195190 41 32 32
-5.586895 -12.103206 70.256104 38 29 29
-5.591604 -11.961829 70.315315 38 29 28
-5.596180 -11.819920 70.372864 39 30 28
-5.600626 -11.677488 70.428772 38 29 27
-5.604938 -11.534543 70.483002 36 27 25
-5.609113 -11.391084 70.535500 34 26 24
-5.613145 -11.247113 70.586205 33 25 23
-5.617027 -11.102626 70.635025 33 25 24
-5.620749 -10.957615 70.681824 33 25 25
-5.624301 -10.812078 70.726494 34 25 25
-5.627673 -10.666006 70.768898 34 25 25
-5.630852 -10.519391 70.808868 35 25 26
-5.633825 -10.372224 70.846252 35 24 26
-5.636576 -10.224493 70.880844 36 25 25
-5.639090 -10.076190 70.912460 36 25 25
-5.641349 -9.927302 70.940865 36 25 25
-5.643332 -9.777815 70.965813 36 25 25
-5.645024 -9.627721 70.987083 36 26 25
-5.646400 -9.477007 71.004387 36 27 25
-5.647440 -9.325663 71.017471 36 27 26
-5.648122 -9.173681 71.026047 35 27 26
-5.648426 -9.021058 71.029869 35 27 27
-5.648331 -8.867791 71.028664 34 26 27
-5.647817 -8.713885 71.022202 33 25 26
-5.646865 -8.559342 71.010239 32 24 25
-5.645461 -8.404178 70.992577 31 23 23
-5.643587 -8.248404 70.969017 30 22 22
-5.641229 -8.092035 70.939362 30 22 21
-5.638373 -7.935094 70.903442 30 22 21
-5.635006 -7.777604 70.861115 31 23 22
-5.631119 -7.619592 70.812233 32 24 22
-5.626699 -7.461083 70.756653 33 24 23
-5.621738 -7.302111 70.694252 34 24 23
-5.616227 -7.142709 70.624954 34 25 23
-5.610161 -6.982916 70.548676 34 24 23
-5.603540 -6.822775 70.465416 34 23 22
-5.596368 -6.662337 70.375229 34 22 22
-5.588657 -6.501661 70.278259 35 22 22
-5.580428 -6.340815 70.174782 37 22 22
-5.571715 -6.179878 70.065216 39 22 23
-5.562566 -6.018941 69.950165 41 24 24
-5.553043 -5.858107 69.830414 45 27 27
-5.543228 -5.697487 69.706985 50 31 30
-5.533218 -5.537206 69.581116 54 36 33
-5.523130 -5.377389 69.454247 58 40 36
-5.513095 -5.218172 69.328056 58 41 36
-5.503261 -5.059682 69.204391 57 39 35
-5.493784 -4.902045 69.085213 54 38 35
-5.484828 -4.745371 68.972588 53 37 34
-5.476554 -4.589756 68.868553 52 35 34
-5.469123 -4.435272 68.775101 52 35 35
-5.462679 -4.281965 68.694061 52 35 35
-5.457348 -4.129849 68.627029 53 36 37
-5.453231 -3.978909 68.575256 54 36 38
-5.450397 -3.829093 68.539619 51 33 35
-5.448880 -3.680320 68.520538 49 32 33
-5.448671 -3.532477 68.517914 51 34 35
-5.449722 -3.385428 68.531128 53 34 36
-5.451940 -3.239016 68.559021 54 33 36
-5.455193 -3.093071 68.599930 55 33 36
-5.459311 -2.947416 68.651718 56 33 36
-5.464093 -2.801877 68.711845 58 33 36
-5.469311 -2.656292 68.777458 62 36 39
-5.474720 -2.510512 68.845482 65 38 42
-5.480070 -2.364412 68.912758 67 40 44
-5.485109 -2.217897 68.976128 69 41 47
-5.489600 -2.070902 69.032600 71 42 51
-5.493324 -1.923395 69.079430 82 54 64
-5.496091 -1.775377 69.114227 99 71 81
-5.497746 -1.626879 69.135040 99 71 78
-5.498173 -1.477962 69.140411 80 53 55
-5.497298 -1.328707 69.129402 66 39 35
-5.495090 -1.179214 69.101631 69 40 33
-5.491559 -1.029592 69.057236 85 53 46
-5.486754 -0.879957 68.996811 109 70 67
-5.480756 -0.730424 68.921387 120 75 75
-5.473675 -0.581101 68.832344 107 56 58
-5.465643 -0.432087 68.731339 86 29 34
-5.456803 -0.283466 68.620178 87 25 30
-5.447310 -0.135308 68.500801 118 50 53
-5.437317 0.012334 68.375137 154 82 82
-5.426975 0.159424 68.245087 176 101 98
-5.416426 0.305941 68.112419 184 106 99
-5.405799 0.451880 67.978790 185 105 95
-5.395210 0.597248 67.845634 184 102 89
-5.384759 0.742060 67.714211 182 99 83
-5.374530 0.886342 67.585579 181 96 77
-5.364590 1.030125 67.460579 182 96 73
-5.354994 1.173444 67.339905 188 102 75
-5.345783 1.316338 67.224075 196 110 79
-5.336987 1.458847 67.113480 203 116 82
-5.328633 1.601010 67.008415 207 119 85
-5.320738 1.742872 66.909134 209 121 86
-5.313320 1.884474 66.815849 212 122 88
-5.306394 2.025863 66.728752 214 122 90
-5.299978 2.167084 66.648079 216 122 90
-5.294092 2.308188 66.574051 216 121 90
-5.288758 2.449230 66.506989 216 121 91
-5.284002 2.590265 66.447174 216 120 92
-5.279851 2.731355 66.394974 217 118 92
-5.276334 2.872566 66.350746 218 116 91
-5.273478 3.013963 66.314835 219 114 91
-5.271307 3.155616 66.287537 224 116 93
-5.269842 3.297593 66.269104 229 117 96
-5.269095 3.439959 66.259720 227 113 93
-5.269072 3.582777 66.259422 226 111 91
-5.269765 3.726100 66.268135 229 112 92
-5.271156 3.869973 66.285629 226 108 88
-5.273213 4.014429 66.311501 218 102 81
-5.275891 4.159485 66.345177 214 99 77
-5.279130 4.305145 66.385918 216 100 81
-5.282860 4.451393 66.432823 218 101 84
-5.286997 4.598197 66.484833 220 102 87
-5.291447 4.745507 66.540794 227 106 95
-5.296112 4.893257 66.599449 228 106 97
-5.300886 5.041363 66.659492 220 97 89
-5.305665 5.189734 66.719589 210 87 80
-5.310346 5.338264 66.778450 204 81 74
-5.314830 5.486845 66.834839 204 81 75
-5.319030 5.635367 66.887650 210 87 81
-5.322865 5.783723 66.935890 212 89 83
-5.326274 5.931811 66.978760 213 89 84
-5.329207 6.079540 67.015640 215 91 87
-5.331633 6.226836 67.046135 206 82 79
-5.333533 6.373635 67.070038 190 66 65
-5.334910 6.519899 67.087357 184 61 63
-5.335781 6.665604 67.098297 184 62 67
-5.336172 6.810745 67.103226 181 59 66
-5.336125 6.955336 67.102638 176 53 62
-5.335690 7.099408 67.097160 174 50 61
-5.334921 7.243003 67.087494 175 52 63
-5.333877 7.386174 67.074356 181 57 69
-5.332614 7.528982 67.058487 184 61 74
-5.331192 7.671491 67.040596 183 59 74
-5.329661 7.813763 67.021347 178 54 70
-5.328066 7.955857 67.001289 174 50 66
-5.326447 8.097827 66.980927 173 48 64
-5.324833 8.239718 66.960632 172 45 61
-5.323247 8.381565 66.940689 172 44 60
-5.321703 8.523394 66.921265 172 44 61
-5.320206 8.665216 66.902451 176 47 62
-5.318760 8.807040 66.884262 184 53 68
-5.317358 8.948860 66.866631 193 61 75
-5.315993 9.090670 66.849472 197 65 77
-5.314657 9.232452 66.832664 199 67 77
-5.313339 9.374196 66.816093 201 67 77
-5.312032 9.515887 66.799652 204 70 78
-5.310730 9.657516 66.783279 207 73 79
-5.309431 9.799081 66.766937 210 76 82
-5.308139 9.940590 66.750702 212 80 85
-5.306863 10.082059 66.734657 206 76 80
-5.305620 10.223519 66.719025 198 70 74
-5.304429 10.365017 66.704048 197 71 74
-5.303319 10.506610 66.690094 202 78 79
-5.302322 10.648368 66.677551 205 83 83
-5.301475 10.790378 66.666893 209 87 87
-5.300817 10.932734 66.658630 216 93 95
-5.300394 11.075541 66.653297 223 100 104
-5.300245 11.218909 66.651436 226 102 109
-5.300416 11.362954 66.653587 223 97 108
-5.300946 11.507787 66.660248 220 91 105
-5.301872 11.653520 66.671898 223 92 109
-5.303226 11.800253 66.688911 231 100 118
-5.305032 11.948080 66.711632 232 99 116
-5.307308 12.097076 66.740257 222 88 102
-5.310065 12.247305 66.774925 214 80 91
-5.313303 12.398804 66.815636 214 80 86
-5.317012 12.551593 66.862289 215 83 84
-5.321177 12.705669 66.914650 217 85 81
-5.325769 12.861006 66.972412 222 95 87
-5.330755 13.017550 67.035103 233 117 106
-5.336092 13.175232 67.102211 239 131 118
-5.341730 13.333955 67.173111 232 116 102
-5.347616 13.493609 67.247131 219 94 80
-5.353691 13.654065 67.323517 217 89 75
-5.359893 13.815180 67.401520 220 92 80
-5.366162 13.976803 67.480354 221 94 85
-5.372436 14.138779 67.559250 224 97 91
-5.378655 14.300948 67.637451 221 96 94
-5.384762 14.463156 67.714249 217 93 93
-5.390708 14.625256 67.789017 218 95 98
-5.396446 14.787109 67.861176 220 98 102
-5.401937 14.948590 67.930229 220 100 104
-5.407149 15.109590 67.995773 220 101 105
-5.412057 15.270015 68.057495 218 101 105
-5.416645 15.429790 68.115173 217 100 105
-5.420898 15.588856 68.168671 216 101 105
-5.424814 15.747172 68.217911 215 102 105
-5.323158 -14.374605 68.804710 55 40 41
-5.331417 -14.248360 68.911469 55 39 40
-5.339367 -14.120833 69.014221 55 38 39
-5.347001 -13.992040 69.112892 55 37 37
-5.354320 -13.862002 69.207489 55 36 36
-5.361325 -13.730757 69.298042 55 36 35
-5.368027 -13.598351 69.384666 55 37 35
-5.374437 -13.464839 69.467514 55 37 36
-5.380569 -13.330284 69.546783 56 38 37
-5.386443 -13.194753 69.622704 55 40 39
-5.392077 -13.058315 69.695534 53 39 38
-5.397493 -12.921039 69.765533 49 37 35
-5.402710 -12.782993 69.832970 45 34 33
-5.407749 -12.644238 69.898102 43 31 30
-5.412629 -12.504834 69.961174 42 31 30
-5.417365 -12.364832 70.022385 42 31 31
-5.421970 -12.224270 70.081917 42 31 31
-5.426455 -12.083184 70.139885 40 30 29
-5.430827 -11.941599 70.196396 40 30 28
-5.435089 -11.799532 70.251480 40 31 29
-5.439241 -11.656991 70.305145 39 31 28
-5.443281 -11.513983 70.357361 36 28 26
-5.447203 -11.370503 70.408066 33 25 23
-5.451001 -11.226549 70.457153 32 24 23
-5.454666 -11.082112 70.504517 32 25 24
-5.458185 -10.937181 70.550011 32 25 24
-5.461549 -10.791745 70.593483 33 25 25
-5.464742 -10.645790 70.634758 34 25 25
-5.467751 -10.499303 70.673653 34 25 25
-5.470558 -10.352268 70.709946 34 24 25
-5.473148 -10.204669 70.743416 34 24 25
-5.475502 -10.056493 70.773834 35 24 25
