ply
format ascii 1.0
element vertex 1244
property float x
property float y
property float z
property uchar red
property uchar green
property uchar blue
end_header
15.268871 -3.705671 46.565853 14 13 8
15.297853 -3.612134 46.654240 14 13 9
15.327429 -3.518352 46.744438 14 13 9
15.357670 -3.424330 46.836662 14 13 10
15.388659 -3.330071 46.931171 15 13 12
15.420469 -3.235578 47.028183 15 13 13
15.453175 -3.140849 47.127926 15 13 13
15.486835 -3.045877 47.230579 16 12 13
15.521494 -2.950652 47.336285 16 13 13
15.557175 -2.855160 47.445099 16 13 13
15.593874 -2.759378 47.557022 15 13 12
15.631564 -2.663283 47.671967 15 12 11
15.670183 -2.566844 47.789745 14 12 10
15.709644 -2.470030 47.910088 13 12 10
15.749831 -2.372806 48.032646 13 12 9
15.790608 -2.275139 48.157009 13 13 9
15.831818 -2.176996 48.282684 13 13 9
15.873295 -2.078345 48.409180 14 14 9
15.914865 -1.979161 48.535954 15 14 10
15.956352 -1.879420 48.662479 15 14 11
15.997600 -1.779108 48.788273 14 14 12
16.038454 -1.678211 48.912868 14 13 11
16.078789 -1.576727 49.035877 15 13 11
16.118496 -1.474655 49.156971 15 13 12
16.157497 -1.372001 49.275917 15 14 12
16.195740 -1.268775 49.392548 15 14 11
16.233198 -1.164989 49.506783 15 13 11
16.269873 -1.060660 49.618629 14 13 10
16.305786 -0.955804 49.728157 14 13 10
16.340990 -0.850439 49.835518 14 13 11
16.375547 -0.744582 49.940910 15 14 12
16.409538 -0.638248 50.044575 15 14 12
16.443062 -0.531452 50.146812 15 13 12
16.476229 -0.424207 50.247959 15 13 11
16.509150 -0.316520 50.348358 15 13 11
16.541948 -0.208399 50.448387 14 12 10
16.574749 -0.099847 50.548420 13 12 10
16.607683 0.009136 50.648857 13 12 10
16.640873 0.118555 50.750080 13 12 9
16.674444 0.228415 50.852467 13 12 9
16.708517 0.338726 50.956375 12 12 9
16.743195 0.449502 51.062134 12 12 9
16.778570 0.560757 51.170017 12 12 9
16.814724 0.672508 51.280277 13 12 10
16.851709 0.784773 51.393074 14 13 10
16.889563 0.897571 51.508514 14 13 11
16.928295 1.010919 51.626637 15 13 11
16.967892 1.124834 51.747398 15 12 10
17.008318 1.239329 51.870686 13 11 9
17.049509 1.354418 51.996311 12 11 9
17.091391 1.470106 52.124035 12 10 9
17.133860 1.586400 52.253555 12 11 9
17.176807 1.703300 52.384537 12 11 10
17.220121 1.820804 52.516628 13 12 10
17.263678 1.938904 52.649464 14 13 10
17.307360 2.057591 52.782681 15 13 11
17.351057 2.176855 52.915943 14 13 10
17.394669 2.296682 53.048950 14 12 10
17.438112 2.417059 53.181438 14 12 9
17.481308 2.537972 53.313175 15 12 10
17.524197 2.659406 53.443974 15 12 10
17.566732 2.781348 53.573696 15 12 10
17.608879 2.903785 53.702232 15 12 10
17.650614 3.026705 53.829510 14 11 9
17.691914 3.150097 53.955467 13 11 10
17.732767 3.273950 54.080059 13 12 10
17.773161 3.398251 54.203247 12 12 11
17.813072 3.522989 54.324963 12 12 11
17.852482 3.648149 54.445156 13 12 11
17.891359 3.773714 54.563721 13 12 11
17.929668 3.899667 54.680550 13 12 12
17.967352 4.025984 54.795475 14 12 12
18.004360 4.152640 54.908340 14 12 12
18.040621 4.279606 55.018925 14 12 11
18.076056 4.406847 55.126991 15 11 11
18.110575 4.534325 55.232269 15 11 11
18.144089 4.661998 55.334473 15 11 11
18.176491 4.789819 55.433296 14 11 11
18.207682 4.917739 55.528416 14 11 11
18.237551 5.045703 55.619511 13 12 12
18.265997 5.173657 55.706264 13 11 11
18.292921 5.301544 55.788376 12 11 11
18.318230 5.429306 55.865555 12 12 10
18.341831 5.556884 55.937534 12 12 10
18.363653 5.684221 56.004089 11 12 10
18.383633 5.811263 56.065018 12 12 11
18.401705 5.937952 56.120132 12 12 11
18.417824 6.064235 56.169292 12 12 11
14.759222 -7.607220 44.717583 18 17 16
14.754092 -7.508214 44.702038 18 16 14
14.749495 -7.409542 44.688110 17 16 13
14.745488 -7.311223 44.675972 16 15 12
14.742145 -7.213280 44.665840 16 15 12
14.739528 -7.115733 44.657913 16 15 12
14.737709 -7.018599 44.652405 16 15 12
14.736763 -6.921899 44.649532 16 16 13
14.736760 -6.825648 44.649525 16 16 13
14.737779 -6.729864 44.652611 17 16 13
14.739893 -6.634560 44.659019 18 16 13
14.743175 -6.539746 44.668961 19 16 14
14.747687 -6.445426 44.682632 19 15 14
14.753488 -6.351603 44.700207 19 15 14
14.760622 -6.258270 44.721825 19 15 14
14.769124 -6.165413 44.747581 18 14 14
14.779009 -6.073015 44.777531 18 14 14
14.790278 -5.981047 44.811676 18 14 14
14.802916 -5.889476 44.849964 18 14 14
14.816887 -5.798262 44.892296 17 14 13
14.832150 -5.707362 44.938538 17 14 13
14.848641 -5.616728 44.988506 16 14 13
14.866292 -5.526309 45.041981 15 14 13
14.885021 -5.436054 45.098732 14 14 12
14.904751 -5.345912 45.158504 14 14 12
14.925392 -5.255835 45.221046 14 14 12
14.946866 -5.165775 45.286106 15 14 13
14.969091 -5.075690 45.353447 15 14 13
14.991994 -4.985539 45.422832 16 14 13
15.015506 -4.895288 45.494072 16 15 12
15.039568 -4.804905 45.566975 17 16 12
15.064124 -4.714364 45.641376 17 16 12
15.089130 -4.623639 45.717140 17 16 12
15.114550 -4.532711 45.794155 17 16 12
15.140348 -4.441562 45.872322 17 16 12
15.166503 -4.350179 45.951565 17 16 13
15.192999 -4.258549 46.031841 17 15 13
15.219827 -4.166665 46.113125 16 15 13
15.246990 -4.074520 46.195427 16 14 12
15.274503 -3.982110 46.278782 16 14 11
15.302388 -3.889436 46.363270 16 14 10
15.330682 -3.796500 46.448994 15 14 9
15.359430 -3.703303 46.536095 15 14 9
15.388692 -3.609851 46.624752 15 14 9
15.418533 -3.516149 46.715168 15 13 10
15.449029 -3.422202 46.807564 15 13 11
15.480256 -3.328014 46.902176 15 13 12
15.512288 -3.233586 46.999226 15 13 13
15.545196 -3.138916 47.098927 15 13 13
15.579034 -3.043998 47.201454 15 12 13
15.613846 -2.948822 47.306927 15 12 13
15.649652 -2.853373 47.415413 15 12 12
15.686444 -2.757629 47.526886 15 12 11
15.724191 -2.661567 47.641251 15 11 11
15.762828 -2.565156 47.758312 14 11 10
15.802270 -2.468366 47.877815 13 11 9
15.842398 -2.371164 47.999393 12 12 9
15.883075 -2.273516 48.122639 12 13 9
15.924146 -2.175390 48.247074 13 13 9
15.965443 -2.076757 48.372196 14 14 10
16.006798 -1.977593 48.497494 14 14 10
16.048037 -1.877874 48.622437 14 14 11
16.089001 -1.777586 48.746552 14 13 11
16.129545 -1.676720 48.869392 14 12 11
16.169540 -1.575270 48.990574 14 12 11
16.208885 -1.473239 49.109779 14 12 11
16.247499 -1.370633 49.226772 15 13 12
16.285332 -1.267461 49.341400 14 12 11
16.322357 -1.163737 49.453575 14 12 11
16.358572 -1.059477 49.563305 14 12 10
16.394005 -0.954699 49.670654 13 12 10
16.428696 -0.849419 49.775764 13 12 11
16.462711 -0.743656 49.878822 14 13 12
16.496128 -0.637426 49.980072 15 13 12
16.529039 -0.530742 50.079784 15 13 12
16.561552 -0.423619 50.178291 15 12 12
16.593773 -0.316065 50.275917 15 12 12
16.625826 -0.208088 50.373032 15 12 11
16.657835 -0.099692 50.470009 14 11 10
16.689922 0.009122 50.567230 13 11 10
16.722216 0.118356 50.665073 12 11 9
16.754839 0.228017 50.763912 12 11 9
16.787909 0.338113 50.864109 12 11 10
16.821533 0.448655 50.965984 12 12 10
16.855808 0.559659 51.069832 13 12 10
16.890812 0.671139 51.175888 13 12 11
16.926607 0.783113 51.284336 14 12 11
16.963228 0.895598 51.395294 14 12 11
17.000694 1.008612 51.508808 14 12 11
17.038998 1.122170 51.624863 14 12 10
17.078106 1.236287 51.743351 13 11 9
17.117971 1.350975 51.864136 12 10 9
17.158516 1.466241 51.986980 12 10 9
17.199656 1.582091 52.111622 12 10 9
17.241291 1.698528 52.237770 13 11 9
17.283316 1.815550 52.365097 13 12 10
17.325626 1.933152 52.493290 14 12 10
17.368114 2.051328 52.622021 14 12 10
17.410686 2.170070 52.751007 14 12 10
17.453259 2.289367 52.879990 14 12 10
17.495756 2.409211 53.008751 14 12 10
17.538115 2.529589 53.137089 15 12 10
17.580292 2.650494 53.264877 15 12 10
17.622250 2.771915 53.391998 15 12 11
17.663963 2.893844 53.518383 14 12 10
17.705412 3.016273 53.643970 13 11 9
17.746588 3.139195 53.768723 13 11 10
17.787474 3.262601 53.892597 13 12 10
17.828056 3.386484 54.015556 12 12 11
17.868309 3.510833 54.137516 12 12 11
17.908211 3.635636 54.258411 13 13 12
17.947716 3.760876 54.378101 13 13 12
17.986780 3.886538 54.496456 14 13 13
18.025333 4.012596 54.613262 14 13 13
18.063307 4.139026 54.728321 14 13 13
18.100615 4.265794 54.841354 14 12 12
18.137161 4.392865 54.952084 14 12 11
18.172840 4.520198 55.060184 14 11 11
18.207541 4.647747 55.165321 14 10 11
18.241150 4.775463 55.267147 14 11 11
18.273540 4.903292 55.365284 13 11 11
18.304596 5.031177 55.459377 12 11 11
18.334202 5.159059 55.549076 12 11 11
18.362246 5.286879 55.634045 12 11 10
18.388628 5.414575 55.713978 12 11 10
18.413254 5.542088 55.788593 11 12 9
18.436047 5.669358 55.857647 11 12 10
18.456930 5.796327 55.920925 12 12 10
14.837439 -7.501633 44.662857 17 16 14
14.832664 -7.402972 44.648487 17 16 13
14.828467 -7.304657 44.635853 16 15 12
14.824917 -7.206712 44.625164 15 14 11
14.822084 -7.109156 44.616638 15 14 11
14.820048 -7.012014 44.610512 15 14 11
14.818885 -6.915306 44.607010 15 14 11
14.818681 -6.819055 44.606396 15 14 11
14.819515 -6.723277 44.608906 16 15 12
14.821471 -6.627990 44.614796 17 15 13
14.824628 -6.533207 44.624298 18 15 14
14.829057 -6.438935 44.637627 19 15 15
14.834819 -6.345176 44.654972 19 15 14
14.841967 -6.251925 44.676491 18 14 14
14.850533 -6.159171 44.702278 18 14 14
14.860540 -6.066893 44.732399 18 14 14
14.871988 -5.975065 44.766861 18 14 14
14.884861 -5.883651 44.805607 17 14 13
14.899124 -5.792611 44.848541 17 15 13
14.914728 -5.701898 44.895512 17 15 13
14.931607 -5.611461 44.946320 17 14 13
14.949689 -5.521250 45.000751 15 15 12
14.968885 -5.431209 45.058533 15 14 12
14.989110 -5.341285 45.119411 14 14 12
15.010270 -5.251425 45.183105 14 13 12
15.032276 -5.161582 45.249348 15 13 12
15.055042 -5.071709 45.317879 15 13 13
15.078486 -4.981765 45.388447 16 14 13
15.102536 -4.891712 45.460842 16 15 12
15.127124 -4.801518 45.534855 17 15 12
15.152193 -4.711155 45.610317 17 15 12
15.177693 -4.620598 45.687073 17 16 12
15.203582 -4.529825 45.765003 17 16 13
15.229830 -4.438821 45.844013 17 16 13
15.256409 -4.347571 45.924019 17 16 13
15.283301 -4.256063 46.004971 17 15 14
15.310505 -4.164291 46.086861 16 14 13
15.338020 -4.072249 46.169682 16 14 12
15.365861 -3.979934 46.253487 16 14 11
15.394054 -3.887347 46.338356 16 14 11
15.422637 -3.794489 46.424389 15 14 10
15.451654 -3.701364 46.511738 15 14 10
15.481165 -3.607978 46.600571 15 14 10
15.511237 -3.514337 46.691093 15 13 10
15.541943 -3.420444 46.783520 15 13 12
15.573358 -3.326304 46.878082 15 13 12
15.605554 -3.231919 46.974998 15 13 12
15.638599 -3.137286 47.074471 15 13 13
15.672548 -3.042399 47.176659 15 13 13
15.707437 -2.947249 47.281681 15 13 13
15.743282 -2.851819 47.389580 15 13 12
15.780079 -2.756089 47.500343 15 12 11
15.817787 -2.660036 47.613853 14 11 10
15.856348 -2.563631 47.729923 14 10 10
15.895665 -2.466843 47.848278 13 11 9
15.935630 -2.369641 47.968575 13 12 9
15.976099 -2.271992 48.090393 13 13 9
16.016922 -2.173866 48.213276 14 13 9
16.057934 -2.075235 48.336727 14 14 10
16.098967 -1.976074 48.460243 14 14 11
16.139853 -1.876363 48.583317 14 13 11
16.180437 -1.776088 48.705479 14 12 11
16.220573 -1.675241 48.826302 13 12 10
16.260143 -1.573818 48.945404 13 11 10
16.299040 -1.471821 49.062492 14 11 11
16.337189 -1.369256 49.177330 14 11 11
16.374542 -1.266134 49.289764 14 12 11
16.411070 -1.162470 49.399719 14 11 11
16.446772 -1.058278 49.507187 14 12 11
16.481668 -0.953576 49.612232 13 11 11
16.515806 -0.848382 49.714989 13 12 11
16.549240 -0.742714 49.815636 14 12 12
16.582048 -0.636588 49.914387 14 12 12
16.614317 -0.530019 50.011524 15 12 12
16.646151 -0.423020 50.107346 15 12 12
16.677654 -0.315601 50.202179 15 12 12
16.708946 -0.207771 50.296371 15 12 12
16.740149 -0.099535 50.390293 14 11 11
16.771383 0.009107 50.484314 12 11 10
16.802774 0.118154 50.578808 12 11 9
16.834448 0.227614 50.674149 12 11 9
16.866522 0.337492 50.770695 12 12 10
16.899103 0.447800 50.868771 13 12 11
16.932293 0.558550 50.968678 13 12 11
16.966171 0.669759 51.070656 14 12 11
17.000805 0.781442 51.174908 14 12 11
17.036236 0.893616 51.281559 14 11 11
17.072485 1.006299 51.390671 14 11 11
17.109550 1.119505 51.502251 14 11 10
17.147411 1.233250 51.616219 14 11 10
17.186022 1.347544 51.732441 13 11 9
17.225319 1.462398 51.850731 13 10 10
17.265223 1.577817 51.970844 13 10 10
17.305645 1.693805 52.092522 13 10 9
17.346493 1.810362 52.215481 13 11 10
17.387671 1.927486 52.339432 14 11 10
17.429087 2.045172 52.464096 14 11 10
17.470654 2.163414 52.589222 14 11 10
17.512304 2.282207 52.714600 14 12 10
17.553974 2.401543 52.840027 14 12 10
17.595613 2.521415 52.965370 14 12 10
17.637186 2.641817 53.090508 14 12 10
17.678665 2.762745 53.215370 14 11 10
17.720036 2.884193 53.339897 13 11 10
17.761282 3.006157 53.464054 13 11 9
17.802395 3.128632 53.587811 12 11 10
17.843365 3.251616 53.711132 12 11 10
17.884171 3.375100 53.833965 12 12 11
17.924788 3.499076 53.956234 12 12 12
17.965183 3.623535 54.077827 13 13 12
18.005306 3.748462 54.198601 13 13 13
18.045095 3.873838 54.318375 14 13 13
18.084473 3.999639 54.436905 14 13 13
18.123354 4.125838 54.553944 14 13 13
18.161636 4.252401 54.669182 14 13 12
18.199207 4.379291 54.782276 14 12 11
18.235949 4.506462 54.892868 14 11 11
18.271729 4.633867 55.000576 13 10 10
18.306416 4.761451 55.104988 13 10 10
18.339876 4.889159 55.205708 12 10 10
18.371977 5.016930 55.302334 11 10 10
18.402592 5.144702 55.394489 11 10 10
18.431599 5.272411 55.481808 11 10 9
18.458889 5.399995 55.563957 11 11 9
18.484365 5.527390 55.640644 11 11 9
18.507946 5.654537 55.711624 11 12 10
14.916260 -7.396698 44.610649 17 15 13
14.911863 -7.298381 44.597500 16 15 12
14.908094 -7.200424 44.586231 15 14 11
14.905036 -7.102853 44.577080 15 14 11
14.902768 -7.005694 44.570301 14 14 10
14.901380 -6.908972 44.566147 15 14 11
14.900961 -6.812711 44.564896 16 14 11
14.901604 -6.716934 44.566818 17 15 12
14.903397 -6.621659 44.572178 18 15 13
14.906427 -6.526904 44.581245 18 15 14
14.910776 -6.432677 44.594250 19 15 14
14.916510 -6.338984 44.611397 19 15 14
14.923686 -6.245820 44.632858 18 14 14
14.932343 -6.153174 44.658752 18 14 14
14.942504 -6.061026 44.689140 18 15 14
14.954172 -5.969349 44.724037 17 15 13
14.967327 -5.878106 44.763378 17 15 13
14.981935 -5.787253 44.807064 17 15 13
14.997940 -5.696744 44.854935 17 15 12
15.015277 -5.606525 44.906784 17 15 12
15.033860 -5.516540 44.962360 16 14 12
15.053599 -5.426733 45.021397 15 14 11
15.074396 -5.337045 45.083595 14 14 11
15.096153 -5.247422 45.148663 14 13 11
15.118773 -5.157814 45.216312 14 13 12
15.142156 -5.068169 45.286247 15 13 12
15.166216 -4.978445 45.358204 16 13 12
15.190873 -4.888603 45.431946 16 14 12
15.216053 -4.798608 45.507256 17 15 12
15.241693 -4.708430 45.583935 17 15 12
15.267737 -4.618044 45.661827 17 16 12
15.294144 -4.527430 45.740803 17 16 13
15.320875 -4.436569 45.820751 17 16 14
15.347906 -4.345448 45.901592 17 15 14
15.375220 -4.254057 45.983284 17 15 14
15.402812 -4.162389 46.065800 16 14 13
15.430683 -4.070438 46.149158 15 13 12
15.458852 -3.978205 46.233402 15 13 11
15.487344 -3.885690 46.318615 15 14 11
15.516196 -3.792896 46.404903 15 14 11
15.545459 -3.699827 46.492420 15 14 11
15.575190 -3.606489 46.581337 15 14 11
15.605454 -3.512888 46.671852 15 13 11
15.636327 -3.419030 46.764183 15 13 11
15.667879 -3.324918 46.858547 15 13 11
15.700183 -3.230554 46.955158 15 13 12
15.733302 -3.135936 47.054211 15 13 12
15.767288 -3.041058 47.155857 15 13 12
15.802176 -2.945910 47.260197 15 13 12
15.837982 -2.850477 47.367283 15 13 11
15.874691 -2.754739 47.477070 15 12 11
15.912270 -2.658673 47.589458 14 11 10
15.950651 -2.562252 47.704247 13 11 9
15.989746 -2.465446 47.821167 13 11 9
16.029438 -2.368223 47.939877 14 12 10
16.069595 -2.270555 48.059978 13 13 9
16.110064 -2.172411 48.181007 14 13 10
16.150682 -2.073765 48.302486 14 14 10
16.191288 -1.974593 48.423931 14 14 11
16.231722 -1.874877 48.544853 14 13 11
16.271826 -1.774605 48.664799 13 12 10
16.311466 -1.673768 48.783352 13 11 10
16.350521 -1.572363 48.900154 14 11 11
16.388891 -1.470393 49.014908 13 10 10
16.426504 -1.367866 49.127399 13 11 11
16.463310 -1.264791 49.237476 14 11 11
16.499285 -1.161184 49.345066 14 11 12
16.534420 -1.057058 49.450150 14 11 12
16.568741 -0.952434 49.552792 13 11 12
16.602287 -0.847326 49.653118 13 11 12
16.635109 -0.741755 49.751282 14 11 12
16.667284 -0.635735 49.847507 14 12 12
16.698895 -0.529282 49.942047 14 12 12
16.730036 -0.422410 50.035183 15 12 12
16.760817 -0.315130 50.127235 15 12 12
16.791344 -0.207450 50.218536 15 12 12
16.821739 -0.099375 50.309444 14 11 11
16.852127 0.009091 50.400322 12 11 10
16.882629 0.117951 50.491547 11 11 9
16.913368 0.227206 50.583481 12 11 10
16.944464 0.336865 50.676483 12 12 10
16.976030 0.446938 50.770885 13 13 11
17.008169 0.557436 50.867004 14 13 12
17.040960 0.668374 50.965076 14 12 11
17.074482 0.779769 51.065334 14 12 11
17.108776 0.891636 51.167896 14 11 11
17.143877 1.003992 51.272869 14 11 11
17.179781 1.116853 51.380249 14 11 11
17.216476 1.230234 51.489998 14 11 10
17.253927 1.344146 51.602001 13 11 10
17.292076 1.458601 51.716099 13 11 10
17.330854 1.573604 51.832073 13 11 10
17.370180 1.689161 51.949684 13 11 10
17.409973 1.805273 52.068699 13 10 9
17.450148 1.921941 52.188847 13 10 10
17.490618 2.039161 52.309887 14 10 10
17.531315 2.156930 52.431599 14 11 10
17.572172 2.275245 52.553791 14 11 10
17.613142 2.394102 52.676323 14 12 11
17.654181 2.513498 52.799061 15 12 11
17.695265 2.633429 52.921932 14 11 11
17.736372 2.753893 53.044872 14 11 11
17.777491 2.874890 53.167847 13 10 10
17.818615 2.996417 53.290840 12 10 10
17.859734 3.118474 53.413815 12 10 10
17.900835 3.241058 53.536739 12 11 10
17.941902 3.364165 53.659557 12 12 11
17.982899 3.487788 53.782169 12 12 12
18.023788 3.611919 53.904457 13 13 13
18.064512 3.736542 54.026253 14 14 13
18.104992 3.861639 54.147320 13 13 13
18.145145 3.987185 54.267406 14 13 13
18.184866 4.113152 54.386200 14 13 13
18.224043 4.239503 54.503368 14 13 12
18.262543 4.366199 54.618511 14 12 11
18.300234 4.493192 54.731232 14 11 11
18.336971 4.620431 54.841106 13 10 10
18.372604 4.747859 54.947678 11 9 9
18.406992 4.875415 55.050522 10 9 9
18.439983 5.003037 55.149189 10 9 9
18.471445 5.130659 55.243282 10 9 9
18.501245 5.258214 55.332409 11 10 9
18.529272 5.385638 55.416229 11 10 9
14.995687 -7.292393 44.560909 16 15 12
14.991692 -7.194417 44.549038 15 15 11
14.988393 -7.096823 44.539238 15 14 11
14.985882 -6.999639 44.531773 14 14 10
14.984255 -6.902894 44.526939 15 14 11
14.983612 -6.806616 44.525028 16 14 11
14.984052 -6.710833 44.526337 17 15 12
14.985678 -6.615566 44.531166 18 15 13
14.988581 -6.520835 44.539795 18 15 13
14.992853 -6.426654 44.552490 18 15 14
14.998569 -6.333027 44.569477 18 15 14
15.005791 -6.239953 44.590935 18 15 14
15.014563 -6.147421 44.617001 18 15 14
15.024908 -6.055412 44.647743 17 15 14
15.036831 -5.963895 44.683174 17 15 13
15.050315 -5.872835 44.723244 17 15 13
15.065317 -5.782185 44.767822 17 15 12
15.081783 -5.691895 44.816753 17 15 12
15.099638 -5.601909 44.869812 17 15 12
15.118792 -5.512168 44.926727 16 14 12
15.139141 -5.422610 44.987194 15 14 11
15.160583 -5.333176 45.050915 15 14 11
15.183009 -5.243806 45.117554 15 13 11
15.206311 -5.154447 45.186798 15 13 12
15.230381 -5.065044 45.258324 15 12 12
15.255125 -4.975553 45.331852 16 13 12
15.280452 -4.885931 45.407112 16 13 12
15.306281 -4.796142 45.483868 16 14 13
15.332542 -4.706154 45.561905 17 15 13
15.359178 -4.615943 45.641052 17 16 13
15.386138 -4.525486 45.721169 17 16 14
15.413384 -4.434766 45.802132 17 16 14
15.440892 -4.343771 45.883877 17 15 14
15.468642 -4.252489 45.966335 17 15 14
15.496630 -4.160916 46.049503 16 14 13
15.524861 -4.069048 46.133396 15 14 12
15.553351 -3.976885 46.218056 14 13 12
15.582130 -3.884429 46.303574 15 14 12
15.611235 -3.791683 46.390060 15 14 12
15.640717 -3.698653 46.477669 15 14 12
15.670634 -3.605346 46.566570 15 14 12
15.701056 -3.511768 46.656971 15 13 11
15.732048 -3.417925 46.749069 15 13 11
15.763687 -3.323821 46.843086 15 13 11
15.796041 -3.229458 46.939228 15 13 11
15.829170 -3.134834 47.037674 15 13 11
15.863125 -3.039943 47.138573 15 13 10
15.897935 -2.944776 47.242016 15 13 10
15.933616 -2.849319 47.348042 15 13 10
15.970153 -2.753552 47.456615 14 12 10
16.007507 -2.657453 47.567616 14 12 10
16.045614 -2.560996 47.680855 14 12 10
16.084383 -2.464151 47.796062 14 12 10
16.123705 -2.366891 47.912907 14 12 10
16.163441 -2.269186 48.030987 14 13 10
16.203449 -2.171008 48.149876 14 13 10
16.243574 -2.072331 48.269108 14 13 10
16.283655 -1.973136 48.388210 14 13 10
16.323534 -1.873405 48.506714 13 13 10
16.363068 -1.773124 48.624191 13 12 10
16.402121 -1.672289 48.740242 13 11 10
16.440578 -1.570896 48.854527 13 10 10
16.478350 -1.468949 48.966766 13 10 10
16.515362 -1.366455 49.076748 14 11 11
16.551561 -1.263426 49.184319 14 11 11
16.586931 -1.159874 49.289425 14 11 12
16.621462 -1.055816 49.392033 14 11 12
16.655172 -0.951269 49.492207 14 12 13
16.688099 -0.846250 49.590050 13 11 12
16.720293 -0.740777 49.685719 13 11 12
16.751822 -0.634866 49.779408 13 11 12
16.782766 -0.528533 49.871361 14 12 11
16.813215 -0.421791 49.961845 14 12 11
16.843275 -0.314652 50.051170 14 12 11
16.873051 -0.207124 50.139648 14 11 11
16.902657 -0.099214 50.227627 13 11 10
16.932217 0.009076 50.315468 12 11 10
16.961853 0.117745 50.403534 11 10 10
16.991692 0.226796 50.492203 12 11 10
17.021851 0.336236 50.581821 13 12 11
17.052446 0.446074 50.672737 14 13 12
17.083580 0.556321 50.765259 14 13 12
17.115349 0.666992 50.859657 14 12 11
17.147821 0.778102 50.956158 14 12 11
17.181055 0.889667 51.054913 14 12 10
17.215082 1.001704 51.156029 14 12 11
17.249918 1.114229 51.259541 14 12 11
17.285547 1.227257 51.365417 13 12 11
17.321945 1.340801 51.473576 13 12 11
17.359062 1.454872 51.583874 12 11 10
17.396835 1.569477 51.696121 12 11 10
17.435198 1.684623 51.810116 12 11 10
17.474068 1.800313 51.925625 13 10 10
17.513374 1.916548 52.042427 14 11 10
17.553041 2.033329 52.160301 14 10 10
17.593006 2.150655 52.279057 14 11 10
17.633209 2.268523 52.398525 15 12 11
17.673613 2.386933 52.518585 14 12 11
17.714180 2.505884 52.639133 14 12 11
17.754892 2.625377 52.760117 14 11 11
17.795734 2.745410 52.881481 13 10 11
17.836700 2.865988 53.003216 13 10 10
17.877781 2.987109 53.125290 12 10 10
17.918972 3.108775 53.247692 11 11 10
17.960260 3.230987 53.370380 12 11 11
18.001617 3.353740 53.493279 12 12 11
18.043011 3.477031 53.616283 12 12 12
18.084391 3.600849 53.739246 13 13 13
18.125692 3.725181 53.861977 13 13 13
18.166828 3.850006 53.984215 13 13 13
18.207699 3.975302 54.105667 13 13 13
18.248186 4.101034 54.225979 14 13 12
18.288166 4.227168 54.344780 14 13 12
18.327494 4.353659 54.461647 14 12 12
18.366016 4.480458 54.576118 14 10 11
18.403578 4.607510 54.687737 13 10 10
18.440020 4.734755 54.796024 11 9 9
18.475182 4.862130 54.900513 10 9 9
18.508904 4.989568 55.000725 10 9 9
18.541042 5.117001 55.096226 10 9 8
18.571461 5.244359 55.186611 10 9 8
15.072142 -7.091053 44.503029 15 14 11
15.069374 -6.993835 44.494858 14 14 10
15.067496 -6.897060 44.489311 15 14 11
15.066617 -6.800759 44.486713 15 14 11
15.066847 -6.704963 44.487392 16 14 12
15.068299 -6.609700 44.491684 17 15 13
15.071077 -6.514992 44.499886 18 15 14
15.075279 -6.420855 44.512291 18 15 13
15.080987 -6.327296 44.529144 18 15 13
15.088271 -6.234316 44.550655 18 15 13
15.097180 -6.141904 44.576958 17 15 13
15.107742 -6.050042 44.608147 17 15 13
15.119960 -5.958696 44.644218 17 15 13
15.133815 -5.867830 44.685127 17 15 13
15.149262 -5.777395 44.730740 18 15 13
15.166243 -5.687338 44.780876 17 15 12
15.184670 -5.597599 44.835289 17 15 12
15.204453 -5.508116 44.893700 17 14 12
15.225476 -5.418823 44.955776 17 14 11
15.247627 -5.329656 45.021179 16 13 11
15.270784 -5.240552 45.089554 16 13 11
15.294831 -5.151453 45.160557 16 13 11
15.319649 -5.062304 45.233833 15 12 11
15.345132 -4.973053 45.309074 15 12 11
15.371179 -4.883657 45.385983 15 13 12
15.397703 -4.794079 45.464302 16 14 13
15.424630 -4.704286 45.543808 16 15 14
15.451889 -4.614249 45.624298 17 16 14
15.479434 -4.523948 45.705627 17 16 14
15.507221 -4.433366 45.787674 17 16 14
15.535220 -4.342490 45.870346 17 15 14
15.563416 -4.251311 45.953598 17 15 14
15.591804 -4.159824 46.037418 16 14 13
15.620390 -4.068027 46.121822 15 14 12
15.649192 -3.975922 46.206867 14 13 12
15.678241 -3.883511 46.292637 15 14 12
15.707578 -3.790800 46.379257 15 14 13
15.737251 -3.697794 46.466877 15 14 13
15.767323 -3.604502 46.555668 15 13 12
15.797857 -3.510930 46.645824 15 13 11
15.828926 -3.417084 46.737560 15 13 11
15.860600 -3.322969 46.831081 15 13 10
15.892945 -3.228588 46.926590 15 13 10
15.926022 -3.133939 47.024250 15 13 10
15.959874 -3.039017 47.124207 15 13 10
15.994534 -2.943812 47.226543 15 13 10
16.030008 -2.848311 47.331291 15 14 10
16.066286 -2.752496 47.438408 15 13 10
16.103327 -2.656344 47.547771 15 13 10
16.141064 -2.559832 47.659203 15 13 10
16.179413 -2.462933 47.772430 15 12 10
16.218262 -2.365618 47.887138 15 12 10
16.257481 -2.267861 48.002941 14 13 10
16.296930 -2.169634 48.119419 14 13 10
16.336458 -2.070916 48.236137 14 13 11
16.375917 -1.971686 48.352642 13 13 10
16.415154 -1.871928 48.468494 13 12 10
16.454027 -1.771632 48.583275 12 12 10
16.492416 -1.670792 48.696625 12 11 10
16.530207 -1.569406 48.808208 13 10 10
16.567310 -1.467479 48.917763 13 10 10
16.603659 -1.365017 49.025089 13 11 11
16.639208 -1.262032 49.130051 14 11 12
16.673929 -1.158537 49.232578 14 11 12
16.707821 -1.054547 49.332642 14 11 12
16.740898 -0.950079 49.430309 14 11 12
16.773188 -0.845151 49.525654 13 11 12
16.804747 -0.739780 49.618832 13 11 12
16.835630 -0.633981 49.710026 13 11 12
16.865913 -0.527771 49.799442 13 11 11
16.895687 -0.421162 49.887356 13 11 11
16.925045 -0.314167 49.974037 13 11 10
16.954092 -0.206794 50.059803 13 12 11
16.982943 -0.099050 50.144989 13 12 11
17.011713 0.009061 50.229939 12 11 11
17.040527 0.117538 50.315018 12 11 10
17.069513 0.226385 50.400600 12 11 10
17.098787 0.335606 50.487041 13 12 11
17.128471 0.445211 50.574684 13 12 11
17.158674 0.555210 50.663868 14 12 11
17.189489 0.665617 50.754848 14 12 11
17.220997 0.776448 50.847881 14 13 11
17.253258 0.887719 50.943142 14 12 11
17.286314 0.999447 51.040745 13 12 11
17.320181 1.111647 51.140743 13 12 11
17.354858 1.224336 51.243130 13 12 11
17.390324 1.337526 51.347847 12 12 11
17.426538 1.451231 51.454781 12 11 10
17.463442 1.565458 51.563744 13 11 11
17.500977 1.680216 51.674572 13 11 10
17.539072 1.795509 51.787052 13 10 10
17.577658 1.911340 51.900986 14 10 10
17.616667 2.027711 52.016167 14 10 10
17.656040 2.144623 52.132420 14 11 10
17.695734 2.262077 52.249626 14 11 10
17.735708 2.380074 52.367657 14 11 11
17.775932 2.498615 52.486423 14 11 11
17.816397 2.617703 52.605900 13 11 11
17.857082 2.737340 52.726032 13 10 10
17.897991 2.857531 52.846825 12 9 10
17.939116 2.978279 52.968246 12 10 10
17.980442 3.099585 53.090275 11 11 10
18.021963 3.221451 53.212872 12 12 11
18.063644 3.343876 53.335941 12 12 12
18.105448 3.466855 53.459373 12 12 12
18.147312 3.590378 53.582985 12 12 12
18.189167 3.714432 53.706566 13 13 12
18.230911 3.838996 53.829826 13 13 12
18.272438 3.964043 53.952438 13 13 12
18.313618 4.089542 54.074028 14 13 12
18.354305 4.215453 54.194168 14 12 12
18.394348 4.341729 54.312401 14 11 12
18.433582 4.468318 54.428246 14 10 11
18.471836 4.595163 54.541195 13 9 10
18.508938 4.722202 54.650749 12 9 9
18.544718 4.849366 54.756390 10 9 9
18.579004 4.976587 54.857624 10 9 8
15.153205 -6.988262 44.459400 14 13 11
15.151064 -6.891449 44.453117 14 13 11
15.149941 -6.795119 44.449821 15 13 12
15.149957 -6.699307 44.449867 16 14 13
15.151235 -6.604045 44.453617 17 15 13
15.153889 -6.509359 44.461407 17 15 13
15.158028 -6.415267 44.473549 18 15 13
15.163744 -6.321779 44.490318 17 15 14
15.171112 -6.228899 44.511936 17 15 14
15.180184 -6.136613 44.538555 17 15 14
15.190991 -6.044904 44.570263 17 15 14
15.203539 -5.953739 44.607079 17 15 14
15.217805 -5.863078 44.648937 17 15 13
15.233743 -5.772869 44.695698 17 15 12
15.251286 -5.683057 44.747166 17 14 12
15.270342 -5.593578 44.803078 17 14 12
15.290806 -5.504364 44.863117 17 14 11
15.312557 -5.415347 44.926937 17 13 11
15.335469 -5.326458 44.994160 17 13 11
15.359411 -5.237629 45.064407 16 13 11
15.384253 -5.148799 45.137291 16 13 11
15.409863 -5.059908 45.212433 15 12 11
15.436130 -4.970904 45.289497 15 12 11
15.462938 -4.881739 45.368153 15 13 12
15.490196 -4.792373 45.448128 16 14 14
15.517815 -4.702773 45.529160 16 15 14
15.545726 -4.612909 45.611050 16 15 14
15.573872 -4.522761 45.693630 16 16 14
15.602210 -4.432311 45.776775 17 16 15
15.630709 -4.341547 45.860390 17 15 15
15.659352 -4.250463 45.944431 17 15 14
15.688136 -4.159053 46.028885 16 15 13
15.717068 -4.067317 46.113770 15 14 12
15.746166 -3.975258 46.199142 15 14 13
15.775465 -3.882879 46.285107 15 13 13
15.805006 -3.790188 46.371777 15 14 13
15.834839 -3.697192 46.459309 15 14 13
15.865028 -3.603899 46.547882 15 13 12
15.895636 -3.510317 46.637684 15 13 11
15.926734 -3.416453 46.728928 15 13 10
15.958391 -3.322311 46.821808 15 14 10
15.990669 -3.227895 46.916515 14 13 9
16.023628 -3.133204 47.013218 14 13 9
16.057312 -3.038232 47.112041 15 13 9
16.091747 -2.942972 47.213074 15 13 10
16.126940 -2.847410 47.316326 15 13 10
16.162874 -2.751530 47.421764 15 13 10
16.199514 -2.655310 47.529263 15 13 10
16.236794 -2.558728 47.638641 15 13 10
16.274628 -2.461758 47.749645 15 13 10
16.312912 -2.364375 47.861973 15 13 10
16.351519 -2.266552 47.975246 14 12 10
16.390316 -2.168266 48.089073 14 12 10
16.429161 -2.069495 48.203045 14 12 10
16.467909 -1.970222 48.316730 13 12 10
16.506418 -1.870431 48.429714 12 12 9
16.544558 -1.770113 48.541615 12 11 9
16.582207 -1.669264 48.652081 12 11 9
16.619265 -1.567882 48.760807 12 10 10
16.655645 -1.465973 48.867546 13 10 10
16.691284 -1.363542 48.972115 13 11 11
16.726141 -1.260602 49.074379 14 11 11
16.760187 -1.157164 49.174271 14 10 12
16.793419 -1.053246 49.271774 14 11 12
16.825848 -0.948861 49.366920 13 11 11
16.857502 -0.844027 49.459793 13 11 11
16.888426 -0.738761 49.550526 13 11 11
16.918676 -0.633079 49.639278 13 11 11
16.948322 -0.526995 49.726261 13 11 11
16.977444 -0.420524 49.811703 13 11 11
17.006134 -0.313676 49.895878 13 11 10
17.034492 -0.206461 49.979084 13 11 11
17.062632 -0.098886 50.061642 13 11 11
17.090662 0.009045 50.143887 12 11 11
17.118715 0.117331 50.226189 12 11 10
17.146908 0.225973 50.308910 12 11 10
17.175369 0.334977 50.392414 13 12 10
17.204220 0.444351 50.477058 13 12 11
17.233570 0.554107 50.563171 14 12 11
17.263521 0.664256 50.651051 14 12 11
17.294163 0.774816 50.740952 14 12 11
17.325554 0.885801 50.833057 14 12 11
17.357750 0.997230 50.927521 13 12 11
17.390770 1.109118 51.024399 13 11 11
17.424620 1.221482 51.123714 12 12 12
17.459286 1.334337 51.225426 12 11 11
17.494734 1.447695 51.329426 12 11 10
17.530914 1.561567 51.435581 12 11 10
17.567768 1.675961 51.543709 12 11 10
17.605236 1.790883 51.653641 12 10 9
17.643251 1.906338 51.765179 13 10 9
17.681753 2.022330 51.878139 13 10 9
17.720690 2.138861 51.992382 13 10 9
17.760017 2.255935 52.107765 13 10 10
17.799700 2.373554 52.224197 13 11 10
17.839714 2.491720 52.341599 13 11 10
17.880049 2.610440 52.459938 13 10 10
17.920691 2.729717 52.579185 12 9 9
17.961637 2.849555 52.699322 12 10 9
18.002884 2.969962 52.820335 11 10 10
18.044415 3.090939 52.942188 11 11 10
18.086216 3.212489 53.064831 12 12 11
18.128250 3.334611 53.188160 12 12 12
18.170473 3.457300 53.312038 12 12 12
18.212814 3.580547 53.436268 12 12 12
18.255194 3.704338 53.560612 13 13 12
18.297506 3.828650 53.684753 13 13 12
18.339624 3.953455 53.808331 13 12 12
18.381413 4.078721 53.930939 13 12 12
18.422716 4.204404 54.052120 14 11 12
18.463366 4.330456 54.171387 14 11 12
18.503183 4.456822 54.288208 14 10 11
18.541992 4.583442 54.402077 14 9 11
18.579605 4.710250 54.512432 12 9 10
15.234907 -6.886033 44.418179 15 13 13
15.233532 -6.789670 44.414173 15 13 13
15.233331 -6.693839 44.413586 16 14 14
15.234435 -6.598577 44.416805 17 14 14
15.236975 -6.503912 44.424206 17 14 14
15.241064 -6.409869 44.436131 17 14 14
15.246803 -6.316457 44.452866 17 15 14
15.254277 -6.223681 44.474655 17 15 14
15.263540 -6.131530 44.501663 17 15 14
15.274628 -6.039984 44.533989 17 15 14
15.287543 -5.949009 44.571644 17 15 14
15.302262 -5.858563 44.614555 17 14 13
15.318731 -5.768591 44.662575 17 14 12
15.336881 -5.679034 44.715488 17 14 12
15.356608 -5.589823 44.773006 17 14 11
15.377800 -5.500889 44.834793 17 14 11
15.400323 -5.412155 44.900459 17 14 11
15.424040 -5.323551 44.969608 17 13 11
15.448805 -5.235003 45.041813 16 13 11
15.474478 -5.146447 45.116661 16 13 11
15.500917 -5.057817 45.193748 16 13 11
15.527996 -4.969060 45.272697 16 13 11
15.555592 -4.880125 45.353153 16 14 12
15.583601 -4.790970 45.434814 16 14 13
15.611929 -4.701559 45.517406 16 15 14
15.640501 -4.611864 45.600712 16 15 14
15.669256 -4.521862 45.684547 16 16 14
15.698147 -4.431537 45.768780 16 16 15
15.727143 -4.340878 45.853321 16 15 14
15.756225 -4.249878 45.938110 16 15 14
15.785390 -4.158535 46.023144 16 15 13
15.814651 -4.066848 46.108452 15 14 12
15.844024 -3.974823 46.194092 15 14 13
15.873546 -3.882465 46.280163 15 13 13
15.903259 -3.789781 46.366795 15 13 13
15.933220 -3.696781 46.454147 15 13 12
15.963485 -3.603474 46.542389 15 13 11
15.994123 -3.509867 46.631714 15 13 10
16.025202 -3.415970 46.722324 15 13 10
16.056787 -3.321787 46.814419 14 13 9
16.088943 -3.227321 46.908173 14 13 9
16.121727 -3.132573 47.003750 14 13 9
16.155172 -3.037537 47.101261 15 13 9
16.189310 -2.942207 47.200794 14 12 10
16.224146 -2.846570 47.302357 15 13 10
16.259661 -2.750610 47.405907 15 13 10
16.295818 -2.654308 47.511326 15 13 10
16.332558 -2.557643 47.618439 15 13 10
16.369793 -2.460591 47.727001 15 13 10
16.407427 -2.363128 47.836723 15 13 10
16.445337 -2.265230 47.947254 14 13 10
16.483400 -2.166875 48.058228 14 13 10
16.521477 -2.068044 48.169243 14 13 9
16.559437 -1.968721 48.279919 13 12 9
16.597147 -1.868891 48.389862 12 12 8
16.634481 -1.768549 48.498714 13 12 8
16.671333 -1.667688 48.606155 12 11 8
16.707605 -1.566310 48.711910 12 10 9
16.743217 -1.464418 48.815739 12 10 10
16.778112 -1.362021 48.917477 13 11 11
16.812248 -1.259128 49.017002 13 11 11
16.845598 -1.155752 49.114239 13 10 11
16.878160 -1.051907 49.209175 13 10 11
16.909941 -0.947610 49.301834 13 10 11
16.940968 -0.842875 49.392288 13 10 11
16.971273 -0.737720 49.480652 13 10 11
17.000916 -0.632158 49.567074 13 11 11
17.029953 -0.526206 49.651733 13 11 11
17.058464 -0.419875 49.734859 13 11 11
17.086533 -0.313178 49.816696 13 11 10
17.114256 -0.206124 49.897522 13 11 11
17.141741 -0.098720 49.977654 13 11 11
17.169100 0.009030 50.057423 13 11 11
17.196459 0.117123 50.137188 13 10 10
17.223938 0.225562 50.217308 12 11 10
17.251669 0.334351 50.298157 13 12 10
17.279774 0.443498 50.380096 14 12 10
17.308369 0.553014 50.463470 14 12 11
17.337563 0.662912 50.548580 14 12 11
17.367441 0.773208 50.635696 14 12 11
17.398081 0.883919 50.725029 14 12 11
17.429539 0.995061 50.816746 13 12 10
17.461840 1.106651 50.910919 12 11 11
17.494999 1.218708 51.007599 12 11 11
17.529005 1.331246 51.106747 11 11 11
17.563835 1.444279 51.208294 11 11 11
17.599438 1.557818 51.312096 11 11 10
17.635767 1.671874 51.418015 12 10 9
17.672762 1.786453 51.525875 12 10 9
17.710363 1.901563 51.635502 13 10 10
17.748512 2.017208 51.746731 13 10 10
17.787161 2.133392 51.859413 13 10 10
17.826269 2.250119 51.973431 13 9 9
17.865801 2.367395 52.088692 13 10 9
17.905735 2.485223 52.205124 12 10 9
17.946060 2.603610 52.322693 12 10 9
17.986769 2.722562 52.441376 12 9 9
18.027847 2.842084 52.561146 12 10 9
18.069294 2.962183 52.681988 11 10 10
18.111092 3.082862 52.803852 11 11 10
18.153219 3.204125 52.926678 12 12 11
18.195635 3.325970 53.050339 12 12 12
18.238285 3.448393 53.174690 12 12 12
18.281096 3.571383 53.299503 12 12 12
18.323975 3.694925 53.424519 12 12 12
18.366806 3.818996 53.549397 12 11 11
18.409454 3.943567 53.673744 12 11 11
18.451771 4.068600 53.797119 13 11 11
18.493591 4.194053 53.919048 14 11 11
18.534737 4.319873 54.039005 14 10 11
18.575016 4.446005 54.156445 14 10 11
18.614243 4.572383 54.270813 14 9 11
15.316916 -6.688530 44.378365 16 14 14
15.317855 -6.593270 44.381084 17 14 14
15.320290 -6.498632 44.388142 17 14 14
15.324347 -6.404642 44.399895 17 14 14
15.330133 -6.311313 44.416664 17 15 14
15.337740 -6.218650 44.438702 17 15 14
15.347225 -6.126641 44.466183 17 14 14
15.358625 -6.035267 44.499214 17 15 14
15.371944 -5.944492 44.537800 17 15 14
15.387153 -5.854270 44.581867 17 14 13
15.404195 -5.764544 44.631241 17 14 12
15.422989 -5.675250 44.685696 17 14 11
15.443426 -5.586316 44.744911 17 14 11
15.465382 -5.497665 44.808521 17 14 11
15.488709 -5.409220 44.876110 17 14 10
15.513260 -5.320903 44.947243 16 13 10
15.538877 -5.232638 45.021461 16 13 11
15.565404 -5.144354 45.098320 16 13 11
15.592690 -5.055985 45.177380 16 13 11
15.620593 -4.967471 45.258224 16 14 11
15.648985 -4.878761 45.340485 16 14 12
15.677751 -4.789811 45.423828 16 15 13
15.706789 -4.700583 45.507961 15 15 14
15.736017 -4.611048 45.592648 16 16 14
15.765371 -4.521183 45.677696 15 15 14
15.794805 -4.430974 45.762974 15 15 14
15.824278 -4.340409 45.848370 15 15 13
15.853781 -4.249484 45.933846 16 15 13
15.883306 -4.158195 46.019390 15 15 13
15.912865 -4.066547 46.105034 15 14 12
15.942482 -3.974544 46.190845 15 14 12
15.972196 -3.882194 46.276936 14 13 12
16.002047 -3.789506 46.363426 14 13 12
16.032093 -3.696490 46.450481 14 13 12
16.062393 -3.603155 46.538269 14 13 11
16.093012 -3.509511 46.626984 14 13 10
16.124022 -3.415568 46.716827 14 13 9
16.155485 -3.321331 46.807991 14 14 10
16.187464 -3.226803 46.900642 14 13 9
16.220007 -3.131985 46.994930 14 13 9
16.253153 -3.036873 47.090965 14 13 9
16.286928 -2.941461 47.188824 14 12 10
16.321339 -2.845737 47.288521 15 13 10
16.356361 -2.749687 47.389996 15 13 10
16.391964 -2.653293 47.493149 15 13 10
16.428085 -2.556535 47.597805 15 13 10
16.464647 -2.459391 47.703735 15 13 10
16.501551 -2.361840 47.810661 14 13 10
16.538691 -2.263860 47.918266 14 13 10
16.575945 -2.165431 48.026203 14 13 10
16.613188 -2.066536 48.134109 14 13 9
16.650293 -1.967159 48.241619 13 12 8
16.687143 -1.867290 48.348385 13 12 8
16.723621 -1.766921 48.454071 13 12 8
16.759624 -1.666049 48.558388 12 11 8
16.795069 -1.564676 48.661083 12 10 8
16.829882 -1.462805 48.761944 12 11 9
16.864008 -1.360443 48.860821 13 11 11
16.897408 -1.257602 48.957592 13 11 12
16.930059 -1.154292 49.052197 13 11 12
16.961952 -1.050527 49.144600 13 10 11
16.993097 -0.946322 49.234840 12 10 11
17.023514 -0.841692 49.322964 13 10 10
17.053232 -0.736652 49.409069 13 10 10
17.082300 -0.631217 49.493286 13 10 10
17.110773 -0.525401 49.575787 13 11 10
17.138721 -0.419216 49.656761 13 11 10
17.166227 -0.312673 49.736454 13 11 10
17.193377 -0.205783 49.815117 13 10 10
17.220278 -0.098553 49.893059 12 10 10
17.247042 0.009014 49.970604 13 11 10
17.273788 0.116915 50.048100 13 10 10
17.300644 0.225151 50.125908 12 11 10
17.327740 0.333727 50.204411 13 11 10
17.355200 0.442652 50.283974 13 12 10
17.383146 0.551934 50.364944 14 12 10
17.411690 0.661589 50.447643 14 12 10
17.440931 0.771630 50.532364 14 12 10
17.470945 0.882077 50.619328 13 13 11
17.501793 0.992945 50.708706 13 12 10
17.533514 1.104254 50.800610 12 12 10
17.566122 1.216020 50.895088 12 11 11
17.599619 1.328261 50.992138 11 11 11
17.633978 1.440990 51.091690 11 11 11
17.669161 1.554221 51.193626 11 10 10
17.705118 1.667965 51.297810 12 10 9
17.741800 1.782231 51.404087 12 10 9
17.779144 1.897025 51.512283 12 10 10
17.817095 2.012355 51.622242 12 10 10
17.855608 2.128225 51.733826 12 10 10
17.894640 2.244642 51.846916 12 9 9
17.934158 2.361610 51.961418 12 9 9
17.974144 2.479137 52.077267 12 10 9
18.014580 2.597228 52.194424 12 10 9
18.055454 2.715889 52.312851 12 9 9
18.096762 2.835130 52.432529 11 10 9
18.138487 2.954954 52.553421 11 10 9
18.180613 3.075367 52.675480 11 11 10
18.223112 3.196373 52.798611 11 11 11
18.265934 3.317967 52.922684 11 11 11
18.309021 3.440146 53.047523 12 11 11
18.352291 3.562899 53.172894 11 11 11
18.395641 3.686209 53.298489 12 11 11
18.438948 3.810051 53.423962 12 11 10
18.482063 3.934393 53.548885 12 10 10
18.524832 4.059198 53.672802 13 10 10
18.567076 4.184419 53.795197 13 10 10
18.608608 4.310003 53.915527 13 10 11
15.403787 -6.493494 44.353046 16 13 13
15.407835 -6.399565 44.364700 16 14 14
15.413697 -6.306328 44.381580 17 14 14
15.421467 -6.213787 44.403950 17 14 14
15.431209 -6.121932 44.432003 17 14 13
15.442959 -6.030741 44.465836 17 14 13
15.456718 -5.940175 44.505455 17 14 13
15.472453 -5.850185 44.550758 17 14 13
15.490102 -5.760713 44.601578 17 14 12
15.509573 -5.671687 44.657642 17 14 11
15.530751 -5.583034 44.718620 16 13 10
15.553496 -5.494670 44.784111 15 13 10
15.577649 -5.406514 44.853657 15 13 10
15.603050 -5.318483 44.926796 15 13 10
15.629530 -5.230497 45.003040 15 13 10
15.656918 -5.142481 45.081898 15 13 10
15.685049 -5.054365 45.162899 16 13 11
15.713775 -4.966087 45.245609 16 14 11
15.742953 -4.877593 45.329624 17 15 12
15.772461 -4.788837 45.414589 16 15 13
15.802189 -4.699780 45.500187 16 15 13
15.832053 -4.610394 45.586178 15 15 13
15.861983 -4.520655 45.672356 15 15 13
15.891928 -4.430549 45.758575 15 15 13
15.921851 -4.340066 45.844738 15 15 12
15.951739 -4.249201 45.930798 15 15 12
15.981586 -4.157956 46.016739 15 15 12
16.011412 -4.066333 46.102615 15 14 12
16.041235 -3.974341 46.188484 14 13 12
16.071096 -3.881987 46.274467 14 13 11
16.101042 -3.789282 46.360695 13 13 11
16.131128 -3.696238 46.447323 13 13 11
16.161417 -3.602866 46.534534 13 12 10
16.191971 -3.509175 46.622509 13 12 9
16.222858 -3.415175 46.711449 13 13 10
16.254147 -3.320873 46.801537 14 13 9
16.285889 -3.226273 46.892933 14 13 10
16.318136 -3.131375 46.985783 14 13 10
16.350924 -3.036178 47.080193 14 13 11
16.384274 -2.940675 47.176220 15 12 11
16.418190 -2.844856 47.273880 15 12 11
16.452658 -2.748708 47.373123 15 13 11
16.487638 -2.652214 47.473843 15 13 10
16.523077 -2.555357 47.575886 14 13 10
16.558897 -2.458117 47.679024 14 13 10
16.595011 -2.360474 47.783009 14 13 10
16.631315 -2.262409 47.887543 14 13 10
16.667702 -2.163903 47.992310 14 13 10
16.704052 -2.064942 48.096977 14 13 9
16.740253 -1.965511 48.201214 14 12 8
16.776197 -1.865603 48.304707 13 12 8
16.811775 -1.765210 48.407150 12 11 7
16.846903 -1.664330 48.508293 12 11 8
16.881495 -1.562966 48.607895 12 11 8
16.915489 -1.461120 48.705776 12 11 9
16.948833 -1.358800 48.801792 13 12 10
16.981495 -1.256015 48.895836 13 12 12
17.013454 -1.152778 48.987858 13 11 12
17.044695 -1.049099 49.077812 13 11 11
17.075228 -0.944994 49.165722 12 10 10
17.105062 -0.840475 49.251629 12 9 9
17.134232 -0.735557 49.335621 12 9 7
17.162771 -0.630254 49.417793 12 10 8
17.190735 -0.524580 49.498310 13 10 9
17.218182 -0.418545 49.577339 13 10 10
17.245188 -0.312162 49.655098 13 10 10
17.271841 -0.205439 49.731842 12 10 10
17.298235 -0.098384 49.807846 12 10 9
17.324488 0.008998 49.883434 12 10 9
17.350716 0.116706 49.958954 12 10 9
17.377043 0.224742 50.034756 12 10 10
17.403603 0.333108 50.111233 13 11 10
17.430527 0.441813 50.188759 13 11 10
17.457939 0.550868 50.267689 13 11 10
17.485956 0.660287 50.348358 13 12 10
17.514679 0.770084 50.431065 13 12 10
17.544199 0.880277 50.516060 13 12 10
17.574577 0.990886 50.603535 12 12 10
17.605858 1.101927 50.693600 12 12 11
17.638065 1.213422 50.786339 12 12 11
17.671200 1.325385 50.881744 12 11 11
17.705244 1.437833 50.979767 12 10 10
17.740162 1.550781 51.080311 11 10 10
17.775909 1.664240 51.183239 12 10 9
17.812431 1.778220 51.288399 12 10 9
17.849672 1.892729 51.395630 12 10 10
17.887581 2.007776 51.504780 12 10 10
17.926104 2.123366 51.615704 12 10 10
17.965202 2.239506 51.728279 12 9 9
18.004847 2.356202 51.842430 11 9 8
18.045006 2.473462 51.958065 11 9 8
18.085667 2.591292 52.075142 11 9 8
18.126816 2.709700 52.193623 11 9 8
18.168440 2.828692 52.313477 11 9 8
18.210520 2.948275 52.434639 10 10 8
18.253033 3.068453 52.557053 10 10 9
18.295946 3.189229 52.680614 10 10 10
18.339205 3.310600 52.805168 11 11 10
18.382740 3.432559 52.930523 11 11 10
18.426460 3.555094 53.056412 11 10 10
18.470257 3.678188 53.182514 11 10 10
18.513994 3.801813 53.308453 12 10 10
18.557522 3.925936 53.433781 12 10 10
18.600666 4.050517 53.558014 12 10 10
15.497474 -6.301492 44.347542 16 13 13
15.505445 -6.209085 44.370350 17 14 13
15.515480 -6.117394 44.399067 16 13 13
15.527617 -6.026396 44.433800 16 14 13
15.541853 -5.936049 44.474537 16 14 13
15.558150 -5.846301 44.521172 16 14 12
15.576437 -5.757087 44.573502 16 14 12
15.596613 -5.668334 44.631237 16 14 11
15.618551 -5.579962 44.694016 16 13 10
15.642099 -5.491884 44.761402 15 13 10
15.667088 -5.404013 44.832909 15 13 10
15.693340 -5.316261 44.908031 15 13 10
15.720675 -5.228546 44.986256 15 13 10
15.748910 -5.140787 45.067051 15 13 10
15.777871 -5.052913 45.149925 16 13 11
15.807393 -4.964857 45.234406 16 14 12
15.837327 -4.876564 45.320065 16 14 12
15.867543 -4.787987 45.406532 16 15 12
15.897925 -4.699086 45.493473 16 15 13
15.928384 -4.609833 45.580635 15 15 13
15.958846 -4.520204 45.667801 15 16 13
15.989257 -4.430186 45.754829 15 16 12
16.019585 -4.339770 45.841610 15 16 12
16.049809 -4.248952 45.928104 15 16 12
16.079935 -4.157736 46.014309 14 15 11
16.109974 -4.066126 46.100269 14 14 11
16.139952 -3.974132 46.186058 13 13 11
16.169914 -3.881763 46.271793 13 12 10
16.199905 -3.789031 46.357620 12 12 10
16.229982 -3.695949 46.443684 12 12 10
16.260206 -3.602528 46.530174 12 12 9
16.290644 -3.508780 46.617271 12 12 9
16.321360 -3.414716 46.705170 13 13 10
16.352417 -3.320341 46.794044 14 13 10
16.383869 -3.225661 46.884045 14 13 10
16.415764 -3.130678 46.975319 15 13 11
16.448137 -3.035389 47.067955 15 13 12
16.481007 -2.939790 47.162014 15 13 12
16.514374 -2.843870 47.257500 16 13 12
16.548227 -2.747620 47.354374 15 12 11
16.582529 -2.651024 47.452538 14 12 10
16.617229 -2.554065 47.551830 14 12 10
16.652254 -2.456727 47.652058 14 12 10
16.687527 -2.358991 47.752991 14 13 10
16.722948 -2.260841 47.854359 15 13 10
16.758421 -2.162260 47.955864 15 13 9
16.793839 -2.063234 48.057217 15 13 9
16.829100 -1.963754 48.158119 14 12 9
16.864105 -1.863810 48.258289 13 12 8
16.898762 -1.763398 48.357464 13 11 7
16.932989 -1.662516 48.455410 12 11 7
16.966719 -1.561166 48.551929 12 11 8
16.999891 -1.459352 48.646858 12 11 9
17.032463 -1.357081 48.740063 13 12 11
17.064400 -1.254361 48.831451 13 12 12
17.095680 -1.151204 48.920967 13 11 12
17.126297 -1.047619 49.008575 13 11 12
17.156248 -0.943621 49.094288 12 10 10
17.185545 -0.839221 49.178123 12 9 8
17.214212 -0.734432 49.260159 12 9 7
17.242279 -0.629268 49.340473 13 9 8
17.269791 -0.523741 49.419201 13 10 9
17.296804 -0.417863 49.496502 13 10 9
17.323383 -0.311643 49.572563 13 10 10
17.349617 -0.205091 49.647629 12 10 9
17.375593 -0.098215 49.721966 12 11 9
17.401423 0.008982 49.795879 12 10 9
17.427225 0.116498 49.869713 12 10 9
17.453125 0.224333 49.943832 12 10 9
17.479259 0.332492 50.018616 13 11 10
17.505758 0.440983 50.094444 13 11 10
17.532755 0.549816 50.171696 13 11 10
17.560368 0.659006 50.250717 13 12 10
17.588707 0.768568 50.331810 13 12 10
17.617865 0.878520 50.415249 13 12 10
17.647911 0.988882 50.501228 12 12 10
17.678896 1.099673 50.589893 12 12 11
17.710848 1.210913 50.681328 12 12 11
17.743773 1.322619 50.775543 12 11 11
17.777655 1.434808 50.872505 12 10 10
17.812462 1.547496 50.972107 12 10 10
17.848150 1.660695 51.074234 12 10 10
17.884670 1.774418 51.178741 12 10 10
17.921965 1.888672 51.285461 12 10 10
17.959976 2.003466 51.394234 12 10 10
17.998657 2.118809 51.504921 12 10 9
18.037964 2.234705 51.617405 11 10 8
18.077862 2.351164 51.731575 11 9 8
18.118320 2.468192 51.847351 10 9 7
18.159321 2.585795 51.964676 10 9 7
18.200842 2.703982 52.083496 10 8 7
18.242870 2.822760 52.203762 10 9 7
18.285379 2.942133 52.325405 10 9 8
18.328342 3.062107 52.448349 11 10 9
18.371712 3.182681 52.572456 11 10 10
18.415434 3.303854 52.697567 11 10 10
18.459425 3.425616 52.823456 12 10 9
18.503593 3.547954 52.949848 12 10 9
18.547813 3.670848 53.076389 12 10 9
18.591948 3.794270 53.202679 11 10 10
15.600043 -6.113027 44.367367 16 13 12
15.612607 -6.022232 44.403099 15 14 12
15.627356 -5.932112 44.445045 16 14 12
