ply
format ascii 1.0
element vertex 1208
property float x
property float y
property float z
property uchar red
property uchar green
property uchar blue
end_header
-1.692522 2.637142 60.912918 127 77 100
-1.691084 2.766096 60.861134 122 71 96
-1.689671 2.894872 60.810284 121 68 94
-1.688267 3.023445 60.759781 122 70 95
-1.686858 3.151789 60.709045 124 71 96
-1.685426 3.279871 60.657520 125 70 95
-1.683958 3.407657 60.604687 124 70 93
-1.682442 3.535115 60.550117 123 69 90
-1.680867 3.662209 60.493443 122 68 86
-1.679226 3.788910 60.434391 121 66 81
-1.677514 3.915192 60.372787 120 65 78
-1.675730 4.041033 60.308578 119 64 74
-1.673874 4.166418 60.241776 118 63 72
-1.671950 4.291339 60.172512 118 62 71
-1.669962 4.415795 60.100979 117 62 69
-1.667919 4.539793 60.027466 116 61 68
-1.665831 4.663345 59.952301 115 61 67
-1.663707 4.786473 59.875885 113 61 66
-1.661561 4.909204 59.798634 113 61 65
-1.659404 5.031568 59.720997 112 60 64
-1.657248 5.153604 59.643425 111 60 64
-1.655107 5.275351 59.566372 111 59 63
-1.652992 5.396851 59.490261 111 58 63
-1.650915 5.518148 59.415493 111 56 63
-1.648885 5.639284 59.342422 111 55 63
-1.646911 5.760301 59.271374 111 54 63
-1.644999 5.881237 59.202587 111 53 63
-1.643156 6.002125 59.136253 110 54 64
-1.641385 6.122997 59.072517 110 54 65
-1.639689 6.243877 59.011459 110 54 65
-1.638068 6.364788 58.953125 109 55 64
-1.636523 6.485748 58.897526 109 55 63
-1.635054 6.606777 58.844669 108 55 62
-1.778158 -9.708492 69.377243 111 70 95
-1.778422 -9.560359 69.387558 111 73 100
-1.778582 -9.411629 69.393791 109 77 105
-1.778585 -9.262055 69.393913 109 81 109
-1.778380 -9.111414 69.385902 110 86 111
-1.777915 -8.959502 69.367790 108 87 106
-1.777147 -8.806161 69.337814 94 75 87
-1.776035 -8.651274 69.294411 73 53 57
-1.774547 -8.494775 69.236359 91 71 70
-1.772661 -8.336655 69.162773 164 147 144
-1.770365 -8.176960 69.073204 199 183 180
-1.767659 -8.015790 68.967613 145 120 118
-1.764552 -7.853293 68.846413 92 58 61
-1.761067 -7.689663 68.710411 104 65 74
-1.757232 -7.525127 68.560814 125 82 98
-1.753089 -7.359938 68.399155 130 85 106
-1.748683 -7.194366 68.227249 135 88 112
-1.744065 -7.028681 68.047089 135 89 111
-1.739291 -6.863155 67.860802 132 88 104
-1.734414 -6.698038 67.670540 130 89 97
-1.729491 -6.533563 67.478439 129 91 88
-1.724571 -6.369931 67.286499 125 90 74
-1.719703 -6.207312 67.096550 111 79 54
-1.714927 -6.045836 66.910210 104 74 43
-1.710277 -5.885600 66.728798 147 123 94
-1.705781 -5.726661 66.553375 206 186 162
-1.701458 -5.569043 66.384689 188 160 142
-1.697317 -5.412736 66.223152 130 94 83
-1.693365 -5.257709 66.068924 127 87 85
-1.689596 -5.103902 65.921890 147 106 112
-1.686003 -4.951245 65.781700 140 99 113
-1.682571 -4.799653 65.647804 131 88 110
-1.679284 -4.649037 65.519539 131 89 115
-1.676121 -4.499309 65.396141 136 93 122
-1.673062 -4.350383 65.276794 153 111 139
-1.670086 -4.202180 65.160683 188 149 173
-1.667173 -4.054631 65.047028 207 170 190
-1.664304 -3.907677 64.935112 187 148 164
-1.661465 -3.761270 64.824318 157 119 132
-1.658641 -3.615375 64.714127 147 111 121
-1.655822 -3.469966 64.604156 141 108 115
-1.653002 -3.325029 64.494133 134 102 108
-1.650176 -3.180555 64.383881 145 112 120
-1.647343 -3.036543 64.273346 175 142 152
-1.644503 -2.892995 64.162544 199 165 176
-1.641659 -2.749918 64.051575 187 149 162
-1.638815 -2.607319 63.940598 152 110 124
-1.635975 -2.465206 63.829796 131 87 102
-1.633145 -2.323584 63.719387 127 85 99
-1.630332 -2.182460 63.609612 124 83 96
-1.627540 -2.041837 63.500710 116 78 90
-1.624777 -1.901717 63.392902 127 94 105
-1.622048 -1.762099 63.286430 175 148 158
-1.619359 -1.622979 63.181492 222 205 213
-1.616713 -1.484352 63.078266 225 212 218
-1.614115 -1.346209 62.976883 183 167 172
-1.611566 -1.208541 62.877453 159 139 145
-1.609069 -1.071336 62.779999 195 177 182
-1.606621 -0.934580 62.684525 227 212 216
-1.604223 -0.798260 62.590965 212 193 195
-1.601871 -0.662362 62.499199 196 174 175
-1.599561 -0.526874 62.409058 199 176 179
-1.597287 -0.391783 62.320324 174 149 155
-1.595043 -0.257080 62.232761 127 98 107
-1.592822 -0.122756 62.146126 109 79 91
-1.590619 0.011195 62.060169 123 92 106
-1.588428 0.144776 61.974697 145 113 126
-1.586246 0.277990 61.889553 167 134 146
-1.584070 0.410839 61.804649 174 139 148
-1.581900 0.543323 61.719982 160 123 132
-1.579738 0.675446 61.635635 144 105 115
-1.577589 0.807212 61.551777 132 94 104
-1.575459 0.938628 61.468662 130 91 104
-1.573356 1.069704 61.386627 133 94 110
-1.571290 1.200455 61.306034 135 96 113
-1.569272 1.330898 61.227280 135 95 114
-1.567311 1.461056 61.150772 132 90 110
-1.565417 1.590951 61.076859 127 84 106
-1.563597 1.720609 61.005856 126 80 103
-1.561857 1.850057 60.937981 127 80 103
-1.560201 1.979317 60.873356 128 80 103
-1.558628 2.108412 60.811977 129 78 102
-1.557135 2.237357 60.753742 129 77 99
-1.555716 2.366164 60.698391 128 75 96
-1.554363 2.494838 60.645603 126 72 93
-1.553064 2.623374 60.594913 124 69 90
-1.551806 2.751765 60.545815 122 66 88
-1.550573 2.879992 60.497726 121 64 87
-1.549351 3.008033 60.450054 121 64 88
-1.548125 3.135859 60.402199 122 65 88
-1.546879 3.263436 60.353584 123 65 88
-1.545599 3.390732 60.303669 122 65 86
-1.544275 3.517710 60.252003 120 64 83
-1.542896 3.644335 60.198189 119 62 79
-1.541455 3.770576 60.141949 119 61 76
-1.539946 3.896405 60.083088 119 61 74
-1.538368 4.021799 60.021538 118 61 72
-1.536722 4.146743 59.957310 118 61 70
-1.535011 4.271229 59.890533 117 60 70
-1.533239 4.395254 59.821407 117 59 69
-1.531415 4.518826 59.750240 116 59 68
-1.529547 4.641960 59.677376 114 58 67
-1.527647 4.764678 59.603241 113 58 66
-1.525726 4.887009 59.528290 111 58 64
-1.523797 5.008989 59.453003 110 58 63
-1.521871 5.130658 59.377869 110 57 62
-1.519961 5.252059 59.303371 110 57 61
-1.518080 5.373238 59.229965 110 56 61
-1.516238 5.494241 59.158081 110 55 61
-1.514444 5.615115 59.088093 110 54 62
-1.512707 5.735903 59.020329 110 53 62
-1.511034 5.856645 58.955036 110 53 63
-1.509428 5.977375 58.892399 109 53 64
-1.507894 6.098122 58.832535 109 53 64
-1.506432 6.218910 58.775494 109 53 64
-1.505043 6.339757 58.721287 108 53 63
-1.618973 -9.353743 68.966980 109 74 96
-1.618920 -9.204773 68.964737 108 76 99
-1.618681 -9.054770 68.954544 110 81 101
-1.618212 -8.903544 68.934547 110 83 98
-1.617471 -8.750940 68.903015 101 74 83
-1.616426 -8.596848 68.858482 79 53 54
-1.615048 -8.441211 68.799782 86 60 56
-1.613318 -8.284019 68.726089 149 126 121
-1.611227 -8.125325 68.637024 187 166 162
-1.608775 -7.965228 68.532578 145 115 111
-1.605973 -7.803875 68.413185 101 63 62
-1.602838 -7.641456 68.279663 108 66 72
-1.599401 -7.478195 68.133217 121 76 89
-1.595695 -7.314335 67.975342 122 76 94
-1.591762 -7.150138 67.807816 126 79 99
-1.587648 -6.985866 67.632576 128 81 100
-1.583401 -6.821775 67.451653 126 80 93
-1.579069 -6.658106 67.267113 125 80 85
-1.574700 -6.495079 67.080978 125 82 75
-1.570338 -6.332883 66.895157 123 82 63
-1.566023 -6.171675 66.711342 114 74 46
-1.561790 -6.011576 66.531036 107 69 35
-1.557669 -5.852672 66.355469 141 105 72
-1.553681 -5.695013 66.185577 199 166 136
-1.549841 -5.538617 66.022003 206 172 148
-1.546158 -5.383471 65.865105 178 136 121
-1.542633 -5.229541 65.714966 177 132 127
-1.539263 -5.076767 65.571419 180 135 139
-1.536040 -4.925082 65.434090 149 104 115
-1.532949 -4.774402 65.302429 122 76 93
-1.529976 -4.624645 65.175789 121 76 97
-1.527103 -4.475729 65.053413 133 88 111
-1.524313 -4.327574 64.934547 168 125 146
-1.521587 -4.180109 64.818428 212 175 190
-1.518909 -4.033270 64.704346 216 182 192
-1.516264 -3.887008 64.591652 176 136 146
-1.513638 -3.741281 64.479805 139 97 107
-1.511022 -3.596058 64.368370 134 95 102
-1.508409 -3.451322 64.257027 138 101 107
-1.505792 -3.307059 64.145569 136 99 106
-1.503171 -3.163266 64.033897 139 101 110
-1.500543 -3.019943 63.921974 149 110 120
-1.497912 -2.877094 63.809879 154 113 125
-1.495280 -2.734727 63.697742 147 103 117
-1.492650 -2.592849 63.585735 134 89 103
-1.490029 -2.451466 63.474052 126 81 96
-1.487420 -2.310585 63.362930 123 79 94
-1.484830 -2.170211 63.252598 117 75 89
-1.482264 -2.030345 63.143291 112 73 87
-1.479727 -1.890988 63.035233 132 97 111
-1.477225 -1.752137 62.928642 180 150 163
-1.474762 -1.613788 62.823708 210 185 198
-1.472342 -1.475936 62.720608 193 171 183
-1.469967 -1.338569 62.619465 156 133 144
-1.467641 -1.201678 62.520370 144 119 129
-1.465364 -1.065249 62.423347 172 147 157
-1.463135 -0.929270 62.328392 193 168 177
-1.460953 -0.793726 62.235443 176 148 155
-1.458815 -0.658602 62.144363 156 126 133
-1.456717 -0.523885 62.054985 151 120 128
-1.454653 -0.389563 61.967098 136 103 113
-1.452619 -0.255625 61.880447 116 81 94
-1.450608 -0.122062 61.794785 114 77 94
-1.448615 0.011131 61.709862 121 84 102
-1.446634 0.143960 61.625481 129 91 108
-1.444662 0.276426 61.541473 138 99 115
-1.442697 0.408533 61.457752 142 100 116
-1.440738 0.540280 61.374306 137 93 108
-1.438787 0.671672 61.291214 132 86 100
-1.436849 0.802712 61.208637 129 83 96
-1.434929 0.933408 61.126850 128 82 95
-1.433035 1.063771 61.046162 128 83 97
-1.431175 1.193815 60.966957 129 83 99
-1.429360 1.323559 60.889633 127 81 98
-1.427599 1.453024 60.814606 126 79 96
-1.425900 1.582234 60.742233 124 76 95
-1.424271 1.711217 60.672844 125 74 94
-1.422718 1.839998 60.606659 125 73 95
-1.421242 1.968602 60.543816 126 73 95
-1.419846 2.097052 60.484333 127 72 94
-1.418526 2.225364 60.428089 127 71 93
-1.417277 2.353552 60.374870 126 69 90
-1.416090 2.481621 60.324326 124 67 86
-1.414956 2.609568 60.276016 122 65 83
-1.413862 2.737386 60.229427 120 63 82
-1.412795 2.865056 60.183975 118 61 80
-1.411741 2.992558 60.139057 119 61 81
-1.410685 3.119861 60.094059 120 61 81
-1.409613 3.246934 60.048393 120 62 81
-1.408512 3.373742 60.001499 120 61 80
-1.407371 3.500247 59.952900 118 60 77
-1.406181 3.626415 59.902191 117 59 74
-1.404933 3.752213 59.849056 117 58 72
-1.403624 3.877612 59.793301 118 59 71
-1.402252 4.002588 59.734821 118 59 70
-1.400815 4.127124 59.673630 117 58 69
-1.399318 4.251210 59.609837 117 58 69
-1.397764 4.374846 59.543648 117 58 68
-1.396161 4.498037 59.475361 116 57 67
-1.394517 4.620800 59.405342 114 57 66
-1.392843 4.743157 59.334030 112 57 65
-1.391150 4.865139 59.261894 110 56 64
-1.389449 4.986784 59.189445 109 56 63
-1.387753 5.108134 59.117195 109 55 62
-1.386074 5.229235 59.045654 109 55 61
-1.384422 5.350135 58.975307 109 54 60
-1.382810 5.470885 58.906601 109 54 60
-1.381245 5.591533 58.839935 109 53 61
-1.379735 5.712124 58.775642 109 52 61
-1.378288 5.832698 58.713974 108 52 61
-1.376906 5.953291 58.655113 108 51 62
-1.375592 6.073931 58.599148 109 52 64
-1.374347 6.194640 58.546120 108 52 64
-1.460617 -9.144432 68.512642 107 69 88
-1.460359 -8.995152 68.500534 109 72 90
-1.459899 -8.844702 68.478966 110 74 89
-1.459203 -8.692937 68.446312 106 71 79
-1.458241 -8.539755 68.401176 92 57 59
-1.456989 -8.385102 68.342468 92 57 54
-1.455432 -8.228975 68.269440 127 95 90
-1.453562 -8.071425 68.181717 153 123 117
-1.451380 -7.912550 68.079346 130 93 88
-1.448895 -7.752497 67.962776 106 64 63
-1.446124 -7.591448 67.832817 112 68 72
-1.443093 -7.429618 67.690643 116 71 81
-1.439833 -7.267244 67.537712 116 69 84
-1.436379 -7.104574 67.375717 118 70 87
-1.432772 -6.941858 67.206520 119 71 87
-1.429053 -6.779340 67.032074 119 71 83
-1.425264 -6.617248 66.854317 119 71 76
-1.421444 -6.455786 66.675163 120 72 68
-1.417633 -6.295132 66.496384 120 72 57
-1.413864 -6.135431 66.319580 116 68 45
-1.410165 -5.976794 66.146103 111 63 35
-1.406562 -5.819298 65.977089 128 81 51
-1.403072 -5.662985 65.813362 163 117 89
-1.399706 -5.507869 65.655479 178 130 109
-1.396470 -5.353934 65.503723 173 123 111
-1.393366 -5.201143 65.358116 178 127 125
-1.390389 -5.049441 65.218468 176 126 132
-1.387530 -4.898759 65.084373 143 94 106
-1.384778 -4.749021 64.955276 116 67 84
-1.382119 -4.600149 64.830551 115 68 87
-1.379538 -4.452067 64.709496 127 79 100
-1.377020 -4.304703 64.591377 155 109 127
-1.374550 -4.157993 64.475502 185 141 155
-1.372114 -4.011883 64.361229 180 137 148
-1.369699 -3.866327 64.247993 147 102 112
-1.367297 -3.721292 64.135315 124 78 86
-1.364900 -3.576755 64.022842 124 80 87
-1.362501 -3.432700 63.910328 131 87 94
-1.360098 -3.289120 63.797623 130 87 95
-1.357690 -3.146015 63.684685 129 85 93
-1.355278 -3.003386 63.571537 128 83 92
-1.352864 -2.861242 63.458294 127 81 91
-1.350451 -2.719588 63.345112 127 79 90
-1.348044 -2.578432 63.232185 125 77 89
-1.345646 -2.437782 63.119736 122 76 88
-1.343264 -2.297642 63.007988 119 74 87
-1.340902 -2.158016 62.897182 115 72 86
-1.338565 -2.018906 62.787556 113 74 88
-1.336257 -1.880311 62.679321 126 90 104
-1.333984 -1.742226 62.572685 152 119 133
-1.331749 -1.604647 62.467846 163 131 145
-1.329555 -1.467566 62.364952 146 116 129
-1.327406 -1.330973 62.264130 127 97 109
-1.325302 -1.194856 62.165459 128 97 108
-1.323245 -1.059202 62.068954 143 110 120
-1.321234 -0.923995 61.974617 150 115 124
-1.319267 -0.789222 61.882359 139 102 110
-1.317342 -0.654868 61.792057 127 88 96
-1.315454 -0.520918 61.703522 123 83 92
-1.313600 -0.387359 61.616535 121 79 90
-1.311773 -0.254180 61.530846 118 75 88
-1.309968 -0.121373 61.446198 119 75 91
-1.308180 0.011069 61.362335 120 76 94
-1.306404 0.143151 61.279037 122 77 94
-1.304637 0.274875 61.196140 125 78 95
-1.302876 0.406245 61.113552 126 77 94
-1.301122 0.537260 61.031242 127 76 91
-1.299375 0.667925 60.949299 126 74 89
-1.297639 0.798243 60.867878 126 73 88
-1.295920 0.928223 60.787243 126 73 87
-1.294225 1.057874 60.707718 125 73 87
-1.292561 1.187211 60.629684 124 73 87
-1.290938 1.316253 60.553555 123 72 87
-1.289364 1.445023 60.479748 122 71 86
-1.287848 1.573545 60.408638 122 70 86
-1.286397 1.701845 60.340565 123 68 87
-1.285016 1.829952 60.275764 123 68 87
-1.283707 1.957891 60.214397 124 67 88
-1.282473 2.085685 60.156490 123 66 88
-1.281310 2.213354 60.101952 123 66 86
-1.280215 2.340910 60.050568 122 65 84
-1.279180 2.468362 60.002018 121 64 82
-1.278196 2.595708 59.955860 119 62 79
-1.277252 2.722940 59.911594 117 61 77
-1.276336 2.850045 59.868637 116 60 76
-1.275436 2.976999 59.826389 117 60 76
-1.274537 3.103776 59.784233 118 60 77
-1.273627 3.230343 59.741558 119 60 76
-1.272694 3.356665 59.697796 118 60 75
-1.271728 3.482707 59.652458 117 59 72
-1.270718 3.608431 59.605110 116 58 70
-1.269659 3.733804 59.555424 116 57 68
-1.268545 3.858796 59.503155 116 57 67
-1.267373 3.983383 59.448204 117 57 67
-1.266144 4.107545 59.390541 117 57 67
-1.264859 4.231272 59.330269 117 57 67
-1.263522 4.354562 59.267570 117 57 67
-1.262140 4.477420 59.202744 115 56 66
-1.260720 4.599861 59.136150 113 56 65
-1.259272 4.721909 59.068226 111 56 63
-1.257806 4.843594 58.999451 109 55 63
-1.256333 4.964955 58.930347 108 55 62
-1.254864 5.086036 58.861450 108 55 61
-1.253411 5.206884 58.793282 108 54 61
-1.251984 5.327551 58.726353 108 53 60
-1.250594 5.448088 58.661133 108 53 60
-1.249248 5.568544 58.598022 108 52 60
-1.247955 5.688968 58.537376 108 51 60
-1.246720 5.809400 58.479450 108 51 60
-1.245547 5.929877 58.424419 107 50 60
-1.303176 -8.783328 68.003784 109 66 80
-1.302536 -8.632496 67.970413 110 65 76
-1.301669 -8.480327 67.925171 105 60 66
-1.300555 -8.326770 67.867035 102 57 58
-1.299181 -8.171826 67.795311 111 67 65
-1.297540 -8.015546 67.709686 118 76 73
-1.295634 -7.858027 67.610222 110 67 65
-1.293471 -7.699408 67.497360 105 60 61
-1.291067 -7.539865 67.371895 109 64 70
-1.288443 -7.379604 67.234962 111 65 75
-1.285625 -7.218849 67.087944 111 64 77
-1.282646 -7.057836 66.932472 112 64 78
-1.279538 -6.896800 66.770294 113 64 77
-1.276337 -6.735971 66.603249 114 63 74
-1.273078 -6.575562 66.433167 115 63 70
-1.269794 -6.415765 66.261833 116 64 64
-1.266518 -6.256744 66.090881 116 64 57
-1.263278 -6.098631 65.921799 116 63 49
-1.260097 -5.941528 65.755806 116 62 44
-1.256995 -5.785502 65.593933 120 66 47
-1.253986 -5.630592 65.436897 130 75 57
-1.251078 -5.476805 65.285187 135 80 66
-1.248277 -5.324123 65.138992 137 80 75
-1.245581 -5.172511 64.998322 141 86 87
-1.242986 -5.021913 64.862915 141 86 94
-1.240485 -4.872265 64.732376 126 74 86
-1.238066 -4.723496 64.606163 115 64 80
-1.235718 -4.575534 64.483658 115 65 82
-1.233429 -4.428310 64.364189 118 69 88
-1.231185 -4.281759 64.247101 128 78 96
-1.228975 -4.135825 64.131752 137 87 102
-1.226787 -3.990460 64.017555 135 84 97
-1.224611 -3.845628 63.904034 125 74 85
-1.222441 -3.701302 63.790779 119 69 78
-1.220270 -3.557462 63.677505 120 71 80
-1.218096 -3.414100 63.564034 122 73 82
-1.215916 -3.271213 63.450291 121 73 81
-1.213731 -3.128803 63.336277 121 72 80
-1.211543 -2.986877 63.222080 121 71 80
-1.209353 -2.845440 63.107838 122 71 79
-1.207167 -2.704503 62.993744 122 71 79
-1.204988 -2.564072 62.880016 121 70 79
-1.202820 -2.424154 62.766884 119 69 80
-1.200668 -2.284755 62.654602 117 69 81
-1.198537 -2.145878 62.543396 115 69 83
-1.196431 -2.007522 62.433514 115 71 86
-1.194355 -1.869686 62.325157 118 77 92
-1.192312 -1.732366 62.218548 123 84 99
-1.190305 -1.595554 62.113857 125 87 101
-1.188339 -1.459243 62.011238 121 83 97
-1.186414 -1.323421 61.910805 118 79 93
-1.184533 -1.188075 61.812634 120 81 93
-1.182695 -1.053191 61.716732 124 82 94
-1.180901 -0.918754 61.623085 125 81 93
-1.179148 -0.784749 61.531609 123 78 89
-1.177433 -0.651160 61.442158 120 73 85
-1.175755 -0.517972 61.354546 120 71 82
-1.174106 -0.385171 61.268539 120 70 82
-1.172484 -0.252747 61.183872 119 70 83
-1.170882 -0.120690 61.100273 120 71 85
-1.169295 0.011007 61.017479 121 71 86
-1.167720 0.142348 60.935268 121 70 86
-1.166152 0.273336 60.853455 123 70 85
-1.164590 0.403974 60.771935 124 69 84
-1.163033 0.534262 60.690681 124 68 82
-1.161482 0.664204 60.609768 124 67 81
-1.159941 0.793804 60.529354 124 66 80
-1.158415 0.923068 60.449699 123 66 80
-1.156909 1.052008 60.371124 122 66 79
-1.155432 1.180639 60.294033 121 66 79
-1.153991 1.308978 60.218830 120 66 79
-1.152594 1.437048 60.145954 120 66 79
-1.151250 1.564875 60.075802 120 65 80
-1.149964 1.692486 60.008720 121 64 80
-1.148743 1.819909 59.944977 121 63 81
-1.147588 1.947172 59.884750 121 62 82
-1.146503 2.074299 59.828094 120 62 81
-1.145484 2.201311 59.774937 120 61 80
-1.144529 2.328223 59.725090 119 61 78
-1.143631 2.455043 59.678257 118 61 77
-1.142784 2.581774 59.634018 116 60 75
-1.141976 2.708410 59.591881 115 59 74
-1.141198 2.834937 59.551285 114 59 74
-1.140438 2.961337 59.511635 115 59 74
-1.139685 3.087582 59.472301 116 59 73
-1.138925 3.213642 59.432686 117 59 72
-1.138150 3.339482 59.392200 117 59 70
-1.137347 3.465067 59.350334 116 59 68
-1.136510 3.590362 59.306641 116 58 66
-1.135630 3.715329 59.260746 115 57 64
-1.134704 3.839940 59.212399 116 57 64
-1.133728 3.964168 59.161449 117 56 64
-1.132700 4.087993 59.107845 117 56 65
-1.131624 4.211403 59.051659 117 56 65
-1.130501 4.334392 58.993050 116 56 65
-1.129336 4.456966 58.932289 115 56 64
-1.128137 4.579137 58.869720 112 55 63
-1.126912 4.700928 58.805771 110 55 62
-1.125669 4.822370 58.740921 108 55 61
-1.124419 4.943500 58.675694 107 54 61
-1.123172 5.064363 58.610622 107 54 60
-1.121938 5.185006 58.546253 107 53 60
-1.120728 5.305484 58.483105 107 53 60
-1.119551 5.425847 58.421658 108 52 60
-1.118414 5.546147 58.362335 108 52 59
-1.117325 5.666433 58.305500 108 51 59
-1.146885 -8.418954 67.433594 110 59 68
-1.145914 -8.266588 67.376526 109 57 64
-1.144727 -8.112929 67.306686 109 58 62
-1.143317 -7.958025 67.223793 109 58 62
-1.141686 -7.801970 67.127914 107 58 62
-1.139842 -7.644897 67.019493 106 58 64
-1.137798 -7.486974 66.899292 107 60 68
-1.135571 -7.328393 66.768387 107 60 70
-1.133185 -7.169366 66.628090 107 60 71
-1.130665 -7.010115 66.479919 107 59 71
-1.128040 -6.850860 66.325539 108 59 70
-1.125337 -6.691815 66.166641 109 58 68
-1.122587 -6.533177 66.004944 110 58 67
-1.119817 -6.375124 65.842087 111 58 63
-1.117053 -6.217805 65.679573 112 58 59
-1.114318 -6.061345 65.518761 113 59 56
-1.111631 -5.905833 65.360764 115 59 54
-1.109007 -5.751329 65.206482 117 59 53
-1.106457 -5.597865 65.056557 118 60 55
-1.103988 -5.445446 64.911385 119 60 58
-1.101602 -5.294054 64.771103 120 61 64
-1.099299 -5.143651 64.635666 121 62 70
-1.097073 -4.994187 64.504807 120 62 74
-1.094919 -4.845601 64.378120 116 61 75
-1.092826 -4.697826 64.255058 114 59 76
-1.090785 -4.550798 64.135048 112 59 78
-1.088785 -4.404455 64.017464 112 60 78
-1.086815 -4.258738 63.901680 112 61 78
-1.084867 -4.113600 63.787128 113 62 77
-1.082931 -3.969001 63.673290 114 61 76
-1.081000 -3.824910 63.559750 114 61 75
-1.079069 -3.681307 63.446186 114 62 74
-1.077133 -3.538180 63.332367 115 64 74
-1.075191 -3.395524 63.218182 115 65 74
-1.073242 -3.253340 63.103619 115 65 73
-1.071289 -3.111635 62.988739 115 65 73
-1.069331 -2.970416 62.873657 116 65 72
-1.067374 -2.829692 62.758564 117 65 72
-1.065420 -2.689473 62.643684 117 65 71
-1.063474 -2.549769 62.529255 117 64 71
-1.061540 -2.410584 62.415531 116 64 72
-1.059622 -2.271926 62.302769 114 64 73
-1.057725 -2.133795 62.191216 113 65 76
-1.055852 -1.996191 62.081116 113 66 79
-1.054008 -1.859112 61.972683 112 68 81
-1.052196 -1.722553 61.866123 112 69 83
-1.050418 -1.586506 61.761620 113 70 84
-1.048678 -1.450961 61.659313 113 70 84
-1.046978 -1.315907 61.559322 114 70 84
-1.045317 -1.181330 61.461704 115 70 83
-1.043698 -1.047214 61.366470 116 70 82
-1.042118 -0.913544 61.273590 117 69 81
-1.040577 -0.780303 61.182968 118 67 79
-1.039071 -0.647475 61.094452 118 66 77
-1.037598 -0.515044 61.007835 118 64 75
-1.036153 -0.382998 60.922871 118 64 74
-1.034731 -0.251324 60.839279 118 65 75
-1.033328 -0.120012 60.756779 119 66 77
-1.031939 0.010945 60.675079 120 66 78
-1.030559 0.141550 60.593952 121 67 78
-1.029185 0.271808 60.513191 121 66 78
-1.027816 0.401719 60.432690 121 66 77
-1.026451 0.531284 60.352402 121 65 76
-1.025090 0.660507 60.272400 121 63 75
-1.023737 0.789391 60.192833 121 63 74
-1.022395 0.917942 60.113968 120 62 73
-1.021072 1.046171 60.036125 119 62 72
-1.019772 1.174092 59.959717 119 62 72
-1.018504 1.301725 59.885162 118 62 72
-1.017275 1.429091 59.812916 118 61 73
-1.016093 1.556216 59.743389 119 61 74
-1.014963 1.683129 59.676960 119 60 75
-1.013891 1.809859 59.613926 120 60 76
-1.012880 1.936434 59.554489 120 59 77
-1.011932 2.062880 59.498734 119 59 77
-1.011046 2.189220 59.446629 118 59 76
-1.010219 2.315472 59.398014 117 58 75
-1.009447 2.441647 59.352623 116 58 73
-1.008723 2.567749 59.310066 115 58 73
-1.008040 2.693775 59.269882 114 58 72
-1.007387 2.819715 59.231518 114 58 72
-1.006756 2.945551 59.194397 115 58 72
-1.006135 3.071259 59.157906 115 58 70
-1.005515 3.196811 59.121429 116 58 68
-1.004885 3.322174 59.084381 115 58 66
-1.004236 3.447313 59.046230 115 59 64
-1.003560 3.572191 59.006500 115 58 62
-1.002851 3.696775 58.964794 115 57 61
-1.002103 3.821031 58.920818 116 57 62
-1.001313 3.944933 58.874386 117 56 62
-1.000480 4.068459 58.825405 116 56 63
-0.999604 4.191594 58.773899 115 56 63
-0.998687 4.314330 58.719994 114 55 63
-0.997734 4.436670 58.663921 113 55 62
-0.996749 4.558624 58.605999 111 54 62
-0.995739 4.680212 58.546631 109 54 61
-0.994712 4.801465 58.486279 108 53 61
-0.993678 4.922417 58.425453 107 53 60
-0.992645 5.043112 58.364693 107 53 60
-0.991621 5.163599 58.304543 107 53 59
-0.990618 5.283931 58.245525 107 52 59
-0.989642 5.404159 58.188141 107 52 59
-0.988701 5.524336 58.132824 107 51 59
-0.992212 -8.052677 66.806824 108 57 66
-0.991029 -7.899234 66.727165 108 57 66
-0.989666 -7.744730 66.635422 107 57 65
-0.988131 -7.589291 66.532013 106 57 66
-0.986432 -7.433073 66.417671 105 57 66
-0.984587 -7.276259 66.293396 104 56 66
-0.982612 -7.119044 66.160416 103 56 66
-0.980529 -6.961634 66.020157 103 55 65
-0.978360 -6.804234 65.874138 103 55 65
-0.976129 -6.647041 65.723938 104 54 64
-0.973860 -6.490238 65.571129 104 54 64
-0.971574 -6.333986 65.417221 105 54 63
-0.969292 -6.178424 65.263580 106 54 62
-0.967032 -6.023662 65.111427 108 54 61
-0.964810 -5.869781 64.961777 110 54 61
-0.962636 -5.716835 64.815407 112 54 60
-0.960519 -5.564851 64.672874 113 54 61
-0.958464 -5.413830 64.534508 114 55 63
-0.956472 -5.263753 64.400383 115 56 67
-0.954542 -5.114586 64.270424 114 56 69
-0.952669 -4.966279 64.144348 113 55 71
-0.950848 -4.818777 64.021744 112 55 72
-0.949071 -4.672019 63.902081 111 55 72
-0.947329 -4.525947 63.784817 109 55 72
-0.945615 -4.380505 63.669365 108 55 72
-0.943919 -4.235644 63.555161 109 56 72
-0.942233 -4.091322 63.441681 110 57 71
-0.940552 -3.947507 63.328480 111 57 70
-0.938870 -3.804176 63.215206 110 57 69
-0.937182 -3.661313 63.101593 110 57 68
-0.935487 -3.518913 62.987484 110 58 67
-0.933785 -3.376975 62.872833 110 59 67
-0.932074 -3.235505 62.757675 110 60 66
-0.930358 -3.094512 62.642109 111 61 66
-0.928638 -2.954006 62.526318 112 60 66
-0.926918 -2.813999 62.410519 112 60 66
-0.925202 -2.674502 62.294956 113 59 66
-0.923493 -2.535523 62.179909 114 59 66
-0.921796 -2.397072 62.065651 113 59 67
-0.920115 -2.259151 61.952450 113 59 68
-0.918454 -2.121764 61.840569 112 60 70
-0.916815 -1.984909 61.730259 111 61 72
-0.915204 -1.848584 61.621746 111 62 74
-0.913622 -1.712783 61.515247 110 62 74
-0.912073 -1.577498 61.410931 110 63 74
-0.910558 -1.442717 61.308956 110 63 74
-0.909080 -1.308428 61.209423 111 63 73
-0.907639 -1.174616 61.112396 111 63 73
-0.906235 -1.041265 61.017872 113 63 73
-0.904868 -0.908359 60.925812 114 63 72
-0.903535 -0.775879 60.836105 115 62 71
-0.902235 -0.643809 60.748589 115 60 70
-0.900965 -0.512134 60.663036 114 58 68
-0.899719 -0.380837 60.579182 114 58 68
-0.898495 -0.249908 60.496723 115 59 68
-0.897286 -0.119337 60.415363 116 61 70
-0.896090 0.010883 60.334789 117 62 71
-0.894901 0.140758 60.254745 119 63 72
-0.893717 0.270289 60.175022 119 63 72
-0.892535 0.399477 60.095478 119 63 72
-0.891356 0.528324 60.016071 119 62 71
-0.890180 0.656830 59.936855 118 61 70
-0.889008 0.784999 59.857979 117 60 69
-0.887846 0.912838 59.779709 117 60 68
-0.886697 1.040355 59.702377 117 60 68
-0.885569 1.167565 59.626389 117 60 68
-0.884467 1.294487 59.552193 117 60 68
-0.883398 1.421143 59.480263 117 59 69
-0.882370 1.547559 59.411030 117 59 70
-0.881388 1.673764 59.344906 118 58 71
-0.880457 1.799789 59.282227 118 58 72
-0.879581 1.925663 59.223221 118 57 73
-0.878761 2.051414 59.168022 117 57 73
-0.877998 2.177068 59.116638 117 57 72
-0.877290 2.302644 59.068951 116 57 71
-0.876633 2.428158 59.024731 116 57 70
-0.876023 2.553617 58.983639 115 57 69
-0.875452 2.679020 58.945229 114 57 70
-0.874914 2.804361 58.908993 114 57 70
-0.874399 2.929626 58.874363 114 57 69
-0.873900 3.054793 58.840736 115 57 68
-0.873407 3.179837 58.807514 115 58 67
-0.872910 3.304727 58.774090 114 58 64
-0.872403 3.429430 58.739922 114 58 62
-0.871877 3.553909 58.704502 114 58 60
-0.871326 3.678130 58.667400 114 57 59
-0.870745 3.802060 58.628281 114 56 59
-0.870130 3.925670 58.586899 115 56 60
-0.869480 4.048935 58.543118 114 55 61
-0.868793 4.171839 58.496902 113 55 61
-0.868072 4.294370 58.448334 112 54 61
-0.867319 4.416527 58.397591 111 53 61
-0.866537 4.538318 58.344944 110 53 61
-0.865732 4.659759 58.290764 109 53 60
-0.864911 4.780875 58.235477 108 52 60
-0.864081 4.901702 58.179585 107 52 60
-0.863249 5.022280 58.123600 107 52 59
-0.862425 5.142658 58.068077 108 52 60
-0.861614 5.262885 58.013531 108 52 60
-0.839682 -7.686678 66.135956 104 55 65
-0.838438 -7.532935 66.037971 103 54 64
-0.837065 -7.378485 65.929901 102 54 64
-0.835577 -7.223495 65.812675 100 54 62
-0.833987 -7.068148 65.687416 99 53 61
-0.832311 -6.912632 65.555450 99 53 61
-0.830568 -6.757137 65.418167 99 52 61
-0.828776 -6.601841 65.277016 99 52 61
-0.826953 -6.446913 65.133415 100 52 62
-0.825116 -6.292499 64.988739 100 52 62
-0.823281 -6.138724 64.844223 101 52 62
-0.821462 -5.985688 64.700958 103 51 62
-0.819671 -5.833463 64.559837 104 51 63
-0.817915 -5.682098 64.421562 105 50 63
-0.816201 -5.531612 64.286591 107 51 64
-0.814533 -5.382008 64.155174 108 51 65
-0.812910 -5.233265 64.027367 109 52 66
-0.811332 -5.085350 63.903046 109 52 67
-0.809794 -4.938218 63.781914 108 51 69
-0.808291 -4.791818 63.663563 108 51 68
-0.806818 -4.646095 63.547501 107 51 68
-0.805367 -4.500998 63.433205 106 51 68
-0.803931 -4.356477 63.320118 106 52 67
-0.802504 -4.212490 63.207737 106 52 67
-0.801080 -4.069004 63.095592 106 52 66
-0.799654 -3.925991 62.983299 106 53 66
-0.798223 -3.783435 62.870552 106 53 64
-0.796783 -3.641329 62.757164 105 53 63
-0.795334 -3.499669 62.643021 104 54 62
-0.793876 -3.358460 62.528133 104 55 61
-0.792409 -3.217714 62.412582 105 55 60
-0.790935 -3.077440 62.296528 106 56 60
-0.789458 -2.937653 62.180172 107 56 60
-0.787980 -2.798365 62.063778 108 56 61
-0.786505 -2.659590 61.947624 110 56 62
-0.785037 -2.521337 61.832012 111 56 62
-0.783580 -2.383615 61.717243 111 56 63
-0.782138 -2.246430 61.603607 111 56 64
-0.780713 -2.109783 61.491379 110 56 65
-0.779309 -1.973674 61.380836 109 56 66
-0.777930 -1.838099 61.272213 108 57 67
-0.776578 -1.703052 61.165730 108 57 67
-0.775256 -1.568524 61.061577 107 57 67
-0.773965 -1.434503 60.959908 107 58 67
-0.772707 -1.300976 60.860825 107 58 67
-0.771483 -1.167927 60.764389 108 58 67
-0.770292 -1.035339 60.670593 110 58 67
-0.769134 -0.903194 60.579388 111 58 66
-0.768007 -0.771473 60.490646 112 57 66
-0.766909 -0.640159 60.404182 112 55 65
-0.765837 -0.509236 60.319756 111 54 64
-0.764788 -0.378687 60.237076 111 54 63
-0.763756 -0.248500 60.155811 113 56 64
-0.762738 -0.118666 60.075634 114 57 66
-0.761730 0.010822 59.996216 116 58 67
-0.760727 0.139970 59.917267 116 59 68
-0.759728 0.268777 59.838554 117 60 69
-0.758730 0.397247 59.759933 117 61 70
-0.757732 0.525377 59.681324 115 60 69
-0.756734 0.653169 59.602776 114 58 67
-0.755740 0.780625 59.524445 114 58 66
-0.754751 0.907751 59.446583 115 58 66
-0.753773 1.034555 59.369530 115 59 66
-0.752810 1.161051 59.293709 116 59 66
-0.751869 1.287257 59.219589 116 59 67
-0.750956 1.413196 59.147659 116 58 68
-0.750077 1.538894 59.078392 116 58 68
-0.749237 1.664381 59.012230 116 57 69
-0.748441 1.789688 58.949547 117 57 69
-0.747693 1.914848 58.890629 117 57 69
-0.746995 2.039890 58.835648 117 56 68
-0.746347 2.164843 58.784664 116 56 67
-0.745750 2.289728 58.737614 115 56 66
-0.745200 2.414566 58.694313 115 56 66
-0.744694 2.539366 58.654472 115 56 66
-0.744227 2.664134 58.617691 114 56 67
-0.743793 2.788865 58.583492 114 56 68
-0.743385 2.913552 58.551334 114 56 68
-0.742995 3.038175 58.520638 114 57 67
-0.742616 3.162712 58.490803 114 57 65
-0.742241 3.287135 58.461220 114 57 63
-0.741861 3.411413 58.431324 113 57 61
-0.741471 3.535510 58.400585 113 57 60
-0.741064 3.659392 58.368523 113 56 58
-0.740635 3.783025 58.334755 113 55 59
-0.740181 3.906378 58.298977 113 55 59
-0.739699 4.029423 58.260986 113 55 60
-0.739187 4.152140 58.220688 112 54 60
-0.738646 4.274514 58.178089 112 54 61
-0.738078 4.396540 58.133305 111 53 61
-0.737484 4.518219 58.086559 110 52 61
-0.736870 4.639565 58.038158 109 52 60
-0.736239 4.760599 57.988499 109 52 60
-0.735598 4.881351 57.938038 108 51 60
-0.734954 5.001861 57.887287 108 51 60
-0.689768 -7.323547 65.439011 99 52 61
-0.688610 -7.170415 65.329056 98 52 59
-0.687373 -7.016965 65.211754 96 51 58
-0.686072 -6.863371 65.088287 95 51 58
-0.684718 -6.709803 64.959908 95 50 58
-0.683327 -6.556425 64.827942 95 50 59
-0.681912 -6.403388 64.693680 96 51 59
-0.680486 -6.250825 64.558334 96 50 60
-0.679059 -6.098849 64.423019 96 50 60
-0.677644 -5.947549 64.288704 97 49 60
-0.676247 -5.796989 64.156174 98 48 61
-0.674875 -5.647210 64.026024 99 47 62
-0.673532 -5.498231 63.898640 101 47 62
-0.672221 -5.350050 63.774227 102 48 63
-0.670941 -5.202648 63.652786 103 48 64
-0.669690 -5.055995 63.534168 103 49 65
-0.668467 -4.910048 63.418072 103 48 65
-0.667265 -4.764762 63.304108 102 48 65
-0.666081 -4.620088 63.191792 102 49 64
-0.664910 -4.475980 63.080627 102 49 64
-0.663745 -4.332396 62.970116 101 49 63
-0.662582 -4.189301 62.859779 102 49 62
-0.661416 -4.046665 62.749207 102 49 61
-0.660245 -3.904471 62.638065 102 49 60
-0.659065 -3.762707 62.526104 101 50 59
-0.657874 -3.621370 62.413181 101 50 58
-0.656673 -3.480462 62.299236 100 51 57
-0.655462 -3.339994 62.184334 100 52 56
-0.654242 -3.199978 62.068581 101 52 56
-0.653015 -3.060430 61.952190 103 53 56
-0.651784 -2.921364 61.835396 104 53 57
-0.650552 -2.782797 61.718498 105 53 58
-0.649322 -2.644743 61.601807 106 53 59
-0.648098 -2.507214 61.485661 107 53 59
-0.646882 -2.370219 61.370365 108 53 60
-0.645680 -2.233764 61.256260 108 53 60
-0.644493 -2.097852 61.143639 107 53 61
-0.643324 -1.962482 61.032787 107 53 61
-0.642177 -1.827652 60.923977 106 54 61
-0.641054 -1.693354 60.817440 105 54 61
-0.639957 -1.559579 60.713375 104 54 61
-0.638888 -1.426315 60.611950 104 55 61
-0.637848 -1.293547 60.513271 105 55 61
-0.636838 -1.161258 60.417404 106 55 61
-0.635856 -1.029430 60.324326 107 55 61
-0.634904 -0.898044 60.233986 109 55 62
-0.633979 -0.767081 60.146233 110 54 61
-0.633079 -0.636521 60.060871 109 54 61
-0.632202 -0.506347 59.977619 109 53 61
-0.631343 -0.376544 59.896168 110 53 62
-0.630500 -0.247097 59.816151 111 54 63
-0.629668 -0.117998 59.737209 112 55 64
-0.628843 0.010762 59.658978 113 56 65
-0.628023 0.139184 59.581142 114 57 65
-0.627204 0.267272 59.503441 114 58 67
-0.626384 0.395025 59.425694 114 59 68
-0.625563 0.522441 59.347813 113 58 66
-0.624742 0.649520 59.269840 111 56 64
-0.623920 0.776264 59.191906 112 57 65
-0.623102 0.902676 59.114273 114 57 65
-0.622290 1.028765 59.037292 115 58 66
-0.621490 1.154544 58.961399 115 58 66
-0.620707 1.280029 58.887077 115 58 67
-0.619946 1.405244 58.814854 115 58 67
-0.619212 1.530216 58.745232 115 57 67
-0.618511 1.654974 58.678703 115 57 66
-0.617846 1.779553 58.615685 116 56 65
-0.617223 1.903985 58.556519 116 56 64
-0.616642 2.028303 58.501438 116 56 63
-0.616106 2.152539 58.450562 115 55 63
-0.615614 2.276718 58.403877 115 55 63
-0.615165 2.400865 58.361271 114 55 63
-0.614756 2.524994 58.322502 114 55 63
-0.614384 2.649114 58.287224 114 55 64
-0.614044 2.773228 58.255001 114 55 65
-0.613732 2.897329 58.225330 114 56 66
-0.613440 3.021406 58.197643 114 56 65
-0.613163 3.145439 58.171352 113 56 64
-0.612894 3.269403 58.145851 113 56 63
-0.612627 3.393268 58.120541 113 56 62
-0.612357 3.517002 58.094864 112 56 60
-0.612076 3.640569 58.068295 111 55 59
-0.611782 3.763935 58.040382 111 54 58
-0.611470 3.887065 58.010761 111 54 59
-0.611137 4.009931 57.979149 111 54 60
-0.610781 4.132505 57.945377 112 54 61
-0.610401 4.254771 57.909367 111 53 62
-0.609999 4.376715 57.871170 111 53 62
-0.609574 4.498334 57.830914 111 52 61
-0.609131 4.619637 57.788868 111 52 60
-0.608673 4.740639 57.745358 110 51 60
-0.542811 -6.965789 64.736153 93 50 56
-0.541847 -6.814117 64.621193 92 50 56
-0.540845 -6.662476 64.501724 91 49 56
-0.539815 -6.511012 64.378922 91 49 56
-0.538767 -6.359861 64.253929 92 49 57
-0.537710 -6.209144 64.127853 92 49 57
-0.536652 -6.058959 64.001656 92 49 57
-0.535600 -5.909386 63.876194 92 47 57
-0.534560 -5.760482 63.752148 92 45 56
-0.533536 -5.612283 63.630032 94 45 58
-0.532531 -5.464804 63.510155 96 45 59
-0.531546 -5.318042 63.392681 97 46 60
-0.530580 -5.171979 63.277561 98 46 60
-0.529634 -5.026588 63.164639 99 47 61
-0.528702 -4.881830 63.053604 99 47 61
-0.527784 -4.737663 62.944077 98 47 61
-0.526874 -4.594046 62.835598 97 47 61
-0.525970 -4.450937 62.727695 97 47 60
-0.525066 -4.308302 62.619911 98 47 60
-0.524159 -4.166110 62.511806 99 47 59
-0.523247 -4.024339 62.403011 99 47 58
-0.522327 -3.882977 62.293240 99 47 57
-0.521397 -3.742017 62.182293 99 47 56
-0.520455 -3.601461 62.070057 99 48 55
-0.519504 -3.461316 61.956524 98 49 54
-0.518541 -3.321596 61.841782 99 50 54
-0.517571 -3.182317 61.726002 100 51 54
-0.516593 -3.043496 61.609402 100 51 54
-0.515611 -2.905153 61.492271 101 51 55
-0.514627 -2.767306 61.374931 102 51 56
-0.513644 -2.629970 61.257721 102 51 57
-0.512665 -2.493160 61.141014 103 51 57
-0.511694 -2.356886 61.025154 105 50 58
-0.510733 -2.221155 60.910500 105 51 58
-0.509784 -2.085972 60.797386 105 51 58
-0.508851 -1.951336 60.686127 104 51 58
-0.507936 -1.817243 60.577007 103 51 58
-0.507042 -1.683689 60.470299 102 52 57
-0.506169 -1.550661 60.366211 101 52 57
-0.505320 -1.418149 60.264935 101 52 57
-0.504495 -1.286136 60.166580 102 52 58
-0.503695 -1.154604 60.071217 104 53 58
-0.502921 -1.023534 59.978825 106 53 59
-0.502170 -0.892905 59.889332 107 53 59
-0.501443 -0.762698 59.802582 107 53 59
-0.500736 -0.632891 59.718342 107 52 60
-0.500049 -0.503466 59.636307 108 52 61
-0.499376 -0.374406 59.556129 109 52 62
-0.498716 -0.245698 59.477417 110 53 62
-0.498065 -0.117331 59.399757 111 53 63
-0.497419 0.010701 59.322762 112 54 63
-0.496776 0.138402 59.246063 112 55 64
-0.496133 0.265772 59.169373 112 56 64
-0.495489 0.392810 59.092484 112 56 65
-0.494841 0.519514 59.015282 112 56 64
-0.494191 0.645881 58.937790 112 56 65
-0.493540 0.771913 58.860138 112 56 65
-0.492890 0.897611 58.782581 113 57 66
-0.492244 1.022983 58.705486 113 57 66
-0.491605 1.148041 58.629292 113 57 66
-0.490978 1.272800 58.554523 113 57 66
-0.490367 1.397285 58.481728 113 57 66
-0.489778 1.521522 58.411461 113 57 65
-0.489215 1.645542 58.344265 113 56 65
-0.488681 1.769380 58.280609 114 56 64
-0.488180 1.893071 58.220894 114 55 63
-0.487715 2.016653 58.165421 113 55 61
-0.487287 2.140158 58.114376 113 54 60
-0.486897 2.263618 58.067825 113 54 60
-0.486544 2.387061 58.025723 113 54 61
-0.486226 2.510506 57.987877 114 54 61
-0.485943 2.633970 57.954014 114 55 62
-0.485689 2.757457 57.923729 114 55 63
-0.485461 2.880970 57.896580 114 55 64
-0.485255 3.004501 57.872017 114 55 65
-0.485066 3.128033 57.849457 113 55 64
-0.484888 3.251547 57.828281 113 56 63
-0.484717 3.375014 57.807884 113 56 63
-0.484548 3.498404 57.787659 112 55 62
-0.484375 3.621681 57.767021 111 55 61
-0.484194 3.744809 57.745468 110 54 60
-0.484002 3.867753 57.722549 110 53 60
-0.483795 3.990479 57.697891 112 53 61
-0.483571 4.112955 57.671234 112 53 61
-0.483330 4.235157 57.642406 113 53 62
-0.483069 4.357066 57.611366 113 52 62
-0.397531 -6.316540 63.816250 88 49 54
-0.396802 -6.167640 63.699203 89 48 54
-0.396071 -6.019220 63.581890 89 47 54
-0.395343 -5.871350 63.465046 88 45 53
-0.394622 -5.724079 63.349262 88 43 53
-0.393910 -5.577437 63.234962 90 43 53
-0.393209 -5.431439 63.122410 92 43 55
-0.392519 -5.286081 63.011696 94 44 56
-0.391841 -5.141346 62.902771 95 45 57
-0.391172 -4.997208 62.795448 95 46 57
-0.390512 -4.853633 62.689423 95 47 58
-0.389857 -4.710586 62.584328 94 47 58
-0.389205 -4.568027 62.479713 94 47 58
-0.388554 -4.425922 62.375156 94 46 58
-0.387900 -4.284242 62.270206 95 45 58
-0.387242 -4.142962 62.164482 96 45 57
-0.386576 -4.002066 62.057636 97 45 56
-0.385902 -3.861546 61.949425 97 45 56
-0.385218 -3.721399 61.839672 97 46 55
-0.384525 -3.581632 61.728317 98 47 55
-0.383821 -3.442257 61.615368 98 48 54
-0.383108 -3.303290 61.500957 98 49 53
-0.382388 -3.164750 61.385265 98 49 53
-0.381661 -3.026659 61.268562 98 49 54
-0.380929 -2.889037 61.151150 98 49 54
-0.380196 -2.751906 61.033394 99 49 54
-0.379462 -2.615284 60.915653 99 49 55
-0.378731 -2.479187 60.798336 101 49 56
-0.378006 -2.343626 60.681824 102 49 57
-0.377287 -2.208611 60.566509 103 50 56
-0.376579 -2.074148 60.452763 103 50 56
-0.375882 -1.940236 60.340942 102 50 56
-0.375200 -1.806875 60.231365 101 50 55
-0.374533 -1.674056 60.124329 100 50 55
-0.373883 -1.541770 60.020073 99 50 54
-0.373253 -1.410004 59.918812 100 50 55
-0.372641 -1.278741 59.820671 101 51 56
-0.372050 -1.147963 59.725719 103 51 57
-0.371478 -1.017649 59.633949 105 51 58
-0.370926 -0.887776 59.545265 105 51 57
-0.370391 -0.758322 59.459496 105 51 57
-0.369874 -0.629267 59.376389 106 51 59
-0.369370 -0.500589 59.295605 107 51 60
-0.368879 -0.372272 59.216747 108 52 62
-0.368397 -0.244301 59.139381 108 52 62
-0.367922 -0.116666 59.063061 109 53 62
-0.367450 0.010640 58.987335 110 53 63
-0.366980 0.137621 58.911816 110 53 63
-0.366508 0.264275 58.836155 110 54 63
-0.366035 0.390600 58.760117 110 54 63
-0.365558 0.516594 58.683563 111 55 64
-0.365078 0.642251 58.606491 112 55 64
-0.364595 0.767571 58.529026 113 56 66
-0.364112 0.892555 58.451420 113 56 66
-0.363630 1.017208 58.374046 113 56 66
-0.363152 1.141541 58.297367 113 56 66
-0.362682 1.265571 58.221935 113 56 66
-0.362224 1.389319 58.148335 113 56 66
-0.361780 1.512814 58.077171 112 56 65
-0.361356 1.636087 58.009041 112 55 64
-0.360954 1.759175 57.944473 112 55 63
-0.360577 1.882116 57.883953 112 54 62
-0.360227 2.004949 57.827843 111 53 61
-0.359907 2.127712 57.776409 111 52 59
-0.359617 2.250441 57.729797 111 52 59
-0.359356 2.373169 57.688026 112 52 59
-0.359126 2.495922 57.650997 112 53 60
-0.358923 2.618720 57.618484 113 54 61
-0.358747 2.741577 57.590153 114 54 62
-0.358594 2.864500 57.565582 114 54 63
-0.358461 2.987485 57.544270 114 54 63
-0.358345 3.110523 57.525627 113 55 63
-0.358241 3.233597 57.509048 113 55 62
-0.358147 3.356682 57.493881 112 55 62
-0.358057 3.479748 57.479492 112 55 62
-0.357969 3.602761 57.465240 111 54 61
-0.357877 3.725682 57.450520 111 53 61
-0.357779 3.848474 57.434814 112 52 61
-0.357672 3.971096 57.417641 113 52 63
-0.255997 -5.542803 62.842289 88 43 51
-0.255567 -5.398256 62.736763 89 43 52
-0.255143 -5.254275 62.632561 91 44 53
-0.254723 -5.110846 62.529613 92 45 53
-0.254308 -4.967945 62.427719 92 45 54
-0.253896 -4.825541 62.326584 91 46 55
-0.253486 -4.683604 62.225845 91 47 55
-0.253075 -4.542099 62.125084 91 47 56
-0.252663 -4.400998 62.023888 92 46 56
-0.252247 -4.260274 61.921844 93 45 56
-0.251827 -4.119911 61.818596 95 45 56
-0.251400 -3.979894 61.713829 96 44 55
-0.250966 -3.840221 61.607315 97 45 55
-0.250525 -3.700893 61.498920 97 46 55
-0.250075 -3.561921 61.388592 98 47 55
-0.249618 -3.423318 61.276375 98 48 54
-0.249154 -3.285106 61.162415 97 48 54
-0.248683 -3.147306 61.046921 97 48 53
-0.248208 -3.009942 60.930172 96 48 54
-0.247728 -2.873039 60.812515 97 48 55
-0.247247 -2.736618 60.694321 97 48 55
-0.246765 -2.600702 60.576004 98 48 55
-0.246284 -2.465308 60.457989 99 48 56
-0.245806 -2.330452 60.340710 100 49 56
-0.245333 -2.196143 60.224590 101 49 56
-0.244867 -2.062389 60.110050 101 49 56
-0.244408 -1.929193 59.997482 101 49 55
-0.243959 -1.796552 59.887257 100 49 54
-0.243521 -1.664460 59.779697 99 49 54
-0.243095 -1.532908 59.675098 99 48 55
-0.242682 -1.401883 59.573685 100 48 55
-0.242282 -1.271365 59.475613 101 49 56
-0.241897 -1.141337 59.380959 102 50 57
-0.241525 -1.011774 59.289711 103 50 57
-0.241167 -0.882655 59.201782 104 50 57
-0.240821 -0.753954 59.116966 105 50 57
-0.240487 -0.625649 59.034985 105 50 58
-0.240163 -0.497718 58.955456 106 51 60
-0.239848 -0.370142 58.877953 107 52 62
-0.239538 -0.242908 58.801983 107 52 62
-0.239233 -0.116002 58.727051 107 51 62
-0.238930 0.010580 58.652653 108 51 62
-0.238627 0.136842 58.578346 108 52 62
-0.238323 0.262782 58.503750 109 52 62
-0.238017 0.388397 58.428577 109 53 62
-0.237708 0.513681 58.352661 111 53 63
-0.237396 0.638629 58.275978 112 54 63
-0.237080 0.763238 58.198639 113 55 64
-0.236764 0.887507 58.120892 113 55 65
-0.236447 1.011441 58.043121 113 55 65
-0.236132 1.135049 57.965809 112 55 65
-0.235821 1.258346 57.889538 112 55 65
-0.235517 1.381354 57.814941 112 55 64
-0.235223 1.504101 57.742680 112 55 64
-0.234941 1.626621 57.673393 111 54 63
-0.234673 1.748951 57.607708 111 54 63
-0.234422 1.871132 57.546162 111 53 62
-0.234191 1.993208 57.489216 110 52 61
-0.233979 2.115220 57.437210 110 51 60
-0.233788 2.237210 57.390381 110 51 59
-0.233619 2.359215 57.348839 111 51 59
-0.233471 2.481269 57.312546 111 52 60
-0.233344 2.603398 57.281361 112 53 61
-0.233236 2.725623 57.255005 113 53 62
-0.233147 2.847955 57.233101 113 54 62
-0.233074 2.970400 57.215183 113 54 62
-0.233015 3.092952 57.200668 112 54 61
-0.232967 3.215598 57.188942 112 55 61
-0.232928 3.338317 57.179333 111 55 60
-0.232895 3.461081 57.171150 111 54 61
-0.232864 3.583854 57.163677 111 54 61
-0.232834 3.706598 57.156242 111 53 61
-0.119035 -4.938891 62.062630 89 45 51
-0.118850 -4.797639 61.966202 89 46 52
-0.118665 -4.656797 61.869690 89 46 52
-0.118479 -4.516335 61.772705 89 46 53
-0.118291 -4.376231 61.674843 90 45 54
-0.118101 -4.236461 61.575729 92 45 55
-0.117908 -4.097012 61.475006 94 45 55
-0.117711 -3.957875 61.372398 95 44 55
-0.117510 -3.819051 61.267696 96 44 55
-0.117305 -3.680544 61.160770 97 45 55
-0.117096 -3.542367 61.051586 97 46 55
-0.116882 -3.404538 60.940212 97 47 55
-0.116665 -3.267079 60.826790 97 48 54
-0.116444 -3.130016 60.711552 96 48 53
-0.116220 -2.993375 60.594799 95 48 54
-0.115993 -2.857182 60.476887 95 48 55
-0.115766 -2.721464 60.358231 96 48 55
-0.115538 -2.586244 60.239254 97 48 56
-0.115310 -2.451544 60.120434 98 48 56
-0.115083 -2.317379 60.002239 99 48 56
-0.114858 -2.183765 59.885147 100 48 55
-0.114637 -2.050709 59.769615 101 49 55
-0.114419 -1.918216 59.656094 101 49 55
-0.114206 -1.786284 59.545002 101 48 54
-0.113998 -1.654910 59.436718 100 48 54
-0.113797 -1.524084 59.331566 101 48 55
-0.113602 -1.393791 59.229813 101 48 56
-0.113413 -1.264013 59.131641 102 49 56
-0.113232 -1.134728 59.037148 103 49 57
-0.113058 -1.005914 58.946316 103 49 57
-0.112890 -0.877545 58.859051 104 49 57
-0.112730 -0.749594 58.775135 104 49 58
-0.112574 -0.622038 58.694252 104 49 58
-0.112424 -0.494852 58.615986 106 51 60
-0.112278 -0.368017 58.539860 107 52 62
-0.112135 -0.241517 58.465328 106 51 62
-0.111994 -0.115340 58.391830 106 50 61
-0.111854 0.010520 58.318817 106 51 61
-0.111714 0.136065 58.245785 108 52 61
-0.111573 0.261293 58.172298 108 52 61
-0.111431 0.386199 58.098026 108 52 61
-0.111286 0.510777 58.022770 110 53 62
-0.111140 0.635018 57.946468 111 53 62
-0.110992 0.758918 57.869221 112 54 63
-0.110843 0.882474 57.791283 112 55 64
-0.110692 1.005690 57.713043 112 55 64
-0.110543 1.128571 57.634998 112 54 64
-0.110395 1.251134 57.557770 112 54 64
-0.110249 1.373400 57.482040 111 54 63
-0.110108 1.495397 57.408520 111 54 63
-0.109973 1.617159 57.337933 111 54 63
-0.109845 1.738727 57.270958 110 53 63
-0.109724 1.860145 57.208237 109 52 62
-0.109613 1.981458 57.150307 109 51 61
-0.109512 2.102714 57.097610 109 51 60
-0.109422 2.223960 57.050472 109 50 60
-0.109342 2.345238 57.009079 110 51 60
-0.109274 2.466591 56.973503 110 52 61
-0.109217 2.588050 56.943657 111 52 61
0.014554 -4.212866 61.232777 91 44 53
0.014531 -4.074326 61.134598 93 44 54
0.014507 -3.936065 61.034195 94 44 55
0.014482 -3.798086 60.931358 95 44 55
0.014457 -3.660397 60.825981 95 44 54
0.014432 -3.523013 60.718029 96 45 54
0.014405 -3.385954 60.607563 96 46 54
0.014379 -3.249245 60.494743 96 47 54
0.014351 -3.112912 60.379799 95 47 54
0.014324 -2.976986 60.263050 95 47 54
0.014295 -2.841496 60.144867 94 47 55
0.014267 -2.706470 60.025677 95 47 56
0.014239 -2.571935 59.905956 96 47 56
0.014210 -2.437915 59.786201 98 47 56
0.014182 -2.304429 59.666927 99 47 55
0.014154 -2.171495 59.548672 100 48 55
0.014126 -2.039123 59.431942 101 48 54
0.014099 -1.907320 59.317253 101 47 53
0.014072 -1.776087 59.205067 101 47 53
0.014046 -1.645419 59.095833 101 47 53
0.014021 -1.515308 58.989914 102 47 54
0.013997 -1.385738 58.887619 102 48 55
0.013973 -1.256692 58.789165 102 48 56
0.013951 -1.128146 58.694672 103 48 57
0.013929 -1.000075 58.604130 103 48 57
0.013909 -0.872451 58.517429 104 48 57
0.013889 -0.745248 58.434349 104 48 58
0.013870 -0.618437 58.354530 104 49 58
0.013852 -0.491994 58.277523 105 50 60
0.013834 -0.365898 58.202785 106 51 61
0.013816 -0.240131 58.129723 104 50 60
0.013799 -0.114680 58.057720 103 49 59
0.013782 0.010460 57.986153 105 51 60
0.013765 0.135291 57.914448 107 53 61
0.013748 0.259810 57.842129 107 52 60
0.013731 0.384011 57.768814 107 51 60
0.013713 0.507885 57.694260 109 52 60
0.013695 0.631422 57.618366 110 52 61
0.013677 0.754617 57.541233 111 53 62
0.013658 0.877463 57.463093 112 54 63
0.013639 0.999962 57.384350 112 54 63
0.013621 1.122120 57.305531 112 53 63
0.013602 1.243950 57.227283 112 52 63
0.013584 1.365475 57.150345 111 52 63
0.013566 1.486722 57.075481 110 52 63
0.013549 1.607727 57.003494 110 52 62
