ply
format ascii 1.0
element vertex 1262
property float x
property float y
property float z
property uchar red
property uchar green
property uchar blue
end_header
4.500238 5.391570 83.138733 94 54 63
4.500432 5.571029 83.142326 97 55 64
4.500535 5.750387 83.144218 98 56 65
4.500574 5.929669 83.144943 100 56 65
4.500582 6.108912 83.145081 103 57 69
4.500590 6.288157 83.145233 107 60 74
4.500628 6.467445 83.145943 109 62 76
4.500723 6.646821 83.147705 111 63 78
4.500896 6.826320 83.150887 112 65 79
4.501160 7.005976 83.155762 113 67 80
4.501520 7.185806 83.162415 114 68 80
4.501970 7.365813 83.170731 114 69 80
4.502494 7.545979 83.180405 114 70 81
4.503063 7.726264 83.190918 113 70 80
4.503634 7.906600 83.201485 111 70 78
4.504157 8.086892 83.211136 109 69 77
4.504564 8.267015 83.218658 107 68 76
4.504782 8.446815 83.222687 107 69 77
4.504728 8.626112 83.221695 109 71 79
4.504313 8.804699 83.214027 106 70 79
4.503443 8.982345 83.197952 103 69 78
4.502024 9.158803 83.171722 101 69 78
4.499961 9.333816 83.133621 99 69 79
4.497166 9.507115 83.081985 95 69 78
4.493556 9.678436 83.015297 86 63 71
4.489058 9.847520 82.932182 71 51 58
4.483608 10.014123 82.831505 57 37 44
4.477159 10.178020 82.712372 49 30 35
4.469676 10.339011 82.574135 48 29 33
4.461143 10.496933 82.416473 49 31 34
4.451555 10.651654 82.239349 52 33 35
4.440929 10.803085 82.043037 55 35 37
4.429294 10.951176 81.828094 57 38 38
4.416697 11.095922 81.595375 59 39 40
4.403197 11.237363 81.345978 61 41 41
4.388868 11.375577 81.081253 62 42 41
4.373792 11.510684 80.802734 62 41 40
4.358060 11.642838 80.512100 62 40 40
4.341768 11.772223 80.211121 63 39 39
4.325017 11.899044 79.901649 64 39 39
4.307907 12.023530 79.585556 65 39 39
4.290537 12.145919 79.264664 66 40 40
4.273005 12.266457 78.940758 68 42 41
4.255400 12.385386 78.615524 69 44 42
4.237806 12.502947 78.290489 71 44 43
4.220299 12.619366 77.967056 71 44 43
4.202946 12.734857 77.646461 72 43 44
4.185803 12.849613 77.329781 72 43 44
4.168920 12.963809 77.017868 73 42 43
4.152336 13.077602 76.711487 74 43 44
4.136082 13.191127 76.411201 75 44 46
4.120181 13.304499 76.117447 76 44 46
4.104651 13.417817 75.830551 76 44 46
4.089503 13.531161 75.550705 76 44 46
4.074744 13.644600 75.278030 76 44 46
4.060375 13.758188 75.012581 77 44 46
4.046398 13.871973 74.754364 76 43 45
4.032810 13.985991 74.503326 75 43 43
4.019606 14.100278 74.259384 73 41 42
4.006781 14.214858 74.022461 72 41 42
3.994330 14.329758 73.792442 72 41 42
3.982245 14.444992 73.569176 72 42 43
3.970518 14.560578 73.352531 72 43 44
3.959141 14.676525 73.142334 73 43 44
3.948103 14.792841 72.938438 73 43 45
3.937397 14.909530 72.740639 73 44 45
3.927010 15.026590 72.548752 74 45 46
3.916932 15.144016 72.362572 74 45 46
3.907150 15.261796 72.181854 74 45 46
3.897652 15.379916 72.006378 73 45 47
3.888422 15.498348 71.835861 72 44 47
3.879446 15.617071 71.670044 72 45 47
3.870711 15.736054 71.508667 72 45 47
3.862200 15.855265 71.351440 72 45 47
3.853899 15.974667 71.198082 73 45 47
3.845793 16.094223 71.048332 73 44 47
3.837867 16.213894 70.901901 73 44 47
3.830106 16.333639 70.758530 73 45 47
3.822497 16.453415 70.617943 73 45 47
3.815025 16.573185 70.479912 73 45 46
3.807678 16.692905 70.344177 71 45 45
3.800443 16.812538 70.210518 69 44 44
3.793308 16.932037 70.078690 66 43 41
3.786258 17.051357 69.948463 61 39 38
3.779283 17.170454 69.819603 56 35 34
3.772369 17.289272 69.691872 55 33 33
3.765502 17.407757 69.564995 55 33 34
3.758668 17.525850 69.438744 58 33 35
3.751852 17.643484 69.312828 61 34 36
3.745040 17.760593 69.186981 63 35 38
3.738216 17.877102 69.060905 66 36 39
3.731364 17.992937 68.934334 67 37 40
3.724471 18.108023 68.806992 69 39 42
3.717523 18.222290 68.678635 70 40 43
3.710509 18.335676 68.549042 70 41 44
3.703419 18.448128 68.418068 69 41 45
3.696248 18.559607 68.285583 69 40 45
3.688993 18.670092 68.151558 69 40 45
3.681656 18.779577 68.016014 68 39 44
3.674243 18.888088 67.879059 68 39 43
3.666763 18.995665 67.740875 69 41 44
3.659232 19.102375 67.601738 69 41 44
3.651666 19.208305 67.461975 69 41 43
3.644089 19.313570 67.321983 68 40 42
3.636523 19.418291 67.182205 67 40 41
4.287114 -11.315557 76.168076 50 35 37
4.297703 -11.178907 76.356209 50 34 37
4.308401 -11.041725 76.546272 50 34 36
4.319150 -10.903854 76.737244 49 34 36
4.329893 -10.765144 76.928116 50 34 37
4.340574 -10.625461 77.117889 51 34 37
4.351141 -10.484684 77.305634 52 35 38
4.361546 -10.342710 77.490479 53 35 38
4.371744 -10.199460 77.671669 55 35 38
4.381699 -10.054871 77.848541 55 34 38
4.391382 -9.908905 78.020584 55 34 38
4.400773 -9.761548 78.187416 56 35 39
4.409855 -9.612802 78.348793 58 36 40
4.418625 -9.462689 78.504608 59 38 41
4.427083 -9.311248 78.654861 59 39 42
4.435235 -9.158528 78.799698 59 40 42
4.443093 -9.004588 78.939316 59 40 42
4.450673 -8.849492 79.073975 58 40 42
4.457990 -8.693306 79.203995 58 40 42
4.465065 -8.536093 79.329681 58 39 41
4.471912 -8.377913 79.451340 57 39 41
4.478549 -8.218822 79.569244 57 38 41
4.484985 -8.058864 79.683609 58 37 41
4.491233 -7.898079 79.794601 59 38 42
4.497296 -7.736499 79.902328 60 38 44
4.503178 -7.574149 80.006821 61 39 45
4.508877 -7.411048 80.108078 62 41 46
4.514390 -7.247213 80.206032 63 42 46
4.519712 -7.082656 80.300591 64 42 46
4.524837 -6.917390 80.391640 65 43 46
4.529758 -6.751427 80.479073 64 43 46
4.534469 -6.584783 80.562767 64 43 45
4.538968 -6.417477 80.642693 63 43 45
4.543251 -6.249530 80.718788 64 43 45
4.547320 -6.080970 80.791100 65 43 46
4.551181 -5.911827 80.859695 66 43 47
4.554841 -5.742133 80.924698 68 44 47
4.558308 -5.571925 80.986298 70 44 48
4.561596 -5.401239 81.044724 71 45 49
4.564720 -5.230114 81.100227 72 46 49
4.567695 -5.058584 81.153091 73 47 50
4.570539 -4.886685 81.203606 72 48 50
4.573266 -4.714449 81.252060 72 49 50
4.575892 -4.541904 81.298721 71 49 49
4.578430 -4.369073 81.343819 70 49 49
4.580892 -4.195978 81.387550 69 49 48
4.583285 -4.022635 81.430069 69 48 47
4.585616 -3.849055 81.471481 69 47 46
4.587888 -3.675250 81.511848 69 45 45
4.590101 -3.501226 81.551163 68 45 45
4.592254 -3.326989 81.589424 69 44 46
4.594345 -3.152544 81.626564 69 44 46
4.596368 -2.977896 81.662521 71 46 47
4.598320 -2.803049 81.697189 72 46 48
4.600194 -2.628008 81.730499 73 46 49
4.601988 -2.452780 81.762360 74 46 49
4.603696 -2.277374 81.792709 75 46 51
4.605317 -2.101796 81.821503 75 47 51
4.606850 -1.926057 81.848732 75 47 52
4.608296 -1.750168 81.874435 74 47 52
4.609660 -1.574140 81.898666 72 47 52
4.610947 -1.397984 81.921532 72 48 51
4.612163 -1.221711 81.943138 71 48 51
4.613317 -1.045331 81.963654 73 49 51
4.614421 -0.868853 81.983253 73 49 50
4.615485 -0.692284 82.002159 73 49 50
4.616523 -0.515631 82.020599 73 49 50
4.617547 -0.338897 82.038795 72 48 49
4.618572 -0.162085 82.057007 72 47 49
4.619610 0.014805 82.075455 73 47 49
4.620676 0.191776 82.094391 74 48 50
4.621781 0.368832 82.114021 75 49 51
4.622937 0.545979 82.134560 77 50 54
4.624155 0.723224 82.156189 78 51 55
4.625443 0.900576 82.179077 78 51 55
4.626809 1.078044 82.203346 77 51 54
4.628258 1.255640 82.229095 76 50 54
4.629794 1.433374 82.256386 75 50 53
4.631417 1.611256 82.285225 74 50 52
4.633127 1.789295 82.315598 73 50 52
4.634917 1.967500 82.347412 73 50 52
4.636783 2.145877 82.380554 72 50 52
4.638713 2.324429 82.414848 73 50 52
4.640695 2.503156 82.450058 74 50 52
4.642713 2.682056 82.485909 75 50 52
4.644749 2.861122 82.522079 76 50 52
4.646781 3.040342 82.558197 77 50 52
4.648788 3.219699 82.593842 79 49 53
4.650745 3.399175 82.628624 81 50 54
4.652630 3.578744 82.662102 83 50 56
4.654418 3.758379 82.693878 85 51 58
4.656089 3.938052 82.723557 87 53 60
4.657621 4.117731 82.750786 89 55 63
4.658999 4.297385 82.775269 91 56 66
4.660212 4.476985 82.796806 92 56 66
4.661252 4.656506 82.815277 92 56 66
4.662118 4.835927 82.830673 92 55 65
4.662817 5.015233 82.843086 92 54 64
4.663359 5.194419 82.852722 92 53 63
4.663763 5.373487 82.859909 94 54 63
4.664052 5.552449 82.865036 98 55 65
4.664253 5.731326 82.868607 99 55 65
4.664398 5.910146 82.871178 99 54 65
4.664518 6.088945 82.873322 103 56 68
4.664648 6.267766 82.875626 108 60 73
4.664818 6.446653 82.878647 111 63 77
4.665055 6.625649 82.882866 112 64 78
4.665381 6.804792 82.888657 113 65 79
4.665810 6.984113 82.896271 113 67 80
4.666345 7.163631 82.905777 114 69 80
4.666981 7.343349 82.917076 115 70 81
4.667699 7.523247 82.929825 115 71 82
4.668468 7.703286 82.943497 115 71 82
4.669245 7.883395 82.957291 113 71 81
4.669972 8.063478 82.970215 110 69 80
4.670582 8.243412 82.981064 109 68 78
4.670997 8.423038 82.988426 108 69 79
4.671129 8.602178 82.990776 108 70 80
4.670886 8.780620 82.986450 107 70 79
4.670169 8.958136 82.973724 104 70 79
4.668881 9.134479 82.950829 102 71 80
4.666923 9.309386 82.916039 100 71 80
4.664202 9.482594 82.867699 96 70 78
4.660632 9.653834 82.804276 86 64 70
4.656137 9.822850 82.724419 71 51 56
4.650652 9.989395 82.626976 57 38 43
4.644127 10.153245 82.511032 48 29 34
4.636525 10.314199 82.375969 47 29 32
4.627827 10.472092 82.221436 49 31 33
4.618030 10.626789 82.047371 52 33 35
4.607148 10.778199 81.854042 55 35 37
4.595212 10.926269 81.641983 57 38 39
4.582270 11.070992 81.412041 59 39 41
4.568382 11.212400 81.165283 61 41 42
4.553622 11.350574 80.903053 63 42 42
4.538076 11.485629 80.626854 63 41 41
4.521838 11.617715 80.338364 63 40 40
4.505008 11.747011 80.039345 63 39 39
4.487690 11.873729 79.731659 64 39 40
4.469989 11.998092 79.417168 66 40 41
4.452010 12.120340 79.097740 67 42 42
4.433853 12.240722 78.775146 69 44 43
4.415615 12.359485 78.451111 71 45 44
4.397383 12.476871 78.127197 72 45 44
4.379240 12.593112 77.804848 72 44 44
4.361255 12.708428 77.485329 72 44 44
4.343492 12.823019 77.169731 71 43 43
4.326001 12.937064 76.858978 72 42 43
4.308826 13.050726 76.553833 74 43 45
4.292001 13.164144 76.254898 76 44 47
4.275550 13.277438 75.962624 76 45 48
4.259494 13.390710 75.677353 76 45 49
4.243843 13.504044 75.399284 76 45 49
4.228604 13.617504 75.128540 77 45 48
4.213779 13.731149 74.865158 77 44 48
4.199369 13.845023 74.609138 76 43 46
4.185369 13.959162 74.360397 75 42 45
4.171774 14.073593 74.118851 73 41 44
4.158576 14.188342 73.884384 72 41 43
4.145769 14.303425 73.656837 72 40 43
4.133343 14.418856 73.436066 72 41 43
4.121287 14.534642 73.221870 73 43 44
4.109591 14.650787 73.014069 73 43 45
4.098245 14.767297 72.812485 73 44 46
4.087236 14.884166 72.616890 73 44 46
4.076553 15.001390 72.427086 73 45 47
4.066183 15.118960 72.242844 73 45 47
4.056112 15.236859 72.063911 73 45 47
4.046326 15.355070 71.890060 73 45 47
4.036810 15.473566 71.720993 72 45 47
4.027550 15.592321 71.556465 72 45 48
4.018530 15.711309 71.396217 71 44 47
4.009737 15.830496 71.239975 72 44 47
4.001153 15.949850 71.087479 73 44 47
3.992765 16.069332 70.938454 73 43 47
3.984559 16.188910 70.792648 73 43 47
3.976520 16.308546 70.649826 73 44 48
3.968634 16.428202 70.509727 72 44 48
3.960890 16.547840 70.372131 72 44 47
3.953273 16.667425 70.236801 70 44 46
3.945771 16.786919 70.103531 68 43 45
3.938373 16.906279 69.972076 65 42 42
3.931065 17.025463 69.842239 59 37 38
3.923834 17.144424 69.713760 55 33 33
3.916666 17.263111 69.586418 54 32 33
3.909548 17.381470 69.459946 55 32 34
3.902464 17.499435 69.334091 58 33 34
3.895398 17.616943 69.208565 61 34 36
3.888336 17.733923 69.083076 64 35 38
3.881258 17.850294 68.957344 66 37 40
3.874151 17.965981 68.831062 68 38 41
3.866996 18.080904 68.703949 70 40 42
3.859781 18.194994 68.575752 71 41 44
3.852491 18.308178 68.446243 71 42 45
3.845119 18.420406 68.315254 71 42 45
3.837656 18.531633 68.182671 69 42 45
3.830101 18.641840 68.048431 68 41 45
3.822454 18.751020 67.912582 66 38 42
3.814722 18.859192 67.775208 67 38 42
3.806916 18.966398 67.636513 69 41 44
3.799050 19.072712 67.496765 70 42 45
3.791144 19.178217 67.356300 70 42 44
3.783221 19.283031 67.215538 69 41 43
3.775307 19.387283 67.074921 68 40 42
4.443037 -11.294534 76.026558 50 35 36
4.453938 -11.157956 76.213097 49 34 35
4.464949 -11.020844 76.401512 49 33 35
4.476009 -10.883040 76.590767 49 33 35
4.487060 -10.744398 76.779861 49 34 36
4.498044 -10.604785 76.967827 50 35 37
4.508908 -10.464079 77.153709 52 35 38
4.519600 -10.322182 77.336678 54 36 39
4.530079 -10.179015 77.515976 56 37 39
4.540307 -10.034521 77.690994 57 37 40
4.550255 -9.888666 77.861229 57 37 40
4.559904 -9.741435 78.026314 57 37 41
4.569240 -9.592837 78.186073 58 38 41
4.578259 -9.442897 78.340401 59 38 42
4.586964 -9.291655 78.489357 59 39 42
4.595363 -9.139163 78.633087 59 39 43
4.603472 -8.985483 78.771828 59 40 42
4.611306 -8.830681 78.905891 58 40 43
4.618886 -8.674821 79.035576 58 40 42
4.626229 -8.517968 79.161240 58 40 42
4.633355 -8.360181 79.283173 58 39 42
4.640279 -8.201511 79.401657 58 38 42
4.647014 -8.042004 79.516899 58 38 42
4.653569 -7.881694 79.629066 60 38 43
4.659948 -7.720609 79.738220 61 38 44
4.666152 -7.558772 79.844391 62 40 46
4.672180 -7.396195 79.947525 64 42 47
4.678025 -7.232892 80.047539 65 43 47
4.683678 -7.068869 80.144272 66 43 47
4.689131 -6.904134 80.237579 66 43 47
4.694374 -6.738695 80.327301 66 43 46
4.699399 -6.572564 80.413284 64 43 45
4.704199 -6.405756 80.495422 63 43 44
4.708770 -6.238291 80.573631 63 42 44
4.713110 -6.070192 80.647903 64 43 45
4.717223 -5.901487 80.718277 66 43 46
4.721114 -5.732210 80.784851 68 44 47
4.724792 -5.562394 80.847778 71 45 48
4.728267 -5.392078 80.907257 73 46 50
4.731556 -5.221298 80.963531 73 47 50
4.734674 -5.050093 81.016876 73 48 51
4.737636 -4.878499 81.067574 73 49 51
4.740461 -4.706549 81.115906 73 49 51
4.743162 -4.534273 81.162132 72 49 50
4.745755 -4.361698 81.206497 71 49 49
4.748251 -4.188846 81.249207 70 49 48
4.750659 -4.015735 81.290398 70 48 47
4.752985 -3.842381 81.330208 69 46 46
4.755234 -3.668796 81.368698 69 44 45
4.757407 -3.494988 81.405876 69 44 45
4.759502 -3.320967 81.441734 68 44 45
4.761518 -3.146738 81.476227 70 45 46
4.763451 -2.972309 81.509293 72 47 48
4.765295 -2.797685 81.540848 73 47 48
4.767045 -2.622874 81.570808 73 47 48
4.768699 -2.447883 81.599098 74 46 48
4.770252 -2.272723 81.625671 74 46 49
4.771702 -2.097403 81.650482 74 46 50
4.773050 -1.921934 81.673546 74 46 51
4.774297 -1.746330 81.694893 74 47 51
4.775448 -1.570602 81.714592 73 48 52
4.776510 -1.394763 81.732765 72 48 52
4.777491 -1.218825 81.749535 72 48 52
4.778399 -1.042799 81.765091 72 49 52
4.779250 -0.866695 81.779640 72 49 51
4.780055 -0.690522 81.793411 72 49 50
4.780829 -0.514286 81.806664 72 48 50
4.781589 -0.337992 81.819664 71 47 48
4.782350 -0.161642 81.832687 71 46 47
4.783128 0.014764 81.846008 70 45 47
4.783940 0.191229 81.859894 71 45 47
4.784800 0.367757 81.874603 74 47 50
4.785722 0.544356 81.890381 75 49 53
4.786718 0.721034 81.907440 77 51 54
4.787802 0.897802 81.925972 77 51 55
4.788980 1.074671 81.946144 77 51 54
4.790261 1.251654 81.968056 76 50 53
4.791649 1.428764 81.991806 75 49 52
4.793145 1.606012 82.017403 74 48 51
4.794748 1.783410 82.044830 73 49 51
4.796454 1.960968 82.074028 73 50 51
4.798255 2.138695 82.104843 72 50 51
4.800141 2.316596 82.137115 72 50 51
4.802098 2.494672 82.170601 73 50 51
4.804109 2.672923 82.205009 74 50 51
4.806154 2.851342 82.239998 75 50 51
4.808210 3.029920 82.275185 77 50 52
4.810253 3.208640 82.310143 79 50 53
4.812258 3.387484 82.344452 81 50 55
4.814199 3.566429 82.377663 83 51 57
4.816051 3.745449 82.409370 85 52 59
4.817792 3.924513 82.439148 88 54 61
4.819399 4.103593 82.466660 90 55 63
4.820857 4.282658 82.491585 92 56 66
4.822150 4.461678 82.513718 93 57 66
4.823273 4.640630 82.532928 93 55 66
4.824224 4.819494 82.549210 93 54 65
4.825010 4.998257 82.562660 93 54 64
4.825642 5.176912 82.573479 93 54 65
4.826138 5.355464 82.581970 96 54 65
4.826524 5.533924 82.588562 99 55 66
4.826827 5.712316 82.593742 100 56 67
4.827078 5.890667 82.598053 102 56 67
4.827313 6.069016 82.602066 106 58 71
4.827566 6.247405 82.606392 110 61 74
4.827869 6.425880 82.611580 112 63 76
4.828249 6.604483 82.618080 113 64 77
4.828729 6.783253 82.626289 114 65 78
4.829322 6.962223 82.636452 114 67 79
4.830033 7.141411 82.648613 115 68 80
4.830855 7.320818 82.662674 115 70 82
4.831768 7.500428 82.678291 115 71 83
4.832738 7.680198 82.694901 114 71 83
4.833722 7.860059 82.711731 113 71 83
4.834657 8.039913 82.727737 110 69 82
4.835474 8.219635 82.741714 109 68 81
4.836091 8.399070 82.752274 108 69 82
4.836417 8.578033 82.757851 108 69 82
4.836355 8.756319 82.756790 107 70 82
4.835803 8.933695 82.747330 106 72 83
4.834658 9.109914 82.727753 105 74 84
4.832820 9.284716 82.696304 102 73 83
4.830192 9.457834 82.651321 96 71 79
4.826683 9.629004 82.591293 86 63 70
4.822216 9.797965 82.514839 72 52 57
4.816721 9.964473 82.420822 58 39 44
4.810146 10.128300 82.308319 49 31 34
4.802454 10.289248 82.176689 48 29 31
4.793622 10.447146 82.025574 49 30 32
4.783648 10.601860 81.854897 52 32 34
4.772544 10.753294 81.664902 54 34 37
4.760343 10.901392 81.456108 57 37 39
4.747089 11.046144 81.229317 60 39 41
4.732846 11.187579 80.985603 62 41 42
4.717690 11.325771 80.726257 64 41 42
4.701707 11.460831 80.452774 64 41 41
4.684996 11.592908 80.166824 65 40 40
4.667659 11.722180 79.870155 65 39 40
4.649803 11.848853 79.564621 66 40 41
4.631538 11.973152 79.252090 67 41 43
4.612975 12.095318 78.934441 70 43 44
4.594217 12.215600 78.613472 72 45 45
4.575367 12.334247 78.290916 73 46 46
4.556518 12.451508 77.968384 74 46 46
4.537756 12.567618 77.647339 73 45 45
4.519157 12.682802 77.329086 72 44 44
4.500786 12.797265 77.014740 72 43 44
4.482701 12.911193 76.705276 73 43 45
4.464947 13.024752 76.401474 74 43 46
4.447560 13.138088 76.103966 76 44 48
4.430569 13.251325 75.813225 76 45 49
4.413994 13.364568 75.529610 76 45 50
4.397848 13.477901 75.253319 76 45 50
4.382137 13.591393 74.984482 76 45 50
4.366864 13.705101 74.723137 76 44 49
4.352026 13.819066 74.469254 75 43 47
4.337621 13.933323 74.222755 74 42 46
4.323640 14.047897 73.983528 73 41 44
4.310076 14.162808 73.751419 72 40 43
4.296918 14.278069 73.526260 71 39 42
4.284155 14.393686 73.307869 73 41 44
4.271774 14.509662 73.096024 74 42 45
4.259765 14.625998 72.890533 73 43 45
4.248114 14.742690 72.691154 73 43 46
4.236806 14.859730 72.497673 73 45 47
4.225830 14.977109 72.309853 73 45 47
4.215170 15.094810 72.127449 73 45 48
4.204813 15.212818 71.950211 73 45 48
4.194742 15.331112 71.777885 73 45 48
4.184942 15.449662 71.610199 72 45 47
4.175398 15.568444 71.446884 71 44 47
4.166095 15.687428 71.287697 71 43 46
4.157018 15.806586 71.132378 71 42 46
4.148151 15.925883 70.980659 71 42 46
4.139482 16.045288 70.832306 72 41 46
4.130994 16.164768 70.687088 72 42 47
4.122676 16.284292 70.544754 72 43 48
4.114514 16.403822 70.405090 72 43 48
4.106496 16.523327 70.267876 71 43 48
4.098608 16.642773 70.132919 70 43 47
4.090841 16.762129 70.000000 67 42 45
4.083179 16.881350 69.868904 64 41 43
4.075613 17.000401 69.739426 61 38 40
4.068127 17.119232 69.611328 57 35 36
4.060707 17.237795 69.484367 57 34 35
4.053339 17.356031 69.358292 58 34 36
4.046007 17.473879 69.232834 60 34 36
4.038694 17.591269 69.107704 63 36 38
4.031383 17.708126 68.982590 65 37 39
4.024055 17.824368 68.857193 67 38 40
4.016692 17.939917 68.731201 68 39 41
4.009277 18.054688 68.604324 70 40 43
4.001794 18.168604 68.476288 70 41 44
3.994230 18.281595 68.346855 71 42 45
3.986574 18.393602 68.215843 70 42 45
3.978818 18.504581 68.083130 69 42 45
3.970959 18.614508 67.948662 68 41 44
3.963000 18.723375 67.812454 66 40 42
3.954944 18.831202 67.674622 66 39 42
3.946805 18.938032 67.535355 68 40 44
3.938599 19.043936 67.394928 69 41 44
3.930345 19.149002 67.253693 69 42 44
3.922068 19.253349 67.112068 69 41 43
4.598561 -11.274030 75.888550 51 35 36
4.609747 -11.137465 76.073143 49 34 35
4.621043 -11.000367 76.259552 48 33 34
4.632386 -10.862576 76.446754 48 33 34
4.643717 -10.723949 76.633736 49 34 35
4.654975 -10.584352 76.819534 50 35 36
4.666107 -10.443669 77.003227 52 36 38
4.677060 -10.301802 77.183983 55 37 39
4.687792 -10.158676 77.361092 57 38 40
4.698265 -10.014235 77.533936 57 38 41
4.708453 -9.868451 77.702057 57 38 41
4.718335 -9.721313 77.865135 58 38 41
4.727901 -9.572830 78.023010 58 38 40
4.737149 -9.423034 78.175613 58 38 41
4.746082 -9.271966 78.323036 58 38 41
4.754713 -9.119681 78.465469 58 39 42
4.763057 -8.966245 78.603172 58 39 42
4.771134 -8.811720 78.736458 58 40 43
4.778965 -8.656174 78.865692 58 40 43
4.786570 -8.499671 78.991196 59 40 43
4.793969 -8.342269 79.113304 59 40 43
4.801179 -8.184017 79.232292 59 39 43
4.808213 -8.024958 79.348358 59 38 43
4.815078 -7.865124 79.461655 60 37 43
4.821779 -7.704538 79.572235 61 38 43
4.828314 -7.543218 79.680092 63 40 45
4.834680 -7.381173 79.785141 66 43 48
4.840868 -7.218409 79.887245 68 45 49
4.846866 -7.054930 79.986237 68 45 48
4.852663 -6.890738 80.081902 68 44 47
4.858245 -6.725837 80.174026 67 44 46
4.863601 -6.560234 80.262421 65 43 45
4.868721 -6.393939 80.346916 64 43 44
4.873599 -6.226970 80.427399 64 42 43
4.878228 -6.059346 80.503807 65 42 44
4.882612 -5.891096 80.576141 66 43 45
4.886752 -5.722248 80.644455 69 44 47
4.890656 -5.552838 80.708885 71 45 49
4.894335 -5.382904 80.769600 73 46 50
4.897801 -5.212481 80.826813 74 47 51
4.901073 -5.041611 80.880798 74 48 51
4.904164 -4.870329 80.931816 74 48 51
4.907093 -4.698672 80.980148 74 49 51
4.909874 -4.526670 81.026047 73 49 51
4.912523 -4.354353 81.069763 72 49 50
4.915052 -4.181746 81.111504 71 49 49
4.917471 -4.008869 81.151421 70 47 47
4.919787 -3.835740 81.189644 69 45 45
4.922005 -3.662373 81.226242 69 44 45
4.924127 -3.488779 81.261253 69 44 45
4.926152 -3.314970 81.294670 70 44 46
4.928079 -3.140954 81.326462 71 46 48
4.929903 -2.966739 81.356575 73 48 49
4.931622 -2.792335 81.384933 73 48 48
4.933230 -2.617750 81.411476 72 46 47
4.934723 -2.442994 81.436119 72 45 46
4.936101 -2.268078 81.458855 73 45 47
4.937360 -2.093014 81.479630 74 46 49
4.938501 -1.917814 81.498466 74 46 50
4.939528 -1.742494 81.515419 74 47 51
4.940446 -1.567065 81.530571 74 48 52
4.941264 -1.391543 81.544052 72 48 52
4.941989 -1.215940 81.556023 71 48 52
4.942634 -1.040268 81.566666 71 48 52
4.943213 -0.864539 81.576218 71 49 51
4.943740 -0.688762 81.584923 72 49 51
4.944235 -0.512944 81.593094 72 48 51
4.944715 -0.337089 81.601013 71 48 49
4.945198 -0.161200 81.608986 71 46 48
4.945703 0.014722 81.617310 70 45 46
4.946247 0.190683 81.626289 71 44 47
4.946850 0.366686 81.636238 73 46 49
4.947526 0.542741 81.647400 75 49 52
4.948291 0.718856 81.660027 77 51 53
4.949159 0.895045 81.674355 78 51 54
4.950140 1.071319 81.690544 77 51 53
4.951243 1.247695 81.708748 77 50 52
4.952474 1.424185 81.729050 75 48 51
4.953834 1.600805 81.751495 73 46 48
4.955322 1.777567 81.776062 73 47 49
4.956935 1.954485 81.802681 74 50 52
4.958665 2.131567 81.831223 74 50 52
4.960500 2.308822 81.861504 74 50 52
4.962425 2.486253 81.893280 74 51 52
4.964422 2.663858 81.926239 74 51 52
4.966470 2.841636 81.960037 75 51 52
4.968545 3.019575 81.994270 77 51 52
4.970620 3.197661 82.028511 79 51 54
4.972668 3.375878 82.062309 81 51 55
4.974663 3.554202 82.095230 83 52 57
4.976577 3.732607 82.126823 86 53 59
4.978386 3.911066 82.156670 89 54 61
4.980067 4.089549 82.184410 91 56 63
4.981602 4.268025 82.209740 93 57 66
4.982976 4.446468 82.232430 94 57 66
4.984183 4.624854 82.252342 94 56 66
4.985221 4.803162 82.269470 94 55 65
4.986096 4.981381 82.283905 94 55 64
4.986819 5.159506 82.295845 95 55 65
4.987410 5.337540 82.305588 98 56 66
4.987893 5.515497 82.313560 100 57 67
4.988298 5.693399 82.320244 102 57 69
4.988657 5.871278 82.326180 105 59 70
4.989007 6.049170 82.331955 108 60 72
4.989383 6.227118 82.338150 111 62 74
4.989817 6.405169 82.345314 113 63 76
4.990338 6.583365 82.353912 114 65 77
4.990969 6.761747 82.364334 115 66 78
4.991725 6.940348 82.376801 115 66 79
4.992609 7.119184 82.391380 114 67 79
4.993613 7.298260 82.407959 114 69 81
4.994717 7.477557 82.426178 114 72 83
4.995887 7.657032 82.445480 114 73 84
4.997074 7.836619 82.465073 112 72 85
4.998217 8.016219 82.483932 110 70 84
4.999241 8.195705 82.500832 109 70 84
5.000062 8.374925 82.514381 108 70 84
5.000585 8.553693 82.523018 108 71 84
5.000710 8.731802 82.525078 108 72 85
5.000330 8.909023 82.518814 107 74 85
4.999342 9.085109 82.502495 107 76 86
4.997638 9.259800 82.474380 104 76 85
4.995119 9.432829 82.432808 96 72 80
4.991691 9.603931 82.376244 85 63 70
4.987274 9.772851 82.303337 72 52 57
4.981794 9.939338 82.212921 59 40 45
4.975199 10.103167 82.104073 49 32 34
4.967446 10.264137 81.976143 48 30 31
4.958515 10.422077 81.828743 49 30 32
4.948399 10.576849 81.661797 52 32 34
4.937109 10.728354 81.475494 55 34 36
4.924678 10.876532 81.270348 58 36 38
4.911152 11.021368 81.047127 61 38 40
4.896593 11.162889 80.806870 63 40 42
4.881079 11.301161 80.550842 65 41 43
4.864698 11.436293 80.280518 66 41 42
4.847550 11.568428 79.997536 67 41 42
4.829741 11.697742 79.703644 67 41 42
4.811383 11.824438 79.400673 68 42 42
4.792588 11.948741 79.090508 70 42 44
4.773470 12.070889 78.775017 72 44 46
4.754140 12.191133 78.456024 74 46 47
4.734704 12.309727 78.135277 76 47 48
4.715261 12.426919 77.814415 76 47 48
4.695902 12.542952 77.494934 75 46 47
4.676707 12.658051 77.178169 74 45 46
4.657748 12.772430 76.865288 72 44 45
4.639082 12.886278 76.557259 72 43 45
4.620762 12.999769 76.254929 74 43 47
4.602827 13.113051 75.958939 75 44 49
4.585305 13.226253 75.669785 76 45 50
4.568220 13.339482 75.387840 76 45 51
4.551586 13.452828 75.113327 76 46 51
4.535409 13.566359 74.846367 76 46 51
4.519692 13.680131 74.586998 76 44 49
4.504433 13.794186 74.335175 75 43 48
4.489625 13.908556 74.090820 74 41 46
4.475263 14.023265 73.853798 72 40 44
4.461334 14.138326 73.623924 71 39 42
4.447827 14.253750 73.401031 71 39 42
4.434730 14.369539 73.184883 73 41 44
4.422027 14.485690 72.975266 74 42 45
4.409706 14.602200 72.771927 73 43 46
4.397750 14.719055 72.574623 73 43 46
4.386146 14.836250 72.383118 74 45 47
4.374877 14.953767 72.197159 74 45 48
4.363928 15.071587 72.016479 74 45 48
4.353284 15.189691 71.840820 73 45 48
4.342929 15.308054 71.669937 72 45 48
4.332845 15.426647 71.503517 71 45 47
4.323018 15.545446 71.341347 71 44 46
4.313432 15.664422 71.183151 70 43 45
4.304071 15.783543 71.028671 69 41 45
4.294922 15.902780 70.877686 69 40 44
4.285970 16.022104 70.729958 70 39 44
4.277202 16.141485 70.585266 71 40 46
4.268606 16.260895 70.443398 72 42 47
4.260167 16.380301 70.304138 72 43 49
4.251875 16.499676 70.167305 71 43 48
4.243719 16.618990 70.032692 70 42 48
4.235685 16.738211 69.900124 67 42 46
4.227763 16.857304 69.769386 65 40 44
4.219939 16.976229 69.640266 63 39 42
4.212200 17.094942 69.512550 61 38 40
4.204531 17.213390 69.385994 60 37 39
4.196916 17.331518 69.260330 61 37 39
4.189339 17.449261 69.135292 62 37 39
4.181781 17.566544 69.010567 64 37 40
4.174224 17.683292 68.885849 66 38 41
4.166647 17.799419 68.760811 68 39 42
4.159031 17.914841 68.635132 69 40 42
4.151358 18.029469 68.508499 70 41 43
4.143609 18.143221 68.380623 70 41 44
4.135770 18.256023 68.251259 69 41 44
4.127830 18.367817 68.120216 69 42 44
4.119778 18.478548 67.987350 69 41 44
4.111613 18.588192 67.852608 67 41 43
4.103335 18.696743 67.716003 66 40 42
4.094952 18.804216 67.577644 66 39 42
4.086473 18.910656 67.437729 66 40 42
4.077919 19.016136 67.296547 67 40 43
4.069308 19.120747 67.154449 68 41 43
4.060668 19.224606 67.011871 69 41 44
4.753694 -11.254008 75.753777 51 36 36
4.765136 -11.117403 75.936104 51 35 36
4.776686 -10.980261 76.120171 50 34 36
4.788282 -10.842430 76.304962 49 34 35
4.799861 -10.703764 76.489487 48 34 35
4.811364 -10.564133 76.672783 50 35 37
4.822732 -10.423423 76.853951 52 37 39
4.833916 -10.281539 77.032173 55 38 41
4.844872 -10.138411 77.206764 57 39 42
4.855564 -9.993985 77.377144 58 39 42
4.865964 -9.848236 77.542885 57 38 41
4.876056 -9.701157 77.703697 57 38 39
4.885828 -9.552762 77.859444 56 37 38
4.895283 -9.403084 78.010109 56 37 38
4.904426 -9.252169 78.155807 57 37 39
4.913271 -9.100074 78.296761 57 38 40
4.921837 -8.946863 78.433266 58 39 42
4.930145 -8.792604 78.565659 59 40 43
4.938218 -8.637363 78.694313 59 41 44
4.946079 -8.481204 78.819572 60 41 44
4.953748 -8.324183 78.941795 60 41 44
4.961243 -8.166348 79.061226 59 40 44
4.968576 -8.007737 79.178085 60 39 44
4.975756 -7.848380 79.292496 60 38 43
4.982784 -7.688297 79.404503 61 38 43
4.989660 -7.527500 79.514069 64 40 45
4.996375 -7.365994 79.621071 67 43 48
5.002918 -7.203780 79.725349 69 45 49
5.009276 -7.040856 79.826675 69 44 48
5.015433 -6.877219 79.924782 68 44 46
5.021372 -6.712868 80.019432 67 43 45
5.027078 -6.547805 80.110359 66 43 45
5.032538 -6.382038 80.197365 65 43 44
5.037741 -6.215579 80.280273 65 43 44
5.042679 -6.048445 80.358978 66 42 45
5.047352 -5.880662 80.433441 68 43 46
5.051759 -5.712258 80.503670 70 44 48
5.055907 -5.543268 80.569778 72 45 50
5.059805 -5.373725 80.631889 74 46 51
5.063465 -5.203671 80.690208 75 47 52
5.066901 -5.033144 80.744972 75 47 52
5.070131 -4.862183 80.796448 75 48 52
5.073171 -4.690824 80.844887 75 49 53
5.076037 -4.519101 80.890556 75 50 53
5.078745 -4.347046 80.933708 74 50 52
5.081306 -4.174685 80.974525 72 48 51
5.083733 -4.002041 81.013199 70 46 48
5.086032 -3.829135 81.049843 69 44 46
5.088211 -3.655984 81.084557 69 43 45
5.090271 -3.482602 81.117378 70 44 47
5.092212 -3.309002 81.148315 72 45 48
5.094034 -3.135195 81.177345 73 46 49
5.095734 -2.961192 81.204445 73 48 49
5.097309 -2.787004 81.229546 73 48 49
5.098756 -2.612642 81.252594 72 46 46
5.100070 -2.438117 81.273544 71 45 46
5.101252 -2.263443 81.292374 72 45 47
5.102299 -2.088632 81.309067 73 45 48
5.103214 -1.913701 81.323647 74 46 50
5.104002 -1.738662 81.336197 74 47 51
5.104667 -1.563533 81.346802 73 48 52
5.105220 -1.388327 81.355621 72 48 52
5.105673 -1.213059 81.362823 71 47 51
5.106036 -1.037742 81.368614 71 48 51
5.106328 -0.862388 81.373260 71 48 51
5.106564 -0.687007 81.377029 72 48 51
5.106766 -0.511605 81.380241 73 48 51
5.106952 -0.336189 81.383209 72 48 50
5.107144 -0.160761 81.386276 72 47 49
5.107363 0.014681 81.389763 72 46 48
5.107630 0.190140 81.394020 73 46 49
5.107965 0.365622 81.399353 75 48 50
5.108387 0.541137 81.406075 77 50 51
5.108911 0.716694 81.414429 78 51 53
5.109555 0.892309 81.424690 79 51 54
5.110331 1.067995 81.437050 78 51 54
5.111248 1.243769 81.451668 78 50 53
5.112313 1.419647 81.468636 76 49 51
5.113529 1.595646 81.488022 74 46 49
5.114895 1.771780 81.509796 73 47 50
5.116409 1.948063 81.533913 76 49 52
5.118060 2.124508 81.560219 77 50 54
5.119836 2.301123 81.588531 76 51 54
5.121724 2.477914 81.618607 76 52 54
5.123701 2.654881 81.650116 76 52 54
5.125746 2.832021 81.682716 77 52 54
5.127834 3.009326 81.715988 78 51 55
5.129936 3.186784 81.749481 79 51 56
5.132024 3.364377 81.782753 81 52 57
5.134068 3.542084 81.815331 84 52 58
5.136042 3.719879 81.846779 86 54 59
5.137917 3.897736 81.876663 89 55 61
5.139670 4.075625 81.904602 91 56 64
5.141283 4.253518 81.930298 93 57 65
5.142739 4.431387 81.953506 95 57 65
5.144031 4.609209 81.974098 95 56 65
5.145157 4.786964 81.992035 95 55 64
5.146122 4.964642 82.007408 96 55 65
5.146937 5.142238 82.020416 97 56 66
5.147624 5.319756 82.031349 100 58 67
5.148205 5.497209 82.040619 102 59 69
5.148713 5.674620 82.048706 104 60 71
5.149181 5.852021 82.056160 107 61 72
5.149644 6.029449 82.063545 109 62 74
5.150140 6.206947 82.071442 112 63 75
5.150702 6.384563 82.080414 114 64 76
5.151361 6.562340 82.090912 115 65 77
5.152139 6.740318 82.103302 115 66 78
5.153051 6.918530 82.117836 115 66 78
5.154101 7.096994 82.134575 113 66 79
5.155281 7.275714 82.153374 114 69 81
5.156570 7.454672 82.173920 114 73 85
5.157933 7.633828 82.195625 114 74 86
5.159318 7.813112 82.217705 113 74 86
5.160663 7.992428 82.239136 111 74 87
5.161891 8.171652 82.258705 110 74 88
5.162914 8.350629 82.275009 110 74 88
5.163635 8.529178 82.286499 109 74 88
5.163950 8.707090 82.291519 109 75 88
5.163750 8.884139 82.288330 109 76 88
5.162925 9.060078 82.275192 108 78 90
5.161367 9.234649 82.250366 107 79 89
5.158973 9.407586 82.212204 100 75 84
5.155646 9.578626 82.159187 88 65 72
5.151299 9.747510 82.089928 72 53 59
5.145862 9.913991 82.003265 58 41 44
5.139274 10.077845 81.898293 49 32 34
5.131494 10.238865 81.774300 48 30 31
5.122496 10.396881 81.630920 49 30 31
5.112274 10.551752 81.468025 52 31 33
5.100839 10.703374 81.285797 55 33 35
5.088219 10.851685 81.084686 59 36 37
5.074462 10.996663 80.865463 62 38 39
5.059630 11.138330 80.629097 65 40 42
5.043800 11.276749 80.376839 67 41 43
5.027064 11.412021 80.110138 68 42 43
5.009521 11.544285 79.830582 69 43 43
4.991282 11.673714 79.539925 69 43 43
4.972459 11.800506 79.239967 70 43 43
4.953171 11.924884 78.932602 71 44 45
4.933535 12.047086 78.619675 73 45 46
4.913666 12.167364 78.303055 75 46 47
4.893675 12.285970 77.984482 76 47 48
4.873666 12.403156 77.665619 77 47 48
4.853734 12.519168 77.347992 76 47 48
4.833966 12.634238 77.032974 75 46 47
4.814436 12.748580 76.721756 73 45 46
4.795209 12.862391 76.415344 73 44 45
4.776338 12.975849 76.114616 74 43 47
4.757865 13.089108 75.820244 75 44 48
4.739824 13.202298 75.532738 75 45 49
4.722237 13.315533 75.252487 76 46 50
4.705122 13.428901 74.979736 76 46 51
4.688484 13.542475 74.714600 76 46 51
4.672327 13.656312 74.457130 76 45 50
4.656648 13.770452 74.207275 75 42 48
4.641441 13.884925 73.964943 73 40 46
4.626697 13.999753 73.729973 71 39 44
4.612403 14.114948 73.502190 70 38 42
4.598547 14.230516 73.281387 71 38 42
4.585114 14.346457 73.067322 72 39 43
4.572088 14.462759 72.859741 73 41 44
4.559453 14.579417 72.658386 74 43 46
4.547192 14.696417 72.462997 74 44 47
4.535289 14.813744 72.273315 74 45 48
4.523726 14.931376 72.089058 74 45 48
4.512488 15.049297 71.909973 73 45 48
4.501557 15.167480 71.735779 73 45 48
4.490916 15.285898 71.566200 71 45 47
4.480547 15.404524 71.400978 70 44 46
4.470437 15.523331 71.239853 69 43 45
4.460567 15.642287 71.082565 68 41 44
4.450923 15.761368 70.928886 68 40 44
4.441491 15.880544 70.778587 68 39 44
4.432258 15.999787 70.631447 69 39 44
4.423210 16.119072 70.487259 70 40 45
4.414336 16.238375 70.345833 72 41 47
4.405622 16.357662 70.206978 73 43 49
4.397058 16.476917 70.070518 72 43 49
4.388635 16.596109 69.936272 70 43 49
4.380338 16.715208 69.804062 69 43 47
4.372157 16.834183 69.673691 67 42 46
4.364080 16.952999 69.544968 65 41 45
4.356091 17.071606 69.417664 64 40 43
4.348176 17.189959 69.291542 64 39 42
4.340319 17.307993 69.166328 65 40 42
4.332501 17.425648 69.041733 66 40 42
4.324702 17.542843 68.917458 67 40 43
4.316903 17.659500 68.793167 68 41 44
4.309080 17.775526 68.668510 69 41 44
4.301214 17.890835 68.543159 70 41 44
4.293284 18.005333 68.416786 70 42 44
4.285270 18.118933 68.289078 70 42 45
4.277156 18.231554 68.159775 69 41 44
4.268929 18.343132 68.028671 69 41 43
4.260580 18.453617 67.895622 68 41 43
4.252104 18.562977 67.760559 67 41 42
4.243504 18.671202 67.623497 66 41 42
4.234784 18.778311 67.484543 66 40 41
4.225959 18.884348 67.343910 67 39 42
4.217046 18.989384 67.201874 68 40 43
4.208069 19.093515 67.058815 69 41 44
4.199055 19.196863 66.915176 70 41 45
4.896946 -11.370758 75.444916 51 37 37
4.908441 -11.234432 75.622002 51 37 37
4.920105 -11.097728 75.801720 52 37 38
4.931879 -10.960490 75.983109 52 36 38
4.943695 -10.822562 76.165146 50 35 37
4.955490 -10.683806 76.346870 49 35 36
4.967203 -10.544091 76.527321 51 36 38
4.978776 -10.403307 76.705627 53 38 40
4.990160 -10.261363 76.881004 55 38 42
5.001309 -10.118191 77.052788 57 39 42
5.012190 -9.973742 77.220421 57 39 42
5.022777 -9.827995 77.383522 56 38 40
5.033051 -9.680947 77.541824 55 37 38
5.043009 -9.532615 77.695229 55 36 36
5.052649 -9.383034 77.843765 55 36 36
5.061984 -9.232252 77.987572 55 37 37
5.071027 -9.080331 78.126892 56 38 39
5.079801 -8.927335 78.262070 58 40 41
5.088329 -8.773333 78.393456 59 41 43
5.096636 -8.618390 78.521446 60 42 45
5.104747 -8.462571 78.646408 60 42 46
5.112684 -8.305929 78.768684 60 42 46
5.120463 -8.148510 78.888535 60 41 45
5.128099 -7.990351 79.006180 60 40 45
5.135598 -7.831475 79.121704 60 39 44
5.142962 -7.671902 79.235168 61 40 44
5.150187 -7.511634 79.346474 64 41 45
5.157263 -7.350676 79.455490 67 43 47
5.164176 -7.189020 79.561996 69 44 48
5.170910 -7.026662 79.665741 69 43 47
5.177444 -6.863591 79.766403 68 43 45
5.183758 -6.699802 79.863686 67 42 44
5.189833 -6.535294 79.957283 66 42 44
5.195652 -6.370067 80.046936 66 42 44
5.201201 -6.204131 80.132416 66 43 45
5.206469 -6.037501 80.213577 67 43 46
5.211450 -5.870199 80.290329 69 43 48
5.216144 -5.702251 80.362648 71 44 49
5.220553 -5.533690 80.430573 73 45 51
5.224686 -5.364552 80.494247 75 46 53
5.228552 -5.194875 80.553810 76 46 53
5.232167 -5.024700 80.609497 77 47 54
5.235545 -4.854065 80.661545 77 48 54
5.238704 -4.683009 80.710205 78 49 55
5.241659 -4.511569 80.755745 79 51 57
5.244427 -4.339777 80.798378 77 50 55
5.247020 -4.167663 80.838333 74 48 52
5.249451 -3.995253 80.875786 71 45 49
5.251728 -3.822569 80.910873 69 43 47
5.253858 -3.649632 80.943680 69 42 46
5.255845 -3.476459 80.974289 70 44 47
5.257689 -3.303065 81.002708 72 45 48
5.259392 -3.129463 81.028938 73 47 49
5.260951 -2.955668 81.052963 74 48 50
5.262365 -2.781693 81.074745 73 47 49
5.263631 -2.607550 81.094254 72 45 46
5.264747 -2.433254 81.111443 71 45 45
5.265713 -2.258819 81.126328 71 45 46
5.266530 -2.084261 81.138901 72 45 47
5.267199 -1.909596 81.149216 72 46 48
5.267727 -1.734840 81.157364 72 47 50
5.268123 -1.560009 81.163460 72 47 51
5.268395 -1.385120 81.167656 72 47 51
5.268558 -1.210187 81.170158 72 47 52
5.268625 -1.035224 81.171196 72 47 51
5.268615 -0.860245 81.171043 72 48 50
5.268548 -0.685259 81.169998 73 48 51
5.268444 -0.510274 81.168404 74 48 51
5.268326 -0.335294 81.166588 74 48 50
5.268218 -0.160323 81.164909 74 48 49
5.268142 0.014641 81.163757 74 48 50
5.268123 0.189602 81.163460 75 48 50
5.268182 0.364567 81.164368 77 49 51
5.268341 0.539546 81.166809 79 51 51
5.268618 0.714552 81.171074 79 51 53
5.269030 0.889599 81.177437 80 51 55
5.269593 1.064704 81.186104 80 51 55
5.270318 1.239884 81.197266 79 51 55
5.271211 1.415158 81.211029 78 49 53
5.272276 1.590543 81.227440 76 48 52
5.273514 1.766057 81.246513 76 47 52
5.274920 1.941714 81.268166 76 49 53
5.276484 2.117529 81.292282 77 50 54
5.278197 2.293512 81.318657 78 51 55
5.280039 2.469669 81.347038 78 52 57
5.281991 2.646003 81.377113 78 52 57
5.284028 2.822513 81.408493 79 52 57
5.286123 2.999192 81.440781 80 51 57
5.288247 3.176026 81.473503 81 51 58
5.290370 3.353001 81.506210 82 52 58
5.292461 3.530096 81.538429 84 52 59
5.294491 3.707286 81.569702 87 54 60
5.296432 3.884546 81.599594 90 55 62
5.298257 4.061847 81.627716 92 56 64
5.299947 4.239160 81.653748 95 57 65
5.301485 4.416460 81.677452 96 58 66
5.302863 4.593722 81.698677 97 57 66
5.304078 4.770930 81.717400 97 57 66
5.305135 4.948071 81.733681 97 57 66
5.306045 5.125140 81.747704 99 58 68
5.306828 5.302143 81.759766 101 60 69
5.307509 5.479093 81.770264 103 61 70
5.308120 5.656013 81.779678 105 61 72
5.308695 5.832934 81.788528 107 62 74
5.309270 6.009894 81.797394 109 63 75
5.309884 6.186936 81.806847 111 64 75
5.310571 6.364108 81.817429 113 65 76
5.311361 6.541452 81.829613 113 66 77
5.312279 6.719010 81.843750 113 66 78
5.313340 6.896814 81.860092 113 67 79
5.314547 7.074884 81.878693 113 68 80
5.315894 7.253225 81.899445 113 70 83
5.317358 7.431818 81.921997 113 73 86
5.318903 7.610625 81.945801 113 75 87
5.320478 7.789579 81.970070 112 77 89
5.322018 7.968584 81.993782 113 78 91
5.323442 8.147516 82.015739 112 78 92
5.324663 8.326222 82.034546 110 77 91
5.325580 8.504526 82.048668 109 76 90
5.326085 8.682219 82.056450 109 76 90
5.326067 8.859075 82.056175 110 77 91
5.325413 9.034850 82.046097 111 80 93
5.324012 9.209290 82.024506 111 82 93
5.321755 9.382129 81.989746 103 79 87
5.318545 9.553106 81.940292 90 69 76
5.314293 9.721962 81.874771 73 55 59
5.308921 9.888452 81.792015 58 41 43
5.302370 10.052347 81.691086 49 32 33
5.294594 10.213446 81.571289 48 29 30
5.285566 10.371571 81.432198 49 29 30
5.275277 10.526580 81.273674 53 31 32
5.263736 10.678366 81.095871 56 34 34
5.250971 10.826860 80.899200 60 36 36
5.237027 10.972039 80.684380 63 38 39
5.221967 11.113914 80.452354 66 40 41
5.205869 11.252546 80.204338 69 42 43
5.188823 11.388028 79.941711 70 43 44
5.170932 11.520496 79.666084 71 44 45
5.152307 11.650115 79.379128 71 44 45
5.133063 11.777079 79.082657 72 45 46
5.113324 11.901608 78.778534 73 45 46
5.093208 12.023940 78.468628 74 46 47
5.072836 12.144323 78.154770 75 46 47
5.052325 12.263012 77.838753 76 47 47
5.031781 12.380260 77.522247 77 47 47
5.011305 12.496314 77.206795 76 47 47
4.990989 12.611410 76.893791 75 46 46
4.970912 12.725768 76.584465 75 45 45
4.951141 12.839588 76.279869 74 44 45
4.931735 12.953051 75.980881 74 45 47
4.912738 13.066316 75.688217 75 45 48
4.894187 13.179519 75.402412 76 46 49
4.876108 13.292774 75.123871 76 46 50
4.858517 13.406176 74.852852 76 46 51
4.841422 13.519796 74.589478 76 45 50
4.824827 13.633694 74.333817 75 44 49
4.808730 13.747910 74.085800 74 42 47
4.793121 13.862472 73.845329 72 40 45
4.777993 13.977403 73.612267 71 39 43
4.763332 14.092710 73.386391 70 38 42
4.749124 14.208397 73.167480 71 38 43
4.735352 14.324460 72.955299 72 39 43
4.721998 14.440888 72.749565 73 41 44
4.709044 14.557669 72.550003 74 43 45
4.696474 14.674785 72.356339 74 44 47
4.684268 14.792217 72.168289 74 45 49
4.672410 14.909945 71.985580 74 46 49
4.660879 15.027942 71.807930 73 46 49
4.649658 15.146184 71.635056 72 46 49
4.638729 15.264643 71.466690 70 45 47
4.628075 15.383286 71.302544 69 44 45
4.617679 15.502090 71.142372 68 42 44
4.607525 15.621025 70.985939 67 40 43
4.597599 15.740063 70.833008 66 39 43
4.587885 15.859178 70.683357 66 38 43
4.578371 15.978344 70.536781 67 38 43
4.569045 16.097540 70.393097 69 40 44
4.559895 16.216742 70.252121 71 42 46
4.550909 16.335926 70.113686 73 44 48
4.542077 16.455072 69.977615 73 44 49
4.533389 16.574156 69.843758 71 43 49
4.524833 16.693151 69.711952 70 43 48
4.516399 16.812031 69.582001 70 43 47
4.508072 16.930754 69.453712 69 43 46
4.499839 17.049278 69.326874 68 42 46
4.491684 17.167555 69.201233 68 42 45
4.483589 17.285521 69.076515 68 42 45
4.475534 17.403107 68.952423 69 42 46
4.467500 17.520235 68.828636 69 43 46
4.459463 17.636818 68.704811 70 43 47
4.451399 17.752764 68.580574 71 43 46
4.443285 17.867975 68.455582 71 42 46
4.435100 17.982353 68.329468 71 42 46
4.426822 18.095810 68.201935 70 42 45
4.418432 18.208258 68.072678 70 42 44
4.409917 18.319626 67.941490 69 42 43
4.401267 18.429861 67.808212 69 41 43
4.392476 18.538929 67.672775 68 41 43
4.383545 18.646818 67.535187 67 41 42
4.374482 18.753550 67.395561 66 40 41
4.365300 18.859163 67.254097 67 40 42
4.356019 18.963736 67.111107 69 41 43
4.346663 19.067364 66.966972 70 41 44
5.051118 -11.351741 75.318733 50 37 36
5.062802 -11.215262 75.492966 51 38 37
5.074658 -11.078406 75.669746 53 38 39
5.086619 -10.941015 75.848099 53 38 39
5.098620 -10.802939 76.027046 52 36 38
5.110596 -10.664041 76.205627 52 36 38
5.122485 -10.524193 76.382904 53 37 39
5.134230 -10.383290 76.558037 54 38 41
5.145780 -10.241244 76.730270 56 39 42
5.157092 -10.097989 76.898949 57 39 42
5.168132 -9.953485 77.063576 57 39 42
5.178876 -9.807709 77.223778 56 38 40
5.189310 -9.660664 77.379356 55 36 38
5.199428 -9.512370 77.530228 54 36 36
5.209234 -9.362866 77.676453 55 36 36
5.218741 -9.212204 77.818214 56 37 37
5.227968 -9.060444 77.955788 57 39 38
5.236938 -8.907655 78.089539 58 40 41
5.245676 -8.753903 78.219849 59 41 43
5.254211 -8.599256 78.347115 60 42 45
5.262568 -8.443774 78.471718 60 42 46
5.270770 -8.287513 78.594032 60 42 46
5.278835 -8.130513 78.714294 60 41 45
5.286777 -7.972809 78.832726 60 40 45
5.294602 -7.814421 78.949402 61 40 45
5.302311 -7.655362 79.064346 62 41 45
5.309896 -7.495634 79.177452 64 42 46
5.317346 -7.335231 79.288544 67 43 47
5.324645 -7.174145 79.397369 68 43 47
5.331769 -7.012362 79.503616 69 43 47
5.338699 -6.849869 79.606934 68 42 44
5.345407 -6.686655 79.706970 67 41 44
5.351871 -6.522712 79.803352 66 41 44
5.358070 -6.358038 79.895782 67 42 45
5.363985 -6.192639 79.983986 67 43 46
5.369602 -6.026525 80.067749 68 44 48
5.374912 -5.859715 80.146927 70 44 49
5.379911 -5.692235 80.221474 71 44 50
5.384600 -5.524114 80.291389 74 45 52
5.388984 -5.355389 80.356750 77 46 53
5.393071 -5.186097 80.417694 79 47 54
5.396875 -5.016280 80.474426 79 47 55
5.400412 -4.845978 80.527161 80 47 56
5.403697 -4.675231 80.576141 81 49 57
5.406746 -4.504076 80.621613 81 51 58
5.409575 -4.332549 80.663803 79 50 56
5.412200 -4.160683 80.702942 76 48 53
5.414632 -3.988505 80.739197 72 45 50
5.416880 -3.816043 80.772720 70 43 48
5.418953 -3.643318 80.803635 69 43 47
5.420855 -3.470350 80.831993 71 45 48
5.422590 -3.297158 80.857864 72 46 49
5.424159 -3.123759 80.881248 74 47 49
5.425560 -2.950169 80.902153 74 48 50
5.426795 -2.776403 80.920578 73 47 49
5.427863 -2.602477 80.936493 71 45 46
5.428762 -2.428408 80.949898 70 44 45
5.429494 -2.254211 80.960808 70 45 45
5.430060 -2.079904 80.969254 70 45 46
5.430466 -1.905504 80.975304 70 45 47
5.430719 -1.731029 80.979073 71 46 49
5.430827 -1.556496 80.980682 72 46 51
5.430804 -1.381923 80.980339 73 47 52
5.430662 -1.207325 80.978233 73 47 53
5.430420 -1.032717 80.974617 73 48 52
5.430097 -0.858112 80.969803 73 48 51
5.429714 -0.683521 80.964096 74 48 51
5.429295 -0.508950 80.957848 75 48 51
5.428864 -0.334406 80.951424 75 48 50
5.428448 -0.159889 80.945213 76 48 49
5.428071 0.014600 80.939590 76 48 49
5.427759 0.189068 80.934944 77 49 49
5.427536 0.363521 80.931618 78 50 50
5.427426 0.537972 80.929977 80 51 51
5.427449 0.712433 80.930321 81 52 52
5.427625 0.886920 80.932945 81 51 55
5.427970 1.061451 80.938087 81 51 55
5.428495 1.236046 80.945915 80 51 55
5.429210 1.410724 80.956573 79 51 54
5.430118 1.585504 80.970116 78 50 53
5.431220 1.760406 80.986549 78 49 53
5.432512 1.935446 81.005814 77 49 54
5.433985 2.110639 81.027779 78 50 55
5.435626 2.285998 81.052238 78 51 57
5.437417 2.461530 81.078941 79 52 59
5.439335 2.637239 81.107559 80 52 60
5.441358 2.813125 81.137718 80 52 61
5.443456 2.989183 81.169006 81 51 61
5.445597 3.165401 81.200935 82 51 60
5.447751 3.341764 81.233047 83 51 60
5.449886 3.518253 81.264885 85 52 60
5.451970 3.694844 81.295952 88 53 60
5.453973 3.871514 81.325829 90 55 62
5.455870 4.048232 81.354111 93 56 64
5.457637 4.224972 81.380463 95 57 65
5.459260 4.401709 81.404655 96 58 66
5.460725 4.578419 81.426506 97 58 67
5.462031 4.755084 81.445984 97 58 67
5.463181 4.931693 81.463142 98 59 68
5.464189 5.108241 81.478157 100 60 69
5.465070 5.284733 81.491302 101 61 71
5.465853 5.461183 81.502968 103 62 72
5.466567 5.637612 81.513618 105 63 73
5.467248 5.814053 81.523781 107 63 74
5.467933 5.990541 81.533997 109 64 75
5.468662 6.167122 81.544853 110 65 75
5.469468 6.343840 81.556870 111 65 75
5.470384 6.520741 81.570526 111 66 75
5.471433 6.697865 81.586182 111 66 77
5.472633 6.875245 81.604073 111 67 79
5.473988 7.052900 81.624275 113 70 82
5.475490 7.230839 81.646675 114 72 85
5.477118 7.409043 81.670944 112 73 87
5.478834 7.587475 81.696533 111 75 88
5.480587 7.766069 81.722672 112 78 90
5.482310 7.944733 81.748367 113 80 93
5.483923 8.123344 81.772423 113 81 95
5.485334 8.301754 81.793465 110 79 92
5.486441 8.479784 81.809967 109 76 91
5.487134 8.657232 81.820305 110 77 92
5.487299 8.833875 81.822769 112 79 93
5.486821 9.009471 81.815628 113 82 95
5.485583 9.183766 81.797173 112 84 96
5.483478 9.356501 81.765778 104 80 88
5.480401 9.527411 81.719902 90 70 75
5.476262 9.696243 81.658180 73 56 59
5.470981 9.862751 81.579437 58 41 43
5.464495 10.026708 81.482719 49 32 33
5.456756 10.187907 81.367317 48 30 30
5.447733 10.346172 81.232780 50 29 29
5.437416 10.501357 81.078934 54 31 32
5.425811 10.653351 80.905899 59 35 35
5.412945 10.802080 80.714043 62 37 37
5.398861 10.947515 80.504036 65 38 39
5.383621 11.089662 80.276794 68 40 41
5.367302 11.228571 80.033447 70 42 43
5.349996 11.364335 79.775391 71 43 45
5.331805 11.497079 79.504143 72 44 46
5.312841 11.626962 79.221375 72 45 47
5.293225 11.754176 78.928864 73 45 47
5.273078 11.878934 78.628448 73 46 47
