ply
format ascii 1.0
element vertex 1211
property float x
property float y
property float z
property uchar red
property uchar green
property uchar blue
end_header
-6.296960 -2.711867 57.401051 84 69 91
-6.307268 -2.592366 57.495010 82 68 88
-6.317338 -2.472367 57.586803 80 67 85
-6.327142 -2.351874 57.676178 77 65 83
-6.336655 -2.230893 57.762901 75 64 81
-6.345860 -2.109435 57.846802 73 62 78
-6.354743 -1.987515 57.927788 72 61 76
-6.363303 -1.865151 58.005810 74 62 77
-6.371541 -1.742363 58.080906 75 64 77
-6.379468 -1.619172 58.153172 78 66 78
-6.387103 -1.495601 58.222759 81 68 80
-6.394466 -1.371672 58.289886 84 72 83
-6.401588 -1.247407 58.354809 87 77 87
-6.408501 -1.122825 58.417820 91 84 93
-6.415239 -0.997944 58.479240 97 90 99
-6.421839 -0.872779 58.539410 100 93 103
-6.428339 -0.747344 58.598663 101 93 104
-6.434778 -0.621647 58.657352 102 94 104
-6.441189 -0.495694 58.715797 104 96 106
-6.447610 -0.369491 58.774326 106 97 108
-6.454071 -0.243037 58.833218 107 97 110
-6.460601 -0.116330 58.892750 109 98 112
-6.467229 0.010634 58.953171 111 99 115
-6.473981 0.137861 59.014713 114 99 117
-6.480878 0.265359 59.077587 114 99 117
-6.487943 0.393139 59.141987 114 97 116
-6.495194 0.521211 59.208088 113 97 115
-6.502652 0.649589 59.276073 114 96 114
-6.510335 0.778286 59.346111 114 97 114
-6.518262 0.907320 59.418373 114 97 113
-6.526453 1.036707 59.493034 114 97 112
-6.534924 1.166466 59.570251 114 97 111
-6.543695 1.296617 59.650204 114 97 111
-6.552784 1.427183 59.733063 113 96 109
-6.562209 1.558185 59.818974 111 94 108
-6.571985 1.689648 59.908092 111 93 107
-6.582127 1.821596 60.000542 111 93 106
-6.592647 1.954055 60.096439 112 93 106
-6.603554 2.087050 60.195862 112 93 106
-6.614853 2.220605 60.298859 112 92 105
-6.626546 2.354744 60.405449 111 90 103
-6.638631 2.489490 60.515617 110 88 102
-6.651103 2.624863 60.629299 111 87 102
-6.663951 2.760883 60.746422 112 87 103
-6.677163 2.897565 60.866859 112 86 104
-6.690723 3.034924 60.990471 112 86 104
-6.704614 3.172973 61.117092 110 84 102
-6.718815 3.311721 61.246544 107 83 100
-6.733305 3.451175 61.378635 106 83 99
-6.748064 3.591341 61.513168 106 84 99
-6.763068 3.732223 61.649940 106 85 99
-6.778296 3.873822 61.788750 108 87 100
-6.793725 4.016139 61.929398 110 89 102
-6.809334 4.159172 62.071690 111 91 103
-6.825102 4.302918 62.215424 113 91 104
-6.841008 4.447374 62.360416 114 92 105
-6.857032 4.592534 62.506481 115 92 105
-6.873152 4.738390 62.653431 115 92 104
-6.889349 4.884935 62.801083 115 91 104
-6.905605 5.032158 62.949261 116 91 103
-6.921900 5.180050 63.097801 116 90 103
-6.938215 5.328598 63.246525 116 89 102
-6.954535 5.477791 63.395294 115 88 102
-6.970844 5.627616 63.543961 115 89 102
-6.987128 5.778061 63.692398 113 87 100
-7.003374 5.929115 63.840492 112 86 98
-7.019573 6.080766 63.988155 112 85 97
-7.035714 6.233003 64.135300 112 84 97
-7.051792 6.385816 64.281853 112 83 97
-7.067798 6.539195 64.427765 112 81 96
-7.083728 6.693131 64.572968 112 80 94
-7.099575 6.847613 64.717430 112 80 93
-7.115334 7.002631 64.861076 111 81 93
-7.130998 7.158174 65.003868 111 82 92
-7.146562 7.314229 65.145744 110 82 92
-7.162016 7.470783 65.286629 109 82 92
-7.177354 7.627819 65.426437 108 81 92
-7.192565 7.785320 65.565094 108 81 93
-7.207640 7.943270 65.702515 108 80 92
-7.222568 8.101648 65.838593 108 79 92
-5.800519 -8.477746 53.935509 91 67 81
-5.803879 -8.366322 53.966743 91 68 83
-5.807310 -8.254865 53.998650 91 69 85
-5.810801 -8.143353 54.031105 91 70 86
-5.814338 -8.031768 54.064003 91 71 88
-5.817917 -7.920096 54.097282 92 72 90
-5.821536 -7.808334 54.130928 92 74 91
-5.825195 -7.696481 54.164955 92 76 91
-5.828899 -7.584539 54.199398 91 77 91
-5.832660 -7.472521 54.234364 90 77 90
-5.836489 -7.360439 54.269966 89 76 89
-5.840404 -7.248311 54.306374 88 75 87
-5.844424 -7.136153 54.343754 87 74 85
-5.848572 -7.023988 54.382320 86 73 84
-5.852870 -6.911834 54.422291 87 72 84
-5.857346 -6.799713 54.463902 86 71 85
-5.862021 -6.687642 54.507381 87 71 86
-5.866922 -6.575635 54.552952 88 70 87
-5.872073 -6.463706 54.600838 88 69 88
-5.877493 -6.351863 54.651237 88 69 89
-5.883201 -6.240107 54.704311 87 69 89
-5.889211 -6.128438 54.760197 86 69 88
-5.895535 -6.016847 54.819000 86 68 87
-5.902178 -5.905323 54.880772 86 67 86
-5.909143 -5.793848 54.945538 86 66 85
-5.916426 -5.682398 55.013252 85 66 84
-5.924019 -5.570949 55.083858 85 65 84
-5.931911 -5.459470 55.157238 85 64 83
-5.940085 -5.347929 55.233246 84 64 82
-5.948525 -5.236294 55.311729 83 63 81
-5.957211 -5.124532 55.392490 83 62 80
-5.966121 -5.012610 55.475334 82 61 80
-5.975235 -4.900499 55.560078 82 60 79
-5.984531 -4.788168 55.646519 82 60 78
-5.993993 -4.675593 55.734501 82 59 77
-6.003603 -4.562752 55.823856 82 58 75
-6.013346 -4.449625 55.914455 82 57 74
-6.023212 -4.336194 56.006191 79 57 73
-6.033189 -4.222446 56.098961 77 57 73
-6.043268 -4.108368 56.192684 75 58 73
-6.053441 -3.993948 56.287273 73 59 74
-6.063699 -3.879174 56.382660 70 59 75
-6.074033 -3.764035 56.478745 68 59 76
-6.084428 -3.648520 56.575405 67 59 77
-6.094871 -3.532615 56.672504 68 60 79
-6.105341 -3.416307 56.769863 69 61 80
-6.115818 -3.299583 56.867279 72 63 84
-6.126274 -3.182427 56.964500 79 68 91
-6.136680 -3.064828 57.061264 85 72 96
-6.147005 -2.946773 57.157265 86 72 97
-6.157214 -2.828251 57.252193 85 71 95
-6.167273 -2.709253 57.345730 84 70 92
-6.177150 -2.589776 57.437569 82 69 90
-6.186814 -2.469818 57.527424 80 67 87
-6.196235 -2.349380 57.615028 78 66 83
-6.205393 -2.228471 57.700184 75 64 80
-6.214270 -2.107098 57.782722 74 63 77
-6.222854 -1.985277 57.862537 73 62 75
-6.231141 -1.863022 57.939598 74 62 75
-6.239134 -1.740354 58.013924 76 63 76
-6.246844 -1.617291 58.085609 77 64 76
-6.254284 -1.493855 58.154797 80 67 78
-6.261478 -1.370067 58.221687 82 70 82
-6.268452 -1.245947 58.286526 86 74 86
-6.275234 -1.121513 58.349590 91 81 93
-6.281859 -0.996782 58.411190 98 88 100
-6.288360 -0.871769 58.471642 101 92 104
-6.294773 -0.746484 58.531269 102 93 105
-6.301132 -0.620937 58.590401 103 94 106
-6.307471 -0.495133 58.649349 106 95 108
-6.313824 -0.369077 58.708416 108 96 109
-6.320219 -0.242767 58.767876 109 97 110
-6.326684 -0.116202 58.827991 110 98 112
-6.333245 0.010623 58.889004 112 98 114
-6.339927 0.137713 58.951130 114 99 115
-6.346749 0.265076 59.014572 114 99 116
-6.353734 0.392724 59.079517 114 99 116
-6.360900 0.520666 59.146145 114 98 115
-6.368264 0.648915 59.214626 114 98 115
-6.375847 0.777487 59.285130 114 98 115
-6.383665 0.906395 59.357826 114 98 114
-6.391737 1.035659 59.432884 114 98 113
-6.400083 1.165296 59.510483 114 98 113
-6.408719 1.295326 59.590782 113 98 112
-6.417665 1.425771 59.673969 113 97 111
-6.426938 1.556654 59.760193 112 95 109
-6.436555 1.687999 59.849617 112 94 108
-6.446531 1.819831 59.942375 111 93 107
-6.456877 1.952174 60.038578 113 94 107
-6.467604 2.085055 60.138321 114 94 106
-6.478718 2.218499 60.241669 114 93 105
-6.490222 2.352530 60.348633 113 91 103
-6.502114 2.487170 60.459209 113 90 102
-6.514390 2.622441 60.573357 114 89 102
-6.527041 2.758363 60.690990 115 88 103
-6.540055 2.894953 60.812000 115 88 104
-6.553417 3.032226 60.936249 114 87 103
-6.567111 3.170195 61.063580 110 85 101
-6.581117 3.308869 61.193813 108 84 100
-6.595415 3.448258 61.326763 106 84 99
-6.609984 3.588367 61.462227 105 84 98
-6.624801 3.729199 61.600002 105 85 98
-6.639844 3.870758 61.739883 106 87 100
-6.655093 4.013043 61.881672 109 89 101
-6.670525 4.156054 62.025158 111 90 103
-6.686116 4.299786 62.170135 113 91 104
-6.701847 4.444235 62.316402 114 92 105
-6.717695 4.589396 62.463764 115 92 105
-6.733639 4.735259 62.612019 115 91 104
-6.749657 4.881814 62.760963 115 91 104
-6.765729 5.029052 62.910404 116 91 103
-6.781833 5.176960 63.060150 116 90 103
-6.797952 5.325523 63.210026 115 89 102
-6.814065 5.474728 63.359848 115 89 103
-6.830154 5.624561 63.509460 115 90 103
-6.846206 5.775006 63.658714 115 88 101
-6.862206 5.926050 63.807487 114 86 98
-6.878142 6.077679 63.955669 114 85 98
-6.894005 6.229881 64.103172 113 84 97
-6.909786 6.382643 64.249908 113 83 95
-6.925479 6.535954 64.395828 113 82 94
-6.941078 6.689803 64.540871 112 81 92
-6.956577 6.844181 64.684990 111 81 92
-6.971973 6.999075 64.828140 111 82 92
-6.987260 7.154476 64.970284 110 83 92
-7.002433 7.310371 65.111374 109 83 92
-7.017488 7.466747 65.251358 108 82 92
-7.032417 7.623591 65.390175 108 80 92
-7.047215 7.780889 65.527771 108 80 93
-7.061873 7.938623 65.664078 109 80 94
-7.076386 8.096778 65.799019 109 80 93
-5.687412 -8.366126 53.965485 92 69 87
-5.690934 -8.254904 53.998901 92 69 88
-5.694502 -8.143603 54.032764 92 70 88
-5.698106 -8.032207 54.066959 92 71 89
-5.701740 -7.920705 54.101440 93 72 91
-5.705400 -7.809090 54.136166 93 74 91
-5.709087 -7.697361 54.171150 93 75 91
-5.712805 -7.585524 54.206436 93 76 91
-5.716565 -7.473589 54.242111 92 76 90
-5.720380 -7.361571 54.278313 91 76 88
-5.724267 -7.249487 54.315186 89 75 87
-5.728243 -7.137356 54.352917 88 75 86
-5.732332 -7.025201 54.391716 87 74 84
-5.736557 -6.913043 54.431808 86 74 84
-5.740944 -6.800903 54.473434 86 74 85
-5.745517 -6.688800 54.516823 87 73 86
-5.750300 -6.576751 54.562210 87 72 87
-5.755319 -6.464770 54.609825 87 71 89
-5.760591 -6.352864 54.659847 87 70 90
-5.766136 -6.241037 54.712463 87 70 90
-5.771968 -6.129289 54.767807 87 70 89
-5.778098 -6.017612 54.825970 87 69 88
-5.784531 -5.905994 54.887009 87 67 87
-5.791269 -5.794417 54.950943 87 67 86
-5.798308 -5.682861 55.017731 87 66 85
-5.805639 -5.571296 55.087292 87 66 84
-5.813251 -5.459696 55.159523 86 65 83
-5.821128 -5.348027 55.234264 85 64 82
-5.829252 -5.236258 55.311344 84 64 80
-5.837603 -5.124356 55.390587 83 63 79
-5.846159 -5.012289 55.471775 83 62 79
-5.854901 -4.900026 55.554722 82 61 78
-5.863809 -4.787542 55.639244 82 60 77
-5.872864 -4.674810 55.725159 82 59 75
-5.882050 -4.561810 55.812328 82 59 75
-5.891354 -4.448523 55.900608 81 59 75
-5.900765 -4.334933 55.989906 79 58 74
-5.910274 -4.221029 56.080128 77 57 74
-5.919872 -4.106798 56.171200 75 58 74
-5.929553 -3.992230 56.263062 73 58 75
-5.939309 -3.877315 56.355637 71 59 76
-5.949133 -3.762043 56.448849 69 59 76
-5.959014 -3.646405 56.542610 67 59 77
-5.968940 -3.530389 56.636791 68 60 79
-5.978894 -3.413983 56.731236 69 61 80
-5.988856 -3.297174 56.825764 72 63 84
-5.998803 -3.179950 56.920147 79 67 90
-6.008708 -3.062297 57.014137 85 72 96
-6.018545 -2.944206 57.107471 87 73 97
-6.028280 -2.825665 57.199841 86 72 96
-6.037884 -2.706666 57.290974 85 70 94
-6.047326 -2.587206 57.380558 83 69 91
-6.056576 -2.467281 57.468330 81 68 88
-6.065610 -2.346894 57.554050 79 67 84
-6.074407 -2.226050 57.637516 77 66 80
-6.082949 -2.104759 57.718567 75 64 77
-6.091227 -1.983032 57.797115 74 64 75
-6.099236 -1.860885 57.873119 74 63 74
-6.106981 -1.738334 57.946606 75 63 74
-6.114469 -1.615399 58.017651 76 63 75
-6.121713 -1.492098 58.086391 78 65 77
-6.128736 -1.368452 58.153027 80 68 81
-6.135560 -1.244477 58.217773 84 72 86
-6.142213 -1.120193 58.280903 89 78 93
-6.148726 -0.995614 58.342701 95 84 99
-6.155130 -0.870752 58.403473 100 89 104
-6.161459 -0.745620 58.463520 102 92 106
-6.167744 -0.620224 58.523155 104 93 107
-6.174016 -0.494571 58.582668 106 95 109
-6.180306 -0.368661 58.642353 108 96 110
-6.186641 -0.242496 58.702469 109 97 111
-6.193048 -0.116074 58.763252 111 98 113
-6.199549 0.010611 58.824944 112 99 115
-6.206168 0.137565 58.887749 114 100 115
-6.212924 0.264795 58.951859 114 100 116
-6.219837 0.392311 59.017445 114 100 116
-6.226924 0.520125 59.084690 114 100 116
-6.234203 0.648248 59.153763 115 100 116
-6.241693 0.776696 59.224823 115 100 116
-6.249409 0.905483 59.298042 115 100 116
-6.257371 1.034626 59.373592 114 100 115
-6.265597 1.164144 59.451645 114 99 114
-6.274106 1.294056 59.532375 113 99 113
-6.282914 1.424385 59.615959 113 97 112
-6.292042 1.555153 59.702568 112 96 110
-6.301505 1.686384 59.792355 113 95 110
-6.311317 1.818103 59.885468 113 94 109
-6.321494 1.950335 59.982029 114 95 107
-6.332044 2.083107 60.082130 114 95 106
-6.342975 2.216444 60.185852 113 94 104
-6.354290 2.350369 60.293213 113 92 103
-6.365988 2.484907 60.404217 113 92 102
-6.378067 2.620080 60.518822 114 91 101
-6.390518 2.755908 60.636963 115 90 102
-6.403329 2.892408 60.758530 115 90 104
-6.416489 3.029596 60.883389 113 88 102
-6.429978 3.167485 61.011391 111 86 101
-6.443781 3.306087 61.142357 109 86 101
-6.457877 3.445410 61.276108 107 86 99
-6.472244 3.585459 61.412430 104 85 97
-6.486862 3.726241 61.551132 104 85 97
-6.501708 3.867756 61.692001 105 86 98
-6.516760 4.010005 61.834827 107 88 100
-6.531997 4.152987 61.979397 110 89 102
-6.547394 4.296699 62.125496 113 90 103
-6.562931 4.441134 62.272923 115 92 105
-6.578584 4.586286 62.421448 115 92 105
-6.594330 4.732146 62.570858 113 90 103
-6.610148 4.878702 62.720943 112 89 101
-6.626014 5.025941 62.871490 113 90 102
-6.641907 5.173851 63.022293 114 90 102
-6.657804 5.322415 63.173138 115 91 103
-6.673687 5.471617 63.323845 115 91 103
-6.689537 5.621441 63.474232 115 90 103
-6.705334 5.771868 63.624130 115 89 101
-6.721067 5.922884 63.773407 115 87 99
-6.736721 6.074473 63.921940 115 86 97
-6.752285 6.226621 64.069626 115 84 96
-6.767752 6.379312 64.216385 114 84 94
-6.783114 6.532536 64.362144 113 82 92
-6.798366 6.686279 64.506866 111 82 91
-6.813503 6.840531 64.650497 111 82 92
-6.828523 6.995282 64.793015 111 84 92
-6.843421 7.150521 64.934372 109 84 92
-6.858194 7.306236 65.074554 108 83 92
-6.872840 7.462418 65.213524 107 82 92
-6.887354 7.619052 65.351242 107 80 92
-6.901732 7.776127 65.487671 108 79 93
-6.915971 7.933630 65.622772 109 80 94
-6.930064 8.091545 65.756493 109 79 94
-6.944006 8.249859 65.888794 109 79 93
-5.574744 -8.255220 54.000977 93 70 91
-5.578384 -8.144127 54.036240 92 69 91
-5.582050 -8.032918 54.071743 92 70 91
-5.585732 -7.921580 54.107418 94 72 92
-5.589430 -7.810109 54.143234 95 74 92
-5.593142 -7.698503 54.179188 95 75 92
-5.596873 -7.586769 54.215328 96 76 91
-5.600632 -7.474916 54.251740 95 76 89
-5.604432 -7.362959 54.288548 93 76 88
-5.608289 -7.250919 54.325916 91 76 87
-5.612222 -7.138813 54.364014 89 76 86
-5.616254 -7.026667 54.403069 88 77 85
-5.620407 -6.914502 54.443298 86 77 85
-5.624707 -6.802341 54.484955 86 76 85
-5.629179 -6.690204 54.528263 86 75 86
-5.633846 -6.578109 54.573475 87 74 88
-5.638731 -6.466069 54.620800 87 73 90
-5.643857 -6.354096 54.670452 86 72 91
-5.649240 -6.242193 54.722595 87 71 91
-5.654895 -6.130360 54.777370 88 71 90
-5.660831 -6.018589 54.834873 88 69 89
-5.667054 -5.906870 54.895153 88 68 88
-5.673566 -5.795186 54.958233 89 68 87
-5.680361 -5.683514 55.024055 89 67 86
-5.687431 -5.571827 55.092545 89 67 85
-5.694766 -5.460098 55.163589 88 66 83
-5.702347 -5.348295 55.237030 86 65 82
-5.710158 -5.236385 55.312691 85 64 80
-5.718178 -5.124337 55.390377 84 64 78
-5.726386 -5.012118 55.469887 83 63 78
-5.734763 -4.899701 55.551029 82 63 77
-5.743288 -4.787057 55.633606 81 61 76
-5.751944 -4.674164 55.717457 80 60 75
-5.760715 -4.561000 55.802422 80 60 75
-5.769589 -4.447549 55.888382 79 61 76
-5.778555 -4.333797 55.975235 78 60 75
-5.787605 -4.219732 56.062904 76 58 74
-5.796734 -4.105344 56.151325 74 57 74
-5.805933 -3.990624 56.240437 73 58 75
-5.815198 -3.875563 56.330185 73 59 76
-5.824523 -3.760154 56.420513 71 58 76
-5.833899 -3.644388 56.511341 69 59 76
-5.843317 -3.528255 56.602562 69 60 76
-5.852761 -3.411744 56.694042 70 61 78
-5.862214 -3.294844 56.785618 72 62 81
-5.871658 -3.177544 56.877094 78 67 87
-5.881067 -3.059832 56.968239 84 72 93
-5.890417 -2.941697 57.058807 87 74 97
-5.899680 -2.823130 57.148533 87 73 96
-5.908828 -2.704123 57.237148 86 71 95
-5.917832 -2.584672 57.324371 84 70 92
-5.926668 -2.464775 57.409966 82 69 89
-5.935312 -2.344433 57.493690 80 68 85
-5.943744 -2.223650 57.575375 78 67 81
-5.951950 -2.102435 57.654858 76 66 78
-5.959918 -1.980800 57.732048 75 65 76
-5.967649 -1.858756 57.806931 74 64 74
-5.975142 -1.736321 57.879509 74 63 73
-5.982405 -1.613512 57.949871 74 63 74
-5.989452 -1.490345 58.018135 75 64 77
-5.996302 -1.366839 58.084488 78 66 80
-6.002976 -1.243010 58.149139 81 70 86
-6.009501 -1.118875 58.212341 86 75 92
-6.015903 -0.994447 58.274361 91 81 98
-6.022213 -0.869739 58.335480 97 87 103
-6.028460 -0.744759 58.395988 100 91 106
-6.034673 -0.619515 58.456177 103 93 108
-6.040882 -0.494010 58.516319 105 94 109
-6.047113 -0.368248 58.576683 107 96 111
-6.053393 -0.242228 58.637516 108 97 112
-6.059746 -0.115947 58.699051 110 99 114
-6.066193 0.010600 58.761497 112 100 115
-6.072754 0.137418 58.825054 113 100 116
-6.079449 0.264516 58.889908 114 101 117
-6.086295 0.391904 58.956223 114 101 117
-6.093309 0.519592 59.024166 115 102 117
-6.100509 0.647592 59.093906 116 102 118
-6.107910 0.775919 59.165600 116 103 118
-6.115530 0.904587 59.239422 116 103 118
-6.123388 1.033614 59.315533 115 101 117
-6.131500 1.163017 59.394115 114 100 115
-6.139885 1.292816 59.475338 113 99 113
-6.148562 1.423033 59.559387 113 97 112
-6.157548 1.553691 59.646435 113 97 111
-6.166861 1.684812 59.736641 114 96 111
-6.176515 1.816424 59.830158 114 96 110
-6.186524 1.948550 59.927116 114 96 108
-6.196899 2.081217 60.027615 114 96 106
-6.207647 2.214451 60.131733 113 95 104
-6.218774 2.348276 60.239510 112 94 103
-6.230278 2.482716 60.350945 112 93 102
-6.242157 2.617794 60.466011 112 92 101
-6.254404 2.753530 60.584644 113 92 101
-6.267008 2.889943 60.706745 113 91 102
-6.279958 3.027048 60.832184 112 90 102
-6.293237 3.164860 60.960815 111 89 102
-6.306828 3.303389 61.092464 111 89 102
-6.320711 3.442645 61.226940 108 87 100
-6.334866 3.582635 61.364056 105 85 98
-6.349271 3.723363 61.503593 105 85 97
-6.363904 3.864831 61.645351 106 86 98
-6.378746 4.007041 61.789108 107 87 99
-6.393770 4.149989 61.934650 110 89 101
-6.408956 4.293673 62.081745 113 90 103
-6.424279 4.438087 62.230183 115 92 105
-6.439717 4.583221 62.379723 115 92 105
-6.455246 4.729067 62.530151 112 89 102
-6.470842 4.875612 62.681221 111 88 100
-6.486480 5.022841 62.832706 112 90 101
-6.502140 5.170740 62.984390 113 91 102
-6.517795 5.319290 63.136044 115 91 103
-6.533426 5.468473 63.287453 115 91 103
-6.549012 5.618271 63.438435 115 90 102
-6.564536 5.768664 63.588806 115 89 101
-6.579980 5.919634 63.738411 115 88 99
-6.595332 6.071165 63.887119 116 86 97
-6.610579 6.223238 64.034821 116 85 96
-6.625714 6.375840 64.181427 115 85 95
-6.640730 6.528956 64.326881 113 84 92
-6.655621 6.682574 64.471123 111 84 91
-6.670382 6.836682 64.614120 110 84 92
-6.685014 6.991270 64.755852 110 85 92
-6.699513 7.146328 64.896301 109 85 92
-6.713878 7.301846 65.035446 107 83 92
-6.728107 7.457813 65.173279 106 81 92
-6.742200 7.614220 65.309792 107 79 93
-6.756154 7.771055 65.444954 107 78 93
-6.769966 7.928308 65.578758 108 78 93
-6.783637 8.085969 65.711174 109 78 93
-6.797162 8.244023 65.842186 109 78 93
-5.458702 -8.255774 54.004593 93 70 92
-5.462405 -8.144879 54.041225 93 70 92
-5.466123 -8.033850 54.078014 94 71 92
-5.469849 -7.922672 54.114876 95 73 92
-5.473579 -7.811341 54.151775 96 74 92
-5.477311 -7.699855 54.188698 97 75 91
-5.481051 -7.588220 54.225700 97 76 90
-5.484807 -7.476447 54.262852 96 76 89
-5.488590 -7.364551 54.300282 94 77 88
-5.492417 -7.252551 54.338142 92 77 87
-5.496306 -7.140470 54.376625 90 77 86
-5.500279 -7.028329 54.415932 88 77 85
-5.504361 -6.916155 54.456310 87 77 85
-5.508574 -6.803969 54.497993 85 77 86
-5.512944 -6.691794 54.541225 86 77 87
-5.517496 -6.579649 54.586254 86 76 88
-5.522251 -6.467549 54.633297 87 75 90
-5.527230 -6.355503 54.682560 87 74 91
-5.532451 -6.243518 54.734215 88 73 91
-5.537929 -6.131595 54.788410 89 72 91
-5.543672 -6.019726 54.845230 90 71 90
-5.549687 -5.907901 54.904736 90 70 89
-5.555973 -5.796103 54.966927 90 69 88
-5.562527 -5.684310 55.031761 90 68 87
-5.569340 -5.572497 55.099167 90 68 86
-5.576399 -5.460634 55.169006 89 67 84
-5.583689 -5.348692 55.241131 87 66 82
-5.591192 -5.236638 55.315357 86 65 80
-5.598887 -5.124440 55.391487 84 65 78
-5.606755 -5.012067 55.469326 82 65 77
-5.614774 -4.899492 55.548664 81 65 76
-5.622927 -4.786688 55.629318 80 64 76
-5.631195 -4.673632 55.711121 78 63 76
-5.639564 -4.560305 55.793911 78 63 76
-5.648021 -4.446690 55.877583 78 62 76
-5.656556 -4.332775 55.962021 77 61 76
-5.665163 -4.218549 56.047173 76 60 76
-5.673835 -4.104002 56.132969 75 59 75
-5.682568 -3.989129 56.219364 75 59 75
-5.691357 -3.873922 56.306320 74 59 76
-5.700197 -3.758373 56.393780 73 60 75
-5.709082 -3.642476 56.481682 71 60 75
-5.718004 -3.526222 56.569942 72 61 75
-5.726950 -3.409602 56.658451 72 62 77
-5.735906 -3.292607 56.747055 74 64 80
-5.744854 -3.175225 56.835583 79 68 85
-5.753776 -3.057447 56.923843 84 72 91
-5.762646 -2.939263 57.011604 88 74 94
-5.771442 -2.820664 57.098625 88 73 95
-5.780138 -2.701643 57.184658 87 72 94
-5.788709 -2.582196 57.269455 85 71 92
-5.797132 -2.462320 57.352787 83 70 89
-5.805387 -2.342017 57.434448 81 69 86
-5.813455 -2.221290 57.514271 80 68 83
-5.821323 -2.100147 57.592117 78 67 79
-5.828983 -1.978598 57.667896 76 66 76
-5.836432 -1.856656 57.741596 75 65 75
-5.843673 -1.734333 57.813229 74 64 74
-5.850712 -1.611646 57.882862 74 63 75
-5.857561 -1.488611 57.950630 74 64 77
-5.864239 -1.365243 58.016689 76 65 80
-5.870763 -1.241559 58.081242 79 69 85
-5.877160 -1.117572 58.144520 83 74 91
-5.883452 -0.993294 58.206776 88 79 96
-5.889668 -0.868737 58.268272 93 85 101
-5.895834 -0.743908 58.329277 98 89 105
-5.901978 -0.618814 58.390060 102 92 108
-5.908125 -0.493458 58.450874 105 94 110
-5.914301 -0.367842 58.511971 106 96 112
-5.920528 -0.241964 58.573586 107 98 113
-5.926829 -0.115822 58.635918 109 99 114
-5.933224 0.010588 58.699184 111 100 116
-5.939731 0.137274 58.763557 112 101 117
-5.946368 0.264244 58.829220 113 102 118
-5.953151 0.391506 58.896324 114 103 118
-5.960095 0.519071 58.965031 115 104 119
-5.967219 0.646952 59.035503 116 104 120
-5.974536 0.775162 59.107899 117 105 121
-5.982065 0.903716 59.182377 117 105 120
-5.989821 1.032631 59.259113 116 103 119
-5.997823 1.161924 59.338280 116 101 117
-6.006089 1.291615 59.420059 115 99 115
-6.014637 1.421725 59.504627 114 98 113
-6.023485 1.552277 59.592159 115 97 112
-6.032650 1.683295 59.682831 115 97 111
-6.042147 1.814803 59.776794 115 97 110
-6.051991 1.946829 59.874180 115 97 109
-6.062192 2.079396 59.975101 114 97 107
-6.072758 2.212532 60.079639 113 96 106
-6.083695 2.346262 60.187843 111 96 104
-6.095003 2.480608 60.299713 111 95 102
-6.106680 2.615596 60.415237 111 94 102
-6.118720 2.751244 60.534348 111 95 102
-6.131113 2.887573 60.656956 112 94 103
-6.143847 3.024598 60.782940 112 93 103
-6.156907 3.162333 60.912148 111 92 103
-6.170277 3.300791 61.044415 111 91 102
-6.183936 3.439981 61.179554 109 89 100
-6.197866 3.579910 61.317371 108 87 98
-6.212047 3.720582 61.457657 107 87 98
-6.226454 3.862000 61.600197 107 87 98
-6.241067 4.004165 61.744770 108 88 98
-6.255864 4.147075 61.891155 110 88 99
-6.270819 4.290724 62.039116 113 90 101
-6.285911 4.435108 62.188423 114 91 103
-6.301114 4.580216 62.338833 114 91 103
-6.316405 4.726038 62.490105 112 90 102
-6.331758 4.872561 62.641998 112 90 102
-6.347148 5.019768 62.794258 112 91 102
-6.362551 5.167641 62.946644 113 91 103
-6.377943 5.316163 63.098927 115 92 103
-6.393301 5.465312 63.250866 116 92 103
-6.408604 5.615067 63.402264 116 90 102
-6.423833 5.765409 63.552929 116 89 100
-6.438970 5.916316 63.702682 116 88 99
-6.454001 6.067769 63.851391 116 86 97
-6.468915 6.219751 63.998940 116 86 96
-6.483703 6.372244 64.145233 116 86 96
-6.498356 6.525234 64.290207 114 86 93
-6.512872 6.678708 64.433815 111 86 92
-6.527248 6.832653 64.576042 110 86 92
-6.541481 6.987060 64.716850 109 86 92
-6.555571 7.141918 64.856255 109 86 94
-6.569520 7.297220 64.994247 107 84 93
-6.583326 7.452956 65.130844 106 81 93
-6.596991 7.609118 65.266029 107 79 93
-6.610516 7.765697 65.399834 107 77 92
-6.623900 7.922686 65.532249 108 77 92
-6.637144 8.080075 65.663277 109 77 93
-6.650248 8.237855 65.792923 109 77 93
-5.346521 -8.145810 54.047405 94 70 93
-5.350285 -8.034954 54.085453 95 72 93
-5.354046 -7.923931 54.123474 95 73 92
-5.357801 -7.812734 54.161427 96 74 92
-5.361548 -7.701363 54.199306 97 75 91
-5.365292 -7.589823 54.237152 97 76 90
-5.369039 -7.478125 54.275036 96 76 89
-5.372802 -7.366286 54.313076 95 77 88
-5.376597 -7.254325 54.351433 93 77 86
-5.380441 -7.142264 54.390293 91 77 85
-5.384355 -7.030128 54.429859 89 77 85
-5.388363 -6.917942 54.470379 87 77 86
-5.392489 -6.805729 54.512089 86 77 86
-5.396758 -6.693514 54.555241 86 77 87
-5.401193 -6.581315 54.600071 87 76 88
-5.405817 -6.469149 54.646820 87 75 90
-5.410651 -6.357029 54.695686 88 74 91
-5.415712 -6.244959 54.746849 89 73 91
-5.421014 -6.132941 54.800442 90 73 91
-5.426566 -6.020970 54.856567 91 72 91
-5.432374 -5.909036 54.915276 92 71 90
-5.438438 -5.797121 54.976582 92 70 89
-5.444754 -5.685205 55.040424 92 70 88
-5.451313 -5.573262 55.106731 92 69 87
-5.458103 -5.461264 55.175369 90 68 85
-5.465108 -5.349181 55.246181 88 68 82
-5.472310 -5.236981 55.318989 86 67 80
-5.479690 -5.124634 55.393589 84 67 78
-5.487227 -5.012108 55.469780 82 67 77
-5.494901 -4.899377 55.547359 80 67 76
-5.502693 -4.786414 55.626133 79 66 75
-5.510588 -4.673197 55.705933 77 65 76
-5.518569 -4.559708 55.786613 77 65 76
-5.526626 -4.445932 55.868057 76 64 77
-5.534748 -4.331857 55.950165 76 63 77
-5.542928 -4.217471 56.032860 76 62 77
-5.551163 -4.102769 56.116104 76 61 76
-5.559447 -3.987744 56.199852 76 60 75
-5.567779 -3.872391 56.284069 76 61 75
-5.576153 -3.756703 56.368725 75 62 75
-5.584564 -3.640674 56.453751 75 62 74
-5.593006 -3.524299 56.539093 75 63 74
-5.601470 -3.407569 56.624653 75 64 76
-5.609943 -3.290475 56.710308 77 66 79
-5.618411 -3.173009 56.795906 80 69 83
-5.626855 -3.055161 56.881271 85 72 88
-5.635257 -2.936923 56.966202 88 74 92
-5.643595 -2.818287 57.050495 88 74 93
-5.651847 -2.699246 57.133907 87 72 92
-5.659991 -2.579797 57.216240 86 71 90
-5.668007 -2.459936 57.297268 84 70 88
-5.675876 -2.339667 57.376816 82 70 86
-5.683584 -2.218991 57.454731 81 69 84
-5.691117 -2.097915 57.530888 79 68 81
-5.698470 -1.976448 57.605217 77 67 78
-5.705640 -1.854601 57.677696 76 66 76
-5.712629 -1.732387 57.748348 74 65 76
-5.719444 -1.609819 57.817234 73 64 76
-5.726096 -1.486912 57.884483 74 64 77
-5.732601 -1.363680 57.950241 75 65 80
-5.738977 -1.240136 58.014698 77 68 84
-5.745245 -1.116294 58.078060 80 71 88
-5.751429 -0.992164 58.140568 83 76 92
-5.757551 -0.867755 58.202461 89 82 98
-5.763638 -0.743075 58.263988 96 88 104
-5.769712 -0.618129 58.325397 101 92 108
-5.775799 -0.492918 58.386921 104 95 111
-5.781919 -0.367444 58.448799 106 96 112
-5.788095 -0.241706 58.511227 107 97 113
-5.794346 -0.115701 58.574413 108 99 115
-5.800690 0.010577 58.638542 110 100 116
-5.807143 0.137135 58.703781 111 101 118
-5.813723 0.263979 58.770294 112 102 119
-5.820444 0.391120 58.838238 113 103 119
-5.827321 0.518567 58.907757 115 105 121
-5.834369 0.646333 58.979008 116 105 122
-5.841605 0.774431 59.052151 117 106 123
-5.849043 0.902876 59.127342 118 106 123
-5.856700 1.031683 59.204742 118 104 121
-5.864594 1.160872 59.284546 117 102 119
-5.872743 1.290460 59.366917 116 100 116
-5.881164 1.420468 59.452045 115 99 114
-5.889875 1.550921 59.540108 116 98 113
-5.898894 1.681841 59.631279 116 98 112
-5.908237 1.813253 59.725719 116 98 111
-5.917915 1.945183 59.823566 116 98 110
-5.927943 2.077657 59.924931 114 98 108
-5.938327 2.210701 60.029903 112 98 107
-5.949073 2.344340 60.138538 111 97 106
-5.960183 2.478598 60.250847 111 96 104
-5.971655 2.613499 60.366810 111 96 103
-5.983483 2.749064 60.486382 111 96 104
-5.995659 2.885312 60.609467 112 96 105
-6.008171 3.022259 60.735947 112 95 106
-6.021004 3.159920 60.865677 112 94 105
-6.034143 3.298308 60.998497 111 93 104
-6.047569 3.437432 61.134224 111 92 103
-6.061264 3.577299 61.272655 110 90 100
-6.075205 3.717914 61.413586 110 89 99
-6.089372 3.859279 61.556797 109 89 98
-6.103742 4.001396 61.702065 109 89 98
-6.118293 4.144261 61.849159 111 89 99
-6.133001 4.287870 61.997841 112 89 99
-6.147842 4.432216 62.147869 112 90 101
-6.162791 4.577289 62.298988 112 91 101
-6.177824 4.723077 62.450951 112 91 101
-6.192913 4.869565 62.603489 113 92 102
-6.208034 5.016737 62.756344 113 92 102
-6.223162 5.164573 62.909267 113 92 102
-6.238270 5.313051 63.061993 115 92 102
-6.253335 5.462151 63.214283 116 92 102
-6.268335 5.611848 63.365921 116 90 100
-6.283249 5.762121 63.516685 116 89 99
-6.298061 5.912948 63.666420 116 87 98
-6.312755 6.064307 63.814957 116 86 96
-6.327319 6.216179 63.962185 116 86 96
-6.341744 6.368546 64.108002 116 86 96
-6.356023 6.521391 64.252350 113 86 95
-6.370152 6.674703 64.395180 111 86 93
-6.384130 6.828467 64.536476 109 87 93
-6.397955 6.982675 64.676239 109 87 95
-6.411630 7.137317 64.814468 109 87 97
-6.425154 7.292386 64.951187 107 85 96
-6.438532 7.447874 65.086426 106 82 95
-6.451766 7.603775 65.220200 107 80 94
-6.464857 7.760082 65.352539 107 78 93
-6.477809 7.916789 65.483475 108 78 93
-6.490626 8.073892 65.613029 109 78 94
-6.503307 8.231382 65.741226 109 78 94
-6.515857 8.389256 65.868088 109 79 93
-5.230698 -8.146875 54.054474 94 70 92
-5.234495 -8.036182 54.093723 95 72 92
-5.238283 -7.925305 54.132862 96 74 92
-5.242054 -7.814235 54.171837 96 75 91
-5.245810 -7.702973 54.210644 97 76 91
-5.249551 -7.591524 54.249310 97 76 90
-5.253285 -7.479898 54.287899 97 76 89
-5.257024 -7.368112 54.326542 95 77 87
-5.260782 -7.256186 54.365376 93 77 86
-5.264578 -7.144143 54.404602 91 77 85
-5.268431 -7.032007 54.444412 90 77 85
-5.272365 -6.919806 54.485065 89 77 85
-5.276403 -6.807565 54.526798 88 77 86
-5.280570 -6.695307 54.569855 87 76 87
-5.284888 -6.583052 54.614483 88 76 88
-5.289382 -6.470820 54.660931 88 75 90
-5.294072 -6.358621 54.709385 89 74 91
-5.298974 -6.246465 54.760044 90 73 91
-5.304101 -6.134351 54.813038 92 73 91
-5.309465 -6.022276 54.868465 93 72 91
-5.315070 -5.910231 54.926384 93 72 91
-5.320916 -5.798198 54.986797 93 71 90
-5.326998 -5.686158 55.049656 93 71 89
-5.333310 -5.574086 55.114880 92 70 88
-5.339838 -5.461954 55.182335 91 70 86
-5.346566 -5.349731 55.251865 88 69 83
-5.353477 -5.237389 55.323292 86 69 81
-5.360552 -5.124895 55.396408 83 69 79
-5.367772 -5.012219 55.471008 81 68 77
-5.375114 -4.899335 55.546886 79 68 76
-5.382563 -4.786218 55.623859 77 68 75
-5.390100 -4.672846 55.701756 76 68 76
-5.397711 -4.559201 55.780411 75 66 76
-5.405386 -4.445269 55.859726 75 65 77
-5.413115 -4.331038 55.939594 76 64 77
-5.420891 -4.216499 56.019947 76 63 77
-5.428710 -4.101646 56.100746 76 62 76
-5.436567 -3.986474 56.181950 76 61 75
-5.444461 -3.870978 56.263531 77 62 75
-5.452390 -3.755153 56.345467 77 63 75
-5.460348 -3.638995 56.427704 77 63 74
-5.468331 -3.522498 56.510204 77 64 74
-5.476332 -3.405657 56.592880 76 64 74
-5.484340 -3.288463 56.675640 76 65 75
-5.492343 -3.170910 56.758343 79 67 78
-5.500326 -3.052989 56.840839 83 71 83
-5.508273 -2.934693 56.922958 88 75 89
-5.516165 -2.816015 57.004517 89 75 91
-5.523983 -2.696950 57.085316 88 73 90
-5.531710 -2.577494 57.165161 86 72 89
-5.539326 -2.457644 57.243874 85 70 88
-5.546817 -2.337402 57.321278 83 70 86
-5.554169 -2.216771 57.397255 82 69 85
-5.561373 -2.095757 57.471703 80 69 82
-5.568422 -1.974367 57.544556 78 67 80
-5.575315 -1.852610 57.615788 77 66 78
-5.582056 -1.730500 57.685440 75 65 77
-5.588649 -1.608046 57.753574 74 64 78
-5.595105 -1.485263 57.820293 74 64 78
-5.601439 -1.362162 57.885742 74 64 80
-5.607666 -1.238756 57.950104 75 66 82
-5.613807 -1.115054 58.013565 77 68 84
-5.619882 -0.991068 58.076336 81 73 88
-5.625911 -0.866804 58.138649 88 80 95
-5.631918 -0.742268 58.200722 95 87 102
-5.637923 -0.617465 58.262783 100 92 107
-5.643949 -0.492396 58.325047 104 94 110
-5.650014 -0.367061 58.387726 105 96 112
-5.656137 -0.241458 58.451008 106 97 114
-5.662337 -0.115584 58.515072 108 98 115
-5.668629 0.010567 58.580093 109 99 117
-5.675028 0.137000 58.646229 110 101 119
-5.681551 0.263725 58.713634 111 102 120
-5.688210 0.390749 58.782448 112 103 120
-5.695019 0.518083 58.852810 114 105 121
-5.701993 0.645740 58.924877 115 105 122
-5.709145 0.773732 58.998795 116 106 123
-5.716493 0.902073 59.074726 118 106 123
-5.724051 1.030779 59.152840 118 105 122
-5.731838 1.159868 59.233299 117 103 120
-5.739870 1.289359 59.316299 116 101 117
-5.748164 1.419273 59.402023 116 99 115
-5.756740 1.549632 59.490643 117 99 114
-5.765614 1.680461 59.582344 117 99 113
-5.774800 1.811782 59.677280 117 100 112
-5.784315 1.943623 59.775600 117 100 111
-5.794168 2.076010 59.877422 114 99 110
-5.804368 2.208967 59.982838 112 98 108
-5.814922 2.342522 60.091904 112 98 108
-5.825831 2.476697 60.204639 112 98 107
-5.837094 2.611517 60.321033 111 96 105
-5.848706 2.747003 60.441032 110 96 104
-5.860659 2.883174 60.564552 113 97 107
-5.872942 3.020046 60.691483 114 97 108
-5.885541 3.157636 60.821682 114 96 107
-5.898440 3.295955 60.954983 114 95 107
-5.911622 3.435013 61.091209 113 94 105
-5.925068 3.574818 61.230160 112 93 102
-5.938757 3.715374 61.371628 112 91 100
-5.952669 3.856684 61.515392 111 91 99
-5.966781 3.998747 61.661224 111 90 98
-5.981071 4.141563 61.808895 111 89 98
-5.995513 4.285125 61.958149 112 90 99
-6.010086 4.429426 62.108746 112 90 99
-6.024763 4.574454 62.260410 112 91 100
-6.039518 4.720199 62.412891 113 92 101
-6.054324 4.866642 62.565907 113 92 102
-6.069157 5.013766 62.719185 114 93 102
-6.083988 5.161551 62.872452 115 92 102
-6.098793 5.309972 63.025448 116 92 101
-6.113546 5.459007 63.177910 116 91 100
-6.128225 5.608632 63.329601 116 90 99
-6.142808 5.758821 63.480301 116 88 98
-6.157278 5.909550 63.629833 116 87 96
-6.171618 6.060798 63.778030 115 85 95
-6.185818 6.212543 63.924770 115 85 95
-6.199867 6.364766 64.069962 113 86 96
-6.213759 6.517451 64.213524 111 86 95
-6.227492 6.670583 64.355431 109 86 94
-6.241063 6.824150 64.495674 108 86 95
-6.254472 6.978142 64.634247 108 87 96
-6.267724 7.132552 64.771194 108 87 98
-6.280819 7.287371 64.906525 107 85 98
-6.293764 7.442595 65.040298 107 84 97
-6.306562 7.598219 65.172554 107 82 96
-6.319218 7.754239 65.303337 107 80 95
-6.331736 7.910651 65.432701 108 79 95
-6.344121 8.067451 65.560692 108 80 96
-6.356379 8.224638 65.687355 108 80 96
-6.368511 8.382206 65.812737 108 80 95
-5.118719 -8.037488 54.102505 97 73 92
-5.122522 -7.926747 54.142708 97 75 92
-5.126302 -7.815797 54.182663 97 75 92
-5.130057 -7.704637 54.222351 97 76 92
-5.133789 -7.593270 54.261787 97 76 91
-5.137504 -7.481711 54.301056 96 76 90
-5.141213 -7.369974 54.340267 95 76 88
-5.144931 -7.258079 54.379562 93 77 87
-5.148674 -7.146050 54.419125 91 77 86
-5.152463 -7.033914 54.459171 90 76 86
-5.156320 -6.921695 54.499935 89 76 85
-5.160269 -6.809422 54.541672 89 75 86
-5.164333 -6.697120 54.584633 89 75 87
-5.168536 -6.584809 54.629059 89 75 88
-5.172901 -6.472508 54.675190 90 75 89
-5.177448 -6.360232 54.723248 91 74 90
-5.182193 -6.247988 54.773399 91 73 91
-5.187150 -6.135779 54.825794 92 73 91
-5.192329 -6.023601 54.880531 92 72 90
-5.197734 -5.911445 54.937668 92 72 90
-5.203368 -5.799296 54.997211 93 72 90
-5.209224 -5.687134 55.059109 93 71 90
-5.215295 -5.574935 55.123280 92 71 88
-5.221570 -5.462673 55.189598 91 70 87
-5.228033 -5.350316 55.257904 88 69 85
-5.234665 -5.237835 55.328011 85 69 83
-5.241449 -5.125201 55.399715 83 69 80
-5.248365 -5.012383 55.472813 81 69 78
-5.255393 -4.899354 55.547092 78 69 76
-5.262515 -4.786089 55.622364 77 69 76
-5.269714 -4.672570 55.698456 76 69 76
-5.276977 -4.558777 55.775223 76 68 76
-5.284291 -4.444697 55.852535 76 67 76
-5.291649 -4.330318 55.930298 76 66 76
-5.299042 -4.215634 56.008446 77 65 76
-5.306468 -4.100636 56.086929 77 63 75
-5.313923 -3.985323 56.165726 77 63 74
-5.321404 -3.869689 56.244801 78 63 74
-5.328910 -3.753731 56.324139 78 63 73
-5.336439 -3.637447 56.403713 78 63 73
-5.343985 -3.520832 56.483471 78 64 73
-5.351543 -3.403880 56.563358 76 63 74
-5.359107 -3.286587 56.643295 76 63 74
-5.366664 -3.168945 56.723171 77 64 75
-5.374203 -3.050949 56.802856 81 68 80
-5.381711 -2.932592 56.882210 88 74 87
-5.389171 -2.813869 56.961060 90 76 90
-5.396569 -2.694774 57.039261 88 73 89
-5.403890 -2.575305 57.116631 86 71 88
-5.411117 -2.455461 57.193024 85 70 86
-5.418238 -2.335241 57.268288 84 70 85
-5.425243 -2.214649 57.342327 83 70 84
-5.432124 -2.093691 57.415054 81 69 82
-5.438875 -1.972371 57.486408 79 67 80
-5.445497 -1.850701 57.556400 78 66 79
-5.451991 -1.728688 57.625042 76 65 77
-5.458365 -1.606343 57.692410 75 63 78
-5.464628 -1.483678 57.758606 74 63 79
-5.470792 -1.360703 57.823757 75 64 80
-5.476872 -1.237429 57.888023 75 65 81
-5.482886 -1.113863 57.951588 76 67 82
-5.488852 -0.990015 58.014641 80 71 86
-5.494788 -0.865891 58.077385 87 78 92
-5.500714 -0.741494 58.140022 94 85 99
-5.506649 -0.616829 58.202751 100 90 105
-5.512612 -0.491895 58.265778 104 93 109
-5.518620 -0.366693 58.329277 105 95 112
-5.524689 -0.241220 58.393425 106 96 114
-5.530836 -0.115472 58.458397 107 97 116
-5.537074 0.010557 58.524330 108 99 118
-5.543418 0.136872 58.591385 109 101 119
-5.549881 0.263482 58.659695 110 103 120
-5.556476 0.390396 58.729397 111 104 121
-5.563214 0.517624 58.800625 113 104 122
-5.570111 0.645177 58.873520 113 105 122
-5.577180 0.773069 58.948238 114 105 122
-5.584436 0.901312 59.024929 116 105 123
-5.591895 1.029924 59.103764 117 104 123
-5.599573 1.158921 59.184914 117 103 121
-5.607486 1.288321 59.268559 116 101 118
-5.615654 1.418147 59.354885 116 100 116
-5.624093 1.548420 59.444080 117 100 115
-5.632820 1.679163 59.536324 118 100 114
-5.641851 1.810401 59.631775 118 100 113
-5.651199 1.942159 59.730579 118 100 112
-5.660876 2.074465 59.832867 115 99 111
-5.670892 2.207343 59.938725 113 98 110
-5.681251 2.340819 60.048214 113 98 110
-5.691956 2.474917 60.161366 114 98 109
-5.703006 2.609661 60.278156 112 96 107
-5.714397 2.745072 60.398556 112 96 106
-5.726121 2.881171 60.522472 114 97 109
-5.738167 3.017972 60.649796 116 98 110
-5.750523 3.155493 60.780392 116 98 109
-5.763173 3.293745 60.914097 116 97 109
-5.776101 3.432738 61.050735 115 95 108
-5.789287 3.572479 61.190102 114 94 105
-5.802711 3.712975 61.331997 114 92 102
-5.816354 3.854226 61.476196 113 91 100
-5.830193 3.996233 61.622459 112 90 99
-5.844204 4.138994 61.770557 112 89 98
-5.858366 4.282503 61.920238 112 90 98
-5.872652 4.426751 62.071236 112 91 99
-5.887038 4.571727 62.223289 113 92 99
-5.901497 4.717418 62.376118 113 93 100
-5.916003 4.863805 62.529434 114 94 101
-5.930528 5.010870 62.682957 115 94 101
-5.945045 5.158590 62.836395 116 93 101
-5.959528 5.306942 62.989475 117 93 100
-5.973952 5.455898 63.141926 117 91 99
-5.988292 5.605435 63.293503 117 90 98
-6.002528 5.755524 63.443966 117 88 97
-6.016641 5.906141 63.593128 116 87 96
-6.030614 6.057262 63.740826 115 85 95
-6.044437 6.208865 63.886921 114 84 95
-6.058099 6.360928 64.031326 112 84 95
-6.071594 6.513436 64.173965 110 84 95
-6.084920 6.666372 64.314812 108 84 95
-6.098076 6.819726 64.453865 107 85 96
-6.111064 6.973488 64.591141 107 86 98
-6.123887 7.127649 64.726677 107 86 99
-6.136550 7.282205 64.860519 107 85 99
-6.149058 7.437151 64.992722 108 85 99
-6.161418 7.592484 65.123360 108 84 98
-6.173635 7.748202 65.252495 108 82 96
-6.185718 7.904303 65.380196 108 82 96
-6.197671 8.060788 65.506538 108 81 97
-6.209502 8.217654 65.631584 109 81 96
-6.221216 8.374903 65.755394 109 81 95
-5.006732 -7.928209 54.152695 98 75 93
-5.010510 -7.817369 54.193558 98 76 93
-5.014256 -7.706302 54.234074 98 76 93
-5.017970 -7.595013 54.274242 97 76 92
-5.021659 -7.483514 54.314148 97 76 91
-5.025333 -7.371820 54.353882 95 76 90
-5.029005 -7.259953 54.393597 94 76 88
-5.032692 -7.147935 54.433475 92 76 87
-5.036414 -7.035794 54.473732 91 76 86
-5.040192 -6.923558 54.514599 90 75 85
-5.044051 -6.811253 54.556335 90 74 86
-5.048012 -6.698905 54.599182 90 74 87
-5.052101 -6.586537 54.643398 90 75 88
-5.056338 -6.474170 54.689232 91 74 89
-5.060743 -6.361817 54.736881 92 74 91
-5.065335 -6.249487 54.786541 92 73 91
-5.070125 -6.137185 54.838356 92 73 91
-5.075125 -6.024907 54.892429 92 73 91
-5.080338 -5.912644 54.948814 92 72 91
-5.085766 -5.800384 55.007523 92 73 91
-5.091405 -5.688106 55.068512 92 72 91
-5.097246 -5.575786 55.131687 91 71 90
-5.103279 -5.463399 55.196938 90 71 88
-5.109487 -5.350915 55.264088 88 70 87
-5.115855 -5.238305 55.332962 85 70 85
-5.122363 -5.125537 55.403355 84 70 82
-5.128992 -5.012585 55.475052 82 70 80
-5.135723 -4.899420 55.547852 79 70 78
-5.142538 -4.786021 55.621563 78 70 78
-5.149420 -4.672364 55.695999 77 70 77
-5.156355 -4.558433 55.771015 77 69 77
-5.163332 -4.444215 55.846481 77 69 76
-5.170343 -4.329700 55.922306 77 68 77
-5.177379 -4.214878 55.998409 78 67 76
-5.184437 -4.099746 56.074749 78 65 75
-5.191514 -3.984299 56.151295 78 64 74
-5.198607 -3.868534 56.228012 78 64 73
-5.205717 -3.752450 56.304905 78 64 73
-5.212839 -3.636044 56.381943 78 63 73
-5.219972 -3.519312 56.459091 78 63 74
-5.227111 -3.402252 56.536308 76 63 74
-5.234250 -3.284859 56.613522 77 62 75
-5.241382 -3.167129 56.690662 78 63 76
-5.248496 -3.049056 56.767612 81 66 80
-5.255583 -2.930636 56.844257 86 72 86
-5.262628 -2.811863 56.920460 88 74 88
-5.269621 -2.692735 56.996101 87 73 87
-5.276549 -2.573249 57.071030 85 71 85
-5.283400 -2.453404 57.145123 84 71 84
-5.290162 -2.333201 57.218266 84 70 83
-5.296829 -2.212643 57.290371 83 70 83
-5.303393 -2.091733 57.361378 82 69 82
-5.309854 -1.970479 57.431248 81 68 81
-5.316209 -1.848887 57.499992 79 67 80
-5.322463 -1.726966 57.567635 78 65 79
-5.328622 -1.604724 57.634247 77 64 79
-5.334693 -1.482171 57.699913 76 63 79
-5.340690 -1.359315 57.764774 76 64 80
-5.346624 -1.236166 57.828960 77 65 81
-5.352512 -1.112730 57.892639 77 67 82
-5.358368 -0.989014 57.955982 80 70 84
-5.364210 -0.865023 58.019169 86 75 90
-5.370055 -0.740759 58.082382 93 82 96
-5.375918 -0.616225 58.145802 99 87 102
-5.381816 -0.491421 58.209591 103 92 108
-5.387764 -0.366345 58.273930 105 94 111
-5.393777 -0.240995 58.338963 106 96 113
-5.399868 -0.115366 58.404842 107 98 116
-5.406049 0.010547 58.471703 108 100 118
-5.412334 0.136751 58.539677 108 101 119
-5.418735 0.263254 58.608902 109 103 120
-5.425261 0.390065 58.679497 111 105 122
-5.431927 0.517192 58.751591 112 105 123
-5.438744 0.644649 58.825325 112 105 123
-5.445726 0.772447 58.900845 113 105 123
-5.452888 0.900600 58.978302 115 104 123
-5.460243 1.029124 59.057861 116 104 123
-5.467810 1.158035 59.139702 116 103 121
-5.475604 1.287353 59.224003 116 102 119
-5.483642 1.417097 59.310944 117 101 117
-5.491943 1.547290 59.400723 117 101 115
-5.500522 1.677955 59.493515 118 100 114
-5.509394 1.809117 59.589478 118 100 113
-5.518574 1.940800 59.688766 118 100 113
-5.528073 2.073031 59.791512 117 100 113
-5.537900 2.205836 59.897800 116 99 112
-5.548062 2.339239 60.007706 116 98 112
-5.558559 2.473266 60.121243 115 98 111
-5.569392 2.607940 60.238407 114 97 110
-5.580556 2.743282 60.359158 114 97 109
-5.592045 2.879312 60.483421 116 97 111
-5.603847 3.016046 60.611080 118 98 111
-5.615952 3.153500 60.742001 118 98 111
-5.628344 3.291686 60.876030 118 96 111
-5.641006 3.430615 61.012985 117 95 110
-5.653920 3.570293 61.152664 116 94 107
-5.667068 3.710727 61.294868 115 93 105
-5.680428 3.851917 61.439369 114 91 102
-5.693978 3.993865 61.585934 113 90 101
-5.707697 4.136566 61.734318 113 90 99
-5.721560 4.280015 61.884266 112 90 99
-5.735545 4.424203 62.035515 113 91 98
-5.749623 4.569118 62.187786 113 92 99
-5.763769 4.714746 62.340790 114 93 99
-5.777956 4.861067 62.494236 115 94 100
-5.792157 5.008062 62.647831 116 95 101
-5.806343 5.155706 62.801270 117 94 101
-5.820488 5.303974 62.954258 117 94 100
-5.834566 5.452840 63.106529 118 92 99
-5.848553 5.602274 63.257812 118 90 99
-5.862427 5.752250 63.407871 117 88 98
-5.876169 5.902740 63.556507 116 86 97
-5.889763 6.053719 63.703541 115 85 96
-5.903198 6.205164 63.848846 113 84 96
-5.916462 6.357053 63.992317 111 83 96
-5.929553 6.509369 64.133904 109 83 96
-5.942465 6.662097 64.273560 108 84 96
-5.955201 6.815224 64.411308 107 85 97
-5.967762 6.968740 64.547165 108 85 98
-5.980152 7.122640 64.681183 108 85 99
-5.992379 7.276918 64.813431 108 86 99
-6.004448 7.431573 64.943977 108 86 99
-6.016369 7.586602 65.072906 108 85 98
-6.028147 7.742004 65.200294 108 84 97
-6.039793 7.897782 65.326256 109 84 97
-6.051313 8.053936 65.450859 109 83 97
-6.062716 8.210468 65.574196 109 83 97
-6.074010 8.367382 65.696342 109 82 96
-4.894651 -7.818908 54.204231 98 76 93
-4.898377 -7.707926 54.245499 98 76 93
-4.902066 -7.596706 54.286343 97 76 92
-4.905721 -7.485260 54.326820 97 76 92
-4.909352 -7.373605 54.367039 96 76 91
-4.912974 -7.261762 54.407150 95 76 90
-4.916601 -7.149752 54.447315 93 75 89
-4.920253 -7.037606 54.487755 92 75 87
-4.923951 -6.925350 54.528709 91 74 87
-4.927718 -6.813012 54.570423 90 73 86
-4.931578 -6.700621 54.613167 90 73 87
-4.935552 -6.588198 54.657177 91 74 88
-4.939664 -6.475766 54.702713 92 74 89
-4.943932 -6.363339 54.749981 92 74 91
-4.948374 -6.250927 54.799168 92 74 92
-4.953003 -6.138537 54.850437 92 74 92
-4.957829 -6.026164 54.903885 92 74 92
-4.962858 -5.913801 54.959568 92 74 92
-4.968089 -5.801436 55.017502 92 74 92
-4.973520 -5.689049 55.077641 92 73 92
-4.979143 -5.576617 55.139908 91 72 91
-4.984946 -5.464115 55.204174 90 71 90
-4.990915 -5.351514 55.270275 89 71 89
-4.997033 -5.238784 55.338024 87 71 87
-5.003282 -5.125896 55.407230 86 71 85
-5.009642 -5.012821 55.477665 84 71 82
-5.016096 -4.899533 55.549133 82 70 81
-5.022624 -4.786009 55.621429 80 70 79
-5.029211 -4.672227 55.694374 79 70 78
-5.035843 -4.558172 55.767818 78 69 77
-5.042507 -4.443828 55.841614 78 69 76
-5.049194 -4.329186 55.915672 79 69 77
-5.055898 -4.214239 55.989914 80 69 77
-5.062614 -4.098981 56.064285 79 67 75
-5.069339 -3.983410 56.138760 78 66 73
-5.076070 -3.867522 56.213303 78 65 73
-5.082808 -3.751317 56.287914 78 64 74
-5.089549 -3.634794 56.362572 77 64 74
-5.096293 -3.517951 56.437256 76 63 75
-5.103036 -3.400785 56.511932 76 62 76
-5.109775 -3.283294 56.586555 77 63 78
-5.116503 -3.165475 56.661057 78 64 79
-5.123213 -3.047324 56.735367 80 67 81
-5.129896 -2.928838 56.809380 84 71 85
-5.136545 -2.810013 56.883007 87 74 87
-5.143148 -2.690847 56.956139 86 73 85
-5.149698 -2.571339 57.028667 85 72 83
-5.156184 -2.451489 57.100502 84 71 82
-5.162600 -2.331296 57.171547 83 71 81
-5.168939 -2.210765 57.241745 83 70 81
-5.175198 -2.089898 57.311054 82 69 81
-5.181374 -1.968702 57.379456 82 68 81
-5.187470 -1.847182 57.446964 81 66 80
-5.193489 -1.725345 57.513618 80 65 79
-5.199436 -1.603199 57.579475 79 64 79
-5.205320 -1.480751 57.644634 78 63 80
-5.211152 -1.358008 57.709213 77 63 80
-5.216941 -1.234977 57.773335 78 64 81
-5.222703 -1.111663 57.837139 79 66 82
-5.228450 -0.988072 57.900784 82 69 84
-5.234197 -0.864206 57.964428 86 74 88
-5.239958 -0.740068 58.028225 91 79 94
-5.245748 -0.615659 58.092339 97 85 100
-5.251578 -0.490976 58.156906 101 90 105
-5.257463 -0.366019 58.222084 104 94 109
-5.263416 -0.240784 58.288002 105 96 113
-5.269447 -0.115267 58.354794 106 98 115
-5.275568 0.010539 58.422573 106 100 117
-5.281789 0.136639 58.491474 107 102 119
-5.288123 0.263042 58.561607 108 103 120
-5.294577 0.389756 58.633087 110 105 122
-5.301165 0.516791 58.706043 111 105 123
-5.307899 0.644159 58.780613 112 105 123
-5.314790 0.771871 58.856926 113 105 123
-5.321853 0.899941 58.935139 114 104 123
-5.329102 1.028384 59.015423 115 103 123
-5.336554 1.157218 59.097946 116 102 121
-5.344225 1.286459 59.182892 116 102 119
-5.352131 1.416130 59.270451 117 101 117
-5.360290 1.546250 59.360802 117 100 116
-5.368718 1.676844 59.454132 118 100 114
-5.377429 1.807936 59.550606 118 100 114
-5.386438 1.939551 59.650368 118 100 114
-5.395755 2.071715 59.753551 118 99 114
-5.405391 2.204453 59.860256 118 99 114
-5.415350 2.337791 59.970543 117 98 113
-5.425634 2.471752 60.084438 116 98 112
-5.436244 2.606361 60.201935 115 98 111
-5.447177 2.741639 60.323002 115 97 111
-5.458423 2.877604 60.447548 116 97 111
-5.469975 3.014274 60.575474 118 97 112
-5.481820 3.151664 60.706646 119 97 112
