ply
format ascii 1.0
element vertex 1183
property float x
property float y
property float z
property uchar red
property uchar green
property uchar blue
end_header
-17.167992 16.068520 65.338852 70 57 64
-17.145538 16.188168 65.253395 71 57 65
-17.122372 16.306768 65.165222 71 56 65
-17.098368 16.424187 65.073875 71 55 65
-17.073381 16.540257 64.978775 70 55 64
-17.047224 16.654774 64.879227 70 55 64
-17.019693 16.767509 64.774445 71 57 65
-16.990566 16.878208 64.663597 72 58 66
-16.959620 16.986603 64.545815 71 57 65
-16.926632 17.092432 64.420265 69 56 64
-16.891403 17.195438 64.286194 68 55 61
-16.853771 17.295399 64.142975 66 54 59
-16.813618 17.392134 63.990154 65 52 58
-16.770887 17.485525 63.827530 64 51 57
-16.725599 17.575525 63.655167 63 49 56
-16.677845 17.662172 63.473423 61 47 54
-16.627804 17.745594 63.282974 59 46 52
-16.575733 17.826014 63.084801 59 45 50
-16.521969 17.903740 62.880177 57 45 48
-16.466908 17.979174 62.670628 56 44 47
-16.411007 18.052776 62.457878 55 44 46
-16.354759 18.125078 62.243805 55 44 45
-16.298668 18.196632 62.030334 54 43 44
-16.243248 18.268019 61.819408 53 42 43
-16.188984 18.339808 61.612888 53 41 43
-16.136328 18.412540 61.412487 52 39 42
-16.085682 18.486719 61.219734 52 38 42
-16.037376 18.562778 61.035896 51 37 42
-15.991678 18.641081 60.861973 51 36 42
-15.948767 18.721905 60.698658 51 35 41
-15.908748 18.805447 60.546352 50 34 40
-15.871649 18.891806 60.405159 49 34 39
-15.837423 18.980999 60.274902 49 33 38
-15.805964 19.072971 60.155174 48 33 38
-15.777110 19.167589 60.045361 48 34 38
-15.750655 19.264671 59.944675 48 35 38
-15.726367 19.363985 59.852238 47 35 37
-15.703992 19.465271 59.767078 47 35 37
-15.683254 19.568233 59.688156 46 35 36
-15.663903 19.672600 59.614513 45 36 36
-15.645695 19.778090 59.545212 45 35 36
-15.628396 19.884439 59.479374 44 35 36
-15.611799 19.991404 59.416210 43 35 34
-15.595728 20.098774 59.355045 43 34 34
-15.580028 20.206362 59.295292 43 34 34
-15.564573 20.314011 59.236473 45 36 35
-15.549263 20.421597 59.178204 46 36 36
-15.534017 20.529016 59.120178 48 36 36
-15.518770 20.636187 59.062153 48 35 36
-15.503470 20.743034 59.003925 48 35 36
-15.488069 20.849493 58.945309 48 35 36
-15.472518 20.955498 58.886124 48 35 36
-15.456761 21.060966 58.826160 48 35 37
-15.440739 21.165813 58.765179 48 35 37
-15.424374 21.269924 58.702896 48 35 37
-15.407577 21.373167 58.638969 48 35 37
-15.390243 21.475386 58.572998 47 35 37
-15.372257 21.576405 58.504547 48 34 36
-15.353493 21.676029 58.433132 48 34 36
-15.333827 21.774067 58.358292 48 35 36
-16.116400 -10.120774 61.844025 54 53 59
-16.122030 -9.990949 61.865627 53 53 59
-16.128132 -9.861319 61.889042 52 53 59
-16.134718 -9.731878 61.914314 52 52 60
-16.141788 -9.602618 61.941448 51 51 61
-16.149340 -9.473523 61.970425 51 51 62
-16.157360 -9.344575 62.001202 51 51 63
-16.165836 -9.215753 62.033726 52 51 63
-16.174744 -9.087033 62.067909 53 51 63
-16.184065 -8.958395 62.103672 53 51 63
-16.193775 -8.829815 62.140934 54 51 63
-16.203850 -8.701270 62.179600 54 51 63
-16.214275 -8.572743 62.219601 55 50 64
-16.225031 -8.444217 62.260872 56 50 63
-16.236107 -8.315677 62.303379 57 49 64
-16.247498 -8.187112 62.347092 58 50 64
-16.259203 -8.058514 62.392002 60 50 65
-16.271227 -7.929877 62.438145 62 51 67
-16.283579 -7.801200 62.485546 64 52 68
-16.296276 -7.672480 62.534271 66 53 70
-16.309338 -7.543718 62.584389 66 53 71
-16.322781 -7.414915 62.635975 66 53 71
-16.336632 -7.286069 62.689125 65 54 72
-16.350906 -7.157181 62.743900 64 54 73
-16.365625 -7.028247 62.800381 63 55 73
-16.380800 -6.899262 62.858612 63 56 73
-16.396435 -6.770216 62.918613 62 57 74
-16.412531 -6.641098 62.980377 62 57 74
-16.429075 -6.511891 63.043858 63 58 74
-16.446039 -6.382574 63.108963 64 58 75
-16.463394 -6.253124 63.175556 65 58 75
-16.481092 -6.123514 63.243469 67 58 75
-16.499073 -5.993715 63.312469 69 58 76
-16.517275 -5.863696 63.382317 72 58 75
-16.535620 -5.733426 63.452705 74 58 75
-16.554026 -5.602872 63.523335 76 58 75
-16.572407 -5.472007 63.593876 77 59 74
-16.590683 -5.340803 63.664005 78 59 73
-16.608765 -5.209237 63.733391 78 60 74
-16.626577 -5.077289 63.801746 78 61 73
-16.644053 -4.944945 63.868801 78 62 73
-16.661127 -4.812197 63.934322 77 63 74
-16.677757 -4.679042 63.998138 77 63 74
-16.693907 -4.545481 64.060104 78 64 76
-16.709555 -4.411520 64.120155 79 65 77
-16.724697 -4.277171 64.178268 80 65 79
-16.739344 -4.142449 64.234467 82 66 81
-16.753511 -4.007370 64.288834 84 68 83
-16.767229 -3.871953 64.341469 85 69 84
-16.780540 -3.736218 64.392555 87 69 85
-16.793489 -3.600185 64.442245 88 68 85
-16.806128 -3.463874 64.490738 88 68 86
-16.818504 -3.327303 64.538231 90 68 87
-16.830675 -3.190487 64.584938 91 68 88
-16.842691 -3.053442 64.631050 92 68 90
-16.854599 -2.916180 64.676735 92 68 91
-16.866442 -2.778709 64.722183 92 68 92
-16.878260 -2.641040 64.767532 92 68 92
-16.890087 -2.503175 64.812920 92 70 92
-16.901953 -2.365121 64.858452 92 71 91
-16.913885 -2.226879 64.904236 93 73 91
-16.925901 -2.088450 64.950348 93 73 90
-16.938028 -1.949835 64.996880 93 75 90
-16.950281 -1.811033 65.043900 92 76 89
-16.962679 -1.672042 65.091484 92 78 91
-16.975248 -1.532862 65.139709 91 79 92
-16.988007 -1.393489 65.188667 92 80 93
-17.000980 -1.253921 65.238457 93 81 95
-17.014196 -1.114154 65.289169 93 81 98
-17.027685 -0.974185 65.340927 94 82 100
-17.041473 -0.834006 65.393837 96 84 102
-17.055593 -0.693614 65.448021 98 85 105
-17.070072 -0.552999 65.503586 101 87 107
-17.084936 -0.412154 65.560616 103 89 110
-17.100203 -0.271069 65.619202 105 92 113
-17.115885 -0.129735 65.679382 106 94 115
-17.131987 0.011859 65.741173 107 96 116
-17.148500 0.153723 65.804543 108 98 117
-17.165409 0.295866 65.869423 109 100 119
-17.182682 0.438299 65.935707 110 102 121
-17.200279 0.581029 66.003235 111 104 122
-17.218147 0.724061 66.071793 112 107 124
-17.236219 0.867399 66.141144 114 109 126
-17.254425 1.011044 66.211006 116 112 128
-17.272686 1.154993 66.281082 118 114 131
-17.290918 1.299243 66.351044 120 116 134
-17.309032 1.443784 66.420555 122 118 138
-17.326946 1.588607 66.489288 125 120 141
-17.344574 1.733698 66.556938 126 121 144
-17.361837 1.879040 66.623184 127 122 147
-17.378666 2.024618 66.687759 128 124 148
-17.394999 2.170412 66.750427 128 125 148
-17.410776 2.316403 66.810974 128 125 148
-17.425959 2.462570 66.869232 128 125 148
-17.440506 2.608894 66.925064 127 124 147
-17.454393 2.755354 66.978348 125 123 145
-17.467598 2.901931 67.029022 123 121 143
-17.480108 3.048604 67.077026 121 119 142
-17.491911 3.195356 67.122314 121 117 140
-17.502996 3.342166 67.164864 120 114 138
-17.513363 3.489016 67.204636 119 112 135
-17.523001 3.635886 67.241623 118 111 132
-17.531902 3.782757 67.275780 117 108 128
-17.540064 3.929609 67.307098 115 106 125
-17.547474 4.076422 67.335533 112 102 120
-17.554125 4.223175 67.361053 109 99 115
-17.560007 4.369847 67.383629 106 97 112
-17.565117 4.516417 67.403236 103 95 109
-17.569447 4.662865 67.419846 102 93 106
-17.572994 4.809170 67.433464 102 92 104
-17.575760 4.955314 67.444077 103 91 104
-17.577751 5.101278 67.451721 104 91 103
-17.578978 5.247047 67.456421 105 90 103
-17.579449 5.392605 67.458237 105 90 104
-17.579189 5.537941 67.457237 105 90 105
-17.578220 5.683042 67.453514 106 90 106
-17.576571 5.827902 67.447182 106 91 107
-17.574270 5.972514 67.438354 106 91 108
-17.571354 6.116873 67.427170 106 91 108
-17.567862 6.260979 67.413765 106 91 108
-17.563837 6.404832 67.398323 105 90 108
-17.559324 6.548438 67.381004 105 90 108
-17.554373 6.691801 67.362007 105 90 108
-17.549036 6.834932 67.341530 105 89 108
-17.543371 6.977845 67.319794 105 89 108
-17.537436 7.120554 67.297012 106 89 108
-17.531292 7.263078 67.273438 107 88 109
-17.525003 7.405440 67.249306 108 88 111
-17.518637 7.547663 67.224876 108 89 111
-17.512255 7.689775 67.200386 109 90 111
-17.505924 7.831804 67.176094 109 91 111
-17.499706 7.973780 67.152229 108 92 111
-17.493660 8.115733 67.129028 106 92 111
-17.487839 8.257691 67.106697 106 92 110
-17.482290 8.399685 67.085403 106 92 110
-17.477057 8.541740 67.065315 105 92 110
-17.472168 8.683881 67.046555 103 90 108
-17.467646 8.826126 67.029205 103 88 107
-17.463505 8.968492 67.013313 103 86 106
-17.459747 9.110990 66.998894 102 84 105
-17.456367 9.253624 66.985924 102 82 103
-17.453346 9.396398 66.974335 102 80 102
-17.450663 9.539304 66.964035 100 78 101
-17.448278 9.682333 66.954887 100 77 99
-17.446156 9.825469 66.946739 100 75 97
-17.444244 9.968693 66.939407 99 75 95
-17.442499 10.111979 66.932709 99 74 93
-17.440863 10.255301 66.926430 97 72 91
-17.439280 10.398628 66.920357 96 71 89
-17.437696 10.541928 66.914284 95 70 87
-17.436060 10.685170 66.907997 94 70 85
-17.434315 10.828318 66.901306 93 69 84
-17.432417 10.971339 66.894020 92 70 83
-17.430317 11.114202 66.885963 91 70 82
-17.427979 11.256875 66.876991 90 69 80
-17.425364 11.399328 66.866951 89 69 79
-17.422441 11.541535 66.855743 88 69 78
-17.419186 11.683470 66.843246 86 69 77
-17.415571 11.825108 66.829384 85 68 76
-17.411579 11.966426 66.814064 86 67 76
-17.407194 12.107404 66.797226 87 67 77
-17.402397 12.248020 66.778824 87 65 77
-17.397179 12.388257 66.758797 88 63 77
-17.391521 12.528091 66.737091 89 63 77
-17.385414 12.667504 66.713654 89 62 77
-17.378843 12.806474 66.688438 90 61 78
-17.371792 12.944977 66.661377 90 60 79
-17.364241 13.082988 66.632408 90 60 80
-17.356176 13.220482 66.601463 89 60 80
-17.347574 13.357429 66.568451 88 59 80
-17.338409 13.493794 66.533279 87 59 80
-17.328661 13.629550 66.495872 87 59 79
-17.318300 13.764658 66.456116 86 59 79
-17.307301 13.899082 66.413910 85 59 78
-17.295639 14.032787 66.369164 83 60 76
-17.283295 14.165738 66.321793 81 59 74
-17.270239 14.297896 66.271683 79 59 71
-17.256460 14.429235 66.218811 77 59 69
-17.241957 14.559733 66.163162 75 59 65
-17.226728 14.689374 66.104721 75 59 63
-17.210787 14.818148 66.043549 74 59 61
-17.194147 14.946052 65.979698 72 58 60
-17.176840 15.073093 65.913284 71 58 59
-17.158897 15.199287 65.844437 70 57 59
-17.140360 15.324652 65.773300 70 56 60
-17.121264 15.449205 65.700020 69 56 61
-17.101645 15.572967 65.624733 68 56 61
-17.081530 15.695949 65.547546 68 56 62
-17.060932 15.818151 65.468513 68 56 63
-17.039848 15.939555 65.387604 69 56 64
-17.018248 16.060123 65.304710 70 56 65
-16.996071 16.179787 65.219612 71 57 66
-16.973230 16.298447 65.131966 71 56 66
-16.949606 16.415968 65.041313 71 55 66
-16.925041 16.532183 64.947052 71 55 65
-16.899359 16.646887 64.848495 71 56 65
-16.872347 16.759848 64.744843 72 57 66
-16.843786 16.870810 64.635254 72 58 66
-16.813452 16.979506 64.518845 70 57 65
-16.781116 17.085663 64.394760 69 56 64
-16.746582 17.189032 64.262245 67 56 63
-16.709681 17.289377 64.120636 66 54 61
-16.670292 17.386518 63.969490 65 52 59
-16.628357 17.480331 63.808575 64 51 58
-16.583889 17.570766 63.637936 62 49 56
-16.536978 17.657858 63.457916 61 47 54
-16.487793 17.741728 63.269184 60 47 52
-16.436590 17.822594 63.072704 59 46 49
-16.383698 17.900766 62.869732 58 46 48
-16.329506 17.976635 62.661785 58 45 47
-16.274469 18.050669 62.450584 57 45 46
-16.219067 18.123384 62.237991 56 45 45
-16.163807 18.195343 62.025940 55 44 45
-16.109192 18.267118 61.816360 55 43 44
-16.055706 18.339281 61.611118 54 41 44
-16.003799 18.412374 61.411934 53 39 43
-15.953869 18.486900 61.220337 52 38 43
-15.906250 18.563297 61.037605 52 38 43
-15.861201 18.641928 60.864742 51 37 42
-15.818911 18.723078 60.702457 50 36 41
-15.779483 18.806940 60.551159 49 35 40
-15.742948 18.893620 60.410961 48 34 38
-15.709262 18.983139 60.281696 47 34 37
-15.678321 19.075441 60.162968 47 34 37
-15.649967 19.170401 60.054165 48 35 37
-15.623997 19.267830 59.954506 48 36 38
-15.600181 19.367504 59.863113 47 36 37
-15.578263 19.469156 59.779011 46 36 37
-15.557975 19.572496 59.701160 46 36 36
-15.539064 19.677246 59.628593 45 36 36
-15.521284 19.783123 59.560364 45 36 36
-15.504401 19.889856 59.495579 44 36 36
-15.488210 19.997204 59.433445 43 36 35
-15.472525 20.104942 59.373260 42 35 34
-15.457193 20.212881 59.314426 43 35 34
-15.442087 20.320866 59.256458 45 36 35
-15.427102 20.428757 59.198956 47 36 35
-15.412155 20.536455 59.141602 48 36 35
-15.397182 20.643869 59.084145 49 35 35
-15.382129 20.750927 59.026379 49 35 36
-15.366945 20.857559 58.968117 49 34 35
-15.351585 20.963699 58.909176 49 35 36
-15.335998 21.069273 58.849358 49 35 37
-15.320120 21.174187 58.788429 49 35 37
-15.303882 21.278337 58.726116 49 35 37
-15.287195 21.381594 58.662086 48 35 37
-15.269965 21.483807 58.595970 47 35 37
-15.252076 21.584805 58.527325 48 36 36
-15.233411 21.684399 58.455700 48 36 36
-15.213850 21.782404 58.380638 48 36 36
-15.193266 21.878611 58.301647 49 36 36
-15.959306 -10.238833 61.752014 55 53 60
-15.964416 -10.108953 61.771782 54 53 58
-15.969995 -9.979280 61.793369 53 53 58
-15.976063 -9.849815 61.816849 52 53 57
-15.982628 -9.720551 61.842255 52 52 58
-15.989694 -9.591479 61.869595 52 51 59
-15.997254 -9.462582 61.898849 52 51 61
-16.005299 -9.333839 61.929974 52 50 62
-16.013807 -9.205231 61.962898 52 51 62
-16.022762 -9.076733 61.997547 53 51 63
-16.032139 -8.948319 62.033825 54 50 63
-16.041914 -8.819970 62.071648 54 50 62
-16.052063 -8.691661 62.110924 55 50 63
-16.062571 -8.563372 62.151581 55 50 63
-16.073418 -8.435086 62.193550 56 49 63
-16.084593 -8.306788 62.236790 57 49 63
-16.096088 -8.178469 62.281269 58 50 63
-16.107904 -8.050117 62.326992 60 50 64
-16.120049 -7.921728 62.373981 62 51 66
-16.132528 -7.793300 62.422272 64 52 68
-16.145361 -7.664831 62.471924 66 52 69
-16.158564 -7.536320 62.523010 66 52 70
-16.172159 -7.407768 62.575611 65 53 70
-16.186165 -7.279176 62.629810 64 53 70
-16.200605 -7.150540 62.685680 63 54 71
-16.215496 -7.021860 62.743301 62 55 71
-16.230850 -6.893126 62.802708 61 56 72
-16.246670 -6.764332 62.863926 61 56 72
-16.262959 -6.635464 62.926949 61 57 72
-16.279699 -6.506505 62.991722 62 58 74
-16.296867 -6.377436 63.058159 64 58 75
-16.314432 -6.248230 63.126118 65 58 76
-16.332344 -6.118862 63.195423 67 58 76
-16.350546 -5.989302 63.265854 70 58 76
-16.368973 -5.859518 63.337154 73 58 76
-16.387548 -5.729479 63.409031 75 58 76
-16.406191 -5.599153 63.481163 76 58 76
-16.424816 -5.468510 63.553234 78 59 75
-16.443340 -5.337524 63.624912 78 59 74
-16.461681 -5.206170 63.695873 78 60 73
-16.479757 -5.074430 63.765820 78 61 73
-16.497505 -4.942288 63.834488 78 62 74
-16.514860 -4.809737 63.901642 78 63 74
-16.531778 -4.676773 63.967106 77 64 74
-16.548225 -4.543397 64.030739 78 64 76
-16.564180 -4.409616 64.092484 79 65 78
-16.579639 -4.275440 64.152290 80 66 79
-16.594608 -4.140885 64.210220 82 67 81
-16.609108 -4.005967 64.266319 83 68 82
-16.623167 -3.870704 64.320724 85 69 83
-16.636827 -3.735117 64.373581 86 69 84
-16.650133 -3.599226 64.425064 87 68 84
-16.663136 -3.463049 64.475365 88 68 85
-16.675882 -3.326605 64.524696 89 68 86
-16.688431 -3.189910 64.573250 91 69 87
-16.700830 -3.052978 64.621223 92 69 88
-16.713127 -2.915822 64.668800 92 69 89
-16.725365 -2.778450 64.716156 92 69 89
-16.737579 -2.640872 64.763420 92 69 89
-16.749809 -2.503091 64.810745 92 70 89
-16.762083 -2.365113 64.858231 93 72 89
-16.774424 -2.226939 64.905983 93 73 89
-16.786854 -2.088570 64.954079 93 74 89
-16.799391 -1.950006 65.002586 93 76 89
-16.812056 -1.811247 65.051590 92 77 90
-16.824865 -1.672291 65.101158 92 78 91
-16.837837 -1.533136 65.151352 91 79 92
-16.850994 -1.393780 65.202263 92 80 94
-16.864357 -1.254219 65.253967 93 81 96
-16.877951 -1.114451 65.306564 93 81 99
-16.891802 -0.974471 65.360161 94 82 101
-16.905935 -0.834274 65.414848 96 84 103
-16.920380 -0.693854 65.470734 98 85 105
-16.935160 -0.553204 65.527924 100 87 108
-16.950296 -0.412316 65.586494 102 89 110
-16.965805 -0.271182 65.646500 104 92 112
-16.981701 -0.129792 65.708008 105 94 114
-16.997980 0.011864 65.770996 107 95 115
-17.014635 0.153795 65.835442 108 97 116
-17.031649 0.296009 65.901276 109 99 118
-17.048988 0.438516 65.968369 109 101 120
-17.066614 0.581322 66.036568 110 103 121
-17.084471 0.724432 66.105667 111 106 123
-17.102499 0.867848 66.175415 113 109 125
-17.120621 1.011571 66.245537 115 111 128
-17.138763 1.155597 66.315742 117 113 131
-17.156845 1.299922 66.385704 119 115 134
-17.174778 1.444535 66.455086 121 117 137
-17.192482 1.589427 66.523590 124 119 141
-17.209873 1.734582 66.590889 126 120 143
-17.226881 1.879986 66.656693 127 122 146
-17.243433 2.025619 66.720741 128 123 148
-17.259472 2.171465 66.782799 128 124 149
-17.274946 2.317502 66.842682 128 124 149
-17.289816 2.463711 66.900208 128 124 148
-17.304045 2.610071 66.955269 127 124 147
-17.317612 2.756564 67.007759 125 123 146
-17.330498 2.903169 67.057625 123 121 144
-17.342693 3.049867 67.104813 122 119 142
-17.354189 3.196640 67.149292 121 117 140
-17.364979 3.343469 67.191040 120 115 138
-17.375059 3.490335 67.230049 119 113 136
-17.384424 3.637220 67.266289 118 111 134
-17.393072 3.784105 67.299744 117 109 131
-17.400993 3.930970 67.330399 116 106 127
-17.408182 4.077795 67.358208 112 102 122
-17.414629 4.224561 67.383156 109 99 117
-17.420324 4.371245 67.405197 106 96 113
-17.425264 4.517829 67.424309 103 94 110
-17.429440 4.664290 67.440460 102 92 107
-17.432846 4.810609 67.453644 102 91 106
-17.435484 4.956767 67.463852 103 91 105
-17.437357 5.102744 67.471100 104 90 104
-17.438475 5.248525 67.475426 105 90 104
-17.438847 5.394094 67.476860 105 89 104
-17.438490 5.539438 67.475479 105 89 105
-17.437426 5.684546 67.471367 106 89 105
-17.435684 5.829410 67.464630 107 89 106
-17.433292 5.974021 67.455368 107 90 106
-17.430286 6.118377 67.443741 107 90 107
-17.426706 6.262476 67.429886 106 89 107
-17.422592 6.406320 67.413971 106 89 107
-17.417995 6.549912 67.396179 105 89 107
-17.412964 6.693262 67.376709 105 88 108
-17.407553 6.836378 67.355774 105 88 108
-17.401819 6.979275 67.333595 106 88 109
-17.395828 7.121971 67.310410 106 88 109
-17.389643 7.264486 67.286476 107 88 109
-17.383327 7.406842 67.262039 108 88 110
-17.376951 7.549066 67.237366 108 89 110
-17.370581 7.691186 67.212715 109 89 110
-17.364283 7.833233 67.188347 109 90 110
-17.358118 7.975236 67.164497 109 91 110
-17.352148 8.117228 67.141396 108 92 110
-17.346424 8.259236 67.119247 107 92 109
-17.340998 8.401294 67.098244 107 92 109
-17.335901 8.543424 67.078529 106 91 109
-17.331167 8.685649 67.060211 104 90 107
-17.326815 8.827991 67.043373 104 88 106
-17.322855 8.970464 67.028046 103 86 105
-17.319284 9.113074 67.014236 103 84 104
-17.316093 9.255829 67.001884 102 82 103
-17.313261 9.398726 66.990929 102 80 102
-17.310757 9.541755 66.981239 100 79 99
-17.308542 9.684904 66.972664 100 78 97
-17.306570 9.828156 66.965042 99 76 96
-17.304794 9.971486 66.958168 98 75 94
-17.303156 10.114867 66.951828 98 74 93
-17.301596 10.258268 66.945793 97 73 91
-17.300060 10.401657 66.939850 96 72 89
-17.298487 10.544997 66.933762 95 71 87
-17.296820 10.688253 66.927307 94 70 86
-17.295004 10.831390 66.920288 93 70 85
-17.292994 10.974372 66.912506 93 69 84
-17.290741 11.117164 66.903786 92 69 83
-17.288204 11.259734 66.893974 91 69 82
-17.285351 11.402053 66.882935 90 69 80
-17.282148 11.544091 66.870544 90 69 79
-17.278576 11.685824 66.856720 89 68 78
-17.274607 11.827228 66.841362 88 68 76
-17.270227 11.968281 66.824417 88 67 76
-17.265427 12.108964 66.805840 88 67 76
-17.260189 12.249258 66.785576 89 65 75
-17.254507 12.389145 66.763588 89 63 75
-17.248371 12.528608 66.739845 90 63 76
-17.241776 12.667631 66.714325 90 62 76
-17.234705 12.806191 66.686966 90 61 77
-17.227150 12.944269 66.657738 91 60 78
-17.219103 13.081846 66.626595 91 61 78
-17.210543 13.218897 66.593475 90 60 78
-17.201452 13.355392 66.558304 89 60 78
-17.191814 13.491306 66.521011 88 59 78
-17.181606 13.626607 66.481514 87 59 78
-17.170805 13.761263 66.439720 86 59 78
-17.159388 13.895239 66.395538 85 59 77
-17.147331 14.028502 66.348892 83 59 76
-17.134619 14.161020 66.299698 81 59 74
-17.121222 14.292757 66.247864 79 58 71
-17.107136 14.423688 66.193359 77 58 68
-17.092356 14.553794 66.136169 76 58 65
-17.076885 14.683059 66.076309 75 58 63
-17.060740 14.811480 66.013832 75 58 61
-17.043936 14.939055 65.948814 73 58 60
-17.026505 15.065794 65.881363 72 58 59
-17.008480 15.191714 65.811630 71 58 59
-16.989906 15.316836 65.739754 70 57 60
-16.970819 15.441182 65.665901 69 57 62
-16.951256 15.564773 65.590202 68 56 63
-16.931246 15.687624 65.512779 67 56 64
-16.910803 15.809734 65.433678 68 56 65
-16.889921 15.931092 65.352882 68 56 65
-16.868574 16.051657 65.270279 69 56 66
-16.846703 16.171362 65.185654 70 56 67
-16.824217 16.290110 65.098648 71 56 67
-16.800997 16.407763 65.008797 71 55 67
-16.776886 16.524153 64.915512 72 55 66
-16.751705 16.639078 64.818077 72 56 66
-16.725245 16.752300 64.715691 72 57 67
-16.697281 16.863564 64.607491 71 57 67
-16.667587 16.972597 64.492592 70 56 66
-16.635935 17.079126 64.370125 69 56 65
-16.602125 17.182896 64.239304 67 56 64
-16.565987 17.283669 64.099472 66 54 63
-16.527395 17.381262 63.950146 65 52 61
-16.486290 17.475542 63.791092 63 51 59
-16.442677 17.566462 63.622341 62 50 56
-16.396643 17.654045 63.444214 61 48 54
-16.348352 17.738413 63.257366 61 47 52
-16.298052 17.819778 63.062740 61 46 49
-16.246069 17.898449 62.861595 60 46 48
-16.192785 17.974812 62.655426 59 46 47
-16.138647 18.049328 62.445946 58 46 46
-16.084135 18.122519 62.235016 57 45 46
-16.029743 18.194939 62.024559 56 44 45
-15.975974 18.267162 61.816509 55 43 45
-15.923307 18.339760 61.612724 54 41 44
-15.872190 18.413275 61.414936 53 40 43
-15.823018 18.488209 61.224667 53 39 43
-15.776121 18.565002 61.043209 52 38 43
-15.731763 18.644020 60.871574 51 38 42
-15.690130 18.725552 60.710480 50 37 40
-15.651327 18.809790 60.560337 49 36 39
-15.615389 18.896847 60.421280 47 34 37
-15.582273 18.986744 60.293140 47 34 37
-15.551878 19.079426 60.175533 48 36 38
-15.524048 19.174768 60.067848 48 37 38
-15.498583 19.272589 59.969315 48 37 38
-15.475254 19.372660 59.879051 47 37 38
-15.453811 19.474716 59.796078 47 37 37
-15.433981 19.578461 59.719353 47 37 37
-15.415515 19.683619 59.647900 46 37 37
-15.398165 19.789900 59.580765 45 37 36
-15.381698 19.897034 59.517048 44 37 36
-15.365902 20.004768 59.455929 43 36 35
-15.350595 20.112881 59.396706 44 36 35
-15.335622 20.221176 59.338764 45 36 34
-15.320848 20.329487 59.281601 47 36 35
-15.306170 20.437677 59.224804 48 36 35
-15.291503 20.545641 59.168056 49 36 36
-15.276781 20.653284 59.111092 49 36 36
-15.261949 20.760532 59.053699 49 35 36
-15.246959 20.867315 58.995697 49 35 35
-15.231763 20.973566 58.936901 49 35 36
-15.216313 21.079212 58.877121 49 35 37
-15.200551 21.184164 58.816132 49 35 37
-15.184409 21.288321 58.753670 49 35 37
-15.167806 21.391558 58.689426 48 35 37
-15.150647 21.493731 58.623035 47 35 37
-15.132829 21.594675 58.554089 48 36 36
-15.114232 21.694206 58.482136 49 36 36
-15.094748 21.792145 58.406742 49 36 36
-15.074252 21.888288 58.327438 49 36 36
-15.052641 21.982462 58.243813 49 37 36
-15.807573 -10.226790 61.679375 55 52 59
-15.812609 -10.097045 61.699020 54 52 58
-15.818126 -9.967520 61.720551 53 52 58
-15.824145 -9.838213 61.744038 53 52 57
-15.830675 -9.709119 61.769516 52 52 57
-15.837719 -9.580225 61.797001 53 52 59
-15.845270 -9.451516 61.826462 53 51 60
-15.853316 -9.322970 61.857857 53 50 61
-15.861838 -9.194566 61.891109 54 51 62
-15.870817 -9.066278 61.926147 55 51 62
-15.880228 -8.938084 61.962868 55 50 63
-15.890046 -8.809956 62.001175 56 50 62
-15.900250 -8.681874 62.040993 56 50 62
-15.910820 -8.553817 62.082233 56 50 62
-15.921740 -8.425767 62.124840 56 50 62
-15.932995 -8.297709 62.168755 58 49 62
-15.944582 -8.169631 62.213966 59 49 63
-15.956499 -8.041524 62.260468 60 50 64
-15.968753 -7.913384 62.308277 62 51 65
-15.981354 -7.785207 62.357445 64 51 67
-15.994315 -7.656990 62.408020 65 52 68
-16.007658 -7.528735 62.460079 65 52 69
-16.021400 -7.400440 62.513706 64 52 69
-16.035566 -7.272105 62.568974 63 53 69
-16.050173 -7.143729 62.625969 62 54 69
-16.065237 -7.015307 62.684753 62 54 69
-16.080774 -6.886833 62.745373 61 55 69
-16.096785 -6.758298 62.807846 61 55 69
-16.113268 -6.629687 62.872162 61 56 70
-16.130209 -6.500984 62.938263 63 57 71
-16.147585 -6.372167 63.006062 65 58 73
-16.165359 -6.243212 63.075417 67 58 75
-16.183489 -6.114091 63.146152 70 59 76
-16.201910 -5.984775 63.218033 72 59 77
-16.220560 -5.855230 63.290806 74 58 77
-16.239365 -5.725426 63.364174 76 58 77
-16.258240 -5.595330 63.437828 78 58 76
-16.277105 -5.464913 63.511433 79 59 75
-16.295872 -5.334147 63.584663 79 60 74
-16.314461 -5.203009 63.657192 79 60 73
-16.332794 -5.071477 63.728725 79 61 73
-16.350803 -4.939540 63.798996 79 62 74
-16.368427 -4.807188 63.867767 79 63 75
-16.385624 -4.674416 63.934868 78 64 76
-16.402357 -4.541227 64.000153 78 64 77
-16.418608 -4.407626 64.063560 79 65 78
-16.434368 -4.273625 64.125061 81 66 80
-16.449650 -4.139238 64.184685 82 67 81
-16.464470 -4.004482 64.242508 83 68 82
-16.478857 -3.869376 64.298653 85 68 83
-16.492853 -3.733938 64.353256 86 68 83
-16.506500 -3.598189 64.406509 86 68 83
-16.519850 -3.462148 64.458595 87 67 83
-16.532951 -3.325833 64.509720 89 67 84
-16.545860 -3.189260 64.560089 90 68 86
-16.558624 -3.052443 64.609894 92 69 87
-16.571289 -2.915394 64.659309 92 70 87
-16.583900 -2.778123 64.708519 93 70 87
-16.596497 -2.640637 64.757660 93 70 86
-16.609108 -2.502942 64.806870 93 71 87
-16.621765 -2.365041 64.856262 93 73 87
-16.634493 -2.226937 64.905922 93 74 88
-16.647312 -2.088630 64.955940 93 74 89
-16.660240 -1.950120 65.006386 92 76 89
-16.673294 -1.811406 65.057320 92 77 90
-16.686491 -1.672487 65.108818 91 78 92
-16.699850 -1.533361 65.160934 91 78 93
-16.713385 -1.394025 65.213753 91 79 95
-16.727118 -1.254476 65.267334 92 80 96
-16.741072 -1.114711 65.321785 92 81 98
-16.755268 -0.974725 65.377174 93 82 100
-16.769732 -0.834514 65.433609 95 84 102
-16.784485 -0.694071 65.491173 97 85 105
-16.799549 -0.553390 65.549957 99 86 108
-16.814947 -0.412464 65.610031 101 88 110
-16.830688 -0.271285 65.671455 103 91 112
-16.846781 -0.129843 65.734245 105 93 114
-16.863226 0.011869 65.798409 106 95 115
-16.880011 0.153861 65.863907 107 97 116
-16.897118 0.296141 65.930656 108 98 117
-16.914515 0.438717 65.998535 109 100 118
-16.932158 0.581593 66.067375 110 103 120
-16.949995 0.724775 66.136971 111 106 122
-16.967962 0.868264 66.207085 113 108 124
-16.985991 1.012058 66.277428 114 111 127
-17.004005 1.156155 66.347717 116 113 130
-17.021925 1.300547 66.417641 118 115 133
-17.039667 1.445226 66.486870 120 116 137
-17.057152 1.590179 66.555092 123 118 140
-17.074303 1.735393 66.622009 125 120 143
-17.091045 1.880850 66.687340 126 121 146
-17.107317 2.026533 66.750832 127 123 148
-17.123058 2.172422 66.812256 127 124 149
-17.138227 2.318499 66.871437 128 124 149
-17.152781 2.464743 66.928223 128 124 149
-17.166693 2.611133 66.982506 127 123 148
-17.179939 2.757651 67.034187 125 123 147
-17.192507 2.904278 67.083237 124 122 145
-17.204390 3.050994 67.129601 122 120 143
-17.215578 3.197781 67.173256 121 117 141
-17.226072 3.344621 67.214203 120 115 139
-17.235870 3.491497 67.252426 119 113 137
-17.244967 3.638390 67.287918 118 111 135
-17.253357 3.785280 67.320656 118 109 133
-17.261040 3.932151 67.350632 117 106 129
-17.268003 4.078982 67.377808 113 102 124
-17.274244 4.225752 67.402161 109 98 119
-17.279753 4.372442 67.423653 106 95 115
-17.284517 4.519031 67.442245 104 93 110
-17.288534 4.665497 67.457916 102 92 108
-17.291796 4.811822 67.470650 103 91 107
-17.294304 4.957984 67.480431 103 90 106
-17.296055 5.103966 67.487259 104 90 106
-17.297058 5.249751 67.491180 105 89 105
-17.297323 5.395322 67.492218 105 88 105
-17.296867 5.540666 67.490433 106 88 104
-17.295708 5.685771 67.485909 106 88 105
-17.293873 5.830629 67.478745 107 88 105
-17.291389 5.975233 67.469063 107 88 104
-17.288292 6.119577 67.456978 107 88 104
-17.284624 6.263662 67.442665 107 88 105
-17.280426 6.407490 67.426285 106 88 106
-17.275747 6.551064 67.408028 106 88 106
-17.270639 6.694392 67.388092 105 88 107
-17.265158 6.837488 67.366707 106 88 108
-17.259367 6.980366 67.344109 106 88 109
-17.253328 7.123044 67.320549 106 88 109
-17.247108 7.265544 67.296280 107 89 110
-17.240776 7.407892 67.271576 108 88 110
-17.234402 7.550113 67.246696 109 88 110
-17.228052 7.692240 67.221924 109 89 109
-17.221796 7.834302 67.197517 109 90 109
-17.215698 7.976332 67.173721 109 91 109
-17.209818 8.118361 67.150772 109 91 108
-17.204205 8.260421 67.128876 108 91 108
-17.198908 8.402540 67.108200 107 91 108
-17.193964 8.544746 67.088913 106 90 107
-17.189398 8.687060 67.071106 105 89 106
-17.185230 8.829501 67.054840 104 88 105
-17.181465 8.972083 67.040154 104 86 103
-17.178099 9.114812 67.027008 103 84 102
-17.175114 9.257691 67.015366 102 82 102
-17.172487 9.400716 67.005119 101 81 100
-17.170183 9.543876 66.996124 100 80 98
-17.168159 9.687154 66.988228 99 79 96
-17.166363 9.830530 66.981224 98 77 95
-17.164742 9.973976 66.974892 98 76 94
-17.163233 10.117463 66.969009 97 75 92
-17.161777 10.260955 66.963326 97 74 91
-17.160311 10.404417 66.957611 96 74 89
-17.158773 10.547809 66.951607 96 72 88
-17.157103 10.691092 66.945084 95 71 87
-17.155245 10.834231 66.937836 94 70 86
-17.153149 10.977185 66.929657 93 69 85
-17.150768 11.119919 66.920372 92 69 84
-17.148062 11.262399 66.909805 92 69 83
-17.144993 11.404593 66.897835 91 69 82
-17.141537 11.546474 66.884354 91 69 81
-17.137669 11.688016 66.869255 91 68 79
-17.133369 11.829196 66.852486 91 67 77
-17.128626 11.969993 66.833977 90 67 76
-17.123430 12.110389 66.813698 90 66 75
-17.117771 12.250367 66.791618 90 64 75
-17.111647 12.389913 66.767723 90 63 75
-17.105049 12.529009 66.741982 91 63 75
-17.097977 12.667643 66.714386 91 61 76
-17.090424 12.805796 66.684914 91 61 76
-17.082380 12.943453 66.653534 91 61 76
-17.073843 13.080594 66.620216 91 60 76
-17.064796 13.217198 66.584923 90 60 76
-17.055229 13.353243 66.547592 89 60 76
-17.045122 13.488699 66.508156 88 59 76
-17.034462 13.623542 66.466553 87 59 76
-17.023226 13.757740 66.422714 87 59 76
-17.011393 13.891262 66.376541 85 59 76
-16.998945 14.024079 66.327972 84 59 76
-16.985867 14.156159 66.276939 82 58 74
-16.972132 14.287468 66.223351 80 57 71
-16.957739 14.417986 66.167191 78 57 68
-16.942686 14.547695 66.108459 77 57 64
-16.926981 14.676585 66.047180 76 57 63
-16.910639 14.804654 65.983414 75 58 61
-16.893679 14.931901 65.917236 74 58 61
-16.876133 15.058341 65.848770 73 58 60
-16.858040 15.183992 65.778175 72 58 60
-16.839443 15.308881 65.705612 70 58 61
-16.820381 15.433031 65.631241 69 57 62
-16.800894 15.556465 65.555199 68 57 64
-16.781008 15.679201 65.477608 67 57 65
-16.760742 15.801242 65.398529 67 57 66
-16.740088 15.922574 65.317940 68 56 67
-16.719017 16.043159 65.235725 69 56 68
-16.697475 16.162933 65.151672 70 56 68
-16.675371 16.281796 65.065422 71 56 68
-16.652580 16.399611 64.976501 71 55 68
-16.628954 16.516211 64.884308 72 56 68
-16.604301 16.631388 64.788124 72 56 68
-16.578421 16.744907 64.687134 72 56 68
-16.551081 16.856508 64.580460 71 56 67
-16.522057 16.965916 64.467209 70 56 67
-16.491117 17.072857 64.346489 68 56 66
-16.458063 17.177067 64.217514 68 56 65
-16.422716 17.278309 64.079590 66 54 63
-16.384953 17.376394 63.932243 64 52 61
-16.344706 17.471191 63.775204 63 51 59
-16.301979 17.562637 63.608490 62 49 56
-16.256853 17.650763 63.432419 62 48 53
-16.209490 17.735676 63.247604 62 47 51
-16.160128 17.817595 63.055008 62 46 49
-16.109087 17.896814 62.855850 61 46 47
-16.056749 17.973724 62.651634 60 46 46
-16.003550 18.048780 62.444054 59 46 45
-15.949964 18.122503 62.234966 58 45 45
-15.896481 18.195444 62.026279 57 44 45
-15.843596 18.268175 61.819935 56 43 45
-15.791790 18.341267 61.617790 55 42 44
-15.741501 18.415264 61.421570 54 41 43
-15.693125 18.490667 61.232811 53 40 43
-15.646991 18.567919 61.052799 53 39 43
-15.603362 18.647388 60.882568 52 39 42
-15.562424 18.729361 60.722828 51 38 40
-15.524282 18.814035 60.574009 50 38 39
-15.488974 18.901524 60.436237 49 37 38
-15.456459 18.991852 60.309368 49 37 38
-15.426638 19.084967 60.193008 49 38 38
-15.399358 19.180742 60.086563 49 38 38
-15.374420 19.278997 59.989258 49 38 39
-15.351598 19.379505 59.900208 49 38 39
-15.330642 19.481998 59.818439 48 38 38
-15.311282 19.586182 59.742905 47 38 38
-15.293267 19.691772 59.672611 47 38 38
-15.276351 19.798481 59.606606 46 38 37
-15.260297 19.906033 59.543964 45 38 36
-15.244895 20.014168 59.483868 44 37 36
-15.229959 20.122662 59.425591 45 37 35
-15.215330 20.231312 59.368507 46 37 35
-15.200874 20.339947 59.312107 48 37 35
-15.186487 20.448431 59.255966 49 37 36
-15.172081 20.556648 59.199753 49 36 36
-15.157588 20.664505 59.143204 49 37 37
-15.142953 20.771923 59.086102 49 36 36
-15.128129 20.878834 59.028259 49 36 36
-15.113071 20.985170 58.969505 49 36 36
-15.097733 21.090860 58.909657 49 35 37
-15.082058 21.195822 58.848495 48 35 38
-15.065984 21.299953 58.785774 48 35 38
-15.049433 21.403137 58.721195 48 36 38
-15.032317 21.505234 58.654411 48 35 37
-15.014536 21.606087 58.585033 49 35 36
-14.995981 21.705521 58.512634 49 36 36
-14.976545 21.803358 58.436798 49 36 36
-14.956110 21.899406 58.357059 49 36 36
-14.934577 21.993494 58.273045 49 37 36
-15.651552 -10.344508 61.588631 56 52 59
-15.656036 -10.214669 61.606274 56 52 59
-15.660986 -10.085054 61.625751 55 52 58
-15.666430 -9.955669 61.647175 54 52 58
-15.672388 -9.826514 61.670620 53 52 58
-15.678868 -9.697581 61.696117 53 51 59
-15.685872 -9.568858 61.723679 53 51 61
-15.693395 -9.440328 61.753281 53 51 62
-15.701423 -9.311970 61.784870 54 50 62
-15.709938 -9.183761 61.818378 55 51 62
-15.718919 -9.055675 61.853718 56 51 62
-15.728343 -8.927689 61.890800 57 51 62
-15.738185 -8.799775 61.929527 57 50 62
-15.748423 -8.671913 61.969814 57 50 62
-15.759036 -8.544082 62.011578 57 50 62
-15.770009 -8.416262 62.054756 57 50 62
-15.781330 -8.288439 62.099304 58 50 62
-15.792994 -8.160601 62.145203 60 49 63
-15.805000 -8.032739 62.192448 61 50 63
-15.817355 -7.904847 62.241062 63 51 64
-15.830067 -7.776921 62.291084 64 51 65
-15.843154 -7.648961 62.342579 64 51 66
-15.856632 -7.520964 62.395615 65 52 67
-15.870522 -7.392931 62.450275 64 52 68
-15.884847 -7.264860 62.506641 63 53 68
-15.899621 -7.136749 62.564777 62 54 67
-15.914865 -7.008593 62.624760 62 54 68
-15.930586 -6.880385 62.686623 62 55 68
-15.946792 -6.752116 62.750393 62 55 68
-15.963473 -6.623769 62.816036 63 56 69
-15.980620 -6.495328 62.883507 65 57 69
-15.998206 -6.366771 62.952705 67 58 71
-16.016195 -6.238072 63.023491 69 58 73
-16.034540 -6.109204 63.095680 71 59 75
-16.053183 -5.980136 63.169041 73 59 76
-16.072056 -5.850836 63.243305 75 59 77
-16.091085 -5.721271 63.318188 77 58 77
-16.110191 -5.591409 63.393364 78 58 76
-16.129288 -5.461220 63.468513 79 59 75
-16.148293 -5.330677 63.543293 80 60 75
-16.167124 -5.199756 63.617393 80 60 74
-16.185703 -5.068436 63.690506 80 61 74
-16.203966 -4.936705 63.762375 80 61 74
-16.221853 -4.804553 63.832756 80 62 75
-16.239317 -4.671975 63.901474 79 63 76
-16.256325 -4.538974 63.968407 80 64 78
-16.272860 -4.405556 64.033463 80 65 79
-16.288912 -4.271730 64.096626 81 66 80
-16.304491 -4.137513 64.157936 82 67 81
-16.319616 -4.002921 64.217453 83 67 82
-16.334318 -3.867971 64.275299 84 67 82
-16.348633 -3.732683 64.331635 85 67 82
-16.362606 -3.597078 64.386620 86 66 82
-16.376287 -3.461174 64.440453 87 66 82
-16.389729 -3.324988 64.493340 89 67 83
-16.402977 -3.188538 64.545471 90 68 83
-16.416086 -3.051837 64.597061 92 70 84
-16.429102 -2.914896 64.648277 92 70 84
-16.442064 -2.777726 64.699287 93 70 83
-16.455017 -2.640335 64.750252 93 71 83
-16.467985 -2.502726 64.801285 93 72 84
-16.481005 -2.364904 64.852516 93 73 85
-16.494097 -2.226872 64.904030 93 74 87
-16.507280 -2.088629 64.955910 92 75 89
-16.520575 -1.950175 65.008217 92 76 89
-16.533993 -1.811509 65.061020 91 77 91
-16.547556 -1.672631 65.114388 90 77 92
-16.561275 -1.533536 65.168373 90 78 94
-16.575167 -1.394224 65.223038 91 79 95
-16.589249 -1.254690 65.278458 91 80 97
-16.603542 -1.114931 65.334694 92 81 98
-16.618065 -0.974944 65.391846 93 82 100
-16.632839 -0.834722 65.449974 95 84 101
-16.647882 -0.694262 65.509178 96 85 104
-16.663218 -0.553555 65.569519 98 86 107
-16.678858 -0.412597 65.631065 100 88 109
-16.694815 -0.271378 65.693855 102 90 111
-16.711094 -0.129890 65.757912 104 92 113
-16.727692 0.011873 65.823219 105 94 114
-16.744595 0.153922 65.889732 107 96 115
-16.761782 0.296261 65.957367 108 98 116
-16.779221 0.438899 66.025986 109 100 118
-16.796867 0.581840 66.095428 110 102 119
-16.814672 0.725088 66.165489 111 105 121
-16.832571 0.868642 66.235924 112 108 123
-16.850494 1.012501 66.306450 114 110 126
-16.868372 1.156661 66.376793 115 112 129
-16.886120 1.301115 66.446632 117 114 132
-16.903662 1.445852 66.515663 120 115 136
-16.920921 1.590860 66.583572 122 117 139
-16.937820 1.736124 66.650078 124 119 143
-16.954294 1.881627 66.714897 126 121 146
-16.970280 2.027352 66.777802 127 123 148
-16.985722 2.173278 66.838570 127 123 150
-17.000582 2.319387 66.897041 127 123 150
-17.014818 2.465657 66.953064 127 123 149
-17.028410 2.612071 67.006546 127 123 148
-17.041340 2.758607 67.057426 125 123 147
-17.053591 2.905247 67.105637 124 122 145
-17.065163 3.051974 67.151169 122 120 143
-17.076048 3.198768 67.194000 121 117 141
-17.086248 3.345613 67.234138 120 115 139
-17.095762 3.492491 67.271576 119 112 138
-17.104589 3.639384 67.306305 119 110 136
-17.112726 3.786274 67.338326 119 108 134
-17.120169 3.933142 67.367615 118 105 130
-17.126909 4.079970 67.394135 114 101 125
-17.132940 4.226737 67.417870 110 97 120
-17.138256 4.373424 67.438789 107 95 116
-17.142843 4.520009 67.456833 104 93 111
-17.146696 4.666471 67.472000 102 91 108
-17.149809 4.812792 67.484245 103 90 107
-17.152176 4.958950 67.493561 104 90 107
-17.153801 5.104927 67.499954 104 89 106
-17.154686 5.250705 67.503441 105 88 106
-17.154840 5.396267 67.504044 105 87 106
-17.154278 5.541602 67.501831 106 87 105
-17.153017 5.686696 67.496872 106 87 104
-17.151085 5.831539 67.489273 107 87 104
-17.148508 5.976125 67.479134 107 87 103
-17.145321 6.120450 67.466591 107 87 103
-17.141565 6.264513 67.451813 106 87 103
-17.137285 6.408315 67.434967 105 87 104
-17.132528 6.551863 67.416245 105 87 105
-17.127350 6.695165 67.395866 105 88 108
-17.121807 6.838234 67.374062 107 90 111
-17.115963 6.981087 67.351067 107 89 111
-17.109886 7.123743 67.327156 107 89 111
-17.103642 7.266225 67.302582 108 88 111
-17.097303 7.408560 67.277641 108 88 111
-17.090940 7.550777 67.252602 109 88 110
-17.084627 7.692907 67.227753 109 88 109
-17.078426 7.834983 67.203354 109 89 109
-17.072405 7.977037 67.179665 110 90 108
-17.066624 8.119103 67.156914 109 90 107
-17.061134 8.261213 67.135315 108 90 107
-17.055983 8.403397 67.115044 107 90 107
-17.051203 8.545678 67.096237 106 89 106
-17.046822 8.688083 67.078995 105 89 105
-17.042852 8.830625 67.063370 105 88 104
-17.039297 8.973319 67.049385 104 86 103
-17.036150 9.116171 67.037003 103 85 102
-17.033388 9.259179 67.026138 102 83 101
-17.030985 9.402338 67.016678 100 81 99
-17.028900 9.545635 67.008476 99 81 97
-17.027086 9.689051 67.001335 98 80 95
-17.025488 9.832559 66.995049 96 79 94
-17.024042 9.976131 66.989365 96 78 94
-17.022690 10.119734 66.984039 96 77 92
-17.021362 10.263328 66.978813 96 76 92
-17.019993 10.406875 66.973427 96 75 90
-17.018517 10.550331 66.967613 96 73 90
-17.016870 10.693657 66.961136 95 71 89
-17.014997 10.836809 66.953766 94 69 88
-17.012844 10.979749 66.945290 93 68 87
-17.010363 11.122437 66.935524 93 68 86
-17.007511 11.264839 66.924309 93 69 86
-17.004257 11.406922 66.911499 93 69 85
-17.000572 11.548658 66.897003 93 69 83
-16.996435 11.690022 66.880730 94 68 81
-16.991829 11.830986 66.862602 93 66 79
-16.986746 11.971537 66.842598 93 66 77
-16.981176 12.111653 66.820679 93 65 75
-16.975117 12.251324 66.796837 93 64 74
-16.968567 12.390532 66.771065 93 63 75
-16.961527 12.529269 66.743362 92 63 75
-16.953997 12.667519 66.713730 91 61 76
-16.945974 12.805268 66.682167 91 61 76
-16.937458 12.942505 66.648651 91 61 76
-16.928442 13.079211 66.613174 91 60 76
-16.918922 13.215370 66.575714 90 60 76
-16.908884 13.350960 66.536217 88 60 75
-16.898321 13.485959 66.494644 87 59 75
-16.887213 13.620340 66.450935 87 59 75
-16.875547 13.754079 66.405037 86 59 76
-16.863306 13.887144 66.356865 85 58 76
-16.850471 14.019509 66.306358 84 58 76
-16.837032 14.151148 66.253479 82 57 74
-16.822968 14.282027 66.198135 81 56 72
-16.808275 14.412130 66.140320 79 56 69
-16.792959 14.541444 66.080048 78 56 65
-16.777027 14.669959 66.017357 76 57 64
-16.760496 14.797675 65.952309 75 57 63
-16.743391 14.924599 65.884995 74 58 62
-16.725744 15.050746 65.815559 74 58 62
-16.707600 15.176140 65.744156 72 58 62
-16.688995 15.300805 65.670952 71 58 62
-16.669977 15.424772 65.596115 69 57 63
-16.650583 15.548066 65.519806 68 57 64
-16.630844 15.670705 65.442123 68 57 66
-16.610775 15.792695 65.363152 68 57 67
-16.590370 15.914023 65.282867 68 57 68
-16.569603 16.034655 65.201141 69 56 68
-16.548414 16.154522 65.117767 69 56 68
-16.526716 16.273529 65.032387 70 56 68
-16.504385 16.391537 64.944511 71 56 68
-16.481262 16.508375 64.853531 72 56 68
-16.457169 16.623840 64.758720 72 56 68
-16.431890 16.737688 64.659248 72 56 68
-16.405203 16.849663 64.554230 72 56 68
-16.376873 16.959482 64.442757 71 56 67
-16.346674 17.066870 64.323921 70 56 66
-16.314400 17.171560 64.196922 68 55 65
-16.279871 17.273312 64.061058 66 54 62
-16.242962 17.371931 63.915821 65 52 59
-16.203602 17.467283 63.760941 64 51 57
-16.161791 17.559303 63.596413 63 49 55
-16.117603 17.648012 63.422535 62 48 52
-16.071196 17.733522 63.239922 62 47 50
-16.022806 17.816040 63.049507 62 46 49
-15.972741 17.895861 62.852505 61 46 47
-15.921380 17.973370 62.650398 61 45 45
-15.869154 18.049023 62.444889 60 45 45
-15.816528 18.123331 62.237808 58 44 44
-15.763990 18.196850 62.031075 57 44 44
-15.712030 18.270147 61.826611 56 43 44
-15.661121 18.343794 61.626282 55 42 44
-15.611701 18.418335 61.431816 54 41 43
-15.564160 18.494272 61.244743 53 41 43
-15.518828 18.572044 61.066364 53 41 42
-15.475965 18.652023 60.897701 53 41 42
-15.435759 18.734497 60.739483 52 40 41
-15.398315 18.819670 60.592148 51 39 40
-15.363670 18.907648 60.455818 51 39 39
-15.331788 18.998465 60.330364 50 39 38
-15.302571 19.092064 60.215397 50 38 38
-15.275867 19.188324 60.110313 50 38 39
-15.251479 19.287062 60.014351 50 38 39
-15.229184 19.388048 59.926617 49 38 40
-15.208732 19.491018 59.846138 49 38 39
-15.189854 19.595673 59.771854 48 38 39
-15.172299 19.701727 59.702774 48 38 38
-15.155820 19.808886 59.637928 47 38 37
-15.140180 19.916872 59.576389 46 37 36
-15.125168 20.025423 59.517319 46 37 36
-15.110596 20.134304 59.459972 46 37 35
-15.096302 20.243315 59.403728 47 38 35
-15.082154 20.352276 59.348057 48 37 35
-15.068041 20.461046 59.292519 49 37 36
-15.053876 20.569506 59.236782 49 37 36
-15.039592 20.677561 59.180573 49 37 36
-15.025132 20.785131 59.123676 49 36 36
-15.010451 20.892149 59.065907 48 37 37
-14.995506 20.998547 59.007095 48 36 37
-14.980251 21.104256 58.947071 48 36 38
-14.964636 21.209194 58.885624 48 35 38
-14.948601 21.313269 58.822525 48 35 38
-14.932074 21.416367 58.757492 48 35 38
-14.914971 21.518354 58.690197 48 35 37
-14.897201 21.619081 58.620266 48 35 36
-14.878656 21.718378 58.547298 49 36 37
-14.859240 21.816078 58.470890 49 37 37
-14.838838 21.911995 58.390610 49 37 37
-14.817355 22.005962 58.306080 49 37 37
-14.794718 22.097837 58.216999 49 37 37
-15.500311 -10.332191 61.515301 55 51 58
-15.504693 -10.202469 61.532692 55 51 58
-15.509551 -10.072980 61.551971 55 51 58
-15.514913 -9.943731 61.573250 55 51 58
-15.520797 -9.814721 61.596600 54 51 59
-15.527211 -9.685941 61.622059 54 51 60
-15.534160 -9.557380 61.649635 54 51 62
-15.541636 -9.429020 61.679306 54 51 63
-15.549627 -9.300839 61.711021 55 51 63
-15.558115 -9.172815 61.744705 56 51 62
-15.567079 -9.044923 61.780281 57 51 62
-15.576494 -8.917136 61.817646 58 51 62
-15.586340 -8.789430 61.856720 58 50 62
-15.596591 -8.661780 61.897404 58 50 62
-15.607230 -8.534168 61.939625 58 50 61
-15.618240 -8.406574 61.983322 58 50 61
-15.629613 -8.278982 62.028454 59 50 62
-15.641340 -8.151381 62.074997 61 50 62
-15.653423 -8.023763 62.122952 62 50 62
-15.665869 -7.896120 62.172344 64 51 63
-15.678687 -7.768448 62.223213 65 51 63
-15.691893 -7.640746 62.275623 65 51 64
-15.705505 -7.513012 62.329647 65 52 65
-15.719542 -7.385245 62.385353 64 52 66
-15.734025 -7.257444 62.442829 63 53 67
-15.748970 -7.129604 62.502140 63 53 67
-15.764394 -7.001721 62.563354 63 54 68
-15.780305 -6.873786 62.626499 62 55 69
-15.796706 -6.745789 62.691593 63 55 68
-15.813593 -6.617713 62.758610 64 56 68
-15.830948 -6.489541 62.827484 66 57 69
-15.848747 -6.361250 62.898121 68 58 69
-15.866952 -6.232814 62.970371 70 58 71
-15.885515 -6.104205 63.044044 72 58 73
-15.904378 -5.975390 63.118904 74 58 75
-15.923474 -5.846338 63.194691 75 58 75
-15.942728 -5.717016 63.271103 77 58 75
-15.962060 -5.587392 63.347824 78 58 75
-15.981386 -5.457435 63.424519 79 58 75
-16.000622 -5.327117 63.500862 80 59 75
-16.019688 -5.196415 63.576527 81 60 75
-16.038509 -5.065310 63.651218 81 60 75
-16.057018 -4.933786 63.724674 81 61 76
-16.075155 -4.801835 63.796658 81 62 77
-16.092876 -4.669453 63.866989 81 63 78
-16.110149 -4.536641 63.935535 81 64 79
-16.126953 -4.403407 64.002228 81 65 79
-16.143286 -4.269759 64.067039 81 66 80
-16.159151 -4.135713 64.130005 82 67 81
-16.174570 -4.001284 64.191200 83 67 81
-16.189569 -3.866492 64.250725 84 67 81
-16.204189 -3.731355 64.308746 85 67 81
-16.218473 -3.595895 64.365440 86 67 81
-16.232470 -3.460127 64.420982 87 67 81
-16.246227 -3.324073 64.475578 88 67 81
-16.259798 -3.187746 64.529442 90 68 81
-16.273233 -3.051161 64.582756 91 70 81
-16.286575 -2.914330 64.635704 92 70 81
-16.299868 -2.777262 64.688461 92 70 82
-16.313150 -2.639965 64.741173 93 71 82
-16.326454 -2.502444 64.793976 93 72 83
-16.339809 -2.364702 64.846977 93 73 84
-16.353237 -2.226743 64.900269 93 74 87
-16.366760 -2.088565 64.953934 92 75 89
-16.380394 -1.950170 65.008041 92 76 90
-16.394154 -1.811555 65.062653 91 76 92
-16.408054 -1.672719 65.117813 90 77 93
-16.422110 -1.533659 65.173599 89 78 94
-16.436333 -1.394374 65.230049 90 78 95
-16.450743 -1.254859 65.287231 91 79 96
-16.465351 -1.115111 65.345215 92 80 97
-16.480179 -0.975126 65.404060 93 82 98
-16.495243 -0.834899 65.463837 94 83 100
-16.510559 -0.694425 65.524628 96 84 103
-16.526146 -0.553699 65.586479 98 85 106
-16.542013 -0.412712 65.649452 99 87 108
-16.558170 -0.271459 65.713570 101 89 110
-16.574617 -0.129932 65.778847 103 91 112
-16.591351 0.011877 65.845261 105 93 113
-16.608356 0.153975 65.912743 106 95 114
-16.625610 0.296369 65.981216 107 97 115
-16.643078 0.439063 66.050537 108 99 116
-16.660717 0.582062 66.120552 109 102 118
-16.678476 0.725368 66.191032 110 104 120
-16.696295 0.868980 66.261742 111 107 122
-16.714104 1.012898 66.332413 112 109 125
-16.731829 1.157114 66.402763 114 111 128
-16.749397 1.301621 66.472488 116 113 131
-16.766731 1.446409 66.541283 119 115 135
-16.783756 1.591464 66.608849 122 117 139
-16.800400 1.736771 66.674904 124 119 142
-16.816599 1.882312 66.739189 125 121 145
-16.832294 2.028070 66.801476 127 122 148
-16.847437 2.174026 66.861572 127 123 150
-16.861984 2.320159 66.919304 127 124 149
-16.875906 2.466449 66.974556 127 124 149
-16.889181 2.612877 67.027237 127 124 148
-16.901791 2.759424 67.077286 126 123 147
-16.913729 2.906071 67.124664 124 121 145
-16.924992 3.052801 67.169357 122 119 143
-16.935575 3.199595 67.211365 121 117 142
-16.945484 3.346437 67.250687 120 115 140
-16.954718 3.493309 67.287331 120 112 138
-16.963276 3.640194 67.321297 119 110 136
-16.971159 3.787075 67.352577 119 108 134
-16.978359 3.933933 67.381157 118 105 130
-16.984875 4.080750 67.407013 115 101 126
-16.990696 4.227505 67.430115 111 98 120
-16.995813 4.374178 67.450424 107 94 115
-17.000217 4.520750 67.467903 104 91 110
-17.003901 4.667199 67.482521 102 89 107
