ply
format ascii 1.0
element vertex 1218
property float x
property float y
property float z
property uchar red
property uchar green
property uchar blue
end_header
-10.527222 -3.418446 58.915844 19 16 15
-10.541707 -3.295972 58.996914 18 16 16
-10.556526 -3.173249 59.079849 18 16 16
-10.571692 -3.050268 59.164722 17 16 15
-10.587210 -2.927020 59.251568 17 15 14
-10.603079 -2.803489 59.340385 17 15 13
-10.619295 -2.679663 59.431141 19 16 13
-10.635847 -2.555527 59.523773 22 16 13
-10.652721 -2.431064 59.618210 26 17 14
-10.669898 -2.306260 59.714336 32 19 17
-10.687354 -2.181099 59.812031 37 21 20
-10.705066 -2.055565 59.911156 41 23 22
-10.723008 -1.929646 60.011570 45 24 24
-10.741151 -1.803327 60.113110 46 25 24
-10.759467 -1.676597 60.215614 48 25 24
-10.777926 -1.549447 60.318924 50 26 24
-10.796500 -1.421865 60.422871 51 27 25
-10.815158 -1.293846 60.527287 51 28 25
-10.833867 -1.165382 60.632000 51 28 26
-10.852601 -1.036469 60.736839 51 27 26
-10.871327 -0.907104 60.841644 50 26 26
-10.890017 -0.777284 60.946236 49 26 25
-10.908639 -0.647008 61.050457 48 26 25
-10.927166 -0.516280 61.154144 47 26 25
-10.945572 -0.385100 61.257153 47 26 24
-10.963830 -0.253472 61.359337 46 26 25
-10.981918 -0.121402 61.460571 45 26 25
-10.999818 0.011105 61.560741 45 27 25
-11.017510 0.144040 61.659760 45 27 25
-11.034986 0.277397 61.757561 44 26 25
-11.052236 0.411167 61.854099 43 26 24
-11.069256 0.545342 61.949352 42 25 24
-11.086050 0.679914 62.043343 42 24 23
-11.102624 0.814875 62.136101 44 25 24
-11.118990 0.950218 62.227692 46 25 24
-11.135163 1.085938 62.318207 47 25 25
-11.151165 1.222028 62.407761 48 25 26
-11.167018 1.358487 62.496479 47 25 26
-11.182747 1.495311 62.584511 47 25 26
-11.198383 1.632502 62.672020 46 25 26
-11.213954 1.770059 62.759159 45 26 26
-11.229488 1.907987 62.846100 44 26 26
-11.245017 2.046288 62.933010 44 27 26
-11.260570 2.184968 63.020046 43 27 25
-11.276173 2.324033 63.107368 42 26 24
-11.291851 2.463492 63.195118 42 25 23
-11.307631 2.603353 63.283432 42 25 22
-11.323536 2.743624 63.372437 43 25 21
-11.339583 2.884315 63.462246 44 25 22
-11.355793 3.025437 63.552963 46 25 22
-11.372180 3.166999 63.644672 47 25 22
-11.388757 3.309012 63.737450 48 26 23
-11.405537 3.451486 63.831356 50 26 24
-11.422524 3.594431 63.926430 50 26 24
-11.439726 3.737856 64.022705 50 26 24
-11.457143 3.881768 64.120178 49 26 24
-11.474771 4.026175 64.218834 49 26 25
-11.492605 4.171081 64.318634 48 26 26
-11.510631 4.316490 64.419518 47 26 26
-11.528833 4.462403 64.521393 47 26 26
-11.547194 4.608817 64.624146 48 26 26
-11.565687 4.755729 64.727646 48 27 26
-11.584288 4.903133 64.831741 49 27 26
-11.602966 5.051020 64.936279 51 28 28
-11.621694 5.199379 65.041092 52 29 28
-11.640442 5.348199 65.146011 53 29 27
-11.659181 5.497468 65.250877 53 29 28
-11.677884 5.647171 65.355560 52 28 27
-11.696531 5.797298 65.459915 51 28 27
-11.715102 5.947836 65.563850 51 28 28
-11.733583 6.098776 65.667282 51 28 28
-11.751965 6.250108 65.770149 50 28 28
-11.770241 6.401827 65.872437 49 28 29
-11.788409 6.553927 65.974113 49 27 29
-11.806473 6.706405 66.075203 49 27 29
-11.824433 6.859260 66.175720 50 27 29
-11.842296 7.012490 66.275688 50 27 29
-9.652738 -11.541867 54.681465 30 18 18
-9.655653 -11.427444 54.697983 30 18 18
-9.658771 -11.313184 54.715641 30 18 18
-9.662073 -11.199064 54.734348 30 19 18
-9.665548 -11.085060 54.754036 30 19 18
-9.669185 -10.971155 54.774635 30 19 17
-9.672976 -10.857336 54.796120 30 19 17
-9.676928 -10.743601 54.818497 31 19 16
-9.681043 -10.629949 54.841812 31 18 16
-9.685335 -10.516389 54.866127 31 18 16
-9.689822 -10.402933 54.891544 31 18 16
-9.694529 -10.289600 54.918205 30 18 16
-9.699479 -10.176410 54.946251 30 18 16
-9.704707 -10.063385 54.975864 30 19 16
-9.710245 -9.950551 55.007236 30 19 17
-9.716124 -9.837927 55.040543 29 19 17
-9.722380 -9.725535 55.075977 30 19 17
-9.729039 -9.613391 55.113705 30 19 17
-9.736134 -9.501508 55.153893 30 19 18
-9.743682 -9.389888 55.196651 30 19 18
-9.751704 -9.278536 55.242096 29 18 17
-9.760211 -9.167443 55.290291 29 18 17
-9.769207 -9.056596 55.341248 28 18 17
-9.778692 -8.945976 55.394981 28 18 17
-9.788659 -8.835560 55.451443 28 18 17
-9.799092 -8.725315 55.510548 28 19 17
-9.809973 -8.615209 55.572182 28 19 17
-9.821277 -8.505202 55.636215 28 19 17
-9.832976 -8.395258 55.702496 28 19 17
-9.845038 -8.285334 55.770824 28 19 17
-9.857430 -8.175387 55.841019 27 19 17
-9.870114 -8.065378 55.912876 27 19 18
-9.883059 -7.955268 55.986202 27 19 19
-9.896223 -7.845017 56.060776 27 20 19
-9.909574 -7.734589 56.136410 27 20 19
-9.923079 -7.623954 56.212914 28 20 19
-9.936706 -7.513081 56.290108 28 19 19
-9.950422 -7.401942 56.367809 28 19 18
-9.964203 -7.290515 56.445877 28 19 17
-9.978023 -7.178779 56.524158 28 19 17
-9.991857 -7.066716 56.602528 28 19 17
-10.005686 -6.954312 56.680870 27 19 16
-10.019492 -6.841555 56.759079 26 19 16
-10.033259 -6.728434 56.837070 25 19 15
-10.046976 -6.614943 56.914772 24 18 15
-10.060626 -6.501075 56.992100 24 18 16
-10.074202 -6.386826 57.069000 23 17 16
-10.087692 -6.272192 57.145424 23 17 16
-10.101089 -6.157172 57.221313 23 16 16
-10.114384 -6.041763 57.296627 23 17 16
-10.127570 -5.925967 57.371326 24 17 16
-10.140643 -5.809783 57.445381 25 17 16
-10.153598 -5.693214 57.518772 26 17 17
-10.166430 -5.576262 57.591469 27 18 17
-10.179143 -5.458932 57.663483 27 18 18
-10.191733 -5.341227 57.734806 27 18 17
-10.204208 -5.223155 57.805473 26 17 16
-10.216575 -5.104726 57.875530 25 16 15
-10.228846 -4.985947 57.945038 24 15 14
-10.241036 -4.866830 58.014099 23 15 12
-10.253168 -4.747388 58.082825 22 15 12
-10.265265 -4.627635 58.151352 22 16 12
-10.277360 -4.507585 58.219864 22 17 13
-10.289483 -4.387251 58.288540 22 17 14
-10.301672 -4.266650 58.357594 22 17 14
-10.313966 -4.145792 58.427238 22 17 14
-10.326406 -4.024691 58.497707 22 17 14
-10.339032 -3.903356 58.569233 21 17 13
-10.351884 -3.781796 58.642033 20 17 13
-10.364997 -3.660014 58.716320 19 16 13
-10.378407 -3.538013 58.792282 18 15 14
-10.392141 -3.415791 58.870090 18 16 14
-10.406226 -3.293344 58.949879 18 16 15
-10.420678 -3.170665 59.031746 17 15 15
-10.435509 -3.047744 59.115761 17 15 15
-10.450725 -2.924569 59.201954 17 14 14
-10.466323 -2.801124 59.290321 18 15 13
-10.482300 -2.677394 59.380821 20 15 12
-10.498640 -2.553364 59.473389 22 15 13
-10.515328 -2.429014 59.567928 26 16 14
-10.532344 -2.304328 59.664314 32 18 17
-10.549661 -2.179289 59.762413 37 21 20
-10.567253 -2.053881 59.862072 42 23 22
-10.585091 -1.928088 59.963120 45 24 24
-10.603144 -1.801895 60.065388 47 25 25
-10.621380 -1.675291 60.168694 48 26 26
-10.639768 -1.548263 60.272858 50 27 26
-10.658275 -1.420802 60.377697 51 28 27
-10.676869 -1.292900 60.483036 51 29 27
-10.695518 -1.164550 60.588676 51 28 26
-10.714190 -1.035746 60.694450 51 27 26
-10.732853 -0.906485 60.800175 50 26 26
-10.751477 -0.776766 60.905678 49 25 25
-10.770032 -0.646588 61.010788 49 26 25
-10.788488 -0.515952 61.115341 49 26 25
-10.806820 -0.384861 61.219185 49 26 25
-10.825000 -0.253318 61.322174 48 27 25
-10.843006 -0.121330 61.424179 47 26 25
-10.860820 0.011098 61.525089 46 26 25
-10.878424 0.143958 61.624809 46 26 25
-10.895804 0.277243 61.723270 45 26 25
-10.912954 0.410943 61.820427 44 25 25
-10.929870 0.545051 61.916248 42 25 24
-10.946551 0.679557 62.010746 42 24 23
-10.963004 0.814454 62.103951 43 24 23
-10.979238 0.949733 62.195911 45 24 24
-10.995269 1.085389 62.286724 46 24 24
-11.011113 1.221416 62.376480 47 25 25
-11.026793 1.357809 62.465309 47 25 25
-11.042335 1.494567 62.553345 46 25 25
-11.057762 1.631687 62.640743 45 25 25
-11.073105 1.769171 62.727657 45 25 26
-11.088392 1.907020 62.814255 45 26 27
-11.103652 2.045237 62.900700 45 27 27
-11.118913 2.183827 62.987152 44 27 26
-11.134204 2.322796 63.073776 43 26 24
-11.149551 2.462151 63.160713 43 24 22
-11.164980 2.601900 63.248116 43 25 22
-11.180515 2.742052 63.336121 44 25 22
-11.196178 2.882616 63.424854 46 25 22
-11.211991 3.023602 63.514427 47 25 23
-11.227970 3.165022 63.604950 48 26 23
-11.244134 3.306887 63.696514 50 26 24
-11.260496 3.449207 63.789200 50 26 24
-11.277066 3.591993 63.883068 50 26 25
-11.293852 3.735255 63.978161 50 26 25
-11.310861 3.879004 64.074509 50 26 25
-11.328090 4.023245 64.172112 49 27 25
-11.345535 4.167988 64.270935 49 27 26
-11.363188 4.313235 64.370934 48 27 25
-11.381034 4.458989 64.472038 48 27 25
-11.399057 4.605250 64.574135 47 27 26
-11.417233 4.752016 64.677094 48 27 26
-11.435535 4.899279 64.780777 49 27 27
-11.453936 5.047032 64.885017 51 28 28
-11.472405 5.195266 64.989639 52 28 28
-11.490912 5.343969 65.094482 53 28 28
-11.509428 5.493128 65.199371 53 28 28
-11.527925 5.642729 65.304153 52 28 28
-11.546377 5.792761 65.408684 52 27 27
-11.564765 5.943209 65.512848 52 27 27
-11.583071 6.094064 65.616547 52 27 27
-11.601283 6.245315 65.719711 51 27 28
-11.619393 6.396955 65.822311 50 27 28
-11.637399 6.548978 65.924301 48 27 28
-11.655297 6.701380 66.025696 49 27 28
-11.673092 6.854158 66.126503 50 27 29
-11.690788 7.007311 66.226746 50 27 29
-11.708390 7.160839 66.326462 51 28 29
-9.536676 -11.426167 54.691868 30 19 17
-9.539889 -11.312078 54.710293 31 19 18
-9.543293 -11.198135 54.729813 31 19 18
-9.546875 -11.084315 54.750355 31 20 18
-9.550627 -10.970601 54.771870 31 20 18
-9.554543 -10.856981 54.794331 31 20 17
-9.558626 -10.743453 54.817745 31 19 16
-9.562881 -10.630014 54.842152 31 18 16
-9.567323 -10.516675 54.867619 31 18 15
-9.571965 -10.403445 54.894245 30 18 15
-9.576833 -10.290342 54.922161 30 18 16
-9.581950 -10.177383 54.951508 30 18 16
-9.587348 -10.064593 54.982464 30 18 17
-9.593058 -9.951992 55.015205 30 19 17
-9.599109 -9.839602 55.049911 30 19 17
-9.605534 -9.727438 55.086754 29 19 17
-9.612361 -9.615520 55.125908 30 19 17
-9.619616 -9.503855 55.167515 30 19 18
-9.627319 -9.392447 55.211693 30 19 18
-9.635488 -9.281298 55.258541 30 18 17
-9.644132 -9.170399 55.308113 29 18 17
-9.653255 -9.059735 55.360432 28 18 17
-9.662856 -8.949288 55.415493 28 18 17
-9.672923 -8.839031 55.473228 28 18 17
-9.683444 -8.728933 55.533566 28 19 17
-9.694398 -8.618960 55.596382 29 19 17
-9.705758 -8.509072 55.661533 29 19 17
-9.717495 -8.399230 55.728844 29 19 17
-9.729577 -8.289391 55.798134 29 20 17
-9.741969 -8.179513 55.869202 28 20 17
-9.754632 -8.069553 55.941818 28 20 17
-9.767529 -7.959472 56.015785 27 20 18
-9.780624 -7.849229 56.090881 27 20 19
-9.793880 -7.738791 56.166901 28 21 20
-9.807258 -7.628119 56.243622 27 20 19
-9.820727 -7.517187 56.320869 28 20 19
-9.834256 -7.405966 56.398453 28 20 19
-9.847813 -7.294432 56.476200 28 19 18
-9.861373 -7.182565 56.553970 28 19 17
-9.874911 -7.070347 56.631611 28 19 16
-9.888406 -6.957764 56.709000 27 19 16
-9.901839 -6.844804 56.786041 26 19 15
-9.915196 -6.731461 56.862640 25 19 15
-9.928461 -6.617725 56.938709 24 18 15
-9.941623 -6.503595 57.014191 23 17 16
-9.954671 -6.389066 57.089020 23 17 17
-9.967600 -6.274139 57.163166 23 17 17
-9.980400 -6.158814 57.236576 23 16 16
-9.993070 -6.043093 57.309238 24 17 17
-10.005602 -5.926977 57.381107 24 17 17
-10.017998 -5.810472 57.452194 25 17 17
-10.030254 -5.693582 57.522484 27 17 17
-10.042374 -5.576313 57.591988 28 18 18
-10.054358 -5.458671 57.660721 28 18 18
-10.066215 -5.340663 57.728714 28 18 18
-10.077952 -5.222302 57.796028 27 18 17
-10.089583 -5.103597 57.862732 26 17 15
-10.101123 -4.984559 57.928909 25 16 13
-10.112594 -4.865202 57.994694 24 15 12
-10.124018 -4.745540 58.060207 22 15 11
-10.135425 -4.625587 58.125626 22 16 11
-10.146848 -4.505360 58.191135 22 17 12
-10.158322 -4.384873 58.256943 22 17 13
-10.169888 -4.264140 58.323273 22 17 14
-10.181586 -4.143175 58.390362 22 17 14
-10.193460 -4.021990 58.458450 21 17 14
-10.205547 -3.900593 58.527775 20 17 13
-10.217893 -3.778993 58.598568 20 16 13
-10.230532 -3.657192 58.671055 19 16 13
-10.243500 -3.535193 58.745426 18 15 13
-10.256825 -3.412992 58.821850 17 15 14
-10.270534 -3.290584 58.900463 17 15 14
-10.284642 -3.167960 58.981373 18 15 14
-10.299161 -3.045109 59.064640 18 14 15
-10.314096 -2.922016 59.150291 18 14 14
-10.329446 -2.798667 59.238319 18 14 13
-10.345201 -2.675043 59.328667 20 14 13
-10.361346 -2.551126 59.421265 22 15 13
-10.377867 -2.426897 59.516006 26 16 14
-10.394736 -2.302337 59.612751 31 18 17
-10.411928 -2.177427 59.711346 36 20 20
-10.429414 -2.052150 59.811623 42 23 23
-10.447160 -1.926489 59.913395 45 25 25
-10.465134 -1.800428 60.016476 48 26 26
-10.483301 -1.673954 60.120663 49 27 27
-10.501627 -1.547054 60.225761 50 28 28
-10.520079 -1.419717 60.331577 51 29 28
-10.538620 -1.291936 60.437912 51 29 28
-10.557218 -1.163702 60.544567 50 28 27
-10.575838 -1.035010 60.651352 50 27 27
-10.594449 -0.905858 60.758087 50 25 26
-10.613020 -0.776242 60.864590 50 26 26
-10.631519 -0.646163 60.970676 50 26 26
-10.649918 -0.515622 61.076195 51 27 26
-10.668189 -0.384621 61.180973 51 27 26
-10.686307 -0.253164 61.284882 50 27 26
-10.704248 -0.121258 61.387772 49 26 26
-10.721994 0.011092 61.489544 48 26 26
-10.739529 0.143877 61.590099 47 26 26
-10.756837 0.277091 61.689362 46 25 26
-10.773911 0.410723 61.787277 44 25 25
-10.790744 0.544765 61.883816 43 25 24
-10.807339 0.679209 61.978985 42 25 24
-10.823696 0.814045 62.072792 43 24 24
-10.839828 0.949266 62.165302 44 23 24
-10.855742 1.084864 62.256577 45 24 24
-10.871460 1.220833 62.346714 46 24 24
-10.886998 1.357168 62.435825 46 24 24
-10.902381 1.493867 62.524040 45 24 25
-10.917632 1.630926 62.611507 45 25 25
-10.932779 1.768345 62.698376 45 25 26
-10.947850 1.906126 62.784805 45 26 27
-10.962873 2.044270 62.870956 45 27 27
-10.977876 2.182781 62.956997 45 27 27
-10.992887 2.321666 63.043087 43 26 24
-11.007934 2.460929 63.129375 43 24 22
-11.023044 2.600580 63.216030 44 25 22
-11.038240 2.740626 63.303185 45 25 23
-11.053551 2.881076 63.390987 47 25 23
-11.068996 3.021943 63.479565 48 25 24
-11.084599 3.163236 63.569038 49 26 24
-11.100376 3.304967 63.659527 50 26 24
-11.116347 3.447148 63.751118 50 26 25
-11.132525 3.589791 63.843899 51 27 25
-11.148922 3.732906 63.937931 51 27 26
-11.165545 3.876506 64.033264 51 27 26
-11.182396 4.020599 64.129898 50 27 26
-11.199475 4.165194 64.227844 50 28 26
-11.216775 4.310295 64.327057 49 28 25
-11.234282 4.455906 64.427467 49 27 25
-11.251984 4.602030 64.528976 48 27 26
-11.269855 4.748663 64.631470 48 27 26
-11.287872 4.895801 64.734795 49 27 27
-11.306005 5.043437 64.838791 50 27 27
-11.324225 5.191560 64.943283 52 28 28
-11.342501 5.340160 65.048088 53 28 28
-11.360799 5.489223 65.153023 53 28 28
-11.379092 5.638736 65.257935 52 28 28
-11.397354 5.788685 65.362663 52 28 28
-11.415560 5.939056 65.467072 52 28 28
-11.433691 6.089839 65.571053 52 27 28
-11.451733 6.241020 65.674522 51 26 27
-11.469676 6.392593 65.777420 50 27 27
-11.487514 6.544550 65.879723 48 27 28
-11.505245 6.696885 65.981407 49 27 28
-11.522871 6.849596 66.082489 49 27 29
-11.540393 7.002679 66.182976 50 28 29
-11.557817 7.156136 66.282906 50 28 29
-9.421047 -11.310992 54.705036 30 19 17
-9.424542 -11.197219 54.725334 31 20 18
-9.428224 -11.083577 54.746708 31 20 18
-9.432081 -10.970048 54.769108 31 20 18
-9.436111 -10.856621 54.792507 31 20 18
-9.440314 -10.743291 54.816917 31 19 17
-9.444700 -10.630059 54.842381 31 19 15
-9.449277 -10.516932 54.868954 30 18 15
-9.454062 -10.403918 54.896740 29 18 15
-9.459077 -10.291036 54.925861 30 18 16
-9.464347 -10.178301 54.956463 31 19 17
-9.469898 -10.065735 54.988697 31 19 18
-9.475763 -9.953358 55.022755 31 19 18
-9.481968 -9.841187 55.058784 31 19 18
-9.488545 -9.729243 55.096973 31 19 19
-9.495519 -9.617536 55.137470 31 19 18
-9.502914 -9.506077 55.180416 30 19 18
-9.510753 -9.394869 55.225929 30 19 18
-9.519047 -9.283909 55.274086 30 19 17
-9.527805 -9.173189 55.324947 29 18 16
-9.537032 -9.062696 55.378521 29 18 16
-9.546722 -8.952405 55.434792 29 18 16
-9.556867 -8.842292 55.493694 29 18 16
-9.567450 -8.732326 55.555149 29 19 16
-9.578449 -8.622469 55.619019 29 19 17
-9.589839 -8.512684 55.685154 30 20 18
-9.601588 -8.402927 55.753380 29 20 17
-9.613663 -8.293158 55.823490 29 20 17
-9.626026 -8.183332 55.895283 29 21 17
-9.638640 -8.073406 55.968529 28 20 17
-9.651465 -7.963339 56.043003 27 20 18
-9.664463 -7.853091 56.118477 27 21 19
-9.677595 -7.742625 56.194729 28 21 20
-9.690824 -7.631906 56.271542 28 21 20
-9.704113 -7.520903 56.348709 28 21 19
-9.717431 -7.409589 56.426044 28 20 19
-9.730744 -7.297939 56.503353 28 20 18
-9.744027 -7.185932 56.580479 27 19 17
-9.757254 -7.073552 56.657284 27 18 16
-9.770401 -6.960785 56.733624 26 19 16
-9.783451 -6.847620 56.809399 25 19 16
-9.796386 -6.734050 56.884510 24 19 16
-9.809194 -6.620070 56.958878 23 19 16
-9.821863 -6.505677 57.032448 23 18 16
-9.834384 -6.390871 57.105152 23 17 17
-9.846753 -6.275655 57.176975 23 16 17
-9.858964 -6.160030 57.247879 23 16 16
-9.871015 -6.044002 57.317856 24 17 17
-9.882905 -5.927575 57.386894 25 17 17
-9.894634 -5.810756 57.455006 26 17 17
-9.906208 -5.693555 57.522213 26 16 17
-9.917630 -5.575978 57.588535 27 17 18
-9.928908 -5.458036 57.654022 28 17 18
-9.940053 -5.339741 57.718739 28 17 18
-9.951078 -5.221103 57.782757 27 16 16
-9.961998 -5.102136 57.846169 26 16 15
-9.972835 -4.982853 57.909092 25 15 13
-9.983612 -4.863271 57.971672 24 15 11
-9.994358 -4.743404 58.034073 22 15 11
-10.005105 -4.623268 58.096474 22 15 11
-10.015888 -4.502879 58.159088 22 16 12
-10.026747 -4.382254 58.222141 22 17 13
-10.037721 -4.261405 58.285866 22 17 13
-10.048855 -4.140348 58.350517 22 17 13
-10.060191 -4.019093 58.416344 21 17 12
-10.071774 -3.897649 58.483601 20 16 12
-10.083643 -3.776023 58.552521 19 16 12
-10.095839 -3.654217 58.623333 18 16 12
-10.108394 -3.532233 58.696236 18 15 12
-10.121338 -3.410065 58.771404 17 14 12
-10.134697 -3.287707 58.848972 17 14 13
-10.148486 -3.165149 58.929047 18 14 14
-10.162719 -3.042379 59.011684 18 14 14
-10.177396 -2.919379 59.096912 18 13 14
-10.192516 -2.796134 59.184711 19 13 14
-10.208069 -2.672624 59.275021 20 14 13
-10.224040 -2.548829 59.367760 21 14 13
-10.240407 -2.424727 59.462799 25 15 14
-10.257147 -2.300299 59.560001 29 17 16
-10.274227 -2.175525 59.659184 35 20 19
-10.291618 -2.050385 59.760166 40 23 23
-10.309284 -1.924860 59.862747 45 26 26
-10.327190 -1.798936 59.966721 48 27 27
-10.345299 -1.672595 60.071869 50 28 28
-10.363573 -1.545826 60.177986 51 29 29
-10.381978 -1.418618 60.284855 52 29 29
-10.400475 -1.290960 60.392262 52 29 29
-10.419030 -1.162845 60.500004 50 28 28
-10.437609 -1.034269 60.607887 50 26 27
-10.456178 -0.905226 60.715714 51 26 27
-10.474705 -0.775716 60.823292 51 26 27
-10.493159 -0.645737 60.930450 51 27 27
-10.511512 -0.515291 61.037018 52 27 27
-10.529736 -0.384381 61.142838 52 27 27
-10.547805 -0.253011 61.247765 51 27 27
-10.565698 -0.121187 61.351658 50 26 27
-10.583393 0.011085 61.454407 49 26 27
-10.600875 0.143798 61.555920 48 26 27
-10.618130 0.276941 61.656113 47 26 26
-10.635147 0.410508 61.754929 46 25 25
-10.651921 0.544488 61.852333 45 25 25
-10.668451 0.678873 61.948315 44 25 24
-10.684738 0.813653 62.042889 44 24 24
-10.700790 0.948820 62.136101 44 24 24
-10.716618 1.084366 62.228001 45 24 24
-10.732235 1.220284 62.318687 45 24 24
-10.747659 1.356569 62.408253 45 25 25
-10.762912 1.493216 62.496819 45 25 25
-10.778016 1.630223 62.584522 45 25 26
-10.792997 1.767588 62.671516 45 25 26
-10.807881 1.905310 62.757946 45 26 26
-10.822697 2.043392 62.843971 45 26 26
-10.837471 2.181837 62.929760 45 26 26
-10.852233 2.320649 63.015480 44 25 24
-10.867009 2.459834 63.101280 44 25 22
-10.881829 2.599399 63.187332 45 25 22
-10.896719 2.739353 63.273792 47 25 23
-10.911704 2.879705 63.360809 48 26 24
-10.926811 3.020465 63.448532 49 26 25
-10.942063 3.161646 63.537098 49 26 25
-10.957483 3.303259 63.626633 49 27 26
-10.973091 3.445317 63.717262 50 27 26
-10.988902 3.587832 63.809074 51 27 26
-11.004933 3.730818 63.902164 51 28 26
-11.021194 3.874286 63.996586 51 28 26
-11.037690 4.018246 64.092369 51 28 26
-11.054423 4.162709 64.189537 51 28 26
-11.071388 4.307681 64.288048 50 28 25
-11.088575 4.453166 64.387848 50 27 25
-11.105970 4.599168 64.488853 50 27 25
-11.123553 4.745686 64.590950 49 26 26
-11.141296 4.892715 64.693977 50 27 27
-11.159174 5.040247 64.797791 51 27 27
-11.177155 5.188276 64.902199 52 27 28
-11.195206 5.336788 65.007011 53 28 28
-11.213295 5.485771 65.112053 53 28 28
-11.231392 5.635211 65.217133 53 28 28
-11.249466 5.785091 65.322083 53 28 28
-11.267493 5.935400 65.426765 53 28 28
-11.285452 6.086123 65.531044 52 27 28
-11.303326 6.237248 65.634827 51 26 27
-11.321102 6.388767 65.738052 50 27 27
-11.338773 6.540669 65.840660 49 27 27
-11.356335 6.692950 65.942642 49 28 28
-11.373788 6.845604 66.043983 49 28 28
-11.391132 6.998630 66.144699 49 28 28
-11.408375 7.152025 66.244820 50 29 28
-11.425521 7.305790 66.344383 50 28 28
-9.302197 -11.309868 54.699600 30 19 17
-9.305777 -11.196260 54.720650 31 20 18
-9.309546 -11.082788 54.742813 31 20 18
-9.313498 -10.969437 54.766056 32 21 19
-9.317631 -10.856194 54.790356 31 20 18
-9.321944 -10.743055 54.815720 31 20 17
-9.326446 -10.630022 54.842190 31 19 16
-9.331144 -10.517097 54.869816 30 19 15
-9.336058 -10.404291 54.898712 29 18 14
-9.341206 -10.291620 54.928982 29 18 15
-9.346612 -10.179099 54.960770 31 20 18
-9.352301 -10.066746 54.994225 32 21 19
-9.358303 -9.954582 55.029518 32 20 19
-9.364645 -9.842622 55.066811 32 19 20
-9.371354 -9.730883 55.106262 32 19 20
-9.378455 -9.619376 55.148022 32 19 19
-9.385972 -9.508111 55.192223 31 19 18
-9.393923 -9.397088 55.238972 31 19 17
-9.402319 -9.286304 55.288349 31 19 17
-9.411170 -9.175751 55.340393 30 18 16
-9.420476 -9.065411 55.395115 30 18 15
-9.430233 -8.955262 55.452488 30 18 15
-9.440430 -8.845280 55.512447 29 19 15
-9.451050 -8.735430 55.574894 29 19 16
-9.462069 -8.625673 55.639690 29 19 17
-9.473462 -8.515975 55.706684 29 19 17
-9.485195 -8.406289 55.775684 29 20 17
-9.497236 -8.296575 55.846489 29 20 17
-9.509545 -8.186785 55.918865 29 21 17
-9.522083 -8.076878 55.992592 28 21 17
-9.534810 -7.966811 56.067432 27 21 18
-9.547687 -7.856543 56.143147 27 21 19
-9.560671 -7.746038 56.219501 28 21 20
-9.573726 -7.635259 56.296265 28 21 20
-9.586813 -7.524175 56.373226 29 21 20
-9.599900 -7.412758 56.450180 29 21 19
-9.612952 -7.300984 56.526932 28 20 18
-9.625942 -7.188832 56.603313 27 19 17
-9.638842 -7.076284 56.679165 27 18 17
-9.651629 -6.963329 56.754364 26 19 17
-9.664287 -6.849957 56.828793 25 20 16
-9.676795 -6.736161 56.902344 24 20 17
-9.689142 -6.621937 56.974953 24 19 17
-9.701320 -6.507286 57.046555 23 18 17
-9.713317 -6.392209 57.117104 23 17 17
-9.725131 -6.276709 57.186573 22 17 17
-9.736760 -6.160791 57.254955 22 16 16
-9.748203 -6.044465 57.322247 23 16 17
-9.759463 -5.927737 57.388458 25 16 18
-9.770546 -5.810617 57.453625 26 16 18
-9.781457 -5.693117 57.517784 27 15 17
-9.792204 -5.575247 57.580982 27 16 17
-9.802801 -5.457021 57.643295 28 16 17
-9.813260 -5.338451 57.704800 27 16 16
-9.823600 -5.219553 57.765594 27 16 15
-9.833840 -5.100341 57.825813 26 15 14
-9.844006 -4.980832 57.885593 25 15 13
-9.854123 -4.861041 57.945087 24 15 12
-9.864225 -4.740986 58.004490 23 15 11
-9.874346 -4.620684 58.063999 22 15 10
-9.884524 -4.500151 58.123852 22 16 11
-9.894801 -4.379404 58.184284 22 17 12
-9.905220 -4.258458 58.245548 21 17 13
-9.915824 -4.137324 58.307903 21 17 13
-9.926660 -4.016016 58.371616 20 16 12
-9.937769 -3.894540 58.436947 19 16 11
-9.949197 -3.772903 58.504143 18 15 11
-9.960979 -3.651107 58.573429 18 15 11
-9.973152 -3.529150 58.645012 18 15 12
-9.985745 -3.407028 58.719063 18 14 12
-9.998783 -3.284732 58.795727 18 14 13
-10.012281 -3.162252 58.875103 18 14 14
-10.026251 -3.039572 58.957245 18 14 14
-10.040694 -2.916675 59.042175 19 13 14
-10.055607 -2.793543 59.129864 19 13 14
-10.070978 -2.670155 59.220253 20 13 13
-10.086790 -2.546488 59.313232 20 13 13
-10.103023 -2.422521 59.408684 23 14 14
-10.119646 -2.298231 59.506435 27 15 15
-10.136629 -2.173597 59.606300 32 18 18
-10.153938 -2.048598 59.708080 39 23 22
-10.171535 -1.923214 59.811558 45 26 26
-10.189383 -1.797429 59.916508 48 28 27
-10.207441 -1.671226 60.022697 50 28 29
-10.225673 -1.544591 60.129902 52 29 29
-10.244038 -1.417513 60.237896 52 29 29
-10.262500 -1.289981 60.346455 52 29 29
-10.281020 -1.161987 60.455364 50 27 28
-10.299565 -1.033527 60.564415 49 25 26
-10.318100 -0.904595 60.673405 50 26 27
-10.336594 -0.775191 60.782150 51 27 27
-10.355013 -0.645313 60.890461 52 27 27
-10.373330 -0.514963 60.998173 52 27 27
-10.391519 -0.384144 61.105125 52 28 28
-10.409552 -0.252860 61.211166 51 27 27
-10.427408 -0.121117 61.316166 50 26 27
-10.445068 0.011079 61.420010 49 26 27
-10.462514 0.143720 61.522598 49 26 27
-10.479732 0.276796 61.623844 48 26 26
-10.496711 0.410300 61.723686 47 25 26
-10.513445 0.544222 61.822086 46 25 25
-10.529931 0.678552 61.919029 45 25 25
-10.546169 0.813281 62.014515 45 25 24
-10.562164 0.948399 62.108570 45 25 24
-10.577927 1.083900 62.201256 45 25 24
-10.593468 1.219774 62.292641 45 25 25
-10.608803 1.356016 62.382816 45 25 25
-10.623951 1.492621 62.471893 46 26 26
-10.638934 1.629584 62.559998 46 26 27
-10.653775 1.766904 62.647270 46 26 26
-10.668501 1.904579 62.733856 45 25 25
-10.683136 2.042610 62.819920 46 25 25
-10.697709 2.181000 62.905613 46 25 25
-10.712250 2.319752 62.991116 46 25 23
-10.726784 2.458871 63.076580 46 25 23
-10.741342 2.598365 63.162182 47 25 23
-10.755951 2.738240 63.248093 48 26 24
-10.770640 2.878508 63.334469 49 26 25
-10.785437 3.019177 63.421474 49 26 26
-10.800365 3.160261 63.509262 49 26 26
-10.815454 3.301772 63.597984 49 27 27
-10.830722 3.443722 63.687767 50 27 27
-10.846192 3.586127 63.778740 50 27 26
-10.861882 3.728999 63.870998 51 28 27
-10.877804 3.872351 63.964619 52 28 27
-10.893966 4.016195 64.059662 52 28 27
-10.910374 4.160543 64.156136 51 28 26
-10.927023 4.305402 64.254044 50 27 25
-10.943907 4.450779 64.353325 51 27 25
-10.961012 4.596676 64.453911 51 26 25
-10.978320 4.743095 64.555687 51 26 25
-10.995805 4.890031 64.658501 51 26 26
-11.013438 5.037479 64.762192 52 27 27
-11.031191 5.185429 64.866577 53 28 28
-11.049027 5.333870 64.971466 54 28 28
-11.066915 5.482788 65.076645 54 29 28
-11.084821 5.632170 65.181938 54 29 28
-11.102715 5.781998 65.287163 54 29 28
-11.120567 5.932260 65.392143 54 28 28
-11.138358 6.082939 65.496758 53 28 28
-11.156067 6.234024 65.600891 51 27 28
-11.173679 6.385502 65.704453 50 27 27
-11.191185 6.537364 65.807396 49 28 27
-11.208579 6.689604 65.909676 49 28 28
-11.225859 6.842216 66.011284 49 29 28
-11.243027 6.995195 66.112236 49 29 28
-11.260086 7.148541 66.212547 49 29 28
-11.277041 7.302252 66.312256 50 28 27
-11.293902 7.456331 66.411400 50 28 27
-9.186951 -11.195204 54.715485 30 19 17
-9.190798 -11.081896 54.738403 31 20 18
-9.194835 -10.968713 54.762444 31 20 18
-9.199057 -10.855646 54.787590 31 20 18
-9.203466 -10.742690 54.813854 31 20 17
-9.208071 -10.629845 54.841274 31 20 17
-9.212878 -10.517114 54.869907 30 19 16
-9.217905 -10.404507 54.899845 29 18 15
-9.223170 -10.292036 54.931202 28 18 16
-9.228695 -10.179717 54.964108 30 19 17
-9.234506 -10.067568 54.998714 31 20 19
-9.240626 -9.955604 55.035168 31 20 20
-9.247086 -9.843843 55.073639 32 19 21
-9.253908 -9.732298 55.114273 32 19 20
-9.261117 -9.620978 55.157207 32 19 19
-9.268734 -9.509893 55.202572 32 19 18
-9.276776 -9.399043 55.250469 32 19 17
-9.285254 -9.288423 55.300957 31 19 16
-9.294172 -9.178020 55.354076 31 18 16
-9.303535 -9.067821 55.409843 31 18 16
-9.313334 -8.957800 55.468201 30 18 15
-9.323559 -8.847933 55.529095 29 19 15
-9.334188 -8.738182 55.592407 29 19 16
-9.345203 -8.628513 55.658005 29 19 16
-9.356574 -8.518886 55.725727 29 19 17
-9.368267 -8.409256 55.795368 29 20 17
-9.380247 -8.299580 55.866718 29 20 17
-9.392475 -8.189813 55.939548 29 21 17
-9.404913 -8.079911 56.013626 28 21 17
-9.417517 -7.969831 56.088688 27 21 18
-9.430246 -7.859532 56.164505 27 22 19
-9.443060 -7.748975 56.240822 28 22 20
-9.455919 -7.638126 56.317410 29 21 20
-9.468785 -7.526952 56.394035 29 21 20
-9.481623 -7.415425 56.470490 29 21 19
-9.494396 -7.303520 56.546566 29 20 18
-9.507078 -7.191217 56.622097 28 19 18
-9.519641 -7.078501 56.696918 28 19 18
-9.532060 -6.965356 56.770885 27 20 18
-9.544317 -6.851777 56.843887 26 20 17
-9.556396 -6.737756 56.915817 25 20 18
-9.568283 -6.623293 56.986618 25 20 18
-9.579968 -6.508389 57.056217 24 19 18
-9.591447 -6.393045 57.124580 24 18 18
-9.602716 -6.277271 57.191696 23 17 18
-9.613777 -6.161073 57.257572 23 17 17
-9.624628 -6.044459 57.322197 23 17 17
-9.635279 -5.927444 57.385632 25 16 18
-9.645734 -5.810038 57.447899 26 16 18
-9.656005 -5.692255 57.509075 28 15 17
-9.666104 -5.574108 57.569221 29 16 17
-9.676047 -5.455615 57.628441 29 16 17
-9.685852 -5.336789 57.686836 28 16 16
-9.695540 -5.217650 57.744537 27 16 16
-9.705135 -5.098212 57.801682 26 15 14
-9.714664 -4.978494 57.858429 25 15 13
-9.724159 -4.858515 57.914986 25 15 12
-9.733654 -4.738292 57.971535 23 15 11
-9.743188 -4.617844 58.028313 22 15 10
-9.752799 -4.497186 58.085560 22 16 11
-9.762533 -4.376337 58.143536 21 16 12
-9.772434 -4.255310 58.202499 21 16 12
-9.782547 -4.134119 58.262730 20 15 12
-9.792918 -4.012774 58.324501 19 15 12
-9.803593 -3.891283 58.388077 18 15 11
-9.814613 -3.769651 58.453712 18 15 11
-9.826018 -3.647878 58.521633 18 15 12
-9.837843 -3.525963 58.592060 18 15 12
-9.850116 -3.403900 58.665157 18 14 12
-9.862862 -3.281678 58.741066 18 14 13
-9.876097 -3.159286 58.819889 18 14 13
-9.889829 -3.036707 58.901676 19 14 14
-9.904061 -2.913922 58.986443 19 13 14
-9.918788 -2.790911 59.074154 19 13 14
-9.933998 -2.667652 59.164738 19 13 13
-9.949671 -2.544120 59.258083 20 13 13
-9.965784 -2.420293 59.354050 22 14 14
-9.982306 -2.296146 59.452450 25 15 15
-9.999205 -2.171657 59.553097 30 17 17
-10.016443 -2.046803 59.655766 37 22 21
-10.033982 -1.921564 59.760223 43 25 25
-10.051780 -1.795921 59.866222 47 27 26
-10.069798 -1.669857 59.973534 50 28 28
-10.087994 -1.543358 60.081905 52 28 29
-10.106328 -1.416412 60.191101 52 28 29
-10.124762 -1.289006 60.300884 52 28 29
-10.143255 -1.161135 60.411030 51 26 27
-10.161774 -1.032791 60.521324 49 25 26
-10.180283 -0.903971 60.631557 50 26 26
-10.198750 -0.774673 60.741539 51 27 27
-10.217143 -0.644896 60.851089 52 27 27
-10.235434 -0.514641 60.960026 52 27 27
-10.253596 -0.383912 61.068199 51 27 27
-10.271605 -0.252712 61.175453 51 27 27
-10.289437 -0.121048 61.281658 50 26 27
-10.307074 0.011073 61.386696 50 26 27
-10.324496 0.143645 61.490463 50 26 26
-10.341692 0.276657 61.592876 49 26 26
-10.358649 0.410102 61.693867 48 26 26
-10.375360 0.543969 61.793388 48 26 25
-10.391818 0.678249 61.891418 47 26 25
-10.408026 0.812932 61.987946 46 26 25
-10.423985 0.948009 62.082993 46 26 25
-10.439701 1.083470 62.176598 45 26 25
-10.455187 1.219308 62.268829 45 26 25
-10.470455 1.355515 62.359760 45 26 26
-10.485521 1.492085 62.449490 46 26 27
-10.500406 1.629015 62.538143 47 26 27
-10.515132 1.766300 62.625847 46 26 26
-10.529722 1.903938 62.712746 46 26 25
-10.544203 2.041930 62.798985 46 26 25
-10.558600 2.180276 62.884735 47 25 24
-10.572944 2.318980 62.970161 47 26 24
-10.587261 2.458047 63.055435 47 26 24
-10.601583 2.597482 63.140732 48 26 24
-10.615938 2.737294 63.226227 49 26 25
-10.630357 2.877491 63.312099 50 26 26
-10.644867 3.018085 63.398521 50 26 26
-10.659499 3.159087 63.485668 49 27 27
-10.674280 3.300511 63.573696 49 27 27
-10.689235 3.442370 63.662766 49 27 27
-10.704387 3.584680 63.753010 49 27 26
-10.719757 3.727455 63.844551 50 27 27
-10.735362 3.870708 63.937489 52 28 28
-10.751212 4.014454 64.031891 52 28 28
-10.767313 4.158704 64.127785 51 27 26
-10.783667 4.303468 64.225182 50 26 24
-10.800265 4.448753 64.324036 51 26 25
-10.817098 4.594564 64.424286 52 26 26
-10.834146 4.740901 64.525826 52 27 26
-10.851386 4.887762 64.628502 53 27 27
-10.868789 5.035142 64.732147 53 27 27
-10.886324 5.183031 64.836586 54 28 28
-10.903956 5.331419 64.941605 54 28 28
-10.921653 5.480290 65.046997 55 29 28
-10.939376 5.629631 65.152557 55 29 28
-10.957097 5.779424 65.258095 55 29 28
-10.974784 5.929655 65.363434 54 28 28
-10.992413 6.080307 65.468430 53 28 28
-11.009960 6.231367 65.572937 52 28 27
-11.027413 6.382822 65.676880 51 28 27
-11.044757 6.534661 65.780182 50 28 27
-11.061986 6.686875 65.882790 49 28 27
-11.079096 6.839459 65.984695 49 29 28
-11.096087 6.992407 66.085892 49 29 28
-11.112964 7.145718 66.186401 49 29 28
-11.129730 7.299390 66.286263 49 28 27
-11.146395 7.453424 66.385513 50 28 27
-11.162966 7.607822 66.484200 51 28 26
-9.068025 -11.193997 54.709591 29 18 17
-9.071940 -11.080844 54.733212 30 19 18
-9.076049 -10.967823 54.757999 31 20 18
-9.080349 -10.854924 54.783943 31 20 18
-9.084842 -10.742141 54.811050 31 20 18
-9.089535 -10.629475 54.839363 31 20 18
-9.094436 -10.516927 54.868931 30 19 17
-9.099561 -10.404508 54.899849 28 18 16
-9.104926 -10.292227 54.932220 27 17 16
-9.110554 -10.180099 54.966175 28 18 17
-9.116467 -10.068142 55.001850 30 19 19
-9.122688 -9.956367 55.039391 31 19 19
-9.129246 -9.844792 55.078953 32 18 20
-9.136162 -9.733428 55.120674 32 18 20
-9.143458 -9.622285 55.164696 32 18 19
-9.151155 -9.511368 55.211128 32 18 18
-9.159266 -9.400676 55.260063 32 18 17
-9.167802 -9.290204 55.311565 32 18 17
-9.176768 -9.179940 55.365662 32 18 16
-9.186163 -9.069866 55.422344 31 18 16
-9.195980 -8.959960 55.481575 30 18 16
-9.206207 -8.850193 55.543278 30 18 15
-9.216825 -8.740529 55.607342 30 18 15
-9.227811 -8.630933 55.673615 29 18 16
-9.239133 -8.521361 55.741924 29 19 16
-9.250759 -8.411774 55.812073 29 19 16
-9.262654 -8.302123 55.883835 29 20 17
-9.274778 -8.192365 55.956982 28 21 16
-9.287089 -8.082455 56.031261 28 21 17
-9.299545 -7.972349 56.106411 28 22 17
-9.312106 -7.862007 56.182190 28 22 19
-9.324729 -7.751390 56.258343 28 22 19
-9.337371 -7.640461 56.334621 29 22 19
-9.349997 -7.529189 56.410789 29 21 19
-9.362566 -7.417545 56.486626 29 20 19
-9.375048 -7.305505 56.561932 29 20 18
-9.387408 -7.193048 56.636509 29 19 18
-9.399624 -7.080160 56.710205 29 19 18
-9.411667 -6.966826 56.782867 28 20 18
-9.423521 -6.853042 56.854385 27 21 18
-9.435168 -6.738801 56.924652 27 21 18
-9.446596 -6.624105 56.993603 26 21 18
-9.457798 -6.508955 57.061180 25 20 19
-9.468767 -6.393357 57.127365 25 19 19
-9.479503 -6.277319 57.192135 24 18 18
-9.490009 -6.160852 57.255524 24 18 18
-9.500288 -6.043968 57.317535 24 17 18
-9.510349 -5.926681 57.378239 25 17 18
-9.520204 -5.809005 57.437691 26 16 18
-9.529862 -5.690958 57.495968 28 15 17
-9.539345 -5.572554 57.553173 29 16 17
-9.548666 -5.453814 57.609413 29 16 17
-9.557851 -5.334754 57.664829 28 16 16
-9.566923 -5.215393 57.719563 27 15 15
-9.575910 -5.095751 57.773781 26 15 14
-9.584843 -4.975848 57.827675 25 14 12
-9.593755 -4.855702 57.881447 24 14 12
-9.602685 -4.735332 57.935322 23 14 11
-9.611671 -4.614758 57.989544 22 15 11
-9.620760 -4.493998 58.044373 22 16 12
-9.629992 -4.373065 58.100071 22 16 12
-9.639416 -4.251978 58.156929 20 15 12
-9.649078 -4.130748 58.215225 20 15 12
-9.659025 -4.009385 58.275238 19 14 12
-9.669304 -3.887896 58.337246 18 14 11
-9.679954 -3.766284 58.401505 18 14 12
-9.691017 -3.644551 58.468250 18 14 12
-9.702527 -3.522692 58.537689 18 14 12
-9.714513 -3.400700 58.610008 18 14 12
-9.726997 -3.278565 58.685329 18 14 13
-9.739997 -3.156271 58.763756 19 14 14
-9.753519 -3.033803 58.845341 19 14 14
-9.767566 -2.911138 58.930088 19 14 14
-9.782129 -2.788256 59.017956 19 14 13
-9.797197 -2.665132 59.108864 19 13 13
-9.812749 -2.541742 59.202690 20 13 13
-9.828758 -2.418059 59.299278 21 13 14
-9.845195 -2.294060 59.398441 25 15 16
-9.862021 -2.169719 59.499962 30 17 18
-9.879200 -2.045013 59.603607 35 21 21
-9.896690 -1.919921 59.709126 41 24 23
-9.914449 -1.794422 59.816269 46 26 25
-9.932433 -1.668500 59.924774 49 27 27
-9.950602 -1.542138 60.034389 52 27 28
-9.968911 -1.415323 60.144855 53 27 28
-9.987322 -1.288046 60.255932 53 28 28
-10.005795 -1.160296 60.367386 52 26 27
-10.024295 -1.032069 60.478996 51 26 27
-10.042785 -0.903360 60.590549 51 26 26
-10.061232 -0.774167 60.701847 52 26 26
-10.079607 -0.644489 60.812710 52 26 26
-10.097880 -0.514328 60.922955 52 26 26
-10.116026 -0.383687 61.032433 52 26 26
-10.134019 -0.252570 61.140987 52 26 26
-10.151836 -0.120983 61.248489 51 26 26
-10.169460 0.011067 61.354813 50 25 26
-10.186872 0.143573 61.459866 50 25 26
-10.204059 0.276526 61.563553 50 25 25
-10.221006 0.409916 61.665802 50 26 25
-10.237705 0.543733 61.766556 49 26 25
-10.254152 0.677969 61.865784 48 27 25
-10.270345 0.812611 61.963478 47 27 26
-10.286283 0.947652 62.059635 47 27 26
-10.301971 1.083081 62.154289 46 27 26
-10.317420 1.218890 62.247494 46 26 27
-10.332639 1.355070 62.339310 46 26 27
-10.347642 1.491616 62.429829 47 26 27
-10.362450 1.628520 62.519165 48 26 27
-10.377080 1.765780 62.607437 48 26 26
-10.391557 1.903392 62.694775 48 26 25
-10.405904 2.041356 62.781338 48 26 26
-10.420148 2.179671 62.867275 49 26 25
-10.434319 2.318340 62.952766 49 26 25
-10.448442 2.457367 63.037979 49 26 24
-10.462551 2.596757 63.123100 50 27 25
-10.476675 2.736518 63.208317 50 27 25
-10.490847 2.876660 63.293816 50 27 26
-10.505095 3.017193 63.379787 50 27 26
-10.519454 3.158129 63.466412 49 27 27
-10.533951 3.299482 63.553875 49 28 28
-10.548615 3.441267 63.642349 49 27 27
-10.563473 3.583498 63.731991 49 27 26
-10.578547 3.726192 63.822929 50 27 26
-10.593855 3.869365 63.915291 52 28 28
-10.609413 4.013029 64.009155 52 27 28
-10.625229 4.157199 64.104576 51 25 26
-10.641304 4.301886 64.201561 50 25 25
-10.657635 4.447097 64.300087 51 26 25
-10.674212 4.592839 64.400108 52 26 26
-10.691016 4.739113 64.501488 53 27 26
-10.708026 4.885918 64.604111 54 27 26
-10.725211 5.033247 64.707794 54 28 27
-10.742541 5.181094 64.812355 55 28 28
-10.759982 5.329446 64.917580 55 28 28
-10.777496 5.478289 65.023247 55 29 27
-10.795049 5.627607 65.129143 55 29 27
-10.812605 5.777385 65.235062 55 29 27
-10.830133 5.927603 65.340820 54 28 27
-10.847607 6.078247 65.446236 53 28 27
-10.865003 6.229300 65.551193 52 28 28
-10.882301 6.380750 65.655556 51 28 27
-10.899489 6.532583 65.759262 50 28 27
-10.916558 6.684789 65.862236 50 29 27
-10.933503 6.837363 65.964470 49 28 27
-10.950323 6.990297 66.065948 49 28 27
-10.967020 7.143589 66.166687 49 28 27
-10.983599 7.297237 66.266708 49 28 27
-11.000069 7.451241 66.366074 50 29 26
-11.016437 7.605605 66.464828 50 28 25
-8.952937 -11.079586 54.726997 29 18 18
-8.957107 -10.966718 54.752480 30 19 18
-8.961471 -10.853976 54.779160 31 19 19
-8.966035 -10.741359 54.807060 30 20 19
-8.970801 -10.628860 54.836197 30 20 19
-8.975782 -10.516488 54.866642 29 20 18
-8.980989 -10.404245 54.898468 28 19 17
-8.986438 -10.292144 54.931778 27 18 17
-8.992151 -10.180198 54.966702 28 18 17
-8.998150 -10.068419 55.003368 29 18 18
-9.004454 -9.956822 55.041904 31 18 19
-9.011090 -9.845421 55.082470 32 18 19
-9.018080 -9.734226 55.125198 32 17 19
-9.025442 -9.623245 55.170200 32 18 19
-9.033197 -9.512483 55.217602 32 18 18
-9.041355 -9.401937 55.267475 32 19 17
-9.049928 -9.291599 55.319874 32 19 17
-9.058918 -9.181460 55.374828 32 19 17
-9.068323 -9.071500 55.432323 31 18 17
-9.078135 -8.961693 55.492302 30 18 16
-9.088342 -8.852011 55.554691 30 18 16
-9.098923 -8.742420 55.619370 30 18 16
-9.109853 -8.632881 55.686180 29 18 16
-9.121103 -8.523354 55.754951 29 18 16
-9.132639 -8.413792 55.825466 28 18 16
-9.144424 -8.304153 55.897507 28 19 16
-9.156418 -8.194391 55.970821 28 20 16
-9.168581 -8.084462 56.045174 28 21 17
-9.180868 -7.974320 56.120281 29 22 18
-9.193237 -7.863925 56.195892 29 22 19
-9.205647 -7.753236 56.271744 29 22 19
-9.218054 -7.642220 56.347588 29 21 19
-9.230421 -7.530843 56.423183 29 20 19
-9.242708 -7.419076 56.498291 29 20 18
-9.254883 -7.306898 56.572716 29 19 18
-9.266914 -7.194286 56.646255 29 19 17
-9.278773 -7.081226 56.718746 29 20 17
-9.290437 -6.967707 56.790047 29 21 18
-9.301885 -6.853722 56.860020 29 21 18
-9.313102 -6.739268 56.928589 28 21 18
-9.324076 -6.624346 56.995674 26 21 18
-9.334801 -6.508960 57.061230 25 20 19
-9.345273 -6.393120 57.125244 25 19 19
-9.355491 -6.276833 57.187702 25 19 18
-9.365461 -6.160113 57.248650 25 18 18
-9.375190 -6.042975 57.308117 25 18 18
-9.384687 -5.925435 57.366173 26 17 18
-9.393967 -5.807509 57.422897 27 16 17
-9.403046 -5.689218 57.478394 28 16 17
-9.411942 -5.570580 57.532780 29 16 16
-9.420681 -5.451615 57.586193 29 16 15
-9.429283 -5.332343 57.638775 28 16 15
-9.437778 -5.212786 57.690708 27 15 14
-9.446199 -5.092964 57.742180 26 15 13
-9.454577 -4.972898 57.793392 25 14 12
-9.462950 -4.852609 57.844574 24 15 11
-9.471357 -4.732116 57.895966 23 14 11
-9.479843 -4.611439 57.947834 22 15 12
-9.488449 -4.490596 58.000443 22 15 12
-9.497225 -4.369604 58.054085 22 15 12
-9.506214 -4.248477 58.109039 21 15 12
-9.515469 -4.127227 58.165604 19 14 11
-9.525033 -4.005865 58.224072 19 14 11
-9.534954 -3.884395 58.284714 18 13 12
-9.545275 -3.762821 58.347801 18 13 12
-9.556032 -3.641142 58.413559 18 14 13
-9.567263 -3.519353 58.482208 18 15 13
-9.578995 -3.397446 58.553921 18 15 13
-9.591249 -3.275409 58.628834 18 15 13
-9.604043 -3.153225 58.707039 19 14 14
-9.617382 -3.030876 58.788574 19 14 14
-9.631267 -2.908340 58.873451 19 14 14
-9.645690 -2.785594 58.961613 19 14 13
-9.660637 -2.662612 59.052979 19 13 13
-9.676085 -2.539368 59.147411 20 13 13
-9.692007 -2.415835 59.244740 21 13 14
-9.708370 -2.291987 59.344765 25 14 15
-9.725138 -2.167797 59.447258 29 17 17
-9.742268 -2.043242 59.551971 34 20 20
-9.759719 -1.918298 59.658646 40 23 22
-9.777447 -1.792944 59.767010 45 25 24
-9.795405 -1.667163 59.876789 49 26 26
-9.813553 -1.540939 59.987717 52 26 27
-9.831844 -1.414257 60.099529 53 27 28
-9.850240 -1.287106 60.211975 54 27 28
-9.868698 -1.159478 60.324806 53 27 27
-9.887184 -1.031366 60.437805 53 27 27
-9.905661 -0.902767 60.550747 53 27 27
-9.924095 -0.773677 60.663437 53 27 26
-9.942458 -0.644096 60.775684 53 27 26
-9.960720 -0.514027 60.887314 53 27 26
-9.978856 -0.383471 60.998177 53 27 26
-9.996841 -0.252434 61.108116 53 27 26
-10.014654 -0.120921 61.216995 52 26 26
-10.032273 0.011062 61.324703 51 25 25
-10.049685 0.143506 61.431129 51 24 25
-10.066871 0.276403 61.536182 51 25 24
-10.083819 0.409743 61.639786 51 26 25
-10.100520 0.543516 61.741875 50 27 25
-10.116966 0.677712 61.842407 50 27 25
-10.133156 0.812322 61.941368 49 27 26
-10.149086 0.947333 62.038750 48 28 27
-10.164762 1.082738 62.134563 48 27 27
-10.180186 1.218525 62.228855 48 27 27
-10.195372 1.354687 62.321678 48 27 28
-10.210328 1.491216 62.413105 49 27 28
-10.225074 1.628106 62.503242 50 27 27
-10.239627 1.765351 62.592197 50 26 26
-10.254007 1.902947 62.680103 50 26 26
-10.268241 2.040893 62.767109 50 26 25
-10.282351 2.179188 62.853363 50 26 25
-10.296368 2.317834 62.939041 51 26 25
-10.310320 2.456834 63.024326 51 26 24
-10.324237 2.596193 63.109398 51 27 25
-10.338152 2.735918 63.194454 50 27 25
-10.352098 2.876019 63.279701 50 27 26
-10.366108 3.016505 63.365341 50 27 27
-10.380214 3.157390 63.451569 49 28 27
-10.394449 3.298688 63.538586 50 29 28
-10.408845 3.440414 63.626583 50 28 28
-10.423429 3.582584 63.715733 49 27 26
-10.438226 3.725214 63.806183 49 26 26
-10.453259 3.868323 63.898079 50 26 26
-10.468545 4.011923 63.991516 50 25 26
-10.484095 4.156031 64.086563 50 24 25
-10.499910 4.300658 64.183243 51 24 25
-10.515991 4.445815 64.281548 52 25 26
-10.532330 4.591506 64.381409 53 27 26
-10.548905 4.737735 64.482742 54 27 26
-10.565700 4.884502 64.585396 55 28 26
-10.582682 5.031801 64.689209 55 28 26
-10.599821 5.179625 64.793976 54 28 27
-10.617082 5.327960 64.899483 55 28 27
-10.634427 5.476795 65.005508 55 28 26
-10.651817 5.626110 65.111816 55 28 26
-10.669220 5.775890 65.218193 55 28 26
-10.686600 5.926116 65.324432 54 28 27
-10.703928 6.076772 65.430351 54 28 27
-10.721179 6.227838 65.535805 53 28 27
-10.738332 6.379301 65.640656 52 28 27
-10.755372 6.531148 65.744820 52 28 27
-10.772287 6.683366 65.848213 51 29 27
-10.789074 6.835949 65.950829 50 29 26
-10.805728 6.988888 66.052628 50 29 26
-10.822250 7.142179 66.153625 49 29 26
-10.838648 7.295822 66.253860 49 29 26
-10.854926 7.449814 66.353363 49 29 25
-10.871095 7.604159 66.452194 50 28 26
-10.887164 7.758860 66.550423 51 29 26
-8.833765 -11.078082 54.719566 28 18 18
-8.837981 -10.965357 54.745686 29 18 18
-8.842399 -10.852765 54.773048 29 19 19
-8.847019 -10.740302 54.801670 30 20 19
-8.851847 -10.627965 54.831573 30 20 19
-8.856891 -10.515755 54.862816 29 20 18
-8.862164 -10.403679 54.895477 28 20 18
-8.867682 -10.291747 54.929657 28 19 18
-8.873462 -10.179969 54.965466 28 19 18
-8.879525 -10.068357 55.003025 29 18 18
-8.885895 -9.956926 55.042477 30 17 18
-8.892591 -9.845686 55.083954 31 17 18
-8.899632 -9.734647 55.127579 31 17 18
-8.907043 -9.623816 55.173473 31 18 18
-8.914833 -9.513195 55.221733 31 19 18
-8.923019 -9.402781 55.272442 31 19 17
-8.931606 -9.292566 55.325630 31 19 17
-8.940598 -9.182538 55.381329 31 19 17
-8.949989 -9.072675 55.439507 30 19 17
-8.959774 -8.962955 55.500114 29 19 17
-8.969937 -8.853346 55.563068 29 19 17
-8.980456 -8.743813 55.628231 29 18 17
-8.991309 -8.634318 55.695454 28 18 16
-9.002463 -8.524820 55.764545 28 18 16
-9.013885 -8.415274 55.835293 28 18 16
-9.025537 -8.305634 55.907471 28 19 16
-9.037379 -8.195856 55.980827 29 19 16
-9.049370 -8.085895 56.055103 30 20 17
-9.061466 -7.975706 56.130035 31 21 18
-9.073624 -7.865246 56.205338 31 22 19
-9.085800 -7.754479 56.280769 31 22 19
-9.097956 -7.643369 56.356060 31 21 19
-9.110048 -7.531881 56.430965 30 20 18
-9.122040 -7.419990 56.505249 30 19 17
-9.133897 -7.307670 56.578697 29 19 17
-9.145589 -7.194903 56.651119 29 19 17
-9.157085 -7.081674 56.722332 29 20 17
-9.168365 -6.967972 56.792206 29 21 18
-9.179408 -6.853792 56.860603 29 21 19
-9.190199 -6.739133 56.927448 28 21 19
-9.200727 -6.623996 56.992661 27 21 19
-9.210985 -6.508388 57.056210 26 20 18
-9.220974 -6.392318 57.118080 25 19 18
-9.230692 -6.275798 57.178280 25 19 18
-9.240149 -6.158844 57.236855 25 18 18
-9.249351 -6.041471 57.293854 26 18 18
-9.258310 -5.923698 57.349358 27 17 17
-9.267048 -5.805545 57.403481 28 17 17
-9.275579 -5.687034 57.456329 28 16 16
-9.283928 -5.568184 57.508041 29 16 16
-9.292119 -5.449020 57.558777 29 16 15
-9.300179 -5.329562 57.608711 28 16 15
-9.308141 -5.209833 57.658028 28 15 14
-9.316039 -5.089857 57.706947 27 15 13
-9.323907 -4.969654 57.755684 25 15 12
-9.331786 -4.849246 57.804489 24 15 11
-9.339717 -4.728654 57.853619 23 15 12
-9.347745 -4.607899 57.903347 23 15 13
-9.355916 -4.486998 57.953964 23 16 14
-9.364279 -4.365967 58.005764 23 16 14
-9.372881 -4.244822 58.059048 22 16 13
-9.381770 -4.123573 58.114109 20 15 12
-9.390994 -4.002230 58.171246 20 13 12
-9.400599 -3.880798 58.230743 19 13 12
-9.410628 -3.759278 58.292870 19 14 13
-9.421119 -3.637669 58.357853 18 14 13
-9.432105 -3.515965 58.425907 18 15 13
-9.443617 -3.394156 58.497211 18 15 13
-9.455673 -3.272228 58.571896 18 15 13
-9.468289 -3.150164 58.650043 18 14 13
-9.481472 -3.027944 58.731705 19 14 13
-9.495220 -2.905545 58.816864 19 13 13
-9.509525 -2.782942 58.905472 19 13 13
-9.524369 -2.660108 58.997425 20 13 14
-9.539732 -2.537015 59.092587 20 13 14
-9.555583 -2.413635 59.190773 22 13 14
-9.571888 -2.289940 59.291767 24 14 15
-9.588608 -2.165904 59.395336 28 16 16
-9.605700 -2.041500 59.501217 33 18 19
-9.623121 -1.916705 59.609127 40 22 22
-9.640825 -1.791498 59.718796 45 24 24
-9.658766 -1.665859 59.829926 49 25 25
-9.676899 -1.539771 59.942245 51 26 25
-9.695179 -1.413220 60.055481 54 27 27
-9.713564 -1.286195 60.169365 55 27 28
-9.732014 -1.158687 60.283649 55 27 28
-9.750490 -1.030689 60.398102 55 28 28
-9.768959 -0.902196 60.512505 55 28 27
-9.787388 -0.773208 60.626656 55 28 27
-9.805744 -0.643722 60.740360 55 28 27
-9.824001 -0.513741 60.853451 55 28 27
-9.842134 -0.383268 60.965771 55 28 27
-9.860118 -0.252306 61.077171 54 27 26
-9.877931 -0.120862 61.187511 52 26 25
-9.895554 0.011057 61.296677 52 25 24
-9.912970 0.143444 61.404556 52 24 24
-9.930163 0.276290 61.511059 52 24 25
-9.947122 0.409585 61.616104 52 25 25
-9.963832 0.543320 61.719616 51 27 25
-9.980288 0.677484 61.821548 51 27 25
