ply
format ascii 1.0
element vertex 1182
property float x
property float y
property float z
property uchar red
property uchar green
property uchar blue
end_header
-6.285753 22.741621 76.958183 89 62 73
-6.306231 22.982149 77.208916 89 62 74
-6.326458 23.222834 77.456551 89 62 75
-6.346329 23.463270 77.699837 89 62 75
-6.365757 23.703102 77.937691 90 62 75
-6.384667 23.942020 78.169212 90 62 74
-6.403010 24.179796 78.393791 90 63 74
-6.420756 24.416269 78.611061 90 63 73
-6.437898 24.651367 78.820938 89 63 73
-6.454448 24.885088 79.023567 89 63 72
-6.470442 25.117521 79.219383 89 63 72
-6.485927 25.348810 79.408966 88 63 71
-6.500966 25.579165 79.593094 87 63 71
-6.515630 25.808828 79.772636 88 64 71
-6.529996 26.038073 79.948517 87 63 72
-6.544147 26.267216 80.121773 87 62 72
-6.558153 26.496517 80.293251 87 62 71
-6.572083 26.726250 80.463799 87 62 70
-6.585997 26.956654 80.634155 87 61 70
-6.599946 27.187939 80.804939 86 62 69
-6.613973 27.420277 80.976669 86 62 69
-6.628105 27.653797 81.149696 86 62 68
-6.642364 27.888597 81.324272 86 62 68
-6.656764 28.124744 81.500572 85 62 68
-6.671313 28.362288 81.678703 85 62 68
-6.686021 28.601274 81.858772 84 61 68
-6.700895 28.841757 82.040886 85 62 69
-6.715953 29.083818 82.225243 85 62 70
-6.731219 29.327579 82.412148 85 63 70
-6.746731 29.573225 82.602058 85 63 70
-6.762541 29.821009 82.795639 85 63 70
-6.778722 30.071268 82.993736 83 63 68
-6.795362 30.324432 83.197472 82 62 67
-6.812570 30.581020 83.408142 81 62 66
-6.830469 30.841642 83.627296 80 61 64
-6.849201 31.106991 83.856636 78 60 63
-6.868916 31.377813 84.098007 78 60 63
-6.889773 31.654932 84.353378 79 60 64
-6.911934 31.939171 84.624695 79 59 64
-6.935554 32.231361 84.913879 78 58 63
-6.960777 32.532288 85.222687 78 57 63
-6.987730 32.842682 85.552681 77 56 63
-7.016516 33.163158 85.905113 76 56 62
-7.047209 33.494221 86.280899 74 56 62
-4.860665 -5.259454 61.123650 107 117 134
-4.859265 -5.126215 61.106041 108 118 136
-4.857733 -4.992916 61.086769 109 118 137
-4.856095 -4.859594 61.066181 110 117 137
-4.854382 -4.726288 61.044628 111 116 137
-4.852623 -4.593031 61.022507 112 116 138
-4.850849 -4.459857 61.000206 113 116 139
-4.849093 -4.326794 60.978123 114 116 139
-4.847386 -4.193869 60.956657 115 116 139
-4.845758 -4.061103 60.936192 115 117 139
-4.844241 -3.928514 60.917103 115 117 139
-4.842859 -3.796114 60.899727 115 117 139
-4.841639 -3.663912 60.884388 115 118 138
-4.840603 -3.531910 60.871368 114 118 137
-4.839771 -3.400107 60.860901 114 118 136
-4.839159 -3.268498 60.853203 113 118 135
-4.838779 -3.137073 60.848427 113 118 135
-4.838641 -3.005818 60.846691 112 118 134
-4.838750 -2.874718 60.848057 112 117 132
-4.839108 -2.743753 60.852554 112 116 131
-4.839712 -2.612902 60.860161 113 115 131
-4.840559 -2.482142 60.870804 114 114 131
-4.841638 -2.351449 60.884373 114 113 132
-4.842937 -2.220798 60.900711 114 114 133
-4.844441 -2.090166 60.919624 113 114 132
-4.846130 -1.959527 60.940868 112 113 131
-4.847982 -1.828858 60.964161 111 112 129
-4.849973 -1.698136 60.989189 111 111 128
-4.852073 -1.567343 61.015598 110 110 126
-4.854253 -1.436459 61.043015 109 110 124
-4.856480 -1.305469 61.071018 107 110 123
-4.858720 -1.174362 61.099182 106 110 122
-4.860937 -1.043128 61.127060 106 109 121
-4.863094 -0.911764 61.154194 105 109 121
-4.865157 -0.780267 61.180134 104 108 120
-4.867089 -0.648640 61.204422 103 108 120
-4.868855 -0.516892 61.226631 102 108 121
-4.870425 -0.385032 61.246372 103 109 121
-4.871769 -0.253075 61.263275 104 109 122
-4.872864 -0.121039 61.277042 104 109 122
-4.873690 0.011055 61.287437 106 110 122
-4.874235 0.143186 61.294281 107 111 124
-4.874491 0.275331 61.297504 109 111 125
-4.874458 0.407465 61.297089 109 111 126
-4.874143 0.539566 61.293133 109 110 127
-4.873561 0.671613 61.285812 109 110 128
-4.872732 0.803588 61.275391 109 109 128
-4.871685 0.935476 61.262222 108 108 126
-4.870452 1.067266 61.246719 107 107 125
-4.869072 1.198954 61.229370 106 106 123
-4.867589 1.330538 61.210716 105 105 120
-4.866048 1.462025 61.191334 104 105 118
-4.864497 1.593425 61.171833 103 105 116
-4.862987 1.724755 61.152847 102 105 116
-4.861569 1.856038 61.135006 103 106 116
-4.860291 1.987303 61.118946 102 105 116
-4.859205 2.118581 61.105278 102 104 115
-4.858356 2.249910 61.094612 105 106 118
-4.857793 2.381333 61.087524 108 107 120
-4.857557 2.512896 61.084560 111 109 122
-4.857690 2.644646 61.086235 113 111 123
-4.858231 2.776636 61.093037 115 112 124
-4.859214 2.908921 61.105396 117 112 125
-4.860672 3.041555 61.123722 118 111 124
-4.862631 3.174597 61.148365 118 110 122
-4.865117 3.308102 61.179626 119 108 119
-4.868150 3.442129 61.217766 119 107 118
-4.871746 3.576734 61.262981 118 108 117
-4.875915 3.711971 61.315418 122 113 121
-4.880665 3.847891 61.375149 133 125 134
-4.885996 3.984543 61.442192 134 129 138
-4.891905 4.121970 61.516495 120 116 127
-4.898383 4.260212 61.597946 111 108 120
-4.905414 4.399302 61.686367 113 109 123
-4.912980 4.539268 61.781506 113 111 125
-4.921057 4.680130 61.883080 114 111 127
-4.929617 4.821902 61.990730 113 110 127
-4.938629 4.964593 62.104057 112 110 126
-4.948058 5.108202 62.222630 113 111 126
-4.957867 5.252726 62.345978 114 112 126
-4.968017 5.398151 62.473606 115 113 127
-4.978466 5.544460 62.605011 118 116 129
-4.989174 5.691632 62.739670 120 119 131
-5.000099 5.839637 62.877052 122 120 133
-5.011199 5.988443 63.016636 123 120 134
-5.022432 6.138013 63.157890 123 119 134
-5.033756 6.288307 63.300289 123 117 133
-5.045130 6.439278 63.443321 123 115 133
-5.056513 6.590878 63.586468 122 114 132
-5.067867 6.743055 63.729237 121 112 132
-5.079150 6.895753 63.871132 120 112 132
-5.090326 7.048913 64.011665 120 111 131
-5.101357 7.202476 64.150383 119 111 130
-5.112208 7.356377 64.286842 117 111 129
-5.122847 7.510554 64.420624 115 111 127
-5.133241 7.664945 64.551331 114 110 125
-5.143365 7.819487 64.678642 114 110 124
-5.153195 7.974123 64.802254 114 110 123
-5.162712 8.128799 64.921928 113 109 123
-5.171902 8.283469 65.037498 113 109 123
-5.180757 8.438089 65.148849 114 110 123
-5.189274 8.592632 65.255959 114 110 124
-5.197458 8.747074 65.358864 115 111 124
-5.205316 8.901403 65.457680 116 112 125
-5.212864 9.055622 65.552612 116 112 125
-5.220124 9.209740 65.643906 115 112 125
-5.227121 9.363780 65.731888 113 112 125
-5.233885 9.517776 65.816940 112 111 124
-5.240449 9.671769 65.899490 111 109 123
-5.246851 9.825815 65.979996 111 108 122
-5.253129 9.979974 66.058945 110 106 122
-5.259324 10.134311 66.136841 110 105 121
-5.265476 10.288900 66.214203 109 104 122
-5.271626 10.443820 66.291542 109 103 123
-5.277813 10.599148 66.369347 108 104 123
-5.284076 10.754965 66.448105 108 104 123
-5.290450 10.911351 66.528259 107 104 123
-5.296969 11.068385 66.610237 106 104 122
-5.303663 11.226145 66.694420 105 104 121
-5.310561 11.384702 66.781151 106 104 119
-5.317685 11.544125 66.870743 106 104 118
-5.325058 11.704481 66.963455 107 104 117
-5.332697 11.865830 67.059525 107 103 116
-5.340617 12.028225 67.159119 107 102 114
-5.348830 12.191719 67.262405 105 100 112
-5.357348 12.356359 67.369507 104 97 111
-5.366177 12.522187 67.480537 102 95 110
-5.375324 12.689246 67.595558 101 93 108
-5.384795 12.857574 67.714661 99 90 105
-5.394595 13.027209 67.837898 98 89 104
-5.404727 13.198187 67.965309 97 87 103
-5.415195 13.370543 68.096939 97 86 102
-5.426000 13.544309 68.232819 97 85 102
-5.437145 13.719518 68.372971 97 84 102
-5.448630 13.896197 68.517395 96 83 101
-5.460452 14.074370 68.666061 95 82 99
-5.472609 14.254054 68.818932 94 81 97
-5.485092 14.435259 68.975914 94 80 94
-5.497894 14.617985 69.136894 94 79 91
-5.510999 14.802221 69.301704 95 79 89
-5.524394 14.987952 69.470139 96 78 88
-5.538055 15.175139 69.641930 96 77 86
-5.551956 15.363732 69.816742 96 75 83
-5.566069 15.553669 69.994202 95 73 81
-5.580360 15.744876 70.173920 94 72 79
-5.594795 15.937265 70.355438 94 70 78
-5.609336 16.130745 70.538300 94 69 78
-5.623945 16.325209 70.722008 95 69 78
-5.638585 16.520554 70.906105 95 70 80
-5.653219 16.716681 71.090141 96 72 82
-5.667817 16.913488 71.273712 98 74 85
-5.682350 17.110891 71.456459 98 75 87
-5.696796 17.308819 71.638123 96 74 87
-5.711140 17.507219 71.818504 95 72 87
-5.725379 17.706070 71.997559 94 71 87
-5.739515 17.905373 72.175331 93 69 86
-5.753565 18.105169 72.351997 92 68 86
-5.767552 18.305529 72.527893 91 66 85
-5.781513 18.506563 72.703453 90 65 84
-5.795494 18.708422 72.879272 89 64 83
-5.809550 18.911278 73.056023 89 64 81
-5.823742 19.115345 73.234489 88 63 80
-5.838137 19.320852 73.415504 89 62 79
-5.852803 19.528044 73.599930 89 62 78
-5.867807 19.737171 73.788620 89 62 78
-5.883214 19.948473 73.982353 88 61 77
-5.899076 20.162170 74.181831 88 61 76
-5.915438 20.378448 74.387589 88 61 75
-5.932330 20.597450 74.599998 88 61 75
-5.949762 20.819262 74.819214 88 61 74
-5.967728 21.043901 75.045143 87 61 74
-5.986201 21.271317 75.277443 88 61 74
-6.005133 21.501373 75.515518 89 61 74
-6.024458 21.733877 75.758537 89 61 74
-6.044093 21.968554 76.005440 89 61 74
-6.063940 22.205070 76.255020 89 62 73
-6.083890 22.443048 76.505905 89 62 73
-6.103834 22.682077 76.756691 89 62 73
-6.123653 22.921728 77.005928 89 62 74
-6.143242 23.161583 77.252258 89 62 75
-6.162499 23.401239 77.494423 90 62 75
-6.181339 23.640343 77.731331 90 62 74
-6.199692 23.878593 77.962128 90 62 73
-6.217508 24.115753 78.186157 90 62 72
-6.234759 24.351677 78.403099 90 63 72
-6.251439 24.586287 78.612846 90 63 72
-6.267560 24.819592 78.815575 90 63 72
-6.283156 25.051674 79.011703 90 64 71
-6.298275 25.282688 79.201828 89 64 72
-6.312978 25.512840 79.386719 88 64 72
-6.327335 25.742380 79.567253 89 65 73
-6.341418 25.971577 79.744347 88 64 74
-6.355309 26.200748 79.919029 88 63 73
-6.369076 26.430155 80.092148 87 63 73
-6.382785 26.660070 80.264549 87 62 72
-6.396495 26.890728 80.436951 87 62 71
-6.410254 27.122341 80.609978 87 61 70
-6.424101 27.355072 80.784111 87 61 69
-6.438064 27.589048 80.959686 88 61 69
-6.452161 27.824364 81.136963 88 61 69
-6.466405 28.061079 81.316086 87 61 69
-6.480804 28.299246 81.497162 86 61 69
-6.495365 28.538900 81.680252 86 61 69
-6.510096 28.780098 81.865501 86 62 69
-6.525011 29.022915 82.053062 86 62 70
-6.540134 29.267471 82.243240 86 63 70
-6.555503 29.513956 82.436508 85 63 70
-6.571170 29.762617 82.633514 85 63 70
-6.587203 30.013802 82.835136 83 63 69
-6.603691 30.267937 83.042473 82 63 68
-6.620739 30.525551 83.256851 81 62 67
-6.638470 30.787254 83.479820 79 61 65
-6.657022 31.053751 83.713120 78 60 65
-6.676541 31.325792 83.958580 79 60 65
-6.697187 31.604208 84.218208 79 60 65
-6.719117 31.889833 84.493973 79 59 64
-6.742481 32.183495 84.787781 78 58 64
-6.767422 32.485996 85.101418 78 56 63
-6.794062 32.798050 85.436424 77 56 62
-6.822503 33.120293 85.794075 76 56 62
-6.852815 33.453209 86.175255 73 55 60
-4.717599 -5.246881 60.977535 109 119 136
-4.716200 -5.113917 60.959454 110 120 138
-4.714675 -4.980898 60.939743 111 120 140
-4.713050 -4.847861 60.918739 111 120 140
-4.711354 -4.714844 60.896816 112 119 140
-4.709616 -4.581880 60.874355 114 118 141
-4.707868 -4.449002 60.851746 115 118 142
-4.706138 -4.316240 60.829395 116 117 142
-4.704458 -4.183619 60.807682 117 117 142
-4.702857 -4.051159 60.786983 117 117 141
-4.701363 -3.918877 60.767666 117 118 141
-4.700000 -3.786784 60.750053 117 118 140
-4.698793 -3.654889 60.734451 117 119 139
-4.697762 -3.523193 60.721127 115 118 137
-4.696925 -3.391694 60.710312 114 118 135
-4.696298 -3.260387 60.702198 114 119 135
-4.695890 -3.129262 60.696930 113 119 134
-4.695711 -2.998306 60.694618 112 119 133
-4.695765 -2.867502 60.695316 112 118 132
-4.696054 -2.736831 60.699051 112 117 130
-4.696576 -2.606274 60.705799 112 116 130
-4.697326 -2.475808 60.715488 113 115 130
-4.698295 -2.345410 60.728016 113 114 131
-4.699471 -2.215055 60.743225 114 114 131
-4.700841 -2.084721 60.760925 113 114 130
-4.702386 -1.954383 60.780891 113 113 129
-4.704085 -1.824019 60.802856 112 112 128
-4.705915 -1.693607 60.826511 111 112 127
-4.707850 -1.563128 60.851521 110 111 126
-4.709860 -1.432564 60.877506 109 110 124
-4.711917 -1.301901 60.904087 107 110 123
-4.713986 -1.171126 60.930828 106 110 122
-4.716034 -1.040231 60.957302 106 109 122
-4.718027 -0.909212 60.983059 105 109 122
-4.719929 -0.778067 61.007652 104 109 122
-4.721708 -0.646799 61.030647 103 110 123
-4.723330 -0.515414 61.051617 104 110 124
-4.724766 -0.383924 61.070171 105 110 124
-4.725987 -0.252343 61.085960 105 110 124
-4.726972 -0.120687 61.098682 105 110 124
-4.727701 0.011023 61.108101 107 111 125
-4.728160 0.142765 61.114048 109 112 126
-4.728346 0.274517 61.116447 110 112 127
-4.728257 0.406256 61.115288 110 111 127
-4.727898 0.537959 61.110657 110 110 127
-4.727285 0.669606 61.102730 110 110 128
-4.726438 0.801180 61.091778 109 109 127
-4.725382 0.932665 61.078129 108 107 125
-4.724150 1.064051 61.062206 106 105 123
-4.722778 1.195333 61.044479 104 104 120
-4.721309 1.326512 61.025482 103 103 118
-4.719786 1.457592 61.005795 101 103 117
-4.718255 1.588584 60.986004 100 103 116
-4.716764 1.719506 60.966740 100 104 115
-4.715362 1.850380 60.948620 102 106 117
-4.714097 1.981233 60.932274 102 105 118
-4.713017 2.112098 60.918308 103 105 118
-4.712167 2.243013 60.907326 107 107 121
-4.711593 2.374019 60.899895 110 109 124
-4.711335 2.505162 60.896564 112 111 125
-4.711433 2.636489 60.897842 114 111 126
-4.711926 2.768054 60.904209 116 112 127
-4.712846 2.899909 60.916103 117 112 126
-4.714225 3.032111 60.933929 118 111 124
-4.716091 3.164715 60.958035 119 110 122
-4.718465 3.297780 60.988735 119 109 119
-4.721370 3.431362 61.026276 119 108 117
-4.724820 3.565518 61.070862 118 108 117
-4.728826 3.700300 61.122639 123 114 123
-4.733393 3.835762 61.181683 141 134 143
-4.738524 3.971950 61.248005 146 141 151
-4.744215 4.108909 61.321560 126 122 134
-4.750455 4.246676 61.402222 112 108 121
-4.757232 4.385285 61.489815 113 110 123
-4.764526 4.524764 61.584091 115 112 126
-4.772314 4.665131 61.684753 115 112 127
-4.780569 4.806401 61.791447 114 112 127
-4.789258 4.948582 61.903770 113 112 127
-4.798350 5.091673 62.021286 113 112 127
-4.807807 5.235669 62.143528 114 113 126
-4.817592 5.380558 62.269997 116 115 128
-4.827664 5.526321 62.400188 119 118 130
-4.837986 5.672936 62.533592 121 121 133
-4.848514 5.820377 62.669678 123 122 135
-4.859210 5.968609 62.807926 124 123 137
-4.870032 6.117597 62.947815 124 122 137
-4.880943 6.267301 63.088840 124 120 136
-4.891901 6.417675 63.230484 123 117 135
-4.902870 6.568675 63.372261 123 116 134
-4.913810 6.720246 63.513672 122 115 134
-4.924686 6.872338 63.654251 121 114 134
-4.935462 7.024892 63.793530 121 114 133
-4.946102 7.177851 63.931061 119 114 132
-4.956574 7.331154 64.066422 118 114 130
-4.966848 7.484741 64.199211 115 112 128
-4.976894 7.638552 64.329063 113 111 125
-4.986687 7.792527 64.455643 113 111 125
-4.996207 7.946612 64.578690 113 111 125
-5.005435 8.100757 64.697968 112 110 125
-5.014359 8.254915 64.813309 113 110 125
-5.022971 8.409049 64.924637 113 110 126
-5.031271 8.563129 65.031906 113 111 126
-5.039260 8.717138 65.135178 114 111 126
-5.046950 8.871063 65.234566 115 112 126
-5.054353 9.024907 65.330269 115 112 126
-5.061491 9.178680 65.422523 114 112 126
-5.068388 9.332408 65.511665 113 112 126
-5.075071 9.486122 65.598053 112 111 125
-5.081574 9.639866 65.682114 111 109 124
-5.087931 9.793690 65.764275 111 108 123
-5.094178 9.947655 65.845024 111 107 123
-5.100353 10.101825 65.924835 111 106 124
-5.106494 10.256270 66.004211 110 105 124
-5.112639 10.411068 66.083649 110 105 125
-5.118826 10.566292 66.163612 109 105 125
-5.125089 10.722021 66.244568 108 105 124
-5.131463 10.878333 66.326942 107 105 124
-5.137977 11.035304 66.411148 106 105 122
-5.144662 11.193007 66.497551 105 105 121
-5.151542 11.351514 66.586479 106 105 119
-5.158640 11.510890 66.678223 107 105 118
-5.165976 11.671200 66.773048 107 104 117
-5.173566 11.832500 66.871155 107 104 116
-5.181425 11.994844 66.972740 107 102 115
-5.189564 12.158284 67.077942 106 100 113
-5.197994 12.322865 67.186897 105 97 112
-5.206721 12.488631 67.299706 103 95 110
-5.215753 12.655622 67.416451 101 92 108
-5.225095 12.823877 67.537201 100 90 105
-5.234752 12.993434 67.662018 99 88 104
-5.244728 13.164330 67.790962 98 87 103
-5.255026 13.336599 67.924065 97 86 102
-5.265649 13.510277 68.061371 97 85 102
-5.276598 13.685392 68.202904 96 84 101
-5.287875 13.861977 68.348663 96 84 101
-5.299478 14.040053 68.498634 95 83 99
-5.311403 14.219639 68.652771 95 82 97
-5.323644 14.400744 68.810997 95 81 95
-5.336192 14.583368 68.973175 96 81 92
-5.349032 14.767502 69.139153 97 80 90
-5.362151 14.953127 69.308723 98 79 89
-5.375526 15.140203 69.481598 98 78 87
-5.389132 15.328681 69.657455 98 76 85
-5.402938 15.518495 69.835915 96 74 82
-5.416914 15.709567 70.016548 95 72 80
-5.431022 15.901808 70.198914 94 70 79
-5.445227 16.095119 70.382515 94 69 79
-5.459489 16.289396 70.566864 95 68 79
-5.473771 16.484526 70.751465 95 70 81
-5.488037 16.680403 70.935867 96 72 83
-5.502254 16.876923 71.119629 97 74 86
-5.516393 17.073996 71.302383 97 75 88
-5.530432 17.271544 71.483841 96 74 89
-5.544356 17.469511 71.663818 95 72 89
-5.558159 17.667870 71.842232 94 71 89
-5.571845 17.866621 72.019119 92 70 87
-5.585425 18.065796 72.194664 92 68 87
-5.598928 18.265474 72.369194 91 66 86
-5.612387 18.465759 72.543152 90 65 85
-5.625847 18.666801 72.717140 89 64 83
-5.639364 18.868780 72.891853 89 64 82
-5.652999 19.071913 73.068092 88 63 80
-5.666819 19.276430 73.246712 89 62 79
-5.680890 19.482584 73.428596 89 62 78
-5.695283 19.690632 73.614632 89 62 78
-5.710060 19.900822 73.805626 89 61 77
-5.725277 20.113379 74.002319 89 61 76
-5.740978 20.328501 74.205269 89 61 74
-5.757195 20.546337 74.414879 89 61 73
-5.773941 20.766981 74.631325 88 61 72
-5.791211 20.990456 74.854546 88 61 71
-5.808980 21.216717 75.084221 89 61 72
-5.827204 21.445642 75.319778 90 61 73
-5.845820 21.677036 75.560402 90 61 73
-5.864748 21.910633 75.805054 90 62 74
-5.883893 22.146103 76.052513 90 62 74
-5.903152 22.383074 76.301460 90 62 74
-5.922418 22.621140 76.550468 90 62 73
-5.941577 22.859871 76.798111 90 62 73
-5.960526 23.098854 77.043037 90 62 74
-5.979167 23.337692 77.283989 90 62 74
-5.997418 23.576036 77.519890 91 62 74
-6.015210 23.813581 77.749863 91 63 74
-6.032497 24.050102 77.973312 91 63 73
-6.049253 24.285452 78.189880 91 64 72
-6.065468 24.519556 78.399475 91 64 72
-6.081160 24.752428 78.602295 91 64 73
-6.096357 24.984152 78.798737 91 65 73
-6.111110 25.214882 78.989418 90 65 73
-6.125476 25.444834 79.175110 89 65 74
-6.139523 25.674250 79.356674 89 65 74
-6.153322 25.903408 79.535042 89 65 75
-6.166953 26.132620 79.711227 88 64 74
-6.180481 26.362152 79.886078 88 63 73
-6.193969 26.592268 80.060425 88 63 73
-6.207474 26.823206 80.234978 88 62 72
-6.221041 27.055170 80.410347 88 62 71
-6.234707 27.288321 80.586983 88 61 70
-6.248498 27.522787 80.765244 88 60 70
-6.262432 27.758650 80.945335 88 60 70
-6.276518 27.995970 81.127411 88 60 70
-6.290763 28.234791 81.311539 88 60 70
-6.305173 28.475149 81.497795 88 61 70
-6.319756 28.717093 81.686279 87 62 70
-6.334523 28.960693 81.877151 86 62 70
-6.349498 29.206078 82.070717 86 62 70
-6.364718 29.453426 82.267441 85 63 70
-6.380232 29.702990 82.467964 84 63 70
-6.396108 29.955114 82.673172 83 63 70
-6.412432 30.210238 82.884171 82 63 69
-6.429307 30.468884 83.102303 81 62 68
-6.446856 30.731676 83.329124 80 62 67
-6.465213 30.999321 83.566391 79 61 66
-6.484521 31.272581 83.815964 78 60 65
-6.504937 31.552288 84.079849 78 60 65
-6.526614 31.839285 84.360039 78 59 65
-6.549701 32.134403 84.658447 78 57 64
-6.574336 32.438450 84.976860 78 56 63
-6.600639 32.752148 85.316849 76 56 62
-6.628708 33.076122 85.679665 75 55 61
-6.658613 33.410870 86.066193 72 55 59
-4.575423 -5.234606 60.834881 111 120 137
-4.574030 -5.101913 60.816357 112 121 139
-4.572516 -4.969168 60.796230 113 122 141
-4.570908 -4.836410 60.774845 113 122 142
-4.569232 -4.703676 60.752571 113 121 142
-4.567519 -4.570999 60.729794 115 120 143
-4.565798 -4.438413 60.706905 116 119 143
-4.564097 -4.305945 60.684296 117 119 143
-4.562447 -4.173620 60.662354 118 119 142
-4.560874 -4.041459 60.641438 118 119 142
-4.559404 -3.909476 60.621899 119 119 142
-4.558063 -3.777684 60.604057 120 120 142
-4.556870 -3.646087 60.588200 120 120 140
-4.555845 -3.514689 60.574577 117 119 137
-4.555006 -3.383487 60.563412 115 118 135
-4.554364 -3.252475 60.554882 114 119 135
-4.553930 -3.121641 60.549114 114 120 135
-4.553712 -2.990975 60.546215 113 120 134
-4.553714 -2.860459 60.546238 113 120 132
-4.553936 -2.730075 60.549198 113 119 131
-4.554378 -2.599803 60.555065 113 117 131
-4.555033 -2.469622 60.563778 113 117 131
-4.555894 -2.339509 60.575230 113 116 131
-4.556951 -2.209442 60.589279 113 115 131
-4.558189 -2.079396 60.605740 113 115 130
-4.559592 -1.949351 60.624397 112 113 128
-4.561141 -1.819283 60.644989 111 112 127
-4.562814 -1.689172 60.667229 111 112 127
-4.564586 -1.558999 60.690784 110 111 125
-4.566430 -1.428747 60.715309 108 110 124
-4.568318 -1.298402 60.740410 107 110 124
-4.570219 -1.167952 60.765686 106 109 123
-4.572101 -1.037388 60.790703 105 109 123
-4.573931 -0.906707 60.815041 105 109 123
-4.575676 -0.775906 60.838249 104 110 123
-4.577305 -0.644989 60.859909 104 111 125
-4.578786 -0.513962 60.879601 105 111 126
-4.580091 -0.382835 60.896938 106 111 126
-4.581192 -0.251622 60.911583 106 110 126
-4.582068 -0.120340 60.923237 107 111 126
-4.582702 0.010991 60.931664 109 111 126
-4.583081 0.142351 60.936707 110 112 127
-4.583200 0.273717 60.938282 110 111 127
-4.583057 0.405067 60.936386 110 110 127
-4.582660 0.536379 60.931103 111 110 128
-4.582021 0.667633 60.922607 111 110 129
-4.581160 0.798811 60.911156 110 109 128
-4.580101 0.929900 60.897079 108 106 125
-4.578876 1.060890 60.880791 106 104 122
-4.577519 1.191775 60.862759 103 102 120
-4.576071 1.322556 60.843502 101 101 118
-4.574574 1.453238 60.823586 100 102 117
-4.573071 1.583833 60.803600 99 102 116
-4.571608 1.714356 60.784157 99 103 115
-4.570233 1.844831 60.765869 101 105 117
-4.568991 1.975285 60.749355 103 105 120
-4.567927 2.105750 60.735218 106 107 122
-4.567087 2.236263 60.724041 108 109 125
-4.566512 2.366866 60.716400 111 110 128
-4.566244 2.497603 60.712830 113 112 129
-4.566319 2.628523 60.713837 115 111 129
-4.566775 2.759677 60.719898 116 112 128
-4.567644 2.891119 60.731453 117 112 126
-4.568956 3.022904 60.748901 117 111 124
-4.570738 3.155088 60.772591 118 110 123
-4.573012 3.287728 60.802830 119 110 121
-4.575799 3.420882 60.839878 119 110 120
-4.579112 3.554604 60.883930 118 110 120
-4.582963 3.688948 60.935127 123 116 125
-4.587356 3.823967 60.993546 138 132 142
-4.592294 3.959706 61.059200 144 139 149
-4.597773 4.096210 61.132038 128 124 135
-4.603782 4.233515 61.211937 115 112 124
-4.610308 4.371656 61.298717 115 112 124
-4.617334 4.510659 61.392128 116 113 126
-4.624835 4.650543 61.491863 115 114 128
-4.632785 4.791321 61.597572 115 114 128
-4.641155 4.933001 61.708851 115 114 129
-4.649910 5.075581 61.825260 115 115 129
-4.659016 5.219056 61.946335 115 115 129
-4.668436 5.363413 62.071583 117 117 130
-4.678132 5.508636 62.200500 120 120 132
-4.688066 5.654701 62.332577 121 122 134
-4.698198 5.801581 62.467300 123 124 137
-4.708490 5.949244 62.604145 126 126 139
-4.718904 6.097654 62.742611 127 125 141
-4.729403 6.246773 62.882202 125 122 139
-4.739949 6.396558 63.022419 123 120 137
-4.750505 6.546961 63.162777 123 119 136
-4.761037 6.697935 63.302807 122 118 136
-4.771510 6.849429 63.442055 121 117 135
-4.781890 7.001386 63.580070 120 116 134
-4.792145 7.153752 63.716419 119 116 133
-4.802245 7.306469 63.850704 118 116 131
-4.812160 7.459479 63.982533 115 114 128
-4.821864 7.612725 64.111557 112 113 126
-4.831333 7.766150 64.237465 112 112 125
-4.840549 7.919702 64.360001 112 111 125
-4.849494 8.073333 64.478935 111 110 126
-4.858159 8.226999 64.594131 111 110 126
-4.866534 8.380667 64.705498 112 110 127
-4.874619 8.534306 64.813004 112 111 127
-4.882420 8.687900 64.916710 112 111 127
-4.889943 8.841441 65.016739 113 111 127
-4.897202 8.994929 65.113266 113 112 126
-4.904218 9.148379 65.206543 113 112 126
-4.911013 9.301812 65.296890 113 112 126
-4.917614 9.455262 65.384651 112 110 125
-4.924050 9.608769 65.470230 111 109 124
-4.930356 9.762385 65.554070 112 108 124
-4.936563 9.916168 65.636612 111 107 124
-4.942709 10.070180 65.718323 111 106 124
-4.948829 10.224490 65.799690 111 106 125
-4.954958 10.379170 65.881180 110 106 125
-4.961131 10.534294 65.963249 109 105 125
-4.967380 10.689938 66.046341 108 105 124
-4.973737 10.846174 66.130867 107 105 124
-4.980231 11.003078 66.217216 106 105 122
-4.986889 11.160721 66.305740 106 105 121
-4.993734 11.319169 66.396751 107 105 119
-5.000788 11.478490 66.490540 107 105 118
-5.008069 11.638741 66.587349 107 105 117
-5.015594 11.799984 66.687393 108 105 117
-5.023374 11.962266 66.790833 108 102 116
-5.031421 12.125640 66.897842 107 100 114
-5.039746 12.290150 67.008522 106 97 113
-5.048355 12.455838 67.122986 104 94 110
-5.057255 12.622746 67.241318 103 92 108
-5.066451 12.790914 67.363594 102 90 106
-5.075949 12.960378 67.489876 100 88 104
-5.085752 13.131176 67.620232 99 86 103
-5.095865 13.303341 67.754684 98 85 102
-5.106290 13.476912 67.893288 98 85 102
-5.117029 13.651917 68.036072 98 84 102
-5.128082 13.828387 68.183044 97 84 101
-5.139450 14.006347 68.334190 96 83 100
-5.151128 14.185813 68.489456 97 83 99
-5.163111 14.366796 68.648781 97 83 97
-5.175388 14.549294 68.812019 98 82 94
-5.187948 14.733298 68.979019 99 81 92
-5.200775 14.918790 69.149567 99 80 90
-5.213847 15.105725 69.323372 99 78 88
-5.227139 15.294054 69.500099 99 77 86
-5.240622 15.483708 69.679367 98 74 83
-5.254263 15.674609 69.860748 96 72 81
-5.268027 15.866662 70.043755 95 70 80
-5.281878 16.059765 70.227905 95 68 80
-5.295775 16.253805 70.412689 95 68 81
-5.309681 16.448671 70.597588 95 70 83
-5.323560 16.644249 70.782120 96 72 86
-5.337379 16.840431 70.965851 97 75 89
-5.351107 17.037121 71.148392 98 76 91
-5.364723 17.234232 71.329422 97 75 91
-5.378211 17.431711 71.508759 94 73 90
-5.391563 17.629520 71.686287 93 72 89
-5.404783 17.827658 71.862068 92 71 88
-5.417885 18.026161 72.036270 92 69 87
-5.430892 18.225096 72.209213 91 67 86
-5.443840 18.424576 72.381363 90 66 84
-5.456773 18.624748 72.553322 89 65 83
-5.469745 18.825796 72.725800 88 64 81
-5.482819 19.027939 72.899628 89 63 80
-5.496059 19.231417 73.075676 89 63 79
-5.509535 19.436485 73.254852 90 63 78
-5.523316 19.643406 73.438072 90 62 78
-5.537464 19.852438 73.626190 90 62 76
-5.552037 20.063812 73.819946 89 61 75
-5.567080 20.277737 74.019958 89 61 73
-5.582624 20.494362 74.226631 89 61 72
-5.598686 20.713795 74.440193 89 61 70
-5.615262 20.936066 74.660583 89 60 70
-5.632329 21.161135 74.887527 90 61 71
-5.649848 21.388887 75.120453 91 61 72
-5.667757 21.619133 75.358559 91 61 73
-5.685979 21.851610 75.600845 91 62 74
-5.704425 22.085997 75.846100 90 62 74
-5.722994 22.321924 76.093002 90 62 74
-5.741582 22.558987 76.340141 90 62 74
-5.760081 22.796764 76.586105 90 62 74
-5.778390 23.034845 76.829544 90 62 75
-5.796415 23.272835 77.069206 90 63 75
-5.814076 23.510387 77.304031 91 63 75
-5.831309 23.747208 77.533157 91 64 75
-5.848067 23.983067 77.755974 92 64 75
-5.864325 24.217821 77.972137 92 64 74
-5.880077 24.451406 78.181580 92 64 74
-5.895337 24.683834 78.384476 92 65 74
-5.910137 24.915194 78.581253 92 65 74
-5.924522 25.145643 78.772514 91 65 74
-5.938550 25.375393 78.959030 91 65 75
-5.952287 25.604696 79.141685 90 65 75
-5.965803 25.833826 79.321388 90 65 75
-5.979172 26.063093 79.499153 90 64 74
-5.992460 26.292767 79.675819 89 63 74
-6.005724 26.523102 79.852188 89 63 73
-6.019022 26.754341 80.028984 88 62 72
-6.032395 26.986683 80.206795 88 62 71
-6.045878 27.220287 80.386063 88 61 71
-6.059494 27.455267 80.567108 88 60 71
-6.073259 27.691708 80.750130 88 60 71
-6.087183 27.929665 80.935265 88 60 72
-6.101270 28.169168 81.122559 89 61 72
-6.115523 28.410259 81.312073 88 61 71
-6.129951 28.652977 81.503899 87 62 71
-6.144563 28.897390 81.698181 86 62 71
-6.159382 29.143625 81.895218 86 62 71
-6.174443 29.391855 82.095467 85 62 71
-6.189794 29.642340 82.299576 85 62 70
-6.205501 29.895420 82.508415 84 62 70
-6.221649 30.151537 82.723122 82 62 69
-6.238340 30.411226 82.945045 81 62 69
-6.255691 30.675108 83.175735 81 62 68
-6.273834 30.943895 83.416977 80 61 67
-6.292913 31.218365 83.670654 79 60 66
-6.313079 31.499348 83.938782 79 59 66
-6.334483 31.787697 84.223358 79 58 65
-6.357269 32.084255 84.526321 78 57 64
-6.381574 32.389824 84.849480 78 57 63
-6.407514 32.705135 85.194382 77 56 62
-6.435185 33.030819 85.562302 75 55 60
-6.464653 33.367363 85.954109 73 55 59
-4.434131 -5.222648 60.695908 113 120 137
-4.432749 -5.090221 60.676987 114 122 140
-4.431251 -4.957746 60.656479 114 123 141
-4.429662 -4.825261 60.634739 115 123 142
-4.428011 -4.692802 60.612137 115 122 142
-4.426326 -4.560407 60.589069 115 122 143
-4.424634 -4.428105 60.565914 116 120 143
-4.422966 -4.295924 60.543072 117 120 143
-4.421346 -4.163888 60.520905 117 119 142
-4.419803 -4.032018 60.499783 118 120 142
-4.418360 -3.900327 60.480034 118 120 142
-4.417040 -3.768827 60.461967 119 121 141
-4.415864 -3.637522 60.445862 119 121 140
-4.414847 -3.506413 60.431946 117 120 137
-4.414006 -3.375499 60.420429 116 120 136
-4.413352 -3.244772 60.411480 115 120 136
-4.412894 -3.114223 60.405216 115 121 135
-4.412640 -2.983837 60.401726 115 121 134
-4.412591 -2.853600 60.401062 115 120 133
-4.412749 -2.723493 60.403229 115 119 133
-4.413113 -2.593498 60.408203 115 119 132
-4.413677 -2.463593 60.415924 115 118 131
-4.414433 -2.333757 60.426281 115 116 131
-4.415373 -2.203967 60.439148 114 115 130
-4.416483 -2.074202 60.454338 113 114 129
-4.417748 -1.944439 60.471653 112 113 128
-4.419150 -1.814659 60.490845 111 111 127
-4.420669 -1.684840 60.511635 111 111 127
-4.422281 -1.554964 60.533707 110 111 126
-4.423963 -1.425015 60.556721 109 111 126
-4.425686 -1.294980 60.580307 108 110 125
-4.427422 -1.164846 60.604073 107 110 125
-4.429141 -1.034605 60.627598 107 109 126
-4.430811 -0.904253 60.650467 106 110 126
-4.432403 -0.773789 60.672253 105 111 125
-4.433885 -0.643215 60.692539 105 111 127
-4.435227 -0.512538 60.710915 106 111 127
-4.436403 -0.381767 60.727009 106 111 127
-4.437387 -0.250915 60.740486 107 111 127
-4.438159 -0.120000 60.751049 108 111 127
-4.438702 0.010960 60.758472 109 111 127
-4.439003 0.141944 60.762608 110 111 127
-4.439059 0.272931 60.763363 110 111 127
-4.438867 0.403899 60.760735 110 110 127
-4.438435 0.534827 60.754818 111 109 128
-4.437774 0.665695 60.745773 111 108 128
-4.436903 0.796486 60.733860 109 106 126
-4.435847 0.927187 60.719402 107 104 124
-4.434635 1.057788 60.702805 105 103 121
-4.433300 1.188285 60.684532 102 101 119
-4.431880 1.318678 60.665089 100 101 117
-4.430414 1.448972 60.645035 99 101 117
-4.428947 1.579179 60.624947 99 102 117
-4.427521 1.709316 60.605431 101 103 118
-4.426181 1.839404 60.587082 102 105 120
-4.424970 1.969470 60.570515 104 106 123
-4.423934 2.099548 60.556320 107 108 126
-4.423112 2.229673 60.545082 109 109 127
-4.422548 2.359887 60.537357 110 110 129
-4.422279 2.490233 60.533680 112 110 129
-4.422343 2.620761 60.534546 112 110 129
-4.422773 2.751521 60.540436 114 111 127
-4.423602 2.882565 60.551777 115 111 126
-4.424858 3.013950 60.568974 116 111 125
-4.426567 3.145731 60.592361 118 112 125
-4.428751 3.277964 60.622257 120 113 124
-4.431428 3.410706 60.658909 120 113 124
-4.434614 3.544012 60.702515 121 115 126
-4.438317 3.677935 60.753208 123 118 129
-4.442544 3.812526 60.811069 129 124 135
-4.447296 3.947832 60.876110 130 126 137
-4.452568 4.083896 60.948273 123 120 130
-4.458350 4.220755 61.027431 117 114 125
-4.464631 4.358441 61.113407 116 114 125
-4.471392 4.496980 61.205944 116 115 126
-4.478609 4.636391 61.304737 116 115 127
-4.486258 4.776687 61.409435 117 116 129
-4.494308 4.917874 61.519630 118 118 131
-4.502728 5.059952 61.634888 118 117 131
-4.511484 5.202914 61.754742 118 117 131
-4.520540 5.346747 61.878704 119 119 132
-4.529860 5.491436 62.006279 120 121 134
-4.539407 5.636955 62.136963 121 123 136
-4.549144 5.783280 62.270245 123 124 137
-4.559034 5.930379 62.405624 126 126 140
-4.569041 6.078217 62.542606 127 126 141
-4.579130 6.226757 62.680706 125 123 139
-4.589265 6.375956 62.819439 124 121 137
-4.599413 6.525772 62.958344 123 120 136
-4.609540 6.676155 63.096962 122 119 136
-4.619613 6.827058 63.234852 121 118 135
-4.629602 6.978429 63.371590 120 117 135
-4.639477 7.130213 63.506760 119 117 134
-4.649209 7.282355 63.639973 117 118 132
-4.658771 7.434801 63.770859 115 116 130
-4.668139 7.587495 63.899082 113 115 128
-4.677290 7.740385 64.024353 111 113 127
-4.686207 7.893420 64.146416 111 112 126
-4.694875 8.046554 64.265060 110 110 126
-4.703283 8.199746 64.380150 110 110 127
-4.711425 8.352962 64.491600 110 110 128
-4.719300 8.506179 64.599396 111 110 128
-4.726911 8.659377 64.703583 111 111 128
-4.734268 8.812551 64.804291 112 111 127
-4.741383 8.965700 64.901680 112 111 126
-4.748274 9.118841 64.996010 112 111 126
-4.754963 9.271995 65.087578 111 110 125
-4.761476 9.425193 65.176720 111 109 124
-4.767839 9.578475 65.263817 110 107 123
-4.774084 9.731893 65.349304 111 106 122
-4.780243 9.885501 65.433617 111 106 122
-4.786349 10.039360 65.517189 111 105 124
-4.792434 10.193537 65.600487 111 106 125
-4.798532 10.348100 65.683968 110 106 125
-4.804677 10.503123 65.768059 109 105 125
-4.810896 10.658676 65.853195 107 105 124
-4.817220 10.814833 65.939766 106 106 123
-4.823678 10.971663 66.028152 106 106 121
-4.830291 11.129235 66.118683 106 106 120
-4.837084 11.287617 66.211670 107 106 118
-4.844076 11.446869 66.307373 107 106 117
-4.851285 11.607052 66.406044 108 106 117
-4.858724 11.768221 66.507889 108 105 117
-4.866408 11.930428 66.613068 108 102 116
-4.874347 12.093719 66.721733 107 99 115
-4.882549 12.258142 66.834007 106 97 114
-4.891023 12.423738 66.949997 106 95 111
-4.899774 12.590548 67.069794 104 93 109
-4.908809 12.758610 67.193466 103 91 107
-4.918132 12.927963 67.321083 101 89 106
-4.927748 13.098644 67.452705 100 87 105
-4.937660 13.270690 67.588387 99 86 104
-4.947872 13.444135 67.728165 98 85 103
-4.958385 13.619011 67.872078 97 85 102
-4.969202 13.795348 68.020142 96 85 101
-4.980319 13.973169 68.172325 97 85 101
-4.991735 14.152493 68.328590 97 85 100
-5.003445 14.333330 68.488869 98 85 98
-5.015438 14.515678 68.653030 98 84 96
-5.027701 14.699527 68.820900 99 82 93
-5.040221 14.884854 68.992271 100 80 91
-5.052975 15.071620 69.166855 100 79 89
-5.065938 15.259768 69.344299 100 77 87
-5.079082 15.449230 69.524208 99 75 85
-5.092372 15.639921 69.706146 98 72 84
-5.105777 15.831747 69.889626 97 70 83
-5.119256 16.024599 70.074135 97 69 83
-5.132772 16.218363 70.259148 96 69 85
-5.146286 16.412920 70.444138 97 71 87
-5.159763 16.608152 70.628616 98 73 90
-5.173168 16.803946 70.812103 98 74 92
-5.186472 17.000200 70.994209 98 75 93
-5.199651 17.196829 71.174614 97 75 92
-5.212690 17.393766 71.353096 95 74 91
-5.225581 17.590975 71.529556 94 73 90
-5.238328 17.788452 71.704025 93 73 89
-5.250942 17.986229 71.876694 92 71 87
-5.263447 18.184376 72.047874 92 70 86
-5.275878 18.383001 72.218040 90 68 84
-5.288280 18.582258 72.387802 89 67 83
-5.300707 18.782335 72.557899 88 66 82
-5.313219 18.983448 72.729172 89 65 80
-5.325883 19.185846 72.902512 89 64 79
-5.338766 19.389791 73.078865 90 63 78
-5.351939 19.595554 73.259178 90 63 77
-5.365463 19.803392 73.444298 90 62 76
-5.379397 20.013554 73.635033 89 62 74
-5.393786 20.226248 73.832008 89 62 73
-5.408665 20.441635 74.035667 90 61 71
-5.424049 20.659828 74.246254 90 61 70
-5.439938 20.880865 74.463737 90 61 70
-5.456310 21.104713 74.687851 91 61 71
-5.473129 21.331263 74.918068 92 61 72
-5.490335 21.560329 75.153595 92 61 73
-5.507856 21.791658 75.393433 91 62 74
-5.525606 22.024931 75.636391 91 62 75
-5.543488 22.259783 75.881172 90 62 75
-5.561401 22.495817 76.126373 89 63 76
-5.579243 22.732613 76.370590 89 63 76
-5.596913 22.969765 76.612473 90 63 76
-5.614325 23.206882 76.850807 90 63 77
-5.631398 23.443624 77.084511 91 64 77
-5.648071 23.679697 77.312744 91 65 77
-5.664301 23.914879 77.534897 92 65 77
-5.680063 24.149029 77.750648 92 65 76
-5.695351 24.382086 77.959923 93 65 75
-5.710181 24.614063 78.162918 93 65 75
-5.724581 24.845057 78.360039 93 65 75
-5.738599 25.075226 78.551918 93 65 75
-5.752289 25.304781 78.739311 92 65 75
-5.765716 25.533979 78.923103 92 65 75
-5.778946 25.763090 79.104202 91 65 75
-5.792052 25.992428 79.283607 91 64 74
-5.805097 26.222260 79.462158 90 64 73
-5.818136 26.452839 79.640648 88 63 72
-5.831223 26.684401 79.819778 88 62 72
-5.844398 26.917147 80.000122 87 61 71
-5.857692 27.151220 80.182098 87 61 72
-5.871129 27.386744 80.366028 88 61 72
-5.884720 27.623785 80.552071 88 61 72
-5.898475 27.862400 80.740349 88 61 73
-5.912395 28.102615 80.930893 88 61 73
-5.926485 28.344461 81.123756 88 61 72
-5.940747 28.587973 81.318993 87 61 72
-5.955195 28.833221 81.516762 86 62 72
-5.969848 29.080320 81.717331 86 62 72
-5.984738 29.329449 81.921158 85 62 72
-5.999915 29.580866 82.128899 85 62 71
-6.015440 29.834911 82.341415 84 62 71
-6.031398 30.092026 82.559845 83 62 70
-6.047887 30.352751 82.785553 82 62 70
-6.065023 30.617720 83.020126 81 61 69
-6.082937 30.887644 83.265335 81 61 68
-6.101767 31.163301 83.523079 80 60 67
-6.121662 31.445547 83.795410 80 59 66
-6.142769 31.735228 84.084335 80 58 65
-6.165232 32.033195 84.391815 79 58 64
-6.189181 32.340260 84.719643 79 57 64
-6.214734 32.657158 85.069412 78 56 63
-6.241979 32.984512 85.442352 76 56 61
-6.270983 33.322819 85.839371 75 56 60
-4.293715 -5.211026 60.560837 115 120 138
-4.292347 -5.078859 60.541550 115 122 139
-4.290868 -4.946647 60.520691 116 123 140
-4.289303 -4.814429 60.498619 116 123 141
-4.287680 -4.682241 60.475723 116 123 142
-4.286025 -4.550118 60.452377 116 122 142
-4.284366 -4.418093 60.428982 116 122 143
-4.282731 -4.286192 60.405910 116 121 143
-4.281145 -4.154438 60.383545 116 120 142
-4.279633 -4.022851 60.362221 116 120 142
-4.278218 -3.891443 60.342270 117 121 141
-4.276922 -3.760226 60.323990 117 121 140
-4.275763 -3.629204 60.307632 117 121 139
-4.274755 -3.498376 60.293427 117 121 138
-4.273914 -3.367741 60.281563 116 121 137
-4.273250 -3.237291 60.272190 116 122 137
-4.272770 -3.107016 60.265423 117 122 137
-4.272481 -2.976902 60.261345 117 122 136
-4.272384 -2.846935 60.259983 116 121 135
-4.272481 -2.717096 60.261356 116 119 134
-4.272770 -2.587368 60.265427 117 119 134
-4.273246 -2.457730 60.272137 117 118 133
-4.273902 -2.328161 60.281387 116 116 131
-4.274729 -2.198639 60.293049 115 115 130
-4.275714 -2.069145 60.306953 114 114 129
-4.276845 -1.939656 60.322903 113 113 129
-4.278104 -1.810153 60.340664 113 113 128
-4.279474 -1.680617 60.359974 112 112 127
-4.280931 -1.551029 60.380531 111 112 127
-4.282454 -1.421374 60.402004 110 111 127
-4.284016 -1.291639 60.424042 110 111 127
-4.285591 -1.161812 60.446255 110 111 128
-4.287151 -1.031886 60.468258 109 111 128
-4.288666 -0.901855 60.489628 109 112 128
-4.290107 -0.771719 60.509956 108 112 128
-4.291446 -0.641480 60.528835 107 112 128
-4.292653 -0.511144 60.545864 107 113 129
-4.293704 -0.380721 60.560688 107 113 129
-4.294575 -0.250223 60.572968 108 113 129
-4.295245 -0.119667 60.582424 109 113 128
-4.295700 0.010929 60.588837 110 113 128
-4.295928 0.141546 60.592049 110 112 127
-4.295923 0.272162 60.591980 111 111 127
-4.295686 0.402755 60.588638 111 110 128
-4.295222 0.533306 60.582100 111 109 128
-4.294544 0.663796 60.572533 110 108 128
-4.293669 0.794208 60.560196 108 106 126
-4.292620 0.924530 60.545403 107 104 124
-4.291426 1.054752 60.528553 105 103 122
-4.290117 1.184869 60.510098 102 101 119
-4.288731 1.314884 60.490543 100 101 117
-4.287305 1.444800 60.470432 99 102 117
-4.285880 1.574631 60.450333 101 104 119
-4.284498 1.704392 60.430843 103 105 121
-4.283201 1.834105 60.412544 105 107 124
-4.282031 1.963797 60.396038 106 107 126
-4.281029 2.093501 60.381908 107 107 127
-4.280236 2.223252 60.370728 109 108 128
-4.279692 2.353091 60.363049 110 109 128
-4.279432 2.483064 60.359394 111 109 128
-4.279493 2.613215 60.360256 111 109 128
-4.279908 2.743597 60.366100 112 110 126
-4.280706 2.874262 60.377361 113 111 126
-4.281916 3.005265 60.394421 115 112 126
-4.283561 3.136660 60.417633 117 113 127
-4.285664 3.268503 60.447289 119 115 128
-4.288241 3.400851 60.483643 121 117 129
-4.291308 3.533759 60.526894 123 119 131
-4.294872 3.667278 60.577164 124 121 132
-4.298940 3.801459 60.634537 123 120 132
-4.303511 3.936348 60.699013 122 119 130
-4.308582 4.071987 60.770538 120 117 128
-4.314144 4.208413 60.848984 118 115 127
-4.320183 4.345657 60.934162 118 116 127
-4.326682 4.483746 61.025822 118 116 127
-4.333618 4.622695 61.123653 118 117 128
-4.340967 4.762520 61.227306 119 118 130
-4.348700 4.903225 61.336376 121 120 133
-4.356786 5.044808 61.450428 121 120 134
-4.365193 5.187265 61.569004 120 119 134
-4.373886 5.330582 61.691620 120 120 135
-4.382831 5.474741 61.817787 122 122 137
-4.391993 5.619722 61.947006 122 124 138
-4.401336 5.765499 62.078785 123 124 138
-4.410825 5.912038 62.212631 124 125 139
-4.420427 6.059310 62.348061 125 124 139
-4.430109 6.207276 62.484608 124 123 138
-4.439836 6.355897 62.621807 124 122 137
-4.449577 6.505130 62.759209 123 121 136
-4.459302 6.654932 62.896374 122 120 136
-4.468981 6.805253 63.032883 121 119 135
-4.478583 6.956045 63.168320 120 119 134
-4.488082 7.107256 63.302296 119 119 134
-4.497450 7.258835 63.434433 117 119 132
-4.506664 7.410729 63.564384 115 118 131
-4.515699 7.562884 63.691822 113 116 129
-4.524536 7.715252 63.816467 111 114 128
-4.533158 7.867783 63.938076 109 112 126
-4.541551 8.020434 64.056458 109 110 126
-4.549705 8.173166 64.171463 109 109 127
-4.557615 8.325948 64.283028 109 109 128
-4.565279 8.478755 64.391129 110 109 128
-4.572702 8.631573 64.495827 111 110 128
-4.579891 8.784391 64.597214 112 111 127
-4.586858 8.937216 64.695480 112 110 127
-4.593620 9.090059 64.790863 111 109 126
-4.600197 9.242942 64.883636 110 109 124
-4.606614 9.395896 64.974129 110 107 123
-4.612895 9.548961 65.062721 110 106 122
-4.619070 9.702185 65.149826 110 105 122
-4.625168 9.855620 65.235832 110 105 122
-4.631220 10.009328 65.321198 110 105 124
-4.637258 10.163369 65.406349 110 105 124
-4.643311 10.317814 65.491722 109 105 124
-4.649409 10.472729 65.577744 108 105 124
-4.655582 10.628185 65.664810 107 105 124
-4.661857 10.784251 65.753311 106 106 123
-4.668258 10.940996 65.843597 105 106 120
-4.674810 11.098487 65.936005 104 106 119
-4.681532 11.256786 66.030823 104 106 116
-4.688444 11.415956 66.128304 106 106 116
-4.695561 11.576054 66.228699 107 106 116
-4.702899 11.737133 66.332191 108 106 117
-4.710469 11.899246 66.438965 108 103 117
-4.718282 12.062439 66.549156 107 100 115
-4.726345 12.226756 66.662888 107 98 114
-4.734667 12.392240 66.780266 107 96 114
-4.743254 12.558932 66.901382 105 94 111
-4.752112 12.726871 67.026314 103 92 108
-4.761245 12.896096 67.155136 101 91 107
-4.770658 13.066643 67.287910 100 89 106
-4.780356 13.238549 67.424690 99 88 105
-4.790341 13.411848 67.565514 98 87 104
-4.800615 13.586575 67.710426 97 86 103
-4.811180 13.762757 67.859444 96 86 102
-4.822034 13.940419 68.012543 97 86 101
-4.833176 14.119580 68.169685 98 86 100
-4.844598 14.300246 68.330788 98 86 99
-4.856292 14.482420 68.495735 99 85 97
-4.868246 14.666085 68.664337 100 84 96
-4.880445 14.851223 68.836395 101 83 93
-4.892866 15.037787 69.011589 101 81 91
-4.905487 15.225724 69.189590 101 78 89
-4.918276 15.414959 69.369987 100 76 87
-4.931203 15.605407 69.552315 100 73 87
-4.944232 15.796968 69.736092 99 71 87
-4.957327 15.989530 69.920776 98 70 87
-4.970448 16.182976 70.105850 98 70 88
-4.983558 16.377182 70.290756 98 72 91
-4.996619 16.572025 70.474976 98 73 93
-5.009599 16.767389 70.658051 98 74 94
-5.022467 16.963165 70.839546 97 74 93
-5.035199 17.159262 71.019135 96 74 92
-5.047781 17.355616 71.196594 95 74 91
-5.060204 17.552181 71.371811 95 74 90
-5.072470 17.748955 71.544823 94 74 89
-5.084592 17.945967 71.715797 92 73 87
-5.096594 18.143286 71.885071 91 72 85
-5.108509 18.341024 72.053131 90 70 83
-5.120381 18.539333 72.220589 89 69 83
-5.132265 18.738405 72.388199 89 67 82
-5.144220 18.938463 72.556824 88 67 81
-5.156313 19.139757 72.727379 89 65 80
-5.168611 19.342556 72.900841 89 64 79
-5.181183 19.547136 73.078156 89 64 78
-5.194092 19.753765 73.260246 89 63 76
-5.207397 19.962694 73.447906 89 63 74
-5.221144 20.174139 73.641792 89 62 72
-5.235366 20.388271 73.842392 90 62 70
-5.250082 20.605207 74.049950 90 62 70
-5.265292 20.824991 74.264481 91 62 69
-5.280979 21.047602 74.485733 92 61 70
-5.297105 21.272928 74.713188 92 61 71
-5.313616 21.500797 74.946075 92 62 72
-5.330444 21.730957 75.183418 92 62 73
-5.347504 21.963095 75.424042 91 62 74
-5.364704 22.196852 75.666641 90 63 76
-5.381948 22.431835 75.909859 90 63 77
-5.399135 22.667627 76.152275 90 64 78
-5.416171 22.903830 76.392563 90 64 78
-5.432971 23.140059 76.629509 90 64 79
-5.449458 23.375971 76.862061 91 65 79
-5.465575 23.611284 77.089378 91 65 79
-5.481278 23.845778 77.310860 92 66 79
-5.496545 24.079315 77.526199 93 66 79
-5.511371 24.311836 77.735306 94 66 78
-5.525770 24.543364 77.938400 94 66 77
-5.539773 24.773993 78.135902 94 66 76
-5.553423 25.003885 78.328438 94 66 76
-5.566774 25.233255 78.516754 94 65 75
-5.579889 25.462357 78.701729 92 65 74
-5.592832 25.691465 78.884277 91 64 73
-5.605673 25.920891 79.065399 91 64 73
-5.618471 26.150896 79.245903 91 64 72
-5.631281 26.381737 79.426582 88 63 71
-5.644152 26.613646 79.608124 88 62 71
-5.657123 26.846807 79.791069 88 62 71
-5.670223 27.081377 79.975845 88 62 72
-5.683472 27.317461 80.162720 88 62 73
-5.696882 27.555128 80.351860 88 62 74
-5.710459 27.794418 80.543350 88 61 74
-5.724204 28.035364 80.737221 88 61 74
-5.738119 28.277979 80.933479 88 61 74
-5.752207 28.522299 81.132187 87 62 74
-5.766478 28.768391 81.333473 86 62 74
-5.780951 29.016365 81.537613 86 62 73
-5.795658 29.266399 81.745049 85 62 73
-5.810645 29.518747 81.956429 85 62 72
-5.825974 29.773758 82.172638 84 62 71
-5.841725 30.031870 82.394798 83 62 71
-5.857996 30.293627 82.624290 82 62 70
-5.874899 30.559664 82.862709 82 62 69
-5.892563 30.830708 83.111847 82 61 68
-5.911123 31.107540 83.373627 82 60 67
-5.930725 31.391020 83.650108 82 60 66
-5.951513 31.682003 83.943314 81 58 65
-5.973628 31.981354 84.255234 80 57 65
-5.997198 32.289883 84.587669 80 57 64
-6.022335 32.608330 84.942215 79 56 63
-6.049127 32.937321 85.320107 78 56 62
-6.077639 33.277351 85.722252 77 56 62
-4.154161 -5.199755 60.429852 117 121 138
-4.152813 -5.067843 60.410233 118 122 139
-4.151357 -4.935888 60.389057 117 123 140
-4.149819 -4.803930 60.366692 116 123 140
-4.148226 -4.672005 60.343513 116 123 140
-4.146604 -4.540149 60.319916 116 122 142
-4.144979 -4.408391 60.296284 116 122 142
-4.143379 -4.276761 60.273003 116 121 142
-4.141828 -4.145280 60.250439 115 122 142
-4.140349 -4.013967 60.228924 116 122 142
-4.138964 -3.882834 60.208778 116 122 141
-4.137692 -3.751891 60.190277 116 122 140
-4.136551 -3.621142 60.173679 116 122 139
-4.135555 -3.490587 60.159184 116 122 138
-4.134715 -3.360222 60.146969 116 122 138
-4.134042 -3.230039 60.137177 116 122 138
-4.133542 -3.100029 60.129906 117 122 139
-4.133220 -2.970178 60.125225 118 122 138
-4.133079 -2.840471 60.123169 118 121 137
-4.133118 -2.710891 60.123734 118 120 137
-4.133335 -2.581420 60.126896 119 119 136
-4.133727 -2.452039 60.132591 119 118 135
-4.134285 -2.322728 60.140720 118 116 133
-4.135004 -2.193465 60.151165 117 116 131
-4.135870 -2.064232 60.163765 116 115 130
-4.136871 -1.935008 60.178329 115 114 129
-4.137992 -1.805773 60.194645 114 114 129
-4.139216 -1.676509 60.212452 112 113 129
-4.140524 -1.547200 60.231468 112 113 129
-4.141892 -1.417830 60.251377 111 112 129
-4.143299 -1.288386 60.271835 111 112 129
-4.144718 -1.158857 60.292477 111 112 130
-4.146123 -1.029235 60.312916 111 112 130
