ply
format ascii 1.0
element vertex 1239
property float x
property float y
property float z
property uchar red
property uchar green
property uchar blue
end_header
-8.793868 -1.162387 68.115616 30 21 22
-8.790652 -1.015182 68.090706 33 24 25
-8.787314 -0.868071 68.064842 37 27 29
-8.783868 -0.721064 68.038147 41 31 33
-8.780330 -0.574165 68.010742 43 32 35
-8.776711 -0.427381 67.982719 44 31 34
-8.773028 -0.280715 67.954185 45 31 34
-8.769292 -0.134171 67.925247 46 31 33
-8.765515 0.012247 67.895996 48 32 34
-8.761711 0.158539 67.866531 50 32 35
-8.757895 0.304704 67.836967 53 33 36
-8.754082 0.450741 67.807434 56 34 38
-8.750288 0.596653 67.778046 58 34 38
-8.746532 0.742440 67.748955 59 33 37
-8.742834 0.888109 67.720306 59 33 36
-8.739212 1.033662 67.692253 59 33 35
-8.735686 1.179108 67.664948 58 33 34
-8.732275 1.324454 67.638527 57 34 32
-8.728997 1.469708 67.613136 56 34 32
-8.725868 1.614880 67.588898 55 33 31
-8.722901 1.759980 67.565918 54 33 30
-8.720108 1.905019 67.544281 53 32 29
-8.717495 2.050007 67.524040 52 31 29
-8.715065 2.194954 67.505219 51 30 28
-8.712817 2.339869 67.487808 50 29 29
-8.710750 2.484761 67.471794 50 30 29
-8.708853 2.629634 67.457100 50 30 29
-8.707114 2.774495 67.443626 49 30 29
-8.705520 2.919346 67.431282 48 29 29
-8.704050 3.064188 67.419899 47 28 28
-8.702686 3.209019 67.409332 46 28 28
-8.701405 3.353837 67.399406 46 28 28
-8.700181 3.498635 67.389923 46 28 29
-8.698990 3.643407 67.380707 46 28 29
-8.697808 3.788142 67.371552 46 28 29
-8.696612 3.932831 67.362282 46 28 29
-8.695376 4.077462 67.352707 46 28 29
-8.694080 4.222023 67.342674 45 27 28
-8.692705 4.366500 67.332024 44 27 26
-8.691234 4.510881 67.320625 43 26 25
-8.689652 4.655155 67.308380 43 27 26
-8.687952 4.799310 67.295212 44 27 27
-8.686124 4.943335 67.281044 44 27 28
-8.684161 5.087221 67.265839 45 28 28
-8.682063 5.230959 67.249588 44 28 27
-8.679827 5.374542 67.232269 44 28 27
-8.677457 5.517965 67.213913 43 28 26
-8.674952 5.661221 67.194511 41 28 26
-8.672317 5.804306 67.174103 41 27 25
-8.669556 5.947217 67.152718 40 27 24
-8.666674 6.089950 67.130386 40 27 25
-8.663674 6.232502 67.107155 40 27 26
-8.660563 6.374874 67.083061 41 28 26
-8.657351 6.517063 67.058174 40 27 26
-8.654041 6.659071 67.032539 40 27 26
-8.650646 6.800902 67.006241 40 27 26
-8.647178 6.942560 66.979378 39 27 27
-8.643650 7.084054 66.952049 39 27 27
-8.640081 7.225396 66.924416 40 27 27
-8.636494 7.366601 66.896614 41 27 27
-8.632909 7.507691 66.868851 42 27 27
-8.629357 7.648690 66.841339 43 27 27
-8.625867 7.789625 66.814308 43 27 27
-8.622473 7.930532 66.788017 44 27 27
-8.619207 8.071446 66.762718 44 27 27
-8.616105 8.212407 66.738693 44 26 27
-8.613200 8.353456 66.716187 44 27 27
-8.610523 8.494634 66.695457 44 27 27
-8.608103 8.635979 66.676712 44 27 26
-8.605961 8.777526 66.660118 43 27 27
-8.604114 8.919308 66.645813 42 27 27
-8.602570 9.061348 66.633850 41 27 27
-8.601330 9.203661 66.624252 41 27 27
-8.600387 9.346255 66.616943 40 27 27
-8.599722 9.489125 66.611794 40 27 26
-8.599310 9.632257 66.608597 39 27 26
-8.599118 9.775624 66.607117 38 26 25
-8.599107 9.919194 66.607033 37 26 25
-8.599232 10.062922 66.607994 36 26 24
-8.599445 10.206760 66.609650 34 25 23
-8.599700 10.350655 66.611626 33 25 23
-8.599948 10.494550 66.613541 33 24 22
-8.600147 10.638392 66.615082 32 24 22
-8.600259 10.782132 66.615952 32 23 22
-8.600253 10.925727 66.615913 32 23 22
-8.600110 11.069144 66.614799 32 23 22
-8.599818 11.212361 66.612534 33 22 22
-8.599376 11.355371 66.609108 33 22 23
-8.598795 11.498182 66.604614 33 22 23
-8.598097 11.640814 66.599205 33 22 23
-8.597314 11.783306 66.593140 34 22 23
-8.596485 11.925709 66.586723 34 22 23
-8.595660 12.068089 66.580330 33 21 22
-8.594893 12.210526 66.574394 33 21 21
-8.594244 12.353104 66.569359 32 21 20
-8.593772 12.495917 66.565704 31 21 19
-8.593539 12.639069 66.563896 31 21 20
-8.593604 12.782655 66.564407 32 22 21
-8.594024 12.926776 66.567650 32 23 21
-8.594846 13.071525 66.574028 33 24 21
-8.596114 13.216986 66.583847 32 23 20
-8.597861 13.363234 66.597382 30 21 17
-8.600109 13.510326 66.614792 30 21 17
-8.602868 13.658306 66.636162 30 21 18
-8.606136 13.807193 66.661476 30 22 19
-8.609897 13.956988 66.690605 31 22 20
-8.614121 14.107671 66.723328 31 23 21
-8.618769 14.259192 66.759323 30 23 22
-8.623775 14.411470 66.798111 30 23 23
-8.629083 14.564421 66.839211 30 22 22
-8.634610 14.717926 66.882027 30 22 21
-8.640274 14.871851 66.925903 30 22 19
-8.645986 15.026047 66.970146 30 22 19
-8.651649 15.180348 67.014015 31 22 19
-8.657169 15.334587 67.056770 31 21 19
-8.662453 15.488585 67.097694 29 21 19
-8.667409 15.642169 67.136086 28 20 18
-8.671953 15.795170 67.171288 28 20 18
-8.676008 15.947421 67.202690 27 20 18
-8.679504 16.098772 67.229774 28 21 19
-8.682380 16.249079 67.252045 28 21 19
-8.684581 16.398207 67.269096 28 21 18
-8.686062 16.546038 67.280571 28 21 18
-8.686781 16.692455 67.286140 28 20 18
-8.686701 16.837345 67.285515 28 20 18
-8.685786 16.980600 67.278427 28 20 18
-8.684001 17.122110 67.264603 28 20 18
-8.681310 17.261761 67.243759 28 20 18
-8.677675 17.399426 67.215599 28 21 18
-8.673054 17.534977 67.179802 28 21 19
-8.667405 17.668280 67.136055 28 21 19
-8.660689 17.799200 67.084030 28 21 19
-8.652869 17.927608 67.023460 28 21 19
-8.643915 18.053387 66.954102 28 21 19
-8.633810 18.176445 66.875832 28 21 18
-8.622555 18.296724 66.788651 28 21 18
-8.610171 18.414213 66.692734 28 20 18
-8.596704 18.528954 66.588417 28 20 18
-8.582228 18.641052 66.476288 28 20 19
-8.566845 18.750683 66.357132 28 20 20
-8.550689 18.858095 66.231987 29 20 21
-8.533916 18.963596 66.102074 29 20 20
-8.516707 19.067564 65.968781 28 19 19
-8.499262 19.170422 65.833649 27 19 17
-8.481786 19.272627 65.698280 28 20 18
-8.464490 19.374660 65.564308 30 21 18
-8.447580 19.477009 65.433334 30 21 18
-8.431249 19.580133 65.306831 31 21 17
-8.415669 19.684473 65.186157 31 21 17
-8.400990 19.790411 65.072456 30 21 16
-8.387330 19.898279 64.966644 29 20 16
-8.374778 20.008337 64.869423 29 20 17
-8.363390 20.120773 64.781204 29 20 17
-8.353190 20.235714 64.702209 29 20 16
-8.344179 20.353209 64.632401 29 20 16
-8.336329 20.473255 64.571602 29 20 16
-8.329596 20.595800 64.519447 28 21 17
-8.323919 20.720753 64.475479 28 21 17
-8.319234 20.847998 64.439186 27 21 18
-8.315468 20.977407 64.410011 27 21 19
-8.312557 21.108862 64.387466 27 21 19
-8.310437 21.242243 64.371056 26 21 19
-8.309056 21.377451 64.360352 26 21 19
-8.308372 21.514416 64.355049 26 21 19
-8.308352 21.653095 64.354904 26 21 20
-8.308984 21.793478 64.359787 26 20 20
-8.310260 21.935585 64.369675 27 20 20
-8.312189 22.079470 64.384621 29 20 20
-8.314789 22.225208 64.404755 30 21 20
-8.318082 22.372902 64.430260 30 21 21
-8.322102 22.522671 64.461403 31 22 21
-8.326885 22.674654 64.498451 31 22 21
-8.332473 22.828999 64.541733 32 22 21
-8.338907 22.985865 64.591568 33 22 21
-8.346233 23.145418 64.648315 34 22 22
-8.354497 23.307833 64.712326 34 22 22
-8.363746 23.473288 64.783966 35 22 22
-8.724183 -8.431832 68.723343 15 12 11
-8.724334 -8.283831 68.724533 14 12 10
-8.724143 -8.135507 68.723030 12 11 9
-8.723599 -7.986865 68.718750 11 11 8
-8.722695 -7.837918 68.711624 10 10 8
-8.721426 -7.688680 68.701622 11 10 7
-8.719791 -7.539168 68.688744 11 10 7
-8.717796 -7.389408 68.673027 12 10 7
-8.715452 -7.239425 68.654564 13 10 7
-8.712778 -7.089253 68.633499 13 10 8
-8.709797 -6.938928 68.610023 13 10 8
-8.706543 -6.788490 68.584389 14 10 9
-8.703053 -6.637983 68.556892 14 10 10
-8.699371 -6.487452 68.527893 15 10 11
-8.695547 -6.336943 68.497765 16 10 12
-8.691635 -6.186500 68.466949 17 11 13
-8.687690 -6.036167 68.435867 17 11 13
-8.683767 -5.885983 68.404976 17 11 13
-8.679925 -5.735986 68.374702 16 11 12
-8.676214 -5.586205 68.345482 15 11 11
-8.672686 -5.436663 68.317680 15 11 10
-8.669380 -5.287377 68.291641 14 11 10
-8.666336 -5.138358 68.267662 15 12 10
-8.663577 -4.989607 68.245926 16 12 10
-8.661123 -4.841120 68.226601 17 13 10
-8.658983 -4.692887 68.209740 19 14 11
-8.657154 -4.544889 68.195335 21 15 12
-8.655625 -4.397107 68.183289 23 16 14
-8.654376 -4.249513 68.173447 27 18 16
-8.653378 -4.102081 68.165588 30 20 19
-8.652596 -3.954782 68.159424 34 23 22
-8.651989 -3.807586 68.154648 38 27 25
-8.651512 -3.660465 68.150887 40 29 28
-8.651118 -3.513395 68.147789 40 30 29
-8.650760 -3.366352 68.144958 38 30 29
-8.650389 -3.219316 68.142036 35 28 28
-8.649962 -3.072273 68.138680 32 26 25
-8.649440 -2.925213 68.134560 30 24 25
-8.648786 -2.778127 68.129410 29 24 25
-8.647972 -2.631016 68.123001 29 24 26
-8.646975 -2.483879 68.115143 29 24 26
-8.645780 -2.336723 68.105728 28 22 25
-8.644375 -2.189554 68.094666 27 21 23
-8.642760 -2.042383 68.081947 25 19 20
-8.640937 -1.895222 68.067581 24 18 19
-8.638910 -1.748081 68.051620 24 17 18
-8.636694 -1.600974 68.034164 24 17 18
-8.634299 -1.453912 68.015297 25 18 18
-8.631742 -1.306906 67.995148 26 19 19
-8.629035 -1.159968 67.973831 27 20 20
-8.626196 -1.013106 67.951462 30 22 22
-8.623239 -0.866328 67.928169 33 24 26
-8.620176 -0.719642 67.904045 36 27 28
-8.617021 -0.573054 67.879189 38 28 30
-8.613784 -0.426569 67.853691 40 29 31
-8.610476 -0.280192 67.827629 43 30 32
-8.607107 -0.133926 67.801102 45 31 32
-8.603690 0.012225 67.774178 48 32 34
-8.600233 0.158260 67.746941 51 33 36
-8.596749 0.304176 67.719505 54 35 38
-8.593253 0.449974 67.691963 57 36 40
-8.589760 0.595653 67.664444 59 36 41
-8.586287 0.741214 67.637085 60 35 40
-8.582850 0.886662 67.610016 60 35 39
-8.579471 1.032000 67.583389 60 35 38
-8.576167 1.177234 67.557365 59 35 36
-8.572957 1.322369 67.532082 58 35 35
-8.569861 1.467416 67.507698 57 36 34
-8.566895 1.612381 67.484337 56 35 32
-8.564075 1.757276 67.462112 54 33 31
-8.561411 1.902110 67.441132 52 32 29
-8.558912 2.046893 67.421448 51 30 28
-8.556585 2.191635 67.403122 50 29 28
-8.554434 2.336345 67.386169 50 29 29
-8.552455 2.481033 67.370575 50 30 29
-8.550643 2.625705 67.356308 50 30 30
-8.548989 2.770367 67.343285 49 30 30
-8.547483 2.915022 67.331413 48 29 29
-8.546108 3.059674 67.320587 47 29 29
-8.544847 3.204321 67.310646 46 29 29
-8.543680 3.348963 67.301453 46 28 29
-8.542585 3.493595 67.292831 47 29 29
-8.541541 3.638211 67.284607 47 29 30
-8.540523 3.782803 67.276588 47 29 30
-8.539511 3.927363 67.268616 46 29 29
-8.538481 4.071880 67.260498 46 28 28
-8.537413 4.216343 67.252090 45 28 27
-8.536288 4.360742 67.243233 44 27 26
-8.535092 4.505064 67.233810 43 26 25
-8.533809 4.649298 67.223694 43 27 26
-8.532428 4.793434 67.212822 43 27 26
-8.530940 4.937461 67.201103 44 27 27
-8.529340 5.081371 67.188492 45 28 27
-8.527623 5.225155 67.174973 45 28 27
-8.525787 5.368805 67.160515 45 28 27
-8.523832 5.512316 67.145111 44 28 26
-8.521758 5.655682 67.128769 42 28 26
-8.519567 5.798898 67.111511 41 27 25
-8.517261 5.941958 67.093346 40 27 24
-8.514842 6.084861 67.074287 40 27 25
-8.512314 6.227601 67.054375 40 27 25
-8.509681 6.370177 67.033638 41 27 26
-8.506948 6.512587 67.012108 40 27 26
-8.504122 6.654830 66.989845 39 27 25
-8.501210 6.796910 66.966911 39 27 26
-8.498224 6.938830 66.943390 39 27 26
-8.495177 7.080597 66.919388 38 27 26
-8.492085 7.222223 66.895020 39 27 26
-8.488966 7.363721 66.870461 40 27 26
-8.485845 7.505111 66.845871 42 27 27
-8.482747 7.646416 66.821472 43 27 27
-8.479703 7.787664 66.797485 43 27 27
-8.476742 7.928887 66.774162 44 27 27
-8.473898 8.070122 66.751762 44 27 27
-8.471204 8.211405 66.730545 44 27 27
-8.468694 8.352777 66.710762 44 26 27
-8.466395 8.494278 66.692665 45 27 27
-8.464337 8.635944 66.676453 44 28 27
-8.462542 8.777814 66.662300 44 28 28
-8.461022 8.919914 66.650337 44 28 28
-8.459789 9.062268 66.640625 43 28 28
-8.458842 9.204892 66.633163 42 27 27
-8.458173 9.347792 66.627892 41 27 27
-8.457764 9.490960 66.624672 40 27 26
-8.457591 9.634383 66.623306 39 27 25
-8.457621 9.778034 66.623535 38 26 24
-8.457814 9.921880 66.625061 37 26 24
-8.458127 10.065873 66.627533 35 26 24
-8.458513 10.209967 66.630577 34 25 24
-8.458925 10.354104 66.633820 33 25 23
-8.459318 10.498231 66.636909 33 25 23
-8.459647 10.642291 66.639503 33 24 22
-8.459876 10.786236 66.641312 32 24 22
-8.459976 10.930021 66.642097 32 23 22
-8.459924 11.073611 66.641685 32 22 22
-8.459710 11.216985 66.639999 33 22 22
-8.459332 11.360131 66.637024 33 22 22
-8.458803 11.503057 66.632851 34 22 23
-8.458139 11.645782 66.627625 34 22 23
-8.457374 11.788342 66.621597 34 22 23
-8.456544 11.930784 66.615059 34 22 22
-8.455697 12.073174 66.608383 34 21 21
-8.454885 12.215587 66.601990 33 21 21
-8.454165 12.358106 66.596321 32 21 21
-8.453596 12.500824 66.591843 31 21 20
-8.453237 12.643836 66.589005 31 21 20
-8.453145 12.787240 66.588287 32 22 21
-8.453375 12.931134 66.590096 32 23 21
-8.453975 13.075607 66.594818 33 24 21
-8.454987 13.220745 66.602791 32 23 19
-8.456441 13.366618 66.614250 31 22 17
-8.458363 13.513287 66.629387 31 21 16
-8.460762 13.660790 66.648285 31 21 17
-8.463637 13.809153 66.670937 31 22 18
-8.466976 13.958377 66.697235 32 22 20
-8.470752 14.108443 66.726982 31 23 21
-8.474926 14.259306 66.759857 31 23 22
-8.479441 14.410891 66.795425 31 23 23
-8.484239 14.563115 66.833221 31 22 23
-8.489248 14.715869 66.872681 31 22 21
-8.494390 14.869023 66.913177 31 22 20
-8.499578 15.022437 66.954056 31 22 20
-8.504725 15.175951 66.994598 32 22 20
-8.509740 15.329403 67.034103 31 22 20
-8.514536 15.482627 67.071884 30 21 19
-8.519028 15.635454 67.107262 29 21 19
-8.523135 15.787724 67.139618 28 21 19
-8.526785 15.939277 67.168373 28 21 19
-8.529911 16.089966 67.192993 27 21 18
-8.532455 16.239653 67.213036 27 21 18
-8.534367 16.388212 67.228088 28 20 18
-8.535599 16.535521 67.237793 28 20 18
-8.536113 16.681467 67.241852 28 20 18
-8.535871 16.825939 67.239937 28 20 18
-8.534836 16.968830 67.231789 29 20 18
-8.532972 17.110022 67.217110 29 20 18
-8.530241 17.249397 67.195595 29 20 18
-8.526601 17.386826 67.166924 29 21 19
-8.522007 17.522169 67.130737 28 21 19
-8.516416 17.655289 67.086693 28 22 20
-8.509781 17.786037 67.034424 28 21 19
-8.502061 17.914276 66.973610 27 21 19
-8.493223 18.039877 66.903999 27 20 18
-8.483246 18.162737 66.825401 27 20 18
-8.472125 18.282791 66.737793 27 20 18
-8.459876 18.400013 66.641304 28 20 18
-8.446542 18.514442 66.536263 28 20 18
-8.432194 18.626177 66.423241 28 20 18
-8.416930 18.735388 66.303001 28 20 19
-8.400882 18.842319 66.176582 29 21 20
-8.384204 18.947285 66.045212 28 20 19
-8.367077 19.050659 65.910294 28 20 18
-8.349696 19.152872 65.773376 28 20 18
-8.332271 19.254389 65.636116 29 21 18
-8.315010 19.355700 65.500145 30 21 18
-8.298121 19.457296 65.367104 30 21 17
-8.281797 19.559652 65.238518 31 21 17
-8.266212 19.663212 65.115753 30 21 17
-8.251518 19.768375 65.000000 30 21 17
-8.237834 19.875479 64.892204 29 20 17
-8.225250 19.984789 64.793076 29 20 17
-8.213823 20.096504 64.703072 30 20 17
-8.203583 20.210754 64.622398 29 20 17
-8.194527 20.327593 64.551056 29 20 17
-8.186629 20.447018 64.488853 29 20 17
-8.179848 20.568981 64.435425 28 21 17
-8.174122 20.693388 64.390327 28 21 18
-8.169387 20.820122 64.353020 27 21 18
-8.165570 20.949055 64.322960 27 21 19
-8.162607 21.080061 64.299622 26 21 19
-8.160434 21.213020 64.282501 26 21 19
-8.158997 21.347830 64.271172 26 21 19
-8.158251 21.484415 64.265305 26 21 20
-8.158167 21.622726 64.264641 27 20 20
-8.158728 21.762754 64.269058 27 21 20
-8.159926 21.904514 64.278503 28 21 21
-8.161770 22.048056 64.293022 29 21 21
-8.164272 22.193455 64.312737 30 22 21
-8.167459 22.340809 64.337845 30 22 21
-8.171361 22.490238 64.368576 30 22 21
-8.176012 22.641874 64.405212 31 22 20
-8.181451 22.795864 64.448051 31 22 21
-8.187717 22.952360 64.497421 32 22 21
-8.194856 23.111526 64.553650 34 22 22
-8.202909 23.273531 64.617088 34 22 22
-8.211919 23.438541 64.688065 35 22 22
-8.555100 -8.706811 68.555557 17 13 12
-8.555923 -8.559852 68.562149 17 13 12
-8.556426 -8.412549 68.566177 16 13 11
-8.556596 -8.264908 68.567535 14 13 10
-8.556420 -8.116933 68.566132 13 12 9
-8.555889 -7.968633 68.561874 11 11 8
-8.554993 -7.820017 68.554695 10 10 6
-8.553727 -7.671101 68.544548 10 9 6
-8.552092 -7.521904 68.531441 11 9 6
-8.550092 -7.372448 68.515411 11 9 6
-8.547738 -7.222764 68.496559 12 9 6
-8.545050 -7.072883 68.475014 13 9 7
-8.542051 -6.922843 68.450981 13 9 7
-8.538774 -6.772687 68.424728 14 9 8
-8.535257 -6.622458 68.396545 14 9 9
-8.531546 -6.472202 68.366798 15 10 11
-8.527689 -6.321967 68.335899 16 10 12
-8.523741 -6.171800 68.304260 17 10 13
-8.519759 -6.021744 68.272346 17 11 13
-8.515800 -5.871841 68.240616 17 11 13
-8.511919 -5.722129 68.209526 17 11 12
-8.508173 -5.572639 68.179504 16 11 11
-8.504610 -5.423395 68.150955 15 11 10
-8.501274 -5.274415 68.124222 15 11 10
-8.498201 -5.125709 68.099602 15 12 11
-8.495422 -4.977280 68.077332 16 12 11
-8.492953 -4.829125 68.057549 17 13 12
-8.490806 -4.681231 68.040337 19 14 12
-8.488977 -4.533583 68.025688 21 15 13
-8.487459 -4.386158 68.013519 24 17 15
-8.486233 -4.238931 68.003685 27 19 18
-8.485268 -4.091873 67.995956 31 22 21
-8.484533 -3.944955 67.990074 34 24 23
-8.483987 -3.798147 67.985695 36 27 25
-8.483586 -3.651420 67.982483 38 29 27
-8.483284 -3.504748 67.980064 37 29 28
-8.483034 -3.358107 67.978058 35 28 28
-8.482790 -3.211477 67.976097 33 27 27
-8.482509 -3.064841 67.973846 31 25 25
-8.482150 -2.918189 67.970970 29 24 25
-8.481679 -2.771513 67.967194 29 25 25
-8.481067 -2.624809 67.962288 28 24 25
-8.480291 -2.478079 67.956078 28 23 25
-8.479337 -2.331326 67.948425 27 21 24
-8.478191 -2.184557 67.939247 26 20 22
-8.476852 -2.037781 67.928520 24 18 19
-8.475323 -1.891008 67.916260 22 17 18
-8.473605 -1.744250 67.902496 22 17 17
-8.471710 -1.597518 67.887314 22 17 17
-8.469649 -1.450823 67.870804 23 18 18
-8.467436 -1.304175 67.853065 24 18 18
-8.465082 -1.157585 67.834198 25 19 18
-8.462602 -1.011061 67.814331 27 20 20
-8.460007 -0.864611 67.793533 30 22 23
-8.457308 -0.718242 67.771904 32 24 25
-8.454515 -0.571960 67.749527 34 25 26
-8.451638 -0.425770 67.726471 37 27 28
-8.448685 -0.279676 67.702805 40 28 29
-8.445662 -0.133684 67.678581 43 30 31
-8.442580 0.012204 67.653885 46 32 33
-8.439447 0.157984 67.628777 50 34 36
-8.436275 0.303655 67.603355 54 36 39
-8.433073 0.449214 67.577698 57 37 42
-8.429857 0.594662 67.551933 59 37 43
-8.426643 0.739999 67.526176 60 36 43
-8.423448 0.885227 67.500565 61 36 42
-8.420288 1.030349 67.475250 61 36 41
-8.417186 1.175369 67.450386 61 37 40
-8.414158 1.320295 67.426125 60 37 38
-8.411224 1.465132 67.402618 59 37 37
-8.408402 1.609889 67.380005 58 36 35
-8.405708 1.754575 67.358421 55 34 33
-8.403156 1.899200 67.337967 53 32 30
-8.400757 2.043774 67.318741 51 29 27
-8.398519 2.188308 67.300797 50 29 27
-8.396446 2.332810 67.284195 51 29 29
-8.394541 2.477289 67.268921 51 30 30
-8.392799 2.621755 67.254974 50 30 30
-8.391218 2.766212 67.242302 49 30 30
-8.389788 2.910668 67.230835 49 29 30
-8.388495 3.055124 67.220474 47 29 29
-8.387325 3.199582 67.211098 47 29 29
-8.386262 3.344043 67.202583 46 29 29
-8.385286 3.488503 67.194763 47 29 29
-8.384377 3.632959 67.187477 47 29 30
-8.383514 3.777403 67.180565 47 29 30
-8.382677 3.921830 67.173851 46 29 29
-8.381844 4.066230 67.167175 46 29 28
-8.380995 4.210594 67.160378 45 28 27
-8.380114 4.354911 67.153313 44 27 26
-8.379182 4.499170 67.145844 43 27 26
-8.378187 4.643363 67.137878 43 27 26
-8.377117 4.787478 67.129303 43 27 25
-8.375962 4.931506 67.120049 44 27 26
-8.374716 5.075438 67.110054 45 28 27
-8.373372 5.219268 67.099289 45 28 27
-8.371927 5.362986 67.087715 45 28 27
-8.370380 5.506587 67.075317 44 28 27
-8.368729 5.650064 67.062080 43 28 26
-8.366974 5.793412 67.048019 41 28 25
-8.365115 5.936625 67.033127 41 27 24
-8.363154 6.079701 67.017410 41 26 24
-8.361093 6.222633 67.000885 41 26 24
-8.358932 6.365419 66.983574 40 26 25
-8.356675 6.508056 66.965492 40 26 25
-8.354329 6.650543 66.946693 39 26 25
-8.351900 6.792882 66.927223 38 26 25
-8.349396 6.935074 66.907158 38 26 25
-8.346828 7.077127 66.886581 38 26 25
-8.344213 7.219049 66.865623 39 26 26
-8.341566 7.360854 66.844421 40 27 26
-8.338912 7.502560 66.823151 41 27 27
-8.336273 7.644188 66.802002 43 27 27
-8.333678 7.785766 66.781212 43 27 27
-8.331157 7.927325 66.761002 44 27 27
-8.328741 8.068898 66.741646 45 28 27
-8.326462 8.210524 66.723381 44 27 28
-8.324351 8.352239 66.706467 45 27 28
-8.322438 8.494083 66.691139 46 28 28
-8.320748 8.636093 66.677597 46 28 29
-8.319304 8.778303 66.666016 45 29 29
-8.318118 8.920741 66.656517 45 29 29
-8.317200 9.063430 66.649162 45 28 29
-8.316548 9.206381 66.643936 43 28 28
-8.316155 9.349602 66.640793 42 27 27
-8.316005 9.493084 66.639580 40 27 25
-8.316070 9.636812 66.640106 39 26 25
-8.316319 9.780760 66.642105 38 26 24
-8.316714 9.924889 66.645264 37 26 24
-8.317211 10.069156 66.649254 36 26 24
-8.317765 10.213508 66.653687 35 26 24
-8.318328 10.357892 66.658195 34 25 24
-8.318855 10.502251 66.662422 34 25 23
-8.319304 10.646527 66.666023 34 25 23
-8.319639 10.790670 66.668709 33 24 22
-8.319829 10.934635 66.670227 33 24 22
-8.319854 11.078387 66.670425 33 23 21
-8.319702 11.221901 66.669205 33 23 21
-8.319371 11.365167 66.666565 33 22 22
-8.318872 11.508186 66.662560 33 22 22
-8.318222 11.650978 66.657356 34 22 22
-8.317452 11.793576 66.651176 34 22 22
-8.316597 11.936028 66.644333 34 22 21
-8.315703 12.078392 66.637169 34 21 20
-8.314821 12.220742 66.630096 33 21 20
-8.314005 12.363160 66.623558 32 21 20
-8.313312 12.505735 66.618004 32 21 20
-8.312799 12.648561 66.613892 31 21 20
-8.312522 12.791732 66.611671 31 22 20
-8.312533 12.935343 66.611771 32 23 21
-8.312881 13.079482 66.614555 32 23 20
-8.313606 13.224234 66.620361 32 23 19
-8.314740 13.369668 66.629448 32 22 18
-8.316306 13.515843 66.641991 32 22 18
-8.318316 13.662802 66.658096 31 22 18
-8.320769 13.810567 66.677765 32 22 19
-8.323656 13.959144 66.700897 32 22 20
-8.326953 14.108514 66.727318 32 22 22
-8.330624 14.258638 66.756737 31 23 23
-8.334618 14.409448 66.788734 31 23 23
-8.338878 14.560861 66.822868 31 22 23
-8.343339 14.712775 66.858620 31 23 22
-8.347927 14.865070 66.895393 32 23 22
-8.352563 15.017609 66.932541 32 23 21
-8.357163 15.170244 66.969406 32 23 21
-8.361643 15.322817 67.005302 32 22 21
-8.365921 15.475170 67.039581 30 21 20
-8.369917 15.627146 67.071602 29 21 19
-8.373555 15.778584 67.100754 29 21 19
-8.376767 15.929340 67.126495 28 21 19
-8.379491 16.079269 67.148323 27 21 18
-8.381671 16.228239 67.165794 27 21 18
-8.383259 16.376127 67.178513 27 20 18
-8.384211 16.522818 67.186142 28 20 18
-8.384486 16.668196 67.188354 28 20 18
-8.384050 16.812157 67.184860 28 20 18
-8.382864 16.954586 67.175354 28 20 18
-8.380892 17.095369 67.159546 29 20 18
-8.378091 17.234383 67.137108 29 20 18
-8.374419 17.371490 67.107681 29 21 18
-8.369828 17.506550 67.070892 28 21 19
-8.364271 17.639412 67.026360 28 21 19
-8.357697 17.769922 66.973679 27 21 19
-8.350062 17.897930 66.912506 27 20 19
-8.341330 18.023300 66.842522 26 20 18
-8.331470 18.145918 66.763519 27 20 18
-8.320479 18.265707 66.675438 27 20 17
-8.308366 18.382637 66.578369 27 20 17
-8.295171 18.496735 66.472633 27 20 18
-8.280960 18.608095 66.358757 28 21 18
-8.265831 18.716883 66.237518 28 20 18
-8.249908 18.823339 66.109924 28 20 19
-8.233348 18.927778 65.977219 28 20 19
-8.216326 19.030579 65.840813 28 20 18
-8.199039 19.132170 65.702286 29 20 18
-8.181693 19.233027 65.563286 29 20 17
-8.164499 19.333643 65.425507 29 20 17
-8.147663 19.434519 65.290588 30 20 16
-8.131379 19.536142 65.160103 30 20 16
-8.115824 19.638962 65.035446 30 21 17
-8.101147 19.743387 64.917831 29 21 17
-8.087469 19.849760 64.808235 29 20 17
-8.074884 19.958359 64.707390 29 20 17
-8.063451 20.069389 64.615768 29 20 17
-8.053197 20.182980 64.533592 29 20 18
-8.044123 20.299194 64.460884 29 21 18
-8.036204 20.418032 64.397430 29 21 18
-8.029399 20.539440 64.342888 29 21 18
-8.023647 20.663330 64.296799 28 21 19
-8.018884 20.789583 64.258629 28 21 18
-8.015038 20.918066 64.227806 27 21 18
-8.012043 21.048653 64.203812 26 21 19
-8.009836 21.181219 64.186127 27 21 19
-8.008361 21.315655 64.174309 27 20 20
-8.007575 21.451887 64.168007 27 20 20
-8.007444 21.589859 64.166962 28 20 20
-8.007953 21.729561 64.171028 28 21 21
-8.009091 21.871004 64.180161 28 21 21
-8.010867 22.014233 64.194389 29 21 21
-8.013293 22.159323 64.213829 29 22 21
-8.016392 22.306368 64.238655 30 22 21
-8.020192 22.455484 64.269112 30 22 21
-8.024728 22.606808 64.305466 30 23 20
-8.030037 22.760473 64.348000 31 23 20
-8.036156 22.916637 64.397041 32 22 21
-8.043127 23.075457 64.452904 33 22 21
-8.050990 23.237091 64.515915 33 23 22
-8.059787 23.401705 64.586403 34 22 22
-8.069558 23.569471 64.664703 35 22 22
-8.386455 -8.832621 68.385429 15 13 12
-8.387643 -8.686435 68.395119 16 14 12
-8.388524 -8.539896 68.402306 17 15 12
-8.389085 -8.393004 68.406883 17 15 11
-8.389312 -8.245766 68.408730 15 13 10
-8.389190 -8.098182 68.407738 13 12 9
-8.388709 -7.950262 68.403816 12 11 7
-8.387860 -7.802017 68.396896 11 10 6
-8.386639 -7.653461 68.386932 10 9 6
-8.385043 -7.504614 68.373924 10 9 6
-8.383079 -7.355499 68.357903 11 9 6
-8.380756 -7.206146 68.338966 11 8 6
-8.378094 -7.056588 68.317261 12 9 6
-8.375117 -6.906864 68.292984 13 9 6
-8.371857 -6.757015 68.266396 13 9 7
-8.368352 -6.607089 68.237816 14 9 8
-8.364648 -6.457132 68.207611 15 10 10
-8.360793 -6.307192 68.176186 16 10 11
-8.356845 -6.157318 68.143990 16 10 12
-8.352858 -6.007555 68.111473 17 10 12
-8.348891 -5.857946 68.079132 17 11 13
-8.345001 -5.708529 68.047409 16 11 12
-8.341244 -5.559338 68.016769 16 11 11
-8.337669 -5.410397 67.987617 15 11 10
-8.334321 -5.261725 67.960320 15 11 10
-8.331239 -5.113333 67.935188 16 12 11
-8.328450 -4.965226 67.912445 16 13 11
-8.325976 -4.817398 67.892273 17 13 12
-8.323827 -4.669839 67.874748 19 14 14
-8.322003 -4.522533 67.859879 21 16 15
-8.320496 -4.375457 67.847588 24 18 17
-8.319287 -4.228586 67.837730 28 21 20
-8.318352 -4.081892 67.830101 31 23 22
-8.317656 -3.935344 67.824425 33 26 24
-8.317161 -3.788912 67.820389 35 28 26
-8.316824 -3.642566 67.817650 36 29 28
-8.316602 -3.496281 67.815834 34 28 27
-8.316446 -3.350030 67.814568 32 26 26
-8.316314 -3.203794 67.813484 30 25 25
-8.316162 -3.057555 67.812248 28 24 24
-8.315951 -2.911301 67.810524 28 24 23
-8.315647 -2.765023 67.808052 28 24 24
-8.315222 -2.618718 67.804581 27 24 24
-8.314651 -2.472385 67.799934 27 22 24
-8.313921 -2.326026 67.793968 26 20 22
-8.313018 -2.179649 67.786613 24 18 20
-8.311939 -2.033260 67.777817 22 17 18
-8.310685 -1.886869 67.767586 21 17 17
-8.309259 -1.740486 67.755959 21 16 17
-8.307669 -1.594122 67.742989 21 17 17
-8.305924 -1.447787 67.728767 22 18 18
-8.304037 -1.301491 67.713379 23 18 18
-8.302016 -1.155242 67.696899 24 18 18
-8.299874 -1.009050 67.679428 26 19 19
-8.297621 -0.862922 67.661057 27 20 21
-8.295263 -0.716864 67.641838 29 21 22
-8.292812 -0.570882 67.621841 31 23 23
-8.290272 -0.424982 67.601128 34 24 24
-8.287648 -0.279168 67.579735 36 26 26
-8.284948 -0.133445 67.557724 39 28 28
-8.282179 0.012182 67.535133 43 30 31
-8.279346 0.157711 67.512039 47 33 34
-8.276459 0.303139 67.488495 51 35 38
-8.273528 0.448462 67.464600 55 36 41
-8.270567 0.593681 67.440453 57 37 43
-8.267590 0.738794 67.416168 59 37 45
-8.264611 0.883802 67.391884 61 37 45
-8.261652 1.028707 67.367752 62 38 45
-8.258730 1.173514 67.343925 63 39 44
-8.255863 1.318227 67.320549 63 39 42
-8.253073 1.462853 67.297798 62 38 40
-8.250377 1.607399 67.275810 60 37 37
-8.247792 1.751874 67.254738 57 35 34
-8.245336 1.896288 67.234703 55 33 31
-8.243018 2.040650 67.215813 53 30 29
-8.240853 2.184970 67.198158 52 29 29
-8.238846 2.329259 67.181786 52 30 30
-8.237000 2.473526 67.166740 51 30 31
-8.235318 2.617780 67.153023 51 31 31
-8.233796 2.762029 67.140617 50 30 31
-8.232429 2.906279 67.129463 49 30 30
-8.231207 3.050534 67.119499 48 29 30
-8.230118 3.194799 67.110619 47 29 30
-8.229148 3.339073 67.102707 47 29 30
-8.228280 3.483357 67.095634 47 30 29
-8.227496 3.627647 67.089241 47 30 29
-8.226778 3.771939 67.083389 47 30 29
-8.226106 3.916228 67.077904 47 30 29
-8.225459 4.060507 67.072632 46 29 28
-8.224820 4.204766 67.067421 45 28 27
-8.224171 4.348997 67.062126 44 28 26
-8.223495 4.493191 67.056618 44 28 27
-8.222778 4.637339 67.050774 44 28 26
-8.222009 4.781430 67.044495 44 28 26
-8.221177 4.925457 67.037712 45 28 27
-8.220274 5.069411 67.030350 45 28 27
-8.219293 5.213283 67.022346 45 28 27
-8.218229 5.357068 67.013672 45 29 27
-8.217080 5.500757 67.004303 45 29 27
-8.215842 5.644346 66.994217 44 29 27
-8.214515 5.787827 66.983383 43 28 26
-8.213095 5.931195 66.971802 42 27 25
-8.211583 6.074445 66.959480 42 27 25
-8.209979 6.217573 66.946404 41 26 24
-8.208284 6.360574 66.932587 41 26 24
-8.206500 6.503444 66.918030 40 26 25
-8.204630 6.646181 66.902779 39 26 25
-8.202679 6.788786 66.886871 39 26 25
-8.200653 6.931260 66.870354 38 26 24
-8.198565 7.073608 66.853325 38 26 25
-8.196426 7.215838 66.835884 38 26 25
-8.194254 7.357964 66.818169 39 26 26
-8.192067 7.499999 66.800346 40 26 26
-8.189890 7.641967 66.782593 42 27 26
-8.187749 7.783892 66.765129 44 27 27
-8.185671 7.925803 66.748184 44 27 27
-8.183688 8.067735 66.732018 45 27 28
-8.181828 8.209721 66.716850 45 27 29
-8.180123 8.351799 66.702950 46 28 29
-8.178601 8.494007 66.690536 47 29 30
-8.177285 8.636380 66.679810 47 29 30
-8.176197 8.778951 66.670937 48 30 31
-8.175349 8.921744 66.664017 48 30 31
-8.174749 9.064785 66.659126 47 30 30
-8.174397 9.208082 66.656250 45 29 28
-8.174282 9.351640 66.655319 43 28 27
-8.174389 9.495450 66.656189 41 27 26
-8.174692 9.639496 66.658661 40 27 25
-8.175159 9.783749 66.662468 39 26 25
-8.175752 9.928170 66.667305 38 26 25
-8.176428 10.072716 66.672821 37 26 25
-8.177142 10.217332 66.678642 37 26 25
-8.177848 10.361962 66.684395 36 26 24
-8.178500 10.506550 66.689713 35 26 24
-8.179057 10.651036 66.694260 35 26 24
-8.179484 10.795370 66.697739 35 25 23
-8.179750 10.939504 66.699913 34 25 23
-8.179836 11.083402 66.700607 33 24 22
-8.179728 11.227037 66.699722 32 23 21
-8.179424 11.370398 66.697250 32 23 21
-8.178934 11.513485 66.693253 33 23 21
-8.178276 11.656315 66.687889 34 23 21
-8.177477 11.798919 66.681374 34 22 21
-8.176573 11.941340 66.673996 34 22 21
-8.175607 12.083639 66.666122 34 22 21
-8.174627 12.225883 66.658134 33 22 21
-8.173687 12.368154 66.650467 33 22 21
-8.172842 12.510536 66.643570 32 22 21
-8.172147 12.653121 66.637909 32 22 20
-8.171656 12.796001 66.633904 32 22 20
-8.171422 12.939270 66.631996 31 22 20
-8.171489 13.083014 66.632538 32 22 20
-8.171899 13.227314 66.635880 32 22 19
-8.172683 13.372242 66.642281 32 22 19
-8.173864 13.517854 66.651909 32 22 18
-8.175456 13.664194 66.664894 32 22 18
-8.177461 13.811287 66.681244 32 22 19
-8.179870 13.959140 66.700882 32 22 21
-8.182661 14.107738 66.723640 32 22 22
-8.185803 14.257044 66.749268 31 22 23
-8.189248 14.406993 66.777359 31 22 23
-8.192945 14.557511 66.807503 31 22 23
-8.196833 14.708502 66.839203 31 23 23
-8.200843 14.859851 66.871902 32 23 22
-8.204900 15.011427 66.904984 33 23 22
-8.208927 15.163091 66.937828 33 23 22
-8.212846 15.314693 66.969780 32 22 21
-8.216579 15.466084 67.000221 29 20 19
-8.220053 15.617113 67.028542 28 20 19
-8.223194 15.767628 67.054161 28 21 19
-8.225941 15.917490 67.076561 28 21 18
-8.228233 16.066561 67.095253 27 21 18
-8.230021 16.214716 67.109825 27 21 18
-8.231255 16.361835 67.119888 27 20 18
-8.231894 16.507807 67.125107 27 19 18
-8.231903 16.652523 67.125175 27 19 18
-8.231241 16.795872 67.119781 27 19 18
-8.229875 16.937748 67.108635 28 20 18
-8.227763 17.078028 67.091415 28 20 18
-8.224865 17.216587 67.067780 28 20 18
-8.221133 17.353287 67.037361 28 20 18
-8.216521 17.487980 66.999748 28 20 18
-8.210975 17.620506 66.954521 28 20 19
-8.204443 17.750706 66.901260 27 20 19
-8.196877 17.878418 66.839561 27 20 19
-8.188234 18.003500 66.769089 27 20 18
-8.178486 18.125828 66.689598 26 20 18
-8.167620 18.245314 66.600990 27 20 17
-8.155643 18.361919 66.503334 27 20 17
-8.142592 18.475664 66.396912 27 20 17
-8.128529 18.586636 66.282227 27 20 17
-8.113546 18.694996 66.160057 28 20 18
-8.097768 18.800982 66.031403 28 20 18
-8.081347 18.904907 65.897491 28 20 18
-8.064455 19.007151 65.759766 28 20 18
-8.047290 19.108147 65.619789 29 20 17
-8.030055 19.208374 65.479248 29 20 17
-8.012959 19.308332 65.339851 29 20 17
-7.996211 19.408529 65.203278 29 21 17
-7.980001 19.509457 65.071098 29 21 17
-7.964507 19.611576 64.944756 29 21 18
-7.949881 19.715303 64.825493 29 21 18
-7.936245 19.820990 64.714302 29 21 17
-7.923691 19.928917 64.611931 28 20 17
-7.912280 20.039297 64.518883 28 20 18
-7.902042 20.152267 64.435394 29 20 18
-7.892977 20.267891 64.361481 29 21 19
-7.885063 20.386173 64.296951 29 22 19
-7.878258 20.507063 64.241455 29 22 20
-7.872504 20.630466 64.194534 29 22 19
-7.867735 20.756266 64.155647 28 21 19
-7.863880 20.884327 64.124214 28 21 19
-7.860875 21.014523 64.099709 27 21 19
-7.858653 21.146723 64.081596 27 21 19
-7.857160 21.280815 64.069412 28 21 20
-7.856350 21.416721 64.062813 28 21 20
-7.856192 21.554384 64.061523 29 21 21
-7.856666 21.693789 64.065392 29 22 22
-7.857763 21.834942 64.074341 29 22 22
-7.859488 21.977888 64.088409 29 22 22
-7.861855 22.122700 64.107697 29 22 21
-7.864882 22.269468 64.132393 29 22 20
-7.868600 22.418308 64.162704 29 22 20
-7.873040 22.569349 64.198914 30 23 20
-7.878238 22.722731 64.241295 30 23 21
-7.884230 22.878601 64.290154 31 23 21
-7.891054 23.037111 64.345802 32 22 21
-7.898749 23.198421 64.408554 33 22 21
-7.907354 23.362688 64.478722 33 22 21
-7.916907 23.530073 64.556610 34 22 22
-8.217714 -8.956795 68.208435 13 13 12
-8.219290 -8.811449 68.221512 14 14 12
-8.220572 -8.665739 68.232162 15 15 12
-8.221550 -8.519666 68.240273 16 15 12
-8.222206 -8.373231 68.245720 16 15 11
-8.222527 -8.226438 68.248375 15 14 9
-8.222498 -8.079288 68.248138 13 12 8
-8.222108 -7.931792 68.244904 12 11 7
-8.221348 -7.783959 68.238594 11 10 6
-8.220211 -7.635804 68.229156 10 10 6
-8.218696 -7.487345 68.216583 10 9 6
-8.216808 -7.338607 68.200920 10 9 6
-8.214558 -7.189619 68.182236 11 9 6
-8.211963 -7.040416 68.160690 12 9 6
-8.209046 -6.891037 68.136490 13 9 6
-8.205842 -6.741525 68.109894 13 9 7
-8.202387 -6.591926 68.081215 14 9 8
-8.198726 -6.442289 68.050827 15 10 9
-8.194910 -6.292665 68.019157 16 10 10
-8.190994 -6.143102 67.986656 16 10 11
-8.187035 -5.993646 67.953789 16 10 12
-8.183089 -5.844343 67.921043 16 10 12
-8.179217 -5.695232 67.888901 16 10 11
-8.175472 -5.546346 67.857819 15 10 10
-8.171906 -5.397712 67.828224 15 11 10
-8.168565 -5.249350 67.800491 15 11 10
-8.165486 -5.101271 67.774933 16 12 11
-8.162700 -4.953481 67.751808 17 13 12
-8.160228 -4.805975 67.731293 18 14 13
-8.158082 -4.658743 67.713478 20 15 14
-8.156264 -4.511771 67.698395 22 17 16
-8.154766 -4.365034 67.685959 26 20 18
-8.153573 -4.218508 67.676048 29 23 22
-8.152658 -4.072165 67.668465 32 26 25
-8.151992 -3.925973 67.662933 34 28 26
-8.151537 -3.779904 67.659149 35 30 28
-8.151253 -3.633927 67.656792 35 30 29
-8.151094 -3.488014 67.655479 32 28 27
-8.151019 -3.342140 67.654854 30 25 24
-8.150983 -3.196285 67.654549 28 24 23
-8.150943 -3.050430 67.654221 27 23 22
-8.150863 -2.904562 67.653557 27 23 22
-8.150708 -2.758671 67.652275 27 23 23
-8.150451 -2.612753 67.650139 27 23 23
-8.150068 -2.466806 67.646965 26 22 22
-8.149544 -2.320833 67.642609 24 20 21
-8.148866 -2.174837 67.636978 21 17 18
-8.148028 -2.028826 67.630028 20 16 16
-8.147032 -1.882808 67.621758 20 16 16
-8.145878 -1.736793 67.612175 20 16 16
-8.144573 -1.590789 67.601349 20 17 17
-8.143125 -1.444806 67.589333 21 18 17
-8.141541 -1.298854 67.576187 22 18 18
-8.139833 -1.152940 67.562012 23 18 18
-8.138008 -1.007074 67.546860 24 18 18
-8.136073 -0.861260 67.530800 25 19 19
-8.134035 -0.715508 67.513885 27 20 19
-8.131901 -0.569821 67.496170 29 21 20
-8.129672 -0.424205 67.477669 31 22 21
-8.127355 -0.278667 67.458435 33 24 23
-8.124952 -0.133210 67.438499 36 25 25
-8.122470 0.012161 67.417892 39 27 28
-8.119912 0.157442 67.396660 43 30 32
-8.117287 0.302628 67.374863 47 33 36
-8.114603 0.447718 67.352592 51 34 39
-8.111872 0.592708 67.329926 54 36 43
-8.109108 0.737597 67.306984 57 37 46
-8.106327 0.882385 67.283897 60 38 47
-8.103545 1.027074 67.260811 62 40 48
-8.100783 1.171666 67.237885 64 41 47
-8.098059 1.316166 67.215279 65 41 46
-8.095393 1.460578 67.193146 64 40 43
-8.092806 1.604911 67.171677 62 38 40
-8.090316 1.749172 67.151001 60 36 37
-8.087938 1.893371 67.131271 57 34 34
-8.085690 2.037517 67.112617 55 31 32
-8.083584 2.181620 67.095131 54 31 31
-8.081629 2.325692 67.078903 54 31 32
-8.079832 2.469742 67.063988 53 31 32
-8.078197 2.613781 67.050415 52 32 32
-8.076723 2.757816 67.038185 51 31 31
-8.075409 2.901855 67.027275 50 30 31
-8.074247 3.045905 67.017639 49 30 31
-8.073229 3.189970 67.009186 48 30 31
-8.072342 3.334053 67.001823 48 30 30
-8.071573 3.478155 66.995445 47 30 29
-8.070906 3.622275 66.989899 47 30 29
-8.070322 3.766411 66.985062 48 31 30
-8.069805 3.910557 66.980766 49 31 30
-8.069336 4.054709 66.976868 47 30 28
-8.068895 4.198860 66.973213 45 28 26
-8.068469 4.343001 66.969673 45 28 26
-8.068038 4.487126 66.966095 45 29 28
-8.067589 4.631225 66.962372 45 29 28
-8.067110 4.775289 66.958389 45 29 28
-8.066589 4.919312 66.954071 46 29 28
-8.066018 5.063283 66.949326 46 29 28
-8.065389 5.207197 66.944107 46 28 28
-8.064695 5.351046 66.938354 46 29 28
-8.063932 5.494823 66.932022 46 30 28
-8.063097 5.638521 66.925087 46 29 28
-8.062185 5.782135 66.917519 45 29 27
-8.061194 5.925659 66.909294 43 28 26
-8.060122 6.069086 66.900398 43 27 25
-8.058969 6.212410 66.890816 42 27 25
-8.057731 6.355628 66.880547 42 27 25
-8.056411 6.498735 66.869591 41 27 26
-8.055010 6.641728 66.857956 40 26 25
-8.053531 6.784606 66.845688 39 26 25
-8.051982 6.927370 66.832825 39 25 25
-8.050369 7.070023 66.819443 39 25 25
-8.048705 7.212572 66.805634 39 25 25
-8.047007 7.355030 66.791527 39 25 25
-8.045288 7.497408 66.777267 40 25 25
-8.043574 7.639730 66.763046 43 26 26
-8.041889 7.782018 66.749054 45 28 28
-8.040258 7.924299 66.735519 45 28 28
-8.038712 8.066606 66.722679 46 28 29
-8.037275 8.208971 66.710762 46 28 30
-8.035981 8.351432 66.700020 47 28 31
-8.034854 8.494022 66.690659 48 30 31
-8.033916 8.636778 66.682884 49 31 32
-8.033188 8.779727 66.676834 50 31 32
-8.032681 8.922896 66.672623 50 32 32
-8.032402 9.066305 66.670311 49 31 31
-8.032350 9.209964 66.669876 48 30 30
-8.032514 9.353873 66.671242 45 29 28
-8.032879 9.498026 66.674271 43 28 27
-8.033419 9.642401 66.678749 42 27 26
-8.034101 9.786969 66.684410 41 27 26
-8.034887 9.931690 66.690941 40 27 26
-8.035737 10.076518 66.697990 39 27 25
-8.036603 10.221399 66.705185 38 26 25
-8.037442 10.366275 66.712143 37 26 24
-8.038209 10.511086 66.718513 36 26 24
-8.038862 10.655775 66.723930 36 26 24
-8.039366 10.800286 66.728119 35 26 24
-8.039693 10.944574 66.730827 34 25 23
-8.039820 11.088598 66.731880 33 25 22
-8.039736 11.232332 66.731186 32 24 21
-8.039438 11.375762 66.728714 32 24 21
-8.038936 11.518887 66.724548 33 23 21
-8.038246 11.661721 66.718819 33 23 20
-8.037394 11.804292 66.711739 34 23 20
-8.036413 11.946643 66.703606 35 23 21
-8.035348 12.088832 66.694763 35 23 21
-8.034245 12.230923 66.685608 35 22 21
-8.033153 12.372993 66.676544 34 22 21
-8.032127 12.515127 66.668037 34 22 21
-8.031221 12.657413 66.660515 33 22 21
-8.030489 12.799944 66.654434 32 22 21
-8.029980 12.942807 66.650208 32 22 21
-8.029739 13.086090 66.648209 32 22 21
-8.029806 13.229872 66.648766 32 22 21
-8.030213 13.374223 66.652145 32 22 20
-8.030986 13.519202 66.658554 32 22 19
-8.032135 13.664851 66.668098 32 22 19
-8.033667 13.811197 66.680809 32 22 19
-8.035573 13.958250 66.696625 32 22 20
-8.037836 14.105997 66.715416 31 22 21
-8.040427 14.254407 66.736923 30 22 22
-8.043302 14.403417 66.760780 31 22 23
-8.046414 14.552959 66.786613 31 22 23
-8.049707 14.702944 66.813950 31 23 23
-8.053117 14.853262 66.842255 32 23 22
-8.056576 15.003792 66.870956 33 23 22
-8.060010 15.154401 66.899467 33 23 22
-8.063347 15.304946 66.927155 31 21 20
-8.066514 15.455288 66.953445 29 19 19
-8.069442 15.605279 66.977745 28 19 18
-8.072065 15.754780 66.999519 27 20 19
-8.074323 15.903655 67.018257 27 20 19
-8.076159 16.051775 67.033508 27 20 19
-8.077528 16.199020 67.044861 26 20 18
-8.078382 16.345276 67.051956 26 20 18
-8.078685 16.490435 67.054466 27 19 18
-8.078397 16.634390 67.052078 27 19 18
-8.077484 16.777035 67.044502 27 19 18
-8.075908 16.918259 67.031418 28 20 19
-8.073629 17.057941 67.012505 29 20 18
-8.070606 17.195955 66.987411 28 20 18
-8.066791 17.332161 66.955750 28 20 18
-8.062132 17.466400 66.917076 28 20 18
-8.056574 17.598511 66.870941 27 20 18
-8.050064 17.728325 66.816910 27 19 18
-8.042550 17.855677 66.754539 27 19 18
-8.033986 17.980412 66.683456 26 19 18
-8.024339 18.102394 66.603386 26 19 17
-8.013593 18.221535 66.514191 27 20 17
-8.001752 18.337782 66.415909 27 20 17
-7.988848 18.451149 66.308807 28 20 18
-7.974940 18.561718 66.193375 28 20 18
-7.960118 18.669645 66.070343 28 20 18
-7.944503 18.775167 65.940735 28 20 18
-7.928241 18.878592 65.805763 29 20 18
-7.911507 18.980299 65.666862 29 20 17
-7.894491 19.080727 65.525627 29 20 17
-7.877397 19.180355 65.383743 29 20 17
-7.860433 19.279694 65.242935 29 21 17
-7.843803 19.379250 65.104912 29 21 17
-7.827703 19.479527 64.971275 29 22 18
-7.812305 19.580990 64.843468 29 22 18
-7.797763 19.684063 64.722771 29 22 18
-7.784200 19.789103 64.610191 29 21 18
-7.771709 19.896402 64.506516 29 21 18
-7.760351 20.006174 64.412239 29 20 18
-7.750156 20.118563 64.327621 29 20 19
-7.741128 20.233633 64.252686 29 21 20
-7.733245 20.351393 64.187256 29 22 20
-7.726464 20.471792 64.130974 29 22 20
-7.720729 20.594742 64.083374 29 22 20
-7.715976 20.720119 64.043922 28 21 19
-7.712133 20.847788 64.012024 28 22 20
-7.709136 20.977621 63.987148 28 21 19
-7.706918 21.109480 63.968739 28 21 19
-7.705424 21.243258 63.956341 28 21 20
-7.704610 21.378866 63.949581 29 22 20
-7.704441 21.516249 63.948181 30 22 22
-7.704897 21.655382 63.951969 31 23 23
-7.705971 21.796276 63.960876 31 23 23
-7.707663 21.938971 63.974922 30 24 23
-7.709986 22.083532 63.994202 30 24 22
-7.712961 22.230057 64.018898 30 24 21
-7.716614 22.378653 64.049217 30 23 21
-7.720975 22.529448 64.085411 30 23 21
-7.726079 22.682581 64.127785 30 23 21
-7.731963 22.838196 64.176613 31 23 21
-7.738661 22.996445 64.232208 32 23 20
-7.746211 23.157476 64.294868 33 22 20
-7.754646 23.321445 64.364891 33 22 20
-7.764006 23.488508 64.442574 34 22 21
-7.774322 23.658819 64.528198 34 23 22
-8.050824 -8.934759 68.040627 12 13 12
-8.052525 -8.789943 68.055000 13 13 11
-8.053936 -8.644753 68.066925 14 14 11
-8.055044 -8.499193 68.076286 15 14 11
-8.055832 -8.353261 68.082947 14 14 10
-8.056285 -8.206959 68.086784 14 13 8
-8.056389 -8.060290 68.087662 12 12 7
-8.056129 -7.913261 68.085464 11 11 7
-8.055498 -7.765883 68.080124 11 11 6
-8.054486 -7.618169 68.071579 11 11 6
-8.053094 -7.470138 68.059807 10 10 6
-8.051323 -7.321814 68.044846 10 10 6
-8.049185 -7.173226 68.026772 11 9 6
-8.046696 -7.024410 68.005737 11 9 6
-8.043880 -6.875406 67.981941 12 9 6
-8.040769 -6.726257 67.955643 13 9 7
-8.037400 -6.577012 67.927177 14 10 8
-8.033819 -6.427718 67.896912 15 10 9
-8.030075 -6.278428 67.865273 15 10 10
-8.026224 -6.129192 67.832718 15 9 11
-8.022322 -5.980059 67.799736 15 9 11
-8.018426 -5.831072 67.766815 15 9 11
-8.014595 -5.682274 67.734436 16 10 11
-8.010885 -5.533699 67.703087 15 10 10
-8.007347 -5.385375 67.673187 15 11 11
-8.004028 -5.237322 67.645134 16 12 11
-8.000966 -5.089554 67.619255 17 12 11
-7.998192 -4.942076 67.595810 18 13 12
-7.995728 -4.794885 67.574989 19 14 13
-7.993589 -4.647972 67.556915 21 16 14
-7.991776 -4.501321 67.541595 23 18 16
-7.990285 -4.354911 67.528992 27 21 19
-7.989100 -4.208717 67.518974 32 26 24
-7.988200 -4.062711 67.511360 36 30 28
-7.987553 -3.916862 67.505898 35 31 29
-7.987126 -3.771140 67.502289 34 31 29
-7.986879 -3.625516 67.500198 33 30 28
-7.986770 -3.479961 67.499283 30 28 26
-7.986758 -3.334450 67.499176 28 25 24
-7.986800 -3.188961 67.499527 27 24 22
-7.986855 -3.043476 67.499992 26 23 21
-7.986887 -2.897980 67.500267 26 23 21
-7.986863 -2.752465 67.500061 27 24 22
-7.986754 -2.606922 67.499153 26 23 22
-7.986540 -2.461350 67.497330 25 22 21
-7.986202 -2.315751 67.494476 23 19 19
-7.985728 -2.170127 67.490479 20 17 17
-7.985113 -2.024484 67.485275 18 16 15
-7.984354 -1.878830 67.478859 19 16 15
-7.983452 -1.733172 67.471237 20 17 16
-7.982411 -1.587520 67.462448 20 17 17
-7.981238 -1.441882 67.452530 21 17 17
-7.979939 -1.296266 67.441551 21 17 17
-7.978520 -1.150680 67.429558 22 17 16
-7.976988 -1.005132 67.416611 23 17 17
-7.975348 -0.859627 67.402756 24 18 17
-7.973606 -0.714174 67.388023 25 19 18
-7.971762 -0.568776 67.372444 27 20 19
-7.969821 -0.423441 67.356041 29 21 19
-7.967784 -0.278173 67.338829 31 22 20
-7.965654 -0.132977 67.320824 33 23 22
-7.963433 0.012140 67.302055 36 25 25
-7.961125 0.157175 67.282547 39 28 29
-7.958737 0.302123 67.262367 42 30 33
-7.956277 0.446980 67.241570 46 32 37
-7.953753 0.591742 67.220245 50 34 41
-7.951181 0.736408 67.198502 54 36 44
-7.948575 0.880977 67.176476 58 39 47
-7.945951 1.025448 67.154312 63 41 49
-7.943330 1.169824 67.132156 66 43 50
-7.940731 1.314108 67.110184 67 43 49
-7.938174 1.458305 67.088577 66 42 46
-7.935679 1.602422 67.067497 65 39 43
-7.933269 1.746466 67.047119 63 37 39
-7.930958 1.890447 67.027596 60 35 36
-7.928767 2.034373 67.009071 58 33 35
-7.926709 2.178257 66.991676 57 32 34
-7.924795 2.322107 66.975510 56 32 34
-7.923037 2.465937 66.960648 54 33 34
-7.921439 2.609755 66.947144 53 32 33
-7.920005 2.753572 66.935028 51 32 32
-7.918736 2.897397 66.924294 50 31 32
-7.917626 3.041237 66.914917 50 31 33
-7.916670 3.185098 66.906837 49 30 32
-7.915859 3.328985 66.899986 48 30 30
-7.915180 3.472902 66.894249 48 30 30
-7.914620 3.616847 66.889511 48 30 30
-7.914163 3.760821 66.885651 48 31 30
-7.913792 3.904821 66.882515 49 32 30
-7.913491 4.048843 66.879967 48 30 28
-7.913241 4.192881 66.877861 46 28 26
-7.913025 4.336929 66.876038 47 29 27
-7.912830 4.480980 66.874382 47 29 28
-7.912638 4.625027 66.872765 47 29 30
-7.912438 4.769062 66.871071 47 30 30
-7.912218 4.913076 66.869209 47 30 30
-7.911967 5.057064 66.867096 47 29 29
-7.911678 5.201016 66.864647 46 29 28
-7.911342 5.344927 66.861809 47 30 29
-7.910954 5.488790 66.858528 48 30 29
-7.910509 5.632597 66.854767 47 30 29
-7.910002 5.776343 66.850479 46 30 28
-7.909429 5.920021 66.845634 45 29 27
-7.908785 6.063624 66.840202 44 28 26
-7.908070 6.207148 66.834152 44 28 27
-7.907280 6.350586 66.827484 43 28 27
-7.906415 6.493933 66.820175 42 27 27
-7.905476 6.637186 66.812233 41 27 27
-7.904464 6.780343 66.803680 40 26 26
-7.903384 6.923403 66.794548 40 26 26
-7.902243 7.066369 66.784904 39 25 26
-7.901051 7.209247 66.774834 40 25 26
-7.899821 7.352047 66.764442 40 25 25
-7.898571 7.494782 66.753876 41 25 25
-7.897321 7.637472 66.743309 44 26 26
-7.896091 7.780137 66.732918 46 28 28
-7.894909 7.922804 66.722931 46 28 29
-7.893800 8.065503 66.713554 47 29 30
-7.892792 8.208266 66.705032 47 29 31
-7.891910 8.351127 66.697578 48 29 32
-7.891180 8.494118 66.691414 48 31 32
-7.890623 8.637273 66.686707 49 32 33
-7.890258 8.780621 66.683617 50 32 33
-7.890094 8.924182 66.682228 50 32 33
-7.890137 9.067977 66.682594 50 32 32
-7.890386 9.212012 66.684700 48 31 31
-7.890830 9.356288 66.688454 47 30 30
-7.891451 9.500793 66.693703 45 29 29
-7.892224 9.645508 66.700233 44 28 28
-7.893117 9.790399 66.707779 43 28 27
-7.894092 9.935425 66.716019 42 28 26
-7.895107 10.080539 66.724602 40 27 25
-7.896118 10.225684 66.733147 39 27 24
-7.897079 10.370801 66.741272 38 27 24
-7.897948 10.515829 66.748611 38 26 24
-7.898684 10.660708 66.754829 37 26 24
-7.899250 10.805385 66.759613 35 26 24
-7.899619 10.949807 66.762733 34 26 23
-7.899769 11.093936 66.764000 33 25 22
-7.899689 11.237742 66.763329 32 25 21
-7.899376 11.381211 66.760681 32 24 21
-7.898838 11.524340 66.756134 33 24 21
-7.898091 11.667139 66.749817 33 24 21
-7.897159 11.809637 66.741943 34 24 21
-7.896078 11.951872 66.732803 35 24 21
