ply
format ascii 1.0
element vertex 1176
property float x
property float y
property float z
property uchar red
property uchar green
property uchar blue
end_header
-8.938601 8.693590 62.931900 108 106 118
-8.954030 8.844491 63.040535 108 105 117
-8.969376 8.995776 63.148575 107 103 115
-8.984638 9.147442 63.256027 108 103 115
-8.999819 9.299487 63.362911 112 107 119
-9.014925 9.451915 63.469265 116 110 123
-9.029962 9.604727 63.575130 114 107 121
-9.044938 9.757931 63.680573 107 99 114
-9.059867 9.911536 63.785675 102 94 110
-9.074759 10.065556 63.890526 100 92 108
-9.089631 10.220003 63.995232 98 90 106
-9.104496 10.374894 64.099892 96 88 103
-9.119370 10.530247 64.204605 94 87 100
-9.134265 10.686076 64.309479 92 86 99
-9.149192 10.842395 64.414566 91 84 97
-9.164158 10.999213 64.519936 89 81 96
-9.179166 11.156538 64.625595 96 87 102
-9.194215 11.314368 64.731544 103 93 109
-9.209296 11.472695 64.837730 99 88 104
-9.224395 11.631501 64.944023 91 78 94
-9.239490 11.790763 65.050301 88 74 89
-9.254554 11.950441 65.156357 88 74 88
-9.269551 12.110491 65.261948 88 73 88
-9.284442 12.270854 65.366791 89 73 88
-9.299182 12.431467 65.470566 89 73 88
-9.313720 12.592256 65.572922 88 72 88
-9.328006 12.753140 65.673500 87 71 88
-9.341988 12.914038 65.771935 86 70 87
-9.355615 13.074864 65.867874 84 69 87
-9.368839 13.235537 65.960991 82 68 85
-9.381620 13.395976 66.050972 81 67 85
-9.393922 13.556111 66.137581 82 67 86
-9.405718 13.715883 66.220627 82 67 86
-9.416992 13.875244 66.300003 82 66 86
-9.427738 14.034162 66.375656 82 66 85
-9.437962 14.192618 66.447639 82 65 83
-9.447681 14.350621 66.516068 82 64 81
-9.456924 14.508188 66.581146 82 63 78
-9.465732 14.665359 66.643150 82 62 75
-9.474150 14.822190 66.702423 81 62 74
-9.482236 14.978751 66.759354 80 61 73
-9.490054 15.135131 66.814392 79 61 73
-9.497670 15.291422 66.868019 78 60 73
-9.505155 15.447730 66.920708 76 60 73
-9.512576 15.604162 66.972961 75 60 72
-9.520006 15.760834 67.025269 73 60 71
-9.527511 15.917856 67.078102 71 59 70
-9.535155 16.075342 67.131927 70 60 70
-9.542999 16.233398 67.187149 70 60 71
-9.551098 16.392132 67.244171 70 62 72
-9.559502 16.551638 67.303337 70 62 72
-9.568258 16.712015 67.364983 69 63 72
-9.577407 16.873350 67.429398 69 63 72
-9.586991 17.035736 67.496880 69 63 71
-9.597049 17.199261 67.567688 69 63 70
-9.607615 17.364010 67.642075 69 62 69
-9.618730 17.530081 67.720329 70 62 69
-9.630433 17.697569 67.802727 70 62 68
-9.642767 17.866583 67.889565 70 62 67
-9.655776 18.037231 67.981155 70 61 67
-9.669509 18.209637 68.077835 71 60 67
-9.684017 18.383932 68.179985 71 59 67
-9.699351 18.560247 68.287941 71 59 67
-9.715565 18.738726 68.402100 72 58 69
-9.732709 18.919504 68.522797 73 59 70
-9.750833 19.102722 68.650398 74 59 70
-9.769978 19.288506 68.785187 74 60 70
-9.790179 19.476973 68.927414 75 60 70
-9.811464 19.668226 69.077271 74 61 69
-9.833852 19.862350 69.234886 73 62 68
-9.857347 20.059408 69.400299 72 62 67
-9.881944 20.259441 69.573479 72 62 66
-9.907632 20.462473 69.754333 72 63 66
-9.934388 20.668505 69.942711 73 63 67
-9.962185 20.877531 70.138412 72 64 68
-9.990991 21.089533 70.341225 72 64 68
-10.020775 21.304485 70.550911 71 63 67
-10.051506 21.522371 70.767281 71 62 67
-10.083161 21.743183 70.990143 71 61 66
-10.115721 21.966919 71.219383 71 60 65
-10.149177 22.193604 71.454926 71 60 66
-10.183530 22.423279 71.696785 72 60 67
-10.218790 22.656008 71.945038 72 60 68
-10.254975 22.891872 72.199799 72 61 69
-10.292112 23.130974 72.461258 73 61 70
-10.330232 23.373426 72.729637 72 61 71
-10.369370 23.619354 73.005188 71 61 72
-10.409558 23.868881 73.288132 70 61 73
-10.450808 24.122076 73.578545 69 61 73
-10.493153 24.379066 73.876671 68 61 73
-10.536603 24.639929 74.182579 67 61 72
-10.581157 24.904709 74.496269 66 61 71
-10.626794 25.173405 74.817574 65 61 69
-10.673474 25.445974 75.146225 65 61 68
-10.721133 25.722307 75.481758 65 61 67
-10.769677 26.002226 75.823540 65 61 67
-10.818985 26.285471 76.170685 65 60 65
-10.868893 26.571682 76.522057 64 59 64
-10.919196 26.860380 76.876221 65 58 64
-10.969644 27.150961 77.231392 66 59 64
-11.019926 27.442663 77.585403 68 59 65
-11.069677 27.734562 77.935677 69 59 66
-11.118468 28.025549 78.279182 71 59 66
-11.165799 28.314316 78.612419 72 60 67
-11.211109 28.599361 78.931419 73 61 68
-11.253766 28.878977 79.231750 73 61 69
-11.293087 29.151272 79.508583 74 62 70
-11.328340 29.414202 79.756783 74 62 72
-11.358768 29.665600 79.971008 74 63 73
-8.566443 -11.738322 61.241199 169 140 151
-8.558516 -11.595566 61.184521 171 141 152
-8.549977 -11.452235 61.123482 172 142 152
-8.540808 -11.308332 61.057922 170 140 149
-8.530994 -11.163871 60.987774 169 138 147
-8.520537 -11.018879 60.913017 171 139 148
-8.509445 -10.873397 60.833714 173 141 150
-8.497735 -10.727477 60.750000 174 142 152
-8.485438 -10.581186 60.662094 174 142 152
-8.472593 -10.434600 60.570263 173 141 151
-8.459249 -10.287804 60.474873 174 142 153
-8.445467 -10.140890 60.376343 175 143 156
-8.431314 -9.993962 60.275154 175 144 156
-8.416864 -9.847125 60.171856 175 144 156
-8.402202 -9.700486 60.067036 175 144 156
-8.387416 -9.554159 59.961334 174 144 155
-8.372599 -9.408253 59.855408 175 145 155
-8.357847 -9.262877 59.749950 178 148 158
-8.343259 -9.118132 59.645657 182 152 161
-8.328932 -8.974119 59.543232 186 156 164
-8.314960 -8.830926 59.443352 190 159 167
-8.301438 -8.688633 59.346680 193 162 170
-8.288452 -8.547310 59.253845 195 163 172
-8.276083 -8.407014 59.165417 196 164 173
-8.264403 -8.267789 59.081921 198 166 174
-8.253476 -8.129664 59.003799 198 167 174
-8.243354 -7.992658 58.931442 198 167 174
-8.234078 -7.856771 58.865128 199 168 175
-8.225679 -7.721993 58.805084 199 169 175
-8.218173 -7.588298 58.751427 198 169 175
-8.211564 -7.455650 58.704178 197 168 175
-8.205845 -7.323998 58.663284 195 168 175
-8.200993 -7.193284 58.628597 194 168 175
-8.196974 -7.063437 58.599869 194 168 175
-8.193745 -6.934383 58.576786 194 169 177
-8.191251 -6.806039 58.558960 195 170 178
-8.189428 -6.678319 58.545929 196 171 178
-8.188204 -6.551135 58.537174 194 170 178
-8.187500 -6.424396 58.532143 193 170 178
-8.187235 -6.298016 58.530247 194 171 180
-8.187323 -6.171911 58.530872 197 174 183
-8.187677 -6.046000 58.533409 199 177 186
-8.188213 -5.920209 58.537243 199 178 186
-8.188850 -5.794474 58.541794 196 175 183
-8.189509 -5.668733 58.546505 197 175 183
-8.190117 -5.542938 58.550850 200 178 186
-8.190608 -5.417047 58.554363 203 180 190
-8.190927 -5.291029 58.556641 204 180 191
-8.191022 -5.164861 58.557320 204 181 192
-8.190854 -5.038527 58.556118 204 180 194
-8.190390 -4.912022 58.552803 204 181 195
-8.189609 -4.785345 58.547215 204 180 195
-8.188493 -4.658503 58.539242 202 179 194
-8.187037 -4.531506 58.528835 201 179 193
-8.185242 -4.404371 58.515995 203 182 195
-8.183112 -4.277118 58.500774 205 184 197
-8.180661 -4.149766 58.483253 206 186 198
-8.177907 -4.022342 58.463562 207 187 199
-8.174872 -3.894868 58.441868 208 187 199
-8.171583 -3.767370 58.418350 207 186 199
-8.168069 -3.639874 58.393227 209 187 199
-8.164363 -3.512404 58.366737 209 187 199
-8.160502 -3.384984 58.339142 209 187 198
-8.156526 -3.257636 58.310703 209 187 198
-8.152471 -3.130380 58.281719 208 185 197
-8.148379 -3.003237 58.252472 206 183 195
-8.144293 -2.876221 58.223255 204 183 196
-8.140253 -2.749347 58.194374 203 182 197
-8.136299 -2.622625 58.166107 202 182 197
-8.132467 -2.496062 58.138718 202 183 198
-8.128796 -2.369664 58.112469 201 182 198
-8.125314 -2.243432 58.087574 200 181 197
-8.122047 -2.117363 58.064224 200 180 196
-8.119020 -1.991454 58.042576 200 179 194
-8.116245 -1.865696 58.022739 201 180 194
-8.113732 -1.740080 58.004784 202 181 194
-8.111488 -1.614594 57.988735 203 182 194
-8.109509 -1.489226 57.974590 203 183 194
-8.107790 -1.363963 57.962299 203 183 194
-8.106319 -1.238792 57.951782 204 183 195
-8.105083 -1.113697 57.942947 204 183 196
-8.104067 -0.988668 57.935680 204 183 196
-8.103254 -0.863691 57.929871 204 182 197
-8.102630 -0.738757 57.925407 204 182 196
-8.102180 -0.613855 57.922199 203 182 196
-8.101898 -0.488978 57.920177 203 181 196
-8.101776 -0.364116 57.919304 203 181 196
-8.101813 -0.239262 57.919571 202 180 195
-8.102014 -0.114410 57.921005 200 180 194
-8.102387 0.010449 57.923676 199 179 195
-8.102946 0.135322 57.927670 197 178 194
-8.103706 0.260219 57.933105 196 177 194
-8.104690 0.385150 57.940132 195 177 194
-8.105914 0.510126 57.948891 194 176 192
-8.107407 0.635161 57.959557 192 176 190
-8.109185 0.760269 57.972275 191 175 189
-8.111272 0.885466 57.987186 191 175 188
-8.113684 1.010767 58.004433 191 174 188
-8.116437 1.136191 58.024113 191 174 189
-8.119542 1.261754 58.046314 191 174 190
-8.123009 1.387474 58.071098 191 173 189
-8.126842 1.513370 58.098507 191 172 189
-8.131048 1.639458 58.128567 190 172 188
-8.135625 1.765757 58.161289 188 171 187
-8.140575 1.892284 58.196678 188 170 185
-8.145898 2.019056 58.234730 188 169 183
-8.151595 2.146090 58.275459 189 169 181
-8.157669 2.273405 58.318886 190 168 180
-8.164124 2.401020 58.365032 191 168 180
-8.170967 2.528953 58.413952 191 167 179
-8.178207 2.657226 58.465710 189 165 177
-8.185856 2.785861 58.520390 188 162 175
-8.193926 2.914882 58.578075 187 159 174
-8.202430 3.044313 58.638878 186 158 173
-8.211385 3.174181 58.702896 187 159 174
-8.220805 3.304511 58.770241 189 160 176
-8.230701 3.435330 58.840984 190 160 176
-8.241084 3.566665 58.915211 190 159 175
-8.251960 3.698541 58.992958 189 156 172
-8.263330 3.830981 59.074242 189 155 169
-8.275191 3.964007 59.159046 189 153 167
-8.287538 4.097638 59.247303 188 151 165
-8.300352 4.231889 59.338921 187 147 161
-8.313619 4.366772 59.433762 186 145 159
-8.327312 4.502295 59.531647 186 144 156
-8.341402 4.638460 59.632381 185 143 154
-8.355858 4.775269 59.735725 183 141 151
-8.370644 4.912717 59.841431 181 139 149
-8.385722 5.050797 59.949226 179 136 146
-8.401055 5.189498 60.058842 177 133 144
-8.416605 5.328810 60.170010 176 131 143
-8.432335 5.468718 60.282455 176 131 144
-8.448207 5.609205 60.395931 174 130 144
-8.464190 5.750257 60.510197 171 129 144
-8.480255 5.891857 60.625034 168 128 144
-8.496372 6.033991 60.740257 165 128 142
-8.512519 6.176642 60.855690 161 126 140
-8.528675 6.319798 60.971191 161 128 141
-8.544825 6.463448 61.086643 164 134 145
-8.560952 6.607577 61.201939 166 137 148
-8.577048 6.752179 61.317005 160 135 145
-8.593102 6.897244 61.431782 151 130 139
-8.609109 7.042765 61.546211 147 129 138
-8.625062 7.188735 61.660259 147 133 141
-8.640958 7.335146 61.773891 142 132 140
-8.656791 7.481994 61.887085 129 123 132
-8.672558 7.629272 61.999802 118 114 125
-8.688254 7.776974 62.112019 113 110 124
-8.703877 7.925091 62.223705 111 109 123
-8.719420 8.073616 62.334824 109 107 122
-8.734879 8.222542 62.445339 109 107 122
-8.750249 8.371858 62.555214 109 108 121
-8.765525 8.521556 62.664421 108 107 121
-8.780702 8.671628 62.772919 108 107 120
-8.795776 8.822065 62.880692 108 106 119
-8.810748 8.972861 62.987717 106 103 116
-8.825614 9.124011 63.093998 108 104 117
-8.840380 9.275513 63.199558 114 109 123
-8.855049 9.427366 63.304424 117 111 126
-8.869629 9.579576 63.408657 112 105 120
-8.884130 9.732149 63.512325 104 97 113
-8.898564 9.885096 63.615517 101 93 110
-8.912949 10.038429 63.718349 99 92 108
-8.927298 10.192167 63.820930 98 90 105
-8.941630 10.346328 63.923393 95 88 102
-8.955962 10.500930 64.025856 93 87 99
-8.970312 10.655993 64.128433 92 86 97
-8.984692 10.811536 64.231239 92 85 97
-8.999113 10.967573 64.334335 90 82 96
-9.013584 11.124116 64.437790 93 84 99
-9.028107 11.281169 64.541611 97 87 102
-9.042676 11.438728 64.645767 95 84 100
-9.057281 11.596784 64.750183 91 79 95
-9.071908 11.755316 64.854744 90 78 93
-9.086531 11.914294 64.959274 89 76 91
-9.101118 12.073676 65.063560 89 76 90
-9.115634 12.233413 65.167343 89 75 89
-9.130039 12.393445 65.270317 89 75 89
-9.144283 12.553701 65.372154 89 75 89
-9.158321 12.714110 65.472511 88 74 88
-9.172102 12.874591 65.571030 87 72 88
-9.185578 13.035063 65.667366 86 71 87
-9.198703 13.195446 65.761192 85 70 87
-9.211434 13.355665 65.852211 84 68 87
-9.223739 13.515650 65.940178 83 68 87
-9.235588 13.675341 66.024887 83 67 87
-9.246965 13.834690 66.106224 83 67 88
-9.257864 13.993667 66.184135 83 66 87
-9.268286 14.152251 66.258644 83 66 86
-9.278248 14.310447 66.329857 83 65 83
-9.287774 14.468271 66.397964 83 64 80
-9.296900 14.625759 66.463203 82 63 77
-9.305671 14.782965 66.525902 81 63 76
-9.314138 14.939956 66.586441 81 63 75
-9.322362 15.096810 66.645233 79 62 75
-9.330403 15.253622 66.702721 78 62 74
-9.338329 15.410489 66.759377 76 61 74
-9.346203 15.567514 66.815666 75 61 73
-9.354092 15.724808 66.872063 73 61 71
-9.362058 15.882476 66.929008 71 61 70
-9.370162 16.040627 66.986946 70 61 70
-9.378459 16.199360 67.046265 71 62 71
-9.387003 16.358778 67.107346 71 63 72
-9.395841 16.518976 67.170525 71 64 72
-9.405015 16.680044 67.236107 71 64 72
-9.414566 16.842070 67.304398 71 64 72
-9.424534 17.005138 67.375648 71 64 72
-9.434953 17.169340 67.450142 71 63 71
-9.445862 17.334759 67.528122 71 63 71
-9.457297 17.501488 67.609879 71 63 70
-9.469299 17.669628 67.695679 71 62 69
-9.481911 17.839285 67.785835 71 62 69
-9.495175 18.010569 67.880669 71 61 69
-9.509143 18.183607 67.980522 72 60 69
-9.523866 18.358528 68.085770 72 59 69
-9.539395 18.535473 68.196793 72 59 69
-9.555784 18.714581 68.313957 73 58 70
-9.573086 18.895992 68.437645 74 59 71
-9.591348 19.079849 68.568199 75 60 72
-9.610614 19.266281 68.705933 76 60 71
-9.630919 19.455408 68.851097 75 62 70
-9.652291 19.647329 69.003883 74 63 69
-9.674749 19.842138 69.164436 74 63 69
-9.698300 20.039898 69.332794 72 63 67
-9.722939 20.240650 69.508949 71 63 67
-9.748658 20.444422 69.692802 72 64 68
-9.775434 20.651222 69.884224 73 64 69
-9.803243 20.861044 70.083023 73 64 70
-9.832055 21.073877 70.289009 73 64 70
-9.861843 21.289701 70.501961 73 63 70
-9.892580 21.508511 70.721695 73 62 69
-9.924244 21.730293 70.948067 73 61 68
-9.956821 21.955069 71.180962 73 61 68
-9.990307 22.182863 71.420341 74 61 68
-10.024702 22.413723 71.666237 74 61 69
-10.060020 22.647722 71.918724 74 61 69
-10.096282 22.884949 72.177956 74 61 70
-10.133514 23.125505 72.444122 74 61 71
-10.171747 23.369511 72.717453 73 61 72
-10.211016 23.617090 72.998184 72 62 73
-10.251351 23.868364 73.286545 71 62 73
-10.292759 24.123392 73.582565 69 62 73
-10.335270 24.382299 73.886467 68 61 72
-10.378889 24.645151 74.198303 67 61 71
-10.423610 24.911978 74.518013 66 61 69
-10.469405 25.182768 74.845398 65 61 68
-10.516226 25.457453 75.180122 65 61 67
-10.564004 25.735910 75.521683 66 61 67
-10.612638 26.017942 75.869362 66 61 67
-10.661999 26.303263 76.222244 66 61 66
-10.711917 26.591492 76.579109 66 59 65
-10.762185 26.882133 76.938477 67 59 65
-10.812546 27.174553 77.298500 68 59 65
-10.862687 27.467974 77.656960 70 59 66
-10.912243 27.761450 78.011230 71 59 66
-10.960783 28.053852 78.358246 72 59 66
-11.007811 28.343857 78.694435 74 61 67
-11.052766 28.629944 79.015831 75 62 68
-11.095027 28.910395 79.317947 75 62 69
-11.133915 29.183306 79.595955 75 63 71
-11.168708 29.446623 79.844688 76 64 72
-11.198662 29.698175 80.058830 76 65 73
-8.438313 -11.875805 61.269405 167 138 148
-8.430952 -11.733483 61.215954 168 138 148
-8.423008 -11.590592 61.158279 170 139 150
-8.414457 -11.447123 61.096191 171 140 150
-8.405281 -11.303080 61.029560 170 139 147
-8.395469 -11.158479 60.958313 169 137 146
-8.385020 -11.013350 60.882454 171 139 147
-8.373947 -10.867737 60.802052 172 140 149
-8.362268 -10.721694 60.717255 174 141 151
-8.350015 -10.575289 60.628281 175 142 151
-8.337226 -10.428597 60.535423 174 142 151
-8.323951 -10.281707 60.439037 175 143 153
-8.310250 -10.134712 60.339558 175 144 154
-8.296190 -9.987714 60.237469 175 144 155
-8.281844 -9.840816 60.133305 175 144 155
-8.267295 -9.694127 60.027660 175 144 154
-8.252627 -9.547759 59.921165 174 144 154
-8.237933 -9.401819 59.814472 175 144 154
-8.223306 -9.256414 59.708267 177 147 156
-8.208840 -9.111647 59.603233 182 151 159
-8.194630 -8.967612 59.500057 186 155 163
-8.180769 -8.824398 59.399410 190 158 167
-8.167345 -8.682083 59.301941 193 161 170
-8.154444 -8.540735 59.208267 195 163 172
-8.142143 -8.400412 59.118954 197 165 173
-8.130514 -8.261155 59.034519 199 167 174
-8.119617 -8.122995 58.955399 199 168 174
-8.109506 -7.985950 58.881981 199 167 174
-8.100220 -7.850021 58.814556 199 168 174
-8.091789 -7.715199 58.753345 199 168 174
-8.084233 -7.581460 58.698479 198 167 174
-8.077556 -7.448768 58.649994 197 167 174
-8.071751 -7.317077 58.607845 196 167 174
-8.066800 -7.186327 58.571899 196 167 174
-8.062672 -7.056453 58.541924 195 169 175
-8.059325 -6.927380 58.517628 196 170 176
-8.056708 -6.799027 58.498627 196 171 177
-8.054760 -6.671310 58.484474 197 171 178
-8.053410 -6.544140 58.474674 196 171 178
-8.052583 -6.417429 58.468674 194 170 177
-8.052200 -6.291091 58.465889 195 171 179
-8.052176 -6.165040 58.465717 198 174 182
-8.052428 -6.039197 58.467545 200 177 185
-8.052870 -5.913485 58.470753 200 177 185
-8.053421 -5.787838 58.474754 197 175 182
-8.054003 -5.662195 58.478981 197 174 181
-8.054543 -5.536506 58.482903 200 176 184
-8.054976 -5.410726 58.486042 202 178 187
-8.055241 -5.284824 58.487968 204 179 188
-8.055288 -5.158774 58.488316 204 180 190
-8.055078 -5.032562 58.486782 205 180 192
-8.054574 -4.906177 58.483128 205 180 193
-8.053753 -4.779620 58.477169 205 180 193
-8.052600 -4.652897 58.468796 203 179 192
-8.051105 -4.526018 58.457943 203 180 192
-8.049269 -4.398998 58.444607 204 181 194
-8.047094 -4.271857 58.428822 205 183 195
-8.044596 -4.144617 58.410679 206 183 195
-8.041790 -4.017302 58.390308 207 184 196
-8.038697 -3.889935 58.367851 206 183 195
-8.035346 -3.762544 58.343513 206 182 194
-8.031764 -3.635154 58.317509 209 186 197
-8.027985 -3.507790 58.290066 211 187 198
-8.024043 -3.380476 58.261448 211 188 198
-8.019979 -3.253235 58.231941 212 188 199
-8.015831 -3.126089 58.201824 210 186 197
-8.011640 -2.999056 58.171387 207 183 194
-8.007446 -2.872154 58.140938 206 184 196
-8.003291 -2.745397 58.110771 205 183 196
-7.999214 -2.618795 58.081169 202 182 196
-7.995254 -2.492357 58.052414 202 182 197
-7.991444 -2.366088 58.024754 202 182 197
-7.987817 -2.239989 57.998413 202 181 196
-7.984397 -2.114058 57.973587 202 181 195
-7.981209 -1.988292 57.950436 203 181 195
-7.978265 -1.862684 57.929062 203 181 195
-7.975578 -1.737223 57.909554 204 182 194
-7.973152 -1.611899 57.891937 204 182 194
-7.970985 -1.486699 57.876205 203 181 193
-7.969071 -1.361610 57.862305 202 181 191
-7.967400 -1.236619 57.850174 203 181 192
-7.965960 -1.111713 57.839710 205 183 194
-7.964734 -0.986878 57.830811 205 183 195
-7.963708 -0.862103 57.823364 203 182 195
-7.962867 -0.737378 57.817257 202 181 194
-7.962199 -0.612692 57.812405 201 179 194
-7.961694 -0.488037 57.808743 201 179 194
-7.961347 -0.363405 57.806221 201 179 194
-7.961157 -0.238788 57.804840 201 178 194
-7.961129 -0.114180 57.804634 200 178 193
-7.961271 0.010427 57.805664 198 177 193
-7.961596 0.135042 57.808029 196 176 193
-7.962124 0.259674 57.811863 195 174 192
-7.962873 0.384333 57.817299 194 174 192
-7.963865 0.509031 57.824501 193 174 191
-7.965123 0.633781 57.833637 192 173 190
-7.966671 0.758599 57.844883 191 173 189
-7.968530 0.883499 57.858376 191 173 188
-7.970718 1.008499 57.874264 191 172 188
-7.973252 1.133616 57.892658 191 172 189
-7.976144 1.258870 57.913662 191 172 190
-7.979407 1.384278 57.937351 192 173 191
-7.983044 1.509860 57.963757 192 172 190
-7.987060 1.635632 57.992916 191 172 190
-7.991457 1.761615 58.024849 191 171 188
-7.996238 1.887826 58.059559 190 170 186
-8.001400 2.014282 58.097038 190 169 184
-8.006945 2.141002 58.137299 190 169 182
-8.012873 2.268005 58.180344 192 169 181
-8.019189 2.395308 58.226200 194 168 180
-8.025895 2.522933 58.274895 193 167 179
-8.033002 2.650899 58.326492 191 166 178
-8.040515 2.779228 58.381050 189 163 177
-8.048448 2.907944 58.438648 188 160 175
-8.056810 3.037071 58.499371 187 158 173
-8.065617 3.166633 58.563305 188 158 174
-8.074877 3.296656 58.630543 190 160 176
-8.084602 3.427166 58.701160 192 161 176
-8.094801 3.558190 58.775215 191 159 175
-8.105478 3.689749 58.852737 189 155 171
-8.116634 3.821869 58.933739 189 154 170
-8.128266 3.954570 59.018200 191 155 169
-8.140367 4.087869 59.106052 192 153 167
-8.152921 4.221783 59.197208 191 150 164
-8.165910 4.356322 59.291523 190 148 161
-8.179313 4.491494 59.388836 189 147 158
-8.193100 4.627303 59.488945 188 145 155
-8.207242 4.763750 59.591629 185 142 152
-8.221705 4.900831 59.696648 182 138 148
-8.236455 5.038539 59.803738 180 136 146
-8.251453 5.176866 59.912643 180 135 146
-8.266666 5.315800 60.023102 180 134 146
-8.282058 5.455328 60.134857 179 132 146
-8.297594 5.595435 60.247662 176 131 145
-8.313244 5.736107 60.361298 174 130 145
-8.328980 5.877330 60.475552 171 129 144
-8.344775 6.019087 60.590237 168 128 143
-8.360607 6.161367 60.705193 164 126 140
-8.376457 6.304156 60.820278 163 127 140
-8.392308 6.447442 60.935371 167 133 144
-8.408147 6.591214 61.050373 168 137 147
-8.423962 6.735463 61.165199 163 134 143
-8.439743 6.880179 61.279785 154 128 137
-8.455482 7.025356 61.394070 151 130 139
-8.471174 7.170983 61.508003 156 139 147
-8.486812 7.317056 61.621544 155 142 150
-8.502388 7.463564 61.734642 140 131 141
-8.517898 7.610501 61.847256 124 117 129
-8.533334 7.757857 61.959339 115 110 124
-8.548691 7.905622 62.070843 112 109 124
-8.563961 8.053786 62.181717 110 108 124
-8.579136 8.202337 62.291901 110 109 125
-8.594211 8.351266 62.401352 110 109 124
-8.609176 8.500559 62.510014 110 109 123
-8.624027 8.650206 62.617847 110 109 123
-8.638759 8.800196 62.724808 109 108 121
-8.653368 8.950520 62.830887 108 105 119
-8.667854 9.101172 62.936069 108 104 119
-8.682220 9.252150 63.040375 112 107 122
-8.696469 9.403452 63.143841 112 106 122
-8.710611 9.555081 63.246521 107 100 117
-8.724655 9.707046 63.348495 102 95 112
-8.738618 9.859356 63.449871 101 93 110
-8.752514 10.012029 63.550770 100 91 108
-8.766362 10.165080 63.651321 98 89 105
-8.780182 10.318532 63.751663 95 87 101
-8.793995 10.472408 63.851955 92 86 97
-8.807818 10.626731 63.952332 93 86 97
-8.821671 10.781521 64.052917 94 86 98
-8.835568 10.936800 64.153824 91 84 97
-8.849520 11.092581 64.255119 92 83 98
-8.863532 11.248877 64.356857 94 84 100
-8.877604 11.405688 64.459038 94 83 100
-8.891731 11.563010 64.561607 93 81 98
-8.905899 11.720829 64.664474 92 80 95
-8.920090 11.879122 64.767517 90 79 93
-8.934274 12.037851 64.870506 89 79 91
-8.948421 12.196974 64.973228 89 78 91
-8.962493 12.356435 65.075401 89 78 90
-8.976446 12.516171 65.176712 89 77 90
-8.990234 12.676110 65.276825 89 77 90
-9.003811 12.836181 65.375404 89 75 90
-9.017130 12.996304 65.472107 88 72 89
-9.030147 13.156404 65.566620 87 71 88
-9.042819 13.316405 65.658630 86 69 88
-9.055114 13.476241 65.747910 86 69 88
-9.067003 13.635853 65.834236 85 68 89
-9.078470 13.795194 65.917496 85 67 89
-9.089504 13.954227 65.997612 85 67 89
-9.100107 14.112941 66.074600 84 66 87
-9.110292 14.271330 66.148552 83 66 84
-9.120081 14.429412 66.219627 83 65 82
-9.129507 14.587219 66.288063 83 64 79
-9.138609 14.744801 66.354156 82 64 77
-9.147438 14.902221 66.418259 81 64 76
-9.156047 15.059556 66.480766 80 64 75
-9.164494 15.216891 66.542099 78 63 75
-9.172840 15.374323 66.602699 76 63 74
-9.181148 15.531950 66.663025 74 63 73
-9.189478 15.689875 66.723503 73 63 72
-9.197888 15.848201 66.784576 72 62 71
-9.206436 16.007027 66.846642 71 63 71
-9.215175 16.166456 66.910080 71 63 71
-9.224151 16.326578 66.975258 72 63 71
-9.233410 16.487490 67.042496 72 64 72
-9.242993 16.649273 67.112076 73 64 72
-9.252938 16.812012 67.184280 73 64 72
-9.263282 16.975794 67.259384 73 64 72
-9.274058 17.140701 67.337631 73 64 72
-9.285304 17.306820 67.419289 73 63 71
-9.297055 17.474239 67.504608 73 63 71
-9.309352 17.643061 67.593895 73 63 70
-9.322236 17.813391 67.687447 72 62 70
-9.335752 17.985340 67.785583 72 61 70
-9.349948 18.159035 67.888657 73 60 70
-9.364878 18.334608 67.997055 73 59 70
-9.380591 18.512197 68.111153 73 58 71
-9.397143 18.691946 68.231331 74 58 71
-9.414586 18.873999 68.357986 75 59 72
-9.432967 19.058493 68.491447 76 60 72
-9.452331 19.245562 68.632042 76 61 72
-9.472713 19.435328 68.780029 75 63 70
-9.494140 19.627892 68.935616 74 64 69
-9.516632 19.823347 69.098930 72 64 68
-9.540198 20.021757 69.270035 71 64 67
-9.564835 20.223169 69.448914 71 65 68
-9.590530 20.427610 69.635498 72 66 69
-9.617270 20.635096 69.829651 73 66 70
-9.645030 20.845619 70.031204 73 65 71
-9.673782 21.059175 70.239967 74 64 72
-9.703503 21.275753 70.455765 75 63 72
-9.734168 21.495348 70.678421 75 63 71
-9.765759 21.717964 70.907806 75 62 70
-9.798266 21.943619 71.143837 75 62 70
-9.831687 22.172350 71.386497 75 61 71
-9.866026 22.404213 71.635826 75 61 70
-9.901299 22.639288 71.891937 75 61 70
-9.937528 22.877666 72.154991 74 61 70
-9.974740 23.119459 72.425186 73 62 71
-10.012969 23.364788 72.702759 73 62 72
-10.052243 23.613771 72.987923 72 63 72
-10.092598 23.866537 73.280937 71 63 72
-10.134033 24.123138 73.581787 70 63 72
-10.176576 24.383690 73.890686 69 62 71
-10.220228 24.648251 74.207642 67 62 69
-10.264977 24.916842 74.532555 66 61 68
-10.310791 25.189432 74.865204 65 61 67
-10.357616 25.465942 75.205193 65 60 66
-10.405375 25.746233 75.551971 66 60 66
-10.453964 26.030081 75.904762 67 60 66
-10.503247 26.317190 76.262596 67 60 66
-10.553050 26.607155 76.624214 67 60 66
-10.603160 26.899456 76.988052 68 60 66
-10.653317 27.193445 77.352242 69 59 66
-10.703209 27.488325 77.714493 71 60 66
-10.752466 27.783127 78.072144 72 60 66
-10.800661 28.076706 78.422081 72 60 66
-10.847299 28.367725 78.760712 74 61 67
-10.891825 28.654646 79.084007 75 63 68
-10.933622 28.935743 79.387497 75 64 69
-10.972023 29.209105 79.666313 76 65 71
-11.006315 29.472664 79.915306 76 66 72
-8.309552 -12.012674 61.293861 166 137 146
-8.302723 -11.870780 61.243481 167 137 145
-8.295344 -11.728328 61.189056 167 136 146
-8.287386 -11.585300 61.130356 169 137 146
-8.278824 -11.441689 61.067196 170 138 147
-8.269641 -11.297504 60.999458 170 138 146
-8.259830 -11.152762 60.927086 170 138 146
-8.249392 -11.007496 60.850090 171 139 147
-8.238338 -10.861751 60.768562 172 139 148
-8.226692 -10.715585 60.682655 172 140 150
-8.214482 -10.569064 60.592590 174 142 151
-8.201752 -10.422269 60.498684 173 141 151
-8.188548 -10.275287 60.401295 174 142 152
-8.174932 -10.128212 60.300858 175 144 153
-8.160968 -9.981145 60.197853 176 145 153
-8.146730 -9.834192 60.092831 175 145 153
-8.132298 -9.687460 59.986374 174 144 152
-8.117755 -9.541057 59.879101 173 143 152
-8.103190 -9.395091 59.771671 174 145 152
-8.088694 -9.249666 59.664742 177 147 155
-8.074358 -9.104884 59.558994 180 150 158
-8.060273 -8.960836 59.455101 185 154 162
-8.046530 -8.817610 59.353722 189 157 165
-8.033213 -8.675282 59.255493 193 160 169
-8.020405 -8.533919 59.161018 196 163 171
-8.008181 -8.393577 59.070850 198 165 172
-7.996611 -8.254296 58.985500 200 167 173
-7.985753 -8.116109 58.905415 200 167 173
-7.975659 -7.979030 58.830959 200 167 172
-7.966370 -7.843065 58.762436 200 166 172
-7.957915 -7.708203 58.700073 199 165 172
-7.950314 -7.574424 58.644001 198 165 172
-7.943573 -7.441692 58.594280 197 165 171
-7.937688 -7.309963 58.550869 197 166 172
-7.932642 -7.179181 58.513653 197 166 173
-7.928408 -7.049280 58.482414 197 168 174
-7.924945 -6.920188 58.456879 197 169 175
-7.922207 -6.791827 58.436680 197 170 176
-7.920134 -6.664113 58.421387 197 171 177
-7.918659 -6.536959 58.410507 197 171 178
-7.917711 -6.410278 58.403511 196 171 178
-7.917210 -6.283982 58.399818 197 171 179
-7.917075 -6.157987 58.398827 199 174 182
-7.917223 -6.032212 58.399918 201 177 184
-7.917572 -5.906581 58.402489 201 177 185
-7.918038 -5.781025 58.405930 200 175 183
-7.918545 -5.655484 58.409668 199 175 183
-7.919020 -5.529904 58.413170 201 176 184
-7.919395 -5.404241 58.415936 203 177 186
-7.919611 -5.278460 58.417534 204 178 188
-7.919617 -5.152535 58.417576 204 179 189
-7.919369 -5.026449 58.415745 205 179 191
-7.918833 -4.900192 58.411789 206 180 192
-7.917982 -4.773764 58.405514 206 180 193
-7.916801 -4.647168 58.396801 206 181 193
-7.915278 -4.520414 58.385571 206 181 193
-7.913413 -4.393519 58.371811 204 180 193
-7.911209 -4.266500 58.355556 204 180 193
-7.908679 -4.139381 58.336887 206 181 194
-7.905837 -4.012184 58.315926 207 182 194
-7.902705 -3.884935 58.292828 206 181 193
-7.899310 -3.757660 58.267780 206 181 192
-7.895679 -3.630386 58.241005 210 184 195
-7.891847 -3.503136 58.212734 212 187 197
-7.887848 -3.375938 58.183235 212 186 196
-7.883719 -3.248813 58.152779 213 187 197
-7.879500 -3.121783 58.121658 211 186 196
-7.875231 -2.994869 58.090172 208 184 194
-7.870954 -2.868088 58.058620 208 184 195
-7.866708 -2.741453 58.027298 206 184 195
-7.862533 -2.614977 57.996502 204 182 194
-7.858465 -2.488668 57.966499 203 183 196
-7.854540 -2.362532 57.937550 204 183 197
-7.850790 -2.236569 57.909885 203 182 196
-7.847240 -2.110780 57.883698 203 181 195
-7.843910 -1.985160 57.859138 204 182 195
-7.840819 -1.859702 57.836338 205 182 195
-7.837976 -1.734397 57.815365 206 183 195
-7.835386 -1.609235 57.796261 205 183 194
-7.833047 -1.484203 57.779011 204 182 192
-7.830956 -1.359287 57.763584 203 181 191
-7.829101 -1.234476 57.749897 203 181 191
-7.827470 -1.109755 57.737869 205 182 193
-7.826049 -0.985113 57.727390 205 182 194
-7.824823 -0.860538 57.718342 203 181 193
-7.823778 -0.736018 57.710640 202 179 192
-7.822901 -0.611545 57.704170 200 178 192
-7.822185 -0.487109 57.698883 199 177 192
-7.821623 -0.362704 57.694736 199 176 193
-7.821216 -0.238321 57.691734 199 176 193
-7.820967 -0.113954 57.689899 199 176 193
-7.820886 0.010406 57.689304 197 175 193
-7.820988 0.134767 57.690056 196 173 192
-7.821290 0.259137 57.692280 194 172 191
-7.821813 0.383528 57.696140 194 171 191
-7.822579 0.507951 57.701794 194 171 191
-7.823613 0.632420 57.709419 193 171 190
-7.824939 0.756950 57.719200 192 171 189
-7.826577 0.881558 57.731281 192 171 188
-7.828549 1.006261 57.745831 192 171 188
-7.830873 1.131077 57.762970 192 171 189
-7.833562 1.256026 57.782806 192 172 190
-7.836627 1.381126 57.805416 193 172 191
-7.840076 1.506398 57.830860 194 172 191
-7.843915 1.631860 57.859173 194 172 191
-7.848144 1.757532 57.890366 194 172 189
-7.852764 1.883433 57.924446 193 171 188
-7.857777 2.009580 57.961422 193 170 186
-7.863181 2.135993 58.001282 193 169 183
-7.868977 2.262691 58.044033 195 170 183
-7.875165 2.389692 58.089684 197 171 183
-7.881751 2.517017 58.138260 196 170 182
-7.888737 2.644686 58.189793 195 167 180
-7.896132 2.772720 58.244339 193 165 178
-7.903943 2.901142 58.301960 191 163 176
-7.912180 3.029976 58.362717 191 161 175
-7.920853 3.159245 58.426689 192 161 175
-7.929972 3.288976 58.493954 193 161 176
-7.939544 3.419191 58.564560 194 161 176
-7.949576 3.549917 58.638561 193 159 175
-7.960073 3.681176 58.715988 192 157 173
-7.971033 3.812991 58.796833 193 156 171
-7.982452 3.945381 58.881069 194 156 169
-7.994324 4.078365 58.968636 194 154 167
-8.006633 4.211957 59.059429 194 152 165
-8.019361 4.346168 59.153324 193 150 163
-8.032489 4.481006 59.250156 192 148 160
-8.045988 4.616474 59.349728 191 146 157
-8.059830 4.752574 59.451828 187 142 152
-8.073982 4.889302 59.556221 183 138 148
-8.088413 5.026653 59.662666 182 136 146
-8.103086 5.164618 59.770901 183 137 147
-8.117970 5.303187 59.880688 183 136 148
-8.133030 5.442348 59.991776 183 135 148
-8.148234 5.582086 60.103928 181 134 148
-8.163555 5.722389 60.216938 178 133 147
-8.178964 5.863242 60.330597 177 132 146
-8.194437 6.004633 60.444733 174 131 145
-8.209953 6.146548 60.559189 171 129 142
-8.225495 6.288976 60.673828 169 129 141
-8.241045 6.431905 60.788532 169 131 142
-8.256591 6.575325 60.903198 169 134 143
-8.272120 6.719225 61.017750 164 132 141
-8.287623 6.863598 61.132103 156 128 137
-8.303092 7.008435 61.246204 156 132 140
-8.318518 7.153727 61.359989 165 144 153
-8.333892 7.299465 61.473396 167 151 159
-8.349208 7.445639 61.586372 151 139 149
-8.364458 7.592241 61.698860 131 122 133
-8.379633 7.739258 61.810795 120 113 126
-8.394723 7.886678 61.922104 115 111 126
-8.409721 8.034490 62.032734 113 111 127
-8.424616 8.182678 62.142601 112 111 127
-8.439399 8.331230 62.251648 111 110 127
-8.454061 8.480131 62.359795 111 110 126
-8.468595 8.629368 62.467003 111 110 124
-8.482993 8.778927 62.573212 110 109 123
-8.497253 8.928798 62.678402 110 106 121
-8.511374 9.078973 62.782551 109 105 120
-8.525354 9.229447 62.885685 108 103 119
-8.539202 9.380219 62.987827 107 101 117
-8.552925 9.531292 63.089050 104 98 114
-8.566533 9.682672 63.189430 103 95 112
-8.580044 9.834373 63.289089 102 93 110
-8.593473 9.986409 63.388153 101 91 108
-8.606844 10.138803 63.486774 99 89 105
-8.620175 10.291574 63.585110 96 87 101
-8.633491 10.444752 63.683327 94 86 98
-8.646812 10.598360 63.781593 94 87 99
-8.660161 10.752425 63.880058 95 87 100
-8.673554 10.906971 63.978851 92 84 99
-8.687006 11.062017 64.078072 92 83 101
-8.700526 11.217581 64.177811 94 84 103
-8.714119 11.373667 64.278069 96 84 104
-8.727782 11.530279 64.378853 95 83 102
-8.741507 11.687407 64.480087 93 81 98
-8.755276 11.845033 64.581650 91 82 97
-8.769068 12.003128 64.683388 92 83 96
-8.782852 12.161652 64.785065 91 82 94
-8.796597 12.320556 64.886444 90 81 92
-8.810259 12.479782 64.987228 89 80 91
-8.823797 12.639266 65.087090 90 79 91
-8.837167 12.798935 65.185707 90 77 89
-8.850323 12.958716 65.282753 89 74 88
-8.863223 13.118538 65.377907 88 71 88
-8.875827 13.278326 65.470879 88 70 88
-8.888101 13.438016 65.561417 87 70 88
-8.900017 13.597550 65.649315 86 69 89
-8.911556 13.756881 65.734428 86 68 89
-8.922709 13.915976 65.816689 85 68 89
-8.933473 14.074814 65.896095 84 67 87
-8.943861 14.233396 65.972717 84 67 85
-8.953892 14.391733 66.046707 84 66 83
-8.963595 14.549858 66.118286 83 65 81
-8.973007 14.707814 66.187714 83 65 78
-8.982174 14.865664 66.255325 82 65 77
-8.991145 15.023478 66.321503 80 65 76
-8.999975 15.181339 66.386635 78 64 75
-9.008721 15.339338 66.451149 77 65 74
-9.017441 15.497571 66.515465 75 65 73
-9.026191 15.656133 66.580009 74 65 72
-9.035026 15.815122 66.645180 73 65 72
-9.044000 15.974637 66.711372 73 64 71
-9.053161 16.134769 66.778946 72 63 70
-9.062553 16.295614 66.848228 72 62 69
-9.072221 16.457253 66.919540 73 64 70
-9.082200 16.619770 66.993149 75 64 71
-9.092526 16.783245 67.069321 76 64 72
-9.103235 16.947762 67.148315 76 64 72
-9.114360 17.113398 67.230370 75 64 72
-9.125934 17.280239 67.315742 74 63 71
-9.137994 17.448376 67.404701 74 63 71
-9.150577 17.617905 67.497513 74 63 71
-9.163724 17.788929 67.594498 74 62 71
-9.177482 17.961565 67.695976 74 61 71
-9.191895 18.135935 67.802299 74 61 72
-9.207019 18.312174 67.913857 74 60 72
-9.222903 18.490417 68.031021 74 59 72
-9.239601 18.670811 68.154190 75 59 72
-9.257165 18.853500 68.283745 76 60 72
-9.275642 19.038622 68.420036 76 61 72
-9.295076 19.226311 68.563393 76 62 71
-9.315503 19.416687 68.714066 74 63 69
-9.336951 19.609858 68.872276 73 64 68
-9.359439 19.805910 69.038147 71 65 67
-9.382975 20.004913 69.211761 70 65 67
-9.407557 20.206913 69.393089 70 65 68
-9.433179 20.411942 69.582085 72 66 70
-9.459823 20.620014 69.778618 72 66 70
-9.487468 20.831133 69.982536 73 65 72
-9.516091 21.045294 70.193672 75 65 73
-9.545670 21.262491 70.411850 76 64 73
-9.576183 21.482727 70.636925 76 63 73
-9.607617 21.706015 70.868790 76 63 73
-9.639964 21.932379 71.107391 76 63 72
-9.673224 22.161861 71.352730 75 62 72
-9.707407 22.394533 71.604874 75 62 71
-9.742529 22.630470 71.863937 74 61 71
-9.778614 22.869781 72.130119 73 61 70
-9.815692 23.112576 72.403618 72 62 71
-9.853794 23.358976 72.684669 72 62 71
-9.892953 23.609110 72.973518 72 63 71
-9.933197 23.863096 73.270370 71 63 71
-9.974528 24.120993 73.575241 70 63 71
-10.016970 24.382906 73.888306 69 63 69
-10.060520 24.648884 74.209549 68 62 68
-10.105163 24.918941 74.538841 67 61 67
-10.150859 25.193035 74.875916 66 61 66
-10.197555 25.471075 75.220352 65 60 65
-10.245164 25.752899 75.571533 66 60 65
-10.293579 26.038277 75.928665 67 60 66
-10.342659 26.326883 76.290688 67 60 66
-10.392227 26.618303 76.656319 68 60 66
-10.442066 26.911997 77.023949 69 60 66
-10.491914 27.207298 77.391640 70 60 66
-10.541457 27.503389 77.757088 71 60 67
-10.590325 27.799288 78.117561 71 61 67
-10.638094 28.093832 78.469910 71 61 67
-10.684272 28.385672 78.810532 73 63 68
-10.728308 28.673254 79.135361 74 64 69
-10.769594 28.954845 79.439903 74 65 70
-10.807469 29.228523 79.719276 75 66 71
-10.841234 29.492222 79.968330 75 67 73
-8.180183 -12.148901 61.314545 164 137 145
-8.173847 -12.007421 61.267052 166 137 145
-8.167000 -11.865401 61.215729 167 136 144
-8.159604 -11.722815 61.160294 167 136 144
-8.151630 -11.579646 61.100525 169 136 144
-8.143055 -11.435892 61.036255 169 136 145
-8.133865 -11.291561 60.967373 170 137 146
-8.124054 -11.146675 60.893833 170 137 146
-8.113626 -11.001268 60.815666 171 138 147
-8.102593 -10.855390 60.732971 171 139 147
-8.090979 -10.709097 60.645916 171 139 148
-8.078815 -10.562462 60.554741 171 139 148
-8.066143 -10.415563 60.459755 171 139 148
-8.053013 -10.268489 60.361340 172 141 149
-8.039482 -10.121337 60.259922 175 144 152
-8.025618 -9.974206 60.155998 176 145 153
-8.011491 -9.827201 60.050110 175 145 153
-7.997180 -9.680429 59.942841 174 144 152
-7.982766 -9.533998 59.834805 173 143 151
-7.968336 -9.388014 59.726643 174 145 152
-7.953977 -9.242579 59.619015 176 147 154
-7.939777 -9.097789 59.512585 179 149 157
-7.925825 -8.953738 59.408005 183 152 160
-7.912207 -8.810510 59.305927 187 155 163
-7.899004 -8.668179 59.206970 192 158 166
-7.886298 -8.526810 59.111729 196 162 169
-7.874160 -8.386456 59.020748 200 165 171
-7.862656 -8.247162 58.934517 201 167 172
-7.851845 -8.108953 58.853485 201 167 171
-7.841776 -7.971849 58.778015 201 166 171
-7.832490 -7.835855 58.708416 200 165 171
-7.824018 -7.700960 58.644913 199 163 170
-7.816379 -7.567145 58.587646 198 162 169
-7.809580 -7.434378 58.536686 197 163 169
-7.803619 -7.302614 58.492008 198 165 172
-7.798482 -7.171802 58.453506 198 166 173
-7.794145 -7.041876 58.420994 197 166 173
-7.790570 -6.912768 58.394203 197 167 173
-7.787712 -6.784400 58.372780 197 169 174
-7.785516 -6.656691 58.356319 198 170 176
-7.783918 -6.529554 58.344341 198 171 177
-7.782848 -6.402903 58.336323 199 172 178
-7.782231 -6.276651 58.331692 200 172 180
-7.781985 -6.150714 58.329853 201 174 181
-7.782031 -6.025010 58.330196 202 175 183
-7.782286 -5.899463 58.332108 203 175 183
-7.782669 -5.774003 58.334976 202 175 182
-7.783102 -5.648566 58.338223 202 175 183
-7.783513 -5.523100 58.341301 203 175 184
-7.783834 -5.397559 58.343708 203 176 184
-7.784004 -5.271905 58.344986 204 177 186
-7.783972 -5.146111 58.344742 205 178 188
-7.783692 -5.020159 58.342651 206 178 189
-7.783130 -4.894039 58.338432 207 179 191
-7.782258 -4.767746 58.331898 208 181 193
-7.781058 -4.641287 58.322903 209 182 195
-7.779518 -4.514669 58.311363 208 181 194
-7.777637 -4.387908 58.297256 205 177 191
-7.775417 -4.261022 58.280617 204 176 190
-7.772869 -4.134033 58.261520 207 179 193
-7.770008 -4.006966 58.240078 208 181 193
-7.766854 -3.879844 58.216442 207 180 192
-7.763435 -3.752697 58.190807 208 182 193
-7.759776 -3.625547 58.163387 211 185 195
-7.755912 -3.498424 58.134422 212 186 196
-7.751875 -3.371350 58.104164 212 185 195
-7.747705 -3.244351 58.072906 212 185 195
-7.743439 -3.117447 58.040928 211 186 196
-7.739116 -2.990660 58.008530 210 185 195
-7.734778 -2.864007 57.976013 209 185 195
-7.730464 -2.737503 57.943680 207 184 195
-7.726214 -2.611159 57.911819 206 183 195
-7.722064 -2.484986 57.880714 206 183 196
-7.718048 -2.358987 57.850613 206 184 197
-7.714197 -2.233165 57.821743 205 182 195
-7.710537 -2.107521 57.794312 204 181 194
-7.707089 -1.982049 57.768471 205 182 195
-7.703871 -1.856744 57.744350 206 183 195
-7.700892 -1.731597 57.722019 207 183 195
-7.698157 -1.606597 57.701519 206 183 195
-7.695667 -1.481732 57.682854 205 183 193
-7.693414 -1.356990 57.665970 204 182 192
-7.691392 -1.232358 57.650810 204 181 191
-7.689588 -1.107822 57.637287 205 181 192
-7.687986 -0.983371 57.625282 204 180 192
-7.686574 -0.858992 57.614704 203 179 192
-7.685339 -0.734676 57.605442 201 178 191
-7.684267 -0.610413 57.597408 200 176 192
-7.683351 -0.486195 57.590542 199 175 193
-7.682586 -0.362013 57.584808 199 174 193
-7.681973 -0.237860 57.580208 199 174 193
-7.681515 -0.113730 57.576778 198 173 194
-7.681223 0.010386 57.574589 197 173 193
-7.681111 0.134495 57.573753 195 171 192
-7.681199 0.258608 57.574406 194 170 192
-7.681506 0.382734 57.576710 195 171 192
-7.682057 0.506886 57.580841 195 171 191
-7.682877 0.631078 57.586990 195 171 190
-7.683990 0.755326 57.595329 194 171 189
-7.685420 0.879646 57.606045 194 171 188
-7.687186 1.004056 57.619289 193 171 188
-7.689311 1.128575 57.635208 194 171 189
-7.691807 1.253224 57.653919 194 171 190
-7.694687 1.378022 57.675507 195 171 191
-7.697959 1.502990 57.700035 196 172 191
-7.701630 1.628148 57.727547 197 172 191
-7.705702 1.753516 57.758072 196 171 189
-7.710175 1.879113 57.791599 195 170 187
-7.715050 2.004959 57.828136 195 170 187
-7.720325 2.131073 57.867680 197 172 186
-7.726001 2.257475 57.910221 199 173 186
-7.732076 2.384183 57.955761 200 173 185
-7.738553 2.511218 58.004303 199 171 183
-7.745434 2.638600 58.055882 198 169 181
-7.752724 2.766350 58.110523 196 167 179
-7.760429 2.894490 58.168278 194 164 177
-7.768556 3.023044 58.229191 194 163 176
-7.777112 3.152034 58.293327 195 162 176
-7.786105 3.281485 58.360729 196 163 176
-7.795540 3.411420 58.431454 196 162 176
-7.805424 3.541864 58.505535 195 161 175
-7.815756 3.672837 58.582985 195 159 173
-7.826538 3.804363 58.663795 195 157 172
-7.837762 3.936460 58.747925 196 156 170
-7.849421 4.069145 58.835316 197 155 169
-7.861502 4.202432 58.925869 197 154 167
-7.873986 4.336331 59.019447 196 152 165
-7.886854 4.470851 59.115894 195 150 162
-7.900079 4.605996 59.215023 193 148 158
-7.913633 4.741765 59.316624 190 144 155
-7.927488 4.878158 59.420467 188 141 151
-7.941610 5.015166 59.526321 187 140 150
-7.955969 5.152785 59.633949 187 140 150
-7.970531 5.291002 59.743103 187 139 150
-7.985267 5.429809 59.853554 187 138 150
-8.000146 5.569190 59.965076 186 137 150
-8.015141 5.709135 60.077469 184 136 149
-8.030225 5.849630 60.190536 182 135 148
-8.045378 5.990664 60.304115 180 135 147
-8.060579 6.132224 60.418053 178 133 145
-8.075810 6.274298 60.532219 175 132 143
-8.091057 6.416877 60.646496 172 131 141
-8.106305 6.559950 60.760792 169 131 140
-8.121545 6.703508 60.875019 166 131 140
-8.136765 6.847543 60.989105 163 131 139
-8.151958 6.992045 61.102978 163 135 143
-8.167110 7.137005 61.216560 169 145 153
-8.182218 7.282413 61.329796 170 151 159
-8.197269 7.428259 61.442612 157 142 151
-8.212255 7.574531 61.554943 140 128 138
-8.227165 7.721215 61.666698 128 119 131
-8.241989 7.868299 61.777809 121 116 129
-8.256714 8.015767 61.888176 117 114 128
-8.271330 8.163603 61.997734 114 112 128
-8.285825 8.311790 62.106380 112 111 127
-8.300189 8.460311 62.214046 111 110 126
-8.314412 8.609151 62.320660 111 110 125
-8.328488 8.758296 62.426163 111 109 124
-8.342411 8.907732 62.530525 110 107 122
-8.356178 9.057449 62.633717 109 105 120
-8.369792 9.207442 62.735756 107 103 118
-8.383255 9.357708 62.836674 106 100 115
-8.396578 9.508249 62.936531 105 98 113
-8.409772 9.659073 63.035423 104 96 111
-8.422853 9.810191 63.133469 104 93 110
-8.435839 9.961621 63.230812 103 91 108
-8.448754 10.113385 63.327618 101 89 105
-8.461620 10.265508 63.424061 98 87 102
-8.474463 10.418017 63.520325 96 86 101
-8.487308 10.570943 63.616596 96 87 102
-8.500175 10.724313 63.713039 95 86 103
-8.513087 10.878156 63.809826 93 83 102
-8.526061 11.032497 63.907074 93 83 104
-8.539112 11.187357 64.004890 95 84 107
-8.552244 11.342747 64.103325 97 86 108
-8.565460 11.498673 64.202385 96 85 106
-8.578755 11.655135 64.302040 93 83 101
-8.592117 11.812119 64.402199 94 86 101
-8.605527 11.969600 64.502708 96 88 101
-8.618958 12.127543 64.603378 92 86 96
-8.632380 12.285910 64.703979 89 83 92
-8.645755 12.444642 64.804237 89 81 90
-8.659044 12.603681 64.903847 89 79 89
-8.672204 12.762959 65.002487 90 77 88
-8.685193 12.922409 65.099846 89 75 88
-8.697969 13.081959 65.195610 89 73 87
-8.710495 13.241539 65.289497 89 71 88
-8.722735 13.401087 65.381241 88 70 88
-8.734663 13.560544 65.470650 88 70 88
-8.746259 13.719866 65.557564 87 69 88
-8.757510 13.879019 65.641899 86 69 88
-8.768417 14.037982 65.723656 86 68 87
-8.778987 14.196753 65.802879 85 67 85
-8.789238 14.355344 65.879707 85 67 83
-8.799195 14.513783 65.954346 85 66 82
-8.808892 14.672110 66.027031 84 66 79
-8.818373 14.830384 66.098091 83 66 77
-8.827682 14.988676 66.167870 81 66 76
-8.836871 15.147062 66.236748 79 66 75
-8.845992 15.305629 66.305115 77 67 74
-8.855100 15.464466 66.373383 76 67 72
-8.864247 15.623668 66.441948 75 67 71
-8.873486 15.783326 66.511192 75 67 72
-8.882864 15.943535 66.581490 74 66 71
-8.892427 16.104382 66.653168 73 64 69
-8.902219 16.265955 66.726562 73 63 69
-8.912276 16.428333 66.801949 75 64 69
-8.922636 16.591599 66.879593 77 65 71
-8.933329 16.755825 66.959747 78 65 72
-8.944389 16.921093 67.042656 78 65 72
-8.955849 17.087479 67.128548 77 64 72
-8.967739 17.255062 67.217667 76 64 72
-8.980094 17.423933 67.310272 76 64 72
-8.992950 17.594185 67.406639 75 63 72
-9.006351 17.765924 67.507080 75 62 71
-9.020335 17.939259 67.611908 75 62 72
-9.034953 18.114315 67.721474 75 61 72
-9.050256 18.291225 67.836166 76 61 73
-9.066291 18.470127 67.956367 76 61 73
-9.083115 18.651163 68.082466 77 61 73
-9.100776 18.834476 68.214844 77 62 73
-9.119323 19.020208 68.353867 77 63 72
-9.138797 19.208488 68.499832 77 63 70
-9.159235 19.399439 68.653023 75 65 69
-9.180664 19.593164 68.813644 73 66 68
-9.203103 19.789755 68.981842 72 66 68
-9.226562 19.989281 69.157677 71 66 68
-9.251040 20.191790 69.341156 71 66 68
-9.276530 20.397312 69.532211 72 66 70
-9.303017 20.605867 69.730743 72 66 70
-9.330482 20.817461 69.936607 73 66 72
-9.358905 21.032095 70.149651 75 65 74
-9.388265 21.249769 70.369720 76 65 74
-9.418547 21.470493 70.596695 76 64 75
-9.449738 21.694283 70.830490 76 64 75
-9.481833 21.921171 71.071060 76 63 74
-9.514837 22.151213 71.318443 75 62 73
-9.548762 22.384480 71.572723 74 61 71
-9.583627 22.621059 71.834053 73 61 70
-9.619459 22.861065 72.102631 71 61 69
-9.656286 23.104612 72.378670 71 61 69
-9.694143 23.351828 72.662430 71 61 69
-9.733062 23.602842 72.954147 71 62 69
-9.773069 23.857773 73.254021 71 63 69
-9.814168 24.116674 73.562073 70 63 69
-9.856377 24.379654 73.878448 70 63 68
-9.899693 24.646755 74.203133 69 63 67
-9.944097 24.917976 74.535957 69 62 66
-9.989547 25.193274 74.876625 67 61 65
-10.035981 25.472540 75.224670 66 60 64
-10.083315 25.755604 75.579468 66 60 64
-10.131435 26.042215 75.940147 67 61 65
-10.180197 26.332043 76.305641 68 61 66
-10.229420 26.624647 76.674591 68 61 66
-10.278885 26.919479 77.045364 69 61 66
-10.328329 27.215849 77.415962 70 61 67
-10.377437 27.512930 77.784058 71 61 67
-10.425842 27.809719 78.146873 72 62 68
-10.473118 28.105043 78.501228 72 63 68
-10.518779 28.397539 78.843483 72 64 69
-10.562281 28.685644 79.169556 73 65 70
-10.603023 28.967613 79.474930 73 67 70
-10.640351 29.241520 79.754730 73 68 72
-10.673579 29.505297 80.003784 74 69 73
-8.050232 -12.284467 61.331478 160 134 142
-8.044352 -12.143378 61.286671 163 135 143
-8.037996 -12.001777 61.238258 166 136 144
-8.031129 -11.859626 61.185936 167 136 143
-8.023712 -11.716900 61.129433 168 135 143
-8.015720 -11.573586 61.068546 168 135 144
-8.007132 -11.429683 61.003109 169 136 144
-7.997932 -11.285201 60.933029 169 136 145
-7.988121 -11.140166 60.858276 169 137 145
-7.977701 -10.994617 60.778893 170 137 145
-7.966688 -10.848600 60.694988 170 138 146
-7.955105 -10.702180 60.606743 171 139 146
-7.942986 -10.555428 60.514416 171 139 146
-7.930374 -10.408424 60.418324 171 138 146
-7.917317 -10.261261 60.318848 172 139 147
-7.903875 -10.114033 60.216438 174 142 150
