ply
format ascii 1.0
element vertex 1264
property float x
property float y
property float z
property uchar red
property uchar green
property uchar blue
end_header
-0.300108 9.541825 73.670578 82 35 41
-0.297890 9.628954 73.126213 83 36 41
-0.297890 9.786590 73.126213 87 36 41
-0.297158 9.919792 72.946541 90 37 39
-0.296430 10.052341 72.767754 92 37 32
-0.294984 10.159404 72.412788 90 36 23
-0.297890 10.417131 73.126213 88 35 14
-0.297890 10.574767 73.126213 98 49 20
-0.298626 10.758903 73.306770 122 78 44
-0.299365 10.943949 73.488220 151 116 79
-0.299365 11.102365 73.488220 181 155 122
-0.298626 11.232977 73.306770 186 163 138
-0.298626 11.391001 73.306770 155 132 116
-0.297890 11.520580 73.126213 126 103 98
-0.297890 11.678215 73.126213 110 88 92
-0.297890 11.835851 73.126213 95 74 85
-0.301604 12.143031 74.038010 88 69 81
-0.299365 12.211276 73.488220 91 76 85
-0.298626 12.339149 73.306770 90 80 85
-0.299365 12.528108 73.488220 72 66 66
-0.299365 12.686523 73.488220 56 53 50
-0.300108 12.876813 73.670578 84 82 79
-0.301604 13.100637 74.038010 140 139 136
-0.170489 -4.966002 88.889946 37 23 20
-0.167480 -4.690131 87.321304 36 23 21
-0.164102 -4.411079 85.559776 35 23 21
-0.160857 -4.143064 83.867912 34 22 21
-0.161771 -3.984786 84.344437 33 22 20
-0.118632 -2.522176 61.852589 33 22 20
-0.117652 -2.369100 61.341408 33 22 21
-0.116687 -2.218534 60.838612 33 22 21
-0.116449 -2.083118 60.714195 33 21 20
-0.115739 -1.940334 60.343987 32 21 20
-0.114574 -1.792041 59.736904 31 21 18
-0.113433 -1.646702 59.141918 30 20 17
-0.113207 -1.516192 59.024338 29 19 17
-0.113887 -1.397289 59.378483 29 19 16
-0.113207 -1.261719 59.024338 29 20 17
-0.091844 -0.713943 47.885876 28 20 19
-0.091549 -0.608753 47.731899 28 20 19
-0.130008 0.012227 67.783661 30 21 17
-0.130008 0.158346 67.783661 31 20 18
-0.127963 0.299675 66.717400 32 20 19
-0.127963 0.443495 66.717400 35 21 21
-0.128831 0.591302 67.170235 38 23 23
-0.128540 0.734437 67.018608 41 26 26
-0.129417 0.884899 67.475548 44 29 29
-0.129417 1.030353 67.475548 47 32 32
-0.129123 1.173142 67.322548 49 33 33
-0.129712 1.324272 67.629250 48 33 32
-0.129417 1.466717 67.475548 48 31 32
-0.129123 1.608516 67.322548 50 32 33
-0.152255 2.581164 79.383003 62 34 35
-0.151445 2.737648 78.960747 65 35 37
-0.149851 2.877251 78.129585 71 38 40
-0.147140 2.990583 76.716385 76 41 43
-0.146761 3.147823 76.518669 81 44 46
-0.146009 3.295783 76.126259 86 46 49
-0.144894 3.433475 75.545143 91 48 51
-0.144894 3.596324 75.545143 94 49 53
-0.145635 3.778403 75.931564 96 50 53
-0.145635 3.942086 75.931564 97 50 52
-0.145264 4.095294 75.737862 96 49 51
-0.146384 5.607598 76.321960 86 41 44
-0.146009 5.757322 76.126259 85 40 42
-0.146384 5.936646 76.321960 86 38 40
-0.146009 6.085527 76.126259 85 37 38
-0.146384 6.265695 76.321960 85 36 37
-0.146384 6.430220 76.321960 85 37 37
-0.146761 6.611741 76.518669 85 38 36
-0.147140 6.794200 76.716385 87 39 37
-0.146761 6.941638 76.518669 90 43 40
-0.147522 7.143408 76.915138 94 46 44
-0.146761 7.271535 76.518669 96 46 46
-0.146384 7.417366 76.321960 93 44 45
-0.146761 7.601432 76.518669 88 42 43
-0.146009 7.726552 76.126259 83 40 43
-0.146384 7.910940 76.321960 79 41 46
-0.144894 7.993271 75.545143 78 45 55
-0.144894 8.156121 75.545143 82 53 68
-0.144526 8.297856 75.353409 84 56 75
-0.144160 8.438874 75.162636 76 50 69
-0.144526 8.622729 75.353409 79 51 71
-0.144526 8.785166 75.353409 104 72 90
-0.144160 8.924951 75.162636 113 76 90
-0.143796 9.064029 74.972832 91 51 62
-0.143434 9.202407 74.783989 76 33 41
-0.143434 9.363616 74.783989 77 32 38
-0.142003 9.429814 74.038010 79 34 39
-0.141650 9.565561 73.853836 81 35 39
-0.140255 9.628954 73.126213 83 35 40
-0.139910 9.762544 72.946541 86 35 40
-0.139910 9.919792 72.946541 89 35 38
-0.139226 10.027764 72.589836 90 35 32
-0.138548 10.134685 72.236603 90 35 27
-0.140255 10.417131 73.126213 89 36 22
-0.140255 10.574767 73.126213 94 46 26
-0.140255 10.732403 73.126213 111 70 46
-0.140601 10.916927 73.306770 133 100 74
-0.140601 11.074952 73.306770 150 124 101
-0.140601 11.232977 73.306770 150 128 110
-0.140255 11.362945 73.126213 135 115 105
-0.139910 11.492274 72.946541 122 103 100
-0.140255 11.678215 73.126213 109 91 95
-0.140255 11.835851 73.126213 102 85 93
-0.141650 12.112824 73.853836 109 94 101
-0.140601 12.181125 73.306770 117 105 111
-0.140601 12.339149 73.306770 111 103 104
-0.140949 12.528108 73.488220 85 81 79
-0.140949 12.686523 73.488220 65 64 60
-0.141299 12.876813 73.670578 98 98 95
0.021191 -4.980915 89.156883 38 23 20
0.020694 -4.676377 87.065224 37 24 21
0.020220 -4.385801 85.069466 34 24 21
0.019767 -4.108248 83.163147 33 23 21
0.019990 -3.973497 84.105499 32 22 20
0.014610 -2.506510 61.468410 33 22 20
0.014550 -2.364216 61.214931 34 23 20
0.014431 -2.213997 60.714195 33 22 20
0.014431 -2.083118 60.714195 33 21 19
0.014285 -1.932479 60.099682 33 21 19
0.014113 -1.781289 59.378483 31 20 18
0.014029 -1.643428 59.024338 30 19 17
0.014029 -1.516192 59.024338 29 19 16
0.014085 -1.394500 59.259964 29 18 16
0.014029 -1.261719 59.024338 28 19 17
0.011363 -0.815853 47.808765 27 20 19
0.011309 -0.709366 47.578915 28 20 19
0.011273 -0.604863 47.426903 28 20 19
0.011273 -0.502627 47.426903 28 20 18
0.010183 -0.269328 42.841618 27 21 17
0.016074 0.012199 67.629250 29 21 17
0.016074 0.157985 67.629250 31 20 17
0.015822 0.299003 66.567810 32 21 19
0.015858 0.443495 66.717400 35 22 21
0.015965 0.591302 67.170235 38 24 23
0.015929 0.734437 67.018608 42 27 27
0.016001 0.882892 67.322548 46 31 30
0.016038 1.030353 67.475548 51 35 35
0.016001 1.173142 67.322548 53 37 37
0.016038 1.321262 67.475548 52 37 37
0.016001 1.463391 67.322548 48 33 33
0.016001 1.608516 67.322548 50 34 34
0.018868 2.581164 79.383003 64 40 42
0.018768 2.737648 78.960747 61 35 36
0.018570 2.877251 78.129585 65 36 37
0.018234 2.990583 76.716385 70 39 41
0.018140 3.139731 76.321960 76 42 44
0.018048 3.287354 75.931564 82 45 47
0.017910 3.424760 75.353409 88 47 50
0.017956 3.596324 75.545143 92 49 52
0.018002 3.768764 75.737862 96 50 52
0.018002 3.932029 75.737862 97 50 52
0.017956 4.084874 75.545143 96 49 51
0.018002 4.258560 75.737862 96 48 51
0.017865 5.036343 75.162636 91 45 50
0.017865 5.198368 75.162636 89 44 49
0.018094 5.429117 76.126259 88 43 47
0.018094 5.593219 76.126259 87 41 45
0.018048 5.742597 75.931564 87 40 42
0.018140 5.936646 76.321960 86 39 38
0.018094 6.085527 76.126259 85 37 35
0.018140 6.265695 76.321960 84 36 32
0.018187 6.446793 76.518669 84 36 31
0.018281 6.645998 76.915138 85 38 31
0.018329 6.829495 77.114914 86 40 32
0.018281 6.977605 76.915138 95 48 41
0.018425 7.199361 77.517601 109 61 55
0.018281 7.309211 76.915138 114 64 61
0.018234 7.455699 76.716385 105 55 54
0.018281 7.640817 76.915138 93 46 47
0.018234 7.786448 76.716385 87 42 45
0.018187 7.931328 76.518669 83 42 47
0.017956 8.156121 75.545143 80 47 59
0.017956 8.318971 75.545143 81 49 64
0.017865 8.438874 75.162636 77 46 62
0.017910 8.622729 75.353409 77 44 60
0.017910 8.785166 75.353409 87 51 64
0.017865 8.924951 75.162636 93 54 65
0.017820 9.064029 74.972832 86 45 52
0.017775 9.202407 74.783989 78 35 41
0.017775 9.363616 74.783989 77 34 38
0.017598 9.429814 74.038010 79 35 38
0.017554 9.565561 73.853836 80 36 39
0.017338 9.605296 72.946541 82 36 39
0.017338 9.762544 72.946541 85 36 39
0.017338 9.919792 72.946541 86 35 37
0.017253 10.027764 72.589836 88 35 35
0.017169 10.134685 72.236603 89 36 33
0.017338 10.391537 72.946541 88 38 31
0.017381 10.574767 73.126213 88 43 33
0.017338 10.706033 72.946541 97 60 47
0.017424 10.916927 73.306770 112 82 68
0.017381 11.047673 73.126213 121 99 85
0.017381 11.205309 73.126213 120 102 91
0.017338 11.335026 72.946541 115 100 93
0.017296 11.464107 72.767754 114 100 98
0.017381 11.678215 73.126213 118 104 107
0.017381 11.835851 73.126213 138 125 130
0.017554 12.112824 73.853836 166 157 161
0.017424 12.181125 73.306770 175 167 170
0.017381 12.308758 73.126213 158 152 154
0.017467 12.528108 73.488220 130 127 126
0.017467 12.686523 73.488220 107 107 105
0.211478 -4.936442 88.360840 39 23 19
0.207768 -4.662704 86.810646 37 24 20
0.203601 -4.385801 85.069466 34 24 20
0.198482 -4.096773 82.930847 33 23 20
0.203019 -4.007556 84.826408 32 23 19
0.147115 -2.506510 61.468410 33 22 20
0.146509 -2.364216 61.214931 33 22 21
0.145310 -2.213997 60.714195 34 22 20
0.145310 -2.083118 60.714195 34 22 20
0.143549 -1.928575 59.978268 34 21 19
0.141547 -1.774192 59.141918 33 20 18
0.140985 -1.640168 58.907227 32 19 17
0.141266 -1.516192 59.024338 30 19 17
0.141830 -1.394500 59.259964 29 19 17
0.140985 -1.259215 58.907227 29 19 17
0.114423 -0.815853 47.808765 28 20 18
0.114056 -0.710505 47.655285 28 20 18
0.113691 -0.605831 47.502789 28 20 18
0.113873 -0.504238 47.578915 27 20 17
0.102535 -0.269328 42.841618 27 21 16
0.161126 0.012144 67.322548 29 21 16
0.161492 0.157626 67.475548 31 20 17
0.159678 0.299675 66.717400 33 20 18
0.159320 0.442501 66.567810 36 22 20
0.160399 0.589967 67.018608 39 24 23
0.160399 0.734437 67.018608 43 28 27
0.160762 0.880895 67.170235 48 32 31
0.161126 1.028017 67.322548 53 38 37
0.160762 1.170488 67.170235 58 42 43
0.161126 1.318266 67.322548 55 40 41
0.161126 1.463391 67.322548 48 33 34
0.160762 1.604877 67.170235 49 34 35
0.161126 1.753641 67.322548 67 51 52
0.189991 2.581164 79.383003 74 53 55
0.188479 2.730386 78.751305 57 33 36
0.186012 2.862187 77.720528 58 31 34
0.182665 2.975207 76.321960 65 36 38
0.182197 3.131681 76.126259 71 39 42
0.181267 3.278968 75.737862 78 43 45
0.180347 3.424760 75.353409 84 45 48
0.180347 3.587197 75.353409 88 47 50
0.180806 3.759174 75.545143 93 48 51
0.181267 3.932029 75.737862 96 49 52
0.180806 4.084874 75.545143 96 48 52
0.180806 4.247724 75.545143 96 47 52
0.180806 4.410573 75.545143 96 47 52
0.179890 4.550267 75.162636 94 46 52
0.180347 4.724252 75.353409 93 46 52
0.180347 5.049126 75.353409 90 45 52
0.180806 5.224823 75.545143 89 44 51
0.182197 5.429117 76.126259 88 42 48
0.182197 5.593219 76.126259 89 40 45
0.181731 5.742597 75.931564 89 39 41
0.182197 5.921424 76.126259 88 38 36
0.182665 6.101171 76.321960 86 36 31
0.183136 6.281844 76.518669 84 35 27
0.183136 6.446793 76.518669 86 38 27
0.185043 6.680613 77.315735 89 43 30
0.185526 6.865158 77.517601 88 42 29
0.185043 7.013947 77.315735 100 53 42
0.186500 7.237154 77.924522 131 83 75
0.185526 7.366463 77.517601 145 95 91
0.185043 7.513947 77.315735 125 75 73
0.186012 7.720826 77.720528 101 52 53
0.185526 7.867769 77.517601 91 44 47
0.184563 7.993131 77.114914 86 43 47
0.182197 8.054758 76.126259 84 43 49
0.181731 8.197840 75.931564 82 44 51
0.180806 8.318971 75.545143 80 44 53
0.180347 8.460293 75.353409 78 43 53
0.180347 8.622729 75.353409 77 41 51
0.180347 8.785166 75.353409 80 42 50
0.179890 8.924951 75.162636 81 42 48
0.179890 9.086976 75.162636 79 38 43
0.179436 9.225645 74.972832 77 36 39
0.178984 9.363616 74.783989 77 35 38
0.177199 9.429814 74.038010 78 37 38
0.177199 9.589416 74.038010 80 38 40
0.174586 9.605296 72.946541 82 39 40
0.175016 9.786590 73.126213 84 38 39
0.175016 9.944225 73.126213 85 37 39
0.173733 10.027764 72.589836 87 37 39
0.172887 10.134685 72.236603 88 38 41
0.174158 10.366067 72.767754 88 40 42
0.174586 10.548785 72.946541 86 43 45
0.174158 10.679792 72.767754 90 54 54
0.174586 10.863281 72.946541 99 71 69
0.174586 11.020530 72.946541 106 86 82
0.175016 11.205309 73.126213 104 89 84
0.174586 11.335026 72.946541 101 90 84
0.173733 11.436077 72.589836 109 100 96
0.174586 11.649522 72.946541 139 130 129
0.174586 11.806770 72.946541 185 178 179
0.176319 12.082767 73.670578 221 217 219
0.175016 12.151122 73.126213 225 222 224
0.175016 12.308758 73.126213 207 204 206
0.175883 12.528108 73.488220 189 188 190
0.397225 -5.066602 87.321304 40 23 20
0.399576 -4.907232 87.837997 39 23 19
0.396061 -4.676377 87.065224 37 24 19
0.388094 -4.398404 85.313911 34 24 19
0.378310 -4.108248 83.163147 33 23 20
0.279620 -2.506510 61.468410 33 23 21
0.279043 -2.369100 61.341408 33 23 21
0.276189 -2.213997 60.714195 34 22 21
0.276189 -2.083118 60.714195 34 22 21
0.272842 -1.928575 59.978268 34 21 20
0.267970 -1.767152 58.907227 34 20 19
0.217833 -0.817169 47.885876 29 21 19
0.217133 -0.711647 47.731899 29 21 19
0.216437 -0.606802 47.578915 28 21 17
0.197740 -0.366976 43.468876 27 20 16
0.194606 -0.268940 42.779888 27 20 15
0.304182 -0.132082 66.867661 28 20 15
0.306251 0.012144 67.322548 29 20 16
0.306947 0.157626 67.475548 30 19 17
0.303498 0.299675 66.717400 33 20 18
0.302818 0.442501 66.567810 36 21 20
0.304182 0.588638 66.867661 39 24 23
0.304868 0.734437 67.018608 43 28 27
0.305558 0.880895 67.170235 48 33 32
0.305558 1.025691 67.170235 54 39 39
0.305558 1.170488 67.170235 59 44 45
0.306251 1.318266 67.322548 57 42 43
0.305558 1.460080 67.170235 51 35 37
0.304868 1.601254 67.018608 51 36 37
0.305558 1.749673 67.170235 67 52 54
0.305558 1.894469 67.170235 91 75 77
0.352628 2.854714 77.517601 55 30 32
0.347189 2.975207 76.321960 61 33 36
0.345413 3.123671 75.931564 67 37 40
0.343656 3.270625 75.545143 73 40 43
0.341916 3.416090 75.162636 79 43 45
0.341916 3.578115 75.162636 84 45 47
0.343656 3.759174 75.545143 89 47 49
0.343656 3.922024 75.545143 93 48 50
0.342783 4.074506 75.353409 95 47 52
0.343656 4.247724 75.545143 95 47 52
0.344532 4.421825 75.737862 94 46 53
0.342783 4.561816 75.353409 93 46 53
0.343656 4.736273 75.545143 92 46 53
0.345413 4.924183 75.931564 91 46 54
0.344532 5.074886 75.737862 90 45 54
0.344532 5.238152 75.737862 90 44 53
0.347189 5.443073 76.321960 91 42 50
0.347189 5.607598 76.321960 93 40 46
0.345413 5.742597 75.931564 93 38 41
0.347189 5.936646 76.321960 92 38 35
0.348084 6.116896 76.518669 89 36 29
0.348084 6.281844 76.518669 87 35 25
0.348984 6.463451 76.716385 99 50 37
0.352628 6.698056 77.517601 115 70 54
0.353551 6.883130 77.720528 107 62 46
0.352628 7.032260 77.517601 103 56 43
0.355412 7.256198 78.129585 135 87 78
0.353551 7.385747 77.720528 159 109 103
0.352628 7.533565 77.517601 138 88 85
0.355412 7.761462 78.129585 108 58 58
0.354479 7.909070 77.924522 93 47 48
0.352628 8.034871 77.517601 88 44 46
0.349888 8.138227 76.915138 85 43 46
0.348084 8.261226 76.518669 82 43 46
0.345413 8.361523 75.931564 80 43 46
0.342783 8.460293 75.353409 79 42 46
0.343656 8.644670 75.545143 78 41 45
0.342783 8.785166 75.353409 78 41 44
0.341916 8.924951 75.162636 79 39 42
0.341916 9.086976 75.162636 78 38 39
0.341052 9.225645 74.972832 77 37 38
0.340193 9.363616 74.783989 76 36 38
0.337642 9.453388 74.223106 79 38 39
0.337642 9.613389 74.223106 81 40 41
0.333473 9.652730 73.306770 83 41 41
0.334299 9.835038 73.488220 84 40 41
0.335962 10.043173 73.853836 85 39 41
0.330212 10.027764 72.589836 86 38 42
0.328605 10.134685 72.236603 88 39 45
0.331021 10.366067 72.767754 89 41 50
0.332652 10.574767 73.126213 88 44 54
0.331834 10.706033 72.946541 91 53 61
0.331834 10.863281 72.946541 99 67 74
0.331021 10.993518 72.767754 104 79 82
0.331834 11.177777 72.946541 101 83 82
0.331021 11.307243 72.767754 101 88 84
0.329406 11.408184 72.412788 123 112 107
0.330212 11.592556 72.589836 169 162 159
0.331834 11.806770 72.946541 215 211 210
0.334299 12.052860 73.488220 238 236 237
0.332652 12.151122 73.126213 242 241 242
0.331834 12.278515 72.946541 236 235 238
0.599568 -4.995917 89.425430 37 22 18
0.592430 -4.745966 88.360840 35 23 18
0.411274 -2.369100 61.341408 33 23 22
0.407903 -2.087386 60.838612 34 22 21
0.402135 -1.928575 59.978268 34 21 21
0.320542 -0.712793 47.808765 30 21 19
0.320027 -0.608753 47.731899 29 21 18
0.290594 -0.365904 43.341961 28 21 16
0.449338 -0.132380 67.018608 27 21 15
0.451376 0.012144 67.322548 29 19 16
0.452401 0.157626 67.475548 30 19 17
0.448326 0.300350 66.867661 31 20 18
0.447318 0.443495 66.717400 35 21 20
0.448326 0.588638 66.867661 38 23 23
0.448326 0.732783 66.867661 43 28 27
0.450354 0.880895 67.170235 48 33 33
0.450354 1.025691 67.170235 54 38 39
0.449338 1.167845 67.018608 59 43 45
0.450354 1.315284 67.170235 59 42 45
0.450354 1.460080 67.170235 54 38 41
0.449338 1.601254 67.018608 53 37 40
0.449338 1.745723 67.018608 60 45 48
0.449338 1.890193 67.018608 70 55 58
0.451376 2.043890 67.322548 72 56 58
0.518377 2.847280 77.315735 55 32 35
0.510402 2.967578 76.126259 58 32 35
0.506505 3.107775 75.545143 62 35 38
0.506505 3.270625 75.545143 68 37 40
0.502668 3.407463 74.972832 73 40 43
0.502668 3.569079 74.972832 79 42 45
0.505220 3.749633 75.353409 84 44 47
0.506505 3.922024 75.545143 88 46 49
0.503941 4.064191 75.162636 90 46 50
0.506505 4.247724 75.545143 91 46 52
0.509096 4.433134 75.931564 91 46 53
0.506505 4.573423 75.545143 92 46 53
0.507798 4.748356 75.737862 92 46 54
0.510402 4.936809 76.126259 91 46 54
0.510402 5.100912 76.126259 91 46 54
0.509096 5.251548 75.931564 93 44 53
0.513033 5.457102 76.518669 95 42 51
0.511714 5.607598 76.321960 97 40 47
0.510402 5.757322 76.126259 98 39 43
0.511714 5.936646 76.321960 98 38 37
0.513033 6.116896 76.518669 93 34 30
0.513033 6.281844 76.518669 90 34 28
0.514358 6.463451 76.716385 119 70 60
0.519730 6.698056 77.517601 160 118 104
0.521091 6.883130 77.720528 145 102 89
0.519730 7.032260 77.517601 107 62 53
0.523833 7.256198 78.129585 115 68 62
0.522458 7.405132 77.924522 137 88 84
0.522458 7.573112 77.924522 128 79 78
0.525215 7.781940 78.335732 108 60 60
0.525215 7.950806 78.335732 96 49 51
0.522458 8.077048 77.924522 90 46 47
0.521091 8.223444 77.720528 87 45 46
0.521091 8.390983 77.720528 84 44 45
0.510402 8.382963 76.126259 82 44 45
0.506505 8.481820 75.545143 80 43 44
0.506505 8.644670 75.545143 79 42 43
0.506505 8.807520 75.545143 79 41 41
0.505220 8.947602 75.353409 79 40 40
0.503941 9.086976 75.162636 79 39 39
0.502668 9.225645 74.972832 78 38 38
0.502668 9.387261 74.972832 77 38 38
0.497642 9.453388 74.223106 79 39 39
0.498889 9.637483 74.409126 81 41 42
0.495166 9.724765 73.853836 82 42 42
0.496401 9.908617 74.038010 84 42 42
0.500142 10.144109 74.596085 85 40 41
0.489083 10.077041 72.946541 85 38 42
0.485504 10.159404 72.412788 87 39 47
0.490287 10.417131 73.126213 90 41 53
0.491498 10.600878 73.306770 91 44 57
0.490287 10.732403 73.126213 95 53 65
0.490287 10.890038 73.126213 103 66 76
0.489083 11.020530 72.946541 102 72 77
0.487884 11.150381 72.767754 103 81 80
0.487884 11.307243 72.767754 124 109 104
0.484323 11.380427 72.236603 163 153 147
0.486691 11.592556 72.589836 202 195 191
0.487884 11.777832 72.767754 219 215 213
0.491498 12.023100 73.306770 222 220 220
0.490287 12.151122 73.126213 231 230 231
0.489083 12.278515 72.946541 241 240 244
0.797141 -4.832256 89.967400 36 23 18
0.543505 -2.369100 61.341408 34 21 22
0.533583 -1.936399 60.221588 35 21 22
0.592470 -0.276226 66.867661 28 22 15
0.595151 -0.132680 67.170235 28 21 16
0.597856 0.012172 67.475548 29 20 16
0.597856 0.157626 67.475548 30 20 17
0.593807 0.301028 67.018608 31 20 19
0.592470 0.444494 66.867661 34 21 21
0.592470 0.588638 66.867661 38 23 24
0.592470 0.732783 66.867661 43 27 28
0.595151 0.880895 67.170235 49 33 34
0.595151 1.025691 67.170235 56 39 40
0.593807 1.167845 67.018608 60 43 44
0.595151 1.315284 67.170235 59 42 44
0.595151 1.460080 67.170235 56 39 41
0.592470 1.597647 66.867661 54 37 39
0.593807 1.745723 67.018608 55 39 41
0.592470 1.885936 66.867661 56 41 43
0.595151 2.039266 67.170235 56 41 43
0.681494 2.832527 76.915138 54 32 35
0.674504 2.967578 76.126259 56 32 34
0.669355 3.107775 75.545143 59 33 35
0.667656 3.262324 75.353409 63 35 38
0.664284 3.407463 74.972832 68 38 41
0.662611 3.560089 74.783989 74 40 43
0.665966 3.740140 75.162636 79 42 45
0.667656 3.912070 75.353409 83 44 47
0.665966 4.064191 75.162636 86 45 49
0.667656 4.236943 75.353409 88 46 51
0.674504 4.444501 76.126259 90 46 52
0.672779 4.596817 75.931564 91 46 52
0.671063 4.748356 75.737862 92 46 52
0.676238 4.949500 76.321960 93 47 52
0.676238 5.114024 76.321960 94 47 51
0.674504 5.265014 76.126259 96 45 51
0.679733 5.471203 76.716385 99 44 49
0.677981 5.622050 76.518669 102 44 49
0.674504 5.757322 76.126259 106 44 48
0.677981 5.951947 76.518669 107 43 46
0.679733 6.132701 76.716385 99 36 36
0.677981 6.281844 76.518669 93 33 32
0.679733 6.463451 76.716385 123 71 68
0.686832 6.698056 77.517601 167 124 119
0.688630 6.883130 77.720528 156 114 110
0.688630 7.050669 77.720528 120 74 73
0.692254 7.256198 78.129585 118 72 71
0.690437 7.405132 77.924522 126 78 79
0.692254 7.593041 78.129585 116 68 70
0.695917 7.802528 78.542969 103 56 58
0.695917 7.971840 78.542969 97 51 52
0.695917 8.141152 78.542969 92 48 49
0.695917 8.310464 78.542969 88 47 48
0.697763 8.502269 78.751305 85 46 46
0.681494 8.469832 76.915138 83 45 45
0.669355 8.481820 75.545143 82 44 44
0.669355 8.644670 75.545143 81 43 42
0.669355 8.807520 75.545143 80 42 41
0.667656 8.947602 75.353409 80 41 40
0.665966 9.086976 75.162636 79 40 39
0.665966 9.249002 75.162636 78 39 39
0.664284 9.387261 74.972832 79 39 39
0.657642 9.453388 74.223106 80 40 41
0.656002 9.589416 74.038010 81 41 42
0.654370 9.724765 73.853836 82 42 43
0.657642 9.933389 74.223106 84 42 43
0.662611 10.169662 74.783989 85 40 42
0.649523 10.126803 73.306770 86 39 44
0.643170 10.184243 72.589836 89 39 49
0.647923 10.417131 73.126213 92 40 55
0.652746 10.653487 73.670578 95 43 60
0.649523 10.758903 73.306770 102 52 68
0.649523 10.916927 73.306770 106 61 75
0.646331 11.020530 72.946541 98 59 68
0.644747 11.150381 72.767754 109 80 83
0.643170 11.279597 72.589836 160 143 141
0.640041 11.380427 72.236603 206 197 192
0.641602 11.564281 72.412788 216 209 205
0.643170 11.749036 72.589836 206 200 198
0.647923 11.993486 73.126213 200 196 197
0.646331 12.121266 72.946541 213 211 214
0.739947 -0.277476 67.170235 29 22 17
0.739947 -0.132680 67.170235 28 21 16
0.743311 0.012172 67.475548 29 20 17
0.743311 0.157626 67.475548 30 20 18
0.739947 0.301709 67.170235 31 21 20
0.736614 0.444494 66.867661 34 22 21
0.736614 0.588638 66.867661 38 23 24
0.736614 0.732783 66.867661 43 26 27
0.738277 0.878906 67.018608 50 33 34
0.738277 1.023376 67.018608 59 41 42
0.736614 1.165215 66.867661 62 44 46
0.738277 1.312315 67.018608 61 43 44
0.738277 1.456784 67.018608 59 41 41
0.734959 1.594057 66.717400 55 38 38
0.734959 1.737877 66.717400 53 37 37
0.734959 1.881698 66.717400 52 37 37
0.736614 2.030080 66.867661 51 36 37
0.738277 2.179132 67.018608 51 34 36
0.836462 2.959988 75.931564 53 30 32
0.830093 3.099887 75.353409 55 31 33
0.830093 3.262324 75.353409 59 32 35
0.823820 3.398880 74.783989 64 35 38
0.821750 3.551144 74.596085 69 38 41
0.825901 3.730696 74.972832 74 41 43
0.827991 3.902166 75.162636 78 43 45
0.823820 4.043716 74.783989 82 45 47
0.830093 4.236943 75.353409 85 45 49
0.838607 4.444501 76.126259 89 45 51
0.838607 4.608604 76.126259 92 45 51
0.836462 4.760500 75.931564 95 45 50
0.842929 4.962256 76.518669 98 45 49
0.840763 5.114024 76.321960 100 45 47
0.838607 5.265014 76.126259 102 45 45
0.842929 5.457102 76.518669 106 46 45
0.842929 5.622050 76.518669 115 54 53
0.838607 5.757322 76.126259 125 63 63
0.842929 5.951947 76.518669 121 60 61
0.845108 6.132701 76.716385 105 44 47
0.845108 6.298076 76.716385 92 34 37
0.845108 6.463451 76.716385 104 51 55
0.853934 6.698056 77.517601 131 85 89
0.856169 6.883130 77.720528 137 93 96
0.856169 7.050669 77.720528 133 89 93
0.862946 7.275344 78.335732 150 105 110
0.860675 7.424620 78.129585 153 107 113
0.862946 7.613075 78.335732 128 82 88
0.869832 7.844030 78.960747 106 61 66
0.869832 8.014243 78.960747 98 53 58
0.874483 8.228223 79.383003 93 51 55
0.881554 8.467265 80.024910 90 49 52
0.888741 8.710205 80.677292 87 48 50
0.862946 8.626267 78.335732 85 47 48
0.840763 8.569037 76.321960 84 46 46
0.836462 8.688889 75.931564 82 45 44
0.834328 8.829988 75.737862 81 44 42
0.830093 8.947602 75.353409 80 42 41
0.827991 9.086976 75.162636 80 41 40
0.830093 9.272476 75.353409 80 40 39
0.825901 9.387261 74.972832 81 40 41
0.817642 9.453388 74.223106 82 40 42
0.811555 9.541825 73.670578 82 41 43
0.811555 9.700634 73.670578 84 43 44
0.817642 9.933389 74.223106 85 43 44
0.821750 10.144109 74.596085 86 42 44
0.811555 10.177061 73.670578 87 40 46
0.803579 10.234288 72.946541 90 40 51
0.807547 10.442853 73.306770 94 41 56
0.811555 10.653487 73.670578 98 44 62
0.809546 10.785533 73.488220 106 53 71
0.809546 10.943949 73.488220 107 58 73
0.803579 11.020530 72.946541 95 52 63
0.801609 11.150381 72.767754 118 84 90
0.799649 11.279597 72.589836 183 163 165
0.795758 11.380427 72.236603 220 207 206
0.795758 11.536144 72.236603 206 195 193
0.797699 11.720379 72.412788 190 182 181
0.803579 11.964019 72.946541 190 185 187
0.882746 -0.276850 67.018608 29 21 17
0.882746 -0.132380 67.018608 28 20 16
0.888765 0.012172 67.475548 29 20 17
0.888765 0.157626 67.475548 30 20 19
0.884744 0.301709 67.170235 32 21 20
0.880758 0.444494 66.867661 35 22 21
0.880758 0.588638 66.867661 39 23 23
0.876809 0.729497 66.567810 43 25 26
0.880758 0.876927 66.867661 51 31 33
0.880758 1.021071 66.867661 61 40 41
0.878779 1.162597 66.717400 68 46 47
0.882746 1.312315 67.018608 67 46 47
0.880758 1.453503 66.867661 64 44 43
0.878779 1.594057 66.717400 58 40 39
0.878779 1.737877 66.717400 53 36 35
0.876809 1.877479 66.567810 49 33 33
0.878779 2.025518 66.717400 48 33 33
0.880758 2.174224 66.867661 48 32 33
0.997593 2.952437 75.737862 50 29 30
0.987517 3.084231 74.972832 52 29 30
0.987517 3.245847 74.972832 55 30 33
0.980092 3.381843 74.409126 60 33 36
0.975204 3.524577 74.038010 65 37 39
0.980092 3.702645 74.409126 70 39 42
0.985029 3.882508 74.783989 74 41 44
0.980092 4.023448 74.409126 79 43 45
0.987517 4.215544 74.972832 83 43 47
1.002709 4.444501 76.126259 88 43 48
1.002709 4.608604 76.126259 94 43 48
0.997593 4.748356 75.737862 99 43 47
1.005287 4.949500 76.321960 103 43 44
1.005287 5.114024 76.321960 105 43 41
1.000145 5.251548 75.931564 105 42 37
1.007878 5.457102 76.518669 115 52 46
1.005287 5.607598 76.321960 144 83 79
1.002709 5.757322 76.126259 161 101 100
1.005287 5.936646 76.321960 137 78 80
1.007878 6.116896 76.518669 104 46 52
1.007878 6.281844 76.518669 89 34 43
1.010482 6.463451 76.716385 93 42 53
1.021036 6.698056 77.517601 112 65 78
1.023708 6.883130 77.720528 127 83 95
1.026395 7.069174 77.924522 135 93 104
1.034541 7.294591 78.542969 163 120 132
1.031812 7.444210 78.335732 182 138 149
1.034541 7.633215 78.542969 161 116 127
1.045606 7.885977 79.383003 127 83 92
1.048409 8.078701 79.595825 107 64 72
1.059774 8.339717 80.458649 98 56 63
1.068461 8.582938 81.118149 92 52 57
1.074331 8.805922 81.563850 89 50 53
1.062654 8.884118 80.677292 86 49 50
1.015732 8.990534 77.114914 81 44 43
0.995055 8.970370 75.545143 81 43 41
0.990017 9.086976 75.162636 80 42 40
0.995055 9.296070 75.545143 81 41 40
0.987517 9.387261 74.972832 82 41 42
0.975204 9.429814 74.038010 83 42 44
0.967962 9.518207 73.488220 84 43 45
0.970364 9.700634 73.670578 86 45 47
0.980092 9.958284 74.409126 88 47 49
0.985029 10.169662 74.783989 87 45 48
0.977642 10.253388 74.223106 87 42 48
0.972778 10.361581 73.853836 90 41 52
0.970364 10.494678 73.670578 94 42 56
0.975204 10.706622 74.038010 98 46 63
0.965572 10.758903 73.306770 106 54 72
0.965572 10.916927 73.306770 103 54 70
0.960827 11.020530 72.946541 95 52 65
0.958472 11.150381 72.767754 127 91 100
0.953797 11.252087 72.412788 186 159 165
0.949167 11.352804 72.061264 206 187 189
0.949167 11.508144 72.061264 193 179 180
0.951476 11.691862 72.236603 190 182 182
1.020306 -0.274988 66.567810 30 21 16
1.022599 -0.131785 66.717400 28 20 16
1.031874 0.012144 67.322548 29 20 17
1.034220 0.157626 67.475548 30 20 18
1.029540 0.301709 67.170235 32 20 19
1.024902 0.444494 66.867661 35 21 21
1.024902 0.588638 66.867661 39 22 22
1.018024 0.727865 66.418884 43 24 24
1.022599 0.874956 66.717400 50 29 29
1.020306 1.016492 66.567810 63 39 40
1.020306 1.159990 66.567810 73 49 48
1.024902 1.309359 66.867661 75 52 50
1.024902 1.453503 66.867661 71 49 47
1.022599 1.594057 66.717400 63 44 41
1.020306 1.733981 66.567810 55 37 35
1.020306 1.877479 66.567810 50 33 31
1.022599 2.025518 66.717400 48 32 31
1.024902 2.174224 66.867661 48 31 31
1.126378 3.023157 73.488220 50 29 30
1.137642 3.213389 74.223106 53 30 32
1.129173 3.348277 73.670578 57 32 34
1.123597 3.489767 73.306770 61 35 36
1.126378 3.656821 73.488220 66 38 39
1.131982 3.834218 73.853836 70 40 41
1.129173 3.983512 73.670578 75 41 43
1.134805 4.162981 74.038010 81 42 45
1.166812 4.444501 76.126259 87 42 46
1.163828 4.596817 75.931564 95 42 46
1.160859 4.748356 75.737862 101 41 44
1.169811 4.949500 76.321960 105 40 40
1.169811 5.114024 76.321960 107 39 35
1.163828 5.251548 75.931564 105 36 29
1.172826 5.457102 76.518669 125 61 52
1.169811 5.607598 76.321960 178 125 117
1.166812 5.757322 76.126259 194 143 138
1.169811 5.936646 76.321960 139 87 86
1.172826 6.116896 76.518669 90 40 45
1.172826 6.281844 76.518669 84 36 45
1.175857 6.463451 76.716385 93 49 61
1.188137 6.698056 77.517601 111 69 84
1.191248 6.883130 77.720528 122 83 98
1.194374 7.069174 77.924522 125 86 100
1.203853 7.294591 78.542969 153 113 127
1.200677 7.444210 78.335732 194 153 168
1.203853 7.633215 78.542969 194 151 166
1.216729 7.885977 79.383003 157 114 127
1.223271 8.100418 79.809792 123 80 93
1.236567 8.362379 80.677292 105 62 74
1.243324 8.582938 81.118149 95 55 64
1.250156 8.805922 81.563850 90 52 59
1.246731 8.957138 81.340393 86 50 53
1.250156 9.157570 81.563850 83 48 49
1.219991 9.108191 79.595825 82 46 45
1.200677 9.132864 78.335732 81 45 43
1.169811 9.062611 76.321960 81 44 42
1.157905 9.133220 75.545143 81 43 41
1.160859 9.319784 75.737862 82 43 42
1.149133 9.387261 74.972832 84 43 45
1.131982 9.406357 73.853836 86 44 47
1.126378 9.518207 73.488220 87 47 50
1.131982 9.724765 73.853836 89 49 52
1.143358 9.983305 74.596085 89 49 52
1.149133 10.195342 74.972832 89 47 52
1.146238 10.330871 74.783989 88 45 52
1.140493 10.439487 74.409126 91 44 55
1.134805 10.547021 74.038010 93 44 58
1.137642 10.733389 74.223106 97 47 63
1.126378 10.785533 73.488220 100 52 69
1.126378 10.943949 73.488220 97 51 67
1.120829 11.047673 73.126213 98 56 71
1.118075 11.177777 72.946541 131 94 107
1.109894 11.252087 72.412788 169 139 148
1.104506 11.352804 72.061264 175 152 158
1.104506 11.508144 72.061264 178 162 166
1.107194 11.691862 72.236603 194 186 188
1.158609 -0.273760 66.270630 31 20 17
1.156028 -0.130611 66.123032 29 20 16
1.171685 0.012089 67.018608 29 19 16
1.174336 0.156913 67.170235 29 19 17
1.171685 0.301028 67.018608 32 19 19
1.166419 0.443495 66.717400 35 21 20
1.166419 0.587316 66.717400 39 21 21
1.156028 0.724622 66.123032 43 23 23
1.163804 0.872994 66.567810 50 27 27
1.158609 1.011954 66.270630 63 38 37
1.156028 1.152239 66.123032 76 52 49
1.166419 1.306417 66.717400 84 59 57
1.169047 1.453503 66.867661 85 62 58
1.166419 1.594057 66.717400 78 57 53
1.163804 1.733981 66.567810 66 47 43
1.163804 1.877479 66.567810 56 38 35
1.166419 2.025518 66.717400 52 34 33
1.275323 2.686377 72.946541 48 32 31
1.262912 2.815950 72.236603 47 31 31
1.262912 2.971668 72.236603 48 30 31
1.278465 3.165900 73.126213 50 30 32
1.278465 3.323536 73.126213 53 31 33
1.272198 3.464107 72.767754 56 33 33
1.272198 3.620969 72.767754 60 35 35
1.278465 3.796442 73.126213 65 38 37
1.281621 3.963841 73.306770 71 39 40
1.281621 4.121865 73.306770 77 40 42
1.327511 4.433134 75.931564 85 40 44
1.327511 4.596817 75.931564 93 40 44
1.324124 4.748356 75.737862 101 38 42
1.334336 4.949500 76.321960 107 37 39
1.334336 5.114024 76.321960 109 36 34
1.327511 5.251548 75.931564 107 33 28
1.334336 5.443073 76.321960 128 64 55
1.334336 5.607598 76.321960 181 132 123
1.330914 5.757322 76.126259 187 143 135
1.334336 5.936646 76.321960 124 79 73
1.337775 6.116896 76.518669 80 38 37
1.337775 6.281844 76.518669 81 42 46
1.341232 6.463451 76.716385 96 60 67
1.355239 6.698056 77.517601 116 82 92
1.358787 6.883130 77.720528 122 88 101
1.365939 7.087778 78.129585 116 82 96
1.373166 7.294591 78.542969 143 107 123
1.373166 7.463903 78.542969 199 163 180
1.376808 7.653463 78.751305 218 183 200
1.391573 7.907119 79.595825 187 147 167
1.395314 8.100418 79.809792 145 101 122
1.414323 8.385165 80.897118 115 72 92
1.418187 8.582938 81.118149 100 58 74
1.425980 8.805922 81.563850 93 53 65
1.425980 8.981746 81.563850 88 51 59
1.425980 9.157570 81.563850 84 48 52
1.380470 9.035520 78.960747 82 46 46
1.365939 9.108830 78.129585 82 45 44
1.334336 9.062611 76.321960 82 45 43
1.317403 9.110040 75.353409 82 45 43
1.320755 9.296070 75.545143 83 45 43
1.310749 9.387261 74.972832 85 45 46
1.294406 9.429814 74.038010 87 47 49
1.291186 9.565561 73.853836 88 48 52
1.291186 9.724765 73.853836 89 49 53
1.304162 9.983305 74.596085 89 49 53
1.310749 10.195342 74.972832 89 48 52
1.307447 10.330871 74.783989 89 47 54
1.304162 10.465717 74.596085 90 46 57
1.297642 10.573389 74.223106 91 47 59
1.297642 10.733389 74.223106 93 50 63
1.284794 10.785533 73.488220 94 52 65
1.284794 10.943949 73.488220 92 52 66
1.281621 11.074952 73.306770 99 64 75
1.275323 11.177777 72.946541 123 92 101
1.265992 11.252087 72.412788 140 114 122
1.262912 11.380427 72.236603 138 116 124
1.262912 11.536144 72.236603 150 134 142
1.886915 -2.675225 96.081688 33 20 19
1.295681 -0.272543 65.976097 31 20 17
1.289948 -0.129745 65.684166 29 19 17
1.307302 0.012008 66.567810 29 18 16
1.313191 0.156206 66.867661 29 18 17
1.313191 0.300350 66.867661 32 19 19
1.307302 0.442501 66.567810 36 20 20
1.304377 0.584688 66.418884 39 20 20
1.295681 0.723012 65.976097 43 22 21
1.301466 0.869097 66.270630 50 26 25
1.292809 1.005223 65.829803 61 35 33
1.289948 1.144592 65.684166 77 51 47
1.301466 1.297668 66.270630 93 68 63
1.310240 1.450237 66.717400 103 79 74
1.310240 1.594057 66.717400 100 78 73
1.307302 1.733981 66.567810 84 63 59
1.307302 1.877479 66.567810 67 47 45
1.310240 2.025518 66.717400 58 39 37
1.439646 2.541618 73.306770 51 35 34
1.425566 2.673241 72.589836 49 34 33
1.404956 2.788808 71.540344 48 33 32
1.378384 2.887365 70.187332 48 32 32
1.381651 3.045866 70.353653 49 31 32
1.415186 3.275135 72.061264 50 31 31
1.408349 3.413902 71.713142 52 32 31
1.408349 3.568491 71.713142 55 33 32
1.422089 3.759403 72.412788 60 35 34
1.432572 3.944362 72.946541 65 37 36
1.429060 4.091558 72.767754 72 38 38
1.491193 4.596817 75.931564 89 38 42
1.487389 4.748356 75.737862 98 37 41
1.498860 4.949500 76.321960 104 36 39
1.498860 5.114024 76.321960 108 35 37
1.495017 5.265014 76.126259 106 34 32
1.502723 5.457102 76.518669 120 54 49
1.498860 5.607598 76.321960 153 98 91
1.495017 5.757322 76.126259 151 103 95
1.498860 5.936646 76.321960 107 64 57
1.502723 6.116896 76.518669 79 43 38
1.502723 6.281844 76.518669 80 48 47
1.506606 6.463451 76.716385 105 76 79
1.526326 6.715590 77.720528 142 115 120
1.526326 6.883130 77.720528 149 122 131
1.538408 7.106479 78.335732 127 98 111
1.546569 7.313940 78.751305 142 111 127
1.546569 7.483702 78.751305 200 171 189
1.554818 7.694281 79.171310 235 210 226
1.571581 7.949745 80.024910 217 187 206
1.575829 8.144204 80.241196 174 135 158
1.593051 8.408075 81.118149 136 94 118
1.597415 8.606453 81.340393 112 70 90
1.601804 8.805922 81.563850 96 56 72
1.597415 9.132481 81.340393 85 48 53
1.542478 8.987713 78.542969 83 47 48
1.506606 8.944071 76.716385 83 46 45
1.491193 9.016254 75.931564 83 46 44
1.479839 9.272476 75.353409 84 46 44
1.472365 9.387261 74.972832 83 46 46
1.457642 9.453388 74.223106 84 46 48
1.450390 9.565561 73.853836 84 47 50
1.450390 9.724765 73.853836 85 47 51
1.464966 9.983305 74.596085 85 47 51
1.468657 10.169662 74.783989 87 48 53
1.468657 10.330871 74.783989 91 49 57
1.464966 10.465717 74.596085 91 49 58
1.457642 10.573389 74.223106 89 48 58
1.457642 10.733389 74.223106 92 52 61
1.443210 10.785533 73.488220 92 54 63
1.443210 10.943949 73.488220 91 56 64
1.439646 11.074952 73.306770 100 68 76
1.432572 11.177777 72.946541 114 86 93
1.418629 11.380427 72.236603 107 86 95
2.094034 -2.675225 96.081688 33 19 18
1.211717 -0.828922 55.597832 29 20 17
1.431541 -0.271337 65.684166 30 20 19
1.425235 -0.129173 65.394806 30 19 18
1.441106 0.011928 66.123032 29 19 18
1.450800 0.155506 66.567810 30 19 18
1.454060 0.299675 66.717400 32 19 19
1.447554 0.441511 66.418884 35 19 19
1.444323 0.583383 66.270630 39 19 19
1.434715 0.721409 65.829803 43 20 19
1.441106 0.867161 66.123032 48 24 21
1.431541 1.002999 65.684166 57 31 28
1.428381 1.142065 65.539169 74 48 44
1.437904 1.291901 65.976097 98 73 67
1.454060 1.450237 66.717400 118 95 89
1.454060 1.594057 66.717400 121 98 92
1.454060 1.737877 66.717400 104 83 78
1.454060 1.881698 66.717400 81 61 57
1.460624 2.034662 67.018608 66 47 44
1.566723 2.647350 71.886787 51 36 35
1.536952 2.749063 70.520767 49 35 34
1.522486 2.873778 69.857040 48 33 33
1.504783 2.989199 69.044746 48 32 32
1.501292 3.130755 68.884552 48 31 31
1.518912 3.317736 69.693054 49 31 30
1.522486 3.476130 69.857040 52 32 31
1.533310 3.652501 70.353653 56 33 32
1.582046 3.925075 72.589836 61 35 34
1.578187 4.071599 72.412788 67 36 36
1.659120 4.608604 76.126259 83 36 40
1.650655 4.748356 75.737862 92 36 41
1.667672 4.962256 76.518669 98 36 40
1.667672 5.127205 76.518669 103 36 40
1.659120 5.265014 76.126259 103 36 37
1.667672 5.457102 76.518669 108 46 43
1.667672 5.622050 76.518669 120 65 58
1.659120 5.757322 76.126259 116 69 61
1.663385 5.936646 76.321960 95 56 47
1.671981 6.132701 76.716385 78 46 37
1.671981 6.298076 76.716385 78 52 45
1.676313 6.480196 76.915138 118 96 92
1.693866 6.715590 77.720528 180 161 162
1.698311 6.901196 77.924522 196 176 183
1.711790 7.125279 78.542969 160 136 149
1.725484 7.352948 79.171310 153 125 142
1.725484 7.523614 79.171310 201 174 193
1.739400 7.756332 79.809792 241 220 236
1.753541 7.992833 80.458649 240 216 235
1.753541 8.166275 80.458649 209 176 200
1.772758 8.431111 81.340393 169 128 155
1.772758 8.606453 81.340393 132 89 113
1.777628 8.805922 81.563850 105 62 80
1.767914 9.107529 81.118149 89 48 56
1.702781 8.940409 78.129585 87 47 51
1.659120 8.875271 76.126259 86 48 48
1.650655 8.993254 75.737862 86 48 46
1.638118 9.249002 75.162636 84 47 46
1.629866 9.363616 74.783989 83 47 47
1.617642 9.453388 74.223106 82 47 48
1.609594 9.565561 73.853836 81 46 49
1.605600 9.700634 73.670578 81 46 49
1.621696 9.958284 74.409126 83 46 50
1.625770 10.144109 74.596085 88 50 55
1.629866 10.330871 74.783989 95 54 61
1.625770 10.465717 74.596085 92 52 59
1.617642 10.573389 74.223106 88 50 55
1.621696 10.760289 74.409126 89 54 58
1.605600 10.812297 73.670578 89 58 61
1.605600 10.971106 73.670578 89 61 64
1.601625 11.102365 73.488220 99 74 76
1.593736 11.205309 73.126213 110 88 90
2.293731 -2.666595 95.771751 32 19 17
1.331567 -0.828922 55.597832 28 19 16
1.321667 -0.703800 55.184464 29 20 17
1.573134 -0.271337 65.684166 30 19 19
1.566204 -0.129173 65.394806 30 19 18
1.573134 0.011848 65.684166 30 19 18
1.587180 0.154811 66.270630 31 19 18
1.594297 0.299003 66.567810 32 19 18
1.590731 0.441511 66.418884 35 19 18
1.583645 0.582083 66.123032 38 18 18
1.573134 0.719813 65.684166 43 19 18
1.580126 0.865234 65.976097 47 22 20
1.573134 1.002999 65.684166 53 27 24
1.566204 1.139549 65.394806 68 43 39
1.576622 1.289037 65.829803 97 74 68
1.601479 1.453503 66.867661 125 103 98
1.605094 1.601254 67.018608 134 112 106
1.605094 1.745723 67.018608 119 98 94
1.605094 1.890193 67.018608 96 76 73
1.612373 2.043890 67.322548 79 60 58
1.688971 2.445025 70.520767 61 45 44
1.692992 2.603227 70.688675 55 40 39
1.677020 2.729612 70.021797 52 38 37
1.657475 2.846982 69.205696 50 36 35
1.630864 2.948063 68.094589 49 35 34
1.616038 3.066717 67.475548 49 33 33
1.623417 3.226839 67.783661 49 32 32
1.638379 3.404045 68.408394 51 33 32
1.642163 3.559712 68.566376 53 33 33
1.717528 4.032259 71.713142 63 35 35
1.818559 4.596817 75.931564 77 36 39
1.813920 4.748356 75.737862 84 37 40
1.832620 4.962256 76.518669 91 37 42
1.832620 5.127205 76.518669 95 37 43
1.823222 5.265014 76.126259 97 39 42
1.832620 5.457102 76.518669 99 44 44
1.832620 5.622050 76.518669 100 51 47
1.827909 5.772122 76.321960 97 54 48
1.832620 5.951947 76.518669 88 53 44
1.842116 6.148589 76.915138 75 48 38
1.837356 6.298076 76.716385 72 50 42
1.842116 6.480196 76.915138 118 101 97
1.861405 6.715590 77.720528 195 182 182
1.866290 6.901196 77.924522 224 213 218
1.886092 7.144179 78.751305 191 174 186
1.896151 7.352948 79.171310 165 142 160
1.896151 7.523614 79.171310 193 167 189
1.911443 7.756332 79.809792 231 207 228
1.916595 7.949745 80.024910 245 223 243
1.916595 8.122252 80.024910 234 205 229
1.937484 8.385165 80.897118 198 160 185
1.937484 8.559551 80.897118 151 108 130
1.948100 8.781796 81.340393 114 70 86
1.866290 8.916944 77.924522 92 50 53
1.813920 8.829988 75.737862 89 50 50
1.791075 9.363616 74.783989 82 48 49
1.777642 9.453388 74.223106 81 47 49
1.768798 9.565561 73.853836 80 46 49
1.764409 9.700634 73.670578 79 46 50
1.777642 9.933389 74.223106 81 45 49
1.786574 10.144109 74.596085 90 52 57
1.791075 10.330871 74.783989 99 60 64
1.786574 10.465717 74.596085 96 57 60
1.777642 10.573389 74.223106 87 52 52
1.782097 10.760289 74.409126 86 55 53
1.773209 10.866223 74.038010 86 59 55
1.768798 10.998397 73.853836 87 63 59
1.773209 11.185425 74.038010 101 80 77
1.755695 11.232977 73.306770 118 99 98
1.454140 -0.830478 55.702145 29 20 17
1.443308 -0.705111 55.287228 29 21 18
1.429994 -0.580525 54.777199 30 21 20
1.703421 -0.128889 65.251083 30 20 19
1.707173 0.011796 65.394806 30 20 19
1.722348 0.154123 65.976097 31 19 18
1.737795 0.299003 66.567810 32 19 18
1.733907 0.441511 66.418884 35 18 18
1.726184 0.582083 66.123032 38 18 18
1.710942 0.718224 65.539169 42 19 18
1.722348 0.865234 65.976097 45 22 20
1.710942 1.000785 65.539169 49 26 23
1.707173 1.139549 65.394806 61 39 36
1.722348 1.291901 65.976097 93 71 68
1.773585 2.062598 67.938766 96 76 76
1.823663 2.422013 69.857040 71 54 54
1.827964 2.578669 70.021797 61 47 46
1.819382 2.716797 69.693054 57 43 42
1.798275 2.833771 68.884552 54 40 39
1.773585 2.941317 67.938766 52 38 37
1.757498 3.059763 67.322548 51 37 36
1.761492 3.212172 67.475548 51 35 34
1.769536 3.372958 67.783661 51 34 33
1.769536 3.519076 67.783661 52 34 34
1.845373 3.974656 70.688675 60 34 35
1.977185 4.585091 75.737862 71 36 38
1.977185 4.748356 75.737862 77 37 40
1.992434 4.949500 76.321960 83 37 42
1.992434 5.114024 76.321960 87 38 43
1.987325 5.265014 76.126259 90 40 43
1.997569 5.457102 76.518669 91 43 44
1.997569 5.622050 76.518669 91 46 45
1.992434 5.772122 76.321960 88 49 45
1.997569 5.951947 76.518669 83 51 44
2.007919 6.148589 76.915138 75 49 42
2.002730 6.298076 76.716385 70 51 44
2.007919 6.480196 76.915138 101 87 83
2.028944 6.715590 77.720528 164 153 155
2.034269 6.901196 77.924522 205 196 202
2.055853 7.144179 78.751305 193 180 192
2.072344 7.372608 79.383003 161 143 162
2.066818 7.523614 79.171310 171 149 172
2.077900 7.735538 79.595825 212 187 211
2.083486 7.928375 79.809792 234 209 231
2.083486 8.100418 79.809792 231 202 223
2.100425 8.339717 80.458649 202 166 186
2.106132 8.536292 80.677292 154 111 129
2.117641 8.757802 81.118149 117 74 86
2.023647 8.870379 77.517601 97 53 55
1.972154 8.807520 75.545143 92 50 51
1.967149 8.947602 75.353409 90 50 50
1.952284 9.363616 74.783989 82 48 51
1.937642 9.453388 74.223106 80 47 51
1.928002 9.565561 73.853836 79 46 51
1.923217 9.700634 73.670578 78 45 50
1.937642 9.933389 74.223106 80 45 49
1.942498 10.118686 74.409126 90 53 56
1.952284 10.330871 74.783989 100 61 63
1.947379 10.465717 74.596085 97 59 58
1.937642 10.573389 74.223106 90 56 51
1.942498 10.760289 74.409126 87 57 50
1.932810 10.866223 74.038010 86 60 53
1.932810 11.025825 74.038010 89 66 60
1.932810 11.185425 74.038010 107 87 84
1.913720 11.232977 73.306770 132 113 114
1.577174 -0.832039 55.806847 30 21 18
1.565404 -0.706426 55.390377 31 22 19
1.559585 -0.584841 55.184464 32 22 20
1.840037 -0.128606 65.107986 31 20 19
1.836010 0.011719 64.965523 31 20 19
1.856320 0.153441 65.684166 31 20 19
1.881293 0.299003 66.567810 33 19 19
1.885521 0.443495 66.717400 35 19 18
1.868723 0.582083 66.123032 38 18 19
1.848142 0.716642 65.394806 41 19 19
1.860436 0.863316 65.829803 44 22 21
1.852222 1.000785 65.539169 46 25 23
1.848142 1.139549 65.394806 57 37 36
1.868723 1.294778 66.123032 90 70 70
1.993009 1.532911 70.520767 128 109 109
1.993009 1.684930 70.520767 141 123 122
1.946767 1.942820 68.884552 124 104 105
1.946767 2.091312 68.884552 112 92 93
1.974251 2.422013 69.857040 83 65 65
1.978907 2.578669 70.021797 72 56 55
1.969617 2.716797 69.693054 66 50 49
1.946767 2.833771 68.884552 61 46 46
1.920038 2.941317 67.938766 59 44 43
1.906947 3.066717 67.475548 58 42 42
1.902623 3.204888 67.322548 55 40 40
1.906947 3.357626 67.475548 53 37 37
1.906947 3.503081 67.475548 52 35 35
1.983585 3.946467 70.187332 57 34 35
1.965004 4.059381 69.529839 61 35 36
2.118830 4.700393 74.972832 72 37 39
2.151427 4.936809 76.126259 77 38 41
2.151427 5.100912 76.126259 81 38 43
2.145925 5.251548 75.931564 84 39 43
2.151427 5.429117 76.126259 86 41 44
2.156958 5.607598 76.321960 85 44 44
2.156958 5.772122 76.321960 83 47 45
2.162517 5.951947 76.518669 81 50 46
2.173722 6.148589 76.915138 77 51 47
2.168105 6.298076 76.716385 72 54 51
2.179368 6.497027 77.114914 82 69 68
2.190748 6.698056 77.517601 114 103 107
2.202248 6.901196 77.924522 152 142 151
2.231534 7.163179 78.960747 161 150 165
2.237484 7.352948 79.171310 140 125 147
2.237484 7.523614 79.171310 153 134 158
2.237484 7.694281 79.171310 202 178 203
2.249482 7.907119 79.595825 221 193 216
2.249482 8.078701 79.595825 210 178 199
2.267721 8.317177 80.241196 184 147 163
2.267721 8.490149 80.241196 140 99 111
2.273866 8.686600 80.458649 113 71 78
2.185043 8.847280 77.315735 99 55 56
2.135004 8.807520 75.545143 93 51 52
2.129585 8.947602 75.353409 92 51 53
2.118830 9.225645 74.972832 88 50 56
2.113493 9.363616 74.783989 84 48 54
2.097642 9.453388 74.223106 80 46 52
2.087206 9.565561 73.853836 79 45 51
2.082026 9.700634 73.670578 79 44 50
2.097642 9.933389 74.223106 81 44 49
2.108182 10.144109 74.596085 89 50 52
2.113493 10.330871 74.783989 96 57 56
2.108182 10.465717 74.596085 97 59 54
2.097642 10.573389 74.223106 96 62 53
2.102899 10.760289 74.409126 92 63 51
2.092411 10.866223 74.038010 87 62 52
2.092411 11.025825 74.038010 90 68 60
1.691117 -0.709072 55.597832 32 22 19
1.971739 0.011693 64.823669 31 20 19
1.989112 0.152765 65.394806 32 20 19
2.020261 0.298334 66.418884 33 20 19
2.024791 0.442501 66.567810 35 19 19
2.020261 0.584688 66.418884 38 19 20
1.989112 0.716642 65.394806 41 19 20
2.002343 0.863316 65.829803 42 22 21
1.989112 0.998580 65.394806 45 25 25
1.984740 1.137045 65.251083 56 37 38
2.170809 1.551335 71.368370 123 105 108
2.160423 1.697023 71.026894 137 119 122
2.145028 1.836949 70.520767 138 119 122
2.134886 1.979564 70.187332 141 121 123
2.119851 2.115858 69.693054 131 110 111
2.139945 2.287572 70.353653 108 87 88
2.124839 2.422013 69.857040 92 72 72
2.129851 2.578669 70.021797 84 65 65
2.119851 2.716797 69.693054 79 62 61
2.100132 2.840362 69.044746 75 58 58
2.071231 2.948063 68.094589 73 57 57
2.052402 3.066717 67.475548 73 58 58
2.047747 3.204888 67.322548 68 53 53
2.052402 3.357626 67.475548 58 43 43
2.052402 3.503081 67.475548 52 36 36
2.043115 3.632026 67.170235 52 34 34
2.085581 3.855325 68.566376 54 34 34
2.100132 4.031059 69.044746 58 35 35
2.235289 4.607316 73.488220 67 37 38
2.303716 4.911621 75.737862 72 38 40
2.303716 5.074886 75.737862 76 39 42
2.297854 5.224823 75.545143 80 39 43
2.309608 5.415231 75.931564 82 41 44
2.315530 5.593219 76.126259 82 43 45
2.315530 5.757322 76.126259 81 45 46
2.333480 5.967327 76.716385 80 48 48
2.339525 6.148589 76.915138 78 52 51
2.333480 6.298076 76.716385 75 56 57
2.345602 6.497027 77.114914 74 62 65
2.357850 6.698056 77.517601 82 74 81
2.370227 6.901196 77.924522 104 97 110
2.408151 7.182281 79.171310 119 111 130
2.414590 7.372608 79.383003 120 110 132
2.414590 7.543731 79.383003 153 140 163
2.414590 7.714854 79.383003 208 191 210
2.421063 7.907119 79.595825 220 197 215
2.421063 8.078701 79.595825 199 169 187
2.434115 8.294759 80.024910 167 132 145
2.440694 8.490149 80.241196 127 89 97
2.440694 8.663123 80.241196 110 69 74
2.770112 10.028698 91.071297 116 73 75
2.357850 8.870379 77.517601 98 55 55
2.297854 8.807520 75.545143 92 50 51
2.292022 8.947602 75.353409 94 52 56
2.268986 9.018481 74.596085 96 56 61
2.280446 9.225645 74.972832 93 54 61
2.274702 9.363616 74.783989 86 47 55
2.257642 9.453388 74.223106 81 44 51
