ply
format ascii 1.0
element vertex 1231
property float x
property float y
property float z
property uchar red
property uchar green
property uchar blue
end_header
-1.608867 2.695842 24.969927 104 45 55
-1.603473 2.740449 24.886204 103 45 53
-3.516440 7.068668 54.575813 99 47 51
-3.516440 7.186315 54.575813 99 47 51
-3.516440 7.303962 54.575813 100 47 52
-3.503559 7.394424 54.375900 101 49 53
-3.497154 7.497908 54.276493 103 50 55
-3.509988 7.642854 54.475674 105 50 56
-2.889642 6.775461 44.847797 105 49 56
-2.876606 6.841136 44.645477 107 53 57
-3.509988 9.052029 54.475674 94 47 49
-3.497154 9.135933 54.276493 92 47 49
-3.497154 9.252935 54.276493 91 47 49
-3.478079 9.318829 53.980442 90 46 49
-3.471766 9.418068 53.882473 88 44 47
-3.471766 9.534221 53.882473 87 43 46
-3.471766 9.650373 53.882473 85 41 43
-3.459210 9.731203 53.687599 83 39 41
-3.452966 9.829162 53.590691 83 38 40
-3.452966 9.944685 53.590691 83 37 39
-3.465477 10.096659 53.784859 82 37 39
-3.478079 10.249737 53.980442 81 37 39
-3.478079 10.366101 53.980442 82 38 41
-3.478079 10.482465 53.980442 84 39 42
-3.471766 10.579593 53.882473 85 41 44
-3.452966 10.637826 53.590691 86 42 45
-3.440546 10.714668 53.397919 85 42 44
-3.471766 10.928050 53.882473 83 41 44
-3.471766 11.044202 53.882473 82 41 44
-3.471766 11.160355 53.882473 82 41 44
-3.471766 11.276507 53.882473 81 42 45
-3.452966 11.446490 53.590691 78 40 42
-3.452966 11.562014 53.590691 77 38 41
-1.934220 7.447276 30.019457 88 45 48
-3.471766 13.599556 53.882473 91 49 47
-3.459210 13.666104 53.687599 94 52 50
-3.465477 13.806804 53.784859 94 55 53
-3.471766 13.948013 53.882473 93 56 54
-3.471766 14.064166 53.882473 90 55 54
-3.471766 14.180319 53.882473 88 54 54
-3.471766 14.296471 53.882473 84 51 53
-3.459210 14.591963 53.687599 68 39 43
-3.452966 14.681147 53.590691 65 37 40
-3.446745 14.770010 53.494129 63 35 38
-3.446745 14.885325 53.494129 64 36 38
-3.446745 16.153793 53.494129 71 41 42
-3.446745 16.269110 53.494129 68 41 42
-3.440546 16.354956 53.397919 67 40 41
-3.446745 16.499739 53.494129 64 39 39
-3.446745 16.615055 53.494129 62 39 37
-3.452966 16.760569 53.590691 59 37 36
-3.440546 16.815388 53.397919 57 35 35
-3.409881 16.779600 52.922001 54 33 33
-3.434369 17.015001 53.302052 52 31 33
-3.462441 -6.581731 55.597832 55 27 27
-3.455969 -6.449803 55.493912 54 28 28
-3.462441 -6.342031 55.597832 52 28 29
-3.475457 -6.245573 55.806847 50 27 28
-3.475457 -6.125272 55.806847 48 26 28
-3.468937 -5.993705 55.702145 46 26 27
-3.475457 -5.884670 55.806847 45 25 26
-3.475457 -5.764369 55.806847 44 24 25
-3.488572 -5.665367 56.017437 43 24 24
-3.488572 -5.544612 56.017437 43 24 23
-3.482002 -5.413643 55.911945 43 23 23
-3.475457 -5.283166 55.806847 44 22 22
-3.475457 -5.042565 55.806847 47 23 23
-3.455969 -4.894663 55.493912 48 24 24
-3.443098 -4.757252 55.287228 49 25 25
-3.436698 -4.629451 55.184464 50 26 26
-3.417640 -4.485480 54.878452 49 26 26
-3.417640 -4.367180 54.878452 49 26 26
-3.423969 -4.256749 54.980080 48 26 26
-3.430322 -4.145908 55.082081 48 26 26
-3.430322 -4.027170 55.082081 48 26 27
-3.417640 -3.893982 54.878452 48 26 27
-3.405052 -3.761776 54.676319 49 26 27
-3.373984 -3.610665 54.177448 49 26 27
-3.355614 -3.474854 53.882473 50 26 27
-3.355614 -3.358701 53.882473 51 26 26
-3.355614 -3.242549 53.882473 51 25 25
-3.337443 -3.109467 53.590691 51 24 23
-3.331429 -2.988549 53.494129 50 22 22
-3.331429 -2.873233 53.494129 51 22 22
-3.284091 -2.718729 52.734001 52 23 23
-3.266684 -2.591245 52.454491 55 24 25
-3.449521 -0.228814 55.390377 68 33 34
-3.411335 -0.108200 54.777199 69 32 34
-3.380152 0.009791 54.276493 72 31 35
-3.361715 0.126101 53.980442 75 31 35
-3.319468 0.239417 53.302052 78 33 36
-3.260923 0.348070 52.361980 80 34 37
-3.430322 2.147227 55.082081 90 42 47
-3.430322 2.265966 55.082081 93 42 47
-3.423969 2.380288 54.980080 95 43 47
-3.449521 2.517454 55.390377 96 44 47
-3.411335 2.607667 54.777199 97 44 47
-3.392557 2.710744 54.475674 97 45 48
-3.367839 2.807569 54.078766 97 46 49
-3.355614 2.913531 53.882473 96 45 50
-3.380152 3.168840 54.276493 95 45 51
-3.361715 3.267919 53.980442 95 44 51
-3.361715 3.384283 53.980442 94 43 52
-3.355614 3.494293 53.882473 95 42 53
-3.355614 3.610445 53.882473 96 42 53
-1.553734 2.693576 24.948942 105 46 56
-1.548529 2.738154 24.865362 102 44 54
-1.545939 2.787086 24.823782 100 44 52
-3.405052 7.081686 54.676319 99 47 53
-3.398793 7.186315 54.575813 99 46 52
-3.405052 7.317413 54.676319 100 47 52
-3.386343 7.394424 54.375900 101 48 53
-3.380152 7.497908 54.276493 103 50 56
-3.392557 7.642854 54.475674 106 52 59
-3.386343 7.746072 54.375900 107 53 60
-3.392557 7.877717 54.475674 105 51 58
-2.788753 6.668711 44.780155 103 47 54
-2.788753 6.765242 44.780155 106 49 57
-2.776191 6.830864 44.578442 110 53 59
-3.392557 8.934597 54.475674 99 48 51
-3.392557 9.052029 54.475674 97 48 51
-3.380152 9.135933 54.276493 94 47 50
-3.380152 9.252935 54.276493 93 47 50
-3.367839 9.335802 54.078766 91 46 49
-3.361715 9.435192 53.980442 89 45 48
-3.361715 9.551556 53.980442 88 44 46
-3.355614 9.650373 53.882473 87 43 45
-3.343478 9.731203 53.687599 86 41 44
-3.337443 9.829162 53.590691 85 40 42
-3.337443 9.944685 53.590691 84 39 41
-3.349535 10.096659 53.784859 83 38 40
-3.361715 10.249737 53.980442 84 39 40
-3.361715 10.366101 53.980442 84 39 41
-3.361715 10.482465 53.980442 86 41 43
-3.331429 10.733974 53.494129 86 46 47
-3.355614 10.928050 53.882473 85 45 47
-3.361715 11.064282 53.980442 84 45 47
-3.361715 11.180646 53.980442 84 44 48
-3.355614 11.276507 53.882473 83 44 47
-3.349535 11.372021 53.784859 82 43 46
-3.343478 11.467189 53.687599 81 42 44
-3.343478 11.582921 53.687599 79 40 43
-3.361715 12.111555 53.980442 84 42 48
-3.355614 13.599556 53.882473 92 50 50
-3.349535 13.690862 53.784859 94 54 52
-3.349535 13.806804 53.784859 96 58 55
-3.349535 13.922746 53.784859 95 58 57
-3.355614 14.064166 53.882473 93 58 58
-3.355614 14.180319 53.882473 91 57 58
-3.343478 14.476231 53.687599 75 46 49
-3.337443 14.565623 53.590691 70 42 45
-3.331429 14.654695 53.494129 67 39 41
-3.325438 14.743445 53.397919 65 37 39
-3.325438 14.858553 53.397919 65 37 40
-3.331429 16.153793 53.494129 72 43 45
-3.331429 16.269110 53.494129 71 43 43
-3.325438 16.354956 53.397919 69 43 42
-3.331429 16.499739 53.494129 67 42 41
-3.331429 16.615055 53.494129 64 41 39
-3.331429 16.730370 53.494129 62 40 37
-3.325438 16.815388 53.397919 59 37 36
-3.307591 16.839634 53.111347 56 36 35
-3.319468 17.015001 53.302052 54 33 34
-3.319468 17.129902 53.302052 52 32 33
-3.342591 -6.342031 55.597832 55 29 30
-3.348862 -6.233855 55.702145 53 29 30
-3.355157 -6.125272 55.806847 51 28 30
-3.342591 -5.982481 55.597832 49 27 29
-3.348862 -5.873630 55.702145 47 26 28
-3.348862 -5.753554 55.702145 45 25 26
-3.361475 -5.654698 55.911945 44 24 25
-3.355157 -5.523768 55.806847 44 24 23
-3.348862 -5.393329 55.702145 43 23 22
-3.348862 -5.273254 55.702145 44 22 22
-3.348862 -5.153179 55.702145 45 23 23
-3.348862 -5.033104 55.702145 47 24 24
-3.317739 -4.748410 55.184464 50 25 25
-3.311583 -4.620862 55.082081 50 26 26
-3.293253 -4.477204 54.777199 49 26 26
-3.293253 -4.359123 54.777199 49 26 26
-3.305451 -4.256749 54.980080 49 26 26
-3.311583 -4.145908 55.082081 49 26 27
-3.317739 -4.034655 55.184464 49 27 27
-3.299341 -3.893982 54.878452 49 27 27
-3.287189 -3.761776 54.676319 48 27 27
-3.263150 -3.617266 54.276493 48 27 27
-3.245352 -3.481172 53.980442 48 26 27
-3.239462 -3.358701 53.882473 49 25 26
-3.239462 -3.242549 53.882473 49 25 25
-3.227746 -3.115090 53.687599 49 23 23
-3.227746 -2.999357 53.687599 48 22 22
-3.216114 -2.873233 53.494129 49 21 22
-3.176056 -2.723567 52.827831 51 22 23
-3.159192 -2.595831 52.547333 54 24 25
-1.976681 -0.986317 32.878452 56 28 27
-3.293253 -0.108200 54.777199 69 33 35
-3.251263 0.009755 54.078766 71 32 35
-3.239462 0.125872 53.882473 74 32 35
-3.193101 0.238561 53.111347 76 32 36
-3.142506 0.347457 52.269794 79 33 36
-3.311583 2.147227 55.082081 89 41 47
-3.311583 2.265966 55.082081 93 42 47
-3.305451 2.380288 54.980080 95 43 47
-3.311583 2.503443 55.082081 97 44 47
-3.293253 2.607667 54.777199 97 44 47
-3.269127 2.705779 54.375900 97 45 47
-3.257196 2.812692 54.177448 96 45 47
-3.245352 2.918828 53.980442 95 44 48
-3.239462 3.029683 53.882473 95 44 48
-3.275126 3.180469 54.475674 96 45 50
-3.263150 3.285842 54.276493 96 45 53
-3.263150 3.402844 54.276493 95 44 53
-3.251263 3.507023 54.078766 95 44 55
-3.245352 3.617010 53.980442 96 44 56
-1.499952 2.693576 24.948942 105 47 55
-1.494927 2.738154 24.865362 102 45 53
-1.493676 2.789419 24.844555 100 44 51
-3.293253 6.740508 54.777199 99 48 56
-3.293253 6.858590 54.777199 100 49 56
-3.293253 6.976671 54.777199 100 49 55
-3.287189 7.081686 54.676319 99 47 54
-3.281146 7.186315 54.575813 99 46 53
-3.281146 7.303962 54.575813 99 47 53
-3.269127 7.394424 54.375900 101 48 54
-3.263150 7.497908 54.276493 104 51 57
-3.269127 7.628856 54.375900 106 53 60
-3.269127 7.746072 54.375900 107 53 61
-2.684125 6.744895 44.645477 107 50 58
-2.676077 6.820623 44.511608 110 53 60
-3.269127 8.918234 54.375900 100 49 52
-3.269127 9.035450 54.375900 98 48 52
-3.263150 9.135933 54.276493 96 47 51
-3.263150 9.252935 54.276493 94 47 51
-3.251263 9.335802 54.078766 92 46 50
-3.251263 9.452378 54.078766 90 46 48
-3.251263 9.568954 54.078766 89 45 47
-3.239462 9.650373 53.882473 88 44 47
-3.227746 9.731203 53.687599 87 43 46
-3.221920 9.829162 53.590691 86 41 44
-3.216114 9.926766 53.494129 85 40 42
-3.233593 10.096659 53.784859 84 40 41
-3.239462 10.231135 53.882473 85 40 41
-3.239462 10.347287 53.882473 86 41 41
-3.239462 10.463440 53.882473 87 43 43
-3.221920 10.753349 53.590691 89 47 49
-3.239462 10.928050 53.882473 87 46 48
-3.245352 11.064282 53.980442 86 46 48
-3.251263 11.201012 54.078766 86 47 49
-3.245352 11.297009 53.980442 85 47 49
-3.233593 11.372021 53.784859 85 46 47
-3.227746 11.467189 53.687599 83 44 46
-3.233593 11.603905 53.784859 82 41 44
-3.227746 11.698653 53.687599 82 40 44
-3.227746 11.814386 53.687599 81 40 45
-3.233593 11.951731 53.784859 82 40 46
-3.239462 12.089575 53.882473 86 43 50
-3.239462 12.205727 53.882473 90 47 53
-3.239462 12.321879 53.882473 91 48 53
-3.239462 13.599556 53.882473 93 51 52
-3.233593 13.690862 53.784859 94 54 54
-3.233593 13.806804 53.784859 97 59 57
-3.233593 13.922746 53.784859 97 60 60
-3.239462 14.064166 53.882473 95 60 60
-3.239462 14.180319 53.882473 92 59 60
-3.233593 14.270572 53.784859 89 56 58
-3.221920 14.450100 53.590691 78 48 50
-3.221920 14.565623 53.590691 72 43 45
-3.216114 14.654695 53.494129 68 40 41
-3.210330 14.743445 53.397919 66 37 39
-3.210330 14.858553 53.397919 66 37 39
-3.210330 14.973660 53.397919 68 39 41
-3.216114 15.115955 53.494129 73 43 45
-3.216114 16.153793 53.494129 73 44 46
-3.216114 16.269110 53.494129 72 44 46
-3.210330 16.354956 53.397919 72 45 45
-3.216114 16.499739 53.494129 70 45 43
-3.210330 16.585173 53.397919 67 44 42
-3.210330 16.700279 53.397919 64 43 40
-3.204566 16.785198 53.302052 61 41 38
-3.193101 16.839634 53.111347 59 38 37
-3.204566 17.015001 53.302052 55 35 35
-3.216717 -6.210550 55.493912 57 30 32
-3.216717 -6.090924 55.493912 54 29 31
-3.210715 -5.960158 55.390377 52 28 30
-3.216717 -5.851672 55.493912 49 27 29
-3.222740 -5.742780 55.597832 47 25 27
-3.234856 -5.644069 55.806847 45 24 25
-3.228787 -5.513404 55.702145 44 24 23
-3.216717 -5.373168 55.493912 44 23 23
-3.216717 -5.253541 55.493912 44 23 23
-3.216717 -5.133915 55.493912 45 23 23
-3.186932 -4.612305 54.980080 50 26 26
-3.175172 -4.477204 54.777199 49 26 26
-3.186932 -4.256749 54.980080 49 26 26
-3.192845 -4.145908 55.082081 49 26 27
-3.192845 -4.027170 55.082081 49 27 28
-3.169325 -3.879640 54.676319 49 27 28
-3.151911 -3.741107 54.375900 48 27 28
-3.146149 -3.617266 54.276493 48 27 28
-3.128988 -3.481172 53.980442 47 26 28
-3.123309 -3.358701 53.882473 47 25 27
-3.123309 -3.242549 53.882473 47 24 25
-3.117651 -3.120733 53.784859 47 23 24
-3.117651 -3.004791 53.784859 47 22 23
-3.106396 -2.878420 53.590691 48 21 23
-3.067635 -2.728422 52.922001 50 22 24
-3.056738 -2.605052 52.734001 52 23 25
-3.095222 -2.177418 53.397919 56 28 28
-3.151911 -0.107408 54.375900 69 33 35
-3.112013 0.125417 53.687599 73 33 36
-3.056738 0.236866 52.734001 75 33 36
-3.019199 0.346238 52.086391 77 33 35
-2.972268 0.451391 51.276756 79 35 36
-2.127248 0.797720 36.698692 80 41 44
-2.119388 0.873590 36.563107 77 41 43
-2.122002 0.953583 36.608189 76 39 42
-3.181041 2.139289 54.878452 89 41 48
-3.181041 2.257589 54.878452 93 42 48
-3.181041 2.375888 54.878452 96 43 48
-3.181041 2.494188 54.878452 97 43 48
-3.175172 2.607667 54.777199 97 44 47
-3.157694 2.710744 54.475674 97 44 47
-3.151911 2.822995 54.375900 96 44 47
-3.140408 2.929481 54.177448 95 44 48
-3.151911 3.057428 54.375900 95 45 49
-3.175172 3.198073 54.777199 96 46 51
-3.163499 3.303962 54.575813 96 46 53
-3.163499 3.421609 54.575813 96 45 54
-1.446171 2.693576 24.948942 107 49 54
-1.442534 2.740449 24.886204 103 47 53
-3.186932 6.528436 54.980080 97 45 52
-3.181041 6.634668 54.878452 98 47 54
-3.181041 6.752967 54.878452 100 48 56
-3.175172 6.858590 54.777199 101 50 57
-3.175172 6.976671 54.777199 101 50 57
-3.169325 7.081686 54.676319 100 48 56
-3.163499 7.186315 54.575813 99 46 54
-3.163499 7.303962 54.575813 100 47 55
-3.151911 7.394424 54.375900 102 48 56
-3.146149 7.497908 54.276493 104 51 58
-3.151911 7.628856 54.375900 107 53 61
-3.151911 7.746072 54.375900 109 54 62
-2.587885 6.744895 44.645477 107 50 60
-2.576262 6.810412 44.444973 109 53 61
-3.146149 8.901930 54.276493 103 49 55
-3.151911 9.035450 54.375900 100 48 53
-3.146149 9.135933 54.276493 98 47 52
-3.146149 9.252935 54.276493 95 47 52
-3.146149 9.369937 54.276493 93 46 51
-3.146149 9.486938 54.276493 91 46 50
-3.140408 9.586415 54.177448 90 46 49
-3.128988 9.667919 53.980442 89 46 50
-3.117651 9.748833 53.784859 88 44 49
-3.112013 9.846935 53.687599 86 43 45
-3.106396 9.944685 53.590691 85 41 43
-3.117651 10.096659 53.784859 84 40 42
-3.123309 10.231135 53.882473 85 40 42
-3.117651 10.328543 53.784859 86 41 42
-3.123309 10.463440 53.882473 88 44 45
-3.123309 10.579593 53.882473 90 47 48
-3.117651 10.676369 53.784859 91 50 51
-3.112013 10.772795 53.687599 91 50 51
-3.123309 10.928050 53.882473 90 50 51
-3.128988 11.064282 53.980442 89 50 51
-3.134687 11.201012 54.078766 89 51 52
-3.128988 11.297009 53.980442 89 50 51
-3.123309 11.392659 53.882473 88 49 50
-3.112013 11.467189 53.687599 86 47 48
-3.117651 11.603905 53.784859 84 43 45
-3.117651 11.719847 53.784859 83 41 45
-3.112013 11.814386 53.687599 84 41 46
-3.117651 11.951731 53.784859 86 41 48
-3.123309 12.089575 53.882473 89 43 50
-3.117651 12.299557 53.784859 93 48 54
-3.123309 13.599556 53.882473 93 53 52
-3.117651 13.690862 53.784859 94 55 54
-3.117651 13.806804 53.784859 97 59 58
-3.123309 13.948013 53.882473 97 61 60
-3.123309 14.064166 53.882473 96 60 61
-3.123309 14.180319 53.882473 93 59 60
-3.123309 14.296471 53.882473 90 56 59
-3.112013 14.476231 53.687599 81 48 51
-3.106396 14.565623 53.590691 75 44 45
-3.100799 14.654695 53.494129 70 40 40
-3.095222 14.743445 53.397919 67 37 38
-3.089665 14.831877 53.302052 67 37 38
-3.095222 14.973660 53.397919 69 38 40
-3.095222 15.088769 53.397919 74 44 46
-3.100799 15.461902 53.494129 78 46 53
-3.106396 15.605335 53.590691 78 46 54
-3.100799 15.692533 53.494129 80 48 56
-3.106396 16.182953 53.590691 73 44 47
-3.100799 16.269110 53.494129 74 46 47
-3.095222 16.354956 53.397919 74 47 47
-3.095222 16.470064 53.397919 72 48 46
-3.089665 16.555395 53.302052 69 47 44
-3.089665 16.670298 53.302052 67 45 42
-3.084128 16.755117 53.206528 64 43 41
-3.073113 16.809563 53.016502 60 40 39
-3.091312 -6.079561 55.390377 58 31 33
-3.085556 -5.949059 55.287228 56 30 32
-3.085556 -5.829878 55.287228 52 28 30
-3.097090 -5.732046 55.493912 49 26 26
-3.102890 -5.622930 55.597832 46 24 25
-3.102890 -5.503079 55.597832 45 24 24
-3.091312 -5.363143 55.390377 45 24 23
-3.091312 -5.243740 55.390377 45 23 24
-3.085556 -5.114794 55.287228 46 24 24
-3.074106 -4.145908 55.082081 50 26 27
-3.068414 -4.019712 54.980080 49 27 27
-3.034695 -3.858323 54.375900 49 27 28
-3.018112 -3.720664 54.078766 48 27 28
-3.018112 -3.604088 54.078766 47 27 28
-3.007157 -3.474854 53.882473 46 27 28
-2.996281 -3.346554 53.687599 45 26 27
-3.001709 -3.236675 53.784859 45 24 26
-2.996281 -3.115090 53.687599 45 23 25
-2.996281 -2.999357 53.687599 46 22 24
-2.990872 -2.878420 53.590691 47 21 24
-2.958827 -2.733294 53.016502 49 21 24
-2.948298 -2.609688 52.827831 51 23 25
-2.985484 -2.181341 53.494129 56 29 29
-2.969433 0.124293 53.206528 72 34 36
-2.927462 0.235610 52.454491 74 34 36
-2.896754 0.345027 51.904270 76 34 36
-2.856799 0.450613 51.188347 79 35 36
-2.040571 0.794773 36.563107 82 41 45
-2.023130 0.866124 36.250603 79 40 43
-3.079820 1.794341 55.184464 80 39 43
-3.079820 1.913300 55.184464 83 39 44
-3.074106 2.028489 55.082081 86 40 47
-3.057091 2.135342 54.777199 89 41 48
-3.057091 2.253423 54.777199 92 41 49
-3.062742 2.375888 54.878452 94 42 49
-3.057091 2.489586 54.777199 95 43 48
-3.057091 2.607667 54.777199 96 44 48
-3.040263 2.710744 54.475674 96 44 47
-3.040263 2.828175 54.475674 95 44 47
-3.045852 2.951021 54.575813 95 45 48
-3.034695 3.057428 54.375900 95 45 49
-3.051461 3.192183 54.676319 96 46 50
-3.045852 3.303962 54.575813 96 46 51
-3.045852 3.421609 54.575813 97 47 53
-3.034695 3.526292 54.375900 98 47 55
-1.392389 2.693576 24.948942 109 51 54
-1.388888 2.740449 24.886204 105 49 53
-3.074106 6.540548 55.082081 97 46 52
-3.062742 6.634668 54.878452 99 47 55
-3.062742 6.752967 54.878452 102 49 57
-3.062742 6.871267 54.878452 103 51 58
-3.057091 6.976671 54.777199 103 51 58
-3.057091 7.094752 54.777199 103 49 56
-3.045852 7.186315 54.575813 102 47 55
-3.051461 7.317413 54.676319 103 48 56
-3.034695 7.394424 54.375900 104 49 58
-3.034695 7.511640 54.375900 107 52 60
-3.040263 7.642854 54.475674 109 54 62
-3.034695 7.746072 54.375900 111 56 64
-3.040263 7.877717 54.475674 110 55 63
-3.029147 8.550924 54.276493 109 54 62
-3.034695 8.801018 54.375900 108 54 60
-3.023619 8.885685 54.177448 106 52 59
-3.029147 9.018931 54.276493 103 49 56
-3.023619 9.119262 54.177448 100 47 54
-3.023619 9.236050 54.177448 97 46 53
-3.023619 9.352839 54.177448 95 47 54
-3.029147 9.486938 54.276493 94 48 53
-3.023619 9.586415 54.177448 92 47 53
-3.012624 9.667919 53.980442 91 47 53
-3.007157 9.766525 53.882473 89 45 51
-2.996281 9.846935 53.687599 87 44 48
-2.996281 9.962668 53.687599 85 42 45
-3.001709 10.096659 53.784859 85 41 44
-3.012624 10.249737 53.980442 85 41 43
-3.001709 10.328543 53.784859 86 41 43
-3.007157 10.463440 53.882473 89 44 45
-3.012624 10.598828 53.980442 92 48 49
-3.001709 10.676369 53.784859 95 52 53
-2.996281 10.772795 53.687599 95 53 54
-3.012624 10.947919 53.980442 95 53 54
-3.018112 11.084436 54.078766 94 54 54
-3.018112 11.201012 54.078766 94 54 55
-3.018112 11.317587 54.078766 93 54 54
-3.012624 11.413374 53.980442 92 53 53
-3.001709 11.487963 53.784859 89 49 50
-3.007157 11.624965 53.882473 86 45 47
-3.007157 11.741117 53.882473 85 43 46
-3.007157 11.973422 53.882473 88 43 49
-3.007157 12.089575 53.882473 91 44 52
-2.996281 12.624513 53.687599 100 55 60
-3.012624 13.973373 53.980442 98 60 61
-3.007157 14.064166 53.882473 97 60 62
-3.007157 14.180319 53.882473 95 58 61
-3.007157 14.296471 53.882473 92 56 59
-2.996281 14.360498 53.687599 89 53 57
-2.996281 14.476231 53.687599 85 50 52
-2.990872 14.565623 53.590691 79 45 47
-2.985484 14.654695 53.494129 73 40 41
-2.980114 14.743445 53.397919 69 37 37
-2.974764 14.831877 53.302052 67 36 36
-2.980114 14.973660 53.397919 68 37 37
-2.980114 15.088769 53.397919 74 45 46
-2.980114 15.203876 53.397919 81 51 54
-2.985484 15.461902 53.494129 77 46 54
-2.990872 15.605335 53.590691 78 47 56
-2.985484 15.692533 53.494129 82 51 60
-2.990872 16.182953 53.590691 75 44 48
-2.985484 16.269110 53.494129 75 46 48
-2.985484 16.384424 53.494129 76 48 48
-2.980114 16.470064 53.397919 75 49 47
-2.974764 16.555395 53.302052 72 49 46
-2.969433 16.640423 53.206528 69 47 44
-2.969433 16.755117 53.206528 66 44 41
-2.960861 -5.819042 55.184464 56 30 31
-2.971909 -5.721352 55.390377 51 27 27
-2.977464 -5.612420 55.493912 48 25 25
-2.977464 -5.492794 55.493912 47 24 24
-2.966375 -5.353156 55.287228 47 24 24
-2.966375 -5.233975 55.287228 47 24 25
-2.960861 -5.105287 55.184464 47 25 25
-3.695924 -6.075741 68.884552 49 26 27
-2.949895 -4.138231 54.980080 50 26 26
-2.944443 -4.012282 54.878452 49 27 27
-2.906831 -3.844242 54.177448 49 27 27
-2.885767 -3.700443 53.784859 48 28 28
-2.885767 -3.468559 53.784859 46 28 27
-2.875349 -3.340514 53.590691 45 26 27
-2.880548 -3.230822 53.687599 44 25 27
-2.875349 -3.109467 53.590691 44 24 26
-2.880548 -2.999357 53.687599 45 23 25
-2.875349 -2.878420 53.590691 47 22 25
-2.844542 -2.733294 53.016502 49 22 24
-2.839471 -2.614340 52.922001 51 24 25
-2.875349 -2.185279 53.590691 57 30 30
-2.844542 0.123849 53.016502 74 35 38
-2.809424 0.235195 52.361980 76 35 37
-2.780006 0.344425 51.813686 77 35 37
-2.746454 0.450613 51.188347 80 36 38
-2.966375 1.797682 55.287228 82 40 44
-2.966375 1.916863 55.287228 84 40 46
-2.955368 2.028489 55.082081 88 40 48
-2.939010 2.135342 54.777199 90 41 50
-2.939010 2.253423 54.777199 92 41 50
-2.944443 2.375888 54.878452 93 42 50
-2.933597 2.485001 54.676319 94 43 50
-2.933597 2.602865 54.676319 95 44 50
-2.906831 2.695904 54.177448 95 45 50
-2.917479 2.822995 54.375900 95 45 50
-2.922832 2.945606 54.475674 94 45 49
-2.906831 3.046269 54.177448 94 45 48
-2.917479 3.174644 54.375900 95 46 49
-2.917479 3.291860 54.375900 97 47 51
-2.912145 3.402844 54.276493 98 48 53
-2.906831 3.513422 54.177448 100 49 55
-2.901536 3.623598 54.078766 101 49 57
-2.955368 6.421810 55.082081 99 46 52
-2.955368 6.540548 55.082081 99 47 53
-2.949895 6.646955 54.980080 101 48 55
-2.949895 6.765473 54.980080 104 50 57
-2.944443 6.871267 54.878452 106 51 58
-2.944443 6.989566 54.878452 106 51 58
-2.939010 7.094752 54.777199 105 50 57
-2.933597 7.199550 54.676319 105 49 57
-2.933597 7.317413 54.676319 106 49 58
-2.922832 7.407992 54.475674 107 50 59
-2.917479 7.511640 54.375900 109 52 61
-2.922832 7.642854 54.475674 111 55 63
-2.917479 7.746072 54.375900 112 57 65
-2.917479 7.980505 54.375900 111 55 63
-2.912145 8.082917 54.276493 109 53 62
-2.906831 8.184956 54.177448 108 54 62
-2.912145 8.316920 54.276493 109 55 63
-2.912145 8.433922 54.276493 110 56 64
-2.906831 8.535320 54.177448 112 57 65
-2.906831 8.652108 54.177448 113 57 66
-2.901536 8.752924 54.078766 113 57 66
-2.896261 8.853374 53.980442 111 55 64
-2.901536 8.986075 54.078766 108 52 60
-2.896261 9.086101 53.980442 104 49 57
-2.901536 9.219227 54.078766 100 49 56
-2.896261 9.318829 53.980442 98 49 56
-2.906831 9.469626 54.177448 97 50 56
-2.901536 9.568954 54.078766 96 50 57
-2.891004 9.650373 53.882473 95 49 57
-2.885767 9.748833 53.784859 92 48 55
-2.885767 9.864775 53.784859 88 46 51
-2.885767 9.980717 53.784859 87 44 49
-2.891004 10.114983 53.882473 86 43 47
-2.891004 10.231135 53.882473 86 42 45
-2.885767 10.328543 53.784859 86 42 45
-2.891004 10.463440 53.882473 89 45 46
-2.896261 10.598828 53.980442 93 49 50
-2.891004 10.695745 53.882473 97 53 54
-2.885767 10.792311 53.784859 99 56 56
-2.901536 10.967860 54.078766 100 57 57
-2.906831 11.104663 54.177448 100 58 58
-2.906831 11.221452 54.177448 99 58 58
-2.906831 11.338240 54.177448 98 56 56
-2.896261 11.413374 53.980442 96 54 55
-2.891004 11.508812 53.882473 93 51 52
-2.896261 11.646101 53.980442 90 47 49
-2.901536 11.783890 54.078766 88 44 48
-2.891004 11.857269 53.882473 87 42 48
-2.896261 11.995192 53.980442 89 43 49
-2.875349 12.717248 53.590691 102 56 62
-2.896261 13.973373 53.980442 100 62 63
-2.896261 14.089737 53.980442 100 63 65
-2.896261 14.206100 53.980442 97 60 63
-2.891004 14.296471 53.882473 94 57 60
-2.880548 14.476231 53.687599 89 52 55
-2.875349 14.565623 53.590691 83 47 49
-2.865006 14.628337 53.397919 77 42 43
-2.865006 14.743445 53.397919 71 38 38
-2.859862 14.831877 53.302052 66 35 34
-2.859862 14.946778 53.302052 66 35 35
-2.865006 15.088769 53.397919 74 45 46
-2.865006 15.203876 53.397919 82 54 56
-2.870168 15.461902 53.494129 76 46 54
-2.870168 15.577217 53.494129 78 48 57
-2.870168 15.692533 53.494129 84 53 63
-2.865006 15.779416 53.397919 86 55 64
-2.870168 16.153793 53.494129 76 45 49
-2.870168 16.269110 53.494129 76 46 48
-2.870168 16.384424 53.494129 76 48 48
-2.865006 16.470064 53.397919 76 50 49
-2.854737 16.525726 53.206528 74 50 48
-2.847194 -5.710698 55.287228 55 29 30
-2.852506 -5.601949 55.390377 52 27 27
-2.852506 -5.482546 55.390377 50 26 26
-2.841902 -5.343205 55.184464 49 25 25
-2.841902 -5.224247 55.184464 49 25 26
-2.836630 -5.095816 55.082081 49 25 26
-2.820929 -4.122961 54.777199 51 26 26
-2.820929 -4.004879 54.777199 50 26 26
-2.784961 -3.837240 54.078766 49 27 27
-2.759825 -3.687084 53.590691 48 28 27
-2.754853 -3.334495 53.494129 46 27 28
-2.754853 -3.219179 53.494129 45 26 28
-2.754853 -3.103864 53.494129 45 25 28
-2.754853 -2.988549 53.494129 45 24 27
-2.754853 -2.873233 53.494129 47 23 26
-2.725389 -2.728422 52.922001 49 23 26
-2.759825 -2.185279 53.590691 58 31 31
-2.754853 0.009649 53.494129 75 37 37
-2.725389 0.123628 52.922001 77 38 39
-2.696549 0.235195 52.361980 79 37 39
-2.668313 0.344425 51.813686 80 36 38
-2.852506 1.801036 55.390377 86 41 46
-2.852506 1.920439 55.390377 88 41 48
-2.841902 2.032259 55.184464 90 42 50
-2.826143 2.139289 54.878452 92 43 52
-2.831377 2.261769 54.980080 92 43 52
-2.831377 2.380288 54.980080 93 44 53
-2.820929 2.489586 54.777199 93 44 53
-2.815734 2.602865 54.676319 94 45 53
-2.784961 2.690994 54.078766 95 47 53
-2.795143 2.817834 54.276493 96 48 54
-2.800262 2.940212 54.375900 95 46 51
-2.784961 3.040720 54.078766 93 44 47
-2.790043 3.163057 54.177448 94 44 47
-2.790043 3.279846 54.177448 97 47 49
-2.790043 3.396634 54.177448 99 49 52
-2.784961 3.507023 54.078766 102 50 54
-2.810558 4.480433 54.575813 110 52 55
-2.836630 6.421810 55.082081 102 50 56
-2.836630 6.540548 55.082081 103 50 57
-2.831377 6.646955 54.980080 104 51 58
-2.836630 6.778025 55.082081 106 52 59
-2.826143 6.871267 54.878452 108 52 60
-2.826143 6.989566 54.878452 108 52 59
-2.815734 7.081686 54.676319 108 51 59
-2.810558 7.186315 54.575813 108 50 58
-2.815734 7.317413 54.676319 107 49 58
-2.805401 7.407992 54.475674 108 50 60
-2.805401 7.525423 54.475674 111 53 63
-2.805401 7.642854 54.475674 113 56 65
-2.805401 7.995148 54.475674 113 58 67
-2.795143 8.082917 54.276493 111 56 65
-2.790043 8.184956 54.177448 109 55 64
-2.795143 8.316920 54.276493 108 56 65
-2.790043 8.418531 54.177448 109 57 66
-2.784961 8.519773 54.078766 113 59 69
-2.784961 8.636349 54.078766 117 62 72
-2.779897 8.737010 53.980442 119 63 74
-2.774852 8.837306 53.882473 117 61 72
-2.779897 8.969737 53.980442 113 56 67
-2.779897 9.086101 53.980442 108 52 62
-2.779897 9.202464 53.980442 104 51 60
-2.779897 9.318829 53.980442 103 51 59
-2.784961 9.452378 54.078766 102 52 59
-2.784961 9.568954 54.078766 101 53 61
-2.779897 9.667919 53.980442 99 53 61
-2.774852 9.766525 53.882473 96 51 59
-2.769825 9.864775 53.784859 92 49 55
-2.774852 9.998830 53.882473 90 47 52
-2.774852 10.114983 53.882473 89 45 50
-2.779897 10.249737 53.980442 88 45 48
-2.774852 10.347287 53.882473 88 45 47
-2.774852 10.463440 53.882473 90 47 47
-2.779897 10.598828 53.980442 94 51 51
-2.779897 10.715192 53.980442 97 54 54
-2.774852 10.811897 53.882473 101 58 58
-2.784961 10.967860 54.078766 105 61 61
-2.795143 11.124965 54.276493 106 63 63
-2.795143 11.241966 54.276493 105 61 62
-2.790043 11.338240 54.177448 103 58 60
-2.784961 11.434163 54.078766 100 55 57
-2.779897 11.529737 53.980442 96 52 54
-2.784961 11.667315 54.078766 93 47 51
-2.790043 11.805393 54.177448 90 44 49
-2.774852 11.857269 53.882473 89 43 48
-2.779897 11.995192 53.980442 90 43 49
-2.754853 12.809649 53.494129 103 57 63
-2.744961 12.878555 53.302052 103 58 62
-2.790043 14.024371 54.177448 104 64 66
-2.784961 14.115401 54.078766 106 66 71
-2.784961 14.231977 54.078766 102 63 68
-2.779897 14.322465 53.980442 98 59 64
-2.764816 14.591963 53.687599 87 49 52
-2.754853 14.654695 53.494129 80 43 46
-2.749898 14.743445 53.397919 72 38 39
-2.744961 14.831877 53.302052 66 34 35
-2.744961 14.946778 53.302052 65 35 36
-2.749898 15.088769 53.397919 74 45 47
-2.749898 15.203876 53.397919 81 53 56
-2.754853 15.461902 53.494129 75 47 54
-2.754853 15.577217 53.494129 77 48 56
-2.749898 15.664309 53.397919 82 52 61
-2.749898 15.779416 53.397919 85 54 62
-2.754853 16.269110 53.494129 77 46 49
-2.749898 16.354956 53.397919 77 49 49
-2.744961 16.440495 53.302052 78 51 50
-2.722943 -5.462164 55.184464 53 27 27
-2.712858 -5.323416 54.980080 52 26 26
-2.712858 -5.204897 54.980080 52 26 26
-2.707844 -5.076977 54.878452 51 26 26
-2.678141 -4.202275 54.276493 53 26 27
-2.687969 -4.100265 54.475674 52 26 26
-2.692911 -3.990155 54.575813 51 26 26
-2.663533 -3.830263 53.980442 50 27 26
-2.634790 -3.673821 53.397919 49 28 26
-2.634790 -3.328497 53.397919 46 28 28
-2.634790 -3.213389 53.397919 46 26 28
-2.634790 -3.098282 53.397919 45 25 28
-2.634790 -2.983174 53.397919 46 24 27
-2.634790 -2.868066 53.397919 48 24 27
-2.611307 -2.728422 52.922001 50 24 27
-2.639538 -2.181341 53.494129 59 31 31
-1.633159 -1.135613 33.098373 57 30 30
-1.625908 -0.988507 32.951435 58 29 30
-1.616935 -0.912411 32.769585 59 28 30
-2.615970 -1.133294 53.016502 66 29 33
-2.588239 0.235610 52.454491 81 39 41
-2.561090 0.345027 51.904270 81 37 40
-2.753653 1.694277 55.806847 91 43 51
-2.743340 1.807782 55.597832 90 43 51
-2.738212 1.924029 55.493912 91 43 52
-2.722943 2.032259 55.184464 92 43 53
-2.712858 2.143251 54.980080 92 43 53
-2.712858 2.261769 54.980080 92 43 53
-2.717891 2.384704 55.082081 92 44 53
-2.702847 2.489586 54.777199 92 45 53
-2.697870 2.602865 54.676319 93 46 53
-2.668385 2.690994 54.078766 93 47 54
-2.673254 2.812692 54.177448 97 49 55
-2.678141 2.934836 54.276493 96 48 53
-2.663533 3.035192 53.980442 94 45 48
-2.668385 3.390447 54.078766 101 49 54
-2.717891 6.421810 55.082081 106 53 59
-2.712858 6.528436 54.980080 107 53 60
-2.707844 6.634668 54.878452 108 53 61
-2.712858 6.765473 54.980080 109 54 62
-2.707844 6.871267 54.878452 111 54 62
-2.702847 6.976671 54.777199 111 54 62
-2.692911 7.068668 54.575813 111 52 61
-2.692911 7.186315 54.575813 110 51 60
-2.697870 7.317413 54.676319 109 50 59
-2.687969 7.407992 54.475674 109 51 60
-2.687969 7.525423 54.475674 112 54 64
-2.687969 7.642854 54.475674 115 57 67
-2.687969 7.760285 54.475674 116 60 69
-2.687969 7.995148 54.475674 115 61 70
-2.678141 8.082917 54.276493 112 60 69
-2.673254 8.184956 54.177448 110 58 68
-2.678141 8.316920 54.276493 110 58 68
-2.673254 8.418531 54.177448 111 59 69
-2.668385 8.519773 54.078766 114 62 72
-2.668385 8.636349 54.078766 120 67 78
-2.663533 8.737010 53.980442 124 69 80
-2.658699 8.837306 53.882473 121 66 78
-2.663533 8.969737 53.980442 117 61 72
-2.668385 9.102652 54.078766 112 56 67
-2.663533 9.202464 53.980442 109 55 65
-2.668385 9.335802 54.078766 107 54 64
-2.673254 9.469626 54.177448 106 55 64
-2.673254 9.586415 54.177448 105 56 65
-2.663533 9.667919 53.980442 103 56 65
-2.663533 9.784283 53.980442 99 54 62
-2.658699 9.882678 53.882473 95 52 58
-2.663533 10.017010 53.980442 93 50 55
-2.663533 10.133373 53.980442 91 48 52
-2.668385 10.268407 54.078766 89 47 49
-2.663533 10.366101 53.980442 89 47 48
-2.663533 10.482465 53.980442 90 49 48
-2.668385 10.618134 54.078766 94 52 51
-2.663533 10.715192 53.980442 97 55 54
-2.663533 10.831555 53.980442 103 59 58
-2.673254 10.987875 54.177448 109 63 65
-2.683046 11.145340 54.375900 113 66 69
-2.678141 11.241966 54.276493 112 64 68
-2.678141 11.358968 54.276493 108 61 64
-2.673254 11.455029 54.177448 103 56 60
-2.663533 11.529737 53.980442 98 52 56
-2.668385 11.667315 54.078766 95 48 53
-2.673254 11.805393 54.177448 92 45 50
-2.658699 11.857269 53.882473 90 44 48
-2.658699 11.973422 53.882473 89 44 48
-2.634790 12.786611 53.397919 105 59 65
-2.625346 12.855475 53.206528 105 58 64
-2.668385 13.998826 54.078766 107 66 70
-2.668385 14.115401 54.078766 111 71 77
-2.663533 14.322465 53.980442 105 64 70
-2.644302 14.565623 53.590691 88 49 53
-2.639538 14.654695 53.494129 81 44 48
-2.634790 14.743445 53.397919 73 40 41
-2.630060 14.831877 53.302052 67 35 37
-2.630060 14.946778 53.302052 66 36 38
-2.630060 15.061680 53.302052 71 43 46
-2.634790 15.203876 53.397919 77 50 54
-2.634790 15.318985 53.397919 77 50 56
-2.634790 15.434093 53.397919 74 46 53
-2.639538 15.577217 53.494129 73 45 53
-2.634790 15.664309 53.397919 76 47 55
-2.630060 15.751087 53.302052 79 48 56
-2.639538 16.153793 53.494129 77 45 50
-2.634790 16.239847 53.397919 77 46 49
-2.589544 -5.313576 54.878452 55 26 26
-2.589544 -5.195276 54.878452 54 26 26
-2.584766 -5.067610 54.777199 54 27 26
-2.584766 -4.949529 54.777199 52 27 27
-2.551809 -4.186966 54.078766 54 27 28
-2.551809 -4.070391 54.078766 54 27 27
-2.561140 -3.968271 54.276493 53 27 26
-2.542547 -3.823311 53.882473 51 26 25
-2.501685 -3.647579 53.016502 49 27 25
-2.515159 -3.207620 53.302052 47 26 28
-2.515159 -3.092719 53.302052 46 25 28
-2.519682 -2.983174 53.397919 47 25 28
-2.519682 -2.868066 53.397919 49 25 27
-2.506160 -2.738183 53.111347 51 25 28
-2.524222 -2.181341 53.494129 59 31 30
-1.565300 -1.138150 33.172337 58 31 30
-1.560071 -1.063079 33.061516 58 30 31
-1.560071 -0.991809 33.061516 58 30 31
-2.519682 -1.256555 53.397919 62 30 32
-2.497225 -1.131274 52.922001 64 30 32
-2.519682 -0.450800 53.397919 74 36 35
-2.506160 -0.333890 53.111347 75 38 36
-2.475165 0.235610 52.454491 83 40 43
-2.453491 0.345631 51.995171 84 39 42
-2.633352 1.814578 55.806847 93 44 54
-2.628412 1.931249 55.702145 93 44 54
-2.608833 2.036044 55.287228 93 43 54
-2.594340 2.143251 54.980080 92 43 53
-2.599153 2.265966 55.082081 91 43 52
-2.603984 2.389137 55.184464 91 43 51
-2.589544 2.494188 54.878452 92 44 52
-2.589544 2.612487 54.878452 93 46 53
-2.565830 2.705779 54.375900 94 47 54
-2.561140 2.817834 54.276493 96 49 54
-2.570538 2.945606 54.475674 97 49 53
-2.551809 3.040720 54.078766 97 47 51
-2.551809 3.390447 54.078766 102 50 56
-2.551809 3.507023 54.078766 105 52 58
-2.556466 5.382036 54.177448 113 52 55
-2.561140 5.508876 54.276493 112 50 53
-2.556466 5.615612 54.177448 109 47 50
-2.561140 5.742880 54.276493 108 47 49
-2.570538 5.998817 54.475674 112 52 56
-2.580006 6.138776 54.676319 113 55 60
-2.580006 6.256640 54.676319 112 56 62
-2.594340 6.409917 54.980080 111 57 64
-2.589544 6.516369 54.878452 112 57 65
-2.580006 6.610231 54.676319 113 57 66
-2.584766 6.740508 54.777199 115 57 67
-2.584766 6.858590 54.777199 116 57 67
-2.580006 6.963822 54.676319 115 56 65
-2.570538 7.055698 54.475674 113 54 63
-2.565830 7.159992 54.375900 112 53 62
-2.565830 7.277208 54.375900 111 52 61
-2.561140 7.380906 54.276493 111 52 61
-2.561140 7.497908 54.276493 113 55 64
-2.565830 7.628856 54.375900 115 57 67
-2.565830 7.746072 54.375900 116 60 69
-2.561140 7.848913 54.276493 116 62 71
-2.565830 7.980505 54.375900 116 63 72
-2.561140 8.082917 54.276493 114 62 71
-2.551809 8.170047 54.078766 112 62 71
-2.556466 8.301744 54.177448 112 62 72
-2.551809 8.403197 54.078766 113 62 73
-2.551809 8.519773 54.078766 116 64 76
-2.551809 8.636349 54.078766 120 66 80
-2.547170 8.737010 53.980442 122 67 81
-2.542547 8.837306 53.882473 122 66 80
-2.547170 8.969737 53.980442 119 63 76
-2.551809 9.102652 54.078766 116 60 72
-2.551809 9.219227 54.078766 113 58 69
-2.556466 9.352839 54.177448 111 57 67
-2.561140 9.486938 54.276493 109 57 67
-2.561140 9.603941 54.276493 109 59 68
-2.556466 9.703203 54.177448 107 59 68
-2.551809 9.802105 54.078766 104 58 65
-2.551809 9.918680 54.078766 101 56 62
-2.551809 10.035255 54.078766 98 53 58
-2.556466 10.170357 54.177448 94 51 54
-2.556466 10.287145 54.177448 92 49 51
-2.551809 10.384983 54.078766 91 49 49
-2.551809 10.501558 54.078766 91 50 49
-2.556466 10.637510 54.177448 94 52 51
-2.556466 10.754298 54.177448 97 56 55
-2.556466 10.871087 54.177448 104 60 61
-2.565830 11.028124 54.375900 113 67 70
-2.575264 11.186316 54.575813 117 71 76
-2.570538 11.283221 54.475674 116 68 74
-2.565830 11.379772 54.375900 111 63 69
-2.561140 11.475969 54.276493 105 57 63
-2.551809 11.550738 54.078766 100 52 57
-2.551809 11.667315 54.078766 96 49 54
-2.556466 11.805393 54.177448 93 46 51
-2.542547 11.857269 53.882473 90 44 48
-2.542547 11.973422 53.882473 89 43 48
-2.519682 12.786611 53.397919 105 60 66
-2.510651 12.855475 53.206528 105 59 65
-2.515159 12.993457 53.302052 102 57 62
-2.515159 13.108358 53.302052 99 54 59
-2.556466 14.141160 54.177448 116 75 81
-2.547170 14.322465 53.980442 111 71 77
-2.537941 14.502456 53.784859 93 54 59
-2.533351 14.591963 53.687599 87 49 54
-2.524222 14.654695 53.494129 81 45 49
-2.524222 14.770010 53.494129 74 41 44
-2.519682 14.858553 53.397919 69 37 40
-2.515159 14.946778 53.302052 67 37 40
-2.515159 15.061680 53.302052 69 41 45
-2.515159 15.176580 53.302052 74 47 52
-2.519682 15.318985 53.397919 76 49 55
-2.519682 15.434093 53.397919 73 45 53
-2.524222 15.577217 53.494129 70 42 50
-2.519682 15.664309 53.397919 70 41 49
-2.515159 15.751087 53.302052 72 42 49
-2.519682 16.124741 53.397919 76 44 49
-2.457617 -5.048979 54.575813 56 27 27
-2.462142 -4.940413 54.676319 54 28 28
-2.471245 -4.722079 54.878452 54 28 28
-2.395956 -3.201872 53.206528 48 27 28
-2.400257 -3.092719 53.302052 49 26 28
-2.408907 -2.988549 53.494129 49 26 28
-2.408907 -2.873233 53.494129 50 26 28
-2.400257 -2.748015 53.302052 53 26 28
-2.408907 -2.642603 53.494129 56 27 29
-2.413255 -2.531849 53.590691 59 28 30
-2.413255 -2.300802 53.590691 61 31 31
-2.408907 -2.181341 53.494129 61 31 31
-1.497137 -1.069031 33.246632 59 32 31
-1.495462 -0.996247 33.209442 58 31 31
-2.387399 -1.133294 53.016502 63 31 32
-2.370467 -1.011781 52.640499 64 31 33
-2.395956 -0.907965 53.206528 66 31 33
-2.400257 -0.794694 53.302052 69 32 33
-2.404574 -0.681015 53.397919 71 33 34
-2.408907 -0.566927 53.494129 73 35 35
-2.404574 -0.450800 53.397919 74 37 36
-2.395956 -0.334488 53.206528 76 39 37
-2.374677 0.236866 52.734001 85 41 43
-2.329170 0.678320 51.723419 91 40 45
-2.517784 1.938523 55.911945 94 44 56
-2.494297 2.039842 55.390377 93 44 55
-2.489652 2.155224 55.287228 92 44 54
-2.485025 2.270177 55.184464 91 43 52
-2.489652 2.393586 55.287228 90 42 50
-2.475821 2.498806 54.980080 92 43 51
-2.480414 2.622181 55.082081 95 46 53
-2.457617 2.715727 54.575813 96 47 53
-2.457617 2.833374 54.575813 97 47 52
-2.462142 2.956456 54.676319 98 47 52
-2.435234 3.390447 54.078766 101 51 57
-2.435234 3.507023 54.078766 106 54 61
-2.471245 4.505278 54.878452 113 51 58
-2.453107 5.059368 54.475674 113 51 59
-2.457617 5.186315 54.575813 114 52 59
-2.453107 5.294230 54.475674 115 53 58
-2.444138 5.391875 54.276493 115 53 57
-2.444138 5.508876 54.276493 113 51 55
-2.439678 5.615612 54.177448 110 48 51
-2.439678 5.732400 54.177448 108 47 50
-2.444138 5.859882 54.276493 110 49 53
-2.448614 5.987831 54.375900 112 52 57
-2.457617 6.127491 54.575813 114 56 61
-2.457617 6.245139 54.575813 115 59 66
-2.466685 6.386265 54.777199 116 60 69
-2.466685 6.504346 54.777199 117 61 70
-2.457617 6.598080 54.575813 118 61 72
-2.457617 6.715727 54.575813 119 62 73
-2.457617 6.833374 54.575813 119 61 72
-2.457617 6.951021 54.575813 118 59 69
-2.444138 7.029900 54.276493 116 57 66
-2.439678 7.133860 54.177448 114 55 64
-2.439678 7.250648 54.177448 113 54 63
-2.439678 7.367437 54.177448 113 54 63
-2.435234 7.470593 54.078766 113 56 65
-2.439678 7.601014 54.177448 114 59 68
-2.439678 7.717802 54.177448 115 61 71
-2.439678 8.068167 54.177448 115 66 75
-2.435234 8.170047 54.078766 115 67 76
-2.435234 8.286622 54.078766 115 67 77
-2.435234 8.403197 54.078766 117 67 79
-2.430806 8.504283 53.980442 120 68 81
-2.430806 8.620646 53.980442 122 68 83
-2.430806 8.737010 53.980442 123 68 83
-2.426394 8.837306 53.882473 122 67 81
-2.430806 8.969737 53.980442 120 65 78
-2.439678 9.119262 54.177448 118 63 75
-2.435234 9.219227 54.078766 115 61 71
-2.439678 9.352839 54.177448 111 60 69
-2.444138 9.486938 54.276493 111 60 69
-2.444138 9.603941 54.276493 112 62 70
-2.444138 9.720942 54.276493 112 63 71
-2.439678 9.819992 54.177448 110 63 69
-2.439678 9.936780 54.177448 107 60 65
-2.439678 10.053569 54.177448 103 57 60
-2.444138 10.188950 54.276493 99 54 55
-2.444138 10.305951 54.276493 95 52 52
-2.444138 10.422954 54.276493 93 51 50
-2.439678 10.520721 54.177448 92 51 49
-2.444138 10.656957 54.276493 93 52 51
-2.444138 10.773959 54.276493 97 55 55
-2.448614 10.910908 54.375900 105 61 63
-2.457617 11.068668 54.575813 115 71 75
-2.466685 11.227593 54.777199 121 76 82
-2.462142 11.324780 54.676319 119 73 80
-2.453107 11.400652 54.475674 113 66 73
-2.448614 11.496988 54.375900 107 59 66
-2.439678 11.571816 54.177448 101 55 60
-2.435234 11.667315 54.078766 97 51 56
-2.439678 11.805393 54.177448 94 48 52
-2.421999 11.835789 53.784859 91 45 49
-2.426394 11.973422 53.882473 89 44 48
-2.426394 12.089575 53.882473 88 43 48
-2.404574 12.786611 53.397919 103 58 65
-2.400257 12.878555 53.302052 103 59 65
-2.400257 12.993457 53.302052 101 56 62
-2.400257 13.108358 53.302052 97 53 58
-2.404574 13.247043 53.397919 95 52 56
-2.435234 14.348553 54.078766 118 77 84
-2.421999 14.502456 53.784859 93 55 59
-2.417619 14.591963 53.687599 85 49 52
-2.413255 14.681147 53.590691 79 44 48
-2.408907 14.770010 53.494129 74 41 44
-2.404574 14.858553 53.397919 70 38 42
-2.400257 14.946778 53.302052 67 37 41
-2.400257 15.061680 53.302052 68 39 44
-2.400257 15.176580 53.302052 71 44 50
-2.404574 15.318985 53.397919 74 47 53
-2.404574 15.434093 53.397919 71 43 51
-2.404574 15.549200 53.397919 67 39 47
-2.400257 15.636186 53.302052 66 38 45
-2.400257 15.751087 53.302052 68 40 46
-2.404574 15.894525 53.397919 72 42 48
-2.348604 -4.831448 54.777199 57 29 30
-2.348604 -4.713367 54.777199 56 29 30
-2.310242 -4.520226 53.882473 56 29 30
-2.277179 -4.112065 53.111347 56 28 28
-2.256992 -3.962136 52.640499 56 27 28
-2.285356 -3.092719 53.302052 51 28 29
-2.297732 -2.993943 53.590691 51 27 29
-2.297732 -2.878420 53.590691 53 27 29
-2.293592 -2.757918 53.494129 55 27 29
-2.297732 -2.647373 53.590691 58 28 29
-2.297732 -2.531849 53.590691 60 29 30
-2.301887 -2.420695 53.687599 61 30 31
-2.297732 -2.300802 53.590691 62 31 32
-2.293592 -2.181341 53.494129 62 32 32
-1.425468 -0.997362 33.246632 58 32 32
-2.289466 -1.141447 53.397919 61 32 32
-2.297732 -0.914521 53.590691 65 32 33
-2.301887 -0.800442 53.687599 67 33 34
-2.301887 -0.568977 53.687599 73 36 36
-2.297732 -0.452427 53.590691 75 37 37
-2.370472 2.036044 55.287228 93 44 54
-2.361676 2.265966 55.082081 93 44 52
-2.357302 2.498806 54.980080 95 44 52
-2.361676 2.622181 55.082081 97 46 52
-2.344279 2.720728 54.676319 98 47 52
-2.344279 2.956456 54.676319 99 48 52
-2.318658 3.390447 54.078766 101 50 57
-2.314442 3.500646 53.980442 106 54 63
-2.348604 4.496966 54.777199 116 53 60
-2.331398 5.050102 54.375900 116 53 61
-2.335676 5.176799 54.475674 116 54 61
-2.331398 5.284534 54.375900 118 56 61
-2.322889 5.382036 54.177448 118 56 60
-2.327136 5.508876 54.276493 116 54 57
-2.322889 5.615612 54.177448 112 51 54
-2.327136 5.742880 54.276493 109 48 52
-2.327136 5.859882 54.276493 110 49 54
-2.331398 5.987831 54.375900 112 53 58
-2.335676 6.116249 54.475674 115 57 63
-2.339969 6.245139 54.575813 117 60 68
-2.348604 6.386265 54.777199 119 63 71
-2.344279 6.492367 54.676319 119 64 73
-2.335676 6.585973 54.475674 120 64 74
-2.335676 6.703404 54.475674 121 64 75
-2.331398 6.808343 54.375900 121 64 74
-2.331398 6.925560 54.375900 120 62 71
-2.318658 7.004291 54.078766 119 61 69
-2.318658 7.120866 54.078766 118 60 67
-2.318658 7.587168 54.078766 113 60 67
-2.318658 7.703744 54.078766 114 63 70
-2.318658 7.820320 54.078766 115 66 73
-2.322889 7.951379 54.177448 115 68 75
-2.322889 8.068167 54.177448 115 69 77
-2.318658 8.170047 54.078766 117 71 81
-2.318658 8.286622 54.078766 121 74 85
-2.314442 8.387919 53.980442 125 76 89
-2.314442 8.504283 53.980442 128 77 90
-2.318658 8.636349 54.078766 128 75 89
-2.314442 8.737010 53.980442 126 72 87
-2.314442 8.853374 53.980442 125 70 85
-2.318658 8.986075 54.078766 122 68 81
-2.322889 9.119262 54.177448 119 66 78
-2.318658 9.219227 54.078766 115 64 74
-2.322889 9.352839 54.177448 111 62 69
-2.331398 9.504314 54.375900 110 61 68
-2.331398 9.621531 54.375900 113 64 71
-2.327136 9.720942 54.276493 116 68 74
-2.327136 9.837944 54.276493 116 68 73
-2.327136 9.954946 54.276493 114 66 69
-2.327136 10.071948 54.276493 108 62 64
-2.331398 10.207611 54.375900 103 58 59
-2.331398 10.324827 54.375900 98 55 54
-2.327136 10.422954 54.276493 95 53 52
-2.327136 10.539955 54.276493 93 51 51
-2.331398 10.676476 54.375900 93 51 52
-2.331398 10.793692 54.375900 96 54 55
-2.335676 10.930927 54.475674 103 60 64
-2.348604 11.109512 54.777199 115 71 77
-2.348604 11.227593 54.777199 123 79 86
-2.344279 11.324780 54.676319 121 76 84
-2.335676 11.400652 54.475674 114 68 75
-2.331398 11.496988 54.375900 107 61 68
-2.322889 11.571816 54.177448 102 56 63
-2.318658 11.667315 54.078766 99 52 58
-2.322889 11.805393 54.177448 95 49 53
-2.310242 11.857269 53.882473 92 46 50
-2.310242 11.973422 53.882473 90 45 48
-2.310242 12.089575 53.882473 88 43 47
-2.306057 12.183615 53.784859 86 41 46
-2.289466 12.786611 53.397919 100 58 64
-2.285356 12.878555 53.302052 101 58 65
-2.289466 13.016827 53.397919 99 56 62
-2.285356 13.108358 53.302052 96 53 58
-2.285356 13.223259 53.302052 95 52 57
-2.327136 14.284014 54.276493 128 85 89
-2.318658 14.348553 54.078766 126 85 89
-2.310242 14.412623 53.882473 111 72 75
-2.306057 14.502456 53.784859 93 57 58
-2.301887 14.591963 53.687599 82 47 48
-2.297732 14.681147 53.590691 76 43 45
-2.297732 14.796671 53.590691 73 41 43
-2.289466 14.858553 53.397919 70 39 42
-2.285356 14.946778 53.302052 68 38 41
-2.285356 15.061680 53.302052 66 37 42
-2.285356 15.176580 53.302052 69 41 47
-2.285356 15.291482 53.302052 72 45 51
-2.285356 15.406384 53.302052 70 42 49
-2.289466 15.549200 53.397919 66 39 45
-2.285356 15.636186 53.302052 65 37 44
-2.226415 -4.704686 54.676319 59 30 31
-2.143517 -4.075611 52.640499 57 28 29
-2.132175 -3.941172 52.361980 57 28 27
-2.120953 -3.808148 52.086391 56 26 26
-2.109849 -3.564825 51.813686 52 25 25
-2.166565 -3.087177 53.206528 53 29 30
-2.182208 -2.993943 53.590691 54 29 30
-2.182208 -2.878420 53.590691 55 28 30
-2.186154 -2.652160 53.687599 59 28 29
-2.182208 -2.531849 53.590691 61 29 30
-2.186154 -2.420695 53.687599 62 31 32
-2.182208 -2.300802 53.590691 63 32 33
-2.178276 -2.181341 53.494129 64 33 34
-2.186154 -2.073498 53.687599 64 33 34
-1.355318 -0.998480 33.283905 58 32 32
-2.194090 -1.035653 53.882473 61 32 33
-2.190115 -0.917834 53.784859 63 32 33
-2.190115 -0.801892 53.784859 66 33 34
-2.194090 -0.687195 53.882473 69 35 36
-2.194090 -0.571043 53.882473 73 36 38
-2.166565 0.583074 53.206528 89 40 44
-2.178276 0.932172 53.494129 93 40 44
-2.162689 1.039992 53.111347 93 40 45
-2.151145 1.148319 52.827831 93 40 46
-2.151145 1.262198 52.827831 93 40 48
-2.218245 2.945606 54.475674 100 48 52
-2.202083 3.040720 54.078766 100 49 53
-2.198079 3.384283 53.980442 101 51 56
-2.194090 3.494293 53.882473 106 55 61
-2.194090 3.610445 53.882473 119 65 73
-2.214182 4.346805 54.375900 119 54 62
-2.222322 4.480433 54.575813 119 55 62
-2.222322 4.598080 54.575813 119 56 63
-2.202083 5.022505 54.078766 120 57 65
-2.206101 5.148459 54.177448 120 57 64
-2.210134 5.274873 54.276493 121 57 64
-2.202083 5.372232 54.078766 120 58 63
-2.206101 5.498824 54.177448 118 57 61
-2.206101 5.615612 54.177448 115 54 58
-2.206101 5.732400 54.177448 112 52 56
-2.206101 5.849189 54.177448 111 52 57
-2.210134 5.976884 54.276493 113 54 59
-2.218245 6.116249 54.475674 114 57 63
-2.218245 6.233680 54.475674 116 60 68
-2.222322 6.362786 54.575813 118 63 72
-2.222322 6.480433 54.575813 119 64 75
-2.218245 6.585973 54.475674 120 65 76
-2.214182 6.691127 54.375900 121 66 77
-2.210134 6.795897 54.276493 122 66 75
-2.206101 6.900284 54.177448 122 65 73
-2.202083 7.004291 54.078766 122 65 71
-2.198079 7.340646 53.980442 115 60 66
-2.194090 7.443476 53.882473 113 60 66
-2.198079 7.573374 53.980442 113 62 68
