ply
format ascii 1.0
element vertex 1175
property float x
property float y
property float z
property uchar red
property uchar green
property uchar blue
end_header
0.642547 -7.407946 58.328571 246 198 217
0.636297 -7.211370 57.761173 247 198 218
0.637537 -7.100672 57.873768 247 196 215
0.637537 -6.975915 57.873768 245 192 211
0.638783 -6.864540 57.986801 245 190 209
0.637537 -6.726403 57.873768 245 190 209
0.633831 -6.563264 57.537292 245 189 207
0.633831 -6.439234 57.537292 248 192 210
0.635061 -6.327465 57.649014 251 197 215
0.635061 -6.203193 57.649014 252 198 215
0.635061 -6.078921 57.649014 250 194 212
0.636297 -5.966235 57.761173 245 187 205
0.638783 -5.864540 57.986801 240 181 200
0.638783 -5.739540 57.986801 239 179 198
0.638783 -5.614540 57.986801 242 180 200
0.636297 -5.468180 57.761173 244 182 203
0.635061 -5.333291 57.649014 244 182 202
0.637537 -5.229327 57.873768 243 180 200
0.638783 -5.114540 57.986801 241 178 198
0.635061 -4.960475 57.649014 240 176 197
0.636297 -4.845612 57.761173 241 175 196
0.636297 -4.721098 57.761173 242 176 195
0.635061 -4.587659 57.649014 243 175 194
0.640033 -4.498326 58.100277 243 175 193
0.635061 -4.339116 57.649014 242 175 192
0.638783 -4.239540 57.986801 241 174 191
0.636297 -4.098530 57.761173 240 173 190
0.633831 -3.958613 57.537292 239 172 189
0.633831 -3.834582 57.537292 242 176 194
0.633831 -3.710552 57.537292 247 185 204
0.632605 -3.579583 57.425999 249 188 207
0.633831 -3.462489 57.537292 243 179 199
0.633831 -3.338458 57.537292 235 167 189
0.631383 -3.202016 57.315140 237 174 196
0.630167 -3.072533 57.204704 246 203 221
0.631383 -2.954912 57.315140 253 223 239
0.630167 -2.825905 57.204704 253 216 233
0.630167 -2.702591 57.204704 248 196 216
0.630167 -2.579277 57.204704 240 180 199
0.630167 -2.455962 57.204704 235 174 192
0.628955 -2.328163 57.094696 241 182 199
0.630167 -2.209334 57.204704 250 193 209
0.628955 -2.082009 57.094696 252 195 212
0.628955 -1.958932 57.094696 250 193 211
0.630167 -1.839392 57.204704 248 192 209
0.631383 -1.719391 57.315140 247 191 207
0.631383 -1.595839 57.315140 246 189 205
0.630167 -1.469450 57.204704 244 188 204
0.631383 -1.348735 57.315140 245 191 206
0.631383 -1.225183 57.315140 246 193 208
0.631383 -1.101630 57.315140 244 190 204
0.631383 -0.978078 57.315140 236 181 195
0.631383 -0.854526 57.315140 232 176 191
0.631383 -0.730974 57.315140 237 181 195
0.630167 -0.606251 57.204704 241 185 200
0.628955 -0.482009 57.094696 240 184 198
0.628955 -0.358932 57.094696 236 181 195
0.628955 -0.235855 57.094696 233 177 193
0.628955 -0.112778 57.094696 236 178 195
0.627748 0.010279 56.985111 241 183 201
0.627748 0.133120 56.985111 242 186 204
0.627748 0.255961 56.985111 237 180 198
0.626545 0.378076 56.875942 233 175 193
0.627748 0.501642 56.985111 234 176 193
0.627748 0.624483 56.985111 235 177 195
0.627748 0.747323 56.985111 235 178 195
0.627748 0.870164 56.985111 236 179 195
0.627748 0.993005 56.985111 236 179 195
0.626545 1.113708 56.875942 236 179 195
0.628955 1.241068 57.094696 235 177 194
0.628955 1.364145 57.094696 234 175 192
0.630167 1.490088 57.204704 234 173 191
0.630167 1.613402 57.204704 237 173 193
0.633831 1.746813 57.537292 241 175 195
0.632605 1.867225 57.425999 243 176 196
0.633831 1.994875 57.537292 243 175 196
0.636297 2.127151 57.761173 244 174 196
0.636297 2.251664 57.761173 246 175 196
0.637537 2.380810 57.873768 246 176 197
0.643812 2.530227 58.443390 248 177 198
0.646357 2.666710 58.674393 249 178 200
0.645082 2.787683 58.558662 250 178 201
0.645082 2.913916 58.558662 251 178 202
0.642547 3.028203 58.328571 251 180 203
0.641288 3.147756 58.214199 250 178 200
0.643812 3.286133 58.443390 241 167 187
0.640033 3.392085 58.100277 230 158 174
0.641288 3.524226 58.214199 235 175 188
0.640033 3.642574 58.100277 248 207 218
0.640033 3.767819 58.100277 245 209 217
0.638783 3.885460 57.986801 224 172 181
0.638783 4.010460 57.986801 211 146 157
0.641288 4.151678 58.214199 221 155 167
0.641288 4.277168 58.214199 233 169 183
0.642547 4.411307 58.328571 235 171 188
0.643812 4.545975 58.443390 234 170 189
0.643812 4.671959 58.443390 234 170 192
0.645082 4.807407 58.558662 233 169 193
0.646357 4.943390 58.674393 231 165 191
0.647637 5.079912 58.790577 240 180 204
0.647637 5.206645 58.790577 248 198 218
0.647637 5.333377 58.790577 237 176 199
0.648922 5.470943 58.907227 227 154 179
0.646357 5.575801 58.674393 238 177 198
0.646357 5.702283 58.674393 249 197 214
0.645082 5.817269 58.558662 248 181 194
0.646357 5.955248 58.674393 246 167 175
0.646357 6.081730 58.674393 242 164 169
0.643812 6.183771 58.443390 237 162 165
0.643812 6.309755 58.443390 238 171 173
0.642547 6.423095 58.328571 244 185 188
0.642547 6.548832 58.328571 243 183 187
0.642547 6.674569 58.328571 243 189 194
0.642547 6.800305 58.328571 249 208 214
0.642547 6.926042 58.328571 247 198 204
0.642547 7.051779 58.328571 235 170 176
0.643812 7.191645 58.443390 232 162 167
0.642547 7.303252 58.328571 240 169 172
0.643812 7.443613 58.443390 245 176 177
0.643812 7.569597 58.443390 246 178 176
0.643812 7.695581 58.443390 243 176 172
0.646357 7.852481 58.674393 241 175 169
0.796449 -11.720254 60.466888 216 202 220
0.796449 -11.589908 60.466888 215 201 219
0.798075 -11.482948 60.590290 213 199 217
0.794831 -11.306188 60.343987 209 195 213
0.796449 -11.198869 60.466888 207 191 209
0.796449 -11.068522 60.466888 208 190 209
0.791613 -10.871750 60.099682 210 190 210
0.780552 -10.592105 59.259964 211 190 209
0.774370 -10.381474 58.790577 211 189 208
0.772839 -10.234475 58.674393 213 190 208
0.774370 -10.128009 58.790577 215 191 209
0.772839 -9.981511 58.674393 217 192 209
0.774370 -9.874543 58.790577 219 192 209
0.771315 -9.709358 58.558662 220 192 209
0.763783 -9.489540 57.986801 222 192 209
0.753481 -8.868294 57.204704 230 194 211
0.754936 -8.761862 57.315140 232 195 211
0.753481 -8.621666 57.204704 235 197 213
0.756396 -8.531227 57.425999 238 199 214
0.754936 -8.391206 57.315140 238 199 214
0.756396 -8.283645 57.425999 238 199 213
0.757862 -8.175668 57.537292 238 199 213
0.760811 -8.082966 57.761173 239 198 212
0.763783 -7.989540 57.986801 240 197 213
0.766778 -7.895381 58.214199 242 199 214
0.765277 -7.754686 58.100277 243 200 216
0.765277 -7.629441 58.100277 244 199 216
0.766778 -7.518911 58.214199 244 198 216
0.766778 -7.393421 58.214199 245 198 217
0.760811 -7.211370 57.761173 247 198 218
0.762294 -7.100672 57.873768 247 196 216
0.760811 -6.962343 57.761173 245 192 213
0.763783 -6.864540 57.986801 246 192 212
0.763783 -6.739540 57.986801 246 190 210
0.759333 -6.576009 57.649014 243 185 205
0.759333 -6.451737 57.649014 243 185 203
0.759333 -6.327465 57.649014 247 190 208
0.759333 -6.203193 57.649014 249 193 211
0.759333 -6.078921 57.649014 247 190 209
0.760811 -5.966235 57.761173 242 183 202
0.762294 -5.853108 57.873768 237 178 197
0.763783 -5.739540 57.986801 238 178 197
0.763783 -5.614540 57.986801 243 182 202
0.760811 -5.468180 57.761173 247 184 205
0.759333 -5.333291 57.649014 244 181 202
0.760811 -5.219153 57.761173 240 176 196
0.759333 -5.084747 57.649014 239 173 194
0.757862 -4.950861 57.537292 240 173 195
0.759333 -4.836203 57.649014 241 174 194
0.757862 -4.702799 57.537292 242 175 193
0.759333 -4.587659 57.649014 243 175 193
0.762294 -4.480789 57.873768 243 175 193
0.757862 -4.330707 57.537292 243 175 192
0.762294 -4.231276 57.873768 242 174 191
0.759333 -4.090572 57.649014 240 173 189
0.757862 -3.958613 57.537292 240 173 190
0.757862 -3.834582 57.537292 244 179 197
0.757862 -3.710552 57.537292 250 189 208
0.756396 -3.579583 57.425999 252 191 211
0.757862 -3.462489 57.537292 245 180 201
0.757862 -3.338458 57.537292 238 169 192
0.754936 -3.202016 57.315140 241 178 200
0.753481 -3.072533 57.204704 250 208 225
0.754936 -2.954912 57.315140 254 226 242
0.753481 -2.825905 57.204704 254 220 237
0.753481 -2.702591 57.204704 251 202 221
0.753481 -2.579277 57.204704 242 184 203
0.752032 -2.451240 57.094696 236 174 192
0.752032 -2.328163 57.094696 241 180 196
0.752032 -2.205086 57.094696 249 191 207
0.752032 -2.082009 57.094696 252 196 213
0.752032 -1.958932 57.094696 251 194 210
0.753481 -1.839392 57.204704 248 190 206
0.754936 -1.719391 57.315140 248 190 206
0.753481 -1.592764 57.204704 247 191 206
0.753481 -1.469450 57.204704 244 188 203
0.754936 -1.348735 57.315140 245 191 205
0.754936 -1.225183 57.315140 250 202 216
0.754936 -1.101630 57.315140 247 202 216
0.754936 -0.978078 57.315140 237 184 199
0.754936 -0.854526 57.315140 229 172 187
0.754936 -0.730974 57.315140 235 177 192
0.753481 -0.606251 57.204704 239 182 198
0.753481 -0.482937 57.204704 237 181 195
0.752032 -0.358932 57.094696 235 178 193
0.752032 -0.235855 57.094696 235 178 194
0.750589 -0.112561 56.985111 238 179 196
0.750589 0.010279 56.985111 240 181 198
0.750589 0.133120 56.985111 239 180 198
0.750589 0.255961 56.985111 235 176 194
0.749151 0.378076 56.875942 231 173 191
0.750589 0.501642 56.985111 231 173 190
0.750589 0.624483 56.985111 232 174 191
0.749151 0.745892 56.875942 232 175 192
0.749151 0.868497 56.875942 233 175 192
0.749151 0.991102 56.875942 234 176 193
0.747718 1.111578 56.767193 234 176 194
0.752032 1.241068 57.094696 235 175 194
0.752032 1.364145 57.094696 236 173 193
0.754936 1.492964 57.315140 236 172 192
0.754936 1.616516 57.315140 239 173 193
0.760811 1.753610 57.761173 242 173 194
0.759333 1.874477 57.649014 244 173 194
0.759333 1.998749 57.649014 244 172 194
0.762294 2.131297 57.873768 243 172 193
0.763783 2.260460 57.986801 243 171 192
0.765277 2.390128 58.100277 243 170 191
0.768284 2.525256 58.328571 243 170 191
0.769797 2.656212 58.443390 244 171 193
0.771315 2.787683 58.558662 245 171 194
0.769797 2.908180 58.443390 247 173 197
0.769797 3.034164 58.443390 251 177 200
0.766778 3.147756 58.214199 252 176 199
0.769797 3.286133 58.443390 247 169 190
0.766778 3.398736 58.214199 239 162 181
0.766778 3.524226 58.214199 238 169 186
0.765277 3.642574 58.100277 241 184 200
0.765277 3.767819 58.100277 233 177 192
0.765277 3.893064 58.100277 217 152 167
0.765277 4.018308 58.100277 212 144 159
0.766778 4.151678 58.214199 221 155 171
0.766778 4.277168 58.214199 224 161 178
0.768284 4.411307 58.328571 220 159 178
0.768284 4.537044 58.328571 223 164 185
0.768284 4.662781 58.328571 235 179 203
0.771315 4.807407 58.558662 236 181 209
0.771315 4.933640 58.558662 227 163 194
0.772839 5.069872 58.674393 232 173 199
0.774370 5.206645 58.790577 241 195 215
0.774370 5.333377 58.790577 229 171 194
0.774370 5.460110 58.790577 224 155 181
0.772839 5.575801 58.674393 239 188 210
0.772839 5.702283 58.674393 247 202 219
0.771315 5.817269 58.558662 243 178 191
0.772839 5.955248 58.674393 244 167 176
0.772839 6.081730 58.674393 243 166 173
0.769797 6.183771 58.443390 232 158 163
0.769797 6.309755 58.443390 232 166 169
0.768284 6.423095 58.328571 243 186 190
0.768284 6.548832 58.328571 247 189 195
0.768284 6.674569 58.328571 244 185 192
0.766778 6.786972 58.214199 248 191 200
0.768284 6.926042 58.328571 249 188 197
0.768284 7.051779 58.328571 241 172 180
0.768284 7.177516 58.328571 235 163 169
0.768284 7.303252 58.328571 237 165 169
0.928687 -11.744172 60.590290 217 202 221
0.928687 -11.613561 60.590290 215 201 221
0.928687 -11.482948 60.590290 212 196 217
0.924912 -11.306188 60.343987 208 192 212
0.924912 -11.176106 60.343987 207 190 210
0.924912 -11.046025 60.343987 208 190 210
0.919306 -10.849787 59.978268 209 190 210
0.906487 -10.571005 59.141918 211 190 210
0.901102 -10.381474 58.790577 214 191 211
0.897548 -10.214289 58.558662 216 192 212
0.897548 -10.088057 58.558662 218 193 212
0.895781 -9.942214 58.443390 220 194 212
0.895781 -9.816230 58.443390 221 194 212
0.895781 -9.690245 58.443390 223 193 211
0.876795 -8.868294 57.204704 231 196 213
0.876795 -8.744980 57.204704 233 196 213
0.876795 -8.621666 57.204704 236 199 214
0.878488 -8.514758 57.315140 240 201 216
0.876795 -8.375037 57.204704 240 202 217
0.878488 -8.267653 57.315140 240 202 216
0.885324 -7.958452 57.761173 241 199 213
0.888783 -7.864540 57.986801 244 202 216
0.887050 -7.724453 57.873768 246 203 219
0.887050 -7.599697 57.873768 245 201 217
0.890522 -7.504197 58.100277 243 198 215
0.890522 -7.378952 58.100277 244 197 216
0.885324 -7.211370 57.761173 246 198 217
0.885324 -7.086857 57.761173 247 197 217
0.881893 -6.935358 57.537292 247 194 215
0.888783 -6.864540 57.986801 248 194 214
0.888783 -6.739540 57.986801 248 191 211
0.883605 -6.576009 57.649014 244 186 206
0.883605 -6.451737 57.649014 243 184 203
0.883605 -6.327465 57.649014 245 187 205
0.881893 -6.191172 57.537292 247 188 207
0.883605 -6.078921 57.649014 244 184 203
0.883605 -5.954649 57.649014 238 178 197
0.885324 -5.841721 57.761173 235 175 195
0.885324 -5.717207 57.761173 236 175 196
0.887050 -5.603596 57.873768 240 179 199
0.883605 -5.457562 57.649014 243 180 201
0.880187 -5.312659 57.425999 241 177 199
0.881893 -5.198924 57.537292 237 173 194
0.880187 -5.065076 57.425999 236 171 192
0.880187 -4.941285 57.425999 238 171 193
0.881893 -4.826830 57.537292 241 173 194
0.880187 -4.693703 57.425999 243 175 194
0.881893 -4.578768 57.537292 244 176 194
0.885324 -4.472071 57.761173 244 176 194
0.881893 -4.330707 57.537292 244 175 193
0.887050 -4.231276 57.873768 242 174 190
0.883605 -4.090572 57.649014 240 173 189
0.881893 -3.958613 57.537292 241 175 191
0.881893 -3.834582 57.537292 246 182 199
0.881893 -3.710552 57.537292 252 192 208
0.880187 -3.579583 57.425999 253 192 210
0.881893 -3.462489 57.537292 250 185 204
0.881893 -3.338458 57.537292 247 180 200
0.880187 -3.208210 57.425999 247 184 203
0.878488 -3.078464 57.315140 250 200 217
0.880187 -2.960628 57.425999 253 220 235
0.876795 -2.825905 57.204704 254 225 240
0.876795 -2.702591 57.204704 252 210 227
0.876795 -2.579277 57.204704 246 190 207
0.876795 -2.455962 57.204704 241 179 195
0.875109 -2.328163 57.094696 242 181 196
0.875109 -2.205086 57.094696 248 190 205
0.875109 -2.082009 57.094696 252 197 213
0.875109 -1.958932 57.094696 250 194 210
0.876795 -1.839392 57.204704 247 187 202
0.878488 -1.719391 57.315140 248 189 204
0.878488 -1.595839 57.315140 249 197 211
0.878488 -1.472287 57.315140 248 198 212
0.878488 -1.348735 57.315140 250 200 213
0.878488 -1.225183 57.315140 253 214 226
0.880187 -1.103761 57.425999 252 219 232
0.880187 -0.979970 57.425999 240 193 208
0.878488 -0.854526 57.315140 226 168 185
0.878488 -0.730974 57.315140 231 172 188
0.878488 -0.607422 57.315140 238 179 196
0.876795 -0.482937 57.204704 236 178 194
0.875109 -0.358932 57.094696 234 176 192
0.875109 -0.235855 57.094696 233 174 191
0.873429 -0.112561 56.985111 234 174 190
0.871756 0.010260 56.875942 235 175 192
0.871756 0.132865 56.875942 235 175 193
0.871756 0.255470 56.875942 235 176 194
0.871756 0.378076 56.875942 231 174 191
0.871756 0.500681 56.875942 226 169 186
0.871756 0.623286 56.875942 227 170 186
0.871756 0.745892 56.875942 230 173 189
0.870089 0.866836 56.767193 232 173 191
0.870089 0.989207 56.767193 232 173 192
0.870089 1.111578 56.767193 232 173 192
0.875109 1.241068 57.094696 234 172 193
0.875109 1.364145 57.094696 235 171 192
0.878488 1.492964 57.315140 236 171 191
0.880187 1.619643 57.425999 239 171 192
0.885324 1.753610 57.761173 242 172 193
0.885324 1.878124 57.761173 245 174 194
0.885324 2.002637 57.761173 245 173 193
0.888783 2.135460 57.986801 242 170 190
0.892268 2.269325 58.214199 240 168 188
0.892268 2.394815 58.214199 239 167 186
0.894021 2.525256 58.328571 239 166 186
0.895781 2.656212 58.443390 240 166 186
0.897548 2.787683 58.558662 242 166 188
0.897548 2.913916 58.558662 245 169 192
0.895781 3.034164 58.443390 248 170 194
0.894021 3.153940 58.328571 249 169 193
0.895781 3.286133 58.443390 247 166 189
0.894021 3.405413 58.328571 241 160 182
0.894021 3.531150 58.328571 235 156 178
0.892268 3.649717 58.214199 229 155 176
0.892268 3.775207 58.214199 223 151 171
0.892268 3.900697 58.214199 217 147 166
0.892268 4.026187 58.214199 216 148 168
0.894021 4.159834 58.328571 217 154 174
0.892268 4.277168 58.214199 212 152 172
0.894021 4.411307 58.328571 203 144 165
0.894021 4.537044 58.328571 212 158 180
0.894021 4.662781 58.328571 236 194 216
0.897548 4.807407 58.558662 242 200 227
0.897548 4.933640 58.558662 228 169 200
0.899321 5.069872 58.674393 227 165 194
0.899321 5.196355 58.674393 237 188 211
0.899321 5.322837 58.674393 236 179 203
0.901102 5.460110 58.790577 238 175 201
0.897548 5.564804 58.558662 248 199 222
0.899321 5.702283 58.674393 248 194 212
0.897548 5.817269 58.558662 241 171 184
0.899321 5.955248 58.674393 244 169 179
0.897548 6.069735 58.558662 243 169 175
0.895781 6.183771 58.443390 230 156 161
0.897548 6.322200 58.558662 229 160 164
0.894021 6.423095 58.328571 242 179 184
0.894021 6.548832 58.328571 248 185 192
0.894021 6.674569 58.328571 245 179 187
0.892268 6.786972 58.214199 245 177 185
1.059299 -11.874784 60.590290 216 202 221
1.059299 -11.744172 60.590290 215 201 220
1.059299 -11.613561 60.590290 213 198 219
1.059299 -11.482948 60.590290 209 194 215
1.054993 -11.306188 60.343987 207 190 212
1.054993 -11.176106 60.343987 208 190 212
1.052853 -11.023620 60.221588 208 189 211
1.046485 -10.827912 59.857342 209 188 210
1.033977 -10.571005 59.141918 213 190 211
1.025804 -10.360957 58.674393 216 193 214
1.021765 -10.194182 58.443390 219 195 215
1.021765 -10.068198 58.443390 220 195 215
1.019758 -9.922681 58.328571 221 195 213
1.017758 -9.777735 58.214199 223 195 212
1.019758 -9.671207 58.328571 225 196 213
1.002040 -9.132519 57.315140 230 197 213
1.000109 -8.991608 57.204704 232 198 214
1.000109 -8.868294 57.204704 233 198 215
1.000109 -8.744980 57.204704 234 199 215
1.000109 -8.621666 57.204704 236 201 217
1.000109 -8.498352 57.204704 239 204 220
1.000109 -8.375037 57.204704 240 205 220
1.002040 -8.267653 57.315140 240 202 217
1.009838 -7.833939 57.761173 244 201 216
1.007877 -7.694456 57.649014 246 203 218
1.007877 -7.570184 57.649014 246 202 217
1.011806 -7.474941 57.873768 244 199 216
1.013783 -7.364540 57.986801 244 198 216
1.009838 -7.211370 57.761173 246 198 217
1.009838 -7.086857 57.761173 246 196 216
1.003978 -6.921943 57.425999 247 195 215
1.011806 -6.851159 57.873768 248 193 214
1.011806 -6.726403 57.873768 248 191 212
1.007877 -6.576009 57.649014 246 187 207
1.005924 -6.439234 57.537292 245 185 204
1.005924 -6.315203 57.537292 247 187 206
1.005924 -6.191172 57.537292 247 186 205
1.005924 -6.067141 57.537292 240 179 199
1.005924 -5.943110 57.537292 232 172 192
1.005924 -5.819078 57.537292 231 170 191
1.007877 -5.706106 57.649014 233 172 193
1.009838 -5.592694 57.761173 237 174 196
1.005924 -5.446986 57.537292 239 175 196
1.002040 -5.302402 57.315140 238 173 195
1.003978 -5.188868 57.425999 236 171 193
1.002040 -5.055298 57.315140 237 171 192
1.003978 -4.941285 57.425999 239 172 194
1.005924 -4.826830 57.537292 244 175 196
1.003978 -4.693703 57.425999 247 178 197
1.007877 -4.587659 57.649014 247 179 197
1.009838 -4.472071 57.761173 245 177 195
1.005924 -4.330707 57.537292 243 175 192
1.009838 -4.223044 57.761173 240 172 189
1.007877 -4.090572 57.649014 238 171 187
1.005924 -3.958613 57.537292 240 174 190
1.007877 -3.842028 57.649014 247 184 199
1.005924 -3.710552 57.537292 252 191 207
1.003978 -3.579583 57.425999 252 191 207
1.005924 -3.462489 57.537292 252 192 208
1.005924 -3.338458 57.537292 252 194 211
1.003978 -3.208210 57.425999 249 188 206
1.002040 -3.078464 57.315140 248 190 206
1.003978 -2.960628 57.425999 251 211 225
1.000109 -2.825905 57.204704 254 225 238
1.002040 -2.707808 57.315140 253 213 227
1.002040 -2.584256 57.315140 249 194 209
1.000109 -2.455962 57.204704 246 184 198
1.000109 -2.332649 57.204704 246 184 197
1.000109 -2.209334 57.204704 249 190 204
0.998186 -2.082009 57.094696 252 195 210
0.998186 -1.958932 57.094696 250 192 207
1.000109 -1.839392 57.204704 247 185 199
1.002040 -1.719391 57.315140 248 190 203
1.002040 -1.595839 57.315140 251 206 219
1.002040 -1.472287 57.315140 252 210 222
1.003978 -1.351343 57.425999 251 202 214
1.003978 -1.227552 57.425999 253 210 221
1.003978 -1.103761 57.425999 254 221 232
1.003978 -0.979970 57.425999 241 196 209
1.003978 -0.856179 57.425999 225 165 182
1.003978 -0.732388 57.425999 228 167 184
1.003978 -0.608597 57.425999 234 174 191
1.002040 -0.483870 57.315140 233 173 190
1.000109 -0.359623 57.204704 233 173 189
0.998186 -0.235855 57.094696 231 170 187
0.996270 -0.112561 56.985111 231 169 186
0.994361 0.010260 56.875942 234 172 189
0.994361 0.132865 56.875942 238 178 195
0.994361 0.255470 56.875942 240 183 200
0.992460 0.377353 56.767193 233 177 193
0.994361 0.500681 56.875942 223 166 182
0.994361 0.623286 56.875942 224 167 183
0.994361 0.745892 56.875942 230 172 189
0.992460 0.866836 56.767193 231 173 191
0.994361 0.991102 56.875942 232 173 191
0.994361 1.113708 56.875942 232 172 191
1.000109 1.243459 57.204704 232 170 191
1.000109 1.366773 57.204704 232 168 189
1.005924 1.498751 57.537292 233 167 187
1.007877 1.625933 57.649014 236 168 188
1.013783 1.760460 57.986801 241 174 194
1.011806 1.881785 57.873768 245 179 199
1.011806 2.006541 57.873768 243 177 196
1.015766 2.139639 58.100277 241 173 192
1.017758 2.269325 58.214199 238 171 189
1.017758 2.394815 58.214199 235 164 183
1.019758 2.525256 58.328571 235 161 181
1.021765 2.656212 58.443390 237 163 183
1.023780 2.787683 58.558662 240 163 185
1.023780 2.913916 58.558662 242 164 187
1.023780 3.040149 58.558662 244 165 189
1.021765 3.160149 58.443390 245 165 189
1.021765 3.286133 58.443390 245 163 187
1.021765 3.412117 58.443390 241 159 183
1.021765 3.538101 58.443390 235 153 177
1.021765 3.664086 58.443390 229 149 172
1.019758 3.782624 58.328571 225 148 171
1.019758 3.908360 58.328571 223 151 172
1.019758 4.034097 58.328571 220 153 175
1.019758 4.159834 58.328571 218 155 177
1.017758 4.277168 58.214199 211 150 173
1.019758 4.411307 58.328571 203 144 167
1.019758 4.537044 58.328571 213 161 184
1.019758 4.662781 58.328571 238 202 223
1.021765 4.797944 58.443390 245 208 233
1.021765 4.923928 58.443390 231 172 203
1.023780 5.059873 58.558662 227 160 192
1.025804 5.196355 58.674393 239 185 213
1.025804 5.322837 58.674393 247 192 219
1.025804 5.449319 58.674393 249 188 213
1.023780 5.564804 58.558662 252 193 215
1.025804 5.702283 58.674393 250 183 200
1.023780 5.817269 58.558662 245 171 183
1.025804 5.955248 58.674393 248 178 188
1.025804 6.081730 58.674393 244 172 179
1.021765 6.183771 58.443390 229 154 158
1.023780 6.322200 58.558662 230 158 163
1.019758 6.423095 58.328571 244 181 186
1.187488 -11.720254 60.466888 212 197 217
1.187488 -11.589908 60.466888 211 195 216
1.187488 -11.459561 60.466888 210 193 215
1.182671 -11.283255 60.221588 209 191 214
1.185074 -11.176106 60.343987 210 190 214
1.180277 -11.001305 60.099682 211 190 214
1.173152 -10.806126 59.736904 212 189 213
1.161467 -10.571005 59.141918 215 191 214
1.154568 -10.381474 58.790577 218 193 215
1.154568 -10.254742 58.790577 220 195 216
1.152286 -10.107993 58.674393 220 195 215
1.150013 -9.961823 58.558662 221 194 213
1.150013 -9.835590 58.558662 223 195 214
1.150013 -9.709358 58.558662 227 198 215
1.145494 -9.545470 58.328571 230 199 216
1.138783 -9.364540 57.986801 231 198 216
1.125592 -9.132519 57.315140 232 199 216
1.121263 -8.974317 57.094696 233 200 217
1.121263 -8.851239 57.094696 235 201 218
1.123423 -8.744980 57.204704 235 200 217
1.123423 -8.621666 57.204704 237 202 219
1.121263 -8.482009 57.094696 242 207 224
1.132149 -7.818727 57.649014 243 200 214
1.129955 -7.679543 57.537292 245 202 216
1.127769 -7.540898 57.425999 246 202 217
1.132149 -7.445912 57.649014 246 201 218
1.136563 -7.350184 57.873768 246 200 218
1.134351 -7.211370 57.761173 244 198 216
1.132149 -7.073096 57.649014 244 196 215
1.127769 -6.921943 57.425999 245 195 215
1.134351 -6.837830 57.761173 247 194 214
1.134351 -6.713316 57.761173 247 191 212
1.132149 -6.576009 57.649014 246 188 209
1.129955 -6.439234 57.537292 246 186 206
1.129955 -6.315203 57.537292 247 187 206
1.129955 -6.191172 57.537292 245 185 204
1.129955 -6.067141 57.537292 237 177 197
1.127769 -5.931614 57.425999 231 170 191
1.127769 -5.807823 57.425999 229 168 189
1.129955 -5.695047 57.537292 232 169 191
1.132149 -5.581834 57.649014 237 173 195
1.129955 -5.446986 57.537292 238 174 195
1.125592 -5.302402 57.315140 237 172 193
1.127769 -5.188868 57.425999 237 171 192
1.125592 -5.055298 57.315140 240 173 195
1.127769 -4.941285 57.425999 244 176 197
1.129955 -4.826830 57.537292 246 178 199
1.127769 -4.693703 57.425999 249 181 200
1.132149 -4.587659 57.649014 249 182 201
1.134351 -4.472071 57.761173 246 179 198
1.129955 -4.330707 57.537292 241 174 192
1.134351 -4.223044 57.761173 238 172 189
1.129955 -4.082644 57.537292 237 171 188
1.129955 -3.958613 57.537292 240 175 191
1.132149 -3.842028 57.649014 247 183 198
1.132149 -3.717756 57.649014 250 187 201
1.129955 -3.586520 57.537292 248 187 201
1.129955 -3.462489 57.537292 250 196 210
1.132149 -3.344941 57.649014 251 206 220
1.127769 -3.208210 57.425999 248 194 209
1.127769 -3.084419 57.425999 246 186 200
1.129955 -2.966365 57.537292 250 203 215
1.125592 -2.831360 57.315140 253 215 225
1.125592 -2.707808 57.315140 253 204 216
1.125592 -2.584256 57.315140 251 192 204
1.123423 -2.455962 57.204704 250 187 199
1.123423 -2.332649 57.204704 250 188 200
1.121263 -2.205086 57.094696 252 191 203
1.121263 -2.082009 57.094696 251 190 203
1.121263 -1.958932 57.094696 248 185 199
1.123423 -1.839392 57.204704 245 180 193
1.125592 -1.719391 57.315140 248 191 203
1.125592 -1.595839 57.315140 253 213 225
1.125592 -1.472287 57.315140 250 214 224
1.127769 -1.351343 57.425999 245 194 204
1.127769 -1.227552 57.425999 248 196 206
1.127769 -1.103761 57.425999 252 207 219
1.127769 -0.979970 57.425999 241 188 202
1.127769 -0.856179 57.425999 226 164 180
1.127769 -0.732388 57.425999 227 164 181
1.127769 -0.608597 57.425999 230 168 185
1.125592 -0.483870 57.315140 229 167 184
1.123423 -0.359623 57.204704 229 167 184
1.121263 -0.235855 57.094696 229 165 183
1.119111 -0.112561 56.985111 231 166 184
1.116967 0.010260 56.875942 235 171 188
1.116967 0.132865 56.875942 240 179 195
1.116967 0.255470 56.875942 240 183 198
1.116967 0.378076 56.875942 232 174 189
1.116967 0.500681 56.875942 223 164 179
1.119111 0.624483 56.985111 225 166 181
1.116967 0.745892 56.875942 229 171 187
1.116967 0.868497 56.875942 229 171 188
1.116967 0.991102 56.875942 230 171 190
1.119111 1.115845 56.985111 231 171 190
1.125592 1.245860 57.315140 230 169 189
1.125592 1.369412 57.315140 230 166 187
1.132149 1.501661 57.649014 229 164 185
1.134351 1.629096 57.761173 233 166 186
1.141011 1.763905 58.100277 240 175 195
1.138783 1.885460 57.986801 243 181 201
1.136563 2.006541 57.873768 240 178 197
1.141011 2.139639 58.100277 240 178 196
1.143248 2.269325 58.214199 240 179 197
1.143248 2.394815 58.214199 233 166 185
1.145494 2.525256 58.328571 229 157 177
1.147749 2.656212 58.443390 233 159 179
1.150013 2.787683 58.558662 236 160 182
1.150013 2.913916 58.558662 239 161 185
1.150013 3.040149 58.558662 241 163 186
1.147749 3.160149 58.443390 243 163 187
1.150013 3.292614 58.558662 243 163 186
1.150013 3.418847 58.558662 242 161 185
1.147749 3.538101 58.443390 239 158 182
1.150013 3.671313 58.558662 235 156 180
1.147749 3.790070 58.443390 231 154 178
1.147749 3.916054 58.443390 227 154 178
1.145494 4.034097 58.328571 223 155 178
1.147749 4.168023 58.443390 222 156 180
1.145494 4.285571 58.328571 219 155 180
1.145494 4.411307 58.328571 217 153 180
1.143248 4.528148 58.214199 227 167 193
1.145494 4.662781 58.328571 243 194 219
1.147749 4.797944 58.443390 247 196 225
1.147749 4.923928 58.443390 238 171 204
1.147749 5.049912 58.443390 235 166 198
1.150013 5.186105 58.558662 245 190 219
1.150013 5.312338 58.558662 250 196 222
1.152286 5.449319 58.674393 247 179 203
1.147749 5.553849 58.443390 248 173 193
1.150013 5.691036 58.558662 250 170 186
1.150013 5.817269 58.558662 249 174 187
1.150013 5.943502 58.558662 251 187 195
1.317834 -11.589908 60.466888 210 194 215
1.315156 -11.436270 60.343987 211 193 215
1.309831 -11.260414 60.099682 212 193 216
1.315156 -11.176106 60.343987 213 192 216
1.309831 -11.001305 60.099682 215 192 216
1.301925 -10.806126 59.736904 216 192 216
1.291530 -10.592105 59.259964 218 193 216
1.286395 -10.422752 59.024338 219 193 216
1.288957 -10.316025 59.141918 220 194 216
1.283843 -10.148105 58.907227 220 195 214
1.281300 -10.001276 58.790577 222 194 213
1.283843 -9.894136 58.907227 225 196 215
1.281300 -9.747811 58.790577 229 198 217
1.278768 -9.602064 58.674393 231 199 218
1.271231 -9.419734 58.328571 232 200 219
1.249144 -9.132519 57.315140 233 200 219
1.246737 -8.991608 57.204704 234 201 220
1.244340 -8.851239 57.094696 236 201 220
1.246737 -8.744980 57.204704 236 201 220
1.246737 -8.621666 57.204704 239 203 221
1.244340 -8.482009 57.094696 244 208 226
1.246737 -8.375037 57.204704 245 210 225
1.246737 -8.251723 57.204704 242 204 220
1.251560 -7.912272 57.425999 240 199 213
1.253986 -7.803575 57.537292 243 202 216
1.251560 -7.664690 57.425999 246 204 218
1.246737 -7.511839 57.204704 246 204 218
1.251560 -7.417108 57.425999 246 203 218
1.256421 -7.321640 57.649014 245 201 217
1.256421 -7.197368 57.649014 244 199 215
1.249144 -7.032132 57.315140 244 197 214
1.246737 -6.895269 57.204704 245 196 214
1.251560 -6.798152 57.425999 246 195 213
1.251560 -6.674361 57.425999 248 193 212
1.253986 -6.563264 57.537292 248 191 210
1.251560 -6.426779 57.425999 247 189 208
1.251560 -6.302988 57.425999 246 187 206
1.251560 -6.179196 57.425999 243 184 203
1.253986 -6.067141 57.537292 238 178 198
1.251560 -5.931614 57.425999 233 173 193
1.251560 -5.807823 57.425999 233 171 192
1.253986 -5.695047 57.537292 234 171 193
1.253986 -5.571016 57.537292 237 173 195
1.253986 -5.446986 57.537292 239 174 195
1.251560 -5.312659 57.425999 237 172 193
1.251560 -5.188868 57.425999 237 171 192
1.251560 -5.065076 57.425999 242 177 198
1.251560 -4.941285 57.425999 247 181 203
1.256421 -4.836203 57.649014 249 182 202
1.253986 -4.702799 57.537292 249 182 201
1.258865 -4.596585 57.761173 249 182 202
1.258865 -4.472071 57.761173 246 180 199
1.253986 -4.330707 57.537292 241 176 194
1.258865 -4.223044 57.761173 240 176 194
1.253986 -4.082644 57.537292 242 181 198
1.253986 -3.958613 57.537292 245 186 201
1.256421 -3.842028 57.649014 247 187 202
1.256421 -3.717756 57.649014 246 181 195
1.253986 -3.586520 57.537292 242 180 193
1.253986 -3.462489 57.537292 246 198 210
1.256421 -3.344941 57.649014 251 215 227
1.251560 -3.208210 57.425999 250 202 215
1.251560 -3.084419 57.425999 248 187 199
1.253986 -2.966365 57.537292 250 193 204
1.249144 -2.831360 57.315140 252 197 207
1.249144 -2.707808 57.315140 252 191 201
1.246737 -2.579277 57.204704 251 185 196
1.246737 -2.455962 57.204704 251 185 196
1.244340 -2.328163 57.094696 251 187 198
1.244340 -2.205086 57.094696 252 187 199
1.241951 -2.078012 56.985111 250 183 197
1.241951 -1.955172 56.985111 247 179 192
1.244340 -1.835855 57.094696 244 175 188
1.246737 -1.716078 57.204704 248 189 201
1.246737 -1.592764 57.204704 253 213 224
1.249144 -1.472287 57.315140 248 207 217
1.251560 -1.351343 57.425999 237 179 190
1.251560 -1.227552 57.425999 240 178 189
1.251560 -1.103761 57.425999 246 188 201
1.251560 -0.979970 57.425999 239 178 192
1.253986 -0.857838 57.537292 228 163 179
1.251560 -0.732388 57.425999 227 162 179
1.253986 -0.609776 57.537292 227 162 180
1.251560 -0.484806 57.425999 226 162 180
1.249144 -0.360318 57.315140 226 162 179
1.246737 -0.236309 57.204704 227 163 180
1.241951 -0.112561 56.985111 231 165 182
1.239572 0.010260 56.875942 235 170 186
1.239572 0.132865 56.875942 236 173 188
1.239572 0.255470 56.875942 233 172 186
1.239572 0.378076 56.875942 225 165 178
1.239572 0.500681 56.875942 223 161 175
1.239572 0.623286 56.875942 226 165 180
1.237202 0.744466 56.767193 227 168 183
1.239572 0.868497 56.875942 225 167 183
1.239572 0.991102 56.875942 227 168 185
1.241951 1.115845 56.985111 228 169 187
1.249144 1.245860 57.315140 230 170 189
1.249144 1.369412 57.315140 233 173 193
1.256421 1.501661 57.649014 235 176 196
1.261319 1.632272 57.873768 238 176 196
1.266256 1.763905 58.100277 242 179 199
1.266256 1.889150 58.100277 241 178 198
1.263783 2.010460 57.986801 236 172 192
1.268739 2.143834 58.214199 239 177 196
1.268739 2.269325 58.214199 244 186 205
1.268739 2.394815 58.214199 239 178 198
1.271231 2.525256 58.328571 230 161 182
1.273733 2.656212 58.443390 229 156 177
1.276246 2.787683 58.558662 233 158 181
1.276246 2.913916 58.558662 238 162 186
1.273733 3.034164 58.443390 241 164 187
1.271231 3.153940 58.328571 242 164 187
1.273733 3.286133 58.443390 243 164 187
1.273733 3.412117 58.443390 243 164 187
1.273733 3.538101 58.443390 242 163 186
1.273733 3.664086 58.443390 240 161 185
1.273733 3.790070 58.443390 235 158 183
1.273733 3.916054 58.443390 230 155 181
1.271231 4.034097 58.328571 226 154 178
1.273733 4.168023 58.443390 225 154 179
1.271231 4.285571 58.328571 227 157 183
1.273733 4.419991 58.443390 231 160 188
1.271231 4.537044 58.328571 234 163 192
1.271231 4.662781 58.328571 238 167 197
1.273733 4.797944 58.443390 239 166 198
1.273733 4.923928 58.443390 240 161 194
1.273733 5.049912 58.443390 245 173 203
1.276246 5.186105 58.558662 251 196 221
1.273733 5.301881 58.443390 249 189 213
1.276246 5.438571 58.558662 242 164 185
1.442306 -11.413072 60.221588 212 193 215
1.436478 -11.237666 59.978268 214 193 216
1.442306 -11.153438 60.221588 216 193 217
1.433582 -10.956944 59.857342 217 193 217
1.430697 -10.806126 59.736904 218 194 217
1.422113 -10.613289 59.378483 219 194 216
1.419275 -10.464360 59.259964 220 195 216
1.419275 -10.336616 59.259964 221 195 215
1.413631 -10.168280 59.024338 221 195 214
1.413631 -10.041043 59.024338 223 196 214
1.416448 -9.933555 59.141918 226 197 215
1.413631 -9.786570 59.024338 227 197 216
1.408033 -9.621078 58.790577 229 198 217
1.399718 -9.438276 58.443390 232 200 219
1.375351 -9.150183 57.425999 233 201 220
1.370051 -8.991608 57.204704 235 202 222
1.367417 -8.851239 57.094696 237 203 223
1.370051 -8.744980 57.204704 238 203 223
1.370051 -8.621666 57.204704 240 204 224
1.370051 -8.498352 57.204704 242 206 225
1.370051 -8.375037 57.204704 243 206 224
1.372696 -8.267653 57.315140 242 203 220
1.372696 -8.144101 57.315140 240 201 217
1.375351 -8.036063 57.425999 240 200 216
1.372696 -7.896997 57.315140 242 203 218
1.375351 -7.788481 57.425999 247 208 222
1.372696 -7.649893 57.315140 248 209 223
1.370051 -7.511839 57.204704 247 206 219
1.370051 -7.388525 57.204704 245 204 217
1.375351 -7.293316 57.425999 244 202 216
1.378017 -7.183420 57.537292 244 200 215
1.370051 -7.018583 57.204704 244 198 215
1.370051 -6.895269 57.204704 246 197 215
1.372696 -6.785028 57.315140 248 196 215
1.372696 -6.661476 57.315140 249 196 214
1.375351 -6.550570 57.425999 249 194 212
1.375351 -6.426779 57.425999 247 190 209
1.375351 -6.302988 57.425999 245 187 206
1.375351 -6.179196 57.425999 242 184 203
1.375351 -6.055405 57.425999 240 180 200
1.372696 -5.920163 57.315140 237 177 197
1.372696 -5.796611 57.315140 237 175 196
1.375351 -5.684032 57.425999 238 174 195
1.378017 -5.571016 57.537292 239 174 194
1.375351 -5.436450 57.425999 239 174 194
1.375351 -5.312659 57.425999 239 173 193
1.375351 -5.188868 57.425999 239 175 196
1.375351 -5.065076 57.425999 245 184 205
1.378017 -4.950861 57.537292 250 191 212
1.383379 -4.845612 57.761173 250 188 208
1.378017 -4.702799 57.537292 247 182 202
1.386075 -4.605545 57.873768 245 179 199
1.386075 -4.480789 57.873768 243 178 198
1.380692 -4.339116 57.649014 241 177 197
1.383379 -4.223044 57.761173 244 184 203
1.380692 -4.090572 57.649014 249 199 216
1.380692 -3.966300 57.649014 251 206 222
1.380692 -3.842028 57.649014 248 194 209
1.380692 -3.717756 57.649014 241 176 192
1.378017 -3.586520 57.537292 238 175 190
1.380692 -3.469213 57.649014 245 199 214
1.380692 -3.344941 57.649014 252 217 231
1.378017 -3.214427 57.537292 253 204 217
1.375351 -3.084419 57.425999 251 185 197
1.378017 -2.966365 57.537292 250 180 192
1.372696 -2.831360 57.315140 250 181 192
1.370051 -2.702591 57.204704 250 181 191
1.370051 -2.579277 57.204704 250 181 191
1.367417 -2.451240 57.094696 250 180 192
1.367417 -2.328163 57.094696 250 180 193
1.364792 -2.200853 56.985111 250 179 193
1.364792 -2.078012 56.985111 250 177 191
1.364792 -1.955172 56.985111 248 176 190
1.364792 -1.832331 56.985111 247 175 189
1.370051 -1.716078 57.204704 250 187 199
1.367417 -1.589701 57.094696 254 204 215
1.370051 -1.469450 57.204704 246 193 205
1.372696 -1.348735 57.315140 232 167 179
1.372696 -1.225183 57.315140 233 164 175
1.375351 -1.103761 57.425999 241 172 185
1.375351 -0.979970 57.425999 237 170 184
1.378017 -0.857838 57.537292 230 163 179
1.375351 -0.732388 57.425999 228 162 179
1.378017 -0.609776 57.537292 226 160 177
1.378017 -0.485745 57.537292 224 158 176
1.372696 -0.360318 57.315140 224 158 175
1.370051 -0.236309 57.204704 227 160 177
1.367417 -0.112778 57.094696 231 163 180
1.364792 0.010279 56.985111 233 167 183
1.364792 0.133120 56.985111 233 167 182
1.362177 0.255470 56.875942 226 162 175
1.362177 0.378076 56.875942 222 158 171
1.362177 0.500681 56.875942 222 159 172
1.362177 0.623286 56.875942 224 162 176
1.359573 0.744466 56.767193 225 164 178
1.362177 0.868497 56.875942 225 167 182
1.362177 0.991102 56.875942 228 172 188
1.364792 1.115845 56.985111 231 174 191
1.372696 1.245860 57.315140 234 177 194
1.370051 1.366773 57.204704 240 189 207
1.380692 1.501661 57.649014 246 201 220
1.386075 1.632272 57.873768 248 198 218
1.391500 1.763905 58.100277 246 188 208
1.391500 1.889150 58.100277 240 178 199
1.388783 2.010460 57.986801 233 168 189
1.394229 2.143834 58.214199 234 170 191
1.394229 2.269325 58.214199 242 184 205
1.394229 2.394815 58.214199 245 185 208
1.396968 2.525256 58.328571 235 168 191
1.396968 2.650993 58.328571 228 155 178
1.402479 2.787683 58.558662 231 157 181
1.399718 2.908180 58.443390 237 163 186
1.396968 3.028203 58.328571 241 165 188
1.394229 3.147756 58.214199 242 166 188
1.396968 3.279677 58.328571 244 168 190
1.399718 3.412117 58.443390 246 170 192
1.399718 3.538101 58.443390 246 168 191
1.402479 3.671313 58.558662 244 164 188
1.399718 3.790070 58.443390 240 161 185
1.402479 3.923778 58.558662 234 156 182
1.399718 4.042038 58.443390 227 150 176
1.399718 4.168023 58.443390 225 147 175
1.396968 4.285571 58.328571 232 155 183
1.399718 4.419991 58.443390 240 166 195
1.396968 4.537044 58.328571 238 162 192
1.396968 4.662781 58.328571 230 148 179
1.399718 4.797944 58.443390 228 142 174
1.396968 4.914254 58.328571 236 148 179
1.556339 -11.169969 59.616951 215 193 216
1.559470 -11.063671 59.736904 217 193 217
1.553220 -10.891071 59.497478 219 194 217
1.553220 -10.762815 59.497478 220 194 217
1.547019 -10.592105 59.259964 221 195 216
1.543938 -10.443515 59.141918 223 196 216
1.540868 -10.295516 59.024338 224 197 216
1.537811 -10.148105 58.907227 224 197 215
1.540868 -10.041043 59.024338 226 197 214
1.540868 -9.913806 59.024338 228 198 216
1.537811 -9.767152 58.907227 229 198 217
1.534766 -9.621078 58.790577 231 199 219
1.522705 -9.419734 58.328571 233 200 221
1.502048 -9.167915 57.537292 235 201 223
1.493365 -8.991608 57.204704 236 202 224
1.490494 -8.851239 57.094696 239 204 225
1.490494 -8.728163 57.094696 240 205 226
1.493365 -8.621666 57.204704 240 204 226
1.493365 -8.498352 57.204704 241 204 224
1.493365 -8.375037 57.204704 242 203 222
1.493365 -8.251723 57.204704 241 201 220
1.496248 -8.144101 57.315140 239 201 218
1.496248 -8.020549 57.315140 240 202 218
1.496248 -7.896997 57.315140 246 210 225
1.496248 -7.773445 57.315140 251 216 231
1.496248 -7.649893 57.315140 250 214 228
1.493365 -7.511839 57.204704 247 208 222
1.493365 -7.388525 57.204704 244 204 217
1.499142 -7.293316 57.425999 242 201 215
1.502048 -7.183420 57.537292 243 200 214
1.496248 -7.032132 57.315140 245 200 216
1.493365 -6.895269 57.204704 248 200 218
1.496248 -6.785028 57.315140 249 200 218
1.496248 -6.661476 57.315140 250 199 217
1.499142 -6.550570 57.425999 249 196 215
1.499142 -6.426779 57.425999 247 191 210
1.499142 -6.302988 57.425999 244 187 205
1.499142 -6.179196 57.425999 242 184 203
1.499142 -6.055405 57.425999 241 183 202
1.496248 -5.920163 57.315140 241 181 201
1.493365 -5.785442 57.204704 241 179 199
1.499142 -5.684032 57.425999 242 177 197
1.502048 -5.571016 57.537292 240 176 195
1.499142 -5.436450 57.425999 240 176 194
1.496248 -5.302402 57.315140 242 180 200
1.499142 -5.188868 57.425999 246 188 208
1.499142 -5.065076 57.425999 250 195 216
1.502048 -4.950861 57.537292 253 197 218
1.504964 -4.836203 57.649014 251 191 211
1.502048 -4.702799 57.537292 246 181 201
1.510832 -4.605545 57.873768 241 175 196
1.510832 -4.480789 57.873768 239 174 194
1.504964 -4.339116 57.649014 240 177 197
1.510832 -4.231276 57.873768 246 187 207
1.504964 -4.090572 57.649014 252 207 225
1.507892 -3.974017 57.761173 252 216 232
1.507892 -3.849503 57.761173 244 195 211
1.507892 -3.724989 57.761173 235 171 189
1.504964 -3.593485 57.649014 238 176 195
1.504964 -3.469213 57.649014 247 199 218
1.507892 -3.351449 57.761173 253 208 225
1.502048 -3.214427 57.537292 253 195 210
1.499142 -3.084419 57.425999 251 179 193
1.502048 -2.966365 57.537292 249 173 187
1.496248 -2.831360 57.315140 250 176 187
1.493365 -2.702591 57.204704 251 180 191
1.490494 -2.574317 57.094696 250 180 192
1.490494 -2.451240 57.094696 249 176 190
1.490494 -2.328163 57.094696 248 173 188
1.484783 -2.196637 56.875942 249 172 188
1.487633 -2.078012 56.985111 250 173 188
1.484783 -1.951426 56.875942 251 174 189
1.487633 -1.832331 56.985111 251 176 189
1.490494 -1.712778 57.094696 252 183 195
1.490494 -1.589701 57.094696 253 189 202
1.493365 -1.469450 57.204704 245 180 192
1.496248 -1.348735 57.315140 233 162 174
1.496248 -1.225183 57.315140 232 159 171
1.496248 -1.101630 57.315140 238 166 179
1.499142 -0.979970 57.425999 237 167 181
1.502048 -0.857838 57.537292 234 164 180
1.499142 -0.732388 57.425999 230 162 178
1.502048 -0.609776 57.537292 226 157 174
1.499142 -0.484806 57.425999 224 155 172
1.499142 -0.361015 57.425999 223 155 172
1.496248 -0.236766 57.315140 226 156 174
1.490494 -0.112778 57.094696 229 159 177
1.487633 0.010279 56.985111 230 161 178
1.487633 0.133120 56.985111 228 160 176
1.484783 0.255470 56.875942 224 157 171
1.484783 0.378076 56.875942 222 155 168
1.484783 0.500681 56.875942 221 156 168
1.484783 0.623286 56.875942 222 158 170
1.484783 0.745892 56.875942 226 166 178
1.484783 0.868497 56.875942 232 181 194
1.487633 0.993005 56.985111 238 196 208
1.487633 1.115845 56.985111 241 197 211
1.493365 1.243459 57.204704 240 190 206
1.493365 1.366773 57.204704 243 200 216
1.504964 1.501661 57.649014 250 217 234
1.510832 1.632272 57.873768 251 211 231
1.519719 1.767364 58.214199 247 193 214
1.516745 1.889150 58.100277 240 179 202
1.516745 2.014394 58.100277 230 167 190
1.519719 2.143834 58.214199 227 162 185
1.519719 2.269325 58.214199 236 172 196
1.519719 2.394815 58.214199 243 178 202
1.522705 2.525256 58.328571 237 167 191
1.522705 2.650993 58.328571 229 157 180
1.525702 2.782196 58.443390 230 158 181
1.522705 2.902467 58.328571 235 162 185
1.522705 3.028203 58.328571 238 164 187
1.516745 3.141596 58.100277 239 164 187
1.519719 3.273246 58.214199 243 168 191
1.525702 3.412117 58.443390 248 172 196
1.525702 3.538101 58.443390 248 171 196
1.528711 3.671313 58.558662 246 167 192
1.525702 3.790070 58.443390 243 162 188
1.528711 3.923778 58.558662 238 156 182
1.525702 4.042038 58.443390 230 146 174
1.525702 4.168023 58.443390 226 142 171
1.522705 4.285571 58.328571 234 151 181
1.525702 4.419991 58.443390 245 171 200
1.522705 4.537044 58.328571 245 172 202
1.674764 -10.975338 59.259964 220 194 217
1.671428 -10.825985 59.141918 221 195 217
1.674764 -10.719850 59.259964 222 194 215
1.671428 -10.571005 59.141918 222 194 214
1.668105 -10.422752 59.024338 224 196 215
1.664795 -10.275088 58.907227 225 197 215
1.664795 -10.148105 58.907227 226 197 214
1.664795 -10.021120 58.907227 227 196 213
1.664795 -9.894136 58.907227 230 198 216
1.664795 -9.767152 58.907227 233 201 219
1.661498 -9.621078 58.790577 235 202 222
1.648441 -9.419734 58.328571 237 204 224
1.629236 -9.185718 57.649014 238 203 225
1.619800 -9.008966 57.315140 237 202 226
1.613570 -8.851239 57.094696 239 204 228
1.613570 -8.728163 57.094696 241 205 229
1.616679 -8.621666 57.204704 241 204 227
1.616679 -8.498352 57.204704 240 202 224
1.616679 -8.375037 57.204704 240 201 222
1.616679 -8.251723 57.204704 240 200 220
1.616679 -8.128409 57.204704 240 200 219
1.619800 -8.020549 57.315140 243 205 222
1.616679 -7.881782 57.204704 248 213 229
1.619800 -7.773445 57.315140 251 218 233
1.619800 -7.649893 57.315140 249 214 229
1.616679 -7.511839 57.204704 246 207 222
1.619800 -7.402789 57.315140 243 203 217
1.622934 -7.293316 57.425999 241 200 214
1.629236 -7.197368 57.649014 242 199 214
1.622934 -7.045734 57.425999 245 201 217
1.619800 -6.908580 57.315140 248 202 219
1.622934 -6.798152 57.425999 250 201 219
1.622934 -6.674361 57.425999 251 200 219
1.626079 -6.563264 57.537292 250 197 217
1.622934 -6.426779 57.425999 247 191 211
1.622934 -6.302988 57.425999 243 186 205
1.622934 -6.179196 57.425999 243 186 205
1.622934 -6.055405 57.425999 245 188 206
1.616679 -5.908756 57.204704 245 187 206
1.616679 -5.785442 57.204704 244 184 203
1.622934 -5.684032 57.425999 242 180 199
1.622934 -5.560241 57.425999 240 177 195
1.622934 -5.436450 57.425999 240 179 196
1.619800 -5.302402 57.315140 246 191 209
1.619800 -5.178851 57.315140 251 200 220
1.619800 -5.055298 57.315140 252 198 218
1.622934 -4.941285 57.425999 251 191 212
1.629236 -4.836203 57.649014 249 185 205
1.622934 -4.693703 57.425999 244 178 199
1.632406 -4.596585 57.761173 241 175 196
1.635588 -4.480789 57.873768 241 177 197
1.629236 -4.339116 57.649014 244 180 201
1.635588 -4.231276 57.873768 247 186 207
1.629236 -4.090572 57.649014 250 198 218
1.632406 -3.974017 57.761173 249 202 222
1.632406 -3.849503 57.761173 241 185 205
1.632406 -3.724989 57.761173 236 168 190
1.632406 -3.600476 57.761173 242 178 200
1.629236 -3.469213 57.649014 251 195 216
1.632406 -3.351449 57.761173 254 194 214
1.626079 -3.214427 57.537292 253 182 200
1.622934 -3.084419 57.425999 250 173 189
1.622934 -2.960628 57.425999 249 170 185
1.619800 -2.831360 57.315140 250 174 187
1.616679 -2.702591 57.204704 252 181 193
1.613570 -2.574317 57.094696 251 180 194
1.613570 -2.451240 57.094696 247 172 188
1.610473 -2.323694 56.985111 246 168 185
1.607388 -2.196637 56.875942 249 169 186
1.610473 -2.078012 56.985111 252 171 188
1.607388 -1.951426 56.875942 251 171 187
1.607388 -1.828821 56.875942 249 170 185
1.610473 -1.709490 56.985111 248 171 184
1.610473 -1.586650 56.985111 245 170 184
1.613570 -1.466624 57.094696 241 164 178
1.616679 -1.346136 57.204704 235 158 172
1.616679 -1.222822 57.204704 234 158 171
1.616679 -1.099508 57.204704 236 162 175
1.619800 -0.978078 57.315140 237 164 178
1.622934 -0.856179 57.425999 236 163 178
1.619800 -0.730974 57.315140 230 158 173
1.622934 -0.608597 57.425999 223 151 167
1.622934 -0.484806 57.425999 221 149 166
1.619800 -0.360318 57.315140 222 149 167
1.619800 -0.236766 57.315140 224 152 170
1.616679 -0.112995 57.204704 226 154 173
1.613570 0.010299 57.094696 226 154 172
1.613570 0.133376 57.094696 225 154 171
1.607388 0.255470 56.875942 223 153 169
1.607388 0.378076 56.875942 222 153 166
1.607388 0.500681 56.875942 220 152 164
1.607388 0.623286 56.875942 222 158 169
1.607388 0.745892 56.875942 234 179 190
1.610473 0.870164 56.985111 245 206 217
1.610473 0.993005 56.985111 249 225 235
1.613570 1.117991 57.094696 250 220 232
1.616679 1.243459 57.204704 244 199 214
1.616679 1.366773 57.204704 241 195 211
1.629236 1.501661 57.649014 246 208 225
1.638783 1.635460 57.986801 247 204 223
1.645209 1.767364 58.214199 242 186 209
1.645209 1.892854 58.214199 237 175 200
1.641989 2.014394 58.100277 229 165 190
1.641989 2.139639 58.100277 224 158 183
1.645209 2.269325 58.214199 229 162 187
1.645209 2.394815 58.214199 235 166 191
1.648441 2.525256 58.328571 232 162 186
1.648441 2.650993 58.328571 228 157 180
1.654944 2.787683 58.558662 229 157 180
1.651686 2.908180 58.443390 233 160 183
1.648441 3.028203 58.328571 233 160 183
1.645209 3.147756 58.214199 233 159 182
1.648441 3.279677 58.328571 236 161 184
1.654944 3.418847 58.558662 240 164 189
